VERSION 0.7
FIELDS x y z rgba
SIZE 4 4 4 4
TYPE F F F U
COUNT 1 1 1 1
WIDTH 920
HEIGHT 1
VIEWPOINT 0.0 0.0 0.0 1.0 0.0 0.0 0.0
POINTS 920
DATA ascii
-0.3305025697 -0.1397348195 0.6403110623 4284639601
-0.3211058974 -0.1350707412 0.6221060157 4286876563
-0.3198134005 -0.1338386536 0.6196019650 4291153108
-0.3332952261 -0.1344585568 0.6457214355 4287862429
-0.3320006728 -0.1332216561 0.6432134509 4284243814
-0.3365705609 -0.1343309134 0.6520670652 4283651677
-0.3397879899 -0.1348836273 0.6583004594 4282138438
-0.3412009478 -0.1347100586 0.6610379219 4281348920
-0.3421626687 -0.1343532205 0.6629011631 4282072643
-0.3426729441 -0.1338159591 0.6638897061 4290626246
-0.3168874681 -0.1629783064 0.6152572036 4290495178
-0.3160655797 -0.1618738025 0.6136614680 4283060569
-0.3161348701 -0.1612273008 0.6137959957 4280560435
-0.3170958459 -0.1610333622 0.6156617999 4284770417
-0.3180570006 -0.1608353406 0.6175279021 4291283924
-0.3336945176 -0.1593848914 0.6478891969 4288125860
-0.3337631822 -0.1586976796 0.6480225325 4288652204
-0.3333840966 -0.1577982455 0.6472864747 4287796636
-0.3330045342 -0.1569002271 0.6465495229 4290757321
-0.3326245248 -0.1560036391 0.6458117366 4288191394
-0.3326918483 -0.1553175151 0.6459423900 4286809741
-0.3323110342 -0.1544228643 0.6452030540 4287994017
-0.3319297731 -0.1535296589 0.6444627643 4288388775
-0.3319960833 -0.1528441459 0.6445915699 4290494408
-0.3332197666 -0.1447815895 0.6469674706 4289836995
-0.3328334689 -0.1438957304 0.6462174058 4288257963
-0.3333452046 -0.1433978826 0.6472109556 4288850355
-0.3325088322 -0.1423207968 0.6455870867 4288192425
-0.3312224150 -0.1410556734 0.6430894136 4286350219
-0.3299352229 -0.1397957653 0.6405902505 4285560703
-0.3205547035 -0.1351296753 0.6223773956 4286217863
-0.3183651567 -0.1335198879 0.6181262732 4290494408
-0.3277709484 -0.1325150877 0.6363881826 4289441459
-0.3345834911 -0.1345475614 0.6496151686 4284441191
-0.3332910240 -0.1333088428 0.6471057534 4283849054
-0.3378539383 -0.1344050765 0.6559649110 4282335815
-0.3397148252 -0.1344125420 0.6595779657 4281743933
-0.3406747878 -0.1340574622 0.6614418030 4281349175
-0.3411840796 -0.1335218549 0.6624306440 4289441972
-0.3146290779 -0.1614863127 0.6121925712 4285428347
-0.3142529726 -0.1606138945 0.6114607453 4280362286
-0.3152120709 -0.1604226530 0.6133269072 4283256921
-0.3161713183 -0.1602273136 0.6151933670 4289638842
-0.3315029740 -0.1615469754 0.6450250745 4291481303
-0.3320186138 -0.1610804647 0.6460283995 4290625994
-0.3320878446 -0.1603961140 0.6461631060 4289309877
-0.3317103386 -0.1594966799 0.6454285979 4290165186
-0.3317789435 -0.1588123888 0.6455620527 4289375670
-0.3318472505 -0.1581276804 0.6456949711 4288388775
-0.3319153190 -0.1574425548 0.6458274126 4287994017
-0.3315362930 -0.1565460265 0.6450899243 4290033600
-0.3311568201 -0.1556509286 0.6443516016 4288915119
-0.3312239051 -0.1549663842 0.6444820762 4286349192
-0.3308435977 -0.1540732235 0.6437421441 4287401880
-0.3309100568 -0.1533887833 0.6438714266 4288059810
-0.3305289745 -0.1524975598 0.6431299448 4288060067
-0.3301474154 -0.1516077965 0.6423875690 4290494408
-0.3322601616 -0.1439583153 0.6464983821 4289903043
-0.3323225975 -0.1432669312 0.6466199160 4288455597
-0.3314876258 -0.1421903223 0.6449952722 4288718769
-0.3306520581 -0.1411170810 0.6433694363 4288060837
-0.3289183974 -0.1396661103 0.6399961710 4285560703
-0.3200028241 -0.1351885498 0.6226485968 4286744207
-0.3182659745 -0.1337667406 0.6192691326 4290494408
-0.3165282309 -0.1323520690 0.6158878207 4292139233
-0.3258586824 -0.1320266724 0.6340426803 4291217870
-0.3290629685 -0.1326135546 0.6402774453 4284835949
-0.3358650506 -0.1346287131 0.6535126567 4284111711
-0.3372728229 -0.1344638765 0.6562518477 4282927437
-0.3391305804 -0.1344713569 0.6598665714 4282533449
-0.3391892314 -0.1337613314 0.6599807143 4281217589
-0.3396975398 -0.1332273930 0.6609697938 4287862940
-0.3127506971 -0.1608698815 0.6098556519 4287402137
-0.3128193617 -0.1602274477 0.6099895239 4280822837
-0.3133322299 -0.1598112881 0.6109895706 4282204233
-0.3142895699 -0.1596186459 0.6128563881 4287467673
-0.3280485570 -0.1623420119 0.6396860480 4290691787
-0.3290085196 -0.1621042639 0.6415579319 4288586411
-0.3299686015 -0.1618624032 0.6434301138 4286217863
-0.3300380111 -0.1611814052 0.6435654163 4284638831
-0.3305526376 -0.1607165635 0.6445689797 4283651936
-0.3301760256 -0.1598181129 0.6438345909 4283191385
-0.3302446306 -0.1591358334 0.6439683437 4286020484
-0.3303129971 -0.1584531218 0.6441016793 4289573049
-0.3303810656 -0.1577699929 0.6442344189 4287204501
-0.3304488957 -0.1570864469 0.6443666220 4288717740
-0.3305164278 -0.1564024687 0.6444983482 4288125603
-0.3301375806 -0.1555079371 0.6437596083 4289309877
-0.3302045166 -0.1548240483 0.6438901424 4285230711
-0.3302711844 -0.1541397423 0.6440200806 4285033332
-0.3298911452 -0.1532476693 0.6432790756 4285691262
-0.3295106888 -0.1523570120 0.6425371766 4285428347
-0.3291297853 -0.1514678150 0.6417944431 4289244341
-0.3287484348 -0.1505800635 0.6410508156 4290166215
-0.3308530748 -0.1429423243 0.6451548338 4289442492
-0.3304672241 -0.1420596391 0.6444023848 4287929253
-0.3296330571 -0.1409868747 0.6427758336 4288784560
-0.3283503354 -0.1397268474 0.6402745247 4286613391
-0.3212423623 -0.1360061169 0.6264141202 4285823105
-0.3186126649 -0.1342024803 0.6212863326 4288783790
-0.3164299130 -0.1325975209 0.6170300245 4291415510
-0.3146943450 -0.1311884373 0.6136457324 4291612889
-0.3275976479 -0.1323089600 0.6388068199 4285954430
-0.3312459886 -0.1330647618 0.6459209323 4283849309
-0.3339974284 -0.1334464252 0.6512862444 4283322965
-0.3358515501 -0.1334595829 0.6549017429 4282928207
-0.3372569382 -0.1332873702 0.6576421857 4281217589
-0.3377642035 -0.1327560544 0.6586312652 4286349701
-0.3117631972 -0.1607099921 0.6092495322 4289310134
-0.3113881350 -0.1598405540 0.6085165739 4281875525
-0.3118999600 -0.1594260633 0.6095167994 4281085752
-0.3128555119 -0.1592351943 0.6113841534 4284901746
-0.3133673370 -0.1588152945 0.6123843789 4291217874
-0.3160988986 -0.1595133394 0.6177223921 4291875804
-0.3192754388 -0.1604230702 0.6239299774 4290756553
-0.3224530518 -0.1613195688 0.6301397085 4288651177
-0.3247432411 -0.1617602259 0.6346151829 4285954691
-0.3261454403 -0.1617505401 0.6373553872 4284573038
-0.3271035254 -0.1615154594 0.6392276883 4283520350
-0.3280617297 -0.1612762809 0.6411002278 4283388764
-0.3285754025 -0.1608153880 0.6421040297 4283783522
-0.3286443055 -0.1601355374 0.6422386765 4283717729
-0.3287129402 -0.1594552547 0.6423727870 4282928213
-0.3287813067 -0.1587745547 0.6425064206 4284309866
-0.3288494051 -0.1580934227 0.6426395178 4289638842
-0.3293623328 -0.1576248854 0.6436418891 4286612364
-0.3294299841 -0.1569419801 0.6437740922 4287928224
-0.3290521204 -0.1560475081 0.6430356503 4285757055
-0.3291191757 -0.1553646922 0.6431666613 4289441463
-0.3291859329 -0.1546814740 0.6432971954 4285822848
-0.3292524517 -0.1539978236 0.6434271336 4283651679
-0.3288730681 -0.1531063169 0.6426857710 4283585886
-0.3289389610 -0.1524227709 0.6428145170 4283981671
-0.3281129599 -0.1513275951 0.6412003040 4287139735
-0.3277322352 -0.1504404098 0.6404563189 4289771455
-0.3277970254 -0.1497584283 0.6405829787 4290692557
-0.3290006220 -0.1417361498 0.6429350376 4289114040
-0.3286148906 -0.1408564597 0.6421812177 4288258218
-0.3277815282 -0.1397875547 0.6405526400 4288718769
-0.3211331666 -0.1362549961 0.6275603771 4284902775
-0.3185081780 -0.1344496459 0.6224305630 4286481807
-0.3172241747 -0.1332188696 0.6199213862 4288126630
-0.3145969212 -0.1314324737 0.6147871614 4287995044
-0.3151015043 -0.1309591234 0.6157733202 4291481303
-0.3261346817 -0.1320039928 0.6373344064 4287665048
-0.3297765851 -0.1327620298 0.6444514394 4283585882
-0.3320750594 -0.1329663247 0.6489430666 4283717468
-0.3339257836 -0.1329823285 0.6525597572 4283059538
-0.3353285491 -0.1328128874 0.6553010941 4281217334
-0.3358347416 -0.1322841793 0.6562902927 4285099634
-0.3107765615 -0.1605498642 0.6086424589 4290560201
-0.3108448982 -0.1599087864 0.6087763309 4282928213
-0.3113558888 -0.1594941467 0.6097770929 4280427822
-0.3118668497 -0.1590772718 0.6107777953 4282796370
-0.3119346499 -0.1584330946 0.6109105945 4286875536
-0.3146613240 -0.1591332853 0.6162506342 4285164918
-0.3178321719 -0.1600452662 0.6224606037 4284111460
-0.3210041225 -0.1609440148 0.6286727190 4283453530
-0.3228467107 -0.1611653417 0.6322813630 4283651936
-0.3242462575 -0.1611584276 0.6350222826 4283915108
-0.3256461024 -0.1611455828 0.6377638578 4283783522
-0.3261587322 -0.1606895477 0.6387678385 4283783522
-0.3266713023 -0.1602312475 0.6397716999 4284507245
-0.3271838129 -0.1597706825 0.6407753825 4285625726
-0.3272522092 -0.1590919793 0.6409093142 4286152070
-0.3273203075 -0.1584128588 0.6410427094 4286546828
-0.3273881674 -0.1577333063 0.6411756277 4288717997
-0.3274557889 -0.1570533365 0.6413080096 4286678414
-0.3279674947 -0.1565851122 0.6423102021 4284441195
-0.3280346692 -0.1559033841 0.6424417496 4284243816
-0.3276569843 -0.1550108939 0.6417020559 4287796638
-0.3277235031 -0.1543292552 0.6418323517 4288059810
-0.3277897835 -0.1536471993 0.6419621706 4284309609
-0.3274109364 -0.1527571678 0.6412202120 4283125335
-0.3274765909 -0.1520752162 0.6413487792 4283389534
-0.3270969391 -0.1511871517 0.6406052113 4285494910
-0.3267168403 -0.1503005326 0.6398608088 4290429385
-0.3267048895 -0.1403423697 0.6398374438 4289047734
-0.3263191879 -0.1394666135 0.6390820146 4288981941
-0.3214682043 -0.1366938353 0.6295816302 4286152842
-0.3184013963 -0.1346969455 0.6235753894 4285231740
-0.3171197772 -0.1334647089 0.6210653782 4284771187
-0.3158373833 -0.1322377473 0.6185538769 4283981671
-0.3154478669 -0.1313882470 0.6177910566 4288783790
-0.3246740997 -0.1316986531 0.6358602047 4289244593
-0.3283095658 -0.1324589401 0.6429801583 4283520089
-0.3306039274 -0.1326652169 0.6474735141 4283651675
-0.3320038915 -0.1325045675 0.6502153277 4282993745
-0.3334040344 -0.1323378831 0.6529574394 4281546299
-0.3343567848 -0.1319884956 0.6548233032 4283981153
-0.3344141841 -0.1312834769 0.6549357176 4291876313
-0.3097907603 -0.1603894830 0.6080344319 4290230979
-0.3098589480 -0.1597490609 0.6081683040 4283717472
-0.3103690147 -0.1593351960 0.6091694236 4279901735
-0.3108790517 -0.1589190811 0.6101704240 4281349181
-0.3113889992 -0.1585007161 0.6111713648 4284901492
-0.3136685491 -0.1589770168 0.6156454682 4283519839
-0.3168338239 -0.1598903388 0.6218580604 4283585118
-0.3200001717 -0.1607903987 0.6280727386 4284111462
-0.3218395114 -0.1610127687 0.6316828132 4283915108
-0.3232365847 -0.1610068083 0.6344248652 4284902003
-0.3241910636 -0.1607752740 0.6362982392 4286415244
-0.3247026801 -0.1603209078 0.6373023987 4288257448
-0.3252142072 -0.1598642766 0.6383064389 4290297031
-0.3257256746 -0.1594053805 0.6393103600 4291547098
-0.3257938325 -0.1587282717 0.6394440532 4292007390
-0.3258616924 -0.1580507159 0.6395772696 4291481046
-0.3263727725 -0.1575868577 0.6405803561 4289244084
-0.3259966671 -0.1566943675 0.6398422122 4287665052
-0.3265073895 -0.1562278122 0.6408445835 4283190874
-0.3265742958 -0.1555476636 0.6409759521 4284572527
-0.3261971474 -0.1546566784 0.6402356625 4285888387
-0.3262634575 -0.1539766192 0.6403657794 4289572795
-0.3263294697 -0.1532961428 0.6404954195 4286941329
-0.3263952434 -0.1526152641 0.6406244636 4284506988
-0.3260165751 -0.1517272443 0.6398812532 4284508015
-0.3260817230 -0.1510464698 0.6400091052 4285955461
-0.3257022500 -0.1501604319 0.6392643452 4289574076
-0.3256898820 -0.1402113438 0.6392400861 4290625996
-0.3253048360 -0.1393361688 0.6384842992 4288717999
-0.3213536739 -0.1369430125 0.6307292581 4287929251
-0.3187381327 -0.1351333410 0.6255956888 4284968566
-0.3174589574 -0.1338987201 0.6230850220 4284639601
-0.3166249692 -0.1328564882 0.6214481592 4283060569
-0.3157903850 -0.1318176389 0.6198101044 4285296761
-0.3158474565 -0.1311526746 0.6199220419 4290691787
-0.3236623108 -0.1315744370 0.6352604628 4291152077
-0.3268449306 -0.1321554780 0.6415070891 4284506984
-0.3291351795 -0.1323637515 0.6460022330 4282993745
-0.3305326104 -0.1322049350 0.6487450004 4282795598
-0.3314834535 -0.1318623871 0.6506112814 4282071875
-0.3324343562 -0.1315156817 0.6524776220 4282796879
-0.3324914575 -0.1308132112 0.6525896788 4290560453
-0.3096196651 -0.1613277793 0.6090262532 4290625994
-0.3088058233 -0.1602288336 0.6074254513 4285033332
-0.3088738620 -0.1595890820 0.6075592637 4284309609
-0.3093830049 -0.1591759920 0.6085607409 4281020218
-0.3098920882 -0.1587606519 0.6095620990 4280691253
-0.3108426332 -0.1585682929 0.6114318967 4284967285
-0.3131182492 -0.1590448171 0.6159080267 4284111976
-0.3162780404 -0.1599585563 0.6221233606 4284046183
-0.3189970553 -0.1606365442 0.6274717450 4285954180
-0.3208331466 -0.1608599573 0.6310833097 4288060067
-0.3222277164 -0.1608549505 0.6338264942 4290033857
-0.3231804669 -0.1606242508 0.6357005835 4292204515
-0.3253581524 -0.1574401855 0.6399841309 4291546839
-0.3254254460 -0.1567615271 0.6401164532 4288783533
-0.3250496387 -0.1558700949 0.6393772364 4284572013
-0.3251163065 -0.1551915258 0.6395083666 4284506220
-0.3251827359 -0.1545125544 0.6396390200 4284506220
-0.3252488673 -0.1538331509 0.6397691369 4289177523
-0.3253147602 -0.1531533301 0.6398987174 4290427588
-0.3253803551 -0.1524731070 0.6400277615 4287203731
-0.3250023425 -0.1515856683 0.6392841935 4287205528
-0.3246238530 -0.1506996751 0.6385397315 4287995044
-0.3246884942 -0.1500200778 0.6386668682 4287468700
-0.3243092299 -0.1491360664 0.6379207969 4290495178
-0.3243732452 -0.1484565884 0.6380467415 4290100420
-0.3238464594 -0.1390145570 0.6370105147 4289968064
-0.3207919598 -0.1370022893 0.6310023069 4289376697
-0.3190710545 -0.1355700046 0.6276172400 4285429117
-0.3182394207 -0.1345211416 0.6259814501 4284573292
-0.3174071610 -0.1334756613 0.6243444085 4283060053
-0.3165743351 -0.1324335784 0.6227062345 4282401612
-0.3166315854 -0.1317655295 0.6228188276 4287730845
-0.3258283734 -0.1320322603 0.6409090161 4286020223
-0.3276687860 -0.1320619285 0.6445291638 4282598987
-0.3290636539 -0.1319049448 0.6472728848 4282466887
-0.3300127685 -0.1315641403 0.6491397619 4282401094
-0.3309618831 -0.1312192082 0.6510066986 4281875776
-0.3310188055 -0.1305183321 0.6511186361 4289441971
-0.3116469085 -0.1634221971 0.6143561006 4291876061
-0.3108355999 -0.1623159498 0.6127566695 4286612621
-0.3104640245 -0.1614419073 0.6120241880 4281941061
-0.3105324507 -0.1607973427 0.6121591330 4283980644
-0.3106006682 -0.1601523608 0.6122936010 4282401612
-0.3111093044 -0.1597332060 0.6132962704 4280954166
-0.3116178811 -0.1593118012 0.6142988205 4284178023
-0.3130080998 -0.1593369693 0.6170394421 4285625469
-0.3157215118 -0.1600267142 0.6223884225 4288848558
-0.3184358180 -0.1607050300 0.6277391911 4291809243
-0.3244115114 -0.1566152573 0.6395192146 4291218133
-0.3244783878 -0.1559368521 0.6396510601 4287467933
-0.3241028488 -0.1550464928 0.6389107108 4285033592
-0.3241691291 -0.1543681771 0.6390413642 4286283659
-0.3242351115 -0.1536894441 0.6391714811 4288586414
-0.3243008554 -0.1530102789 0.6393010616 4290625997
-0.3239237964 -0.1521228999 0.6385577321 4289310137
-0.3239889145 -0.1514438540 0.6386861205 4286415244
-0.3236110508 -0.1505584419 0.6379412413 4286941588
-0.3241183460 -0.1500845402 0.6389412880 4286546830
-0.3237397969 -0.1492001712 0.6381949782 4286875795
-0.3238037527 -0.1485204250 0.6383211017 4287995046
-0.3234243989 -0.1476380378 0.6375732422 4289837250
-0.3215619326 -0.1376318187 0.6339017153 4290626762
-0.3198443353 -0.1361961216 0.6305158138 4287731870
-0.3190144598 -0.1351440102 0.6288798451 4284770671
-0.3186283708 -0.1342825592 0.6281187534 4282862674
-0.3177973628 -0.1332362890 0.6264805794 4281152056
-0.3178548813 -0.1325642020 0.6265939474 4283981155
-0.3179121315 -0.1318917722 0.6267068386 4291152079
-0.3243676722 -0.1317281574 0.6394327879 4287994013
-0.3257597387 -0.1315799803 0.6421769857 4283125331
-0.3275971115 -0.1316045821 0.6457990408 4282598989
-0.3285444379 -0.1312655509 0.6476665139 4282796368
-0.3290465474 -0.1307454556 0.6486563087 4281612345
-0.3291031718 -0.1300471276 0.6487679482 4287994266
-0.3133631051 -0.1639948487 0.6190947294 4286612621
-0.3129929006 -0.1631140709 0.6183633804 4282664784
-0.3121825755 -0.1620065123 0.6167624593 4282927956
-0.3122512102 -0.1613567173 0.6168980598 4283849058
-0.3127594888 -0.1609328240 0.6179022193 4281151545
-0.3132677078 -0.1605066806 0.6189062595 4282335819
-0.3146560192 -0.1605273038 0.6216490865 4286809743
-0.3160446584 -0.1605419964 0.6243925095 4292730345
-0.3234651387 -0.1557909995 0.6390528083 4290954961
-0.3230902255 -0.1549012214 0.6383121014 4288191655
-0.3231563270 -0.1542235613 0.6384426951 4288915379
-0.3232221901 -0.1535454839 0.6385728121 4287796898
-0.3232877553 -0.1528670043 0.6387023330 4289573308
-0.3229113519 -0.1519801915 0.6379587054 4289375929
-0.3225344718 -0.1510948241 0.6372141242 4286481037
-0.3225991130 -0.1504169703 0.6373417974 4284244075
-0.3226634562 -0.1497386992 0.6374689341 4285297533
-0.3227275312 -0.1490600109 0.6375955343 4285297533
-0.3227913380 -0.1483809352 0.6377215981 4285560705
-0.3228549063 -0.1477014571 0.6378471851 4287666081
-0.3201687634 -0.1366334260 0.6325403452 4289836730
-0.3197840750 -0.1357673109 0.6317803264 4285362806
-0.3193989694 -0.1349027008 0.6310194731 4282073156
-0.3190134168 -0.1340395957 0.6302577257 4282204744
-0.3190712035 -0.1333634853 0.6303719282 4281415228
-0.3191287220 -0.1326870024 0.6304855347 4288125601
-0.3233535588 -0.1316044480 0.6388323307 4289704631
-0.3247431517 -0.1314571798 0.6415776610 4283914847
-0.3256886005 -0.1311249882 0.6434455514 4282993745
-0.3266340792 -0.1307886541 0.6453135014 4282270022
-0.3271351159 -0.1302711815 0.6463033557 4281612345
-0.3276360333 -0.1297514737 0.6472929716 4286678406
-0.3125074804 -0.1625317633 0.6187620759 4283585886
-0.3125762343 -0.1618798822 0.6188982129 4283980644
-0.3126447499 -0.1612275690 0.6190338731 4281085752
-0.3131522238 -0.1608003527 0.6200386286 4281283131
-0.3140989244 -0.1605954915 0.6219131351 4286414985
-0.3154851794 -0.1606102288 0.6246578693 4291743450
-0.3220784366 -0.1547557116 0.6377124190 4291612891
-0.3221443892 -0.1540787071 0.6378430724 4288586413
-0.3222100735 -0.1534013003 0.6379731297 4287994276
-0.3222755194 -0.1527234763 0.6381027102 4286481035
-0.3223406971 -0.1520452350 0.6382316947 4288915376
-0.3219645321 -0.1511595249 0.6374869943 4288323239
-0.3220290840 -0.1504813880 0.6376147866 4286349449
-0.3220933974 -0.1498028487 0.6377421021 4283257950
-0.3217161000 -0.1489196420 0.6369950771 4285429119
-0.3217797577 -0.1482412219 0.6371211410 4285034361
-0.3214016855 -0.1473599821 0.6363725066 4285560705
-0.3214647472 -0.1466816962 0.6364973783 4289376697
-0.3187186718 -0.1363137066 0.6310601830 4290955210
-0.3183345795 -0.1354491115 0.6302996278 4287336595
-0.3179500103 -0.1345860362 0.6295382380 4281612604
-0.3175650239 -0.1337244511 0.6287759542 4282007363
-0.3176226020 -0.1330499500 0.6288899779 4280625710
-0.3181229830 -0.1325597167 0.6298807263 4284572777
-0.3181800842 -0.1318835467 0.6299937963 4291678421
-0.3218968511 -0.1312996894 0.6373529434 4291152077
-0.3228404224 -0.1309743524 0.6392212510 4284572777
-0.3242275715 -0.1308238357 0.6419677734 4283322196
-0.3247276843 -0.1303112507 0.6429579258 4282269508
-0.3252276480 -0.1297964007 0.6439478993 4281874749
-0.3252837062 -0.1291031837 0.6440588832 4285164399
-0.3129660785 -0.1617489755 0.6210358143 4282927956
-0.3134728968 -0.1613197774 0.6220415235 4281085498
-0.3139796555 -0.1608883291 0.6230471134 4287335833
-0.3149249852 -0.1606783867 0.6249229908 4290493383
-0.3211332560 -0.1539336145 0.6372423768 4290033857
-0.3211987913 -0.1532568634 0.6373724937 4286875793
-0.3212640882 -0.1525797099 0.6375020146 4285954691
-0.3213291168 -0.1519021392 0.6376310587 4285691519
-0.3209536076 -0.1510169953 0.6368858814 4287862688
-0.3205776513 -0.1501333117 0.6361398697 4287138965
-0.3206417263 -0.1494563669 0.6362670064 4285625728
-0.3207055032 -0.1487790197 0.6363935471 4284704626
-0.3207690418 -0.1481012702 0.6365196109 4285428349
-0.3203915954 -0.1472206116 0.6357706785 4285494142
-0.3204544783 -0.1465429962 0.6358954906 4287863458
-0.3168874383 -0.1351305395 0.6288172007 4289441971
-0.3165034652 -0.1342689842 0.6280552745 4283125843
-0.3165611923 -0.1335955262 0.6281697750 4281743678
-0.3166186213 -0.1329217106 0.6282837391 4281875264
-0.3166757822 -0.1322475076 0.6283972263 4281941057
-0.3171750605 -0.1317567080 0.6293879151 4288915115
-0.3213843703 -0.1306709945 0.6377406716 4285888123
-0.3223261833 -0.1303432733 0.6396096349 4283059024
-0.3228252232 -0.1298333257 0.6405998468 4282401094
-0.3233241439 -0.1293211132 0.6415898800 4282072643
-0.3233799338 -0.1286304593 0.6417005658 4283322710
-0.3229923844 -0.1277641803 0.6409315467 4290954698
-0.3223246038 -0.1246574372 0.6396064162 4291415762
-0.3210481703 -0.1234559491 0.6370735168 4291415762
-0.3184404969 -0.1217511073 0.6318989992 4291678934
-0.3124085069 -0.1618174464 0.6212986708 4284309355
-0.3124768138 -0.1611623764 0.6214345694 4280756533
-0.3129826486 -0.1607316732 0.6224405169 4285756801
-0.3139262497 -0.1605225950 0.6243170500 4289440695
-0.3196838498 -0.1535773277 0.6357674599 4292205026
-0.3197491467 -0.1529021710 0.6358973384 4289112755
-0.3198142052 -0.1522265971 0.6360266805 4286349449
-0.3198789656 -0.1515506208 0.6361555457 4285165175
-0.3199434876 -0.1508742422 0.6362838149 4284901492
-0.3195681870 -0.1499911249 0.6355374455 4286546317
-0.3196320832 -0.1493148506 0.6356645226 4287335833
-0.3196957409 -0.1486381739 0.6357911229 4286677903
-0.3197591305 -0.1479610950 0.6359171271 4285954180
-0.3198222220 -0.1472836137 0.6360426545 4286414731
-0.3194450736 -0.1464040577 0.6352925897 4286810000
-0.3190674782 -0.1455259919 0.6345416903 4289704892
-0.3154427409 -0.1348115951 0.6273329854 4290823367
-0.3150593340 -0.1339515746 0.6265705228 4285362548
-0.3151168227 -0.1332797259 0.6266848445 4281414968
-0.3151740432 -0.1326075196 0.6267986894 4282270277
-0.3156725168 -0.1321197152 0.6277899742 4281020210
-0.3161708713 -0.1316296756 0.6287810802 4285428341
-0.3194887936 -0.1301871985 0.6353795528 4287532948
-0.3204287887 -0.1298622042 0.6372489333 4282795852
-0.3213687837 -0.1295330673 0.6391183734 4282664266
-0.3214245737 -0.1288453192 0.6392292976 4282138438
-0.3214800954 -0.1281572133 0.6393397450 4281480508
-0.3210930526 -0.1272934228 0.6385700107 4288783531
-0.3211479187 -0.1266055703 0.6386791468 4291546837
-0.3207601011 -0.1257439107 0.6379078627 4288520359
-0.3208143413 -0.1250562966 0.6380157471 4285822846
-0.3199831545 -0.1240252480 0.6363627315 4284836464
-0.3187087476 -0.1228270605 0.6338282228 4284507499
-0.3165481687 -0.1212949380 0.6295313835 4284770671
-0.3117297888 -0.1187598184 0.6199489236 4285954945
-0.3055809140 -0.1157420576 0.6077203751 4288126628
-0.2998726666 -0.1129173934 0.5963681936 4290955727
-0.3123553097 -0.1614563316 0.6225680709 4281611842
-0.3124234378 -0.1607996821 0.6227038503 4283585632
-0.3133653998 -0.1605905443 0.6245812774 4288783279
-0.3138703406 -0.1601542383 0.6255877614 4286743696
-0.3148124814 -0.1599377990 0.6274655461 4287994274
-0.3188052177 -0.1520822644 0.6354236603 4290165445
-0.3188698590 -0.1514069587 0.6355524659 4286941588
-0.3189342320 -0.1507312357 0.6356807947 4284967285
-0.3185595572 -0.1498486996 0.6349340081 4285164664
-0.3186233044 -0.1491730958 0.6350610852 4287072915
-0.3186868131 -0.1484970897 0.6351876259 4287994017
-0.3187500536 -0.1478206813 0.6353136897 4287994017
-0.3188130260 -0.1471438557 0.6354391575 4287138708
-0.3184365034 -0.1462648958 0.6346887350 4285954434
-0.3184988499 -0.1455882192 0.6348130107 4287401880
-0.3181215525 -0.1447112560 0.6340609789 4290955213
-0.3136176169 -0.1336337775 0.6250839829 4288520612
-0.3132343292 -0.1327767968 0.6243200898 4282928207
-0.3137319088 -0.1322929561 0.6253117919 4281086003
-0.3137886524 -0.1316219866 0.6254249215 4281479991
-0.3142859340 -0.1311345845 0.6264160275 4282861644
-0.3152239621 -0.1308279037 0.6282857060 4290164668
-0.3175972104 -0.1297028959 0.6330159307 4289177773
-0.3185353279 -0.1293806136 0.6348857284 4282927437
-0.3190322220 -0.1288759410 0.6358761191 4282664265
-0.3190876544 -0.1281917095 0.6359865665 4281941059
-0.3191428185 -0.1275071055 0.6360965371 4281019957
-0.3187562227 -0.1266467571 0.6353259683 4285362295
-0.3188107312 -0.1259624064 0.6354346275 4287204499
-0.3184233606 -0.1251041889 0.6346625090 4284441193
-0.3180355430 -0.1242475286 0.6338895559 4283849056
-0.3176472783 -0.1233924180 0.6331157088 4284310120
-0.3163748980 -0.1221975237 0.6305796504 4284375913
-0.3137759566 -0.1204988435 0.6253995895 4283389018
-0.3089658022 -0.1179674044 0.6158123016 4282796881
-0.3041538000 -0.1154565513 0.6062213182 4282402637
-0.2993399203 -0.1129663065 0.5966265202 4283915876
-0.2989464700 -0.1121558025 0.5958423615 4287337112
-0.2985526025 -0.1113468856 0.5950573087 4291087313
-0.3113593757 -0.1612986028 0.6219598651 4283059288
-0.3118635118 -0.1608676165 0.6229668856 4281282877
-0.3123675883 -0.1604343355 0.6239737868 4287270040
-0.3128715754 -0.1599988043 0.6249806285 4285954180
-0.3138119876 -0.1597832292 0.6268591285 4282335819
-0.3147525191 -0.1595635414 0.6287378669 4285296504
-0.3175517619 -0.1497060508 0.6343295574 4286677387
-0.3176153600 -0.1490311176 0.6344566345 4285559674
-0.3176787198 -0.1483557671 0.6345831752 4286086018
-0.3177418113 -0.1476800293 0.6347091794 4287401878
-0.3173662722 -0.1468011141 0.6339590549 4287730843
-0.3174287677 -0.1461254954 0.6340838671 4287336085
-0.3170524538 -0.1452485919 0.6333321333 4286678155
-0.3171142936 -0.1445731223 0.6334556937 4289178802
-0.3132654727 -0.1365609765 0.6257674098 4290231230
-0.3128843904 -0.1357004344 0.6250061989 4289178542
-0.3125028908 -0.1348413825 0.6242441535 4289441714
-0.3121209741 -0.1339838654 0.6234812140 4290889160
-0.3117386103 -0.1331278384 0.6227174401 4291218125
-0.3117956221 -0.1324601769 0.6228312850 4287270543
-0.3118523359 -0.1317921281 0.6229445934 4282533447
-0.3123487234 -0.1313086748 0.6239361167 4282664263
-0.3128449917 -0.1308229566 0.6249274611 4282072126
-0.3137812614 -0.1305180639 0.6267977357 4287467154
-0.3157096207 -0.1292180866 0.6306497455 4289901495
-0.3162055016 -0.1287192404 0.6316402555 4283321936
-0.3167012334 -0.1282181442 0.6326305866 4282466627
-0.3163157701 -0.1273600459 0.6318605542 4282006082
-0.3159298599 -0.1265034825 0.6310896873 4281677117
-0.3159842193 -0.1258239448 0.6311982870 4282269508
-0.3160383403 -0.1251440644 0.6313063502 4284769642
-0.3156512976 -0.1242902353 0.6305332780 4285690490
-0.3152638376 -0.1234379709 0.6297593117 4286743178
-0.3148759604 -0.1225872561 0.6289845109 4286612362
-0.3131644428 -0.1212258711 0.6255655885 4287270292
-0.3101285994 -0.1193623915 0.6195012927 4286152070
-0.3062089980 -0.1171742082 0.6116716862 4285757312
-0.3027291298 -0.1151707023 0.6047204137 4284178534
-0.2988064587 -0.1130151749 0.5968846083 4282270537
-0.2984137535 -0.1122043356 0.5961001515 4282270537
-0.2984621525 -0.1115601137 0.5961968303 4284639085
-0.2989518642 -0.1110796630 0.5971751213 4288784560
-0.3107995987 -0.1613666266 0.6222221851 4286546318
-0.3108674884 -0.1607103944 0.6223580837 4281019706
-0.3109351397 -0.1600537300 0.6224935055 4283388253
-0.3118736744 -0.1598431170 0.6243724823 4286151559
-0.3123766780 -0.1594060808 0.6253795028 4282204231
-0.3133153915 -0.1591881812 0.6272587776 4280493613
-0.3142542243 -0.1589661539 0.6291383505 4285296500
-0.3161709607 -0.1486832500 0.6329756975 4288322980
-0.3162340820 -0.1480095088 0.6331020594 4286283397
-0.3162969351 -0.1473353654 0.6332278848 4286086016
-0.3163595498 -0.1466608196 0.6333531737 4286941325
-0.3159842193 -0.1457839608 0.6326017976 4287928735
-0.3160462081 -0.1451095492 0.6327258945 4287928735
-0.3156701028 -0.1442347020 0.6319729090 4287665563
-0.3157314658 -0.1435604393 0.6320957541 4291086799
-0.3130841553 -0.1374818236 0.6267958879 4288389024
-0.3122656643 -0.1364278197 0.6251572371 4284836202
-0.3114466071 -0.1353771985 0.6235174537 4282994000
-0.3115044236 -0.1347094178 0.6236332059 4284112481
-0.3111231327 -0.1338524967 0.6228699088 4288125854
-0.3107414544 -0.1329970658 0.6221057177 4290889160
-0.3103593290 -0.1321431696 0.6213406920 4289572528
-0.3104158342 -0.1314767450 0.6214538217 4286019706
-0.3109112084 -0.1309949905 0.6224455833 4284374881
-0.3114064932 -0.1305109710 0.6234371662 4282401091
-0.3119016588 -0.1300247163 0.6244285107 4284703846
-0.3128360808 -0.1297183931 0.6262992024 4289638321
-0.3128916621 -0.1290454566 0.6264104843 4289967029
-0.3133864999 -0.1285524517 0.6274011135 4288914341
-0.3134416044 -0.1278778464 0.6275114417 4283585106
-0.3139361143 -0.1273812950 0.6285014749 4282795590
-0.3135510087 -0.1265275627 0.6277304888 4282269254
-0.3136052787 -0.1258518994 0.6278391480 4281611324
-0.3136593103 -0.1251758933 0.6279473305 4281743164
-0.3132730722 -0.1243249103 0.6271740794 4286414467
-0.3128864169 -0.1234754845 0.6263999343 4287993499
-0.3124993145 -0.1226276159 0.6256250143 4287927706
-0.3121117949 -0.1217812970 0.6248492002 4287072913
-0.3108432889 -0.1205949187 0.6223096848 4287994015
-0.3078126311 -0.1187344491 0.6162422299 4287994274
-0.3047806919 -0.1168869659 0.6101722717 4288257446
-0.3017474413 -0.1150524840 0.6040996909 4288059808
-0.2982723117 -0.1130639985 0.5971425176 4286678155
-0.2978803515 -0.1122528240 0.5963577628 4284046948
-0.2979287207 -0.1116083413 0.5964545608 4281744193
-0.2984175980 -0.1111276895 0.5974333286 4282994776
-0.2993472219 -0.1108080149 0.5992944241 4287008149
-0.3011587262 -0.1108086929 0.6029211283 4291744726
-0.3094377220 -0.1603277475 0.6208762527 4282336078
-0.3095051050 -0.1596726626 0.6210114360 4278782743
-0.3100070357 -0.1592404991 0.6220185757 4282401358
-0.3109438121 -0.1590285003 0.6238981485 4284374630
-0.3118806779 -0.1588123739 0.6257779598 4281282359
-0.3128176928 -0.1585921347 0.6276580691 4279967269
-0.3133196533 -0.1581481248 0.6286652088 4284572779
-0.3148545027 -0.1469902992 0.6317448020 4287994015
-0.3149168491 -0.1463173628 0.6318699121 4286678155
-0.3145420849 -0.1454420090 0.6311179996 4286480776
-0.3146038353 -0.1447692066 0.6312418580 4288059808
-0.3142282963 -0.1438958794 0.6304883361 4287994528
-0.3142894208 -0.1432232261 0.6306110024 4289770939
-0.3132189810 -0.1399423480 0.6284632087 4291218383
-0.3129002452 -0.1384048164 0.6278236508 4289178800
-0.3120837808 -0.1373479515 0.6261854768 4284178272
-0.3112667501 -0.1362944543 0.6245461106 4283257170
-0.3104491234 -0.1352443397 0.6229055524 4282730826
-0.3105067909 -0.1345772445 0.6230212450 4282138689
-0.3101261556 -0.1337209046 0.6222575903 4285757304
-0.3097451329 -0.1328660846 0.6214930415 4290362814
-0.3093636334 -0.1320127696 0.6207275987 4288256668
-0.3094200194 -0.1313470304 0.6208407283 4284967018
-0.3099144995 -0.1308660358 0.6218328476 4285888120
-0.3099704087 -0.1301986128 0.6219450831 4283453779
-0.3109031022 -0.1298972666 0.6238164306 4287203721
-0.3113972247 -0.1294095218 0.6248078942 4288585374
-0.3114525974 -0.1287381947 0.6249189973 4289045925
-0.3110689521 -0.1278861463 0.6241492033 4287203721
-0.3111236989 -0.1272150576 0.6242590547 4284110937
-0.3111781776 -0.1265436113 0.6243683696 4283255628
-0.3107933998 -0.1256942749 0.6235963702 4282400840
-0.3108472526 -0.1250230819 0.6237044334 4282400840
-0.3109008670 -0.1243515387 0.6238119602 4282138438
-0.3105149865 -0.1235049590 0.6230376959 4286020225
-0.3101286590 -0.1226599365 0.6222625971 4288586152
-0.3097419441 -0.1218164638 0.6214866638 4288849324
-0.3089153767 -0.1208027154 0.6198281646 4286941329
-0.3080882728 -0.1197924316 0.6181685925 4287467673
-0.3050627112 -0.1179359406 0.6120979190 4289046962
-0.3024755120 -0.1162614226 0.6069067717 4289968064
-0.3003268838 -0.1147660390 0.6025956273 4289573308
-0.2977374792 -0.1131127775 0.5974001288 4289968066
-0.2973462641 -0.1123012677 0.5966151357 4288850355
-0.2973945737 -0.1116565242 0.5967120528 4285823877
-0.2978826165 -0.1111756787 0.5976912975 4282928985
-0.2988106310 -0.1108558849 0.5995533466 4282205262
-0.3006189167 -0.1108565703 0.6031816006 4285691771
-0.3028677404 -0.1110106558 0.6076937914 4290363074
-0.3085114360 -0.1595155150 0.6204002500 4279572259
-0.3090124428 -0.1590841264 0.6214077473 4279967017
-0.3095133603 -0.1586504579 0.6224150658 4283782493
-0.3104484081 -0.1584361196 0.6242954135 4283453528
-0.3113836050 -0.1582176685 0.6261760592 4280493613
-0.3118845224 -0.1577753425 0.6271833777 4279638304
-0.3123854101 -0.1573307514 0.6281905770 4283849056
-0.3128861785 -0.1568838954 0.6291976571 4290165184
-0.3134765923 -0.1459734887 0.6303849220 4287928735
-0.3131023943 -0.1450996697 0.6296324134 4286941840
-0.3131639063 -0.1444284767 0.6297561526 4286547082
-0.3127889335 -0.1435566694 0.6290020347 4287007633
-0.3128498495 -0.1428856105 0.6291245222 4288126114
-0.3129104972 -0.1422141790 0.6292464733 4290955213
-0.3114034534 -0.1387461722 0.6262159348 4291087567
-0.3114624619 -0.1380765587 0.6263346076 4287995296
-0.3106473684 -0.1370211244 0.6246954799 4284244067
-0.3102686703 -0.1361608505 0.6239339709 4284375653
-0.3094524741 -0.1351112574 0.6222926378 4282665033
-0.3090728521 -0.1342549473 0.6215292215 4280954415
-0.3086928129 -0.1334001571 0.6207649708 4285888890
-0.3083123267 -0.1325468719 0.6199998856 4290560193
-0.3083688319 -0.1318821758 0.6201134920 4288717219
-0.3088625669 -0.1314032376 0.6211063266 4284111709
-0.3089186251 -0.1307368577 0.6212190986 4285756534
-0.3094120622 -0.1302543730 0.6222113371 4285427569
-0.3094676733 -0.1295863241 0.6223231554 4288651167
-0.3103986084 -0.1292826235 0.6241952181 4289769648
-0.3095780909 -0.1282491833 0.6225452423 4289901234
-0.3091949522 -0.1273996234 0.6217747331 4284966759
-0.3092494011 -0.1267310977 0.6218842864 4284045659
-0.3088654876 -0.1258836687 0.6211122274 4283782487
-0.3084811568 -0.1250377893 0.6203393340 4282664266
-0.3080964088 -0.1241934597 0.6195656657 4282203715
-0.3077112436 -0.1233506724 0.6187911034 4282401094
-0.3073256314 -0.1225094423 0.6180157065 4286085502
-0.3073781133 -0.1218435839 0.6181212068 4288059808
-0.3069917858 -0.1210045218 0.6173442602 4288059808
-0.3066050112 -0.1201670244 0.6165664792 4286283399
-0.3053404093 -0.1189891696 0.6140234470 4286151813
-0.3031975329 -0.1174766719 0.6097142696 4287073172
-0.3014925122 -0.1161424220 0.6062855721 4290362822
-0.2993477285 -0.1146473587 0.6019725204 4291152340
-0.2972019613 -0.1131615117 0.5976575017 4291283926
-0.2972505689 -0.1125158668 0.5977551937 4290297801
-0.2968597412 -0.1117046550 0.5969693065 4289310906
-0.2973469496 -0.1112236232 0.5979490876 4287731874
-0.2982733250 -0.1109037027 0.5998119712 4283455329
-0.2996390760 -0.1107420325 0.6025583744 4282007365
-0.3018838167 -0.1108971536 0.6070724726 4284639085
-0.3028105199 -0.1105610058 0.6089360118 4289310386
-0.3075186312 -0.1593581140 0.6197881103 4281875014
-0.3080186844 -0.1589275002 0.6207959056 4279374880
-0.3085186779 -0.1584946066 0.6218035817 4282729546
-0.3090185821 -0.1580594331 0.6228111386 4285821817
-0.3099519610 -0.1578427553 0.6246922612 4283585368
-0.3104518354 -0.1574021280 0.6256997585 4280558890
-0.3109516501 -0.1569592357 0.6267071366 4279308823
-0.3114514053 -0.1565140635 0.6277143955 4283322196
-0.3119511008 -0.1560666114 0.6287214756 4289704117
-0.3116651177 -0.1447569132 0.6281450987 4287468184
-0.3117264211 -0.1440873295 0.6282686591 4286415496
-0.3117874563 -0.1434173435 0.6283916235 4285954945
-0.3114126623 -0.1425476074 0.6276363134 4286020738
-0.3110374808 -0.1416793615 0.6268801093 4288915630
-0.3104042709 -0.1386105716 0.6256039143 4289903039
-0.3095910549 -0.1375541538 0.6239649057 4288192421
-0.3092133701 -0.1366939247 0.6232036948 4285559927
-0.3088352382 -0.1358351856 0.6224416494 4284046688
-0.3084567189 -0.1349779665 0.6216787100 4282599242
-0.3080777526 -0.1341222525 0.6209149361 4282401863
-0.3076983392 -0.1332680583 0.6201502681 4286546822
-0.3073185384 -0.1324153692 0.6193847656 4291415504
-0.3073748946 -0.1317513585 0.6194983721 4290493632
-0.3078677058 -0.1312731653 0.6204916239 4284901227
-0.3079236448 -0.1306074858 0.6206043363 4285164399
-0.3084161580 -0.1301257461 0.6215969324 4287269775
-0.3089085519 -0.1296417564 0.6225893497 4289111977
-0.3085268438 -0.1287906766 0.6218200326 4290296251
-0.3077076077 -0.1277596503 0.6201689243 4289374892
-0.3073249757 -0.1269125789 0.6193977594 4285229933
-0.3073791564 -0.1262466311 0.6195069551 4284374624
-0.3069957495 -0.1254017055 0.6187342405 4283848280
-0.3061745465 -0.1243806407 0.6170790792 4282532680
-0.3057902157 -0.1235397607 0.6163045168 4282006336
-0.3049679399 -0.1225246415 0.6146472692 4282598473
-0.3045827150 -0.1216878146 0.6138708591 4284967021
-0.3046347797 -0.1210264415 0.6139757633 4286612362
-0.3046865463 -0.1203647256 0.6140801311 4287533464
-0.3038623929 -0.1193587035 0.6124190688 4285691260
-0.3030376732 -0.1183561534 0.6107568741 4285691260
-0.3017743826 -0.1171870008 0.6082108617 4285625726
-0.3000723422 -0.1158540994 0.6047804952 4289178548
-0.2983694673 -0.1145284921 0.6013484001 4291218133
-0.2966657281 -0.1132101938 0.5979146361 4291810270
-0.2967143059 -0.1125642881 0.5980124474 4291613661
-0.2963242233 -0.1117527485 0.5972263217 4289574078
-0.2968105972 -0.1112715229 0.5982065797 4288981686
-0.2977353632 -0.1109514832 0.6000703573 4287797412
-0.2990986705 -0.1107897535 0.6028180718 4283980901
-0.3004621565 -0.1106219739 0.6055660844 4281546560
-0.3027031720 -0.1107692122 0.6100827456 4283849569
-0.3040670753 -0.1105874106 0.6128316522 4289441974
-0.3060943782 -0.1589759290 0.6183016300 4284375148
-0.3061609566 -0.1583233625 0.6184360981 4280624947
-0.3066597879 -0.1578930914 0.6194437146 4281611067
-0.3071585894 -0.1574605405 0.6204512715 4285427061
-0.3076573014 -0.1570257246 0.6214587092 4286348163
-0.3085887730 -0.1568085551 0.6233402491 4283782236
-0.3090874851 -0.1563682705 0.6243475676 4281348152
-0.3095861077 -0.1559257209 0.6253547668 4280690222
-0.3100846708 -0.1554808915 0.6263618469 4283979872
-0.3105831444 -0.1550337821 0.6273688078 4290559172
-0.3106648028 -0.1446160227 0.6275337338 4290823627
-0.3102913499 -0.1437457949 0.6267793775 4288849837
-0.3103521764 -0.1430774182 0.6269022226 4287402391
-0.3104127049 -0.1424086541 0.6270245314 4286218117
-0.3100381494 -0.1415409893 0.6262679100 4286218117
-0.3096631467 -0.1406748146 0.6255104542 4288060321
-0.3097227514 -0.1400067657 0.6256307960 4291021006
-0.3090294600 -0.1376126707 0.6242303848 4290626248
-0.3086524904 -0.1367520988 0.6234689355 4290099644
-0.3078396916 -0.1357010752 0.6218271255 4288849577
-0.3074617982 -0.1348444521 0.6210637689 4288060061
-0.3075190783 -0.1341793984 0.6211794615 4287270545
-0.3071404099 -0.1333248466 0.6204145551 4286677638
-0.3067613244 -0.1324718297 0.6196488738 4291085769
-0.3068176508 -0.1318075508 0.6197625995 4291875285
-0.3068737090 -0.1311428994 0.6198758483 4287401361
-0.3069294989 -0.1304778904 0.6199885607 4284835434
-0.3078571558 -0.1301813126 0.6218623519 4288190877
-0.3074764311 -0.1293302327 0.6210933328 4289309356
-0.3070952892 -0.1284807026 0.6203234792 4289572528
-0.3062774539 -0.1274511516 0.6186714172 4287532945
-0.3058953881 -0.1266056299 0.6178996563 4286414464
-0.3055129349 -0.1257616580 0.6171271205 4284572260
-0.3046935201 -0.1247405261 0.6154718995 4283914330
-0.3038735390 -0.1237228289 0.6138155460 4282795851
-0.3034896553 -0.1228854060 0.6130401492 4282072128
-0.3031053543 -0.1220495328 0.6122638583 4282335301
-0.3027206361 -0.1212152168 0.6114867926 4283914333
-0.3027724326 -0.1205564290 0.6115913987 4285756537
-0.3023869693 -0.1197242886 0.6108127236 4286743432
-0.3024381399 -0.1190657839 0.6109161377 4284441193
-0.3011776805 -0.1178936139 0.6083700061 4285625467
-0.3003537059 -0.1168969870 0.6067056656 4286283399
-0.2990919352 -0.1157346368 0.6041568518 4287599259
-0.2978294194 -0.1145776808 0.6016066670 4290494410
-0.2965662479 -0.1134261340 0.5990550518 4291481305
-0.2961773276 -0.1126126647 0.5982694626 4292336614
-0.2957880199 -0.1118007973 0.5974830985 4291283926
-0.2962735593 -0.1113193780 0.5984638333 4289310137
-0.2967589796 -0.1108357385 0.5994443893 4287994277
-0.2981197834 -0.1106749102 0.6021931767 4287204758
-0.2999186218 -0.1106695905 0.6058267355 4284046694
-0.3012798131 -0.1104957014 0.6085763574 4282007111
-0.3030791283 -0.1104754061 0.6122109294 4283783522
-0.3044407070 -0.1102884412 0.6149612069 4289639353
-0.3047388792 -0.1579423249 0.6169476509 4282730323
-0.3048049510 -0.1572909504 0.6170814633 4280887344
-0.3053025901 -0.1568610221 0.6180889606 4284176994
-0.3058001995 -0.1564288139 0.6190963387 4287598230
-0.3067297339 -0.1562143713 0.6209782362 4286545542
-0.3072273135 -0.1557766944 0.6219855547 4283913822
-0.3077248037 -0.1553367674 0.6229927540 4281545274
-0.3082222342 -0.1548945457 0.6239997745 4283387735
-0.3087196052 -0.1544500738 0.6250067353 4285953662
-0.3092168868 -0.1540033221 0.6260135174 4290230977
-0.3089796305 -0.1420699507 0.6255331635 4290165697
-0.3086056411 -0.1412038058 0.6247760057 4288126114
-0.3082312346 -0.1403391659 0.6240179539 4286810254
-0.3082906008 -0.1396727264 0.6241381764 4287139219
-0.3083496988 -0.1390059143 0.6242578030 4289573560
-0.3065249026 -0.1340463459 0.6205635071 4290889160
-0.3065817654 -0.1333815902 0.6206786633 4287402131
-0.3062034249 -0.1325282305 0.6199126840 4289573300
-0.3062596917 -0.1318636835 0.6200265884 4291612113
-0.3067508042 -0.1313851476 0.6210208535 4288190877
-0.3068066239 -0.1307189316 0.6211338639 4285559157
-0.3068621755 -0.1300523430 0.6212463379 4288914600
-0.3064821362 -0.1292018741 0.6204769015 4289177772
-0.3056662381 -0.1281703711 0.6188251376 4287467154
-0.3048497438 -0.1271422803 0.6171721816 4286282878
-0.3044682741 -0.1262983233 0.6163998842 4286019706
-0.3040864170 -0.1254559010 0.6156267524 4285032811
-0.3028326333 -0.1242574602 0.6130884886 4284309088
-0.3015781641 -0.1230643615 0.6105487347 4282992717
-0.3011947274 -0.1222303882 0.6097725034 4282268994
-0.3012468219 -0.1215739176 0.6098779440 4282532679
-0.3008626401 -0.1207421198 0.6091001630 4282861644
-0.3009141386 -0.1200859174 0.6092044711 4285822330
-0.3009653687 -0.1194293797 0.6093081832 4285888123
-0.3005801141 -0.1186003760 0.6085281968 4284506986
-0.3001944125 -0.1177729443 0.6077473760 4284309607
-0.2993719280 -0.1167768613 0.6060822010 4286809743
-0.2985488474 -0.1157842577 0.6044158936 4285033332
-0.2972886860 -0.1146268249 0.6018646955 4287007379
-0.2960278392 -0.1134747937 0.5993120670 4289770685
-0.2956396937 -0.1126609966 0.5985262394 4291744477
-0.2957358062 -0.1113671884 0.5987208486 4290889168
-0.2962203920 -0.1108833551 0.5997018814 4289244343
-0.2975787818 -0.1107224748 0.6024519801 4288454568
-0.2985002995 -0.1103939041 0.6043176055 4287007122
-0.2998589277 -0.1102218702 0.6070681810 4283914851
-0.3016549051 -0.1102034897 0.6107041240 4282072647
-0.3030138910 -0.1100183800 0.6134554148 4283717470
-0.3043730259 -0.1098272055 0.6162070036 4289638840
-0.3038160205 -0.1571339518 0.6164655089 4281413434
-0.3038817048 -0.1564828306 0.6165987849 4283255638
-0.3043782413 -0.1560523212 0.6176062822 4287795355
-0.3048747480 -0.1556195468 0.6186137199 4287334804
-0.3053711653 -0.1551845074 0.6196210384 4284176740
-0.3062989414 -0.1549654454 0.6215035319 4282071364
-0.3067953289 -0.1545249373 0.6225107908 4282466635
-0.3072916567 -0.1540821493 0.6235178709 4282203463
-0.3073562384 -0.1534216106 0.6236488819 4284309609
-0.3078523576 -0.1529752165 0.6246555448 4289375670
-0.3068017364 -0.1400031149 0.6225237250 4290626248
-0.3068608642 -0.1393382996 0.6226437688 4288257700
-0.3069197536 -0.1386731118 0.6227632165 4287073426
-0.3069783747 -0.1380075216 0.6228821874 4287862942
-0.3066030741 -0.1371475756 0.6221206188 4289507767
-0.3062273562 -0.1362891346 0.6213582754 4291349711
-0.3060224056 -0.1334382892 0.6209424138 4289704631
-0.3056448102 -0.1325845718 0.6201762557 4287796634
-0.3057010174 -0.1319197714 0.6202902794 4289244335
-0.3061912656 -0.1314410418 0.6212850809 4287402131
-0.3058126569 -0.1305890679 0.6205168366 4287006603
-0.3058680594 -0.1299231648 0.6206292510 4289309358
-0.3054886758 -0.1290733069 0.6198594570 4287138189
-0.3046742380 -0.1280423254 0.6182069182 4284835434
-0.3034245372 -0.1268330663 0.6156710982 4286414466
-0.3030436337 -0.1259906590 0.6148982644 4287006603
-0.3026623428 -0.1251498014 0.6141245961 4287072394
-0.3009758294 -0.1237738878 0.6107025146 4284769639
-0.3001584411 -0.1227610633 0.6090440154 4282795338
-0.2993405163 -0.1217516884 0.6073843837 4282532166
-0.2993923426 -0.1210978106 0.6074895263 4282861131
-0.2990086675 -0.1202685237 0.6067110300 4282334787
-0.2990598977 -0.1196149141 0.6068149805 4286743432
-0.2991108894 -0.1189609692 0.6069183946 4285888123
-0.2991615832 -0.1183066964 0.6070213318 4286743432
-0.2987765074 -0.1174808294 0.6062399149 4283848540
-0.2983910143 -0.1166565418 0.6054577231 4286283397
-0.2980051041 -0.1158338338 0.6046746969 4285757053
-0.2971830368 -0.1148443148 0.6030066609 4284375402
-0.2959245741 -0.1136908531 0.6004531980 4287599259
-0.2955372334 -0.1128757671 0.5996672511 4291020752
-0.2961172163 -0.1110945418 0.6008440852 4291481305
-0.2966009080 -0.1106073335 0.6018254757 4288980912
-0.2975206971 -0.1102795973 0.6036918163 4287599259
-0.2988768518 -0.1101084575 0.6064435244 4286678157
-0.3002331257 -0.1099312678 0.6091955304 4284506988
-0.3011530936 -0.1095891818 0.6110622287 4281875266
-0.3025095761 -0.1094008163 0.6138146520 4283980642
-0.3038662076 -0.1092063785 0.6165673733 4289836217
-0.3019676805 -0.1565307528 0.6140990257 4282795341
-0.3020330071 -0.1558821648 0.6142318845 4281479481
-0.3025284410 -0.1554542780 0.6152393818 4285821819
-0.3030237854 -0.1550241262 0.6162468195 4288058781
-0.3035190701 -0.1545916945 0.6172540784 4285229682
-0.3040143251 -0.1541569978 0.6182612181 4283453271
-0.3045094907 -0.1537200361 0.6192682385 4283519321
-0.3050045967 -0.1532808095 0.6202750802 4282466633
-0.3059305251 -0.1530548781 0.6221581101 4281084980
-0.3059946001 -0.1523955315 0.6222884655 4283453528
-0.3064895272 -0.1519494802 0.6232948899 4288059038
-0.3054922819 -0.1383399069 0.6212669015 4290297797
-0.3055506945 -0.1376759559 0.6213856339 4287995042
-0.3056088090 -0.1370116174 0.6215038896 4287205526
-0.3052337468 -0.1361537725 0.6207410693 4288323491
-0.3052912951 -0.1354896128 0.6208581328 4290560453
-0.3055188358 -0.1328292787 0.6213208437 4289244080
-0.3051416278 -0.1319757998 0.6205537915 4289704886
-0.3051975369 -0.1313103735 0.6206674576 4290165437
-0.3052531481 -0.1306445748 0.6207805872 4289967288
-0.3048748374 -0.1297937930 0.6200112104 4289901495
-0.3044961095 -0.1289445311 0.6192409992 4286546052
-0.3036831319 -0.1279140711 0.6175876856 4285295985
-0.3024356663 -0.1267052591 0.6150507927 4288321950
-0.3020554483 -0.1258634627 0.6142775416 4289703603
-0.3012407720 -0.1248433292 0.6126207113 4289243052
-0.2999913394 -0.1236476898 0.6100798845 4285887609
-0.2987412214 -0.1224574074 0.6075375080 4283190096
-0.2979246974 -0.1214495301 0.6058769822 4282663752
-0.2979763150 -0.1207972839 0.6059819460 4282729545
-0.2980276942 -0.1201447025 0.6060864329 4282663752
-0.2980787754 -0.1194917858 0.6061903834 4287467155
-0.2981296480 -0.1188385338 0.6062937379 4286217088
-0.2981802225 -0.1181849465 0.6063966155 4288059292
-0.2977958024 -0.1173596978 0.6056148410 4285295986
-0.2974109650 -0.1165360287 0.6048322320 4284967537
-0.2974606454 -0.1158833578 0.6049332619 4286941327
-0.2966400981 -0.1148934364 0.6032645702 4285230711
-0.2958190441 -0.1139070094 0.6015948057 4287599259
-0.2949974239 -0.1129240766 0.5999239087 4289573306
-0.2960593104 -0.1106547341 0.6020833850 4291020495
-0.2965420187 -0.1101651043 0.6030650735 4288520361
-0.2978956401 -0.1099948660 0.6058179140 4287467673
-0.2988138199 -0.1096587181 0.6076851487 4285888641
-0.2997320294 -0.1093184203 0.6095524430 4284046435
-0.3010859489 -0.1091319025 0.6123058796 4281941059
-0.3020042181 -0.1087823510 0.6141732931 4284901744
-0.3033583164 -0.1085846573 0.6169271469 4291020493
-0.3005527556 -0.1561499983 0.6126052737 4286348420
