VERSION 0.7
FIELDS x y z rgba
SIZE 4 4 4 4
TYPE F F F U
COUNT 1 1 1 1
WIDTH 920
HEIGHT 1
VIEWPOINT 0.0 0.0 0.0 1.0 0.0 0.0 0.0
POINTS 920
DATA ascii
-0.3078041971 -0.1412119567 0.6217553616 4289113777
-0.3069942892 -0.1401513964 0.6201193929 4288126882
-0.3057488799 -0.1388966292 0.6176037192 4289574328
-0.3045026958 -0.1376471072 0.6150864959 4291482325
-0.3032557666 -0.1364028305 0.6125677228 4292732392
-0.3108150661 -0.1153879389 0.6278372407 4292796388
-0.3121780753 -0.1151933149 0.6305904984 4291809493
-0.3131032884 -0.1148320138 0.6324594021 4289309359
-0.3135905564 -0.1143069193 0.6334436536 4288322464
-0.3132015765 -0.1134622097 0.6326579452 4288125084
-0.3128121793 -0.1126190871 0.6318714023 4286743431
-0.3124223948 -0.1117775738 0.6310840249 4285691258
-0.3111556768 -0.1106260344 0.6285252571 4285691258
-0.3098882735 -0.1094799414 0.6259651780 4287665303
-0.3086201847 -0.1083392948 0.6234036684 4290033851
-0.3082283437 -0.1075099707 0.6226121783 4292073691
-0.3004797995 -0.2057509571 0.6083251238 4291021522
-0.3005628288 -0.2051317245 0.6084932089 4287468702
-0.3006456494 -0.2045119852 0.6086608768 4290889938
-0.3043909371 -0.1858343035 0.6162432432 4292862959
-0.3031843603 -0.1844156981 0.6138005257 4289441723
-0.3024046421 -0.1832612008 0.6122220159 4283783525
-0.3011964262 -0.1818515062 0.6097759604 4281743942
-0.2995594442 -0.1801893264 0.6064618230 4282993496
-0.2979213595 -0.1785338521 0.6031455398 4287533213
-0.2967103720 -0.1771407425 0.6006938815 4292533481
-0.3052186072 -0.1664295942 0.6179189086 4291021006
-0.3052878678 -0.1657806486 0.6180591583 4286481289
-0.3053568900 -0.1651312709 0.6181988716 4288915630
-0.3017508984 -0.1604662091 0.6108984947 4292534759
-0.3009555340 -0.1593662798 0.6092882156 4290034879
-0.3001595140 -0.1582695991 0.6076767445 4290758602
-0.3066897988 -0.1423967928 0.6208973527 4291349968
-0.3063160777 -0.1415342540 0.6201407313 4288652455
-0.3050740063 -0.1402741224 0.6176261306 4289441971
-0.3042652011 -0.1392178237 0.6159887314 4291547347
-0.3120486140 -0.1154044643 0.6317463517 4292006872
-0.3125351965 -0.1148813963 0.6327313781 4287006604
-0.3130216002 -0.1143560857 0.6337161660 4284374884
-0.3126333654 -0.1135110259 0.6329301596 4285756537
-0.3122447431 -0.1126675606 0.6321433783 4288519843
-0.3114182949 -0.1116688624 0.6304702163 4290033596
-0.3105913103 -0.1106736809 0.6287959814 4289836217
-0.3093262315 -0.1095271036 0.6262348294 4289112749
-0.3080604970 -0.1083859876 0.6236723661 4288652198
-0.3081070483 -0.1077093109 0.6237666011 4288389284
-0.3077155948 -0.1068802997 0.6229740977 4289310386
-0.3081993163 -0.1063550487 0.6239533424 4290692038
-0.3086828589 -0.1058275774 0.6249323487 4292336863
-0.2986560762 -0.2049630731 0.6059955955 4289771455
-0.2987386882 -0.2043462545 0.6061632037 4287666081
-0.2992443144 -0.2040175050 0.6071891785 4291811040
-0.3017732799 -0.1839710623 0.6123206019 4292139236
-0.3005678952 -0.1825585961 0.6098748446 4287402140
-0.2997887135 -0.1814094782 0.6082937717 4282994009
-0.2981545627 -0.1797484457 0.6049779654 4281414464
-0.2969466150 -0.1783507615 0.6025269628 4283783012
-0.2957378030 -0.1769579947 0.6000741720 4289178038
-0.3033700585 -0.1657944024 0.6155605912 4292534245
-0.3038687408 -0.1653818935 0.6165724993 4287731356
-0.3039374948 -0.1647340953 0.6167119741 4287468184
-0.3035760224 -0.1638537794 0.6159785390 4292665831
-0.3007678688 -0.1603038907 0.6102805734 4293127150
-0.2995434999 -0.1589760333 0.6077962518 4290955981
-0.2987488210 -0.1578807682 0.6061838269 4291548118
-0.3058867157 -0.1451024115 0.6206671000 4292600289
-0.3059478104 -0.1444416493 0.6207910776 4291547601
-0.3060086668 -0.1437804997 0.6209145188 4291547601
-0.3056363463 -0.1429165155 0.6201590896 4290297280
-0.3052636087 -0.1420540214 0.6194027662 4287928732
-0.3044573665 -0.1409924626 0.6177667975 4289573557
-0.3032173514 -0.1397346258 0.6152507663 4292271070
-0.3114806116 -0.1154540032 0.6320175529 4290362561
-0.3119663298 -0.1149307266 0.6330031157 4284901228
-0.3124518991 -0.1144052073 0.6339883804 4282927438
-0.3120644391 -0.1135598049 0.6332021356 4283980640
-0.3116765320 -0.1127159894 0.6324150562 4288980908
-0.3075465858 -0.1077556759 0.6240351200 4291284176
-0.3080297410 -0.1072305217 0.6250154376 4290165695
-0.3080757558 -0.1065519974 0.6251087785 4289113007
-0.3085585237 -0.1060233489 0.6260883808 4289178800
-0.3099153936 -0.1057908908 0.6288415790 4290100671
-0.3108351827 -0.1054041013 0.6307079196 4291219152
-0.3113177121 -0.1048658714 0.6316869855 4292863461
-0.2971761823 -0.2050795704 0.6043547392 4292995310
-0.2972586453 -0.2044648230 0.6045224667 4288521386
-0.2973409295 -0.2038495541 0.6046897769 4288389802
-0.2974229753 -0.2032337785 0.6048566699 4292337382
-0.2991613448 -0.1821147054 0.6083919406 4290560203
-0.2979571819 -0.1807084233 0.6059430242 4285691521
-0.2971785367 -0.1795646995 0.6043595076 4282072393
-0.2959727645 -0.1781673729 0.6019073725 4281809221
-0.2947661281 -0.1767749786 0.5994535089 4285230457
-0.2931319773 -0.1751326025 0.5961301923 4290230725
-0.3020230532 -0.1647486538 0.6142116785 4289047216
-0.3020914495 -0.1641033739 0.6143507361 4286415496
-0.3021596074 -0.1634576619 0.6144893765 4291152592
-0.2993561924 -0.1599118859 0.6087881923 4293192943
-0.2981339693 -0.1585853547 0.6063025594 4291350739
-0.2969109416 -0.1572639048 0.6038153172 4292074462
-0.2965466380 -0.1564008892 0.6030744910 4293324529
-0.3040304482 -0.1445476115 0.6182940006 4290494913
-0.3040912449 -0.1438894123 0.6184176207 4289179053
-0.3041517735 -0.1432308108 0.6185407043 4288850088
-0.3033478260 -0.1421667933 0.6169057488 4287073166
-0.3029754758 -0.1413076967 0.6161485314 4288783784
-0.3021703959 -0.1402494460 0.6145113111 4292336606
-0.3086853623 -0.1153738275 0.6277604699 4292468192
-0.3096055388 -0.1150181890 0.6296318173 4287599510
-0.3100901842 -0.1144975796 0.6306174397 4283453782
-0.3105747104 -0.1139747277 0.6316028237 4283190610
-0.3106234372 -0.1132907420 0.6317018867 4285625465
-0.3102361560 -0.1124485061 0.6309143305 4291283663
-0.3093043864 -0.1065196842 0.6290193796 4291481554
-0.3102226853 -0.1061349735 0.6308868527 4290298050
-0.3111409545 -0.1057461053 0.6327543259 4289508534
-0.3111863136 -0.1050583795 0.6328465939 4289573811
-0.3112314045 -0.1043703631 0.6329382658 4290758085
-0.3112761974 -0.1036820412 0.6330293417 4292402910
-0.2957815528 -0.2045792192 0.6028802991 4292468452
-0.2958636880 -0.2039660066 0.6030477285 4287862942
-0.2959456444 -0.2033522874 0.6032147408 4289179318
-0.2956056893 -0.2024492621 0.6025218368 4292797933
-0.2977572680 -0.1816703230 0.6069073081 4292665579
-0.2961297035 -0.1800066680 0.6035899520 4289704894
-0.2953522205 -0.1788651943 0.6020052433 4284769906
-0.2945741117 -0.1777268648 0.6004192233 4282203979
-0.2933695614 -0.1763357371 0.5979640484 4282993495
-0.2925900817 -0.1752045900 0.5963752270 4286085766
-0.2918099165 -0.1740765870 0.5947850943 4290164932
-0.2906030416 -0.1726985127 0.5923251510 4292994031
-0.2997532189 -0.1638806462 0.6109755635 4290428869
-0.3002494574 -0.1634719968 0.6119870543 4285757566
-0.3003172576 -0.1628287882 0.6121252775 4288981423
-0.2979470193 -0.1595194340 0.6072940826 4293192173
-0.2962981164 -0.1579656005 0.6039332151 4291219153
-0.2946482003 -0.1564187109 0.6005702615 4292074462
-0.2938552797 -0.1553322971 0.5989540219 4293127150
-0.3021175265 -0.1446475089 0.6157946587 4291284429
-0.3021782637 -0.1439922452 0.6159184575 4289705397
-0.3022387326 -0.1433365941 0.6160417199 4290297534
-0.3018676937 -0.1424770206 0.6152854562 4288192158
-0.3010649383 -0.1414163113 0.6136491895 4287468181
-0.3002615571 -0.1403589696 0.6120117307 4291415761
-0.3059470057 -0.1146092191 0.6236001849 4290494402
-0.3068651855 -0.1142582297 0.6254716516 4284375653
-0.3077833951 -0.1139030904 0.6273431778 4282072129
-0.3082667887 -0.1133838668 0.6283285022 4283519575
-0.3083151877 -0.1127034426 0.6284271479 4288257440
-0.3100447059 -0.1070163622 0.6319523454 4293915895
-0.3109615743 -0.1066286042 0.6338211298 4293061610
-0.3114428222 -0.1060883179 0.6348020434 4292206301
-0.3114882410 -0.1053983793 0.6348946691 4290889671
-0.3110977113 -0.1045617014 0.6340986490 4289771190
-0.3111425042 -0.1038721353 0.6341899633 4289310385
-0.3111870289 -0.1031822711 0.6342807412 4290757831
-0.3103594780 -0.1022050157 0.6325939894 4293126633
-0.2939687967 -0.2037867755 0.6005449891 4291745243
-0.2940505147 -0.2031759918 0.6007119417 4287666077
-0.2941320240 -0.2025646865 0.6008784175 4290758348
-0.2948043644 -0.1789384931 0.6022519469 4289507515
-0.2936028540 -0.1775427908 0.5997973680 4284967798
-0.2924005091 -0.1761520356 0.5973411202 4282401871
-0.2916224003 -0.1750213653 0.5957515240 4282994008
-0.2908436656 -0.1738938391 0.5941606760 4285559935
-0.2900642753 -0.1727694571 0.5925685167 4289178550
-0.2888588607 -0.1713958383 0.5901059508 4292468200
-0.2974889874 -0.1630117893 0.6077363491 4291613141
-0.2979840040 -0.1626066715 0.6087475419 4285560185
-0.2980513573 -0.1619669050 0.6088851690 4285955713
-0.2981184423 -0.1613267064 0.6090222597 4292074462
-0.2956845164 -0.1586672962 0.6040499806 4293127149
-0.2931823134 -0.1566591263 0.5989382863 4291415761
-0.2915349305 -0.1551171541 0.5955728889 4292402656
-0.3006391525 -0.1449486762 0.6141718030 4293191913
-0.3006998897 -0.1442954391 0.6142958403 4290231228
-0.3007603884 -0.1436417997 0.6144194007 4290757572
-0.3003902733 -0.1427832097 0.6136633158 4289968569
-0.3000197113 -0.1419260949 0.6129063368 4287139470
-0.2987876832 -0.1406650841 0.6103894114 4289968315
-0.2971242964 -0.1392075717 0.6069912910 4291876312
-0.3018659949 -0.1140222102 0.6166780591 4291679704
-0.3032159209 -0.1138438657 0.6194357872 4286283395
-0.3036982715 -0.1133356243 0.6204211712 4282006850
-0.3046143949 -0.1129861027 0.6222926974 4281546812
-0.3050965369 -0.1124724299 0.6232776642 4285231220
-0.3051444888 -0.1117974892 0.6233755946 4291218383
-0.3109165728 -0.1054436415 0.6351673007 4293784563
-0.3105267584 -0.1046066210 0.6343710423 4292600289
-0.3110065162 -0.1040623114 0.6353510618 4290626245
-0.3110510409 -0.1033711955 0.6354420781 4289507764
-0.3106602132 -0.1025361717 0.6346436739 4289902522
-0.3102689683 -0.1017027944 0.6338443756 4292731621
-0.2921601236 -0.2029935420 0.5982074142 4290955213
-0.2922413945 -0.2023851722 0.5983737707 4288060321
-0.2923224866 -0.2017762959 0.5985397696 4291283924
-0.2938318253 -0.1787537783 0.6016302109 4292665579
-0.2930566072 -0.1776154786 0.6000429392 4289375929
-0.2918565571 -0.1762241870 0.5975857973 4285033078
-0.2906556427 -0.1748378426 0.5951268673 4282006600
-0.2894538939 -0.1734564602 0.5926662683 4282532944
-0.2886758149 -0.1723334789 0.5910731554 4285691008
-0.2878971100 -0.1712136567 0.5894787312 4289704381
-0.2871177793 -0.1700969934 0.5878829956 4292007136
-0.2952304482 -0.1621420979 0.6044939160 4292007899
-0.2957241833 -0.1617405117 0.6055049300 4285560185
-0.2962179184 -0.1613366455 0.6065158248 4284639082
-0.2954308093 -0.1602358669 0.6049042344 4291218382
-0.2925734222 -0.1573548913 0.5990536213 4292929000
-0.2900753617 -0.1553514451 0.5939387083 4291284175
-0.2888578176 -0.1540422440 0.5914458036 4292336863
-0.2987949550 -0.1443871260 0.6117923856 4291416015
-0.2988553643 -0.1437364370 0.6119160652 4289179053
-0.2989155352 -0.1430853605 0.6120392680 4291021257
-0.2985458970 -0.1422292441 0.6112824082 4287863193
-0.2977461815 -0.1411708891 0.6096449494 4287863193
-0.2969458699 -0.1401159018 0.6080062985 4291086796
-0.2948555052 -0.1384587735 0.6037262678 4292007898
-0.2973651886 -0.1132540628 0.6088649035 4293060587
-0.2987120748 -0.1130874828 0.6116226912 4288520870
-0.3000591099 -0.1129148230 0.6143807769 4282928465
-0.3009732366 -0.1125741228 0.6162525415 4280954675
-0.3014542758 -0.1120682433 0.6172374487 4282994258
-0.3015019596 -0.1114000678 0.6173350811 4288520870
-0.3099998236 -0.1039613560 0.6347346902 4293718516
-0.3104784787 -0.1034155563 0.6357148290 4292007898
-0.3100884259 -0.1025801972 0.6349161267 4289310385
-0.3096979260 -0.1017464697 0.6341165900 4289770936
-0.3097414672 -0.1010561213 0.6342056990 4293126120
-0.2899365425 -0.2019077390 0.5950075984 4289836732
-0.2900172472 -0.2013026774 0.5951732993 4288323493
-0.2900977731 -0.2006971091 0.5953385234 4291810268
-0.2920863926 -0.1774309576 0.5994195342 4292862699
-0.2913119495 -0.1762962639 0.5978302360 4289704635
-0.2901133299 -0.1749093980 0.5953704119 4285230711
-0.2889138758 -0.1735274792 0.5929089189 4282335819
-0.2877135873 -0.1721505374 0.5904456973 4282270026
-0.2869362831 -0.1710311919 0.5888504982 4285690494
-0.2857344151 -0.1696632802 0.5863839984 4288848558
-0.2845317125 -0.1683003753 0.5839158297 4291151827
-0.2833281755 -0.1669424474 0.5814459324 4292730859
-0.2929775417 -0.1612715423 0.6012483835 4292073179
-0.2934700549 -0.1608735025 0.6022590995 4286217602
-0.2939625382 -0.1604731828 0.6032697558 4283389015
-0.2931765616 -0.1593756378 0.6016567945 4289310385
-0.2915375233 -0.1578198969 0.5982931852 4292666082
-0.2894712090 -0.1560412794 0.5940526724 4292271324
-0.2865508497 -0.1538136601 0.5880594850 4291283916
-0.2849084437 -0.1522824317 0.5846890211 4292402397
-0.2973228991 -0.1446812153 0.6101658940 4293060840
-0.2973833382 -0.1440325379 0.6102899313 4290100155
-0.2974435091 -0.1433834732 0.6104134321 4290297534
-0.2975034416 -0.1427340060 0.6105363965 4289771190
-0.2971343398 -0.1418794245 0.6097790003 4287139470
-0.2959071398 -0.1406187415 0.6072605252 4290494913
-0.2946791947 -0.1393632889 0.6047405005 4290757831
-0.2913053632 -0.1371034831 0.5978167057 4292534242
-0.2946550548 -0.1124776751 0.6046909690 4290888905
-0.2964312732 -0.1124797985 0.6083360910 4285230707
-0.2973434031 -0.1121479124 0.6102079749 4281217847
-0.2982555330 -0.1118118763 0.6120798588 4282007363
-0.2987353504 -0.1113106012 0.6130645275 4286481287
-0.2992150486 -0.1108070835 0.6140489578 4291942106
-0.3090383112 -0.1031704843 0.6342083216 4293850102
-0.3090823889 -0.1024804413 0.6342986822 4292007641
-0.3086925745 -0.1016473398 0.6334987879 4289046956
-0.3083024025 -0.1008158848 0.6326979995 4290297021
-0.2897286117 -0.2028860152 0.5959392786 4293060589
-0.2881367803 -0.2011128217 0.5926650167 4288718251
-0.2869621217 -0.1996371299 0.5902488828 4288323493
-0.2874602973 -0.1993267536 0.5912735462 4292073440
-0.2899214029 -0.1758555770 0.5963358283 4293060078
-0.2891476154 -0.1747254282 0.5947442055 4290428358
-0.2883732021 -0.1735984236 0.5931513309 4286546571
-0.2867522538 -0.1719673127 0.5898172259 4283454300
-0.2855533361 -0.1705957055 0.5873511434 4283124054
-0.2847767174 -0.1694809198 0.5857537389 4284768879
-0.2835762203 -0.1681183875 0.5832844377 4287598491
-0.2819515169 -0.1665108353 0.5799426436 4289703867
-0.2794789076 -0.1644118875 0.5748567581 4291151313
-0.2791226208 -0.1635643989 0.5741239190 4292796138
-0.2903053164 -0.1601656526 0.5971254706 4290297281
-0.2912215889 -0.1600056440 0.5990101695 4285889150
-0.2912875712 -0.1593762040 0.5991458893 4281744444
-0.2905026674 -0.1582828462 0.5975313783 4285494645
-0.2884408534 -0.1565002501 0.5932904482 4289902776
-0.2859522998 -0.1544965357 0.5881718397 4290955464
-0.2834624052 -0.1525034755 0.5830503702 4291152330
-0.2830997109 -0.1516613662 0.5823043585 4292336604
-0.2823108137 -0.1505935490 0.5806816816 4293389294
-0.2959139943 -0.1443245858 0.6086618900 4291942359
-0.2959741950 -0.1436775327 0.6087856889 4289442225
-0.2960341275 -0.1430300921 0.6089090109 4290626499
-0.2956659496 -0.1421765089 0.6081516743 4287797400
-0.2952973545 -0.1413244009 0.6073935032 4287863193
-0.2945002615 -0.1402698904 0.6057540178 4291284429
-0.2924182117 -0.1386099309 0.6014714241 4290757831
-0.2881939113 -0.1359489411 0.5927825570 4292994793
-0.2901799381 -0.1116856262 0.5968675613 4291941593
-0.2919522524 -0.1117005423 0.6005130410 4286809739
-0.2941561639 -0.1118715033 0.6050462127 4282204229
-0.2950663567 -0.1115433350 0.6069183946 4281678398
-0.2959765792 -0.1112110093 0.6087905765 4285099634
-0.2964552641 -0.1107133776 0.6097752452 4290363074
-0.2969338298 -0.1102135032 0.6107596159 4293718517
-0.3072118163 -0.1020929366 0.6319002509 4293915638
-0.3072553575 -0.1014052182 0.6319898367 4290954953
-0.3072986305 -0.1007172093 0.6320787668 4288915368
-0.3069087267 -0.0998880267 0.6312767863 4292336604
-0.2854264677 -0.2003310472 0.5884345174 4292731624
-0.2846714556 -0.1991490722 0.5868780017 4287797149
-0.2847508490 -0.1985523552 0.5870416760 4288652458
-0.2844123840 -0.1976648867 0.5863438845 4292402405
-0.2869877815 -0.1731600016 0.5916532874 4291481046
-0.2862140238 -0.1720375419 0.5900581479 4288520361
-0.2850174010 -0.1706654131 0.5875911713 4285097844
-0.2838199437 -0.1692982763 0.5851225257 4282795089
-0.2821992040 -0.1676851064 0.5817811489 4283255640
-0.2809999585 -0.1663288623 0.5793088675 4284966258
-0.2785319388 -0.1642299891 0.5742207766 4286611596
-0.2785990238 -0.1636313945 0.5743590593 4288914351
-0.2786659002 -0.1630323678 0.5744969845 4290756553
-0.2787325680 -0.1624329090 0.5746344328 4292401378
-0.2871505022 -0.1594455987 0.5919887424 4292797417
-0.2876403332 -0.1590587348 0.5929986238 4288257698
-0.2885544896 -0.1589032710 0.5948832035 4285494392
-0.2886199057 -0.1582781971 0.5950180888 4281349173
-0.2882605791 -0.1574208587 0.5942773223 4283257170
-0.2857776582 -0.1554103196 0.5891585350 4285230960
-0.2832933664 -0.1534104198 0.5840368867 4288717989
-0.2816573381 -0.1518793106 0.5806640983 4290823367
-0.2808701992 -0.1508114934 0.5790413022 4292270813
-0.2940807939 -0.1437588930 0.6062762141 4290494913
-0.2945675552 -0.1433221251 0.6072797775 4289508018
-0.2946272790 -0.1426763088 0.6074028611 4289771190
-0.2942596376 -0.1418242604 0.6066449881 4286613126
-0.2938916087 -0.1409736872 0.6058862209 4289310639
-0.2926686406 -0.1397166848 0.6033650041 4291152843
-0.2901629210 -0.1378558278 0.5981991887 4291547347
-0.2861499786 -0.1110421866 0.5899261236 4292402144
-0.2879184484 -0.1110689491 0.5935719609 4287796634
-0.2901176512 -0.1112527847 0.5981058478 4283454296
-0.2914562523 -0.1110985056 0.6008655429 4282204229
-0.2923644483 -0.1107750088 0.6027378440 4283849567
-0.2937033176 -0.1106095463 0.6054980755 4288784042
-0.2946116030 -0.1102767810 0.6073706150 4292994536
-0.3053886592 -0.1010199264 0.6295885444 4293126120
-0.3054316938 -0.1003345475 0.6296772361 4289573298
-0.3059065342 -0.0997898206 0.6306561828 4290428607
-0.2868170440 -0.2063784450 0.5926583409 4293061105
-0.2868988216 -0.2057785988 0.5928273201 4292403175
-0.2869803905 -0.2051782608 0.5929958820 4292270819
-0.2870617807 -0.2045774013 0.5931640863 4292205026
-0.2871429920 -0.2039760351 0.5933318734 4292402659
-0.2868077159 -0.2030794024 0.5926390886 4292863210
-0.2868884206 -0.2024778873 0.5928058028 4292863210
-0.2828038931 -0.1989458948 0.5843659043 4291284178
-0.2832996547 -0.1986442357 0.5853902698 4286349703
-0.2825452387 -0.1974665821 0.5838314295 4288586665
-0.2817901969 -0.1962919235 0.5822712183 4291612889
-0.2814514339 -0.1954097897 0.5815712214 4292599784
-0.2815293372 -0.1948175281 0.5817322135 4292862956
-0.2844110727 -0.1713461727 0.5876868367 4292862956
-0.2836379111 -0.1702291816 0.5860891938 4290427075
-0.2824425399 -0.1688633263 0.5836192369 4286413702
-0.2808246911 -0.1672513336 0.5802761912 4283716189
-0.2796275914 -0.1658963859 0.5778025389 4282334536
-0.2780077755 -0.1642971337 0.5744554996 4282663501
-0.2780748010 -0.1636983305 0.5745940208 4284242533
-0.2781416178 -0.1630990803 0.5747320652 4285887871
-0.2782081962 -0.1624994129 0.5748696923 4288256419
-0.2782745957 -0.1618993133 0.5750068426 4290230977
-0.2787631154 -0.1615435481 0.5760163069 4291744216
-0.2849175334 -0.1585687846 0.5887333155 4292665831
-0.2854061127 -0.1581854522 0.5897428989 4287797147
-0.2858946621 -0.1577998698 0.5907524228 4285494392
-0.2859595418 -0.1571791619 0.5908864737 4281612345
-0.2834817767 -0.1551664025 0.5857665539 4283257170
-0.2856647968 -0.1557054669 0.5902774334 4283586135
-0.2810656726 -0.1525533646 0.5807741284 4288717989
-0.2794323862 -0.1510253549 0.5773992538 4291284175
-0.2794946134 -0.1504173130 0.5775278211 4292271070
-0.2921918929 -0.1438341588 0.6037645340 4293192172
-0.2926777005 -0.1434013695 0.6047683954 4289770677
-0.2927373350 -0.1427585036 0.6048915982 4290099642
-0.2927967012 -0.1421152502 0.6050143242 4287336336
-0.2924295664 -0.1412656754 0.6042556763 4285954683
-0.2920620143 -0.1404175907 0.6034961939 4289573300
-0.2908411324 -0.1391628981 0.6009734869 4290099644
-0.2874868214 -0.1368978769 0.5940423608 4291547090
-0.2834214568 -0.1108864620 0.5856419206 4292665316
-0.2843272686 -0.1105880886 0.5875136256 4288520357
-0.2860922515 -0.1106177494 0.5911606550 4283849054
-0.2878575325 -0.1106394231 0.5948083401 4281875264
-0.2891934216 -0.1104889363 0.5975686908 4283454296
-0.2905294597 -0.1103323698 0.6003293991 4287599255
-0.2914358079 -0.1100074798 0.6022022367 4292204765
-0.3040000796 -0.1000934467 0.6281641722 4290757572
-0.3040426672 -0.0994094387 0.6282522082 4289375919
-0.3040849864 -0.0987251401 0.6283395886 4293126120
-0.2853607833 -0.2064595670 0.5910056233 4291679452
-0.2850275338 -0.2055625767 0.5903154612 4289837248
-0.2855238914 -0.2052635103 0.5913434029 4287731872
-0.2856051326 -0.2046647221 0.5915116668 4286546828
-0.2856861949 -0.2040654123 0.5916795731 4285691519
-0.2857670784 -0.2034655809 0.5918470621 4286349190
-0.2854322791 -0.2025703937 0.5911536813 4287138706
-0.2846814394 -0.2013824582 0.5895986557 4287796636
-0.2810200155 -0.1981457025 0.5820155144 4286743948
-0.2806828618 -0.1972621083 0.5813173056 4284309607
-0.2807612717 -0.1966711432 0.5814796686 4288717738
-0.2800073624 -0.1954987049 0.5799182057 4289046705
-0.2800851464 -0.1949084997 0.5800793171 4288849326
-0.2797464430 -0.1940290630 0.5793778300 4289046962
-0.2798237205 -0.1934387535 0.5795378685 4289836478
-0.2799007893 -0.1928479522 0.5796974897 4290297029
-0.2812275887 -0.1931149662 0.5824453831 4290691787
-0.2829716206 -0.1936614066 0.5860574245 4291283926
-0.2834657729 -0.1933473200 0.5870808959 4291810270
-0.2835429907 -0.1927475184 0.5872408152 4292270821
-0.2840370834 -0.1924297959 0.5882641673 4292468200
-0.2845312357 -0.1921098232 0.5892875195 4292533991
-0.2854427099 -0.1920683980 0.5911752582 4292731370
-0.2863544226 -0.1920229346 0.5930635333 4292928749
-0.2868488431 -0.1916944236 0.5940875411 4292994542
-0.2873432934 -0.1913636327 0.5951115489 4292994542
-0.2819091976 -0.1689321548 0.5838571191 4291413970
-0.2802944779 -0.1673195511 0.5805128813 4288584871
-0.2786787152 -0.1657137573 0.5771664977 4285295221
-0.2770619094 -0.1641147882 0.5738179684 4282992466
-0.2775499225 -0.1637651771 0.5748286843 4282071364
-0.2776166499 -0.1631657332 0.5749669075 4282203463
-0.2776831985 -0.1625658423 0.5751046538 4283453530
-0.2777495086 -0.1619655341 0.5752420425 4285295732
-0.2778156102 -0.1613647938 0.5753788948 4287006350
-0.2778814733 -0.1607636213 0.5755153894 4289111726
-0.2779471576 -0.1601620167 0.5756513476 4290756551
-0.2788563371 -0.1600442529 0.5775343776 4292072411
-0.2797657251 -0.1599223912 0.5794177651 4293125099
-0.2836002707 -0.1575461477 0.5873594284 4289178542
-0.2836649120 -0.1569293141 0.5874933004 4286283650
-0.2837293446 -0.1563120484 0.5876267552 4281349173
-0.2833705842 -0.1554623395 0.5868837833 4282928205
-0.2813192904 -0.1536896080 0.5826353431 4283520340
-0.2784205377 -0.1514652967 0.5766318440 4289046952
-0.2776363790 -0.1503998339 0.5750077367 4291415502
-0.2776982784 -0.1497943401 0.5751359463 4292007639
-0.2777599394 -0.1491884291 0.5752636194 4293520880
-0.2912174761 -0.1436842531 0.6031352878 4292336863
-0.2912771106 -0.1430434138 0.6032588482 4289639091
-0.2913365066 -0.1424021870 0.6033818722 4288981161
-0.2913956642 -0.1417605579 0.6035043597 4284901997
-0.2906036079 -0.1407065243 0.6018639207 4286086271
-0.2902365327 -0.1398609281 0.6011037230 4287336338
-0.2885921001 -0.1384043992 0.5976979136 4286086271
-0.2848180532 -0.1359390318 0.5898815393 4288783784
-0.2814680636 -0.1336924434 0.5829434395 4292468192
-0.2811293602 -0.1108896285 0.5822420120 4292994281
-0.2811761200 -0.1102610454 0.5823388100 4289507252
-0.2825086713 -0.1101335138 0.5850986838 4284638570
-0.2842701972 -0.1101660803 0.5887469053 4281612092
-0.2860319912 -0.1101906598 0.5923957229 4282467401
-0.2873651981 -0.1100430042 0.5951569080 4285888637
-0.2882696092 -0.1097259894 0.5970300436 4291414734
-0.3021405637 -0.0997100249 0.6257579327 4292139225
-0.3021829426 -0.0990286469 0.6258456707 4288915368
-0.3022250235 -0.0983469859 0.6259328127 4291876053
-0.2839075327 -0.2065365314 0.5893514752 4291942624
-0.2835750580 -0.2056406140 0.5886613131 4288192423
-0.2836562395 -0.2050452530 0.5888298154 4285297531
-0.2841514647 -0.2047478557 0.5898578167 4283521120
-0.2838180661 -0.2038530111 0.5891657472 4282796627
-0.2843131125 -0.2035528570 0.5901934505 4282138697
-0.2843936682 -0.2029545903 0.5903606415 4281743678
-0.2836446464 -0.2017658502 0.5888057947 4282006850
-0.2841393948 -0.2014624178 0.5898327827 4282467403
-0.2829744816 -0.1999838203 0.5874146223 4282138438
-0.2797335088 -0.1970481724 0.5806868076 4282598989
-0.2798117101 -0.1964578927 0.5808491111 4288388773
-0.2790591717 -0.1952859014 0.5792869925 4285099123
-0.2783059776 -0.1941169202 0.5777234435 4282467403
-0.2783831358 -0.1935286671 0.5778836012 4282138440
-0.2784600854 -0.1929399222 0.5780434012 4282993749
-0.2781211436 -0.1920635998 0.5773397684 4283454046
-0.2798609734 -0.1926196069 0.5809513927 4283585632
-0.2816015184 -0.1931680739 0.5845645070 4284111976
-0.2816784978 -0.1925712228 0.5847243071 4284835699
-0.2817552984 -0.1919738650 0.5848837495 4285625215
-0.2826644778 -0.1919413954 0.5867710710 4286217352
-0.2831574976 -0.1916231066 0.5877945423 4286941586
-0.2840670943 -0.1915834695 0.5896826982 4287665309
-0.2849768996 -0.1915397942 0.5915713310 4288586411
-0.2846367359 -0.1906546801 0.5908652544 4289375927
-0.2851298749 -0.1903273463 0.5918889046 4289968064
-0.2852060497 -0.1897203922 0.5920470357 4290494408
-0.2848649621 -0.1888364702 0.5913389325 4291152338
-0.2849406004 -0.1882294267 0.5914959908 4291678682
-0.2841814756 -0.1870725006 0.5899201632 4292073440
-0.2842565179 -0.1864662915 0.5900759101 4292402405
-0.2839138210 -0.1855866611 0.5893645287 4292797163
-0.2793435156 -0.1671363413 0.5798772573 4292729830
-0.2785710990 -0.1660316885 0.5782738328 4291019212
-0.2773777843 -0.1646807045 0.5757966638 4288387746
-0.2778651416 -0.1643291861 0.5768083334 4285427061
-0.2775115371 -0.1634799987 0.5760743022 4283256149
-0.2775780857 -0.1628789902 0.5762124658 4282203461
-0.2777105570 -0.1616756916 0.5764874816 4282466633
-0.2777764797 -0.1610733867 0.5766242743 4283848029
-0.2774212062 -0.1602275223 0.5758867860 4285624440
-0.2779076695 -0.1598675102 0.5768966079 4287269265
-0.2788152695 -0.1597465575 0.5787807107 4288716711
-0.2788805366 -0.1591407210 0.5789161325 4290164414
-0.2789455652 -0.1585344523 0.5790511370 4291414481
-0.2798532844 -0.1584049016 0.5809354782 4292861927
-0.2817985415 -0.1569061726 0.5849735141 4291415504
-0.2822847962 -0.1565258503 0.5859829187 4287994268
-0.2823489606 -0.1559102088 0.5861160755 4281875001
-0.2815686166 -0.1548298895 0.5844962001 4283322447
-0.2799431980 -0.1532904357 0.5811220407 4285033065
-0.2770497799 -0.1510670781 0.5751157999 4290362298
-0.2762669623 -0.1500030458 0.5734907389 4291876053
-0.2763285935 -0.1493991762 0.5736187100 4292139225
-0.2898196578 -0.1433242708 0.6016242504 4291679187
-0.2898790538 -0.1426850706 0.6017475128 4289836470
-0.2899382412 -0.1420454681 0.6018703580 4286744199
-0.2899971306 -0.1414054632 0.6019926667 4283915102
-0.2896311283 -0.1405589879 0.6012328863 4285888892
-0.2884151936 -0.1393036842 0.5987087488 4286349443
-0.2871984839 -0.1380536109 0.5961830616 4285230962
-0.2830064893 -0.1353858262 0.5874810815 4284967790
-0.2800876200 -0.1333434880 0.5814219117 4288849577
-0.2788677514 -0.1321195364 0.5788896084 4292863207
-0.2805541754 -0.1115649715 0.5823904276 4292928488
-0.2806011140 -0.1109364554 0.5824878812 4289573045
-0.2806478143 -0.1103076190 0.5825847983 4285164914
-0.2815500200 -0.1100128591 0.5844576359 4281809471
-0.2828802466 -0.1098801792 0.5872189403 4281875264
-0.2846386433 -0.1099067032 0.5908691287 4285428086
-0.2855411470 -0.1095966026 0.5927426219 4290296768
-0.2868718505 -0.1094457060 0.5955049992 4293585903
-0.3002851605 -0.0993262008 0.6233491302 4293126120
-0.3003273010 -0.0986474529 0.6234365702 4289112747
-0.3003691733 -0.0979684293 0.6235234737 4290889158
-0.2825386226 -0.2060156614 0.5878651738 4291810268
-0.2826197743 -0.2054214925 0.5880340934 4286086277
-0.2827007771 -0.2048268169 0.5882025361 4282533455
-0.2827815413 -0.2042316347 0.5883706808 4282467662
-0.2828621566 -0.2036359459 0.5885383487 4282072904
-0.2829425633 -0.2030397356 0.5887056589 4281941318
-0.2826090157 -0.2021470517 0.5880116820 4281940289
-0.2797916830 -0.1994850338 0.5821497440 4282006082
-0.2811126113 -0.1997769624 0.5848981738 4281808705
-0.2787069082 -0.1974230260 0.5798927546 4282400842
-0.2787851095 -0.1968339086 0.5800554156 4283321944
-0.2776200175 -0.1953695267 0.5776312947 4287466903
-0.2768685222 -0.1942006201 0.5760676861 4283914081
-0.2769455314 -0.1936144233 0.5762279034 4281808705
-0.2778517902 -0.1936056614 0.5781134963 4280954166
-0.2770990133 -0.1924405545 0.5765472651 4282401612
-0.2767605484 -0.1915656775 0.5758430362 4282730323
-0.2772517502 -0.1912647337 0.5768650174 4281414463
-0.2789884508 -0.1918178797 0.5804785490 4280361775
-0.2803106308 -0.1920789182 0.5832294822 4280559154
-0.2803871036 -0.1914831251 0.5833886266 4281019705
-0.2804633677 -0.1908868700 0.5835473537 4280953912
-0.2813706994 -0.1908539385 0.5854351521 4281808705
-0.2818625271 -0.1905359477 0.5864585042 4282269256
-0.2823544145 -0.1902157068 0.5874819160 4282533198
-0.2828463018 -0.1898932159 0.5885053277 4282927956
-0.2833381891 -0.1895684600 0.5895288587 4283256921
-0.2829977870 -0.1886864901 0.5888205767 4283585886
-0.2830732465 -0.1880823970 0.5889775753 4284046437
-0.2831484973 -0.1874778122 0.5891340971 4284638574
-0.2832235396 -0.1868727654 0.5892902613 4285362297
-0.2828817666 -0.1859932989 0.5885791183 4286020227
-0.2825395465 -0.1851151437 0.5878671408 4286744209
-0.2826137841 -0.1845104396 0.5880215764 4287402139
-0.2826877832 -0.1839052588 0.5881755352 4288125862
-0.2823445499 -0.1830292344 0.5874613523 4288981171
-0.2828351855 -0.1826934516 0.5884822607 4289770174
-0.2829085886 -0.1820868552 0.5886349678 4290230725
-0.2833991349 -0.1817474365 0.5896556377 4290363592
-0.2834722400 -0.1811389923 0.5898077488 4290626764
-0.2835451066 -0.1805300713 0.5899593830 4290626764
-0.2836177945 -0.1799206883 0.5901106000 4290758350
-0.2836902440 -0.1793108433 0.5902613401 4291416280
-0.2837625146 -0.1787005216 0.5904116631 4292008417
-0.2834165394 -0.1778274477 0.5896918178 4292533991
-0.2826520205 -0.1766943336 0.5881011486 4292994542
-0.2772703767 -0.1649973541 0.5769038200 4292664550
-0.2777569592 -0.1646448076 0.5779162049 4291282897
-0.2776692510 -0.1613832861 0.5777336955 4282071364
-0.2773147821 -0.1605361998 0.5769962072 4282137157
-0.2778004706 -0.1601751447 0.5780067444 4282663501
-0.2782861590 -0.1598118544 0.5790172815 4283321431
-0.2783513367 -0.1592057943 0.5791528821 4284505705
-0.2779957056 -0.1583597511 0.5784129500 4285953151
-0.2784810364 -0.1579924226 0.5794227123 4287466901
-0.2793870866 -0.1578605771 0.5813079476 4288782761
-0.2798724473 -0.1574878246 0.5823177695 4290427840
-0.2799368203 -0.1568769068 0.5824517012 4291612114
-0.2804220319 -0.1565005481 0.5834612846 4291348941
-0.2804860473 -0.1558878720 0.5835945010 4288980393
-0.2805498540 -0.1552747637 0.5837272406 4282270022
-0.2797707617 -0.1541967988 0.5821062326 4283783261
-0.2785696089 -0.1528908014 0.5796070695 4286086271
-0.2752600312 -0.1504380256 0.5727209449 4291349711
-0.2753217220 -0.1498352736 0.5728493333 4291612111
-0.2749614716 -0.1490035653 0.5720997453 4292993764
-0.2884243727 -0.1429638714 0.6001114249 4291942105
-0.2884835303 -0.1423262954 0.6002345085 4290164665
-0.2885424495 -0.1416883320 0.6003571153 4285624948
-0.2886011600 -0.1410499662 0.6004791856 4284309088
-0.2882357240 -0.1402050406 0.5997188687 4286677636
-0.2874459028 -0.1391563565 0.5980755687 4283651158
-0.2862314582 -0.1379067302 0.5955487490 4284309088
-0.2816232145 -0.1350354254 0.5859605670 4283520344
-0.2791339755 -0.1331965625 0.5807812810 4287138959
-0.2779163718 -0.1319730729 0.5782478452 4292336606
-0.2799781859 -0.1122404486 0.5825378299 4292139227
-0.2800253332 -0.1116119921 0.5826358795 4288717991
-0.2800722122 -0.1109832227 0.5827334523 4284375910
-0.2801188529 -0.1103541404 0.5828304887 4281744190
-0.2810194194 -0.1100592688 0.5847042203 4281809983
-0.2823471427 -0.1099265516 0.5874667764 4285231219
-0.2832478285 -0.1096224189 0.5893408060 4290494659
-0.2841485441 -0.1093141288 0.5912148952 4293718516
-0.2980051041 -0.0987998098 0.6200456023 4293586671
-0.2984758019 -0.0982658640 0.6210249662 4289639091
-0.2985174358 -0.0975894704 0.6211116314 4289902263
-0.2811722159 -0.2054942250 0.5863772631 4291481305
-0.2812530696 -0.2049016058 0.5865458846 4285691521
-0.2813337147 -0.2043084800 0.5867140293 4281941320
-0.2814141810 -0.2037148476 0.5868818760 4281875527
-0.2810817063 -0.2028228790 0.5861884952 4281612353
-0.2811616659 -0.2022290975 0.5863552690 4281349181
-0.2812414467 -0.2016348094 0.5865216255 4281019441
-0.2813210487 -0.2010400295 0.5866876245 4280887855
-0.2768550515 -0.1972070038 0.5773739219 4281413945
-0.2769329846 -0.1966208369 0.5775364637 4282203461
-0.2770107388 -0.1960341632 0.5776985884 4283387735
-0.2762611508 -0.1948635727 0.5761353374 4287730073
-0.2755109370 -0.1936960071 0.5745707750 4286809741
-0.2755876482 -0.1931113750 0.5747307539 4285954432
-0.2756641507 -0.1925262511 0.5748903751 4284967539
-0.2753264606 -0.1916524321 0.5741860867 4284835953
-0.2762307823 -0.1916418523 0.5760719776 4284506734
-0.2775495946 -0.1919137090 0.5788223743 4283717218
-0.2788689137 -0.1921797991 0.5815737844 4282796116
-0.2789452672 -0.1915860623 0.5817330480 4282072393
-0.2790214419 -0.1909918636 0.5818918943 4281809475
-0.2799268365 -0.1909629703 0.5837800503 4281743682
-0.2804176509 -0.1906480491 0.5848036408 4281742912
-0.2809084952 -0.1903308630 0.5858272314 4281874498
-0.2813993692 -0.1900114268 0.5868509412 4281875268
-0.2814750969 -0.1894103587 0.5870089531 4282072647
-0.2815506458 -0.1888088137 0.5871664882 4282270026
-0.2812106311 -0.1879291832 0.5864573121 4282270026
-0.2812856436 -0.1873275638 0.5866138339 4282072647
-0.2813604772 -0.1867254525 0.5867698789 4282072647
-0.2814351022 -0.1861228645 0.5869255066 4281875014
-0.2815095484 -0.1855197996 0.5870807171 4282006600
-0.2811678350 -0.1846431196 0.5863681436 4282269772
-0.2808257043 -0.1837677360 0.5856546164 4282598737
-0.2808993161 -0.1831650287 0.5858080983 4282598737
-0.2809727192 -0.1825618446 0.5859611630 4282401358
-0.2810459137 -0.1819581836 0.5861138105 4282664530
-0.2811188996 -0.1813540608 0.5862660408 4283256667
-0.2816082537 -0.1810172349 0.5872865915 4283388764
-0.2816809416 -0.1804112643 0.5874381661 4283520350
-0.2817534208 -0.1798048317 0.5875893235 4283783522
-0.2818256915 -0.1791979373 0.5877400637 4284178280
-0.2818977535 -0.1785905659 0.5878903270 4284770417
-0.2823867202 -0.1782460213 0.5889101028 4285296761
-0.2820412517 -0.1773744375 0.5881896019 4286152324
-0.2812780440 -0.1762427092 0.5865979791 4287336598
-0.2813490629 -0.1756352931 0.5867460370 4290494149
-0.2810023427 -0.1747677326 0.5860229731 4291020493
-0.2810728252 -0.1741603017 0.5861699581 4290428356
-0.2807253599 -0.1732945293 0.5854453444 4290494149
-0.2803774774 -0.1724301130 0.5847198367 4290559940
-0.2800291777 -0.1715670526 0.5839934945 4291020491
-0.2796804607 -0.1707053483 0.5832662582 4291152077
-0.2789131701 -0.1695907563 0.5816660523 4291415249
-0.2785635293 -0.1687326878 0.5809368491 4292072411
-0.2782134414 -0.1678759754 0.5802068114 4292335583
-0.2778629661 -0.1670206487 0.5794758797 4292664548
-0.2775120437 -0.1661667079 0.5787440538 4292796134
-0.2767420411 -0.1650644094 0.5771382451 4292730341
-0.2768089771 -0.1644629389 0.5772778392 4292796134
-0.2767867744 -0.1606016606 0.5772314668 4283190099
-0.2776910365 -0.1604829133 0.5791173577 4282795341
-0.2781759501 -0.1601185799 0.5801286101 4282203204
-0.2778214812 -0.1592708081 0.5793893933 4282005825
-0.2774665952 -0.1584244370 0.5786492825 4282400583
-0.2779510319 -0.1580569893 0.5796595812 4283124563
-0.2784354389 -0.1576872915 0.5806698203 4284177251
-0.2789198458 -0.1573153287 0.5816799998 4284506470
-0.2794042230 -0.1569411159 0.5826901197 4285098607
-0.2794682980 -0.1563295573 0.5828237534 4287203982
-0.2799524963 -0.1559517235 0.5838335752 4287993498
-0.2800162435 -0.1553384066 0.5839664936 4282072128
-0.2792386711 -0.1542600244 0.5823448896 4283782746
-0.2776192427 -0.1527221203 0.5789676309 4285624950
-0.2747366428 -0.1504997760 0.5729560256 4289769909
-0.2747982442 -0.1498967856 0.5730845332 4290164665
-0.2744387388 -0.1490647644 0.5723347664 4291743697
-0.2866088748 -0.1423930526 0.5977152586 4291218382
-0.2870905399 -0.1419671178 0.5987197757 4290033081
-0.2871492207 -0.1413307935 0.5988421440 4285559157
-0.2867846787 -0.1404868513 0.5980819464 4285098606
-0.2864197493 -0.1396444142 0.5973208547 4286875017
-0.2856312096 -0.1385981292 0.5956763625 4282598472
-0.2844188809 -0.1373508275 0.5931481123 4283256402
-0.2802425027 -0.1346846372 0.5844383836 4284835434
-0.2786046565 -0.1332519352 0.5810226798 4288783014
-0.2773894072 -0.1320279539 0.5784882903 4292928488
-0.2785495222 -0.1125717983 0.5809077024 4291941593
-0.2790227234 -0.1121165007 0.5818945169 4287336338
-0.2790697217 -0.1114887595 0.5819925666 4284046688
-0.2791165113 -0.1108606979 0.5820900798 4281743933
-0.2795892358 -0.1104006171 0.5830759406 4282401863
-0.2800618410 -0.1099383011 0.5840615630 4285559927
-0.2809606791 -0.1096401289 0.5859361291 4290297023
-0.2822859883 -0.1095032170 0.5886999965 4293652466
-0.2961587608 -0.0984151065 0.6176313162 4293980659
-0.2966284454 -0.0978838652 0.6186107993 4290362044
-0.2970979512 -0.0973503888 0.6195899248 4289375149
-0.2971391678 -0.0966753811 0.6196758747 4293717487
-0.2798083723 -0.2049722224 0.5848877430 4292073442
-0.2798888683 -0.2043811530 0.5850560069 4287204760
-0.2795574963 -0.2034898996 0.5843632817 4283125594
-0.2796375155 -0.2028986812 0.5845305920 4281743941
-0.2797173262 -0.2023069710 0.5846974254 4280888632
-0.2797969878 -0.2017147541 0.5848639011 4280428081
-0.2794642448 -0.2008258104 0.5841684341 4280756269
-0.2795433998 -0.2002334595 0.5843338370 4280427304
-0.2787975073 -0.1990516931 0.5827746987 4281019957
-0.2772258818 -0.1972857565 0.5794895291 4281677887
-0.2756531537 -0.1955263317 0.5762020350 4283783263
-0.2753176093 -0.1946489066 0.5755006671 4289112496
-0.2745687664 -0.1934817880 0.5739353299 4291020493
-0.2742322981 -0.1926077753 0.5732319951 4291678423
-0.2743085027 -0.1920242161 0.5733912587 4291875802
-0.2739712894 -0.1911518574 0.5726863742 4291678423
-0.2748736739 -0.1911430806 0.5745726824 4291481046
-0.2766032815 -0.1917033941 0.5781880617 4291152081
-0.2775064111 -0.1916848421 0.5800759196 4290559690
-0.2779961526 -0.1913774759 0.5810996294 4289770174
-0.2776583135 -0.1905000508 0.5803934932 4288849326
-0.2785618007 -0.1904729605 0.5822820067 4288125603
-0.2790515125 -0.1901597232 0.5833057165 4287533212
-0.2795412540 -0.1898442209 0.5843294263 4286941075
-0.2796167731 -0.1892461032 0.5844872594 4285954180
-0.2801064551 -0.1889269799 0.5855108500 4284901492
-0.2801817060 -0.1883269995 0.5856681466 4283980390
-0.2798421681 -0.1874488443 0.5849583745 4283190874
-0.2795021832 -0.1865719855 0.5842477083 4282664530
-0.2795765996 -0.1859723479 0.5844032764 4282335565
-0.2796508372 -0.1853722334 0.5845584273 4282072393
-0.2797248363 -0.1847716272 0.5847131610 4281875014
-0.2797986567 -0.1841705590 0.5848674178 4281941061
-0.2794570327 -0.1832966506 0.5841532946 4282467405
-0.2791149914 -0.1824240685 0.5834383368 4282730577
-0.2796034217 -0.1820939332 0.5844593644 4282401612
-0.2796763182 -0.1814918518 0.5846117139 4282335049
-0.2797490060 -0.1808893085 0.5847636461 4282598221
-0.2798215151 -0.1802863032 0.5849151611 4283059288
-0.2803096771 -0.1799498051 0.5859355927 4282927702
-0.2803818583 -0.1793449670 0.5860865116 4282796116
-0.2804538310 -0.1787396520 0.5862369537 4282335565
-0.2805255949 -0.1781338751 0.5863869786 4282138440
-0.2805971801 -0.1775276363 0.5865365863 4282204233
-0.2802520990 -0.1766584367 0.5858153105 4282006854
-0.2803231478 -0.1760521680 0.5859637856 4282204233
-0.2799773514 -0.1751847565 0.5852409601 4284770158
-0.2800478637 -0.1745784730 0.5853883624 4285625467
-0.2797013521 -0.1737128496 0.5846639872 4285493111
-0.2793543935 -0.1728485674 0.5839387774 4285558904
-0.2790070176 -0.1719856560 0.5832126737 4285493111
-0.2794935405 -0.1716364324 0.5842296481 4285822076
-0.2787283063 -0.1705191433 0.5826300383 4286217088
-0.2779624164 -0.1694050431 0.5810291171 4286611846
-0.2776133716 -0.1685475558 0.5802994967 4287072397
-0.2772639394 -0.1676914543 0.5795690417 4287072397
-0.2773317397 -0.1670883596 0.5797107816 4287335569
-0.2769815624 -0.1662340909 0.5789787769 4287796120
-0.2770488262 -0.1656310260 0.5791194439 4287993245
-0.2766979337 -0.1647786200 0.5783858895 4288388003
-0.2766766548 -0.1609104872 0.5783414841 4284637802
-0.2775793672 -0.1607908010 0.5802283883 4284308837
-0.2772259414 -0.1599422246 0.5794896483 4283848286
-0.2768720984 -0.1590950638 0.5787500143 4283190356
-0.2773557901 -0.1587288380 0.5797610879 4282664012
-0.2774204016 -0.1581214964 0.5798961520 4282400840
-0.2779039443 -0.1577516794 0.5809068680 4282137668
-0.2792259753 -0.1578536332 0.5836703777 4281874750
-0.2788709402 -0.1570052505 0.5829282403 4282137922
-0.2785155177 -0.1561582834 0.5821852684 4284505957
-0.2789987624 -0.1557812691 0.5831953883 4287664021
-0.2790623307 -0.1551686376 0.5833283067 4281808956
-0.2782862186 -0.1540907770 0.5817059278 4283980125
-0.2770896554 -0.1527846754 0.5792047977 4285098606
-0.2742125988 -0.1505614370 0.5731908083 4287006603
-0.2742741406 -0.1499582380 0.5733194947 4287598481
-0.2739153802 -0.1491259038 0.5725694895 4287993239
-0.2735561728 -0.1482950300 0.5718187094 4289243304
-0.2736168802 -0.1476924568 0.5719455481 4290888129
-0.2740977705 -0.1473154426 0.5729507804 4291941330
-0.2745786011 -0.1469361633 0.5739558935 4293059811
-0.2851606309 -0.1426647305 0.5960756540 4293389551
-0.2847975492 -0.1418216377 0.5953167081 4289968315
-0.2848560810 -0.1411892027 0.5954390168 4289572017
-0.2849143445 -0.1405563802 0.5955608487 4285427058
-0.2849723995 -0.1399231702 0.5956821442 4286414466
-0.2846079171 -0.1390832067 0.5949203372 4285690743
-0.2838206887 -0.1380393356 0.5932747722 4286480259
-0.2826104462 -0.1367943585 0.5907449722 4288190877
-0.2788643241 -0.1343334317 0.5829144120 4289440944
-0.2776520848 -0.1331046373 0.5803804398 4291875285
-0.2775010467 -0.1136974245 0.5800647140 4293125353
-0.2775486112 -0.1130723059 0.5801641345 4290625219
-0.2780210376 -0.1126190722 0.5811516643 4286809225
-0.2780681849 -0.1119923592 0.5812501907 4283124816
-0.2785403430 -0.1115356088 0.5822371244 4282335300
-0.2785870433 -0.1109073013 0.5823348165 4283124816
-0.2786335349 -0.1102786809 0.5824319720 4286085501
-0.2791052163 -0.1098171473 0.5834179521 4290362046
-0.2804278731 -0.1096862704 0.5861826539 4293717489
-0.2947852314 -0.0975014567 0.6161940694 4291085767
-0.2952536941 -0.0969706848 0.6171733737 4288914598
-0.2952946723 -0.0962983295 0.6172590256 4293256936
-0.2788577378 -0.2047512084 0.5842570662 4292731372
-0.2786072195 -0.2032701224 0.5837321877 4288586413
-0.2782759964 -0.2023806572 0.5830382109 4286810002
-0.2783555090 -0.2017904967 0.5832047462 4285165177
-0.2784348130 -0.2011998445 0.5833709836 4284046696
-0.2785139382 -0.2006086707 0.5835367441 4283191124
-0.2781813741 -0.1997215450 0.5828399658 4282730573
-0.2774367630 -0.1985411048 0.5812798738 4282730575
-0.2766914964 -0.1973636597 0.5797184110 4282335817
-0.2751218379 -0.1956035793 0.5764297247 4283849056
-0.2747870088 -0.1947258562 0.5757281780 4289244082
-0.2744517624 -0.1938493848 0.5750257969 4291020493
-0.2741160989 -0.1929741800 0.5743224621 4291481044
-0.2741923332 -0.1923895627 0.5744822025 4291744218
-0.2734435201 -0.1912276000 0.5729132891 4291678425
-0.2735191584 -0.1906437576 0.5730717778 4291612632
-0.2740072608 -0.1903461069 0.5740944147 4291612632
-0.2761464715 -0.1911893487 0.5785765052 4291546585
-0.2762222290 -0.1905987710 0.5787351727 4291546585
-0.2767107487 -0.1902917176 0.5797587633 4291678425
-0.2776124477 -0.1902655512 0.5816479325 4291810011
-0.2776879370 -0.1896708608 0.5818061233 4291612378
-0.2781765759 -0.1893570423 0.5828298926 4291480792
-0.2782517970 -0.1887605041 0.5829874873 4291218133
-0.2787403762 -0.1884430647 0.5840111375 4291086547
-0.2784016132 -0.1875659674 0.5833014250 4290954448
-0.2784762383 -0.1869679838 0.5834577680 4290428104
-0.2781367600 -0.1860925853 0.5827465057 4289638588
-0.2782108784 -0.1854945272 0.5829017758 4288914865
-0.2782847881 -0.1848959923 0.5830566287 4287993763
-0.2783585191 -0.1842969805 0.5832110643 4287467419
-0.2784320116 -0.1836974919 0.5833650827 4286414985
-0.2785053253 -0.1830975264 0.5835186839 4285230711
-0.2785784304 -0.1824970841 0.5836718678 4284243816
-0.2786513567 -0.1818961799 0.5838246346 4283520093
-0.2787240446 -0.1812947989 0.5839769840 4282927956
-0.2787965536 -0.1806929410 0.5841288567 4282598991
-0.2788688540 -0.1800906211 0.5842803717 4282203210
-0.2789409459 -0.1794878393 0.5844314098 4282466382
-0.2790128291 -0.1788845807 0.5845820308 4282926933
-0.2790845335 -0.1782808602 0.5847322345 4282861140
-0.2791559994 -0.1776766777 0.5848819613 4283058774
-0.2792272866 -0.1770720333 0.5850313306 4283256153
-0.2788827121 -0.1762043238 0.5843093991 4282795602
-0.2789534628 -0.1755996495 0.5844576359 4282795602
-0.2786081731 -0.1747337282 0.5837342143 4282532428
-0.2786784172 -0.1741290390 0.5838813186 4283124565
-0.2787484229 -0.1735238880 0.5840280652 4282467405
-0.2784021199 -0.1726602018 0.5833024383 4282598991
-0.2784716189 -0.1720550656 0.5834480524 4282664782
-0.2781245410 -0.1711931825 0.5827208757 4282796368
-0.2777770758 -0.1703326553 0.5819928646 4282927954
-0.2770126164 -0.1692190468 0.5803911686 4282862161
-0.2766641974 -0.1683621556 0.5796611905 4283125331
-0.2763153613 -0.1675066501 0.5789303184 4283059538
-0.2763829827 -0.1669042557 0.5790719986 4283256917
-0.2760334313 -0.1660505831 0.5783396363 4283585882
-0.2761005461 -0.1654482186 0.5784802437 4283782747
-0.2753330767 -0.1643473953 0.5768722892 4283980126
-0.2758168280 -0.1639940739 0.5778858066 4284637802
-0.2756633461 -0.1613359451 0.5775642395 4285822076
-0.2761465311 -0.1609759033 0.5785765648 4285953662
-0.2766296864 -0.1606135815 0.5795888901 4285558906
-0.2771128416 -0.1602490097 0.5806011558 4284703597
-0.2767598331 -0.1594006121 0.5798615813 4284308839
-0.2768245935 -0.1587934792 0.5799972415 4284308839
-0.2773073614 -0.1584248841 0.5810087323 4283914079
-0.2773717940 -0.1578159928 0.5811437368 4283848286
-0.2778544128 -0.1574437767 0.5821549296 4283190356
-0.2779184878 -0.1568331271 0.5822891593 4282664012
-0.2779823542 -0.1562220454 0.5824229717 4283914333
-0.2780459821 -0.1556105316 0.5825562477 4287664534
-0.2776905298 -0.1547651887 0.5818115473 4281677371
-0.2764968276 -0.1534562409 0.5793105364 4284111712
-0.2740452290 -0.1514576524 0.5741739869 4285361778
-0.2736878991 -0.1506230533 0.5734253526 4287861912
-0.2737493813 -0.1500196308 0.5735541582 4287993239
-0.2733913362 -0.1491869837 0.5728039742 4284374624
-0.2734523118 -0.1485836804 0.5729317069 4282269246
-0.2735130191 -0.1479799598 0.5730589628 4283058762
-0.2735735476 -0.1473758519 0.5731857419 4284703587
-0.2736338377 -0.1467713416 0.5733120441 4286019447
-0.2736938894 -0.1461664289 0.5734378695 4287402129
-0.2758530974 -0.1466773897 0.5779618025 4288849575
-0.2780129611 -0.1471786648 0.5824871063 4290362814
-0.2801735401 -0.1476702392 0.5870139003 4291612881
-0.2810743451 -0.1474907249 0.5889012814 4292797155
-0.2815550864 -0.1470875442 0.5899084806 4293389292
