VERSION 0.7
FIELDS x y z rgba
SIZE 4 4 4 4
TYPE F F F U
COUNT 1 1 1 1
WIDTH 920
HEIGHT 1
VIEWPOINT 0.0 0.0 0.0 1.0 0.0 0.0 0.0
POINTS 920
DATA ascii
-0.2800615132 -0.1372841001 0.5657160282 4284952099
-0.2805529535 -0.1368953437 0.5667086840 4285279524
-0.2806105912 -0.1362936944 0.5668251514 4285411110
-0.2806680202 -0.1356916726 0.5669411421 4285608232
-0.2820268869 -0.1357156634 0.5696859956 4285542439
-0.2829520404 -0.1355258226 0.5715547800 4285804841
-0.2834432721 -0.1351249665 0.5725470781 4285870634
-0.2839344442 -0.1347218901 0.5735391974 4285936426
-0.2839913368 -0.1341114938 0.5736541152 4285870633
-0.2840479612 -0.1335007399 0.5737684965 4286001962
-0.2841043770 -0.1328896284 0.5738824606 4286067755
-0.2841605246 -0.1322781444 0.5739958882 4286067753
-0.2846510410 -0.1318676323 0.5749866962 4285936167
-0.2847068012 -0.1312544942 0.5750993490 4285804066
-0.2847623527 -0.1306409985 0.5752115250 4285869859
-0.2848176658 -0.1300271451 0.5753232837 4286000929
-0.2848727107 -0.1294129342 0.5754344463 4286198308
-0.2853625417 -0.1289950013 0.5764238834 4286593065
-0.2854171991 -0.1283791363 0.5765343308 4286987823
-0.2859067917 -0.1279576868 0.5775232911 4287316531
-0.2859610617 -0.1273401827 0.5776329041 4287382324
-0.2864504158 -0.1269152015 0.5786213875 4287382835
-0.2869396806 -0.1264880002 0.5796096921 4287514421
-0.2874288857 -0.1260585487 0.5805978775 4287777593
-0.2879180014 -0.1256268770 0.5815858841 4287974972
-0.2884070277 -0.1251929849 0.5825737119 4288238144
-0.2888959646 -0.1247568503 0.5835613608 4288435523
-0.2893848419 -0.1243184805 0.5845488310 4288567109
-0.2894377112 -0.1236916035 0.5846556425 4288632902
-0.2899263203 -0.1232497171 0.5856425762 4288830281
-0.2904148102 -0.1228055954 0.5866293907 4288896074
-0.2909032404 -0.1223592460 0.5876159668 4288896074
-0.2918277681 -0.1220931709 0.5894834995 4288896074
-0.2923160791 -0.1216414124 0.5904698968 4289093453
-0.2928043008 -0.1211874187 0.5914560556 4289225039
-0.2932924032 -0.1207311973 0.5924420357 4289356625
-0.2937804163 -0.1202727407 0.5934277773 4289422418
-0.2942683399 -0.1198120490 0.5944133401 4289160275
-0.2947561443 -0.1193491295 0.5953987241 4289226068
-0.2952438295 -0.1188839823 0.5963838100 4289422681
-0.2957314253 -0.1184165999 0.5973687768 4289554267
-0.2962189019 -0.1179469824 0.5983534455 4289358430
-0.2967062891 -0.1174751371 0.5993379354 4289490016
-0.2971935570 -0.1170010567 0.6003221869 4289425765
-0.2976807058 -0.1165247485 0.6013062596 4289623144
-0.2986049354 -0.1162163615 0.6031731367 4289492071
-0.2995291948 -0.1159038395 0.6050401330 4289689450
-0.3000161350 -0.1154189259 0.6060237288 4289822582
-0.3009403646 -0.1150990799 0.6078906655 4290283133
-0.3014271557 -0.1146087572 0.6088739634 4290286477
-0.3023513556 -0.1142815799 0.6107408404 4291010200
-0.3032755852 -0.1139502674 0.6126077771 4291343793
-0.3022581637 -0.1920110434 0.6119254231 4288453536
-0.3019101322 -0.1911108345 0.6112208366 4286016367
-0.3024147153 -0.1907500029 0.6122424006 4285490023
-0.3016393781 -0.1895824522 0.6106727123 4285618268
-0.3004366457 -0.1881507188 0.6082377434 4285091924
-0.2992329895 -0.1867238432 0.6058009863 4285877068
-0.2976015210 -0.1850363761 0.6024979949 4285811275
-0.2959689498 -0.1833555698 0.5991928577 4285745482
-0.2943353057 -0.1816814393 0.5958855152 4285679689
-0.2927005887 -0.1800139993 0.5925760269 4285679689
-0.2914921939 -0.1786151379 0.5901296139 4285679689
-0.2907104492 -0.1774822026 0.5885469317 4285613896
-0.2899280488 -0.1763523817 0.5869629979 4285548103
-0.2895727754 -0.1754849106 0.5862436891 4285482821
-0.2892170250 -0.1746187806 0.5855235457 4285417028
-0.2888608873 -0.1737539917 0.5848025084 4285548355
-0.2885043025 -0.1728905439 0.5840805769 4285482562
-0.2881473005 -0.1720284522 0.5833578110 4285416771
-0.2882181406 -0.1714224219 0.5835012197 4285350978
-0.2878603637 -0.1705621481 0.5827769637 4285285444
-0.2875021994 -0.1697032154 0.5820518136 4285219651
-0.2875721753 -0.1690976620 0.5821934342 4285219649
-0.2872132361 -0.1682405472 0.5814667940 4285153856
-0.2868539095 -0.1673848182 0.5807393193 4285153856
-0.2869230211 -0.1667797416 0.5808792710 4285088063
-0.2865629196 -0.1659258455 0.5801502466 4285088317
-0.2866314948 -0.1653208137 0.5802890658 4284890938
-0.2862706780 -0.1644687653 0.5795585513 4284890423
-0.2863387167 -0.1638637781 0.5796962976 4284890423
-0.2859771252 -0.1630135775 0.5789642930 4285021494
-0.2860446274 -0.1624086350 0.5791009665 4285021494
-0.2861119211 -0.1618032604 0.5792371631 4285086774
-0.2857492864 -0.1609554142 0.5785030127 4285086774
-0.2858160138 -0.1603500992 0.5786380768 4285152821
-0.2854526341 -0.1595041454 0.5779024363 4285152821
-0.2855188251 -0.1588989049 0.5780364275 4285217844
-0.2851547003 -0.1580548286 0.5772992969 4285086258
-0.2852203548 -0.1574496627 0.5774322152 4285283376
-0.2848555148 -0.1566074938 0.5766935349 4285283376
-0.2844902277 -0.1557667404 0.5759540200 4285282863
-0.2845550179 -0.1551621556 0.5760852098 4285217070
-0.2846195698 -0.1545571387 0.5762159228 4285085484
-0.2846839428 -0.1539517194 0.5763461590 4284953898
-0.2843172848 -0.1531139016 0.5756039023 4284953384
-0.2839501798 -0.1522774994 0.5748607516 4284821798
-0.2840136588 -0.1516726911 0.5749892592 4284821796
-0.2836458683 -0.1508382410 0.5742446184 4284756003
-0.2837087810 -0.1502335370 0.5743719935 4284755490
-0.2833402455 -0.1494010389 0.5736258626 4284689697
-0.2829712629 -0.1485699862 0.5728788972 4284755490
-0.2830333412 -0.1479659230 0.5730045438 4284689697
-0.2826636434 -0.1471368223 0.5722560883 4284623904
-0.2827251554 -0.1465328932 0.5723806620 4284558111
-0.2827864587 -0.1459285766 0.5725047588 4284558113
-0.2828475237 -0.1453238577 0.5726283789 4284426527
-0.2824764550 -0.1444978118 0.5718771219 4284294941
-0.2821049690 -0.1436732113 0.5711250305 4284229148
-0.2821651697 -0.1430691779 0.5712469220 4284229148
-0.2817929387 -0.1422465891 0.5704933405 4284294941
-0.2809880078 -0.1412082165 0.5688637495 4284361247
-0.2797501087 -0.1399568617 0.5663576126 4284427040
-0.2798088491 -0.1393568516 0.5664765239 4284361245
-0.2794348001 -0.1385419965 0.5657193065 4284558624
-0.2794930041 -0.1379421651 0.5658370852 4284821283
-0.2795509696 -0.1373419613 0.5659544468 4284887076
-0.2800415456 -0.1369530559 0.5669476390 4285280294
-0.2800991535 -0.1363511831 0.5670642257 4285411880
-0.2801564932 -0.1357489228 0.5671803355 4285935914
-0.2815129459 -0.1357729435 0.5699264407 4286067500
-0.2824364603 -0.1355830580 0.5717961788 4286133546
-0.2829268575 -0.1351820678 0.5727889538 4286265132
-0.2834171951 -0.1347788274 0.5737816095 4286396718
-0.2834739983 -0.1341682076 0.5738966465 4286330925
-0.2835305929 -0.1335572153 0.5740112066 4286396203
-0.2835869193 -0.1329458654 0.5741252899 4286527789
-0.2836430371 -0.1323341429 0.5742388964 4286724652
-0.2841326892 -0.1319234818 0.5752302408 4286724652
-0.2841884196 -0.1313101053 0.5753430128 4287053359
-0.2842439115 -0.1306963712 0.5754553676 4287119152
-0.2842991650 -0.1300822794 0.5755671859 4287250736
-0.2843541503 -0.1294678152 0.5756785274 4287448115
-0.2848431468 -0.1290497333 0.5766685009 4287776310
-0.2848977447 -0.1284336299 0.5767790675 4288039482
-0.2853865027 -0.1280120164 0.5777685046 4288237115
-0.2858751714 -0.1275881827 0.5787578225 4288302908
-0.2859292030 -0.1269691437 0.5788672566 4288172351
-0.2864176333 -0.1265417635 0.5798560977 4288369730
-0.2869060040 -0.1261121631 0.5808447599 4288501316
-0.2873942554 -0.1256803274 0.5818333030 4288567109
-0.2878824472 -0.1252462715 0.5828216672 4288632902
-0.2883705497 -0.1248099655 0.5838097930 4288698695
-0.2888585627 -0.1243714318 0.5847977996 4288830281
-0.2889114022 -0.1237443015 0.5849047303 4288830281
-0.2893991470 -0.1233022511 0.5858922005 4288961867
-0.2898868322 -0.1228579581 0.5868794918 4288961867
-0.2903743982 -0.1224114373 0.5878666043 4289027660
-0.2912973166 -0.1221452653 0.5897350311 4289093453
-0.2917847633 -0.1216933355 0.5907219052 4289159246
-0.2922721207 -0.1212391630 0.5917086005 4289356625
-0.2927593887 -0.1207827628 0.5926950574 4289422418
-0.2932465672 -0.1203241348 0.5936813354 4289356625
-0.2937336266 -0.1198632643 0.5946674347 4289225809
-0.2942205966 -0.1194001660 0.5956532955 4289357395
-0.2947074473 -0.1189348325 0.5966389179 4289488728
-0.2951942086 -0.1184672639 0.5976243615 4289554521
-0.2956808507 -0.1179974675 0.5986095667 4289489502
-0.2961673737 -0.1175254360 0.5995945930 4289621088
-0.2966538072 -0.1170511693 0.6005793214 4289425765
-0.2971401215 -0.1165746748 0.6015638709 4289688937
-0.2980627120 -0.1162661761 0.6034317017 4289492586
-0.2989853323 -0.1159535348 0.6052995324 4289821551
-0.2994714379 -0.1154684350 0.6062836647 4290020220
-0.3003940284 -0.1151484624 0.6081514955 4290414978
-0.3008799851 -0.1146579459 0.6091352701 4290221459
-0.3018025458 -0.1143306419 0.6110030413 4291076768
-0.3031619787 -0.1141637042 0.6137552261 4292001982
-0.3005030751 -0.1906488538 0.6097432971 4286608761
-0.3005808592 -0.1900205463 0.6099010706 4285490280
-0.3002325296 -0.1891234964 0.6091943383 4285553245
-0.2994578183 -0.1879603565 0.6076223254 4285158487
-0.2982563376 -0.1865338385 0.6051844954 4285877579
-0.2970540226 -0.1851121932 0.6027448773 4285745993
-0.2954245210 -0.1834307313 0.5994384885 4285679943
-0.2937939465 -0.1817559600 0.5961299539 4285548357
-0.2925888002 -0.1803507656 0.5936846137 4285548357
-0.2913827896 -0.1789504737 0.5912375450 4285548357
-0.2901759148 -0.1775550991 0.5887886882 4285482821
-0.2898218632 -0.1766850799 0.5880702734 4285417028
-0.2890404463 -0.1755570620 0.5864847302 4285548357
-0.2886854112 -0.1746906191 0.5857644081 4285416771
-0.2887571454 -0.1740830243 0.5859099030 4285416769
-0.2884013951 -0.1732183546 0.5851880312 4285416769
-0.2880451977 -0.1723550409 0.5844653249 4285350976
-0.2876885831 -0.1714930832 0.5837417245 4285285183
-0.2873315513 -0.1706324816 0.5830172896 4285285183
-0.2874017656 -0.1700262427 0.5831597447 4285087804
-0.2870439887 -0.1691674590 0.5824338198 4285219388
-0.2871136665 -0.1685612500 0.5825752020 4285219388
-0.2867551446 -0.1677042842 0.5818477273 4285153595
-0.2863962054 -0.1668486893 0.5811193585 4285087802
-0.2860368192 -0.1659944803 0.5803902149 4285153595
-0.2861053348 -0.1653892249 0.5805292130 4285022009
-0.2857452333 -0.1645368487 0.5797985196 4285087287
-0.2858131826 -0.1639316380 0.5799363852 4285153080
-0.2858809531 -0.1633259952 0.5800738931 4285152821
-0.2855197787 -0.1624759585 0.5793410540 4285152821
-0.2855869830 -0.1618703753 0.5794774294 4285218614
-0.2852250636 -0.1610222161 0.5787430406 4285284407
-0.2852917314 -0.1604166776 0.5788783431 4285218612
-0.2849290669 -0.1595703959 0.5781424642 4285152819
-0.2849951982 -0.1589649320 0.5782766342 4285218096
-0.2850611210 -0.1583590358 0.5784103870 4285086510
-0.2846973836 -0.1575151384 0.5776723623 4285086258
-0.2847627699 -0.1569093317 0.5778049827 4285086258
-0.2843983173 -0.1560673416 0.5770655274 4285152049
-0.2844631374 -0.1554616094 0.5771970153 4285152049
-0.2845277190 -0.1548554599 0.5773281455 4285217585
-0.2841622233 -0.1540158987 0.5765864253 4285151792
-0.2842262685 -0.1534098536 0.5767164230 4285151792
-0.2834299207 -0.1523410380 0.5751006007 4285085999
-0.2834933400 -0.1517360061 0.5752292871 4285151279
-0.2831262648 -0.1509012431 0.5744844079 4285151279
-0.2827587426 -0.1500678957 0.5737386942 4285085484
-0.2828212976 -0.1494634897 0.5738656521 4285019691
-0.2824530602 -0.1486321092 0.5731184483 4285084970
-0.2825150788 -0.1480278224 0.5732442737 4285019177
-0.2821460962 -0.1471984088 0.5724955797 4284887591
-0.2822075486 -0.1465942562 0.5726203322 4284821798
-0.2822687924 -0.1459897012 0.5727445483 4284887078
-0.2818987668 -0.1451628059 0.5719937682 4284755492
-0.2819594443 -0.1445583850 0.5721169114 4284820513
-0.2815887034 -0.1437334716 0.5713645816 4284754720
-0.2816488445 -0.1431292146 0.5714866519 4284819743
-0.2812773585 -0.1423062980 0.5707328320 4284951329
-0.2804739475 -0.1412675232 0.5691027045 4285082915
-0.2796699405 -0.1402320713 0.5674713254 4285148708
-0.2792970538 -0.1394154280 0.5667146444 4285215014
-0.2793554962 -0.1388148069 0.5668332577 4285412393
-0.2794137299 -0.1382138282 0.5669513941 4285609258
-0.2794717252 -0.1376124620 0.5670691133 4285609258
-0.2795294821 -0.1370107234 0.5671862960 4286133805
-0.2795870304 -0.1364086121 0.5673030615 4286265391
-0.2800765634 -0.1360160261 0.5682963729 4286462000
-0.2809983492 -0.1358301789 0.5701667070 4286659379
-0.2819202542 -0.1356402487 0.5720373392 4286987566
-0.2819772959 -0.1350319982 0.5721530914 4287250738
-0.2824666798 -0.1346295476 0.5731461048 4287382324
-0.2829560041 -0.1342248619 0.5741389990 4287382324
-0.2830125391 -0.1336136311 0.5742536783 4287448115
-0.2830688357 -0.1330020428 0.5743678808 4287513908
-0.2831248939 -0.1323900968 0.5744816661 4287644724
-0.2836137116 -0.1319792718 0.5754734874 4287578931
-0.2836693823 -0.1313656569 0.5755864382 4287842357
-0.2837248147 -0.1307516843 0.5756989121 4287973943
-0.2837799788 -0.1301373541 0.5758109093 4288302395
-0.2842682898 -0.1297204047 0.5768016577 4288433981
-0.2843230665 -0.1291044205 0.5769128799 4288368186
-0.2843776345 -0.1284880787 0.5770235658 4288433979
-0.2848655283 -0.1280663013 0.5780135393 4288631358
-0.2853533626 -0.1276423037 0.5790033937 4288697151
-0.2858411074 -0.1272160709 0.5799930692 4288369476
-0.2858949304 -0.1265954971 0.5801022649 4288566855
-0.2863824368 -0.1261657327 0.5810914636 4288830027
-0.2864358723 -0.1255435050 0.5811998844 4288830027
-0.2869231403 -0.1251102239 0.5821886063 4288764234
-0.2878444791 -0.1248630285 0.5840580463 4288830027
-0.2883316278 -0.1244243309 0.5850465298 4289027406
-0.2883844078 -0.1237969548 0.5851535797 4289093199
-0.2888713181 -0.1233547330 0.5861415863 4288961613
-0.2893581390 -0.1229102761 0.5871294141 4288961613
-0.2907139659 -0.1228307858 0.5898804665 4289093199
-0.2907661498 -0.1221973151 0.5899863243 4289158992
-0.2912527621 -0.1217452064 0.5909737349 4289224785
-0.2917392850 -0.1212908626 0.5919609070 4289224785
-0.2926605642 -0.1210140958 0.5938302875 4289224785
-0.2927120328 -0.1203754768 0.5939346552 4289158992
-0.2931982577 -0.1199144274 0.5949212909 4289160273
-0.2936843634 -0.1194511503 0.5959076285 4289357652
-0.2941703796 -0.1189856380 0.5968937874 4289554521
-0.2946563065 -0.1185178906 0.5978797078 4289686107
-0.2951420844 -0.1180479079 0.5988654494 4289490018
-0.2956277728 -0.1175756902 0.5998509526 4289555811
-0.2961133718 -0.1171012372 0.6008362174 4289426023
-0.2965988219 -0.1166245565 0.6018213034 4289623402
-0.2975197732 -0.1163159385 0.6036899686 4289427822
-0.2984407842 -0.1160031855 0.6055586934 4289954166
-0.2989260256 -0.1155178919 0.6065433621 4289955456
-0.2998470068 -0.1151978001 0.6084120870 4290481800
-0.3003320992 -0.1147070825 0.6093963385 4290353816
-0.3016889989 -0.1145451888 0.6121495962 4291538090
-0.3026100099 -0.1142126620 0.6140184402 4292858321
-0.2990984917 -0.1901863515 0.6082640886 4287925134
-0.2991759777 -0.1895596087 0.6084216237 4286017137
-0.2988281250 -0.1886640042 0.6077142954 4285619808
-0.2984798551 -0.1877697110 0.6070060134 4285093464
-0.2977058589 -0.1866101176 0.6054319739 4285878092
-0.2960804105 -0.1849222332 0.6021263599 4285680713
-0.2948794067 -0.1835058182 0.5996838808 4285483075
-0.2936775088 -0.1820942909 0.5972396731 4285351489
-0.2924747467 -0.1806876659 0.5947936773 4285351487
-0.2912711203 -0.1792859584 0.5923458934 4285351487
-0.2896407247 -0.1776279360 0.5890302062 4285351489
-0.2905655205 -0.1775385439 0.5909109712 4285285696
-0.2889336050 -0.1758885682 0.5875921845 4285416769
-0.2885794044 -0.1750209033 0.5868718624 4285285183
-0.2882247865 -0.1741545647 0.5861507058 4285416253
-0.2878697515 -0.1732895821 0.5854286551 4285482046
-0.2875142694 -0.1724259555 0.5847057700 4285350459
-0.2875850797 -0.1718185991 0.5848497152 4285284666
-0.2872288525 -0.1709567606 0.5841252804 4285284666
-0.2868722081 -0.1700962931 0.5834000111 4285218873
-0.2865151465 -0.1692371964 0.5826738477 4285284666
-0.2865847647 -0.1686307639 0.5828154683 4285218873
-0.2862269580 -0.1677734852 0.5820877552 4285218874
-0.2858687341 -0.1669175625 0.5813592672 4285153081
-0.2855100632 -0.1660630256 0.5806298852 4285153080
-0.2855785191 -0.1654575616 0.5807690620 4285087287
-0.2852191031 -0.1646048725 0.5800381899 4285152821
-0.2852870226 -0.1639994383 0.5801762938 4285218614
-0.2853547037 -0.1633935869 0.5803139210 4285152049
-0.2854221761 -0.1627872884 0.5804511309 4285217842
-0.2850613892 -0.1619374156 0.5797173977 4285218612
-0.2847001851 -0.1610889286 0.5789828897 4285218612
-0.2847667933 -0.1604831815 0.5791183114 4285349428
-0.2844048738 -0.1596365869 0.5783822536 4285283635
-0.2844709158 -0.1590308845 0.5785166025 4285349169
-0.2845367789 -0.1584247798 0.5786505342 4285283376
-0.2841737568 -0.1575805694 0.5779123306 4285217844
-0.2842390835 -0.1569745243 0.5780451298 4285217844
-0.2838753462 -0.1561322212 0.5773053765 4285283124
-0.2839401066 -0.1555262655 0.5774371028 4285283124
-0.2840046287 -0.1549198925 0.5775683522 4285217331
-0.2836398482 -0.1540800184 0.5768264532 4285217331
-0.2837038338 -0.1534737349 0.5769566298 4285282865
-0.2833383083 -0.1526357830 0.5762132406 4285282865
-0.2829723656 -0.1517992616 0.5754690766 4285348658
-0.2826060057 -0.1509641707 0.5747240186 4285414451
-0.2826687992 -0.1503590196 0.5748517513 4285611060
-0.2823017240 -0.1495258808 0.5741052032 4285611060
-0.2823639810 -0.1489208490 0.5742318034 4285545267
-0.2819961607 -0.1480896622 0.5734837651 4285611060
-0.2820578814 -0.1474847645 0.5736092925 4285611060
-0.2816893160 -0.1466555446 0.5728597641 4285545267
-0.2817504704 -0.1460507810 0.5729841590 4285741617
-0.2818114161 -0.1454456002 0.5731080770 4285741617
-0.2814418077 -0.1446189135 0.5723564029 4285675822
-0.2810717821 -0.1437936872 0.5716038942 4285675822
-0.2811318636 -0.1431891918 0.5717260838 4285872430
-0.2807610929 -0.1423659623 0.5709720850 4285872430
-0.2790977955 -0.1408919245 0.5675895214 4286265391
-0.2804491520 -0.1409403980 0.5703377128 4286396977
-0.2792154551 -0.1396895200 0.5678288341 4286396720
-0.2788429856 -0.1388731003 0.5670713186 4286528306
-0.2789011598 -0.1382718831 0.5671895742 4286659375
-0.2793902457 -0.1378830820 0.5681842566 4286725168
-0.2794480622 -0.1372801811 0.5683017969 4286790961
-0.2795056105 -0.1366769075 0.5684188604 4286790961
-0.2795629501 -0.1360732615 0.5685355067 4287053619
-0.2804830968 -0.1358873695 0.5704067349 4287250998
-0.2814033628 -0.1356973648 0.5722782612 4287578931
-0.2814603448 -0.1350888759 0.5723941326 4287842103
-0.2819488943 -0.1346862912 0.5733876824 4287973689
-0.2820055187 -0.1340761334 0.5735028386 4287907896
-0.2824938595 -0.1336699873 0.5744959116 4287973689
-0.2825500965 -0.1330581754 0.5746102929 4288039482
-0.2826060951 -0.1324459761 0.5747241378 4288105018
-0.2830940485 -0.1320350170 0.5757164955 4288105018
-0.2831496596 -0.1314211637 0.5758296251 4288105016
-0.2832050323 -0.1308069527 0.5759422183 4288236602
-0.2832601666 -0.1301923692 0.5760543346 4288433981
-0.2837476134 -0.1297752708 0.5770456195 4288565567
-0.2838023603 -0.1291590482 0.5771569610 4288565567
-0.2838568687 -0.1285424680 0.5772678256 4288565567
-0.2843438983 -0.1281205416 0.5782583356 4288762946
-0.2848308980 -0.1276963800 0.5792486668 4288894532
-0.2853177786 -0.1272699833 0.5802388191 4288697929
-0.2853715718 -0.1266491562 0.5803481936 4288895308
-0.2858582437 -0.1262192279 0.5813379288 4289092687
-0.2863447964 -0.1257870793 0.5823274255 4289092687
-0.2868312895 -0.1253526807 0.5833168030 4288895563
-0.2873177230 -0.1249160469 0.5843060017 4288895563
-0.2878040373 -0.1244771779 0.5852950215 4289092942
-0.2887237966 -0.1242225990 0.5871654749 4289158735
-0.2887764275 -0.1235927343 0.5872725248 4289027149
-0.2892624736 -0.1231471598 0.5882610083 4289092942
-0.2901822031 -0.1228830367 0.5901314020 4289158735
-0.2906681299 -0.1224320382 0.5911196470 4289290321
-0.2907200754 -0.1217970252 0.5912252665 4289421907
-0.2912057638 -0.1213425100 0.5922129750 4289421907
-0.2921254039 -0.1210656464 0.5940831900 4289487700
-0.2921768129 -0.1204267666 0.5941877365 4289619286
-0.2926622033 -0.1199655458 0.5951748490 4289226581
-0.2931474745 -0.1195020825 0.5961617231 4289358167
-0.2936326265 -0.1190363914 0.5971484184 4289554780
-0.2941176891 -0.1185684577 0.5981348753 4289686366
-0.2946026623 -0.1180982962 0.5991210938 4289555811
-0.2950874865 -0.1176258922 0.6001070738 4289753190
-0.2955722213 -0.1171512604 0.6010928750 4289492588
-0.2964915931 -0.1168457121 0.6029625535 4289624174
-0.2969761789 -0.1163656563 0.6039479971 4289560180
-0.2978955209 -0.1160527840 0.6058176160 4290086524
-0.2988148928 -0.1157357618 0.6076873541 4289956484
-0.2992992699 -0.1152470857 0.6086723804 4290746000
-0.3002186120 -0.1149227321 0.6105419993 4290684067
-0.3011379838 -0.1145942286 0.6124116778 4292263099
-0.2976963818 -0.1897233278 0.6067832708 4289504166
-0.2977735400 -0.1890981495 0.6069405079 4286938239
-0.2978504896 -0.1884724945 0.6070973277 4286014566
-0.2975028455 -0.1875787526 0.6063887477 4285027671
-0.2963057160 -0.1861529201 0.6039486527 4285878092
-0.2955323458 -0.1849977821 0.6023723483 4285680713
-0.2943336070 -0.1835808307 0.5999289751 4285417280
-0.2931340039 -0.1821687669 0.5974838734 4285219901
-0.2919335365 -0.1807616055 0.5950370431 4285220156
-0.2911572456 -0.1796215624 0.5934547782 4285220156
-0.2895300090 -0.1779620051 0.5901380181 4285219901
-0.2904532850 -0.1778717190 0.5920198560 4285154108
-0.2883991897 -0.1759606749 0.5878331065 4285219388
-0.2880457044 -0.1750926822 0.5871126056 4285153595
-0.2881173790 -0.1744837761 0.5872586966 4285284666
-0.2877631485 -0.1736175716 0.5865367055 4285350459
-0.2874085009 -0.1727527231 0.5858138204 4285284407
-0.2870534360 -0.1718892157 0.5850901008 4285218614
-0.2866979241 -0.1710270643 0.5843654871 4285218871
-0.2863419950 -0.1701662838 0.5836400390 4285350457
-0.2859856486 -0.1693068445 0.5829136968 4285284153
-0.2860552073 -0.1687002033 0.5830554366 4285284153
-0.2856981158 -0.1678426117 0.5823276043 4285349947
-0.2853406072 -0.1669863760 0.5815989375 4285349947
-0.2845560610 -0.1658828259 0.5799998045 4285284154
-0.2850510478 -0.1655258238 0.5810086727 4285218361
-0.2846923470 -0.1646728218 0.5802776217 4285349430
-0.2847601771 -0.1640671790 0.5804159045 4285283637
-0.2848277986 -0.1634610891 0.5805537105 4285349430
-0.2848952115 -0.1628545821 0.5806910396 4285415223
-0.2845351398 -0.1620043963 0.5799571872 4285415223
-0.2841746807 -0.1611555964 0.5792224407 4285349430
-0.2838137746 -0.1603081822 0.5784868598 4285217844
-0.2838799953 -0.1597027034 0.5786218047 4285217844
-0.2839459777 -0.1590967923 0.5787563324 4285283378
-0.2840117812 -0.1584904492 0.5788903832 4285283378
-0.2836495042 -0.1576459259 0.5781520009 4285414451
-0.2837147415 -0.1570396572 0.5782849789 4285414451
-0.2833517194 -0.1561970413 0.5775450468 4285348658
-0.2834164202 -0.1555908620 0.5776768923 4285282865
-0.2834808826 -0.1549842656 0.5778083205 4285282865
-0.2831168175 -0.1541440636 0.5770662427 4285282865
-0.2831807435 -0.1535375714 0.5771965384 4285479474
-0.2828159630 -0.1526992917 0.5764530301 4285545267
-0.2828793228 -0.1520928890 0.5765821934 4285611060
-0.2825137973 -0.1512565613 0.5758371353 4285611060
-0.2821478546 -0.1504216641 0.5750912428 4285742387
-0.2822103500 -0.1498158872 0.5752186775 4285676594
-0.2818436623 -0.1489829421 0.5744712353 4285742387
-0.2819056511 -0.1483772844 0.5745975971 4285873973
-0.2815382183 -0.1475463063 0.5738486648 4285939766
-0.2815996706 -0.1469407827 0.5739738941 4285939766
-0.2816608846 -0.1463348567 0.5740986466 4286136373
-0.2812924087 -0.1455063820 0.5733476281 4286202166
-0.2813530564 -0.1449006051 0.5734712481 4285940019
-0.2809838653 -0.1440741271 0.5727187395 4285940019
-0.2806142271 -0.1432491094 0.5719653368 4286267701
-0.2802442014 -0.1424255520 0.5712110996 4286333494
-0.2790139318 -0.1411684453 0.5687035322 4286725942
-0.2799329162 -0.1409994513 0.5705766678 4286923321
-0.2787015736 -0.1397480667 0.5680668354 4287382073
-0.2787599862 -0.1391460747 0.5681859255 4287382073
-0.2788181901 -0.1385436952 0.5683045387 4287578934
-0.2788761854 -0.1379409432 0.5684227347 4287578934
-0.2793643773 -0.1375497580 0.5694177747 4287382581
-0.2794219851 -0.1369453222 0.5695351958 4287316788
-0.2794793546 -0.1363405138 0.5696521401 4287186486
-0.2799672186 -0.1359444857 0.5706465244 4287318072
-0.2808858156 -0.1357544363 0.5725188851 4287776310
-0.2809427679 -0.1351457089 0.5726349354 4288039482
-0.2814304531 -0.1347429752 0.5736290216 4288105275
-0.2814870179 -0.1341325790 0.5737442970 4287907896
-0.2819744945 -0.1337262988 0.5747379065 4287973689
-0.2820306718 -0.1331142336 0.5748524070 4288039482
-0.2820866108 -0.1325018108 0.5749664307 4288171068
-0.2825737298 -0.1320906878 0.5759593248 4288302654
-0.2826292813 -0.1314766109 0.5760725737 4288236863
-0.2826846242 -0.1308621615 0.5761852860 4288302656
-0.2827396989 -0.1302473396 0.5762975812 4288303426
-0.2832262814 -0.1298300922 0.5772894025 4288435012
-0.2832809687 -0.1292136312 0.5774008632 4288500805
-0.2837673426 -0.1287928373 0.5783921480 4288500805
-0.2838216126 -0.1281747222 0.5785028338 4288566598
-0.2843077481 -0.1277503967 0.5794937015 4288763977
-0.2847937942 -0.1273238361 0.5804843903 4288697929
-0.2848475277 -0.1267027855 0.5805938840 4288829515
-0.2853333354 -0.1262726933 0.5815840960 4289092687
-0.2858190835 -0.1258403659 0.5825741887 4289092687
-0.2863047123 -0.1254058033 0.5835640430 4288961101
-0.2867902815 -0.1249690056 0.5845537186 4288961101
-0.2872757614 -0.1245299727 0.5855432749 4289092942
-0.2881938815 -0.1242753044 0.5874146223 4289224528
-0.2886792421 -0.1238308474 0.5884039402 4289092942
-0.2891645432 -0.1233841553 0.5893930793 4289158735
-0.2896497250 -0.1229352280 0.5903820395 4289224528
-0.2901348472 -0.1224840656 0.5913708210 4289356114
-0.2906198502 -0.1220306605 0.5923593640 4289553493
-0.2911047339 -0.1215750203 0.5933477283 4289487700
-0.2915895581 -0.1211171448 0.5943359137 4289421905
-0.2916409075 -0.1204780117 0.5944405794 4289553491
-0.2921254337 -0.1200166121 0.5954281688 4289292888
-0.2926098704 -0.1195529699 0.5964155793 4289227095
-0.2930941880 -0.1190870926 0.5974027514 4289489500
-0.2935784161 -0.1186189801 0.5983897448 4289555293
-0.2940625250 -0.1181486323 0.5993764400 4289556069
-0.2945465147 -0.1176760495 0.6003629565 4289819241
-0.2950304151 -0.1172012240 0.6013492346 4289624687
-0.2959481180 -0.1168955714 0.6032198071 4289690480
-0.2964318395 -0.1164153218 0.6042057872 4289560950
-0.2973495424 -0.1161023304 0.6060763001 4290087294
-0.2982672751 -0.1157851964 0.6079468727 4289957512
-0.2991850376 -0.1154639125 0.6098175049 4291075993
-0.3001028299 -0.1151384786 0.6116881967 4291210926
-0.3010206223 -0.1148088947 0.6135588884 4293053130
-0.2967970073 -0.1889056563 0.6063227057 4288320923
-0.2964502573 -0.1880120784 0.6056143045 4285621609
-0.2961030900 -0.1871197969 0.6049050689 4284963679
-0.2957554758 -0.1862288266 0.6041949391 4285419859
-0.2945597768 -0.1848073453 0.6017522812 4284893515
-0.2937871516 -0.1836557537 0.6001738906 4285549127
-0.2925898135 -0.1822431535 0.5977278948 4285088576
-0.2918157876 -0.1810986847 0.5961466432 4285349432
-0.2910411358 -0.1799573302 0.5945640802 4285546811
-0.2902657986 -0.1788190901 0.5929802060 4285612089
-0.2894898653 -0.1776839793 0.5913949609 4285414710
-0.2887132466 -0.1765519977 0.5898084641 4285546811
-0.2883607149 -0.1756818742 0.5890882611 4285349432
-0.2880077362 -0.1748131067 0.5883671641 4285349946
-0.2876543105 -0.1739456952 0.5876452327 4285415739
-0.2873004973 -0.1730796099 0.5869223475 4285284407
-0.2869462371 -0.1722148955 0.5861986876 4285218614
-0.2865915596 -0.1713515222 0.5854741335 4285218871
-0.2862364650 -0.1704895198 0.5847486854 4285153078
-0.2858809233 -0.1696288586 0.5840224028 4285349432
-0.2855249941 -0.1687695831 0.5832952261 4285349432
-0.2855942547 -0.1681622714 0.5834366679 4285349432
-0.2852375507 -0.1673048139 0.5827080011 4285349432
-0.2848804295 -0.1664487422 0.5819784999 4285283637
-0.2845229208 -0.1655940264 0.5812481046 4285283637
-0.2845909894 -0.1649876982 0.5813871622 4285283637
-0.2842327058 -0.1641348302 0.5806552768 4285283637
-0.2843002677 -0.1635285318 0.5807932615 4285348917
-0.2843675911 -0.1629218012 0.5809307694 4285348917
-0.2844346762 -0.1623146534 0.5810678601 4285348917
-0.2840750515 -0.1614646167 0.5803331137 4285283124
-0.2837149799 -0.1606159806 0.5795975327 4285283124
-0.2833544910 -0.1597687453 0.5788611174 4285217331
-0.2834204137 -0.1591626108 0.5789958239 4285217585
-0.2834861279 -0.1585560590 0.5791300535 4285217585
-0.2835516036 -0.1579490900 0.5792638063 4285283378
-0.2831897438 -0.1571047306 0.5785245895 4285283378
-0.2828274667 -0.1562617868 0.5777844787 4285283378
-0.2828920782 -0.1556553841 0.5779165030 4285283378
-0.2829564810 -0.1550485790 0.5780480504 4285348658
-0.2830206752 -0.1544413418 0.5781791806 4285348658
-0.2826570272 -0.1536013335 0.5774362683 4285348658
-0.2822929323 -0.1527627409 0.5766925216 4285348658
-0.2819284499 -0.1519255638 0.5759478807 4285676853
-0.2819914520 -0.1513194591 0.5760765672 4285611060
-0.2820542157 -0.1507129371 0.5762048364 4285676594
-0.2816886902 -0.1498782486 0.5754580498 4285676594
-0.2813227177 -0.1490449756 0.5747104883 4285742387
-0.2813846469 -0.1484390944 0.5748369694 4285873973
-0.2814463377 -0.1478328109 0.5749629736 4285939766
-0.2810793221 -0.1470020413 0.5742132068 4286005559
-0.2811404467 -0.1463958919 0.5743381381 4286201396
-0.2807727158 -0.1455671042 0.5735868812 4286332982
-0.2808333039 -0.1449610889 0.5737106800 4286398774
-0.2804648578 -0.1441342980 0.5729579329 4286398774
-0.2800959647 -0.1433089674 0.5722043514 4286660919
-0.2801556885 -0.1427036226 0.5723263621 4286660919
-0.2797860801 -0.1418803036 0.5715712905 4286791989
-0.2794160545 -0.1410584450 0.5708153844 4286923575
-0.2790456116 -0.1402380615 0.5700586438 4287317305
-0.2791041732 -0.1396339834 0.5701782107 4287251512
-0.2791624963 -0.1390295178 0.5702973604 4287514168
-0.2792205811 -0.1384246796 0.5704160333 4287645754
-0.2792784572 -0.1378194541 0.5705342889 4287776312
-0.2793360949 -0.1372138560 0.5706520081 4287776312
-0.2798233330 -0.1368180662 0.5716474056 4287907898
-0.2798805833 -0.1362107843 0.5717643499 4287907898
-0.2803676426 -0.1358114481 0.5727593303 4288039225
-0.2804245055 -0.1352024972 0.5728755593 4288105018
-0.2809113562 -0.1347995996 0.5738700628 4288170557
-0.2809678614 -0.1341889799 0.5739855170 4288104764
-0.2814545035 -0.1337825507 0.5749796629 4288104764
-0.2815106213 -0.1331702471 0.5750942826 4288170557
-0.2819970250 -0.1327602863 0.5760880113 4288302397
-0.2820527554 -0.1321463138 0.5762018561 4288368190
-0.2821082771 -0.1315319985 0.5763152242 4288302654
-0.2821635306 -0.1309173107 0.5764281154 4288302654
-0.2826494277 -0.1305011958 0.5774207711 4288368449
-0.2827042937 -0.1298848540 0.5775328875 4288434242
-0.2831899524 -0.1294652075 0.5785250068 4288631619
-0.2832444310 -0.1288471967 0.5786362886 4288697412
-0.2837298810 -0.1284240186 0.5796279907 4288697412
-0.2837839425 -0.1278043687 0.5797384977 4288763205
-0.2842691541 -0.1273776442 0.5807297230 4288762694
-0.2847542763 -0.1269486845 0.5817207694 4288828487
-0.2852393091 -0.1265174896 0.5827116370 4289026379
-0.2857242823 -0.1260840595 0.5837023854 4289157965
-0.2857774794 -0.1254588813 0.5838110447 4289092172
-0.2862621844 -0.1250219196 0.5848012567 4289157965
-0.2876105011 -0.1249579638 0.5875557065 4289157966
-0.2880952060 -0.1245146319 0.5885458589 4289026380
-0.2881478071 -0.1238833368 0.5886533260 4289092687
-0.2886322439 -0.1234364733 0.5896430016 4289026894
-0.2891165912 -0.1229873747 0.5906324387 4289093200
-0.2896008492 -0.1225360334 0.5916217566 4289290579
-0.2900849879 -0.1220824569 0.5926107764 4289159509
-0.2905690670 -0.1216266453 0.5935996771 4289225302
-0.2910530269 -0.1211685911 0.5945883393 4289291095
-0.2915368676 -0.1207082942 0.5955768228 4289291095
-0.2915880084 -0.1200676262 0.5956813097 4289291610
-0.2920715809 -0.1196038052 0.5966691971 4289423196
-0.2925550640 -0.1191377491 0.5976568460 4289227355
-0.2930384278 -0.1186694577 0.5986443162 4289556320
-0.2935217023 -0.1181989238 0.5996316075 4289295460
-0.2940048575 -0.1177261546 0.6006186008 4289558632
-0.2949209511 -0.1174235791 0.6024901271 4289428335
-0.2954039574 -0.1169453785 0.6034768224 4289625714
-0.2963200510 -0.1166354641 0.6053483486 4289625722
-0.2968029082 -0.1161518320 0.6063347459 4290086273
-0.2977190018 -0.1158345789 0.6082061529 4289957005
-0.2990685403 -0.1156808287 0.6109631658 4291075486
-0.2995512187 -0.1151876152 0.6119492650 4291870143
-0.2953987718 -0.1884432733 0.6048385501 4289374381
-0.2954752147 -0.1878198534 0.6049951315 4286806142
-0.2951286435 -0.1869281381 0.6042854786 4284700766
-0.2947816253 -0.1860377342 0.6035749912 4285157457
-0.2940111458 -0.1848826259 0.6019973755 4284696906
-0.2932400107 -0.1837306172 0.6004185081 4284957760
-0.2920449972 -0.1823174655 0.5979716182 4284826174
-0.2912724614 -0.1811725646 0.5963898301 4285284407
-0.2909227610 -0.1802932173 0.5956737995 4285087028
-0.2901490629 -0.1791536510 0.5940896273 4285283637
-0.2893747091 -0.1780172139 0.5925041437 4285152051
-0.2890235186 -0.1771436483 0.5917850733 4285283639
-0.2882480025 -0.1760125756 0.5901971459 4285283639
-0.2883198261 -0.1754005402 0.5903442502 4285152567
-0.2879673541 -0.1745309830 0.5896225572 4285218360
-0.2871902585 -0.1734066606 0.5880313516 4285153078
-0.2868368030 -0.1725407094 0.5873076916 4285087285
-0.2860585451 -0.1714217812 0.5857141614 4285153332
-0.2861286700 -0.1708128899 0.5858578086 4285153332
-0.2857739627 -0.1699510068 0.5851315260 4285218360
-0.2854188383 -0.1690904945 0.5844044089 4285218360
-0.2850632966 -0.1682313532 0.5836763978 4285218360
-0.2851322591 -0.1676234007 0.5838176012 4285218360
-0.2843509316 -0.1665171832 0.5822178125 4285218360
-0.2844192684 -0.1659101546 0.5823577046 4285152567
-0.2844873667 -0.1653026938 0.5824971795 4285283637
-0.2841299176 -0.1644486040 0.5817652941 4285283637
-0.2841975093 -0.1638411880 0.5819036365 4285283637
-0.2838393152 -0.1629889607 0.5811702609 4285283637
-0.2839063406 -0.1623815894 0.5813074708 4285217844
-0.2835474312 -0.1615312397 0.5805726051 4285217844
-0.2831880748 -0.1606822908 0.5798367858 4285283124
-0.2832542658 -0.1600754410 0.5799723268 4285217331
-0.2828941643 -0.1592283845 0.5792350173 4285217585
-0.2829598188 -0.1586216092 0.5793694258 4285217585
-0.2830252349 -0.1580144018 0.5795033574 4285217331
-0.2826640904 -0.1571697295 0.5787639022 4285217331
-0.2827289701 -0.1565626115 0.5788967609 4285217331
-0.2827936411 -0.1559550762 0.5790291429 4285283124
-0.2828580737 -0.1553471237 0.5791611075 4285348660
-0.2824955583 -0.1545053571 0.5784188509 4285414453
-0.2825594544 -0.1538974941 0.5785496831 4285414451
-0.2817692757 -0.1528261155 0.5769317746 4285414451
-0.2814055085 -0.1519886255 0.5761869550 4285611060
-0.2814684510 -0.1513822973 0.5763158202 4285611060
-0.2815311551 -0.1507755518 0.5764442086 4285611060
-0.2815936506 -0.1501684040 0.5765721798 4285676853
-0.2812285125 -0.1493339092 0.5758245587 4285676853
-0.2808629572 -0.1485008448 0.5750761032 4285742646
-0.2809245884 -0.1478943378 0.5752022266 4285808693
-0.2809860110 -0.1472874284 0.5753279924 4285874486
-0.2810471654 -0.1466801316 0.5754532218 4286136116
-0.2806802690 -0.1458501071 0.5747019649 4286201909
-0.2803129256 -0.1450215280 0.5739498138 4286267702
-0.2799451947 -0.1441944093 0.5731968880 4286333495
-0.2800051868 -0.1435883045 0.5733197331 4286661432
-0.2796367109 -0.1427631974 0.5725652575 4286727225
-0.2792678177 -0.1419395506 0.5718099475 4286858296
-0.2793269455 -0.1413341463 0.5719310641 4286858296
-0.2793858647 -0.1407283545 0.5720516443 4287252025
-0.2794445157 -0.1401221901 0.5721717477 4287186232
-0.2795029581 -0.1395156384 0.5722914338 4287448375
-0.2795611918 -0.1389086992 0.5724106431 4287579961
-0.2796191573 -0.1383013874 0.5725293159 4287645241
-0.2796769142 -0.1376937032 0.5726475716 4287776827
-0.2797344327 -0.1370856464 0.5727653503 4287973691
-0.2797917426 -0.1364772022 0.5728826523 4287973691
-0.2802779973 -0.1360767782 0.5738783479 4288038971
-0.2803349197 -0.1354666650 0.5739948750 4288104764
-0.2803916037 -0.1348561794 0.5741109252 4288170557
-0.2804480493 -0.1342453212 0.5742264986 4288104764
-0.2809338272 -0.1338387430 0.5752211809 4288039484
-0.2809898853 -0.1332262158 0.5753359795 4288105277
-0.2814754546 -0.1328160912 0.5763301849 4288236863
-0.2819609642 -0.1324037313 0.5773242116 4288302656
-0.2820164859 -0.1317882240 0.5774379373 4288236861
-0.2820717692 -0.1311723590 0.5775511265 4288302654
-0.2821268439 -0.1305561364 0.5776638985 4288302656
-0.2826117873 -0.1301376373 0.5786568522 4288500035
-0.2826664746 -0.1295197457 0.5787687898 4288763207
-0.2831512094 -0.1290977001 0.5797613263 4288829000
-0.2832054794 -0.1284781694 0.5798724294 4288763205
-0.2836899757 -0.1280525923 0.5808644891 4288697412
-0.2837438583 -0.1274313927 0.5809747577 4288828230
-0.2842281163 -0.1270022839 0.5819663405 4288894023
-0.2847123146 -0.1265709251 0.5829577446 4289025866
-0.2856272161 -0.1263278723 0.5848310590 4289091659
-0.2861113250 -0.1258910894 0.5858222842 4289157452
-0.2861643732 -0.1252634227 0.5859308839 4289223245
-0.2870793045 -0.1250108182 0.5878041983 4289157965
-0.2875631452 -0.1245673150 0.5887948871 4289092172
-0.2880468965 -0.1241215765 0.5897853971 4289092687
-0.2880992889 -0.1234887317 0.5898926258 4289026894
-0.2885827720 -0.1230394617 0.5908825994 4289093200
-0.2890661657 -0.1225879565 0.5918723941 4289224786
-0.2895494699 -0.1221342012 0.5928620100 4289225302
-0.2900326848 -0.1216782108 0.5938513875 4289291095
-0.2905158103 -0.1212199852 0.5948405266 4289487960
-0.2909988165 -0.1207595095 0.5958295465 4289487960
-0.2914817035 -0.1202968061 0.5968183279 4289292123
-0.2919645309 -0.1198318526 0.5978068709 4289489502
-0.2924472094 -0.1193646640 0.5987952352 4289228127
-0.2929298282 -0.1188952401 0.5997833610 4289491299
-0.2934122980 -0.1184235737 0.6007712483 4289295719
-0.2938946784 -0.1179496646 0.6017588973 4289690477
-0.2943769395 -0.1174735203 0.6027463675 4289625973
-0.2948590815 -0.1169951335 0.6037335992 4289889145
-0.2957735360 -0.1166851074 0.6056059599 4289560958
-0.2962555587 -0.1162012890 0.6065928936 4290416267
-0.2971699834 -0.1158839092 0.6084651947 4290418841
-0.2985170782 -0.1157301143 0.6112234592 4291734701
-0.2994316220 -0.1154034734 0.6130959988 4292858067
-0.2940791547 -0.1873585135 0.6035091281 4288319640
-0.2933110297 -0.1862003654 0.6019327641 4284832611
-0.2942308187 -0.1861133724 0.6038203835 4284763210
-0.2930395901 -0.1846916974 0.6013756990 4284434245
-0.2922698557 -0.1835401505 0.5997960567 4284498236
-0.2914994955 -0.1823917031 0.5982151031 4284366650
-0.2907284498 -0.1812463701 0.5966328382 4284956469
-0.2903794646 -0.1803667098 0.5959166288 4284627504
-0.2896072865 -0.1792267114 0.5943319201 4285086258
-0.2888344228 -0.1780898422 0.5927459002 4285086258
-0.2889069319 -0.1774758101 0.5928946733 4285020981
-0.2881330252 -0.1763434112 0.5913065076 4285020981
-0.2877817154 -0.1754721999 0.5905854702 4284955701
-0.2878532410 -0.1748594940 0.5907323360 4284955701
-0.2870777547 -0.1737338305 0.5891408324 4285021494
-0.2863016129 -0.1726113111 0.5875480771 4285021494
-0.2859484851 -0.1717464030 0.5868233442 4285087285
-0.2855949104 -0.1708828509 0.5860977769 4285153078
-0.2852409482 -0.1700206697 0.5853713155 4285087287
-0.2848865390 -0.1691598296 0.5846440196 4285087287
-0.2845317125 -0.1683003753 0.5839158297 4285152567
-0.2841764688 -0.1674422771 0.5831868052 4285152567
-0.2842450440 -0.1668345630 0.5833275318 4285152567
-0.2838890553 -0.1659783125 0.5825969577 4285218360
-0.2839570940 -0.1653706282 0.5827366114 4285218614
-0.2836003602 -0.1645162404 0.5820044875 4285218614
-0.2836678624 -0.1639085859 0.5821430683 4285283637
-0.2837351561 -0.1633005142 0.5822811127 4285283637
-0.2833773494 -0.1624484509 0.5815469027 4285217844
-0.2830191553 -0.1615977883 0.5808117986 4285217844
-0.2830855846 -0.1609902382 0.5809481144 4285283124
-0.2827266455 -0.1601414531 0.5802114606 4285217331
-0.2827925384 -0.1595339775 0.5803467035 4285217331
-0.2824328542 -0.1586870849 0.5796085596 4285217331
-0.2824982107 -0.1580796540 0.5797426701 4285217331
-0.2821377814 -0.1572346687 0.5790030360 4285217331
-0.2822026014 -0.1566273272 0.5791360736 4285217331
-0.2822672129 -0.1560195684 0.5792686343 4285283124
-0.2823315561 -0.1554113925 0.5794007182 4285283124
-0.2819697857 -0.1545693129 0.5786582232 4285348917
-0.2820336223 -0.1539612263 0.5787892342 4285414453
-0.2816710770 -0.1531210691 0.5780452490 4285480246
-0.2813081443 -0.1522823572 0.5773004293 4285480246
-0.2809447944 -0.1514450610 0.5765547752 4285480246
-0.2810074389 -0.1508381069 0.5766833425 4285546037
-0.2810698748 -0.1502307355 0.5768114328 4285546037
-0.2807054818 -0.1493959129 0.5760636330 4285742646
-0.2803406417 -0.1485625356 0.5753149390 4285742646
-0.2804022133 -0.1479558051 0.5754413009 4285808439
-0.2804635465 -0.1473486722 0.5755671859 4285808439
-0.2805246711 -0.1467411369 0.5756925941 4286005305
-0.2801584899 -0.1459107846 0.5749410987 4286005305
-0.2797918916 -0.1450818926 0.5741887689 4286136375
-0.2798521221 -0.1444750279 0.5743123889 4286202168
-0.2794848084 -0.1436481327 0.5735585690 4286530361
-0.2795445025 -0.1430414170 0.5736811161 4286661947
-0.2787489295 -0.1419987381 0.5720484257 4286924091
-0.2792356014 -0.1416099668 0.5730472207 4286924091
-0.2788668275 -0.1407870948 0.5722903609 4287252027
-0.2789254487 -0.1401806921 0.5724106431 4287252027
-0.2789838314 -0.1395739168 0.5725304484 4287514170
-0.2790419757 -0.1389667541 0.5726498365 4287514170
-0.2790999115 -0.1383592039 0.5727686882 4287645241
-0.2791576087 -0.1377512962 0.5728870630 4287776827
-0.2792150676 -0.1371430010 0.5730050206 4287973692
-0.2797006369 -0.1367437392 0.5740014911 4287973692
-0.2797577083 -0.1361337602 0.5741186738 4287973692
-0.2798145711 -0.1355234087 0.5742353201 4287973692
-0.2798711956 -0.1349126846 0.5743515491 4288039485
-0.2803562582 -0.1345072687 0.5753470063 4288039485
-0.2804124951 -0.1338948756 0.5754624009 4288039485
-0.2804685235 -0.1332821101 0.5755773783 4288105278
-0.2809532285 -0.1328718364 0.5765720606 4288171070
-0.2814378738 -0.1324593276 0.5775666833 4288302656
-0.2814933360 -0.1318435818 0.5776805282 4288302656
-0.2815485895 -0.1312274933 0.5777938366 4288302656
-0.2820328474 -0.1308101267 0.5787876844 4288302657
-0.2820876837 -0.1301923692 0.5789002180 4288500036
-0.2825717330 -0.1297714710 0.5798935890 4288828487
-0.2826261818 -0.1291520447 0.5800053477 4288894280
-0.2831099927 -0.1287276000 0.5809982419 4288828487
-0.2831640542 -0.1281065196 0.5811091661 4288762694
-0.2836476266 -0.1276785433 0.5821015239 4288828230
-0.2841311395 -0.1272483319 0.5830937624 4288894023
-0.2846145630 -0.1268158704 0.5840858817 4289025609
-0.2850978971 -0.1263811588 0.5850777626 4289157195
-0.2855811417 -0.1259442121 0.5860695243 4289223245
-0.2860643268 -0.1255050302 0.5870610476 4289223245
-0.2865473926 -0.1250636131 0.5880524516 4289092173
-0.2870303988 -0.1246199459 0.5890436769 4289092173
-0.2875133157 -0.1241740361 0.5900346637 4289026894
-0.2879961133 -0.1237258837 0.5910254717 4289092687
-0.2880482674 -0.1230915040 0.5911325216 4289224788
-0.2885308266 -0.1226398200 0.5921227932 4289356374
-0.2890132666 -0.1221858934 0.5931128860 4289356888
-0.2894956470 -0.1217297316 0.5941027999 4289422681
-0.2899779081 -0.1212713271 0.5950924754 4289422681
-0.2904600501 -0.1208106801 0.5960819721 4289422681
-0.2909421027 -0.1203477904 0.5970712900 4289029980
-0.2914240658 -0.1198826656 0.5980603099 4289358945
-0.2919059098 -0.1194152981 0.5990492105 4289228899
-0.2923876643 -0.1189456880 0.6000378132 4289426278
-0.2928692997 -0.1184738353 0.6010262370 4289230956
-0.2933508158 -0.1179997474 0.6020144224 4289691507
-0.2938322425 -0.1175234169 0.6030023694 4289561981
-0.2943135500 -0.1170448437 0.6039900780 4289825153
-0.2952263355 -0.1167346984 0.6058633924 4289562500
-0.2957074940 -0.1162506938 0.6068507433 4290549395
-0.2970520556 -0.1161019504 0.6096100807 4290880678
-0.2975330949 -0.1156115532 0.6105972528 4292657089
-0.2926855981 -0.1868966669 0.6020213962 4289570478
-0.2927612364 -0.1862759143 0.6021770239 4286083449
-0.2924153209 -0.1853875369 0.6014655232 4284303942
-0.2920689583 -0.1845004857 0.6007531285 4283909184
-0.2913006246 -0.1833494008 0.5991727114 4284367163
-0.2909533083 -0.1824658662 0.5984583497 4284103991
-0.2901838124 -0.1813201010 0.5968754888 4284496433
-0.2898355126 -0.1804401129 0.5961591601 4284496433
-0.2894868255 -0.1795614511 0.5954419374 4284823856
-0.2887156010 -0.1784232557 0.5938555598 4284758063
-0.2883659303 -0.1775481552 0.5931363702 4284889395
-0.2880158424 -0.1766743809 0.5924162865 4284955188
-0.2876653373 -0.1758019477 0.5916953087 4284824116
-0.2873143852 -0.1749308705 0.5909734368 4284824116
-0.2869630158 -0.1740611345 0.5902507305 4284889908
-0.2866112292 -0.1731927395 0.5895271897 4285021494
-0.2858361900 -0.1720711589 0.5879330039 4285087028
-0.2854834497 -0.1712063849 0.5872074366 4285087028
-0.2851302922 -0.1703429818 0.5864810348 4285087287
-0.2843535542 -0.1692290902 0.5848833919 4285087287
-0.2839994431 -0.1683693081 0.5841550231 4285087287
-0.2840682864 -0.1677609235 0.5842965841 4285087287
-0.2837134302 -0.1669029742 0.5835666656 4285152567
-0.2833581567 -0.1660464108 0.5828359723 4285152567
-0.2834261358 -0.1654385030 0.5829757452 4285218360
-0.2830701172 -0.1645837873 0.5822435021 4285218360
-0.2831375599 -0.1639759243 0.5823822021 4285283639
-0.2832047641 -0.1633676291 0.5825204253 4285283639
-0.2828477025 -0.1625152528 0.5817860365 4285283637
-0.2824902236 -0.1616642624 0.5810506940 4285283637
-0.2825565934 -0.1610565037 0.5811871886 4285283124
-0.2826227248 -0.1604483128 0.5813232660 4285283124
-0.2822642028 -0.1595996916 0.5805857778 4285283124
-0.2823297977 -0.1589915752 0.5807207227 4285283124
-0.2819705307 -0.1581448466 0.5799817443 4285217333
-0.2820355892 -0.1575367898 0.5801155567 4285217333
-0.2816755772 -0.1566919684 0.5793750882 4285217333
-0.2817400992 -0.1560839862 0.5795078278 4285283126
-0.2818044126 -0.1554755867 0.5796400905 4285348917
-0.2814433575 -0.1546331942 0.5788974166 4285348917
-0.2815071046 -0.1540248841 0.5790285468 4285414453
-0.2811453342 -0.1531844139 0.5782843828 4285480246
-0.2812085450 -0.1525762081 0.5784144402 4285480246
-0.2808460295 -0.1517376751 0.5776687264 4285480246
-0.2804830670 -0.1509005874 0.5769222379 4285546039
-0.2805454433 -0.1502929926 0.5770505071 4285546039
-0.2801817656 -0.1494578421 0.5763024688 4285611830
-0.2802435756 -0.1488503665 0.5764296055 4285611830
-0.2798791826 -0.1480171978 0.5756800771 4285677623
-0.2799404562 -0.1474098414 0.5758061409 4285743416
-0.2800014913 -0.1468020827 0.5759316683 4285874232
-0.2796360552 -0.1459714174 0.5751799941 4285940025
-0.2796965539 -0.1453637928 0.5753044486 4286071098
-0.2793303728 -0.1445351243 0.5745512247 4286071098
-0.2793903351 -0.1439276338 0.5746746063 4286333241
-0.2790234387 -0.1431009620 0.5739198923 4286464827
-0.2786561251 -0.1422757506 0.5731643438 4286726970
-0.2787151933 -0.1416689605 0.5732859373 4286792763
-0.2787740827 -0.1410617828 0.5734069943 4287252029
-0.2788327038 -0.1404542327 0.5735276341 4287317822
-0.2788911164 -0.1398462951 0.5736477375 4287514170
-0.2789493203 -0.1392379701 0.5737674236 4287514170
-0.2790072560 -0.1386292577 0.5738866329 4287645241
-0.2790649831 -0.1380201876 0.5740053654 4287776827
-0.2791224718 -0.1374107301 0.5741236210 4287973692
-0.2791797519 -0.1368008852 0.5742413998 4287907899
-0.2796643972 -0.1363992393 0.5752382874 4287776827
-0.2797212899 -0.1357877254 0.5753552914 4287776827
-0.2797779143 -0.1351758391 0.5754718184 4287842620
-0.2798343599 -0.1345635802 0.5755878687 4287908413
-0.2803184986 -0.1341557652 0.5765836835 4288039485
-0.2803745270 -0.1335418373 0.5766989589 4288039485
-0.2804303467 -0.1329275221 0.5768137574 4288171071
-0.2809141278 -0.1325148642 0.5778088570 4288302657
-0.2813978493 -0.1320999563 0.5788038373 4288236864
