VERSION 0.7
FIELDS x y z rgba
SIZE 4 4 4 4
TYPE F F F U
COUNT 1 1 1 1
WIDTH 920
HEIGHT 1
VIEWPOINT 0.0 0.0 0.0 1.0 0.0 0.0 0.0
POINTS 920
DATA ascii
-0.2867411971 -0.1386278123 0.5792087913 4290228657
-0.2863657475 -0.1378035843 0.5784503818 4290360243
-0.2859898806 -0.1369808614 0.5776911378 4290491312
-0.2856135964 -0.1361596137 0.5769310594 4290425519
-0.2852368951 -0.1353398710 0.5761701465 4290360497
-0.2852940261 -0.1347266883 0.5762855411 4290492083
-0.2849166095 -0.1339090019 0.5755231380 4289239955
-0.2845387757 -0.1330928206 0.5747599602 4288187267
-0.2841605246 -0.1322781444 0.5739958882 4288583054
-0.2837818861 -0.1314649880 0.5732310414 4288780433
-0.2838374674 -0.1308537126 0.5733433366 4289568919
-0.2838928401 -0.1302420944 0.5734551549 4289634712
-0.2839479744 -0.1296301186 0.5735665560 4290678376
-0.2840028703 -0.1290177703 0.5736774206 4288901965
-0.2844925225 -0.1286017299 0.5746665001 4291195697
-0.2849821150 -0.1281834394 0.5756554604 4291129904
-0.2863419652 -0.1281524450 0.5784023404 4291195182
-0.2872668207 -0.1279216409 0.5802704692 4290866217
-0.2890624106 -0.1280724853 0.5838975310 4291796859
-0.2904230058 -0.1280235052 0.5866459608 4291862652
-0.2922193706 -0.1281595379 0.5902745128 4289964705
-0.2940161228 -0.1282876581 0.5939038396 4290162084
-0.2949419320 -0.1280296743 0.5957739949 4288977299
-0.2958678305 -0.1277675778 0.5976442695 4286411372
-0.2954863310 -0.1269396544 0.5968736410 4282662967
-0.2951044142 -0.1261132658 0.5961021781 4283123518
-0.2929781675 -0.1245470792 0.5918072462 4283057481
-0.2908508778 -0.1229899898 0.5875101686 4283320653
-0.2891587019 -0.1216254607 0.5840920210 4282796103
-0.2874656320 -0.1202681586 0.5806720853 4282861896
-0.2870805860 -0.1194627583 0.5798943043 4285294697
-0.2871314883 -0.1188395247 0.5799971223 4288452761
-0.2876186073 -0.1183956191 0.5809810758 4290164404
-0.2876690924 -0.1177707836 0.5810830593 4291085506
-0.2881559432 -0.1173233762 0.5820664763 4291216835
-0.2886426747 -0.1168737411 0.5830497146 4291151042
-0.2891293168 -0.1164218858 0.5840327144 4291019456
-0.2896158695 -0.1159678027 0.5850154757 4291480007
-0.2901023030 -0.1155114993 0.5859980583 4291414471
-0.2910256088 -0.1152259782 0.5878631473 4291414471
-0.2915118933 -0.1147642732 0.5888454318 4291217094
-0.2924352288 -0.1144714504 0.5907105207 4291611852
-0.2937957644 -0.1143446490 0.5934587717 4291414986
-0.2951565087 -0.1142118126 0.5962074399 4292270295
-0.3058657050 -0.1557743251 0.6192289591 4291941595
-0.3046346605 -0.1544621289 0.6167367101 4289111466
-0.3029706180 -0.1529368907 0.6133678555 4289966775
-0.2995764613 -0.1505496800 0.6064962745 4290360758
-0.2957482040 -0.1479605734 0.5987459421 4289176484
-0.2927829921 -0.1458185315 0.5927428603 4288714902
-0.2906814218 -0.1441179961 0.5884881616 4288649109
-0.2890113294 -0.1426398903 0.5851070881 4289438625
-0.2877730727 -0.1413814276 0.5826001763 4289636004
-0.2873996794 -0.1405515224 0.5818442106 4289636520
-0.2870258689 -0.1397230774 0.5810874701 4290294450
-0.2862186134 -0.1386862993 0.5794531703 4290360243
-0.2858439088 -0.1378617585 0.5786945820 4290162864
-0.2854687572 -0.1370387077 0.5779350996 4290293934
-0.2855264843 -0.1364241689 0.5780519843 4290557106
-0.2851506174 -0.1356031597 0.5772910118 4290558133
-0.2847743332 -0.1347836554 0.5765292048 4290294961
-0.2843976617 -0.1339656562 0.5757666230 4288582795
-0.2840205431 -0.1331491470 0.5750031471 4287530107
-0.2840767503 -0.1325365007 0.5751169324 4287530366
-0.2836989164 -0.1317220777 0.5743520260 4286872436
-0.2833206654 -0.1309091598 0.5735862255 4286871407
-0.2833759785 -0.1302973032 0.5736982226 4287989888
-0.2834310532 -0.1296850741 0.5738097429 4290152032
-0.2834858894 -0.1290725023 0.5739207268 4289099344
-0.2839747071 -0.1286562979 0.5749103427 4291129904
-0.2844634354 -0.1282378584 0.5758998394 4290866732
-0.2858208716 -0.1282068640 0.5786479115 4290998316
-0.2871785462 -0.1281698942 0.5813965797 4291064109
-0.2885364592 -0.1281269193 0.5841457248 4292191617
-0.2898946404 -0.1280779392 0.5868953466 4291862652
-0.2916877568 -0.1282140315 0.5905255079 4289767326
-0.2934812903 -0.1283422410 0.5941565633 4290030498
-0.2944054604 -0.1280841678 0.5960275531 4289898401
-0.2948947847 -0.1276337206 0.5970181823 4288450955
-0.2949489653 -0.1269937158 0.5971278548 4283386688
-0.2945677936 -0.1261670142 0.5963562131 4282860344
-0.2920102775 -0.1244147494 0.5911784768 4282991942
-0.2898868322 -0.1228579581 0.5868794918 4282531391
-0.2881976664 -0.1214938089 0.5834597945 4283914584
-0.2873784900 -0.1205020547 0.5818013549 4287270027
-0.2869942784 -0.1196953803 0.5810235143 4290426551
-0.2866096199 -0.1188902706 0.5802447796 4291216067
-0.2870959044 -0.1184461936 0.5812292695 4290888127
-0.2871463299 -0.1178211048 0.5813313723 4291151299
-0.2876323462 -0.1173735261 0.5823152661 4290822077
-0.2881182432 -0.1169237196 0.5832989812 4291348421
-0.2886040509 -0.1164716855 0.5842825174 4291282374
-0.2890897393 -0.1160174236 0.5852658153 4291084995
-0.2895753384 -0.1155609414 0.5862489343 4291282887
-0.2900608480 -0.1151022315 0.5872318149 4291546059
-0.2909824848 -0.1148134321 0.5890976787 4291282887
-0.2919041514 -0.1145204976 0.5909636617 4291743438
-0.2932622731 -0.1143936589 0.5937131643 4291480779
-0.2946205735 -0.1142607853 0.5964630842 4292336088
-0.3044435084 -0.1553994417 0.6177387238 4291547350
-0.3032146096 -0.1540885717 0.6152451634 4289045673
-0.3011220694 -0.1523463130 0.6109992862 4289045673
-0.2985968888 -0.1503955722 0.6058754921 4289505449
-0.2947755754 -0.1478063315 0.5981217623 4290229172
-0.2918157578 -0.1456643343 0.5921160579 4289834153
-0.2897180021 -0.1439640522 0.5878595114 4289505188
-0.2884827852 -0.1426998973 0.5853532553 4289636774
-0.2872468233 -0.1414409429 0.5828453898 4288847258
-0.2868741751 -0.1406106949 0.5820891857 4288518039
-0.2865010798 -0.1397819370 0.5813322067 4289636520
-0.2861275971 -0.1389546543 0.5805743933 4290097584
-0.2857536972 -0.1381288469 0.5798156857 4289965998
-0.2849470079 -0.1370965093 0.5781788230 4290688692
-0.2850046754 -0.1364817172 0.5782958269 4290293934
-0.2846295238 -0.1356603950 0.5775346756 4290294963
-0.2842539847 -0.1348405629 0.5767726302 4290097584
-0.2838780284 -0.1340222359 0.5760098100 4287595646
-0.2835016549 -0.1332054138 0.5752461553 4285358684
-0.2831248939 -0.1323900968 0.5744816661 4285161818
-0.2831807137 -0.1317777783 0.5745949149 4285096025
-0.2828032076 -0.1309645474 0.5738289356 4286082661
-0.2828584611 -0.1303524375 0.5739410520 4287266935
-0.2829134762 -0.1297399849 0.5740526915 4289823837
-0.2829682827 -0.1291271746 0.5741638541 4288968528
-0.2834562361 -0.1287108064 0.5751539469 4290933039
-0.2839441299 -0.1282922179 0.5761439204 4290735660
-0.2852991223 -0.1282612383 0.5788933039 4290998316
-0.2866543531 -0.1282242537 0.5816432238 4291261488
-0.2880098522 -0.1281812936 0.5843936205 4291862650
-0.2897994220 -0.1283244193 0.5880247951 4291994236
-0.2911554873 -0.1282684952 0.5907763243 4289964705
-0.2929457724 -0.1283967793 0.5944089890 4290030498
-0.2938683331 -0.1281386167 0.5962808728 4290490538
-0.2943567932 -0.1276879907 0.5972720385 4290029987
-0.2939766943 -0.1268603504 0.5965007544 4285031513
-0.2931618690 -0.1258478016 0.5948474407 4283189309
-0.2906088829 -0.1240967140 0.5896672606 4283649872
-0.2889236808 -0.1227257252 0.5862478018 4285821041
-0.2876721323 -0.1215455607 0.5837083459 4289045923
-0.2864198685 -0.1203707457 0.5811673999 4290953920
-0.2860363126 -0.1195646897 0.5803890824 4291413444
-0.2860871255 -0.1189409643 0.5804921985 4290952893
-0.2861376703 -0.1183169037 0.5805948377 4290887870
-0.2866229415 -0.1178713813 0.5815794468 4291151042
-0.2871080935 -0.1174236238 0.5825638771 4291019456
-0.2875931561 -0.1169736460 0.5835480690 4290756284
-0.2880780995 -0.1165214330 0.5845320821 4290756030
-0.2881277204 -0.1158919409 0.5846327543 4290690237
-0.2890477180 -0.1156103387 0.5864995122 4290690750
-0.2895323634 -0.1151514500 0.5874828696 4291151301
-0.2904523611 -0.1148625389 0.5893496275 4291480779
-0.2913724184 -0.1145695001 0.5912165046 4291743951
-0.2927280962 -0.1144426242 0.5939673185 4291414986
-0.2940839827 -0.1143097058 0.5967184305 4292401881
-0.3030237854 -0.1550241262 0.6162468195 4291218385
-0.3017970026 -0.1537145823 0.6137518883 4289506224
-0.2997081578 -0.1519734710 0.6095039845 4289506224
-0.2971874774 -0.1500238031 0.6043777466 4288979105
-0.2938038707 -0.1476518512 0.5974966288 4288913312
-0.2912803292 -0.1457254887 0.5923646092 4289899692
-0.2891864479 -0.1440245062 0.5881063938 4290162864
-0.2879535854 -0.1427598447 0.5855991244 4290360497
-0.2867199183 -0.1415003836 0.5830903053 4289768360
-0.2863480151 -0.1406698078 0.5823339224 4288978590
-0.2859756649 -0.1398407221 0.5815767050 4289373348
-0.2851714790 -0.1388031244 0.5799413323 4290229170
-0.2847982347 -0.1379779428 0.5791822076 4290492342
-0.2848561704 -0.1373623610 0.5793000460 4290425520
-0.2844821811 -0.1365392208 0.5785394907 4290491313
-0.2841077745 -0.1357175708 0.5777781010 4290623928
-0.2837329507 -0.1348974258 0.5770158768 4290294963
-0.2833577394 -0.1340787709 0.5762527585 4288582541
-0.2829821110 -0.1332616210 0.5754888654 4287793025
-0.2826060951 -0.1324459761 0.5747241378 4287793538
-0.2826618552 -0.1318334341 0.5748375654 4287069815
-0.2827173769 -0.1312205195 0.5749505162 4286937970
-0.2823402882 -0.1304075420 0.5741836429 4287661693
-0.2823952436 -0.1297948360 0.5742954016 4289758044
-0.2824499905 -0.1291817874 0.5744066834 4288771149
-0.2833697200 -0.1289621592 0.5762771368 4290933293
-0.2838568687 -0.1285424680 0.5772678256 4290933293
-0.2852094769 -0.1285105497 0.5800185800 4290998316
-0.2861295044 -0.1282785833 0.5818896294 4291261488
-0.2879155278 -0.1284287274 0.5855217576 4291994236
-0.2892689109 -0.1283788234 0.5882740617 4292323201
-0.2906225324 -0.1283228844 0.5910269022 4289899425
-0.2924095988 -0.1284512430 0.5946611762 4289833632
-0.2933304906 -0.1281929910 0.5965339541 4290162088
-0.2933847606 -0.1275537908 0.5966442823 4290425260
-0.2930053174 -0.1267267615 0.5958726406 4288912532
-0.2926254570 -0.1259012818 0.5951001644 4288188809
-0.2900772095 -0.1241494641 0.5899178982 4288978590
-0.2883951366 -0.1227779090 0.5864970684 4289439141
-0.2871459126 -0.1215972602 0.5839565992 4290098611
-0.2858959734 -0.1204219609 0.5814146996 4290164404
-0.2855131626 -0.1196155846 0.5806361437 4290557622
-0.2855639160 -0.1189916134 0.5807393789 4290623415
-0.2856144309 -0.1183673069 0.5808421373 4290755514
-0.2860988379 -0.1179216057 0.5818272233 4290689721
-0.2865831554 -0.1174736768 0.5828121901 4290360756
-0.2870673835 -0.1170235202 0.5837969184 4290294963
-0.2871171236 -0.1163950488 0.5838980675 4290229940
-0.2876010537 -0.1159413904 0.5848822594 4290624698
-0.2885194123 -0.1156596839 0.5867498517 4291216835
-0.2890032232 -0.1152006164 0.5877337456 4291611593
-0.2899215817 -0.1149116009 0.5896013975 4291677645
-0.2908399999 -0.1146184504 0.5914691091 4291546059
-0.2921932340 -0.1144915372 0.5942211747 4291283400
-0.2935466766 -0.1143585816 0.5969735980 4292533467
-0.3011768758 -0.1544280648 0.6138774157 4291152079
-0.2999521196 -0.1531207860 0.6113809943 4289045673
-0.2982967496 -0.1516002119 0.6080069542 4289769396
-0.2953506708 -0.1494340748 0.6020020247 4289768621
-0.2928330600 -0.1474971175 0.5968704820 4288979105
-0.2907442153 -0.1457865685 0.5926129222 4288780441
-0.2886542678 -0.1440849006 0.5883529782 4288912027
-0.2874237001 -0.1428197324 0.5858448148 4289175453
-0.2861923575 -0.1415597647 0.5833350420 4290228141
-0.2853907347 -0.1405169368 0.5817010403 4290491829
-0.2854495645 -0.1398994625 0.5818210244 4290294450
-0.2846469283 -0.1388614476 0.5801849961 4290557622
-0.2842743993 -0.1380359381 0.5794256926 4290294450
-0.2839014530 -0.1372119188 0.5786655545 4290820024
-0.2839590311 -0.1365966648 0.5787828565 4290359473
-0.2835853696 -0.1357747018 0.5780212879 4290426549
-0.2832112908 -0.1349542141 0.5772588253 4290294963
-0.2828367949 -0.1341352463 0.5764955282 4288516748
-0.2824619114 -0.1333177835 0.5757313967 4287200888
-0.2825179398 -0.1327044219 0.5758455992 4286872436
-0.2821423411 -0.1318890303 0.5750799775 4286411885
-0.2817662954 -0.1310751438 0.5743135810 4286937970
-0.2818214595 -0.1304625720 0.5744259357 4287793279
-0.2818763554 -0.1298496425 0.5745378733 4289824094
-0.2823627889 -0.1294342726 0.5755293369 4288837199
-0.2828491330 -0.1290166527 0.5765206814 4290933550
-0.2833354175 -0.1285967976 0.5775118470 4290933550
-0.2846856117 -0.1285648942 0.5802638531 4290735912
-0.2860360742 -0.1285270005 0.5830164552 4291262256
-0.2873867750 -0.1284830868 0.5857695341 4291863420
-0.2887377143 -0.1284331679 0.5885230899 4292060799
-0.2905212343 -0.1285685599 0.5921583772 4289767841
-0.2918727398 -0.1285056621 0.5949131250 4290096806
-0.2927919924 -0.1282473207 0.5967867970 4289635233
-0.2928462029 -0.1276078671 0.5968972445 4289043096
-0.2929001451 -0.1269680560 0.5970072150 4289307290
-0.2920883894 -0.1259547025 0.5953526497 4289570462
-0.2895448506 -0.1242021546 0.5901682973 4289702313
-0.2874330282 -0.1226453334 0.5858637691 4289768106
-0.2861860693 -0.1214651540 0.5833221674 4290032559
-0.2853714228 -0.1204731315 0.5816617608 4289966766
-0.2849893570 -0.1196664274 0.5808829665 4290688438
-0.2850400507 -0.1190422103 0.5809863210 4290491059
-0.2850905359 -0.1184176505 0.5810891986 4290228657
-0.2855740786 -0.1179717854 0.5820748210 4290228657
-0.2860575616 -0.1175236851 0.5830602646 4289834412
-0.2865409255 -0.1170733497 0.5840454698 4290031791
-0.2865906358 -0.1164446324 0.5841467977 4290229170
-0.2870737314 -0.1159907952 0.5851314664 4290821307
-0.2879904211 -0.1157089844 0.5869999528 4291348421
-0.2884733975 -0.1152497381 0.5879843831 4291216835
-0.2893901169 -0.1149606183 0.5898528695 4291282885
-0.2903068662 -0.1146673560 0.5917214751 4291348678
-0.2916576862 -0.1145404056 0.5944747925 4291217607
-0.2934427857 -0.1145768985 0.5981132388 4292599260
-0.2997628748 -0.1540517956 0.6123816371 4290954959
-0.2989692092 -0.1529653072 0.6107602119 4288651429
-0.2968878150 -0.1512265056 0.6065081954 4288914601
-0.2948052585 -0.1494965702 0.6022537947 4290229172
-0.2922923863 -0.1475588381 0.5971202254 4290031793
-0.2902074456 -0.1458475888 0.5928609371 4289833899
-0.2881214023 -0.1441452354 0.5885993838 4289307555
-0.2868931592 -0.1428795606 0.5860902071 4288452246
-0.2860937119 -0.1418320537 0.5844570398 4288649625
-0.2852936983 -0.1407878697 0.5828226805 4289308068
-0.2849228084 -0.1399581432 0.5820650458 4289110689
-0.2845515311 -0.1391298920 0.5813065767 4289768619
-0.2837499082 -0.1380938888 0.5796689391 4290360756
-0.2833777070 -0.1372695416 0.5789085627 4290491829
-0.2830051184 -0.1364466846 0.5781474113 4290360243
-0.2830622792 -0.1358317584 0.5782641768 4290164406
-0.2826889455 -0.1350109577 0.5775015354 4290295992
-0.2823151946 -0.1341916621 0.5767379999 4289241499
-0.2819410563 -0.1333738714 0.5759736300 4288451983
-0.2819970250 -0.1327602863 0.5760880113 4288845717
-0.2816221416 -0.1319445670 0.5753221512 4288714131
-0.2816775739 -0.1313311756 0.5754354000 4288713098
-0.2813019753 -0.1305175573 0.5746680498 4289239442
-0.2813568115 -0.1299043894 0.5747801065 4290087006
-0.2818423808 -0.1294888556 0.5757721066 4288705353
-0.2823278904 -0.1290710866 0.5767639279 4290869038
-0.2832444310 -0.1288471967 0.5786362886 4291132210
-0.2841610909 -0.1286191940 0.5805088878 4290802993
-0.2855090797 -0.1285812855 0.5832627416 4291460923
-0.2868573368 -0.1285373867 0.5860170722 4291273334
-0.2882058322 -0.1284874529 0.5887719393 4291273334
-0.2899861336 -0.1286229342 0.5924087763 4289898912
-0.2913351953 -0.1285600364 0.5951647758 4289964705
-0.2926844954 -0.1284911186 0.5979212523 4289373350
-0.2927387059 -0.1278504729 0.5980320573 4288847006
-0.2919289768 -0.1268342137 0.5963778496 4288846741
-0.2911186814 -0.1258213818 0.5947225094 4288912534
-0.2890118062 -0.1242548004 0.5904183984 4289044634
-0.2869039178 -0.1226973310 0.5861122012 4289373599
-0.2856592834 -0.1215166748 0.5835695863 4289242015
-0.2848462164 -0.1205242500 0.5819085240 4289768359
-0.2844648659 -0.1197172254 0.5811295509 4289374377
-0.2845155299 -0.1190927550 0.5812330246 4289637549
-0.2845659554 -0.1184679493 0.5813360214 4290031015
-0.2850486636 -0.1180219129 0.5823221207 4289965222
-0.2855312824 -0.1175736338 0.5833081007 4289900205
-0.2860138118 -0.1171231344 0.5842938423 4290163377
-0.2864962220 -0.1166703999 0.5852793455 4290755514
-0.2869785428 -0.1162154302 0.5862646699 4291084479
-0.2874607742 -0.1157582402 0.5872498155 4290887870
-0.2883758843 -0.1154721901 0.5891192555 4290427319
-0.2892910242 -0.1151820123 0.5909888148 4290361785
-0.2902062237 -0.1148876846 0.5928584933 4290888129
-0.2915546894 -0.1147597432 0.5956131816 4291151814
-0.2929033041 -0.1146257520 0.5983682871 4292862432
-0.2983513772 -0.1536750793 0.6108841300 4290823373
-0.2975590229 -0.1525900215 0.6092617512 4289046187
-0.2959095836 -0.1510710120 0.6058845520 4289177773
-0.2938308716 -0.1493413001 0.6016283035 4289373863
-0.2917509973 -0.1476204842 0.5973696709 4289308070
-0.2896699905 -0.1459085494 0.5931087732 4289899692
-0.2880164385 -0.1444204152 0.5897230506 4290426036
-0.2863619328 -0.1429393291 0.5863353610 4290031278
-0.2855640352 -0.1418914050 0.5847016573 4289833899
-0.2847655416 -0.1408468187 0.5830667019 4289768619
-0.2843953967 -0.1400167644 0.5823088288 4288715931
-0.2840248346 -0.1391881853 0.5815501213 4289373861
-0.2836538851 -0.1383610964 0.5807905793 4290360756
-0.2828533053 -0.1373271048 0.5791513324 4290623415
-0.2824814320 -0.1365039200 0.5783899426 4290491829
-0.2825385630 -0.1358887702 0.5785068870 4290295992
-0.2821659446 -0.1350676417 0.5777440071 4290295992
-0.2817929387 -0.1342480332 0.5769802332 4288517522
-0.2814195454 -0.1334299147 0.5762156844 4287267455
-0.2814754546 -0.1328160912 0.5763301849 4287266430
-0.2811013162 -0.1320000589 0.5755640864 4286740086
-0.2811566889 -0.1313864291 0.5756774545 4287594617
-0.2812117934 -0.1307724416 0.5757903457 4288515719
-0.2812666893 -0.1301580966 0.5759027004 4289889881
-0.2813213468 -0.1295433939 0.5760145783 4288968779
-0.2818059921 -0.1291254759 0.5770069361 4290934831
-0.2827208936 -0.1289015114 0.5788801908 4291263796
-0.2836358845 -0.1286734194 0.5807536840 4291000372
-0.2849814296 -0.1286355257 0.5835087895 4291592509
-0.2863272429 -0.1285916269 0.5862643719 4291207543
-0.2876732945 -0.1285417080 0.5890204310 4291339129
-0.2890196145 -0.1284857690 0.5917770267 4290030241
-0.2907969654 -0.1286143512 0.5954162478 4290030241
-0.2921437919 -0.1285454184 0.5981739759 4289635752
-0.2921979725 -0.1279045194 0.5982848406 4289109408
-0.2913897932 -0.1268878579 0.5966300964 4288583056
-0.2901499271 -0.1256878674 0.5940914154 4288056712
-0.2880468965 -0.1241215765 0.5897853971 4288912534
-0.2863741219 -0.1227492839 0.5863603354 4289373085
-0.2851318717 -0.1215681434 0.5838167667 4288912280
-0.2843203247 -0.1205753163 0.5821551085 4289372831
-0.2839397192 -0.1197679639 0.5813758373 4289768621
-0.2839903533 -0.1191432476 0.5814794898 4290360758
-0.2840407193 -0.1185182035 0.5815826058 4290886324
-0.2845225632 -0.1180719882 0.5825692415 4291215289
-0.2850043476 -0.1176235378 0.5835556984 4291150270
-0.2854860127 -0.1171728671 0.5845419168 4291018684
-0.2859675884 -0.1167199537 0.5855279565 4290952893
-0.2864490747 -0.1162648126 0.5865138173 4290952893
-0.2869304419 -0.1158074364 0.5874994397 4290756284
-0.2878439128 -0.1155212894 0.5893697739 4290295733
-0.2887574136 -0.1152309999 0.5912402272 4290427319
-0.2896709442 -0.1149365678 0.5931107402 4291348421
-0.2910169661 -0.1148085892 0.5958666801 4291480266
-0.2923631370 -0.1146745533 0.5986230373 4293059298
-0.2969423532 -0.1532979310 0.6093849540 4290560201
-0.2957239747 -0.1519946605 0.6068845987 4288650916
-0.2945048511 -0.1506965458 0.6043826938 4289572018
-0.2924298644 -0.1489680111 0.6001244187 4289571242
-0.2890708745 -0.1465977579 0.5932310820 4289044898
-0.2908427119 -0.1468331665 0.5968672633 4289504934
-0.2874814272 -0.1444807202 0.5899692774 4289373348
-0.2858300507 -0.1429990381 0.5865802765 4289636520
-0.2850336730 -0.1419506967 0.5849459767 4290097071
-0.2842366993 -0.1409056932 0.5833104253 4290426036
-0.2838672996 -0.1400753111 0.5825523734 4289768106
-0.2834975123 -0.1392464191 0.5817934275 4290491829
-0.2826989591 -0.1382095963 0.5801546574 4290360243
-0.2823282182 -0.1373846084 0.5793938637 4290820024
-0.2819570899 -0.1365611106 0.5786322355 4290688438
-0.2820141613 -0.1359457076 0.5787492990 4290230199
-0.2816422880 -0.1351242810 0.5779861808 4289901234
-0.2812700272 -0.1343043298 0.5772222281 4287596420
-0.2808973789 -0.1334858984 0.5764574409 4286741111
-0.2809532285 -0.1328718364 0.5765720606 4287398529
-0.2810088396 -0.1322574019 0.5766862035 4287595908
-0.2806351185 -0.1314416230 0.5759192705 4287726458
-0.2806901932 -0.1308273971 0.5760322809 4288515974
-0.2807450294 -0.1302128285 0.5761448145 4290415453
-0.2807996273 -0.1295978725 0.5762568712 4289823316
-0.2812834084 -0.1291798055 0.5772497058 4291526966
-0.2821966708 -0.1289557666 0.5791238546 4291987517
-0.2831099927 -0.1287276000 0.5809982419 4291658815
-0.2840234339 -0.1284953207 0.5828727484 4291856194
-0.2857964933 -0.1286458075 0.5865114331 4291536254
-0.2875699401 -0.1287883967 0.5901508927 4291404668
-0.2889138758 -0.1287315041 0.5929089189 4290029473
-0.2898280323 -0.1284779906 0.5947849154 4290161059
-0.2907422483 -0.1282203197 0.5966610909 4290161324
-0.2912263870 -0.1277697831 0.5976546407 4290161324
-0.2904196680 -0.1267536581 0.5959991217 4290227368
-0.2896123827 -0.1257409602 0.5943424106 4290293161
-0.2870829105 -0.1239881441 0.5891513824 4290227881
-0.2854132056 -0.1226162389 0.5857248306 4290359467
-0.2846037447 -0.1216195598 0.5840637088 4290096041
-0.2837937474 -0.1206263304 0.5824013948 4290359213
-0.2834139168 -0.1198186576 0.5816218853 4290360758
-0.2834644914 -0.1191936955 0.5817256570 4290558137
-0.2835147977 -0.1185683981 0.5818289518 4290689462
-0.2839958072 -0.1181220114 0.5828160644 4290163118
-0.2844767272 -0.1176733971 0.5838029981 4289834410
-0.2849575579 -0.1172225475 0.5847897530 4289965996
-0.2854382694 -0.1167694628 0.5857763290 4289834410
-0.2859189212 -0.1163141429 0.5867626667 4290031789
-0.2863994241 -0.1158565953 0.5877487659 4290690491
-0.2873112559 -0.1155703366 0.5896199942 4291019456
-0.2882231176 -0.1152799428 0.5914913416 4291151042
-0.2891350091 -0.1149854064 0.5933626890 4291743179
-0.2904785573 -0.1148573831 0.5961199403 4291743436
-0.2918222845 -0.1147233099 0.5988775492 4293322468
-0.2959622741 -0.1531410217 0.6087611914 4290823116
-0.2943195999 -0.1516184211 0.6053823829 4288190364
-0.2931025922 -0.1503216475 0.6028791666 4288979880
-0.2914580703 -0.1488121599 0.5994965434 4289373863
-0.2898125947 -0.1473096907 0.5961120129 4289900207
-0.2881661654 -0.1458142549 0.5927254558 4289373348
-0.2869457603 -0.1445409507 0.5902152658 4288452246
-0.2857246101 -0.1432728469 0.5877034664 4288386453
-0.2845026553 -0.1420099288 0.5851900578 4288781211
-0.2837072313 -0.1409645230 0.5835539699 4289439141
-0.2833385766 -0.1401338130 0.5827956200 4289636520
-0.2829695046 -0.1393045932 0.5820364952 4290820794
-0.2821724713 -0.1382673681 0.5803971291 4290360243
-0.2818025053 -0.1374420524 0.5796360970 4290491059
-0.2814321220 -0.1366182417 0.5788742900 4290556852
-0.2814891040 -0.1360026002 0.5789915323 4290164147
-0.2811179757 -0.1351808459 0.5782281756 4290032561
-0.2807464600 -0.1343605816 0.5774639845 4287859592
-0.2803745270 -0.1335418373 0.5766989589 4286543732
-0.2804303467 -0.1329275221 0.5768137574 4286477427
-0.2804858983 -0.1323128641 0.5769280195 4286280048
-0.2805412412 -0.1316978335 0.5770418644 4286081633
-0.2801679373 -0.1308823079 0.5762740374 4287529079
-0.2802227139 -0.1302674860 0.5763866901 4290678366
-0.2802772522 -0.1296523064 0.5764988661 4290941538
-0.2807601988 -0.1292340755 0.5774922371 4292513346
-0.2816717923 -0.1290099621 0.5793672800 4292710725
-0.2825834751 -0.1287817210 0.5812425017 4292119366
-0.2834952474 -0.1285493672 0.5831179023 4292250952
-0.2852650583 -0.1286999434 0.5867581964 4291208321
-0.2870352566 -0.1288426071 0.5903993249 4291076735
-0.2883767188 -0.1287857145 0.5931586027 4290029987
-0.2892892361 -0.1285321116 0.5950354934 4290227366
-0.2902018130 -0.1282743514 0.5969125628 4289766566
-0.2902556956 -0.1276348382 0.5970234275 4288911257
-0.2898799181 -0.1268071085 0.5962504745 4288648338
-0.2886446416 -0.1256070882 0.5937096477 4288845717
-0.2865494192 -0.1240404770 0.5893999934 4289241245
-0.2848828733 -0.1226680055 0.5859721303 4289307038
-0.2836452127 -0.1214868501 0.5834263563 4288911510
-0.2832665145 -0.1206772923 0.5826474428 4288714131
-0.2833173573 -0.1200514734 0.5827520490 4289044644
-0.2833679318 -0.1194253117 0.5828560591 4289373609
-0.2834182978 -0.1187988147 0.5829595923 4289505447
-0.2834683657 -0.1181719899 0.5830626488 4289242275
-0.2839484513 -0.1177232042 0.5840501189 4289176480
-0.2844284177 -0.1172721758 0.5850373507 4289702824
-0.2849082947 -0.1168189198 0.5860244036 4290492342
-0.2853880823 -0.1163634211 0.5870112181 4291216065
-0.2862982750 -0.1160802543 0.5888834000 4291282628
-0.2867779136 -0.1156193390 0.5898699760 4290690491
-0.2876881063 -0.1153288335 0.5917421579 4290756284
-0.2885983586 -0.1150341853 0.5936144590 4291940558
-0.2899394631 -0.1149061322 0.5963729620 4291809231
-0.2912807465 -0.1147720143 0.5991318226 4293585642
-0.2945574224 -0.1527631134 0.6072588563 4290362563
-0.2937692106 -0.1516814232 0.6056338549 4288453536
-0.2925545275 -0.1503841281 0.6031297445 4289111466
-0.2909131348 -0.1488740295 0.5997458100 4288847519
-0.2892707884 -0.1473709643 0.5963599682 4289176484
-0.2876274884 -0.1458749324 0.5929720998 4290359473
-0.2859832048 -0.1443859488 0.5895823240 4290162094
-0.2851905823 -0.1433325112 0.5879482031 4289767590
-0.2843973637 -0.1422824264 0.5863129497 4289241246
-0.2836035490 -0.1412356645 0.5846763849 4289044383
-0.2832357287 -0.1404037029 0.5839180946 4288781211
-0.2824408412 -0.1393627077 0.5822793245 4289899692
-0.2816453576 -0.1383250654 0.5806393623 4290426036
-0.2817029357 -0.1377080828 0.5807580948 4290753972
-0.2813333571 -0.1368830204 0.5799961686 4291017144
-0.2809633911 -0.1360594332 0.5792334676 4290558133
-0.2805930078 -0.1352373511 0.5784698725 4290360754
-0.2802222371 -0.1344167739 0.5777055025 4288583056
-0.2798510492 -0.1335977018 0.5769402385 4287267196
-0.2794794440 -0.1327801347 0.5761741400 4287003770
-0.2795348763 -0.1321661770 0.5762884021 4286937977
-0.2795900702 -0.1315518469 0.5764021873 4287594100
-0.2796450257 -0.1309371442 0.5765154958 4288317823
-0.2796997428 -0.1303220987 0.5766283274 4290546265
-0.2797542214 -0.1297066808 0.5767406225 4290480472
-0.2802363038 -0.1292882860 0.5777344704 4291920437
-0.2811462581 -0.1290641129 0.5796104074 4292380988
-0.2824842930 -0.1290313005 0.5823689103 4291856448
-0.2833944857 -0.1287979186 0.5842453837 4292251206
-0.2851611078 -0.1289476305 0.5878874660 4290881674
-0.2864998877 -0.1288967580 0.5906474590 4290750088
-0.2878389060 -0.1288398653 0.5934079885 4289898916
-0.2887497544 -0.1285861731 0.5952857733 4289964709
-0.2892321944 -0.1281384975 0.5962803364 4289502878
-0.2892859578 -0.1274996847 0.5963912010 4288581776
-0.2889108062 -0.1266725659 0.5956178308 4288187785
-0.2876778245 -0.1254730225 0.5930758715 4288516750
-0.2860152721 -0.1240927503 0.5896484256 4289504417
-0.2843518853 -0.1227197200 0.5862191319 4289701796
-0.2831165791 -0.1215380877 0.5836724043 4289372318
-0.2827386260 -0.1207282096 0.5828932524 4289174939
-0.2823602855 -0.1199198887 0.5821132660 4289637035
-0.2824107409 -0.1192944348 0.5822173357 4290163379
-0.2828902304 -0.1188489944 0.5832058191 4290426549
-0.2829402685 -0.1182219163 0.5833089948 4290294963
-0.2834194899 -0.1177729517 0.5842969418 4290493112
-0.2838986218 -0.1173217595 0.5852847099 4290756284
-0.2843776345 -0.1168683246 0.5862722397 4291019456
-0.2848565578 -0.1164126545 0.5872595906 4290953663
-0.2857651114 -0.1161293834 0.5891326666 4290558905
-0.2862438858 -0.1156682894 0.5901197195 4290164147
-0.2871524394 -0.1153776795 0.5919927955 4290427578
-0.2880610526 -0.1150829196 0.5938659310 4291611852
-0.2898297012 -0.1151256412 0.5975121856 4291809231
-0.2911686003 -0.1149905249 0.6002724767 4293783021
-0.2935799658 -0.1526056081 0.6066327691 4290230207
-0.2927931845 -0.1515244246 0.6050070524 4288584865
-0.2915807366 -0.1502275467 0.6025017500 4289637553
-0.2903675437 -0.1489358395 0.5999948382 4289373350
-0.2887283266 -0.1474321783 0.5966076851 4288715420
-0.2870881259 -0.1459355503 0.5932185054 4288780441
-0.2858723998 -0.1446612477 0.5907064080 4289109406
-0.2846558988 -0.1433921307 0.5881927609 4289767590
-0.2838642299 -0.1423416138 0.5865568519 4290030762
-0.2830719650 -0.1412944496 0.5849197507 4290162348
-0.2827048600 -0.1404621750 0.5841612220 4290096555
-0.2819114923 -0.1394207627 0.5825219154 4290294450
-0.2815434933 -0.1385923922 0.5817614794 4290623415
-0.2811750770 -0.1377654970 0.5810002089 4290688692
-0.2808062434 -0.1369401067 0.5802381039 4290754485
-0.2804370224 -0.1361162066 0.5794751644 4290294703
-0.2800673842 -0.1352938116 0.5787113905 4290360496
-0.2796973586 -0.1344729066 0.5779467225 4289700506
-0.2797533572 -0.1338575631 0.5780624747 4288318853
-0.2793825865 -0.1330387443 0.5772963166 4287398271
-0.2790114284 -0.1322214305 0.5765293837 4286740341
-0.2790665627 -0.1316068619 0.5766432881 4286607205
-0.2791214585 -0.1309919357 0.5767567158 4287659893
-0.2791761160 -0.1303766519 0.5768696666 4289822027
-0.2792305350 -0.1297609955 0.5769821405 4289756234
-0.2797117531 -0.1293424517 0.5779765248 4291262505
-0.2806200385 -0.1291181892 0.5798533559 4291459884
-0.2819556296 -0.1290853918 0.5826130509 4290934833
-0.2828641534 -0.1288519353 0.5844904184 4291987521
-0.2842001617 -0.1288080364 0.5872510076 4290489234
-0.2859638631 -0.1289508641 0.5908953547 4290555027
-0.2868728936 -0.1287021637 0.5927737355 4289834153
-0.2882095873 -0.1286401898 0.5955358148 4289636774
-0.2886911631 -0.1281923354 0.5965309143 4289963428
-0.2887448668 -0.1275532842 0.5966418982 4289963428
-0.2879426479 -0.1265378147 0.5949842334 4289898916
-0.2867119014 -0.1253387183 0.5924411416 4290096295
-0.2854804695 -0.1241449639 0.5898965597 4290163375
-0.2838202119 -0.1227713823 0.5864658952 4290294961
-0.2825872600 -0.1215892658 0.5839182138 4290820277
-0.2822100520 -0.1207790673 0.5831388235 4290754484
-0.2818324864 -0.1199704260 0.5823585987 4290689723
-0.2818828821 -0.1193447262 0.5824627876 4291150274
-0.2823615074 -0.1188991144 0.5834517479 4290822075
-0.2824115157 -0.1182717904 0.5835551023 4290361524
-0.2828898728 -0.1178226545 0.5845435262 4290558135
-0.2833681405 -0.1173712835 0.5855317712 4290952893
-0.2838463187 -0.1169176772 0.5865198374 4290624698
-0.2847532332 -0.1166374907 0.5883938074 4290032561
-0.2852312624 -0.1161784604 0.5893816352 4290163893
-0.2861382067 -0.1158909351 0.5912556052 4290887616
-0.2866160870 -0.1154264733 0.5922431350 4291282887
-0.2875230312 -0.1151316091 0.5941171646 4291677645
-0.2892884314 -0.1151743606 0.5977650881 4291678158
-0.2906248569 -0.1150392070 0.6005265713 4293849327
-0.2926034033 -0.1524478495 0.6060056686 4290888137
-0.2922422290 -0.1515871882 0.6052576303 4288650658
-0.2910321355 -0.1502898037 0.6027514338 4288848037
-0.2893969119 -0.1487794369 0.5993647575 4289504936
-0.2877607346 -0.1472761035 0.5959761143 4289636522
-0.2865481079 -0.1459961087 0.5934646726 4288648855
-0.2853347361 -0.1447212845 0.5909516215 4288122511
-0.2845452726 -0.1436661035 0.5893166065 4288385424
-0.2833304107 -0.1424007565 0.5868005753 4288845975
-0.2825396955 -0.1413531750 0.5851628780 4289043867
-0.2821733356 -0.1405205727 0.5844041109 4289833383
-0.2813815176 -0.1394787580 0.5827642083 4290031278
-0.2810142338 -0.1386500597 0.5820035934 4290162864
-0.2806465626 -0.1378228515 0.5812420845 4290359727
-0.2802784741 -0.1369971335 0.5804797411 4290820278
-0.2799099982 -0.1361729205 0.5797165632 4290886324
-0.2795411050 -0.1353501976 0.5789526105 4290162601
-0.2791717947 -0.1345289797 0.5781877041 4288779403
-0.2792277634 -0.1339134127 0.5783036351 4287266164
-0.2788577378 -0.1330942661 0.5775372386 4287529855
-0.2789131403 -0.1324788928 0.5776519775 4287793027
-0.2785423696 -0.1316618323 0.5768841505 4287792249
-0.2785972059 -0.1310466677 0.5769976974 4288647558
-0.2786518335 -0.1304311454 0.5771108270 4289887822
-0.2791323364 -0.1300137490 0.5781059861 4289295685
-0.2796128094 -0.1295941025 0.5791010857 4291130405
-0.2800931931 -0.1291722208 0.5800960064 4291261991
-0.2814263105 -0.1291394383 0.5828569531 4290540075
-0.2823331654 -0.1289058924 0.5847352147 4292382279
-0.2836667001 -0.1288619936 0.5874970555 4289964952
-0.2850005031 -0.1288120747 0.5902594328 4290228124
-0.2863345146 -0.1287561208 0.5930222869 4289769389
-0.2872419655 -0.1285032034 0.5949016809 4289572010
-0.2877225876 -0.1280561388 0.5958970785 4290029219
-0.2877761722 -0.1274177730 0.5960080624 4290160805
-0.2874024510 -0.1265909523 0.5952340364 4290096295
-0.2861740589 -0.1253913790 0.5926899910 4290162088
-0.2845177650 -0.1240109280 0.5892596245 4289572008
-0.2832878828 -0.1228229851 0.5867124200 4289835180
-0.2820572853 -0.1216403991 0.5841637850 4289702566
-0.2816808224 -0.1208298728 0.5833841562 4289307808
-0.2813040018 -0.1200209111 0.5826036930 4289571240
-0.2813543379 -0.1193949655 0.5827079415 4290229170
-0.2818321288 -0.1189491823 0.5836974978 4289439907
-0.2818820775 -0.1183216125 0.5838009119 4289571493
-0.2823595703 -0.1178723127 0.5847898722 4290097584
-0.2828370035 -0.1174207628 0.5857786536 4290755514
-0.2833143175 -0.1169669852 0.5867671967 4291281858
-0.2837915123 -0.1165109649 0.5877555609 4291347651
-0.2846967578 -0.1162274852 0.5896303654 4291282374
-0.2851738334 -0.1157660335 0.5906184316 4291019202
-0.2860790789 -0.1154752150 0.5924932361 4291019715
-0.2874126732 -0.1153521538 0.5952552557 4291809231
-0.2887464762 -0.1152230278 0.5980176926 4291743438
-0.2900804579 -0.1150878295 0.6007804275 4294046193
-0.2916277647 -0.1522898525 0.6053776145 4290690758
-0.2912672162 -0.1514297873 0.6046291590 4289177002
-0.2904828191 -0.1503519863 0.6030008197 4288584865
-0.2888507247 -0.1488410234 0.5996128917 4288649627
-0.2872177064 -0.1473370939 0.5962229371 4288912799
-0.2860074341 -0.1460565925 0.5937105417 4289701543
-0.2852201760 -0.1449967325 0.5920763612 4289504164
-0.2840084434 -0.1437256783 0.5895609856 4289109147
-0.2832199335 -0.1426734179 0.5879241228 4288780182
-0.2820067406 -0.1414118409 0.5854057670 4288517523
-0.2816411257 -0.1405789256 0.5846467614 4288978074
-0.2812750936 -0.1397474706 0.5838869214 4288847004
-0.2809086740 -0.1389175206 0.5831262469 4289833899
-0.2805418074 -0.1380890608 0.5823647380 4290360497
-0.2797500491 -0.1370541155 0.5807211399 4290360497
-0.2793823183 -0.1362295747 0.5799577832 4290754738
-0.2790141702 -0.1354065388 0.5791935325 4290623152
-0.2790703773 -0.1347901523 0.5793102384 4290029213
-0.2787014842 -0.1339691877 0.5785444975 4288450181
-0.2787571549 -0.1333530098 0.5786600113 4287924613
-0.2788125575 -0.1327364594 0.5787750483 4287069304
-0.2784426510 -0.1319181472 0.5780071616 4287134321
-0.2784975171 -0.1313018054 0.5781210661 4288384388
-0.2785521448 -0.1306850910 0.5782344937 4289493577
-0.2786065340 -0.1300680339 0.5783473849 4288835647
-0.2790861428 -0.1296482384 0.5793429613 4290866979
-0.2795656621 -0.1292262077 0.5803383589 4290801186
-0.2804706991 -0.1289976686 0.5822171569 4290079524
-0.2818015218 -0.1289598048 0.5849797130 4292513865
-0.2831325829 -0.1289159060 0.5877428055 4289834653
-0.2844639122 -0.1288659871 0.5905064344 4290032032
-0.2853695154 -0.1286180615 0.5923863649 4289703853
-0.2862752378 -0.1283659935 0.5942664742 4289243302
-0.2867549360 -0.1279197037 0.5952622890 4289173910
-0.2872345150 -0.1274711788 0.5962578654 4288581773
-0.2864353061 -0.1264558434 0.5945987701 4288254091
-0.2852092087 -0.1252567321 0.5920535922 4288451470
-0.2839823961 -0.1240629628 0.5895068645 4288453529
-0.2827548683 -0.1228745431 0.5869587064 4288387736
-0.2815266252 -0.1216914728 0.5844090581 4288518292
-0.2811509371 -0.1208806261 0.5836291909 4288715671
-0.2812015712 -0.1202538237 0.5837342739 4289308068
-0.2812519372 -0.1196266785 0.5838388801 4290755514
-0.2813020647 -0.1189991981 0.5839429498 4290294703
-0.2817789018 -0.1185510084 0.5849327445 4290426289
-0.2822556198 -0.1181005761 0.5859223604 4291215552
-0.2827322483 -0.1176479086 0.5869117975 4291544517
-0.2832087874 -0.1171929985 0.5879009962 4291347651
-0.2836852372 -0.1167358533 0.5888900161 4291084479
-0.2841615677 -0.1162764654 0.5898787975 4290887100
-0.2850651741 -0.1159887314 0.5917545557 4290360756
-0.2863962650 -0.1158697903 0.5945177674 4290295479
-0.2873000503 -0.1155727953 0.5963938236 4291348167
-0.2882038355 -0.1152716503 0.5982699990 4291743438
-0.2906530499 -0.1521316022 0.6047485471 4290953673
-0.2902931571 -0.1512721330 0.6039996743 4289965487
-0.2899328172 -0.1504141092 0.6032499671 4289504936
-0.2887266278 -0.1491208822 0.6007403135 4289240732
-0.2870968282 -0.1476154327 0.5973492265 4288517009
-0.2858889699 -0.1463334858 0.5948361158 4288714389
-0.2846803665 -0.1450567394 0.5923213959 4289174940
-0.2838940620 -0.1439998001 0.5906853676 4289768108
-0.2826839983 -0.1427325159 0.5881676674 4290294452
-0.2818964124 -0.1416831762 0.5865290165 4290163377
-0.2815316319 -0.1408490092 0.5857700109 4289439654
-0.2807430029 -0.1398054361 0.5841290951 4289176735
-0.2803772986 -0.1389751583 0.5833682418 4289703079
-0.2800111771 -0.1381463856 0.5826064944 4290229170
-0.2796446681 -0.1373190880 0.5818439126 4290229170
-0.2792777717 -0.1364932954 0.5810804963 4290688432
-0.2789104283 -0.1356689930 0.5803161860 4290885811
-0.2789666653 -0.1350514442 0.5804331899 4290886324
-0.2790226638 -0.1344335228 0.5805497169 4290359980
-0.2782301605 -0.1334085017 0.5789008141 4290623669
-0.2787097394 -0.1329941452 0.5798986554 4290426290
-0.2783406675 -0.1321745664 0.5791307092 4290622378
-0.2779711783 -0.1313565075 0.5783619285 4290030241
-0.2780257463 -0.1307395697 0.5784754753 4289296463
-0.2780800760 -0.1301222593 0.5785884857 4289033291
-0.2785588205 -0.1297023147 0.5795845985 4290865439
-0.2790374756 -0.1292801201 0.5805805326 4290931232
-0.2799408436 -0.1290515065 0.5824601650 4290276398
-0.2808443308 -0.1288187653 0.5843399763 4292710739
-0.2821728587 -0.1287758201 0.5871041417 4289965222
-0.2835015953 -0.1287268400 0.5898688436 4290031015
-0.2848306000 -0.1286718249 0.5926340222 4290096808
-0.2853094339 -0.1282285750 0.5936303139 4289767843
-0.2862134874 -0.1279732287 0.5955113173 4289702050
-0.2866922021 -0.1275245249 0.5965073705 4289570464
-0.2858945429 -0.1265087873 0.5948477387 4289307809
-0.2846708298 -0.1253091991 0.5923015475 4289768360
-0.2830207646 -0.1239285842 0.5888683796 4290163118
-0.2817955017 -0.1227406338 0.5863190293 4290492083
-0.2809953094 -0.1217424944 0.5846540928 4290360497
-0.2806203663 -0.1209313273 0.5838739872 4290557876
-0.2806709409 -0.1203042790 0.5839791894 4290689208
-0.2807212770 -0.1196768880 0.5840839148 4291083966
-0.2811973989 -0.1192298159 0.5850746036 4291347653
-0.2812473178 -0.1186008081 0.5851784348 4290558137
-0.2817231715 -0.1181502044 0.5861685276 4291216063
-0.2821989655 -0.1176973581 0.5871585011 4290755512
-0.2826746404 -0.1172422767 0.5881481767 4290755512
-0.2831502259 -0.1167849526 0.5891376734 4290426547
-0.2840521932 -0.1165003106 0.5910143852 4290097582
-0.2849542201 -0.1162115186 0.5928912163 4290558133
-0.2858562768 -0.1159185767 0.5947681069 4291019715
-0.2867583632 -0.1156214699 0.5966450572 4291743438
-0.2876605093 -0.1153202131 0.5985220671 4292204248
-0.2896792591 -0.1519730985 0.6041184664 4290822085
-0.2897417545 -0.1513345093 0.6042487621 4289702567
-0.2889603078 -0.1502568126 0.6026191115 4289834153
-0.2881782949 -0.1491824389 0.6009882689 4290095780
-0.2857075930 -0.1472413987 0.5958356857 4289437850
-0.2870345712 -0.1472601742 0.5986030102 4288714131
-0.2849842608 -0.1455479413 0.5943271518 4288516752
-0.2837773860 -0.1442740262 0.5918102860 4288254097
-0.2825697660 -0.1430053115 0.5892918110 4288451476
-0.2813613713 -0.1417418122 0.5867717266 4289307555
-0.2809973061 -0.1409073025 0.5860124826 4290162864
-0.2802102268 -0.1398633420 0.5843710303 4290163630
-0.2798452675 -0.1390327364 0.5836099386 4290032044
-0.2799026966 -0.1384127140 0.5837297440 4290228657
-0.2791141272 -0.1373760253 0.5820851326 4290294450
-0.2787479460 -0.1365499049 0.5813215375 4290687917
-0.2783813775 -0.1357252896 0.5805570483 4290622124
-0.2784375548 -0.1351075172 0.5806741714 4290227881
-0.2784934938 -0.1344893575 0.5807908177 4289175193
-0.2781258523 -0.1336673796 0.5800241828 4289307808
-0.2777578533 -0.1328469068 0.5792566538 4288913050
-0.2778128982 -0.1322295219 0.5793715119 4290095264
-0.2778677344 -0.1316117644 0.5794858336 4290226850
-0.2779223323 -0.1309936494 0.5795997381 4289164877
-0.2779766917 -0.1303751767 0.5797131062 4288901705
-0.2780308425 -0.1297563314 0.5798259974 4291062820
-0.2785086334 -0.1293339878 0.5808224082 4291194406
-0.2794103324 -0.1291052997 0.5827029347 4290604849
-0.2803121507 -0.1288724691 0.5845835805 4292907604
-0.2816382051 -0.1288295388 0.5873490572 4289899429
-0.2829644680 -0.1287805587 0.5901149511 4289965222
-0.2838667035 -0.1285334080 0.5919964910 4290227881
-0.2847689688 -0.1282821298 0.5938782096 4290030502
-0.2852468789 -0.1278364509 0.5948748589 4289964709
-0.2857246697 -0.1273885220 0.5958712697 4290096295
-0.2853531241 -0.1265616864 0.5950964093 4290228140
-0.2841317356 -0.1253616065 0.5925492644 4290688691
-0.2824848592 -0.1239804327 0.5891147256 4290623669
-0.2812619805 -0.1227919981 0.5865644217 4289899946
-0.2804633081 -0.1217934638 0.5848988891 4289965739
-0.2800891399 -0.1209819764 0.5841184855 4289570981
-0.2801396549 -0.1203546822 0.5842238665 4290097325
-0.2806150913 -0.1199087277 0.5852153897 4290360497
-0.2806652188 -0.1192798093 0.5853198767 4290558135
-0.2807150483 -0.1186505482 0.5854238868 4289834412
-0.2811900675 -0.1181997731 0.5864145160 4290229168
-0.2820904553 -0.1179246232 0.5882922411 4290229168
-0.2825653553 -0.1174684092 0.5892826319 4290821048
-0.2834657729 -0.1171859130 0.5911604166 4291150013
-0.2843662202 -0.1168992594 0.5930382609 4291281856
-0.2848409712 -0.1164344028 0.5940283537 4291610821
-0.2857414484 -0.1161403954 0.5959062576 4291742925
-0.2862160206 -0.1156700999 0.5968959928 4292006097
-0.2875424922 -0.1155399010 0.5996623039 4292664540
-0.2887063920 -0.1518143415 0.6034873724 4290426297
-0.2887687087 -0.1511764526 0.6036176682 4289702050
-0.2884097695 -0.1503187120 0.6028673649 4289965222
-0.2884715497 -0.1496809423 0.6029965281 4290095780
-0.2872694135 -0.1483900100 0.6004837155 4290227366
-0.2860665321 -0.1471042633 0.5979692936 4290095014
-0.2848628759 -0.1458237171 0.5954532623 4289634463
-0.2836584449 -0.1445483714 0.5929356217 4288845464
-0.2828748226 -0.1434920728 0.5912976265 4288450706
-0.2816689610 -0.1422262043 0.5887769461 4288912281
-0.2808840871 -0.1411775351 0.5871363282 4290030762
-0.2805204391 -0.1403432637 0.5863761902 4290294701
-0.2793125510 -0.1390902549 0.5838513374 4290163115
-0.2793699503 -0.1384700090 0.5839713216 4290359473
-0.2790050209 -0.1376411319 0.5832084417 4290425266
-0.2786396742 -0.1368137598 0.5824447870 4290687919
-0.2782739103 -0.1359878927 0.5816802382 4290753712
-0.2779077590 -0.1351635158 0.5809148550 4290425260
-0.2779636383 -0.1345451325 0.5810316801 4289043607
-0.2775967717 -0.1337228268 0.5802648067 4289767589
-0.2776520848 -0.1331046373 0.5803804398 4289175452
-0.2772845030 -0.1322844177 0.5796120763 4289897885
-0.2773392797 -0.1316664368 0.5797265768 4290753194
-0.2773938179 -0.1310480833 0.5798405409 4289229901
-0.2774481177 -0.1304293722 0.5799540877 4288769350
-0.2779251933 -0.1300081760 0.5809513330 4291062050
-0.2779791057 -0.1293877810 0.5810640454 4291193636
-0.2788791656 -0.1291590333 0.5829454064 4290604849
-0.2797793150 -0.1289261281 0.5848270059 4292907604
-0.2811028659 -0.1288831830 0.5875936747 4290030248
-0.2824266851 -0.1288342178 0.5903608203 4290030248
-0.2833272219 -0.1285869926 0.5922432542 4289898916
-0.2842278481 -0.1283356100 0.5941258073 4289438365
-0.2847048640 -0.1278897822 0.5951229930 4288911767
-0.2851818204 -0.1274416894 0.5961199403 4288845974
-0.2848109901 -0.1266145110 0.5953448415 4289043866
-0.2840158939 -0.1256014109 0.5936827660 4289241245
-0.2819482684 -0.1240322217 0.5893608332 4289636003
-0.2807277441 -0.1228433177 0.5868095756 4288517522
-0.2799306512 -0.1218443811 0.5851433873 4289175452
-0.2799814343 -0.1212162301 0.5852495432 4288846487
-0.2800319791 -0.1205877438 0.5853551626 4290096554
-0.2800822854 -0.1199589074 0.5854603052 4290491312
-0.2801323235 -0.1193297431 0.5855649114 4290755254
-0.2801821530 -0.1187002361 0.5856690407 4290492082
-0.2810808718 -0.1184281856 0.5875477195 4290821048
-0.2815550268 -0.1179740429 0.5885387659 4291018427
-0.2820290327 -0.1175176576 0.5895296335 4291347392
-0.2829277813 -0.1172350571 0.5914083123 4291610564
-0.2838265896 -0.1169482991 0.5932871103 4291873995
-0.2847254276 -0.1166573837 0.5951659083 4291939788
-0.2856242955 -0.1163623109 0.5970448852 4291743179
-0.2860980928 -0.1158908755 0.5980352759 4291611593
-0.2874221504 -0.1157596856 0.6008029580 4293058785
-0.2880919874 -0.1525144428 0.6036044955 4291609283
-0.2881544828 -0.1518767327 0.6037353873 4290490802
-0.2882167399 -0.1512386203 0.6038658619 4289767077
-0.2882787883 -0.1506000757 0.6039958000 4290161835
-0.2879202366 -0.1497425288 0.6032446623 4290293163
-0.2875612974 -0.1488864422 0.6024925709 4290358956
-0.2863609493 -0.1475983262 0.5999776125 4290358701
-0.2855803967 -0.1465312093 0.5983422399 4290292908
-0.2847992778 -0.1454674304 0.5967056155 4290227117
-0.2835967839 -0.1441930532 0.5941861868 4289963945
-0.2823935151 -0.1429238766 0.5916651487 4289898150
-0.2811895013 -0.1416599303 0.5891425610 4290029736
-0.2804057598 -0.1406123340 0.5875004530 4290293163
-0.2800425589 -0.1397782862 0.5867394805 4290556335
-0.2792577446 -0.1387364864 0.5850951076 4290491059
-0.2788936198 -0.1379063576 0.5843322277 4290491059
-0.2781077325 -0.1368703395 0.5826856494 4290622126
-0.2777427435 -0.1360441595 0.5819209218 4290687919
-0.2777988613 -0.1354249716 0.5820385218 4290622385
-0.2774331570 -0.1346008331 0.5812723041 4289174939
-0.2774887383 -0.1339818388 0.5813887715 4290030761
-0.2771222889 -0.1331598014 0.5806209445 4289175452
-0.2771773040 -0.1325410008 0.5807362795 4289897372
-0.2768101394 -0.1317210495 0.5799669623 4291147439
-0.2768646181 -0.1311024576 0.5800811648 4289164108
-0.2769188583 -0.1304835081 0.5801947713 4288703557
-0.2773950994 -0.1300621480 0.5811925530 4290996258
-0.2778712511 -0.1296385527 0.5821902156 4290996258
-0.2787697017 -0.1294087768 0.5840725899 4290670131
-0.2796682417 -0.1291748583 0.5859552026 4293104472
-0.2805668712 -0.1289367825 0.5878379941 4290096041
-0.2818882167 -0.1288878024 0.5906064510 4290227627
-0.2827870846 -0.1286405027 0.5924897194 4290161834
-0.2836860418 -0.1283890456 0.5943731666 4289767076
-0.2841621935 -0.1279430389 0.5953708291 4289438111
-0.2846382558 -0.1274947822 0.5963683128 4289438111
-0.2842682004 -0.1266672909 0.5955929756 4289636003
-0.2830515504 -0.1254662424 0.5930438638 4289767589
-0.2818341851 -0.1242705509 0.5904932618 4290293933
-0.2806161344 -0.1230802163 0.5879411697 4289701796
-0.2798206806 -0.1220799312 0.5862745643 4290491312
-0.2794480622 -0.1212668493 0.5854939222 4290359726
-0.2794985473 -0.1206381172 0.5855997205 4291149242
-0.2799723446 -0.1201908737 0.5865923762 4291478207
-0.2800224423 -0.1195605025 0.5866972804 4291610563
-0.2804959714 -0.1191097274 0.5876894593 4291544770
-0.2809694111 -0.1186567023 0.5886813998 4291413185
-0.2814427614 -0.1182014272 0.5896731019 4291544771
-0.2823399305 -0.1179209724 0.5915528536 4291610564
-0.2828131616 -0.1174602509 0.5925443769 4291676357
-0.2837103307 -0.1171724349 0.5944241285 4291808200
-0.2850317359 -0.1170546487 0.5971927047 4291873993
-0.2855048478 -0.1165843233 0.5981839895 4291939788
-0.2864021659 -0.1162840202 0.6000640392 4291808202
-0.2872995138 -0.1159795597 0.6019441485 4293256418
