VERSION 0.7
FIELDS x y z rgba
SIZE 4 4 4 4
TYPE F F F U
COUNT 1 1 1 1
WIDTH 920
HEIGHT 1
VIEWPOINT 0.0 0.0 0.0 1.0 0.0 0.0 0.0
POINTS 920
DATA ascii
-0.3004590273 -0.1444700658 0.5846210718 4290360756
-0.2973953784 -0.1423540413 0.5786599517 4287729036
-0.2938835621 -0.1400377005 0.5718268156 4290031791
-0.2908167839 -0.1379476488 0.5658595562 4289637033
-0.2881952822 -0.1360811144 0.5607587695 4289242275
-0.2869131863 -0.1348554492 0.5582641363 4290952893
-0.2860773206 -0.1338441074 0.5566377044 4291018686
-0.2856879234 -0.1330443025 0.5558800697 4291479237
-0.2848509550 -0.1320387125 0.5542514920 4291084479
-0.2849079072 -0.1314491928 0.5543623567 4291083450
-0.2849646509 -0.1308593005 0.5544726849 4291017657
-0.2850211561 -0.1302690655 0.5545826554 4290821825
-0.2846298814 -0.1294749081 0.5538213253 4291216583
-0.2846858203 -0.1288848966 0.5539302230 4291610571
-0.2842938304 -0.1280928254 0.5531674623 4291742157
-0.2847970128 -0.1277038455 0.5541465282 4291808204
-0.2848522663 -0.1271127909 0.5542540550 4291873997
-0.2849072516 -0.1265214086 0.5543610454 4291939536
-0.2849620283 -0.1259296834 0.5544676185 4292005329
-0.2845684290 -0.1251405329 0.5537017584 4292399056
-0.2846226394 -0.1245490536 0.5538072586 4292530642
-0.2851249278 -0.1241524443 0.5547845960 4292006610
-0.2851787508 -0.1235593632 0.5548893213 4292138196
-0.2852323353 -0.1229659468 0.5549935699 4291731831
-0.2852857113 -0.1223721877 0.5550974011 4290679143
-0.2853388190 -0.1217781007 0.5552007556 4292651593
-0.2858404219 -0.1213742271 0.5561767220 4293309523
-0.2863419354 -0.1209681481 0.5571525693 4293047127
-0.2863945067 -0.1203712076 0.5572548509 4293178713
-0.2864468098 -0.1197739318 0.5573566556 4293508444
-0.2869479358 -0.1193631291 0.5583317280 4293574237
-0.2869998515 -0.1187642589 0.5584327579 4293574496
-0.2875007391 -0.1183499992 0.5594073534 4293311324
-0.2875522673 -0.1177495494 0.5595076084 4293243230
-0.2880529165 -0.1173318252 0.5604817271 4293177437
-0.2885534763 -0.1169118956 0.5614557266 4292257122
-0.2895034850 -0.1166709363 0.5633041859 4292651880
-0.2900039554 -0.1162456796 0.5642780066 4289768619
-0.2905043364 -0.1158182099 0.5652515888 4290689721
-0.2914544046 -0.1155668944 0.5671001673 4292335316
-0.2924045026 -0.1153114960 0.5689489245 4294243313
-0.3331861198 -0.1713812649 0.6497041583 4290890188
-0.3328149021 -0.1704692692 0.6489803195 4288390054
-0.3328877091 -0.1697853208 0.6491222978 4290742388
-0.3329602182 -0.1691009402 0.6492636800 4290808181
-0.3321432173 -0.1679663956 0.6476705670 4290484103
-0.3313255906 -0.1668350697 0.6460761428 4292392100
-0.3300624490 -0.1654839367 0.6436131001 4291083966
-0.3247941732 -0.1621388942 0.6333401203 4290952380
-0.3137381375 -0.1559399217 0.6117811203 4290755001
-0.3049026430 -0.1508877575 0.5945521593 4290755001
-0.3018508554 -0.1487235278 0.5886012316 4290755001
-0.3019146025 -0.1481008232 0.5887255073 4290491829
-0.3019780815 -0.1474777162 0.5888493657 4290031278
-0.3024868369 -0.1470708251 0.5898414254 4290031278
-0.3012132049 -0.1457989812 0.5873578787 4290031791
-0.2994931042 -0.1443175077 0.5840036869 4290097584
-0.2968805134 -0.1424153596 0.5789091587 4287334278
-0.2938206792 -0.1403109580 0.5729426146 4289965998
-0.2907593548 -0.1382191032 0.5669730902 4288452759
-0.2881425321 -0.1363508701 0.5618703961 4287071106
-0.2864166796 -0.1349136382 0.5585049987 4289044896
-0.2855822742 -0.1339018792 0.5568779707 4289900205
-0.2851936221 -0.1331017613 0.5561200380 4290952895
-0.2848045528 -0.1323031187 0.5553613901 4289308070
-0.2844150662 -0.1315059960 0.5546019077 4288714648
-0.2844717503 -0.1309158802 0.5547124147 4289833129
-0.2845281959 -0.1303254068 0.5548225045 4289045416
-0.2845844030 -0.1297345906 0.5549321175 4288716451
-0.2841935456 -0.1289406866 0.5541699529 4289307816
-0.2842492163 -0.1283500940 0.5542784929 4289834160
-0.2843046486 -0.1277591586 0.5543865561 4290229172
-0.2843598425 -0.1271678805 0.5544942021 4290097586
-0.2844147980 -0.1265762597 0.5546013713 4289703344
-0.2844695151 -0.1259842813 0.5547080636 4290032309
-0.2845239937 -0.1253919750 0.5548143387 4291544517
-0.2841308117 -0.1246031076 0.5540475845 4292465619
-0.2841847241 -0.1240110546 0.5541527867 4291940304
-0.2846860588 -0.1236130297 0.5551303029 4291874511
-0.2847395837 -0.1230193675 0.5552347302 4291599218
-0.2847929001 -0.1224253774 0.5553386807 4290743909
-0.2857417166 -0.1222141683 0.5571888089 4292848206
-0.2857947052 -0.1216176450 0.5572921634 4293374550
-0.2858474553 -0.1210207865 0.5573950410 4293045848
-0.2858999670 -0.1204236001 0.5574974418 4293045848
-0.2864004374 -0.1200139001 0.5584733486 4293178198
-0.2864525616 -0.1194151193 0.5585749149 4293178198
-0.2869527936 -0.1190019548 0.5595504045 4292849750
-0.2870045006 -0.1184015870 0.5596511960 4292454992
-0.2875044942 -0.1179849580 0.5606262088 4292058186
-0.2880043983 -0.1175661311 0.5616009831 4291400256
-0.2885042131 -0.1171450987 0.5625756383 4290809166
-0.2890039384 -0.1167218685 0.5635501146 4291927647
-0.2899524271 -0.1164767444 0.5653996468 4290623928
-0.2904520631 -0.1160481721 0.5663739443 4292729304
-0.2914006114 -0.1157958210 0.5682235360 4293980913
-0.3312761188 -0.1707686633 0.6473817825 4290890187
-0.3313488960 -0.1700867414 0.6475240588 4288521639
-0.3314214349 -0.1694043726 0.6476657987 4290939766
-0.3310499489 -0.1684956849 0.6469398141 4290742387
-0.3306780159 -0.1675883830 0.6462129354 4289826173
-0.3294176757 -0.1662344038 0.6437500119 4291273619
-0.3281565309 -0.1648854762 0.6412854791 4290491829
-0.3224530518 -0.1613195688 0.6301397085 4290952380
-0.3118601143 -0.1553429216 0.6094389558 4290425268
-0.3039284647 -0.1507321000 0.5939388275 4290491061
-0.3013263345 -0.1487873495 0.5888537765 4290755003
-0.3013900220 -0.1481643915 0.5889782310 4290886589
-0.3014534712 -0.1475410461 0.5891022086 4290689210
-0.3019613922 -0.1471340060 0.5900948048 4290623417
-0.3006900549 -0.1458616406 0.5876103044 4290557624
-0.2985280752 -0.1441647112 0.5833854079 4290294452
-0.2963649631 -0.1424766183 0.5791581869 4289044385
-0.2933104932 -0.1403713524 0.5731891990 4289702315
-0.2902545333 -0.1382786185 0.5672171712 4288386968
-0.2880875766 -0.1366207600 0.5629824996 4287729038
-0.2859194875 -0.1349717677 0.5587456226 4288518554
-0.2850866020 -0.1339595914 0.5571179986 4288979105
-0.2846986651 -0.1331591457 0.5563598871 4290689723
-0.2843103111 -0.1323602051 0.5556009412 4288584347
-0.2843672633 -0.1317692846 0.5557122827 4287465351
-0.2839781940 -0.1309724003 0.5549519062 4288847004
-0.2840345800 -0.1303816885 0.5550621152 4288124571
-0.2840907574 -0.1297906339 0.5551719069 4287992985
-0.2841466963 -0.1291992366 0.5552812219 4288453277
-0.2837562263 -0.1284055859 0.5545181632 4288782242
-0.2838116288 -0.1278144270 0.5546264052 4289570988
-0.2838667631 -0.1272229105 0.5547341704 4289110437
-0.2839216888 -0.1266310513 0.5548414588 4288651169
-0.2839763463 -0.1260388494 0.5549483299 4288782755
-0.2840307951 -0.1254463047 0.5550547242 4290755514
-0.2840850055 -0.1248534247 0.5551606417 4292137167
-0.2841389775 -0.1242602021 0.5552660823 4291808718
-0.2841927111 -0.1236666441 0.5553711057 4291808718
-0.2846931219 -0.1232662573 0.5563490391 4292123252
-0.2847464681 -0.1226710975 0.5564532876 4291728494
-0.2852466702 -0.1222672388 0.5574307442 4292451404
-0.2852995992 -0.1216704771 0.5575342178 4292714576
-0.2857995927 -0.1212631464 0.5585112572 4292714326
-0.2858521342 -0.1206647828 0.5586139560 4292385361
-0.2859044373 -0.1200660914 0.5587161779 4292057415
-0.2864040136 -0.1196540296 0.5596924424 4291662657
-0.2864559293 -0.1190537438 0.5597938895 4290939196
-0.2869552672 -0.1186382174 0.5607696772 4290412852
-0.2870067656 -0.1180363446 0.5608703494 4290345523
-0.2875058353 -0.1176173538 0.5618456602 4289819179
-0.2880048454 -0.1171961576 0.5628207922 4291070804
-0.2889517546 -0.1169540808 0.5646712780 4294426247
-0.2894506454 -0.1165275425 0.5656462312 4293452775
-0.2903976142 -0.1162782460 0.5674967766 4294242291
-0.2908964157 -0.1158463582 0.5684715509 4294112245
-0.3298127353 -0.1703841239 0.6459240317 4290824394
-0.3294424713 -0.1694759727 0.6451988816 4288324260
-0.3295146525 -0.1687960774 0.6453402042 4290610801
-0.3291435540 -0.1678897887 0.6446135044 4290808180
-0.3283289373 -0.1667598337 0.6430180669 4289760380
-0.3275136948 -0.1656330824 0.6414214373 4290023552
-0.3258112371 -0.1640631407 0.6380872130 4288518039
-0.3205607533 -0.1607217044 0.6278043985 4288386453
-0.3095425963 -0.1545239091 0.6062258482 4286083700
-0.3029551208 -0.1505762041 0.5933245420 4285886321
-0.3012448251 -0.1490706503 0.5899749994 4287004802
-0.3008647859 -0.1482279152 0.5892307162 4288452248
-0.3009282053 -0.1476043314 0.5893548727 4289570729
-0.3014352918 -0.1471971422 0.5903480053 4290097073
-0.3001661897 -0.1459242553 0.5878625512 4290360245
-0.2980080545 -0.1442266256 0.5836359262 4290360245
-0.2958487570 -0.1425378323 0.5794070363 4290228659
-0.2927996814 -0.1404316723 0.5734355450 4290426038
-0.2897490859 -0.1383380741 0.5674610734 4290360245
-0.2875859439 -0.1366795152 0.5632246733 4290031280
-0.2858662605 -0.1352401674 0.5598567724 4289439656
-0.2850349545 -0.1342266649 0.5582286716 4289110691
-0.2846478522 -0.1334249675 0.5574705005 4290886848
-0.2842603028 -0.1326247752 0.5567115545 4290294711
-0.2838723660 -0.1318260729 0.5559517741 4289175969
-0.2839290202 -0.1312345564 0.5560627580 4289439141
-0.2835403681 -0.1304379404 0.5553015471 4288782501
-0.2835964859 -0.1298466474 0.5554114580 4289177259
-0.2836523652 -0.1292550117 0.5555208921 4289242793
-0.2837080061 -0.1286630332 0.5556299090 4289045414
-0.2833179533 -0.1278696358 0.5548660159 4289899953
-0.2833730578 -0.1272778958 0.5549739003 4289505195
-0.2834279239 -0.1266857982 0.5550813675 4289703603
-0.2834825516 -0.1260933578 0.5551883578 4289637810
-0.2835369408 -0.1255005896 0.5552948713 4291085249
-0.2835910916 -0.1249074712 0.5554009676 4292203730
-0.2836450338 -0.1243140101 0.5555065274 4292202708
-0.2836987078 -0.1237202138 0.5556116700 4291610571
-0.2837521732 -0.1231260821 0.5557163954 4291134818
-0.2846978307 -0.1229169369 0.5575684309 4290740060
-0.2847509682 -0.1223202646 0.5576725006 4291066425
-0.2848038673 -0.1217232570 0.5577760935 4290934839
-0.2853030264 -0.1213157773 0.5587536693 4290473787
-0.2853555381 -0.1207171753 0.5588564873 4290210615
-0.2858544290 -0.1203062162 0.5598335862 4290211118
-0.2859065533 -0.1197060198 0.5599356294 4290342704
-0.2864052057 -0.1192915887 0.5609122515 4290146618
-0.2864569128 -0.1186897978 0.5610135198 4290015032
-0.2869553566 -0.1182719097 0.5619896650 4289948978
-0.2874536812 -0.1178518087 0.5629656315 4290212150
-0.2879519463 -0.1174295098 0.5639414787 4292714099
-0.2884501219 -0.1170050055 0.5649171472 4294955944
-0.2893954813 -0.1167587563 0.5667685866 4294044401
-0.2898935676 -0.1163289100 0.5677440763 4294110194
-0.2908389866 -0.1160754263 0.5695956349 4293914866
-0.3283517063 -0.1699991226 0.6444644928 4290692808
-0.3279819489 -0.1690924466 0.6437387466 4288587432
-0.3276117444 -0.1681871563 0.6430121660 4290676594
-0.3272410929 -0.1672832519 0.6422846317 4290676594
-0.3264276683 -0.1661555767 0.6406881213 4290155138
-0.3251712024 -0.1648069173 0.6382220387 4290747275
-0.3234713972 -0.1632400006 0.6348857880 4288978590
-0.3177871704 -0.1596784443 0.6237291694 4287794316
-0.3072305620 -0.1537040770 0.6030094624 4282925634
-0.3019826710 -0.1504200697 0.5927092433 4282070325
-0.3002753258 -0.1489147991 0.5893582106 4282399290
-0.3003388941 -0.1482913792 0.5894830227 4282794048
-0.3004022241 -0.1476675570 0.5896072984 4283715150
-0.3004653156 -0.1470433325 0.5897311568 4284767838
-0.2996416688 -0.1459868103 0.5881145597 4285359977
-0.2974873483 -0.1442884803 0.5838862062 4285031012
-0.2953318655 -0.1425989866 0.5796555877 4285096805
-0.2922881842 -0.1404919475 0.5736816525 4286873216
-0.2896865904 -0.1386097372 0.5685754418 4288649627
-0.2870836556 -0.1367382407 0.5634666085 4289175971
-0.2853670418 -0.1352982968 0.5600973368 4289636781
-0.2845372260 -0.1342843771 0.5584686995 4290228918
-0.2841508389 -0.1334823519 0.5577102900 4290952641
-0.2842080891 -0.1328894794 0.5578227043 4290821055
-0.2833768129 -0.1318828166 0.5561910868 4291017403
-0.2834334373 -0.1312910765 0.5563021898 4291280575
-0.2834898233 -0.1306989789 0.5564128757 4290822084
-0.2831015587 -0.1299026012 0.5556508303 4290887877
-0.2831573784 -0.1293107420 0.5557603836 4291150020
-0.2832129896 -0.1287185252 0.5558695197 4291544778
-0.2832683623 -0.1281259507 0.5559782386 4291807950
-0.2828787267 -0.1273328364 0.5552134514 4291413192
-0.2829335332 -0.1267405003 0.5553210378 4291611600
-0.2829881012 -0.1261478364 0.5554281473 4291611600
-0.2834874988 -0.1257522255 0.5564083457 4292072144
-0.2835416794 -0.1251579523 0.5565146804 4292269523
-0.2840408385 -0.1247588620 0.5574944019 4292334037
-0.2840946615 -0.1241629645 0.5576000214 4291149763
-0.2841482162 -0.1235667244 0.5577051640 4289817164
-0.2842015624 -0.1229701564 0.5578098297 4289422406
-0.2847001851 -0.1225650534 0.5587885380 4290077743
-0.2847531438 -0.1219668686 0.5588924289 4289946157
-0.2848058343 -0.1213683560 0.5589958429 4289747511
-0.2853040695 -0.1209585145 0.5599737763 4290997578
-0.2853563726 -0.1203584000 0.5600764155 4291787856
-0.2858543694 -0.1199450791 0.5610538721 4291524684
-0.2859062850 -0.1193433702 0.5611557364 4291328344
-0.2864040434 -0.1189265847 0.5621327162 4290867793
-0.2864555418 -0.1183232814 0.5622338057 4290736710
-0.2869530618 -0.1179030240 0.5632103086 4290736710
-0.2874504924 -0.1174805537 0.5641866326 4293042815
-0.2883942723 -0.1172373667 0.5660389662 4294956723
-0.2888916135 -0.1168095469 0.5670151114 4293715949
-0.2898354530 -0.1165591255 0.5688676238 4293979121
-0.2903326750 -0.1161259562 0.5698435903 4293849843
-0.3266754746 -0.1716426164 0.6425752640 4294375934
-0.3264518976 -0.1693847626 0.6421355009 4290758602
-0.3265238106 -0.1687084585 0.6422769427 4288784812
-0.3261541128 -0.1678046435 0.6415497661 4290742388
-0.3257839680 -0.1669022143 0.6408216953 4290742388
-0.3249718547 -0.1657759398 0.6392242312 4290220931
-0.3237174749 -0.1644285619 0.6367568374 4290681482
-0.3211370409 -0.1624160260 0.6316811442 4289241762
-0.3154624701 -0.1588566452 0.6205191612 4288320660
-0.3049240708 -0.1528834403 0.5997899175 4284044626
-0.3010110855 -0.1502636820 0.5920930505 4282597180
-0.2997487783 -0.1489784569 0.5896100998 4282662975
-0.2993701100 -0.1481359750 0.5888652205 4282597182
-0.2994332910 -0.1475128233 0.5889895558 4282465596
-0.2999386191 -0.1471062601 0.5899835229 4282202424
-0.2986739874 -0.1458332688 0.5874959826 4281873459
-0.2969659865 -0.1443502754 0.5841363072 4281347115
-0.2948143482 -0.1426600814 0.5799039602 4281347117
-0.2917760313 -0.1405521780 0.5739275813 4281281324
-0.2891790271 -0.1386691779 0.5688192844 4282005047
-0.2865807414 -0.1367968917 0.5637083650 4281939254
-0.2848671675 -0.1353563666 0.5603377223 4282333758
-0.2840388715 -0.1343420297 0.5587084889 4283715411
-0.2840963900 -0.1337483525 0.5588216186 4285360236
-0.2837103903 -0.1329465806 0.5580623746 4286873475
-0.2828806043 -0.1319395006 0.5564301610 4287596167
-0.2833806574 -0.1315534115 0.5574137568 4287990925
-0.2829935253 -0.1307552159 0.5566522479 4287861653
-0.2830496430 -0.1301625371 0.5567626357 4287927446
-0.2826617658 -0.1293664128 0.5559996963 4289307816
-0.2827173173 -0.1287739575 0.5561089516 4290492090
-0.2827726305 -0.1281811595 0.5562177896 4290952384
-0.2828277349 -0.1275880188 0.5563261509 4291741900
-0.2828825712 -0.1269945204 0.5564340353 4291743186
-0.2829371989 -0.1264006793 0.5565414429 4292137944
-0.2829915881 -0.1258064955 0.5566484332 4292269269
-0.2830457389 -0.1252119839 0.5567549467 4292006097
-0.2835440636 -0.1248127446 0.5577352047 4292596439
-0.2835978270 -0.1242166087 0.5578409433 4291346372
-0.2836513519 -0.1236201376 0.5579462051 4289487429
-0.2841493189 -0.1232161522 0.5589256883 4289290050
-0.2842024267 -0.1226180643 0.5590302348 4290143285
-0.2842553258 -0.1220196486 0.5591342449 4290998594
-0.2843079865 -0.1214208975 0.5592378378 4291128145
-0.2848053873 -0.1210108921 0.5602162480 4293036142
-0.2853027582 -0.1205986813 0.5611945391 4294681216
-0.2853548229 -0.1199970543 0.5612969995 4294681216
-0.2858519554 -0.1195813715 0.5622748137 4294090891
-0.2859036326 -0.1189781576 0.5623764992 4292446066
-0.2864004970 -0.1185589954 0.5633538365 4290605643
-0.2868972719 -0.1181376278 0.5643309951 4290803022
-0.2873939574 -0.1177140549 0.5653079748 4293240455
-0.2878905535 -0.1172882766 0.5662848353 4294956984
-0.2883870900 -0.1168602929 0.5672614574 4293321961
-0.2893293202 -0.1166097820 0.5691148639 4293914098
-0.2898257077 -0.1161764413 0.5700913072 4293785333
-0.3245559931 -0.1687697619 0.6398040056 4290955211
-0.3246275485 -0.1680959463 0.6399450898 4289113007
-0.3242582977 -0.1671945304 0.6392171383 4290611571
-0.3238885701 -0.1662944853 0.6384882927 4290743157
-0.3230776489 -0.1651705056 0.6368897557 4289892997
-0.3218252361 -0.1638253331 0.6344208121 4290485134
-0.3192491531 -0.1618147194 0.6293424964 4289634463
-0.3135843277 -0.1582566053 0.6181753278 4289108119
-0.3035053611 -0.1525053084 0.5983064771 4284570459
-0.3000403643 -0.1501070410 0.5914758444 4282530876
-0.2987802625 -0.1488222182 0.5889917612 4282991427
-0.2988436222 -0.1481992304 0.5891166925 4282662462
-0.2989067733 -0.1475758404 0.5892411470 4282399292
-0.2989696562 -0.1469520628 0.5893651247 4282267706
-0.2981489003 -0.1458956152 0.5877471566 4282267706
-0.2964439392 -0.1444120258 0.5843861103 4282267706
-0.2942961156 -0.1427211314 0.5801520944 4282201913
-0.2912631929 -0.1406123340 0.5741732717 4282201913
-0.2886708379 -0.1387285590 0.5690628290 4282136120
-0.2865193188 -0.1370670199 0.5648214817 4282267706
-0.2843666375 -0.1354143769 0.5605778694 4282201913
-0.2835398614 -0.1343996376 0.5589480400 4281807155
-0.2831549048 -0.1335969716 0.5581891537 4281741364
-0.2832120657 -0.1330036372 0.5583018661 4281412399
-0.2828263938 -0.1322030425 0.5575415492 4281478703
-0.2824403048 -0.1314039528 0.5567804575 4282005047
-0.2824966013 -0.1308113933 0.5568914413 4282006072
-0.2825526297 -0.1302184761 0.5570019484 4281874486
-0.2821654975 -0.1294220388 0.5562387705 4282333758
-0.2822210193 -0.1288293600 0.5563482046 4283781204
-0.2822762728 -0.1282363236 0.5564571619 4285360753
-0.2823313177 -0.1276429445 0.5565656424 4288058266
-0.2823861241 -0.1270492077 0.5566736460 4291477958
-0.2824406922 -0.1264551431 0.5567812324 4292135888
-0.2829385102 -0.1260583103 0.5577625632 4292202447
-0.2829926908 -0.1254626215 0.5578693748 4291807689
-0.2830466330 -0.1248665825 0.5579757690 4291677907
-0.2831003368 -0.1242702082 0.5580816269 4289506738
-0.2831538320 -0.1236734912 0.5581870675 4289944898
-0.2836509645 -0.1232693568 0.5591670871 4290010691
-0.2837040424 -0.1226710305 0.5592716932 4290274360
-0.2842009366 -0.1222634092 0.5602512360 4291327048
-0.2842536271 -0.1216634810 0.5603551269 4292775015
-0.2843060791 -0.1210632175 0.5604585409 4294222461
-0.2843582928 -0.1204626262 0.5605614185 4292771691
-0.2848546505 -0.1200489849 0.5615398884 4292179554
-0.2853509188 -0.1196331382 0.5625182390 4294155905
-0.2854025662 -0.1190296784 0.5626200438 4293366389
-0.2858985960 -0.1186103597 0.5635978580 4290801490
-0.2863945365 -0.1181888282 0.5645755529 4291130455
-0.2868904173 -0.1177650914 0.5655530691 4293176479
-0.2873861790 -0.1173391491 0.5665304065 4294957516
-0.2878818810 -0.1169109941 0.5675075650 4293455335
-0.2888225019 -0.1166603863 0.5693618655 4293850093
-0.2893180847 -0.1162268743 0.5703387856 4294309363
-0.3231036365 -0.1683832109 0.6383385658 4290955211
-0.3227352500 -0.1674827933 0.6376107335 4289244593
-0.3223663867 -0.1665837616 0.6368820667 4290743157
-0.3219971061 -0.1656861156 0.6361524463 4290808950
-0.3216273785 -0.1647898704 0.6354219913 4290090376
-0.3199369609 -0.1632214785 0.6320823431 4290682513
-0.3169250190 -0.1609891951 0.6261317730 4289568671
-0.3108295798 -0.1572105885 0.6140894294 4288647569
-0.3025294542 -0.1523485035 0.5976912975 4284373080
-0.2990705371 -0.1499501616 0.5908576846 4282465083
-0.2982531786 -0.1488856524 0.5892428160 4282728255
-0.2983164787 -0.1482624263 0.5893679261 4282728255
-0.2983795404 -0.1476387978 0.5894924998 4282794048
-0.2984423935 -0.1470147818 0.5896166563 4282596669
-0.2971822023 -0.1457416713 0.5871269703 4282530878
-0.2959212363 -0.1444737017 0.5846357346 4282465085
-0.2937772572 -0.1427821219 0.5804000497 4282267706
-0.2911909223 -0.1408859193 0.5752903819 4282267706
-0.2881619930 -0.1387878954 0.5693062544 4282201913
-0.2860142887 -0.1371256709 0.5650631785 4282333499
-0.2843069434 -0.1356830299 0.5616900325 4282333501
-0.2834817469 -0.1346669495 0.5600597262 4282333501
-0.2830976248 -0.1338630468 0.5593008399 4282267708
-0.2827130854 -0.1330606341 0.5585411191 4282333501
-0.2823281288 -0.1322597116 0.5577806234 4282398522
-0.2823846936 -0.1316663623 0.5578923225 4282332729
-0.2819990218 -0.1308675110 0.5571303964 4282334010
-0.2820550203 -0.1302743703 0.5572410226 4282399803
-0.2816686034 -0.1294776201 0.5564776063 4282004536
-0.2817240655 -0.1288847029 0.5565871596 4281872950
-0.2817792892 -0.1282914281 0.5566962957 4282137151
-0.2818342745 -0.1276978105 0.5568048954 4283847769
-0.2823315561 -0.1273033917 0.5577873588 4289438373
-0.2823861539 -0.1267081499 0.5578952432 4289964717
-0.2824405432 -0.1261125654 0.5580026507 4289833383
-0.2824946642 -0.1255166382 0.5581095815 4289504418
-0.2825485766 -0.1249203682 0.5582160950 4289834932
-0.2826022208 -0.1243237555 0.5583221316 4288584865
-0.2830986977 -0.1239207387 0.5593029261 4290403394
-0.2831519544 -0.1233225092 0.5594081879 4290863945
-0.2832050025 -0.1227239519 0.5595129728 4290733887
-0.2837010622 -0.1223161742 0.5604930520 4290733887
-0.2837537229 -0.1217160076 0.5605970621 4292248419
-0.2838061154 -0.1211155057 0.5607005954 4292182626
-0.2843017876 -0.1207029745 0.5616798997 4290995278
-0.2843537927 -0.1201008707 0.5617825985 4290732106
-0.2848492563 -0.1196848676 0.5627614260 4293037684
-0.2849008441 -0.1190811619 0.5628633499 4293564028
-0.2853960693 -0.1186616793 0.5638417602 4290932306
-0.2858911753 -0.1182399839 0.5648199320 4291129685
-0.2863862216 -0.1178160831 0.5657979250 4293045671
-0.2868811786 -0.1173899695 0.5667757988 4294958551
-0.2873760164 -0.1169616506 0.5677534342 4293520360
-0.2883150578 -0.1167109534 0.5696086287 4293849325
-0.2888098061 -0.1162772700 0.5705860853 4294440949
-0.3212148547 -0.1677670032 0.6360025406 4290955211
-0.3208468556 -0.1668689847 0.6352739930 4289178800
-0.3209174573 -0.1661997139 0.6354137659 4290545778
-0.3205486834 -0.1653035432 0.6346836090 4290545778
-0.3197402656 -0.1641832590 0.6330829263 4289827204
-0.3184919357 -0.1628415883 0.6306112409 4290287755
-0.3150457740 -0.1603865325 0.6237878799 4289173913
-0.3006106317 -0.1523764282 0.5952064395 4288515983
-0.3090273440 -0.1559629440 0.6118714213 4285096287
-0.2985412478 -0.1500139534 0.5911090374 4283648841
-0.2977253795 -0.1489490271 0.5894936323 4283845966
-0.2977886498 -0.1483255625 0.5896189213 4283977552
-0.2978516519 -0.1477016956 0.5897436738 4283846736
-0.2979144454 -0.1470774412 0.5898679495 4282925634
-0.2966565490 -0.1458038241 0.5873773694 4282333497
-0.2953978479 -0.1445353329 0.5848851800 4282070325
-0.2932577133 -0.1428430527 0.5806477070 4282136120
-0.2902356088 -0.1407325119 0.5746639371 4282070327
-0.2880930007 -0.1390597969 0.5704215765 4282267706
-0.2859492302 -0.1373959631 0.5661770105 4282530878
-0.2838043571 -0.1357410252 0.5619301200 4282333501
-0.2829806805 -0.1347245276 0.5602992177 4282333501
-0.2825972736 -0.1339203119 0.5595400929 4281938743
-0.2826544046 -0.1333255768 0.5596532822 4282201915
-0.2818292379 -0.1323163509 0.5580193996 4282398009
-0.2823268771 -0.1319288909 0.5590047240 4282463802
-0.2819420099 -0.1311288029 0.5582427382 4281873461
-0.2815567553 -0.1303302199 0.5574799180 4281939254
-0.2816124856 -0.1297364831 0.5575902462 4282530880
-0.2816679776 -0.1291424036 0.5577000976 4282596673
-0.2817232311 -0.1285479814 0.5578095317 4282137408
-0.2817782462 -0.1279532015 0.5579184294 4283124303
-0.2818330228 -0.1273580641 0.5580269098 4289504936
-0.2818875909 -0.1267625988 0.5581349730 4290294452
-0.2819419205 -0.1261667758 0.5582424998 4290622899
-0.2819960117 -0.1255706102 0.5583496094 4290425520
-0.2824919224 -0.1251699924 0.5593315363 4290755005
-0.2825456262 -0.1245722026 0.5594378710 4288978594
-0.2830413580 -0.1241680980 0.5604193807 4290730817
-0.2830946445 -0.1235686988 0.5605249405 4290665024
-0.2831477225 -0.1229689643 0.5606300235 4290470206
-0.2832005620 -0.1223688871 0.5607346296 4292180824
-0.2836957276 -0.1219587475 0.5617150664 4293565055
-0.2837481499 -0.1213570684 0.5618188977 4291393886
-0.2838003635 -0.1207550541 0.5619221926 4290732106
-0.2842951417 -0.1203401536 0.5629018545 4291061071
-0.2843469381 -0.1197365448 0.5630044341 4293367680
-0.2848414779 -0.1193181649 0.5639836192 4293038715
-0.2848928571 -0.1187129468 0.5640853643 4290602571
-0.2853871584 -0.1182910949 0.5650640726 4291326294
-0.2858813703 -0.1178670228 0.5660426021 4292719026
-0.2863754928 -0.1174407452 0.5670209527 4294958558
-0.2868695259 -0.1170122623 0.5679991245 4293652462
-0.2878069282 -0.1167614684 0.5698552132 4293981427
-0.2883008718 -0.1163276210 0.5708331466 4294440692
-0.3193300068 -0.1671501547 0.6336640716 4290955211
-0.3194005787 -0.1664828956 0.6338041425 4289113007
-0.3190326989 -0.1655877531 0.6330741048 4290348912
-0.3191026747 -0.1649205238 0.6332129836 4290480498
-0.3182955682 -0.1638016254 0.6316114068 4289827204
-0.3170492947 -0.1624612510 0.6291383505 4290287755
-0.3136091232 -0.1600070298 0.6223118901 4289568670
-0.3070962429 -0.1560070068 0.6093879938 4289437084
-0.2992638648 -0.1513682902 0.5938457251 4288846488
-0.2975724041 -0.1498566717 0.5904893279 4287925386
-0.2967579663 -0.1487922370 0.5888731480 4287530628
-0.2968210578 -0.1481694579 0.5889983773 4287070077
-0.2968839109 -0.1475462765 0.5891231298 4286477686
-0.2969465554 -0.1469227076 0.5892473459 4285293412
-0.2961302102 -0.1458659023 0.5876274705 4284701275
-0.2944343388 -0.1443814188 0.5842623115 4284503896
-0.2927375138 -0.1429039240 0.5808951855 4284241496
-0.2897208035 -0.1407925189 0.5749089718 4284175703
-0.2871423364 -0.1389063895 0.5697923303 4284965219
-0.2850023508 -0.1372428089 0.5655457973 4287070595
-0.2833011150 -0.1357989758 0.5621700287 4287333769
-0.2824789584 -0.1347820610 0.5605385303 4287004804
-0.2820962667 -0.1339775175 0.5597791672 4285557358
-0.2821533680 -0.1333825588 0.5598924756 4284438877
-0.2817699611 -0.1325800717 0.5591316819 4283978324
-0.2813861668 -0.1317790896 0.5583700538 4283583566
-0.2814423740 -0.1311849207 0.5584816337 4283387214
-0.2810578346 -0.1303860098 0.5577185750 4283716179
-0.2811135054 -0.1297920495 0.5578290224 4283781204
-0.2811689675 -0.1291977316 0.5579390526 4283320653
-0.2812241614 -0.1286030710 0.5580486059 4283189839
-0.2812791467 -0.1280080527 0.5581576824 4283979355
-0.2808929086 -0.1272129864 0.5573912859 4289899692
-0.2813883722 -0.1268169880 0.5583744645 4290623415
-0.2814426422 -0.1262209266 0.5584821701 4290492082
-0.2814967036 -0.1256245375 0.5585893989 4290360496
-0.2815504968 -0.1250277907 0.5586961508 4290557883
-0.2820454538 -0.1246257424 0.5596783161 4288386714
-0.2825403214 -0.1242214814 0.5606603026 4290599742
-0.2825935781 -0.1236218438 0.5607659817 4290731328
-0.2830882370 -0.1232140884 0.5617475510 4290470207
-0.2831411064 -0.1226128414 0.5618524551 4291720274
-0.2831937373 -0.1220112592 0.5619568825 4293368195
-0.2832461298 -0.1214093417 0.5620608330 4292118128
-0.2832982540 -0.1208070889 0.5621643662 4291325526
-0.2837922275 -0.1203920245 0.5631445050 4292312421
-0.2838439643 -0.1197881699 0.5632472038 4294092177
-0.2843376696 -0.1193696335 0.5642268658 4292644731
-0.2843890190 -0.1187641770 0.5643287897 4290734414
-0.2848824859 -0.1183421537 0.5653079748 4291194965
-0.2853758633 -0.1179179251 0.5662870407 4292523963
-0.2863116562 -0.1176733524 0.5681440234 4294958561
-0.2868049443 -0.1172437519 0.5691228509 4293520878
-0.2872981429 -0.1168119460 0.5701014996 4293915636
-0.2877912521 -0.1163779274 0.5710800290 4293980400
-0.2887270749 -0.1161197871 0.5729370713 4294375158
-0.3183236420 -0.1669914275 0.6330623627 4290889417
-0.3179566860 -0.1660963595 0.6323326230 4289178799
-0.3180267811 -0.1654302478 0.6324719787 4290480498
-0.3176590502 -0.1645370573 0.6317406893 4290612084
-0.3164156079 -0.1631938368 0.6292677522 4289958790
-0.3156090677 -0.1620804816 0.6276637912 4290485134
-0.3117370605 -0.1594031900 0.6199634075 4289568670
-0.3056734800 -0.1556272209 0.6079044938 4289108119
-0.2987309694 -0.1514324993 0.5940976739 4289043867
-0.2966044545 -0.1496991515 0.5898686051 4289043867
-0.2962296307 -0.1488554031 0.5891231298 4289109660
-0.2962926626 -0.1482323855 0.5892485380 4288846488
-0.2963554561 -0.1476089656 0.5893734097 4288385937
-0.2964180410 -0.1469851583 0.5894978642 4287596421
-0.2951646149 -0.1457114220 0.5870051384 4287267202
-0.2939104140 -0.1444428414 0.5845108628 4287069823
-0.2922166586 -0.1429647505 0.5811424255 4286544249
-0.2887665033 -0.1406387240 0.5742809772 4286478456
-0.2866315246 -0.1389655620 0.5700350404 4287202181
-0.2844953835 -0.1373012811 0.5657868385 4288847006
-0.2823581100 -0.1356459111 0.5615363717 4287925904
-0.2819765806 -0.1348395497 0.5607776046 4287465353
-0.2815946341 -0.1340346932 0.5600180030 4287860113
-0.2816516757 -0.1334394962 0.5601314306 4287794320
-0.2812690139 -0.1326366961 0.5593703985 4287531659
-0.2808859348 -0.1318353862 0.5586085320 4287597452
-0.2809421122 -0.1312409788 0.5587202907 4288059030
-0.2809980512 -0.1306461990 0.5588315129 4288322202
-0.2810537517 -0.1300510764 0.5589423180 4288254871
-0.2806693017 -0.1292530149 0.5581777692 4287531148
-0.2807244658 -0.1286581159 0.5582874417 4287201929
-0.2803393006 -0.1278621405 0.5575214624 4287399308
-0.2803938985 -0.1272674799 0.5576300025 4290096044
-0.2804482579 -0.1266724765 0.5577381849 4290622388
-0.2809427381 -0.1262750477 0.5587215424 4290425520
-0.2809967399 -0.1256784052 0.5588289499 4290425520
-0.2810505033 -0.1250814348 0.5589358211 4290557883
-0.2811039984 -0.1244841143 0.5590422750 4288057749
-0.2815979719 -0.1240806356 0.5600246191 4290403133
-0.2820918560 -0.1236749366 0.5610068440 4290929477
-0.2825856805 -0.1232670322 0.5619889498 4290930504
-0.2826385200 -0.1226655468 0.5620939732 4290996297
-0.2826910913 -0.1220637187 0.5621985197 4293301632
-0.2827434242 -0.1214615628 0.5623026490 4294420113
-0.2827955186 -0.1208590716 0.5624062419 4294155139
-0.2832886279 -0.1204438508 0.5633869171 4294352518
-0.2833403349 -0.1198397577 0.5634897351 4292908416
-0.2838332057 -0.1194210500 0.5644699335 4291526763
-0.2838845253 -0.1188153550 0.5645719767 4290734929
-0.2843771577 -0.1183931679 0.5655516982 4290932308
-0.2848697007 -0.1179687753 0.5665312409 4292525246
-0.2853621542 -0.1175421625 0.5675106049 4294762208
-0.2862963378 -0.1172943488 0.5693684816 4293520110
-0.2867887020 -0.1168623716 0.5703476071 4293520110
-0.2877229452 -0.1166073009 0.5722056031 4292993507
-0.2886572480 -0.1163481250 0.5740636587 4294177781
-0.3168816268 -0.1666029543 0.6315896511 4290692038
-0.3165152073 -0.1657093763 0.6308593750 4289178799
-0.3161483705 -0.1648171991 0.6301281452 4290546289
-0.3157810867 -0.1639264077 0.6293960810 4290480496
-0.3149764836 -0.1628112197 0.6277924180 4289958788
-0.3146082163 -0.1619241536 0.6270583868 4290485132
-0.3103060424 -0.1590227038 0.6184836030 4288976533
-0.3042531610 -0.1552470028 0.6064193249 4287792259
-0.2977601290 -0.1512745023 0.5934778452 4287135870
-0.2960747182 -0.1497625858 0.5901185870 4287859593
-0.2952631712 -0.1486982256 0.5885010362 4288649109
-0.2953260839 -0.1480758935 0.5886263847 4289109660
-0.2953887284 -0.1474531591 0.5887512565 4289241246
-0.2954511344 -0.1468300223 0.5888756514 4289307039
-0.2946377099 -0.1457733065 0.5872544050 4289372578
-0.2933858037 -0.1445042044 0.5847591758 4289043613
-0.2916951180 -0.1430255175 0.5813894272 4288451476
-0.2886892557 -0.1409123540 0.5753983259 4288254097
-0.2856819034 -0.1388117820 0.5694041848 4288451478
-0.2835495472 -0.1371477395 0.5651540756 4289043615
-0.2818543911 -0.1357036531 0.5617754459 4287202181
-0.2814735770 -0.1348969787 0.5610164404 4286478458
-0.2810923755 -0.1340917945 0.5602566004 4287531146
-0.2811493576 -0.1334963739 0.5603702068 4287794318
-0.2803287208 -0.1324859113 0.5587345362 4288189076
-0.2812626362 -0.1323044300 0.5605959892 4287728525
-0.2804411948 -0.1312969923 0.5589587092 4287992724
-0.2804970741 -0.1307019889 0.5590701103 4288387482
-0.2801136672 -0.1299030185 0.5583059788 4288385687
-0.2801690102 -0.1293082386 0.5584162474 4287661964
-0.2802241147 -0.1287131160 0.5585260987 4288583066
-0.2798396945 -0.1279168129 0.5577598214 4290754235
-0.2798942327 -0.1273219287 0.5578685999 4290686898
-0.2799485624 -0.1267266870 0.5579768419 4291015863
-0.2800026536 -0.1261310875 0.5580846667 4290688179
-0.2800565064 -0.1255351603 0.5581919551 4290753972
-0.2805498540 -0.1251350194 0.5591753125 4290689471
-0.2806033194 -0.1245374680 0.5592818856 4287794579
-0.2810964286 -0.1241338328 0.5602647662 4290139961
-0.2815895081 -0.1237279847 0.5612474680 4290732098
-0.2816424370 -0.1231275350 0.5613529682 4290535748
-0.2816951275 -0.1225267500 0.5614579916 4290996299
-0.2817475498 -0.1219256297 0.5615625381 4291523680
-0.2822400928 -0.1215137392 0.5625441670 4292773747
-0.2822921276 -0.1209110022 0.5626479387 4292839540
-0.2827844024 -0.1204956248 0.5636290908 4292905333
-0.2828360796 -0.1198912933 0.5637320876 4291131494
-0.2833281159 -0.1194724292 0.5647127628 4291131494
-0.2833793759 -0.1188664883 0.5648149252 4290867033
-0.2838711739 -0.1184441373 0.5657951236 4290932826
-0.2843628824 -0.1180195808 0.5667752028 4292721081
-0.2848545015 -0.1175928041 0.5677551031 4294694871
-0.2857870758 -0.1173449010 0.5696138144 4293255398
-0.2862786055 -0.1169127524 0.5705935359 4292663261
-0.2872112393 -0.1166575924 0.5724523664 4291940308
-0.2881439030 -0.1163983196 0.5743113160 4293979891
-0.3154420257 -0.1662140340 0.6301152706 4290626245
-0.3150761425 -0.1653219461 0.6293843389 4289113006
-0.3151457012 -0.1646589935 0.6295233369 4290480498
-0.3143430650 -0.1635419577 0.6279199719 4290612084
-0.3135397732 -0.1624281555 0.6263153553 4290090376
-0.3122996688 -0.1610925943 0.6238381863 4290485134
-0.3088774383 -0.1586417854 0.6170020103 4289042326
-0.3028352559 -0.1548663527 0.6049324274 4288252810
-0.2972266674 -0.1513385028 0.5937289000 4287333249
-0.2959808707 -0.1500472724 0.5912403464 4287399042
-0.2947342992 -0.1487611830 0.5887501836 4287464835
-0.2947971225 -0.1481386125 0.5888757110 4287399042
-0.2948597074 -0.1475156397 0.5890007615 4287267456
-0.2949220538 -0.1468922794 0.5891253352 4287793800
-0.2936731577 -0.1456184387 0.5866305232 4288517269
-0.2924234271 -0.1443497390 0.5841341615 4288648855
-0.2916101217 -0.1433010697 0.5825095177 4289306785
-0.2886098027 -0.1411861032 0.5765161514 4289109406
-0.2856079340 -0.1390837282 0.5705198050 4289438371
-0.2834795415 -0.1374180913 0.5662681460 4289635750
-0.2817875743 -0.1359724849 0.5628883243 4288977820
-0.2814075649 -0.1351645589 0.5621292591 4288780441
-0.2810271680 -0.1343581378 0.5613694191 4289043615
-0.2810842097 -0.1337615550 0.5614833236 4288912029
-0.2798272669 -0.1325423419 0.5589724779 4289371806
-0.2807595730 -0.1323608011 0.5608348250 4288779669
-0.2799396217 -0.1313529462 0.5591969490 4289241762
-0.2799954414 -0.1307577044 0.5593084693 4289373348
-0.2800510526 -0.1301621199 0.5594195724 4289109408
-0.2796680927 -0.1293634176 0.5586545467 4288846236
-0.2792846859 -0.1285662204 0.5578886867 4289373352
-0.2793394327 -0.1279714406 0.5579980016 4290228661
-0.2793939412 -0.1273763180 0.5581068993 4290358703
-0.2794482112 -0.1267808378 0.5582153201 4290621875
-0.2795022428 -0.1261850148 0.5583232641 4290556593
-0.2795560360 -0.1255888492 0.5584307313 4290556593
-0.2800485492 -0.1251885593 0.5594145656 4290492092
-0.2801019847 -0.1245907694 0.5595212579 4287662993
-0.2805942595 -0.1241869852 0.5605046153 4290271547
-0.2810865045 -0.1237809882 0.5614879131 4290863684
-0.2811393738 -0.1231803000 0.5615935326 4290601541
-0.2811920047 -0.1225792766 0.5616986752 4291193678
-0.2812443972 -0.1219779104 0.5618033409 4290930255
-0.2817360759 -0.1215658635 0.5627855062 4291785564
-0.2817880809 -0.1209628955 0.5628893971 4291393378
-0.2822795510 -0.1205473542 0.5638710856 4291853929
-0.2823311388 -0.1199427769 0.5639741421 4292052596
-0.2828223705 -0.1195237562 0.5649554133 4292447354
-0.2828735709 -0.1189175695 0.5650576353 4290934113
-0.2833645344 -0.1184950620 0.5660383701 4290802527
-0.2838554084 -0.1180703342 0.5670189857 4292653997
-0.2843461931 -0.1176433936 0.5679993629 4293575099
-0.2852771580 -0.1173954085 0.5698589683 4290425786
-0.2857678533 -0.1169630885 0.5708391666 4290359993
-0.2866988480 -0.1167078316 0.5726988912 4291874262
-0.2876299024 -0.1164484695 0.5745587945 4294308603
-0.3140048683 -0.1658246517 0.6286391020 4290757831
-0.3136394918 -0.1649340540 0.6279076338 4288981420
-0.3132736981 -0.1640448421 0.6271753311 4290348912
-0.3129074574 -0.1631570458 0.6264420748 4290743670
-0.3121054769 -0.1620446444 0.6248365641 4290090376
-0.3108674884 -0.1607103944 0.6223580837 4290156169
-0.3074512780 -0.1582604051 0.6155187488 4289239705
-0.3018553853 -0.1547084898 0.6043158174 4289305498
-0.2962568402 -0.1511801034 0.5931074619 4289241246
-0.2950132489 -0.1498892903 0.5906177759 4288649109
-0.2946405709 -0.1490445584 0.5898717046 4287925386
-0.2947034538 -0.1484208256 0.5899975896 4287070077
-0.2947660685 -0.1477966905 0.5901229382 4286148975
-0.2948284447 -0.1471721679 0.5902478695 4286412147
-0.2935819328 -0.1458968967 0.5877522826 4287201663
-0.2918982804 -0.1444109082 0.5843816400 4287464835
-0.2906500697 -0.1431468725 0.5818827152 4287267202
-0.2880915999 -0.1412459761 0.5767605901 4287464581
-0.2855317891 -0.1393558234 0.5716358423 4288254097
-0.2829706371 -0.1374764144 0.5665084720 4288254097
-0.2812817395 -0.1360302120 0.5631272793 4288583062
-0.2809025049 -0.1352219731 0.5623680353 4289240992
-0.2805228233 -0.1344152242 0.5616079569 4289372578
-0.2801427543 -0.1336099654 0.5608470440 4289569957
-0.2797622979 -0.1328062117 0.5600852966 4289962915
-0.2793813944 -0.1320039481 0.5593227744 4289765536
-0.2794374228 -0.1314088404 0.5594349504 4289965739
-0.2794932127 -0.1308133900 0.5595465899 4289899946
-0.2795487642 -0.1302175671 0.5596578121 4290162866
-0.2791665196 -0.1294185370 0.5588925481 4290097073
-0.2787838578 -0.1286210269 0.5581265092 4290031793
-0.2788385451 -0.1280260235 0.5582360029 4290426551
-0.2784551680 -0.1272306144 0.5574684739 4290293421
-0.2789472044 -0.1268349439 0.5584535599 4290688179
-0.2794391811 -0.1264370680 0.5594384670 4290688692
-0.2794930339 -0.1258397400 0.5595462322 4290491313
-0.2795466185 -0.1252420545 0.5596535802 4290360506
-0.2800382376 -0.1248393953 0.5606377721 4287662993
-0.2800914347 -0.1242400855 0.5607442856 4290468156
-0.2805828452 -0.1238339320 0.5617280602 4290994500
-0.2806356549 -0.1232330129 0.5618337989 4291851867
-0.2806882560 -0.1226317510 0.5619391203 4292641383
-0.2811792493 -0.1222208217 0.5629221201 4293166188
-0.2812314630 -0.1216179430 0.5630266070 4293363567
-0.2817222178 -0.1212035269 0.5640091300 4293104257
-0.2817740142 -0.1205990389 0.5641128421 4293630601
-0.2822645605 -0.1201811284 0.5650948882 4293105284
-0.2823159397 -0.1195750311 0.5651977658 4292644733
-0.2828062475 -0.1191536337 0.5661793351 4291132523
-0.2828572392 -0.1185459346 0.5662814379 4290079835
-0.2837865651 -0.1183041781 0.5681419969 4290153346
-0.2842766047 -0.1178761274 0.5691230297 4290284932
-0.2847665548 -0.1174458638 0.5701039433 4288319640
-0.2852564156 -0.1170133799 0.5710846186 4290227637
-0.2861858010 -0.1167580336 0.5729452372 4292927211
-0.3121359944 -0.1652050465 0.6262902021 4290888390
-0.3122052848 -0.1645457149 0.6264292002 4289309358
-0.3118399978 -0.1636579931 0.6256963015 4290218353
-0.3114742935 -0.1627716869 0.6249625087 4290349939
-0.3106736243 -0.1616606861 0.6233560443 4290089863
-0.3090031147 -0.1601025611 0.6200042367 4290353035
-0.3055928349 -0.1576543301 0.6131615639 4288584083
-0.3004416227 -0.1543270499 0.6028258204 4287202430
-0.2952879071 -0.1510214657 0.5924850702 4287728777
-0.2944814861 -0.1499525458 0.5908670425 4287728777
-0.2936744690 -0.1488869041 0.5892478228 4287597191
-0.2937371731 -0.1482638717 0.5893736482 4287794570
-0.2937996686 -0.1476404220 0.5894989967 4287399812
-0.2938618958 -0.1470165849 0.5896238685 4286873468
-0.2926175594 -0.1457417160 0.5871271491 4285952112
-0.2913724482 -0.1444720030 0.5846288800 4285820526
-0.2896909118 -0.1429924369 0.5812549591 4286281077
-0.2875727117 -0.1413057894 0.5770048499 4287136386
-0.2850175798 -0.1394148618 0.5718780160 4287596937
-0.2824611068 -0.1375346780 0.5667485595 4287004800
-0.2807753086 -0.1360878944 0.5633660555 4286675065
-0.2803967893 -0.1352793276 0.5626065731 4287925132
-0.2800178528 -0.1344722658 0.5618462563 4288846234
-0.2800747752 -0.1338752210 0.5619604588 4287727753
-0.2792587578 -0.1328626126 0.5603231788 4287005829
-0.2797514796 -0.1324733645 0.5613117814 4287729552
-0.2789345682 -0.1314647049 0.5596727133 4287336586
-0.2789902985 -0.1308690012 0.5597845316 4287468172
-0.2790457904 -0.1302729547 0.5598958731 4288910237
-0.2786642909 -0.1294736117 0.5591303706 4289173409
-0.2787192464 -0.1288777888 0.5592406392 4288256411
-0.2783370018 -0.1280805320 0.5584737062 4288914341
-0.2783914208 -0.1274849474 0.5585828424 4288911518
-0.2784455717 -0.1268890053 0.5586915612 4290358964
-0.2789367139 -0.1264909804 0.5596770048 4290886071
-0.2789905071 -0.1258933991 0.5597848892 4290425520
-0.2794814110 -0.1254918724 0.5607699156 4290622647
-0.2795348167 -0.1248926818 0.5608770847 4287727755
-0.2800255120 -0.1244876534 0.5618616343 4290598972
-0.2800785303 -0.1238868311 0.5619680285 4291454281
-0.2801313102 -0.1232856736 0.5620739460 4292838501
-0.2801838517 -0.1226841733 0.5621793270 4293496431
-0.2806740105 -0.1222730875 0.5631628633 4292905587
-0.2807261646 -0.1216699779 0.5632674694 4292905587
-0.2812160850 -0.1212553978 0.5642505288 4292644472
-0.2817059457 -0.1208385974 0.5652334094 4292447093
-0.2817575336 -0.1202325970 0.5653368831 4291528311
-0.2822471559 -0.1198123097 0.5663192868 4291133553
-0.2822983563 -0.1192047000 0.5664219856 4289886327
-0.2827877104 -0.1187809184 0.5674039125 4289886327
-0.2832770050 -0.1183549240 0.5683856606 4288772733
-0.2837662101 -0.1179267019 0.5693672299 4289299077
-0.2842553258 -0.1174962744 0.5703486204 4290226347
-0.2847443521 -0.1170636192 0.5713298321 4291871172
-0.2856720984 -0.1168081835 0.5731913447 4294111743
-0.3105656505 -0.1661288440 0.6245311499 4294441212
-0.3107044399 -0.1648146659 0.6248102784 4290560195
-0.3107734621 -0.1641569138 0.6249490976 4288981163
-0.3104087114 -0.1632706970 0.6242156029 4290086767
-0.3100435436 -0.1623858809 0.6234812140 4290152560
-0.3092441857 -0.1612762809 0.6218737960 4290024070
-0.3075765967 -0.1597193778 0.6185203195 4290287242
-0.3041723371 -0.1572719812 0.6116745472 4287399811
-0.2990303040 -0.1539451778 0.6013341546 4283649610
-0.2943198681 -0.1508625746 0.5918617249 4282925634
-0.2935148776 -0.1497941464 0.5902429223 4282728255
-0.2931435704 -0.1489496827 0.5894962549 4282333497
-0.2932062149 -0.1483263969 0.5896222591 4282465083
-0.2932686210 -0.1477027237 0.5897477865 4282530876
-0.2933307886 -0.1470786482 0.5898727775 4282465083
-0.2920887768 -0.1458032727 0.5873751640 4282004532
-0.2908459604 -0.1445330530 0.5848758817 4282136118
-0.2896023691 -0.1432679892 0.5823751092 4282794048
-0.2874881327 -0.1415797323 0.5781234503 4283649357
-0.2849377394 -0.1396871060 0.5729947686 4284767838
-0.2823860347 -0.1378052235 0.5678634048 4285623147
-0.2807033956 -0.1363569200 0.5644797683 4286610042
-0.2803257108 -0.1355471015 0.5637202263 4287991695
-0.2803829610 -0.1349483430 0.5638353825 4288320660
-0.2804400027 -0.1343491971 0.5639500618 4287267972
-0.2796257138 -0.1333343238 0.5623125434 4286413944
-0.2792464793 -0.1325295717 0.5615499020 4287269253
-0.2788668275 -0.1317263246 0.5607864857 4286480507
-0.2789225876 -0.1311294585 0.5608986020 4286677886
-0.2785422206 -0.1303282827 0.5601336956 4287266182
-0.2785974145 -0.1297316551 0.5602447391 4288121491
-0.2782163322 -0.1289325655 0.5594784021 4288190105
-0.2782709897 -0.1283361614 0.5595883131 4287466382
-0.2783254385 -0.1277393997 0.5596977472 4287793800
-0.2783796191 -0.1271422952 0.5598067641 4289833383
-0.2784335911 -0.1265448332 0.5599153042 4290886840
-0.2789238393 -0.1261444390 0.5609011054 4290426289
-0.2789774239 -0.1255453527 0.5610088706 4291016381
-0.2794674337 -0.1251414567 0.5619942546 4288121489
-0.2795206308 -0.1245407388 0.5621012449 4290076496
-0.2800104320 -0.1241333410 0.5630862117 4290076496
-0.2800632417 -0.1235309988 0.5631924272 4291392087
-0.2801158130 -0.1229283214 0.5632981062 4291786845
-0.2801681459 -0.1223253086 0.5634033680 4291983202
-0.2806573808 -0.1219118461 0.5643872023 4291851616
-0.2807093263 -0.1213072166 0.5644916892 4291392608
-0.2811983526 -0.1208902597 0.5654750466 4291589987
-0.2816872895 -0.1204710901 0.5664582849 4290082156
-0.2817386687 -0.1198635697 0.5665615797 4289884777
-0.2822273672 -0.1194408983 0.5675443411 4287851900
-0.2822783291 -0.1188317761 0.5676468611 4287128177
-0.2827667892 -0.1184056178 0.5686290860 4288778917
-0.2832551599 -0.1179772317 0.5696111917 4291805395
-0.2837434113 -0.1175466329 0.5705930591 4293255145
-0.2846695781 -0.1172942668 0.5724554658 4293320938
-0.3090675771 -0.1663896590 0.6229099035 4294245375
-0.3091370761 -0.1657348275 0.6230499744 4294441212
-0.3092753291 -0.1644238234 0.6233286262 4290494402
-0.3093441129 -0.1637676656 0.6234672070 4288981163
-0.3089798987 -0.1628829539 0.6227331758 4290415732
-0.3090480566 -0.1622268409 0.6228705645 4290284146
-0.3082501292 -0.1611177176 0.6212623715 4290089863
-0.3061524928 -0.1593357325 0.6170346737 4290418828
-0.3023211360 -0.1566647440 0.6093127728 4287597190
-0.2976214290 -0.1535628587 0.5998407602 4282794301
-0.2933527231 -0.1507034302 0.5912373662 4283320392
-0.2925491631 -0.1496355087 0.5896178484 4283057220
-0.2921784818 -0.1487916410 0.5888707638 4282596669
-0.2926745713 -0.1483888775 0.5898706317 4282530876
-0.2927369177 -0.1477649659 0.5899962783 4282531389
-0.2927990258 -0.1471406519 0.5901214480 4282597182
-0.2915593088 -0.1458647698 0.5876228809 4282268217
-0.2903188169 -0.1445940286 0.5851227045 4282334010
-0.2890775204 -0.1433284730 0.5826209188 4282268219
-0.2869671583 -0.1416395158 0.5783675909 4282005047
-0.2844214439 -0.1397461146 0.5732368231 4281807668
-0.2823087275 -0.1380758882 0.5689787865 4281873461
-0.2801948786 -0.1364145726 0.5647184253 4282597184
-0.2802523971 -0.1358150095 0.5648343563 4284044630
-0.2798751295 -0.1350054443 0.5640739799 4285163111
-0.2799321115 -0.1344060749 0.5641888380 4285623662
-0.2799888551 -0.1338063478 0.5643032193 4286282357
-0.2791756690 -0.1327925622 0.5626642704 4287532424
-0.2787968516 -0.1319880635 0.5619007945 4288256407
-0.2788526416 -0.1313900352 0.5620132089 4288914337
-0.2784730792 -0.1305876225 0.5612482429 4289109157
-0.2785283327 -0.1299898177 0.5613595843 4289372329
-0.2781480551 -0.1291894764 0.5605931878 4289307557
-0.2782027721 -0.1285919100 0.5607034564 4289570729
-0.2782572210 -0.1279939711 0.5608131886 4288912280
-0.2783114612 -0.1273957044 0.5609225035 4290228140
-0.2783654630 -0.1267970651 0.5610313416 4290821047
-0.2784192264 -0.1261980981 0.5611397028 4290031531
-0.2789085507 -0.1257953346 0.5621259212 4291015616
-0.2789619267 -0.1251947284 0.5622335076 4287923345
-0.2794510424 -0.1247884482 0.5632192492 4288899696
-0.2795040309 -0.1241862178 0.5633260608 4288833903
-0.2795567811 -0.1235836446 0.5634323955 4289293677
-0.2796093225 -0.1229807287 0.5635382533 4289096298
-0.2800978720 -0.1225683913 0.5645229220 4288899707
-0.2801500261 -0.1219638586 0.5646280050 4288965500
-0.2806383371 -0.1215480268 0.5656122565 4287521401
-0.2806900740 -0.1209418774 0.5657165051 4287258229
-0.2811781764 -0.1205225438 0.5667002201 4286472827
