VERSION 0.7
FIELDS x y z rgba
SIZE 4 4 4 4
TYPE F F F U
COUNT 1 1 1 1
WIDTH 920
HEIGHT 1
VIEWPOINT 0.0 0.0 0.0 1.0 0.0 0.0 0.0
POINTS 920
DATA ascii
-0.2878094614 -0.1540150046 0.5470046401 4284761418
-0.2878757715 -0.1534425765 0.5471306443 4284629832
-0.2874898016 -0.1526297629 0.5463970900 4284498246
-0.2871034145 -0.1518183649 0.5456627011 4284366660
-0.2867166102 -0.1510083675 0.5449275970 4284563782
-0.2867817283 -0.1504370719 0.5450513363 4284892747
-0.2859417200 -0.1493926197 0.5434548259 4285090383
-0.2864587307 -0.1490578204 0.5444374681 4284893004
-0.2856177986 -0.1480171084 0.5428392291 4284629833
-0.2852289975 -0.1472132951 0.5421002507 4284235075
-0.2848397493 -0.1464109123 0.5413604379 4284037696
-0.2844501138 -0.1456099600 0.5406199098 4284169282
-0.2845130861 -0.1450414062 0.5407395959 4284300355
-0.2841226757 -0.1442424059 0.5399976373 4284234562
-0.2837318778 -0.1434448510 0.5392548442 4284234562
-0.2837939858 -0.1428769827 0.5393729210 4284300355
-0.2838558853 -0.1423087269 0.5394905806 4284300355
-0.2839175761 -0.1417400986 0.5396077633 4284366148
-0.2830717564 -0.1407200843 0.5380002260 4284431941
-0.2826790512 -0.1399279386 0.5372538567 4284563527
-0.2827397883 -0.1393609494 0.5373693109 4284563527
-0.2823463380 -0.1385708004 0.5366215110 4284497734
-0.2819525003 -0.1377821118 0.5358729959 4284563013
-0.2811041176 -0.1367739290 0.5342605710 4284628806
-0.2807093561 -0.1359890848 0.5335102677 4284365633
-0.2803141773 -0.1352057010 0.5327591896 4284365633
-0.2794641554 -0.1342055798 0.5311437249 4284299840
-0.2790680528 -0.1334260553 0.5303909183 4284234047
-0.2791261673 -0.1328644156 0.5305013061 4284102461
-0.2787293196 -0.1320869327 0.5297471285 4283970875
-0.2787868977 -0.1315255016 0.5298565030 4283839289
-0.2788442075 -0.1309637278 0.5299654603 4283707703
-0.2789013386 -0.1304015964 0.5300740004 4283905083
-0.2789582312 -0.1298391223 0.5301821232 4283839290
-0.2790148854 -0.1292763054 0.5302898288 4283773497
-0.2790713310 -0.1287131608 0.5303971171 4283839290
-0.2791275680 -0.1281496584 0.5305039883 4283970876
-0.2791835666 -0.1275858134 0.5306103826 4284036669
-0.2792393267 -0.1270216405 0.5307164192 4284102462
-0.2797504961 -0.1266634166 0.5316879153 4284102462
-0.2798058987 -0.1260976493 0.5317932367 4284103231
-0.2798610926 -0.1255315393 0.5318981409 4284037438
-0.2799160480 -0.1249651015 0.5320025682 4283971902
-0.2799707651 -0.1243983284 0.5321065784 4283971902
-0.2800252736 -0.1238312200 0.5322101712 4283708730
-0.2800795436 -0.1232637838 0.5323133469 4283642937
-0.2805898488 -0.1228958517 0.5332831740 4283905852
-0.2806437612 -0.1223268285 0.5333856344 4283774266
-0.2806974351 -0.1217574850 0.5334876180 4283773496
-0.2807508707 -0.1211878136 0.5335892439 4284036668
-0.2808040977 -0.1206178144 0.5336903930 4284169024
-0.2808570862 -0.1200474948 0.5337910652 4284037438
-0.2809098363 -0.1194768474 0.5338913202 4283576632
-0.2809623480 -0.1189058870 0.5339911580 4283181874
-0.2814715803 -0.1185270175 0.5349589586 4283707704
-0.2819807231 -0.1181459725 0.5359266400 4284694599
-0.2820327282 -0.1175721884 0.5360254645 4284760392
-0.2820844948 -0.1169980988 0.5361238718 4285155150
-0.2821360230 -0.1164236888 0.5362218022 4285548624
-0.2826446593 -0.1160367206 0.5371884704 4285614417
-0.2826958001 -0.1154607534 0.5372856855 4285876819
-0.2827467024 -0.1148844734 0.5373824239 4286139991
-0.2827973366 -0.1143078804 0.5374786854 4286402394
-0.2828477919 -0.1137309745 0.5375745296 4286336601
-0.2828979790 -0.1131537706 0.5376699567 4286533980
-0.2829479277 -0.1125762537 0.5377648473 4286205015
-0.2834555507 -0.1121796593 0.5387296677 4286007378
-0.2839631140 -0.1117808893 0.5396943688 4285481034
-0.2840124965 -0.1112005934 0.5397882462 4285678670
-0.2840616703 -0.1106199920 0.5398816466 4288178804
-0.2845688164 -0.1102165729 0.5408455133 4286863972
-0.2846175730 -0.1096344292 0.5409381986 4285877077
-0.2846660912 -0.1090519950 0.5410304070 4285811027
-0.2851728201 -0.1086439267 0.5419934988 4285811027
-0.2852209210 -0.1080599576 0.5420849323 4285811026
-0.2848101556 -0.1073029041 0.5413042307 4286074198
-0.2848576903 -0.1067192852 0.5413945913 4286797921
-0.2853637934 -0.1063062921 0.5423564315 4286863714
-0.2854109108 -0.1057211533 0.5424460173 4286468187
-0.2854577899 -0.1051357239 0.5425350666 4286533980
-0.2855044305 -0.1045500040 0.5426237583 4286731358
-0.2850917280 -0.1037968546 0.5418393612 4286270807
-0.2855969667 -0.1033777148 0.5427995920 4286007889
-0.2861021161 -0.1029563993 0.5437596440 4285481545
-0.2866071463 -0.1025329158 0.5447195172 4285020481
-0.2871120572 -0.1021072716 0.5456791520 4285283653
-0.2871574461 -0.1015170217 0.5457653999 4285612620
-0.2876620889 -0.1010879800 0.5467245579 4286073171
-0.2877070606 -0.1004962325 0.5468099713 4286400600
-0.2882114053 -0.1000637934 0.5477685928 4286005842
-0.2891754210 -0.0997878388 0.5496007204 4286073429
-0.2896796465 -0.0993501246 0.5505590439 4285941843
-0.2897238731 -0.0987534896 0.5506430864 4285680210
-0.2902278006 -0.0983123854 0.5516008735 4285943382
-0.2902715802 -0.0977142602 0.5516840816 4285809995
-0.2907752097 -0.0972697735 0.5526412725 4285415237
-0.2912787199 -0.0968231186 0.5535982251 4284955201
-0.2913218737 -0.0962222889 0.5536802411 4285284166
-0.2922853827 -0.0959233120 0.5555114746 4285285195
-0.2927885354 -0.0954701602 0.5564677119 4285811539
-0.2932915390 -0.0950148478 0.5574237704 4286601315
-0.2937944531 -0.0945573673 0.5583795309 4287127659
-0.2947577834 -0.0942449793 0.5602104664 4287660420
-0.2957211137 -0.0939285234 0.5620413423 4293450204
-0.3480772674 -0.1999185234 0.6629478335 4287794067
-0.3481625021 -0.1992307007 0.6631100774 4284636003
-0.3482474685 -0.1985423714 0.6632719040 4285028702
-0.3483321667 -0.1978535503 0.6634332538 4284831323
-0.3475174904 -0.1966554075 0.6618816257 4284962133
-0.3471517861 -0.1957138330 0.6611850858 4285093719
-0.3467856050 -0.1947735548 0.6604877114 4285289556
-0.3459690809 -0.1935828328 0.6589325070 4284894798
-0.3438018560 -0.1916426420 0.6548048258 4284761157
-0.3101256192 -0.1722145081 0.5906651020 4284629571
-0.2966928482 -0.1641273648 0.5650810003 4284695113
-0.2931605577 -0.1615529656 0.5583534241 4284629320
-0.2914280593 -0.1599815190 0.5550537109 4284760906
-0.2901450098 -0.1586632133 0.5526100397 4285024078
-0.2893117666 -0.1575953364 0.5510230660 4284893005
-0.2889286578 -0.1567752212 0.5502933264 4284695626
-0.2880942523 -0.1557128131 0.5487041473 4284629832
-0.2877101600 -0.1548963785 0.5479726195 4284695625
-0.2873256505 -0.1540813446 0.5472402573 4284629832
-0.2873918712 -0.1535086930 0.5473664403 4284629832
-0.2870066166 -0.1526955664 0.5466326475 4284629832
-0.2870723307 -0.1521230340 0.5467577577 4284695625
-0.2866863310 -0.1513118148 0.5460225940 4284893004
-0.2862998843 -0.1505020112 0.5452866554 4285156176
-0.2854613662 -0.1494571418 0.5436896086 4285090383
-0.2859775722 -0.1491222382 0.5446727276 4284827211
-0.2851381004 -0.1480811089 0.5430738926 4284563012
-0.2847500145 -0.1472769678 0.5423346758 4284365633
-0.2843614817 -0.1464742720 0.5415947437 4284299841
-0.2839725316 -0.1456730068 0.5408539176 4284365634
-0.2840354443 -0.1451042145 0.5409737825 4284365634
-0.2840981483 -0.1445350647 0.5410932302 4284365634
-0.2837081552 -0.1437362731 0.5403504372 4284431426
-0.2833177447 -0.1429389417 0.5396068096 4284365633
-0.2833795846 -0.1423704624 0.5397245884 4284366403
-0.2834412158 -0.1418016255 0.5398420095 4284432196
-0.2830497324 -0.1410067976 0.5390964150 4284497734
-0.2826578617 -0.1402134299 0.5383499861 4284563527
-0.2822655439 -0.1394215077 0.5376028419 4284563527
-0.2818728387 -0.1386310458 0.5368548632 4284497734
-0.2814797163 -0.1378420442 0.5361061096 4284366403
-0.2806327939 -0.1368334591 0.5344930887 4284234817
-0.2797852755 -0.1358281523 0.5328788757 4284366403
-0.2793907225 -0.1350453645 0.5321273804 4284234817
-0.2789957523 -0.1342640519 0.5313751698 4284169024
-0.2786003649 -0.1334842145 0.5306220651 4284037438
-0.2782045603 -0.1327058673 0.5298682451 4284037183
-0.2782622874 -0.1321445554 0.5299782157 4283839804
-0.2783198059 -0.1315829009 0.5300877690 4283642425
-0.2779229581 -0.1308071613 0.5293319225 4283642425
-0.2779799402 -0.1302457303 0.5294404626 4283576632
-0.2780367136 -0.1296839565 0.5295485258 4283642425
-0.2780932188 -0.1291218400 0.5296562314 4283708731
-0.2781495452 -0.1285593808 0.5297634602 4283708731
-0.2782056332 -0.1279965788 0.5298702717 4283840319
-0.2787161469 -0.1276416630 0.5308426619 4283971905
-0.2787718773 -0.1270772666 0.5309487581 4283906112
-0.2788273990 -0.1265125275 0.5310544968 4284037698
-0.2788826525 -0.1259474456 0.5311597586 4284234048
-0.2789377272 -0.1253820360 0.5312646031 4284036669
-0.2789925337 -0.1248162910 0.5313690305 4283839804
-0.2790471315 -0.1242502108 0.5314730406 4283708218
-0.2795568109 -0.1238855720 0.5324437618 4283577145
-0.2796110511 -0.1233179048 0.5325470567 4283642938
-0.2796650529 -0.1227499098 0.5326498747 4283708990
-0.2797188163 -0.1221815869 0.5327523351 4283774783
-0.2797723711 -0.1216129363 0.5328543186 4283774783
-0.2798256874 -0.1210439578 0.5329558849 4283840576
-0.2798787653 -0.1204746589 0.5330569744 4284037698
-0.2803875506 -0.1201003194 0.5340259671 4284300870
-0.2804402709 -0.1195294484 0.5341263413 4284299587
-0.2804927230 -0.1189582497 0.5342262983 4283773243
-0.2805449963 -0.1183867380 0.5343258381 4283706937
-0.2810532451 -0.1180064678 0.5352938771 4284167488
-0.2811051309 -0.1174333915 0.5353926420 4284760906
-0.2816131711 -0.1170497015 0.5363603234 4284760906
-0.2816646695 -0.1164750531 0.5364583731 4285548112
-0.2821725011 -0.1160879359 0.5374255776 4285811284
-0.2822236121 -0.1155117303 0.5375229120 4285876050
-0.2822744548 -0.1149352118 0.5376197696 4286139222
-0.2823250890 -0.1143583879 0.5377162099 4286337371
-0.2823754549 -0.1137812510 0.5378121734 4286205785
-0.2824256122 -0.1132038012 0.5379076600 4286336601
-0.2824755311 -0.1126260459 0.5380027294 4286402394
-0.2829823494 -0.1122292951 0.5389680862 4286270550
-0.2834891081 -0.1118303686 0.5399332047 4285415241
-0.2835384905 -0.1112498268 0.5400272012 4286534749
-0.2835876048 -0.1106689870 0.5401207805 4288113781
-0.2840939462 -0.1102654040 0.5410851836 4285747287
-0.2841426730 -0.1096830294 0.5411779284 4285681494
-0.2846487761 -0.1092760339 0.5421419144 4285810257
-0.2846970856 -0.1086921170 0.5422338843 4285744464
-0.2847451270 -0.1081079021 0.5423254371 4285678671
-0.2843351066 -0.1073505282 0.5415444970 4286205015
-0.2843826115 -0.1067666709 0.5416349173 4286862945
-0.2848878801 -0.1063535064 0.5425972939 4286665566
-0.2849349678 -0.1057681218 0.5426869988 4286073429
-0.2849818170 -0.1051824465 0.5427762270 4286007636
-0.2850284278 -0.1045964882 0.5428649783 4286139222
-0.2850747705 -0.1040102392 0.5429532528 4286073429
-0.2851208746 -0.1034236997 0.5430411100 4285941843
-0.2856252193 -0.1030022204 0.5440016389 4285547085
-0.2861294448 -0.1025785655 0.5449619889 4285151814
-0.2866335809 -0.1021527350 0.5459221601 4285414986
-0.2871375978 -0.1017247438 0.5468821526 4285612365
-0.2871827781 -0.1011330187 0.5469681621 4286007123
-0.2876865268 -0.1007016301 0.5479276180 4285810256
-0.2881901562 -0.1002680734 0.5488868356 4285744463
-0.2891526520 -0.0999910608 0.5507200360 4286006608
-0.2891971171 -0.0993944481 0.5508046746 4286006608
-0.2897004187 -0.0989543796 0.5517632365 4286072402
-0.2897444367 -0.0983562768 0.5518471003 4286269781
-0.2902474403 -0.0979128182 0.5528051257 4285613647
-0.2907503247 -0.0974671990 0.5537629128 4285153096
-0.2912531197 -0.0970194042 0.5547205210 4285153097
-0.2912963033 -0.0964173675 0.5548027754 4285547855
-0.2917987704 -0.0959661976 0.5557597876 4285678673
-0.2927607298 -0.0956630334 0.5575919151 4286139224
-0.2932630181 -0.0952065736 0.5585485697 4286339940
-0.2937651873 -0.0947479531 0.5595049858 4286932077
-0.2947269976 -0.0944344848 0.5613368750 4287199610
-0.2956888378 -0.0941169485 0.5631688237 4292726222
-0.3465071917 -0.2001734376 0.6613564491 4292336353
-0.3461439908 -0.1992295831 0.6606632471 4287661710
-0.3462288082 -0.1985441744 0.6608251333 4284766818
-0.3467619717 -0.1981145591 0.6618427038 4285422947
-0.3463976681 -0.1971718520 0.6611474156 4285291361
-0.3455841243 -0.1959758997 0.6595945954 4285290585
-0.3452187777 -0.1950366497 0.6588973403 4285224792
-0.3453020155 -0.1943514049 0.6590561867 4285289041
-0.3440375924 -0.1929101497 0.6566428542 4284828490
-0.3414245248 -0.1907209158 0.6516554356 4284892229
-0.3105008602 -0.1727883965 0.5926334262 4284826436
-0.2966415882 -0.1644468755 0.5661810637 4284695368
-0.2931154072 -0.1618705094 0.5594508648 4284563782
-0.2909363210 -0.1600501537 0.5552918315 4284761161
-0.2901052833 -0.1589777768 0.5537056923 4284958540
-0.2892736197 -0.1579085886 0.5521183014 4284893004
-0.2884413302 -0.1568425745 0.5505297780 4284761418
-0.2876083851 -0.1557797343 0.5489400029 4284695879
-0.2872250080 -0.1549629867 0.5482082367 4284695879
-0.2868411839 -0.1541476250 0.5474756956 4284761672
-0.2869073749 -0.1535747647 0.5476019979 4284761672
-0.2865228057 -0.1527613252 0.5468680263 4284761672
-0.2865884602 -0.1521885693 0.5469933152 4284893258
-0.2862031758 -0.1513770372 0.5462579727 4285090637
-0.2862682641 -0.1508044004 0.5463821888 4285024844
-0.2854313254 -0.1497582048 0.5447847843 4284827465
-0.2850447595 -0.1489509046 0.5440469980 4284498500
-0.2846577764 -0.1481450349 0.5433083773 4284497219
-0.2842704058 -0.1473405957 0.5425689816 4284431426
-0.2843339145 -0.1467705369 0.5426902175 4284431426
-0.2839457691 -0.1459680498 0.5419493914 4284431426
-0.2835572064 -0.1451669782 0.5412077904 4284365633
-0.2836198509 -0.1445976049 0.5413273573 4284365633
-0.2836822867 -0.1440278441 0.5414465070 4284366403
-0.2832926810 -0.1432292759 0.5407028794 4284366403
-0.2829026580 -0.1424321532 0.5399584770 4284432196
-0.2829642296 -0.1418630928 0.5400760174 4284432196
-0.2825734913 -0.1410679519 0.5393301845 4284497734
-0.2821823061 -0.1402742714 0.5385835767 4284563527
-0.2817907035 -0.1394820362 0.5378361940 4284497734
-0.2813987136 -0.1386912465 0.5370879769 4284431941
-0.2805537879 -0.1376798600 0.5354753137 4284366403
-0.2801608741 -0.1368929148 0.5347253680 4284234817
-0.2797675133 -0.1361074448 0.5339746475 4284300610
-0.2789209783 -0.1351041049 0.5323588848 4284234817
-0.2785267234 -0.1343224794 0.5316063762 4284169024
-0.2781320512 -0.1335423291 0.5308530927 4284103231
-0.2777369618 -0.1327636689 0.5300990343 4284037183
-0.2773414850 -0.1319864690 0.5293442011 4283839804
-0.2773988545 -0.1314255148 0.5294536948 4283708218
-0.2774559855 -0.1308642030 0.5295627713 4283642425
-0.2770594656 -0.1300896406 0.5288059711 4283510839
-0.2775696218 -0.1297405660 0.5297796726 4283576632
-0.2771724761 -0.1289671361 0.5290216208 4283774011
-0.2772286534 -0.1284053773 0.5291288495 4283839804
-0.2777384222 -0.1280525029 0.5301018357 4284037185
-0.2777942419 -0.1274891496 0.5302083492 4284037185
-0.2778498232 -0.1269254386 0.5303144455 4283905599
-0.2779051960 -0.1263613999 0.5304201245 4283971392
-0.2779603302 -0.1257970184 0.5305253863 4284037185
-0.2780152559 -0.1252323091 0.5306301713 4283905599
-0.2780699432 -0.1246672571 0.5307345390 4283708733
-0.2781244218 -0.1241018772 0.5308385491 4283577147
-0.2786331773 -0.1237380207 0.5318096280 4283511611
-0.2786872983 -0.1231710538 0.5319128633 4283577404
-0.2787411511 -0.1226037517 0.5320156813 4283708990
-0.2792496085 -0.1222352087 0.5329861045 4283774783
-0.2793031037 -0.1216663271 0.5330882668 4283709244
-0.2793563902 -0.1210971251 0.5331899524 4283972416
-0.2794094384 -0.1205275953 0.5332911611 4284103489
-0.2799173892 -0.1201531067 0.5342606902 4284037696
-0.2795148194 -0.1193875596 0.5334923267 4284299841
-0.2800225019 -0.1190105751 0.5344613194 4284365634
-0.2800747156 -0.1184388250 0.5345609188 4284365121
-0.2805821896 -0.1180584133 0.5355294943 4284233535
-0.2806340158 -0.1174850985 0.5356284380 4283839290
-0.2806856036 -0.1169114709 0.5357269049 4284891978
-0.2811926901 -0.1165263802 0.5366947651 4285548624
-0.2812438905 -0.1159511879 0.5367925167 4285417038
-0.2812948823 -0.1153756753 0.5368897915 4285811026
-0.2818016112 -0.1149859205 0.5378569365 4286139991
-0.2818521857 -0.1144088507 0.5379534960 4286074199
-0.2819025218 -0.1138314754 0.5380495787 4286074199
-0.2819526494 -0.1132537946 0.5381452441 4286270808
-0.2820025086 -0.1126758009 0.5382404327 4286139222
-0.2829649448 -0.1124602780 0.5400773287 4286007635
-0.2830145061 -0.1118798107 0.5401719213 4285415498
-0.2830637991 -0.1112990305 0.5402660370 4287324265
-0.2831128836 -0.1107179448 0.5403597355 4287061093
-0.2836184502 -0.1103142053 0.5413246155 4285877589
-0.2836671174 -0.1097315848 0.5414175391 4285680210
-0.2841724157 -0.1093244255 0.5423820019 4285416269
-0.2842206955 -0.1087402701 0.5424740911 4285416269
-0.2838116884 -0.1079819277 0.5416935086 4285482062
-0.2838594019 -0.1073981225 0.5417845249 4285942613
-0.2839068770 -0.1068140194 0.5418751240 4286533980
-0.2844113410 -0.1064006835 0.5428379774 4286270808
-0.2844583988 -0.1058150530 0.5429278016 4285678671
-0.2845051885 -0.1052291393 0.5430171490 4285612878
-0.2845517695 -0.1046429276 0.5431060195 4285810257
-0.2845980823 -0.1040564328 0.5431944132 4285876050
-0.2846441567 -0.1034696549 0.5432823896 4285876050
-0.2851476967 -0.1030479968 0.5442433953 4285612878
-0.2856511176 -0.1026241705 0.5452042818 4285086534
-0.2861544490 -0.1021981686 0.5461649895 4285415499
-0.2866576910 -0.1017699987 0.5471254587 4285547085
-0.2867028117 -0.1011780277 0.5472115874 4285810257
-0.2872057557 -0.1007464603 0.5481715202 4285613647
-0.2877085805 -0.1003127247 0.5491312742 4285416268
-0.2886695266 -0.1000356004 0.5509653091 4285612620
-0.2891722023 -0.0995965749 0.5519247651 4285546827
-0.2892164588 -0.0989984870 0.5520091653 4285546572
-0.2897188365 -0.0985560715 0.5529680848 4285743951
-0.2897626460 -0.0979564860 0.5530516505 4285482062
-0.2902647257 -0.0975106806 0.5540099740 4285153097
-0.2907666862 -0.0970626995 0.5549680591 4285087304
-0.2912685573 -0.0966125578 0.5559259057 4285613648
-0.2917702794 -0.0961602405 0.5568835735 4285613394
-0.2922719121 -0.0957057625 0.5578409433 4285942359
-0.2927733958 -0.0952491090 0.5587981343 4286208867
-0.2937337160 -0.0949386358 0.5606310368 4286866797
-0.2942350209 -0.0944766998 0.5615878701 4287133819
-0.2956543863 -0.0943054706 0.5642969012 4292068294
-0.3445773721 -0.1994814724 0.6590702534 4291941595
-0.3446621299 -0.1987980902 0.6592323780 4287398538
-0.3442989290 -0.1978569180 0.6585376859 4284832611
-0.3448309302 -0.1974298209 0.6595551968 4285751398
-0.3449149430 -0.1967449337 0.6597159505 4285619812
-0.3445506692 -0.1958049238 0.6590191722 4285487964
-0.3437377512 -0.1946124732 0.6574643254 4285290585
-0.3433724344 -0.1936759204 0.6567655802 4285289041
-0.3421098888 -0.1922367662 0.6543506980 4284894283
-0.3395009935 -0.1900493056 0.6493607163 4284892227
-0.3315075040 -0.1848701239 0.6340715885 4284892227
-0.2961394489 -0.1645172685 0.5664234161 4284826950
-0.2926193178 -0.1619398296 0.5596904755 4284695364
-0.2904439569 -0.1601187289 0.5555297136 4284761157
-0.2896144092 -0.1590459347 0.5539430380 4284892743
-0.2887842059 -0.1579762995 0.5523551106 4284761670
-0.2879533470 -0.1569098681 0.5507659912 4284695877
-0.2871218920 -0.1558466107 0.5491756201 4284761670
-0.2867392004 -0.1550295353 0.5484436750 4284761670
-0.2863561213 -0.1542138606 0.5477109551 4284893256
-0.2864222229 -0.1536407769 0.5478373766 4284893256
-0.2860383987 -0.1528270096 0.5471032262 4284959049
-0.2861039639 -0.1522540450 0.5472286940 4285024842
-0.2852694392 -0.1512037069 0.5456324816 4285090635
-0.2849489748 -0.1498227268 0.5450195074 4284498498
-0.2845631242 -0.1490151137 0.5442814827 4284366912
-0.2841768563 -0.1482089311 0.5435426831 4284563010
-0.2837901711 -0.1474041641 0.5428030491 4284497217
-0.2838536203 -0.1468338966 0.5429244041 4284366403
-0.2834661901 -0.1460310817 0.5421833992 4284366403
-0.2830783427 -0.1452296972 0.5414415598 4284300610
-0.2831409574 -0.1446601003 0.5415613055 4284300610
-0.2832033336 -0.1440901309 0.5416806340 4284432196
-0.2828144431 -0.1432912350 0.5409367681 4284497989
-0.2824251354 -0.1424937993 0.5401921868 4284497989
-0.2820353806 -0.1416977942 0.5394467115 4284432196
-0.2820965946 -0.1411290616 0.5395637751 4284497989
-0.2817061543 -0.1403350532 0.5388169885 4284497989
-0.2813152671 -0.1395425051 0.5380693674 4284366403
-0.2804723382 -0.1385283321 0.5364570618 4284366403
-0.2800805271 -0.1377395988 0.5357076526 4284366403
-0.2796882987 -0.1369523406 0.5349574685 4284234817
-0.2792956829 -0.1361665428 0.5342065096 4284300610
-0.2784506083 -0.1351628006 0.5325901508 4284234817
-0.2780570686 -0.1343808621 0.5318374038 4284234817
-0.2776631117 -0.1336003989 0.5310839415 4284169024
-0.2777210772 -0.1330380887 0.5311947465 4283971390
-0.2768739760 -0.1320439130 0.5295745730 4283905597
-0.2773838043 -0.1316975653 0.5305497050 4283839804
-0.2769884169 -0.1309211999 0.5297933817 4283708218
-0.2765926123 -0.1301463246 0.5290363431 4283642425
-0.2766491771 -0.1295850277 0.5291445255 4283642425
-0.2767055333 -0.1290233731 0.5292523503 4283774011
-0.2767616510 -0.1284613907 0.5293596983 4283905597
-0.2768175602 -0.1278990656 0.5294665694 4284037185
-0.2768732309 -0.1273363978 0.5295730829 4284037185
-0.2769286931 -0.1267733872 0.5296791792 4283905599
-0.2769839168 -0.1262100488 0.5297847986 4283971392
-0.2770389318 -0.1256463677 0.5298900008 4283971905
-0.2770937085 -0.1250823438 0.5299947858 4283906112
-0.2771482468 -0.1245179996 0.5300991535 4283708733
-0.2772026062 -0.1239533126 0.5302030444 4283577147
-0.2777104676 -0.1235902458 0.5311744809 4283577404
-0.2777644396 -0.1230239794 0.5312777162 4283643197
-0.2778181732 -0.1224573776 0.5313805342 4283578174
-0.2783257365 -0.1220896170 0.5323513150 4283709760
-0.2788332403 -0.1217196733 0.5333219767 4283840830
-0.2788864672 -0.1211502403 0.5334237814 4284038209
-0.2789394855 -0.1205804795 0.5335251689 4284037696
-0.2794466317 -0.1202058494 0.5344952345 4283906110
-0.2790447772 -0.1194399893 0.5337266326 4284234048
-0.2795516551 -0.1190628558 0.5346961021 4284694599
-0.2796038091 -0.1184908822 0.5347958803 4284891465
-0.2801104784 -0.1181103140 0.5357649326 4284628293
-0.2801622450 -0.1175367683 0.5358639956 4283905083
-0.2802138031 -0.1169629022 0.5359625816 4283905083
-0.2802651227 -0.1163887233 0.5360607505 4284299840
-0.2807712555 -0.1160022393 0.5370288491 4284957770
-0.2808221877 -0.1154264957 0.5371262431 4285614417
-0.2808728814 -0.1148504391 0.5372232199 4285746003
-0.2813786566 -0.1144592762 0.5381906033 4285942612
-0.2814289629 -0.1138816699 0.5382868052 4285942612
-0.2819344997 -0.1134870872 0.5392537713 4286139221
-0.2819844186 -0.1129079238 0.5393491983 4285941842
-0.2824897170 -0.1125099212 0.5403157473 4285679440
-0.2825392485 -0.1119292080 0.5404103994 4285942612
-0.2825885117 -0.1113481894 0.5405046940 4287653743
-0.2826375663 -0.1107668653 0.5405984521 4285943125
-0.2831422985 -0.1103629619 0.5415638685 4285679440
-0.2831909359 -0.1097801030 0.5416569114 4285482061
-0.2836954296 -0.1093727797 0.5426218510 4285350476
-0.2837436795 -0.1087883785 0.5427141190 4285284683
-0.2833353877 -0.1080297232 0.5419332385 4285416269
-0.2833830714 -0.1074456722 0.5420244336 4285876820
-0.2834304869 -0.1068613231 0.5421151519 4286139992
-0.2839341760 -0.1064478233 0.5430784822 4285811027
-0.2839811742 -0.1058619469 0.5431684256 4285416269
-0.2840279639 -0.1052757874 0.5432578921 4285350476
-0.2840744853 -0.1046893373 0.5433468819 4285547855
-0.2841207683 -0.1041025966 0.5434353948 4285547855
-0.2841668129 -0.1035155728 0.5435234904 4285810257
-0.2846695185 -0.1030937433 0.5444850326 4285481292
-0.2851721644 -0.1026697382 0.5454463959 4285020741
-0.2856746912 -0.1022435650 0.5464075804 4285415499
-0.2861770988 -0.1018152162 0.5473685265 4285415499
-0.2862221897 -0.1012229994 0.5474547744 4285678671
-0.2871816456 -0.1009520069 0.5492898822 4285482061
-0.2876837552 -0.1005171388 0.5502502918 4285218889
-0.2881857455 -0.1000801027 0.5512104630 4285415241
-0.2886876166 -0.0996408984 0.5521703959 4285415241
-0.2891893983 -0.0991995186 0.5531301498 4285414986
-0.2892334163 -0.0985999554 0.5532143116 4285612365
-0.2897349000 -0.0981551856 0.5541734695 4285350476
-0.2902362347 -0.0977082402 0.5551324487 4285153097
-0.2907374799 -0.0972591266 0.5560911298 4285021511
-0.2912386060 -0.0968078449 0.5570496321 4285613648
-0.2917396128 -0.0963543877 0.5580078959 4285745493
-0.2922405005 -0.0958987698 0.5589659214 4285942872
-0.2927412391 -0.0954409763 0.5599237084 4286077027
-0.2932418883 -0.0949810147 0.5608812571 4286800750
-0.2942006290 -0.0946663395 0.5627151132 4287001979
-0.2951593995 -0.0943475887 0.5645489097 4291344317
-0.3430981040 -0.1990479529 0.6576378942 4291481303
-0.3427357078 -0.1981078088 0.6569433212 4287004551
-0.3428198397 -0.1974263340 0.6571045518 4284833382
-0.3429037035 -0.1967443675 0.6572653055 4285620326
-0.3429873288 -0.1960619092 0.6574255824 4285488740
-0.3426234126 -0.1951242089 0.6567280293 4285356891
-0.3418116271 -0.1939339489 0.6551720500 4285159512
-0.3414466679 -0.1929997206 0.6544725299 4285223761
-0.3406336308 -0.1918147206 0.6529141068 4284894796
-0.3371335864 -0.1891258210 0.6462053657 4284892997
-0.3287054896 -0.1836977750 0.6300506592 4284761411
-0.2960846126 -0.1648369730 0.5675241947 4284958536
-0.2921225727 -0.1620090902 0.5599298477 4284826950
-0.2899509966 -0.1601872444 0.5557674766 4284826950
-0.2891228795 -0.1591140181 0.5541802049 4284826950
-0.2882941365 -0.1580439657 0.5525916815 4284695877
-0.2874647677 -0.1569771022 0.5510019660 4284695877
-0.2866347730 -0.1559134275 0.5494110584 4284761670
-0.2862527966 -0.1550960243 0.5486789346 4284827463
-0.2858704031 -0.1542800367 0.5479459763 4284893256
-0.2859364748 -0.1537067443 0.5480725765 4284959049
-0.2855533361 -0.1528926641 0.5473382473 4285090635
-0.2856188715 -0.1523194760 0.5474638343 4285090635
-0.2852349877 -0.1515073031 0.5467280149 4284959049
-0.2848506868 -0.1506965458 0.5459914207 4284564291
-0.2840165794 -0.1496504098 0.5443926454 4284366912
-0.2845303416 -0.1493151486 0.5453773737 4284366912
-0.2836952806 -0.1482727528 0.5437767506 4284432194
-0.2833093107 -0.1474676728 0.5430369377 4284432194
-0.2833727002 -0.1468971968 0.5431584716 4284366401
-0.2829859853 -0.1460940540 0.5424172282 4284300608
-0.2830488682 -0.1455237120 0.5425377488 4284300608
-0.2826614082 -0.1447225362 0.5417950749 4284366401
-0.2827237546 -0.1441523433 0.5419145823 4284432194
-0.2827858627 -0.1435817778 0.5420336127 4284432194
-0.2823973596 -0.1427831054 0.5412889123 4284497989
-0.2820084393 -0.1419858932 0.5405434966 4284432196
-0.2816191018 -0.1411901116 0.5397971869 4284432196
-0.2812293470 -0.1403957903 0.5390501618 4284366403
-0.2808391750 -0.1396029145 0.5383023024 4284300355
-0.2799977362 -0.1385883391 0.5366894007 4284300355
-0.2796066403 -0.1377992928 0.5359398127 4284366403
-0.2792151570 -0.1370117217 0.5351893902 4284300610
-0.2788232267 -0.1362256110 0.5344381928 4284300610
-0.2779796422 -0.1352214515 0.5328212380 4284300610
-0.2775868177 -0.1344392002 0.5320683122 4284300610
-0.2771935761 -0.1336584091 0.5313145518 4284103231
-0.2772514820 -0.1330958903 0.5314255357 4283971390
-0.2768575251 -0.1323171556 0.5306704044 4283905597
-0.2764631510 -0.1315398961 0.5299144983 4283905597
-0.2760683894 -0.1307641417 0.5291578174 4283839804
-0.2761251330 -0.1302029639 0.5292665958 4283708218
-0.2761816382 -0.1296414435 0.5293748975 4283708218
-0.2757858336 -0.1288683116 0.5286162496 4283840317
-0.2758418322 -0.1283070296 0.5287235379 4283971903
-0.2758975923 -0.1277453899 0.5288304090 4283971905
-0.2759531438 -0.1271834224 0.5289369226 4283971905
-0.2760084569 -0.1266211122 0.5290429592 4283840319
-0.2760635614 -0.1260584742 0.5291485190 4283906112
-0.2761184275 -0.1254954934 0.5292537212 4283774783
-0.2761730850 -0.1249321699 0.5293584466 4283774783
-0.2762275040 -0.1243685186 0.5294628143 4283708990
-0.2762816846 -0.1238045320 0.5295666456 4283643197
-0.2767886817 -0.1234422550 0.5305384398 4283446588
-0.2768425047 -0.1228766814 0.5306416154 4283512381
-0.2768961191 -0.1223107800 0.5307443738 4283578687
-0.2774027884 -0.1219438091 0.5317155123 4283710273
-0.2779093981 -0.1215746552 0.5326865911 4283841344
-0.2779624760 -0.1210059151 0.5327883363 4283775551
-0.2780153453 -0.1204368547 0.5328896642 4283906623
-0.2785216272 -0.1200630143 0.5338600874 4283972416
-0.2785741091 -0.1194923744 0.5339607000 4284168769
-0.2790801823 -0.1191150993 0.5349307060 4284300355
-0.2791323066 -0.1185428873 0.5350306034 4284760392
-0.2796381414 -0.1181621775 0.5360001922 4285023564
-0.2796898782 -0.1175884008 0.5360993743 4285023051
-0.2797414064 -0.1170142964 0.5361980796 4283838777
-0.2797926664 -0.1164398864 0.5362963676 4283313715
-0.2802979946 -0.1160532460 0.5372650027 4284169024
-0.2803488970 -0.1154772714 0.5373625159 4284957770
-0.2803995609 -0.1149009764 0.5374596119 4285220942
-0.2804499865 -0.1143243760 0.5375562906 4285548367
-0.2809547782 -0.1139318198 0.5385238528 4285482574
-0.2814595103 -0.1135370806 0.5394912958 4285613647
-0.2815093696 -0.1129576787 0.5395869017 4285876819
-0.2820138633 -0.1125595197 0.5405539274 4285219402
-0.2820633650 -0.1119785681 0.5406487584 4286732641
-0.2821125984 -0.1113973111 0.5407431126 4286864227
-0.2821615934 -0.1108157486 0.5408370495 4285548367
-0.2826655209 -0.1104116812 0.5418029428 4285415498
-0.2827141285 -0.1098285764 0.5418961048 4285415498
-0.2832178175 -0.1094210967 0.5428615808 4285284683
-0.2832660079 -0.1088364571 0.5429539680 4285350476
-0.2833139598 -0.1082515121 0.5430458784 4285482062
-0.2829061151 -0.1074931845 0.5422641039 4285811027
-0.2829535007 -0.1069085971 0.5423549414 4286008406
-0.2834563553 -0.1064949259 0.5433188081 4285679441
-0.2835033536 -0.1059088111 0.5434088707 4285350476
-0.2835500836 -0.1053224057 0.5434984565 4285416269
-0.2835965753 -0.1047357097 0.5435875654 4285613648
-0.2836427987 -0.1041487232 0.5436761975 4285613648
-0.2841449082 -0.1037279516 0.5446385741 4285679441
-0.2841907442 -0.1031394526 0.5447264314 4285218890
-0.2846925557 -0.1027152762 0.5456882715 4285020741
-0.2851942778 -0.1022889242 0.5466499925 4285415499
-0.2856958807 -0.1018604040 0.5476114750 4285152327
-0.2861973941 -0.1014297083 0.5485727191 4285481292
-0.2866988182 -0.1009968370 0.5495338440 4285284680
-0.2876567245 -0.1007216647 0.5513699055 4284955715
-0.2881579697 -0.1002835035 0.5523306727 4285086276
-0.2886591256 -0.0998431668 0.5532912612 4285152069
-0.2887033522 -0.0992436260 0.5533760786 4285349448
-0.2892042100 -0.0987998918 0.5543360710 4285546827
-0.2892480195 -0.0981988534 0.5544200540 4285218890
-0.2897485793 -0.0977517217 0.5553795099 4285087304
-0.2902490199 -0.0973024219 0.5563387275 4284889925
-0.2907493114 -0.0968509465 0.5572977066 4285613648
-0.2912495136 -0.0963973105 0.5582564473 4285811286
-0.2917495966 -0.0959414914 0.5592150092 4286008665
-0.2922495604 -0.0954835117 0.5601732731 4286077027
-0.2932068110 -0.0951718315 0.5620080829 4286669164
-0.2941640615 -0.0948560759 0.5638428926 4286936186
-0.2951213121 -0.0945362449 0.5656777620 4290752180
-0.3411751390 -0.1983546168 0.6553472281 4291152340
-0.3412592113 -0.1976751834 0.6555086970 4286872965
-0.3413430452 -0.1969952434 0.6556697488 4285030761
-0.3409803212 -0.1960581839 0.6549729705 4285752425
-0.3415099680 -0.1956338733 0.6559903622 4285423460
-0.3411464989 -0.1946976036 0.6552922130 4285356636
-0.3407826126 -0.1937626153 0.6545932293 4285159257
-0.3399714828 -0.1925758570 0.6530351639 4285157970
-0.3387128413 -0.1911400110 0.6506174803 4284894798
-0.3352184892 -0.1884526908 0.6439054012 4285024583
-0.3272515535 -0.1832754165 0.6286020279 4284827204
-0.2960276008 -0.1651568264 0.5686254501 4284958536
-0.2920724750 -0.1623268872 0.5610282421 4284892743
-0.2899047434 -0.1605034024 0.5568643212 4284892743
-0.2881832421 -0.1589352638 0.5535575747 4284892743
-0.2878034711 -0.1581115723 0.5528280735 4284827463
-0.2869755626 -0.1570442915 0.5512378216 4284761670
-0.2865948379 -0.1562242806 0.5505064726 4284761670
-0.2857657671 -0.1551624686 0.5489139557 4284893256
-0.2853840888 -0.1543461531 0.5481808186 4284893256
-0.2854501009 -0.1537726521 0.5483075976 4284893256
-0.2850676477 -0.1529582441 0.5475730300 4285090635
-0.2851331234 -0.1523848474 0.5476987958 4285090635
-0.2847499847 -0.1515723467 0.5469627976 4284761670
-0.2843663692 -0.1507612765 0.5462259650 4284432705
-0.2835337520 -0.1497147232 0.5446265936 4284366912
-0.2840466797 -0.1493793428 0.5456118584 4284432705
-0.2836619318 -0.1485716254 0.5448728204 4284432194
-0.2832767665 -0.1477653086 0.5441329479 4284497987
-0.2828911841 -0.1469604373 0.5433923006 4284432194
-0.2829543054 -0.1463893503 0.5435135961 4284366401
-0.2825680077 -0.1455864161 0.5427715182 4284432194
-0.2826305926 -0.1450154781 0.5428917408 4284497987
-0.2822435498 -0.1442145258 0.5421482921 4284497989
-0.2823055983 -0.1436437368 0.5422675014 4284432196
-0.2819178104 -0.1428447515 0.5415226221 4284432196
-0.2815296054 -0.1420472115 0.5407769084 4284497989
-0.2811409831 -0.1412511170 0.5400304198 4284366660
-0.2807519436 -0.1404564679 0.5392831564 4284300867
-0.2808125317 -0.1398874670 0.5393995047 4284300867
-0.2799726427 -0.1388715506 0.5377862453 4284300867
-0.2791321576 -0.1378589272 0.5361717343 4284366661
-0.2787413597 -0.1370710433 0.5354211330 4284432454
-0.2783501744 -0.1362846196 0.5346696973 4284432453
-0.2775080502 -0.1352800429 0.5330521464 4284432453
-0.2771159410 -0.1344974786 0.5322989821 4284300867
-0.2767234445 -0.1337163895 0.5315449834 4284037695
-0.2767812908 -0.1331536323 0.5316560864 4283906110
-0.2754862905 -0.1319426894 0.5291686058 4283774524
-0.2764453590 -0.1318120509 0.5310108662 4283774524
-0.2756003439 -0.1308209449 0.5293877125 4283840317
-0.2756570280 -0.1302595437 0.5294966102 4283642938
-0.2757135034 -0.1296977997 0.5296050906 4283708731
-0.2753184140 -0.1289243698 0.5288461447 4283971903
-0.2749229372 -0.1281524301 0.5280864835 4284037696
-0.2754300833 -0.1278010011 0.5290606618 4284037698
-0.2750339806 -0.1270302236 0.5282997489 4283971905
-0.2750891447 -0.1264686137 0.5284057856 4283840319
-0.2751441002 -0.1259066612 0.5285113454 4283906112
-0.2751988471 -0.1253443807 0.5286164880 4283708990
-0.2757053375 -0.1249866635 0.5295893550 4283708990
-0.2757597268 -0.1244227886 0.5296938419 4283578174
-0.2758138776 -0.1238585785 0.5297978520 4283512381
-0.2758677900 -0.1232940406 0.5299014449 4283447101
-0.2759214938 -0.1227291673 0.5300046206 4283512894
-0.2764274180 -0.1223642379 0.5309763551 4283578687
-0.2769332528 -0.1219971254 0.5319480300 4283578687
-0.2774390280 -0.1216278300 0.5329195261 4283710271
-0.2774921060 -0.1210588664 0.5330214500 4283644478
-0.2775449157 -0.1204895750 0.5331229568 4283906623
-0.2775975168 -0.1199199557 0.5332239866 4284104002
-0.2781028450 -0.1195447147 0.5341945887 4284234562
-0.2781550586 -0.1189735308 0.5342949033 4284168769
-0.2786601484 -0.1185948551 0.5352651477 4284628806
-0.2787120044 -0.1180220917 0.5353647470 4285089357
-0.2792168856 -0.1176399812 0.5363345742 4285220430
-0.2792683542 -0.1170656532 0.5364333987 4284891465
-0.2793196142 -0.1164910048 0.5365318060 4283774011
-0.2798241377 -0.1161042154 0.5375009775 4283247667
-0.2798749804 -0.1155280024 0.5375986099 4283905597
-0.2799255848 -0.1149514765 0.5376958251 4284760906
-0.2799759805 -0.1143746376 0.5377926230 4285285453
-0.2804799676 -0.1139819250 0.5387607217 4285219660
-0.2809838951 -0.1135870367 0.5397287011 4285284940
-0.2810337245 -0.1130073965 0.5398243666 4285482319
-0.2810833156 -0.1124274507 0.5399196744 4284890695
-0.2815868556 -0.1120278835 0.5408868790 4286403934
-0.2816360295 -0.1114463881 0.5409813523 4285613905
-0.2816849947 -0.1108645871 0.5410754085 4285416526
-0.2821881175 -0.1104603633 0.5420418382 4285415241
-0.2822366953 -0.1098770201 0.5421351194 4285481034
-0.2827395797 -0.1094693691 0.5431010723 4285153097
-0.2827877104 -0.1088844910 0.5431935787 4285284683
-0.2828356326 -0.1082993075 0.5432856083 4285416269
-0.2828833163 -0.1077138335 0.5433771610 4285679441
-0.2829307318 -0.1071280539 0.5434682965 4285876820
-0.2829779088 -0.1065419912 0.5435588956 4285547855
-0.2830248475 -0.1059556305 0.5436490774 4285284683
-0.2830715477 -0.1053689793 0.5437387824 4285350476
-0.2831180096 -0.1047820374 0.5438280106 4285745234
-0.2831642330 -0.1041948125 0.5439167619 4285876820
-0.2836655080 -0.1037738696 0.5448796749 4285811027
-0.2841666937 -0.1033507511 0.5458424091 4285284683
-0.2842123210 -0.1027607769 0.5459300280 4285152327
-0.2847132385 -0.1023342460 0.5468922257 4285415499
-0.2852140367 -0.1019055471 0.5478541851 4284954948
-0.2857147455 -0.1014746800 0.5488159657 4285415499
-0.2866711020 -0.1012025252 0.5506529808 4285153094
-0.2871716619 -0.1007663533 0.5516145229 4284692543
-0.2876721323 -0.1003280059 0.5525758266 4284559930
-0.2881724834 -0.0998874903 0.5535368919 4284559930
-0.2882166803 -0.0992876962 0.5536218286 4285020481
-0.2887167335 -0.0988437757 0.5545823574 4285283653
-0.2892166674 -0.0983976871 0.5555426478 4285021510
-0.2897164822 -0.0979494229 0.5565026999 4285087303
-0.2902161777 -0.0974989831 0.5574625731 4284889925
-0.2907157540 -0.0970463753 0.5584222078 4285547855
-0.2912152410 -0.0965915918 0.5593816042 4285811284
-0.2917145789 -0.0961346328 0.5603407621 4286008663
-0.2922137678 -0.0956755057 0.5612996817 4286077281
-0.2931695282 -0.0953627452 0.5631355047 4286735211
-0.2941252589 -0.0950459093 0.5649713278 4287068026
-0.2950810194 -0.0947249904 0.5668071508 4290489262
-0.3397012353 -0.1979199648 0.6539111137 4290954961
-0.3397850096 -0.1972420514 0.6540724039 4287135367
-0.3394231200 -0.1963060349 0.6533757448 4285556335
-0.3395062983 -0.1956280172 0.6535359025 4286015084
-0.3395892382 -0.1949494928 0.6536955237 4285686119
-0.3392261565 -0.1940155327 0.6529965997 4285488222
-0.3388625979 -0.1930828691 0.6522968411 4285290843
-0.3384985924 -0.1921514869 0.6515961289 4285157970
-0.3372419477 -0.1907168627 0.6491771340 4284894798
-0.3333072662 -0.1877788454 0.6416029930 4285024329
-0.3253536522 -0.1826020926 0.6262926459 4284892743
-0.2964148223 -0.1657264382 0.5705865622 4285024329
-0.2915737033 -0.1623961329 0.5612675548 4284958536
-0.2894097269 -0.1605719030 0.5571020246 4284826950
-0.2881379426 -0.1592500359 0.5546538830 4284892743
-0.2873121500 -0.1581791341 0.5530642867 4284959049
-0.2864857316 -0.1571114063 0.5514734387 4284893256
-0.2861056924 -0.1562910825 0.5507419109 4284827463
-0.2857252359 -0.1554721594 0.5500095487 4284959049
-0.2853443623 -0.1546546370 0.5492763519 4284959049
-0.2849630713 -0.1538385004 0.5485423803 4284959049
-0.2845813632 -0.1530237794 0.5478076339 4284959049
-0.2846467793 -0.1524501592 0.5479335189 4284893256
-0.2842643261 -0.1516373456 0.5471973419 4284630084
-0.2838814557 -0.1508259475 0.5464602709 4284432705
-0.2834981382 -0.1500159651 0.5457224846 4284432705
-0.2831144333 -0.1492073983 0.5449838042 4284432705
-0.2831783593 -0.1486354470 0.5451068878 4284497987
-0.2827939093 -0.1478288174 0.5443668365 4284563780
-0.2828572989 -0.1472570002 0.5444888473 4284563780
-0.2824721038 -0.1464523226 0.5437473655 4284563780
-0.2820864916 -0.1456490755 0.5430051088 4284563780
-0.2821490467 -0.1450779140 0.5431255102 4284497987
-0.2817627192 -0.1442766488 0.5423818231 4284432453
-0.2818247080 -0.1437056363 0.5425011516 4284366660
-0.2814376354 -0.1429063380 0.5417560935 4284366660
-0.2810501456 -0.1421084702 0.5410101414 4284432453
-0.2806622386 -0.1413120627 0.5402634740 4284366660
-0.2802739143 -0.1405171007 0.5395159721 4284300867
-0.2803344429 -0.1399478763 0.5396324396 4284366660
-0.2794960439 -0.1389315575 0.5380185843 4284366660
-0.2791064680 -0.1381409764 0.5372686982 4284432453
-0.2782669663 -0.1371303201 0.5356526375 4284564039
-0.2778764963 -0.1363435686 0.5349010229 4284564039
-0.2774856091 -0.1355583072 0.5341485739 4284498246
-0.2770943046 -0.1347745061 0.5333953500 4284300867
-0.2762526870 -0.1337743104 0.5317752361 4284037695
-0.2763104737 -0.1332113296 0.5318865180 4283906110
-0.2750177383 -0.1319998950 0.5293980241 4283774524
-0.2759752274 -0.1318692118 0.5312411785 4283774524
-0.2751317024 -0.1308777034 0.5296173692 4283840317
-0.2747379541 -0.1301027983 0.5288594365 4283577658
-0.2747942805 -0.1295417547 0.5289679170 4283709244
-0.2748503983 -0.1289803684 0.5290759206 4283972416
-0.2749063075 -0.1284186393 0.5291835070 4283972416
-0.2745112181 -0.1276469678 0.5284229517 4283840576
-0.2741157115 -0.1268768013 0.5276616812 4283840576
-0.2741707563 -0.1263158917 0.5277676582 4283774783
-0.2742255926 -0.1257546395 0.5278731585 4283906369
-0.2747313082 -0.1253989637 0.5288466811 4283708990
-0.2747857869 -0.1248361319 0.5289515257 4283643197
-0.2748400271 -0.1242729500 0.5290559530 4283643197
-0.2748940587 -0.1237094477 0.5291599035 4283708990
-0.2749478519 -0.1231456026 0.5292634964 4283578174
-0.2750014067 -0.1225814372 0.5293666124 4283643967
-0.2755064070 -0.1222172901 0.5303387046 4283578687
-0.2760113776 -0.1218509674 0.5313107371 4283512894
-0.2765162587 -0.1214824617 0.5322825909 4283709758
-0.2765691876 -0.1209141910 0.5323845148 4283775551
-0.2770738900 -0.1205422431 0.5333560109 4283972416
-0.2771264315 -0.1199724004 0.5334571600 4283972416
-0.2776309252 -0.1195970178 0.5344282985 4284168769
-0.2776831090 -0.1190255955 0.5345287323 4284300355
-0.2781873941 -0.1186467782 0.5354995131 4284694599
-0.2782392204 -0.1180737838 0.5355992317 4284891978
-0.2782907784 -0.1175004691 0.5356984735 4284825672
-0.2787947059 -0.1171169654 0.5366685390 4285088844
-0.2788459063 -0.1165420786 0.5367670655 4284628806
-0.2793496251 -0.1161551401 0.5377367139 4283576118
-0.2794004381 -0.1155786961 0.5378345251 4283116081
-0.2794510126 -0.1150019318 0.5379318595 4283774011
-0.2795013487 -0.1144248620 0.5380287766 4284694599
-0.2800045311 -0.1140319929 0.5389973521 4285023564
-0.2805076241 -0.1136369482 0.5399658680 4284957258
-0.2805574238 -0.1130570695 0.5400617123 4284825672
-0.2806069851 -0.1124768853 0.5401570797 4284562500
-0.2806563079 -0.1118963957 0.5402520299 4285154637
-0.2811588645 -0.1114954352 0.5412194133 4284824389
-0.2812077701 -0.1109133959 0.5413135886 4285153354
-0.2817100883 -0.1105090007 0.5422805548 4285547084
-0.2817586064 -0.1099254191 0.5423739552 4285415498
-0.2818068862 -0.1093415394 0.5424668789 4285218890
-0.2823088169 -0.1089324877 0.5434330106 4285416269
-0.2823566794 -0.1083470657 0.5435251594 4285547855
-0.2824043036 -0.1077613458 0.5436168909 4285613648
-0.2824516892 -0.1071753278 0.5437080860 4285745234
-0.2824988365 -0.1065890193 0.5437988639 4285547855
-0.2825457454 -0.1060024127 0.5438891053 4285284683
-0.2825924158 -0.1054155231 0.5439789295 4285416269
-0.2826388180 -0.1048283353 0.5440682769 4285811027
-0.2826849818 -0.1042408645 0.5441572070 4286008406
-0.2831854820 -0.1038197502 0.5451205969 4285811027
-0.2836858630 -0.1033964604 0.5460838079 4285153097
-0.2841861248 -0.1029709876 0.5470468402 4285152327
-0.2846863270 -0.1025433466 0.5480096340 4285349706
-0.2851863801 -0.1021135226 0.5489722490 4285020741
-0.2856863737 -0.1016815230 0.5499346852 4285547085
-0.2861862183 -0.1012473553 0.5508969426 4285284680
-0.2866860032 -0.1008110046 0.5518589616 4284692543
-0.2871856391 -0.1003724784 0.5528207421 4284231478
-0.2876851857 -0.0999317765 0.5537823439 4284099892
-0.2877293527 -0.0993317291 0.5538673401 4284692029
-0.2882285714 -0.0988876298 0.5548283458 4285086787
-0.2882723212 -0.0982860848 0.5549125075 4285021510
-0.2887712419 -0.0978385806 0.5558729768 4285153096
-0.2892700732 -0.0973889083 0.5568332076 4285087304
-0.2897687852 -0.0969370604 0.5577932000 4285679441
-0.2907230556 -0.0966345072 0.5596300960 4285811284
-0.2912215889 -0.0961773619 0.5605897903 4285942870
-0.2917200029 -0.0957180411 0.5615491867 4286077792
-0.2926741540 -0.0954051539 0.5633859038 4286867308
-0.2936283350 -0.0950881913 0.5652226210 4287396991
-0.2950384915 -0.0949138403 0.5679371953 4290291883
-0.3382296264 -0.1974847913 0.6524733305 4291020241
-0.3383131325 -0.1968084127 0.6526344419 4287398539
-0.3379516900 -0.1958738118 0.6519371867 4286148472
-0.3380346000 -0.1951973289 0.6520971060 4286344049
-0.3376723528 -0.1942643970 0.6513983011 4285883498
-0.3373096287 -0.1933327615 0.6506986022 4285751137
-0.3369464576 -0.1924024075 0.6499980092 4285487965
-0.3365828097 -0.1914733499 0.6492965221 4285354838
-0.3353280723 -0.1900408268 0.6468759775 4285025873
-0.3313998580 -0.1871042848 0.6392981410 4285286987
-0.3230141103 -0.1816774607 0.6231213212 4285221194
-0.2967983484 -0.1662964076 0.5725489259 4285155917
-0.2919657826 -0.1629629284 0.5632264614 4285024331
-0.2893599272 -0.1608882546 0.5581995845 4284892745
-0.2876445353 -0.1593179554 0.5548904538 4284958538
-0.2868202031 -0.1582466215 0.5533002615 4284893258
-0.2864414155 -0.1574236900 0.5525695086 4284827465
-0.2860622108 -0.1566021442 0.5518379807 4284827463
-0.2852361798 -0.1555385888 0.5502445698 4285024842
-0.2848560214 -0.1547207385 0.5495111942 4285024842
-0.2844754457 -0.1539042890 0.5487769842 4284959049
-0.2840944231 -0.1530892551 0.5480419993 4284893256
-0.2841598094 -0.1525154263 0.5481680632 4284695877
-0.2837780416 -0.1517022848 0.5474316478 4284564291
-0.2833958864 -0.1508905739 0.5466944575 4284498498
-0.2825661898 -0.1498431861 0.5450938940 4284498498
-0.2830774784 -0.1495075822 0.5460802317 4284498498
-0.2826941609 -0.1486992240 0.5453407764 4284563780
-0.2823104262 -0.1478922814 0.5446004868 4284629573
-0.2823737562 -0.1473202258 0.5447226763 4284630086
-0.2819892764 -0.1465152353 0.5439810157 4284630086
-0.2816043794 -0.1457116753 0.5432385206 4284630086
-0.2816668749 -0.1451403052 0.5433590412 4284564293
-0.2812812626 -0.1443387121 0.5426151156 4284432453
-0.2808952034 -0.1435385495 0.5418704152 4284432453
-0.2809568346 -0.1429678649 0.5419893265 4284366660
-0.2805700600 -0.1421696842 0.5412431955 4284366660
-0.2801828682 -0.1413729638 0.5404962897 4284301121
-0.2797952890 -0.1405776888 0.5397485495 4284301121
-0.2794072628 -0.1397838742 0.5390000343 4284432707
-0.2790188193 -0.1389915049 0.5382507443 4284432707
-0.2786299884 -0.1382006109 0.5375006199 4284432453
-0.2782407403 -0.1374111623 0.5367497206 4284564039
-0.2778510749 -0.1366232038 0.5359980464 4284564039
-0.2770120203 -0.1356168985 0.5343794227 4284366660
-0.2766214609 -0.1348327845 0.5336259604 4284169281
-0.2762304544 -0.1340501457 0.5328717232 4283971902
-0.2758390605 -0.1332689822 0.5321167111 4283840317
-0.2754472494 -0.1324893087 0.5313608646 4283774524
-0.2746056020 -0.1314959079 0.5297372937 4283774524
-0.2746624351 -0.1309344172 0.5298469067 4283840317
-0.2742694020 -0.1301591992 0.5290887356 4283708731
-0.2743256986 -0.1295979470 0.5291972756 4283906110
-0.2739319503 -0.1288248003 0.5284377337 4284038209
-0.2739877105 -0.1282637715 0.5285453200 4283906623
-0.2740432620 -0.1277024001 0.5286524296 4283708990
-0.2736485004 -0.1269319057 0.5278909206 4283708990
-0.2737034857 -0.1263707876 0.5279970169 4283774783
-0.2737582624 -0.1258093119 0.5281026959 4283840576
-0.2738128304 -0.1252475083 0.5282078981 4283839806
-0.2739212811 -0.1241228953 0.5284171104 4283708733
-0.2739751637 -0.1235600859 0.5285210609 4283708733
-0.2744795382 -0.1231992468 0.5294940472 4283708990
-0.2745330632 -0.1226348504 0.5295972824 4283774783
-0.2750372291 -0.1222705692 0.5305699110 4283643967
-0.2755413651 -0.1219041049 0.5315424204 4283578174
-0.2760454416 -0.1215354577 0.5325148106 4283775551
-0.2765494585 -0.1211646274 0.5334871411 4283841344
-0.2766022086 -0.1205948740 0.5335888863 4284103489
-0.2771060467 -0.1202206016 0.5345607996 4284037696
-0.2771584094 -0.1196492761 0.5346618295 4284168769
-0.2776620388 -0.1192715615 0.5356333852 4284497734
-0.2777140141 -0.1186986566 0.5357336402 4284826185
-0.2777657807 -0.1181254312 0.5358335376 4284760392
-0.2778173089 -0.1175518855 0.5359328985 4284891465
-0.2783204317 -0.1171682328 0.5369035006 4284759879
-0.2783715725 -0.1165931150 0.5370021462 4284891465
-0.2784225047 -0.1160176843 0.5371003747 4284628293
-0.2784731984 -0.1154419407 0.5371981263 4283641911
-0.2785236239 -0.1148658842 0.5372954607 4283378739
