VERSION 0.7
FIELDS x y z rgba
SIZE 4 4 4 4
TYPE F F F U
COUNT 1 1 1 1
WIDTH 920
HEIGHT 1
VIEWPOINT 0.0 0.0 0.0 1.0 0.0 0.0 0.0
POINTS 920
DATA ascii
-0.3021944165 -0.1453419775 0.5533201694 4285613897
-0.3022588193 -0.1447580308 0.5534380674 4285679690
-0.3018557131 -0.1439508945 0.5526999831 4285613897
-0.3014521599 -0.1431451738 0.5519611239 4285678922
-0.3010481894 -0.1423408985 0.5512214303 4285678922
-0.3001762331 -0.1413179487 0.5496248603 4285547336
-0.2997713089 -0.1405174732 0.5488834381 4285481543
-0.2993659377 -0.1397184283 0.5481412411 4285547589
-0.2989601493 -0.1389208585 0.5473982096 4285481796
-0.2985539436 -0.1381247193 0.5466544628 4285744713
-0.2986153662 -0.1375456452 0.5467669368 4286139471
-0.2982084155 -0.1367515177 0.5460217595 4286336850
-0.2982692719 -0.1361726373 0.5461331606 4286205264
-0.2978615463 -0.1353805363 0.5453866720 4285876299
-0.2974534035 -0.1345898956 0.5446393490 4285613127
-0.2975133657 -0.1340117753 0.5447491407 4285547334
-0.2971044779 -0.1332231760 0.5440004468 4285284162
-0.2971638739 -0.1326452643 0.5441092253 4285349957
-0.2967542410 -0.1318587065 0.5433591604 4285349957
-0.2968130708 -0.1312810183 0.5434669256 4285283651
-0.2968716919 -0.1307029873 0.5435742140 4285546823
-0.2969300449 -0.1301246136 0.5436810851 4285941581
-0.2969881892 -0.1295458972 0.5437875390 4285875788
-0.2970460951 -0.1289668530 0.5438935161 4285481284
-0.2971037328 -0.1283874661 0.5439991355 4285415491
-0.2976306081 -0.1280096471 0.5449638367 4285284164
-0.2976878881 -0.1274286658 0.5450686812 4285415750
-0.2977449000 -0.1268473566 0.5451731086 4285547336
-0.2982714176 -0.1264648587 0.5461371541 4285876301
-0.2983280718 -0.1258819699 0.5462408662 4286139471
-0.2988543808 -0.1254960597 0.5472045541 4285942092
-0.2989106178 -0.1249115840 0.5473075509 4285677892
-0.2989666462 -0.1243267804 0.5474100709 4285677892
-0.2990224063 -0.1237416491 0.5475121737 4285744456
-0.2990779281 -0.1231561825 0.5476138592 4286007628
-0.2991332114 -0.1225704029 0.5477150679 4285943382
-0.2991882563 -0.1219842881 0.5478158593 4286272347
-0.2997135520 -0.1215887368 0.5487776995 4286405735
-0.2997681797 -0.1210010573 0.5488777161 4286734700
-0.2998225987 -0.1204130575 0.5489773154 4286932077
-0.2998767197 -0.1198247448 0.5490764976 4286800491
-0.2999306321 -0.1192361042 0.5491751432 4286800491
-0.2999842763 -0.1186471507 0.5492734313 4287195249
-0.3000376821 -0.1180578843 0.5493711829 4287524214
-0.3000908494 -0.1174683049 0.5494685173 4287918972
-0.2996725738 -0.1166949272 0.5487026572 4287787899
-0.2992539108 -0.1159230918 0.5479360819 4287787899
-0.2993061543 -0.1153344363 0.5480317473 4288511620
-0.2988867164 -0.1145647615 0.5472638011 4287919483
-0.2989383936 -0.1139764115 0.5473583937 4287525238
-0.2989898324 -0.1133877635 0.5474525690 4288841098
-0.2985693216 -0.1126208901 0.5466825962 4289564821
-0.2986201942 -0.1120325625 0.5467756987 4290354337
-0.2986707687 -0.1114439368 0.5468683839 4290881195
-0.2987211347 -0.1108550131 0.5469605327 4290946988
-0.2987712324 -0.1102657914 0.5470522642 4290946988
-0.2992931604 -0.1098495349 0.5480079055 4289894300
-0.2998149693 -0.1094311252 0.5489633679 4288710028
-0.2998644710 -0.1088391542 0.5490540266 4289960095
-0.2999137342 -0.1082468927 0.5491442084 4290354853
-0.2999627292 -0.1076543406 0.5492339134 4290683818
-0.3000114560 -0.1070614979 0.5493232012 4291211189
-0.3005324900 -0.1066360325 0.5502771735 4289961122
-0.3005807996 -0.1060416773 0.5503656268 4286738291
-0.3011015654 -0.1056128368 0.5513191223 4286540912
-0.3011494279 -0.1050169766 0.5514068007 4286540912
-0.3011970520 -0.1044208333 0.5514940023 4286738291
-0.3012444079 -0.1038244069 0.5515807271 4289895329
-0.3012915254 -0.1032277048 0.5516669750 4289961122
-0.3013383746 -0.1026307195 0.5517527461 4289959325
-0.3018580973 -0.1021936387 0.5527043939 4289432981
-0.3019045293 -0.1015951559 0.5527893901 4288773765
-0.3019506633 -0.1009964049 0.5528738499 4289760660
-0.3019965589 -0.1003973857 0.5529578924 4289169037
-0.3020421863 -0.0997980833 0.5530414581 4289958553
-0.3025610745 -0.0993539989 0.5539914966 4288642693
-0.3026062548 -0.0987532213 0.5540742278 4288576900
-0.3031248152 -0.0983057767 0.5550237298 4288707972
-0.3036432266 -0.0978561863 0.5559729934 4289629074
-0.3041615486 -0.0974044427 0.5569220185 4289563281
-0.3042058945 -0.0967997760 0.5570032001 4289431695
-0.3047238886 -0.0963446796 0.5579516888 4289102729
-0.3052417636 -0.0958874300 0.5588998795 4288905350
-0.3052854538 -0.0952800885 0.5589798689 4289168522
-0.3058029711 -0.0948194936 0.5599274635 4289365901
-0.3058462143 -0.0942106918 0.5600066185 4288905350
-0.3063634336 -0.0937467515 0.5609536767 4290155417
-0.3064061701 -0.0931364894 0.5610319376 4291796642
-0.3064486682 -0.0925259739 0.5611097813 4289954438
-0.3064908981 -0.0919151977 0.5611870885 4288770680
-0.3065328598 -0.0913041756 0.5612639189 4288968059
-0.3065745533 -0.0906929076 0.5613402128 4288772735
-0.3070906103 -0.0902208313 0.5622851253 4289628044
-0.3080812097 -0.0898851156 0.5640989542 4289627533
-0.3085970581 -0.0894078091 0.5650434494 4288640638
-0.3086379170 -0.0887917578 0.5651182532 4288181374
-0.3091534078 -0.0883111209 0.5660620928 4288707718
-0.3108055890 -0.1605591327 0.5702469945 4286007887
-0.3076233268 -0.1582880914 0.5644083619 4285810508
-0.3062984943 -0.1569820195 0.5619776249 4285810248
-0.3059026301 -0.1561555266 0.5612512827 4285876041
-0.3050413132 -0.1550940126 0.5596710443 4286008140
-0.3041793406 -0.1540356874 0.5580895543 4286073933
-0.3033167422 -0.1529805362 0.5565068722 4285877071
-0.3029187918 -0.1521623284 0.5557767749 4285745485
-0.3025204241 -0.1513455212 0.5550458431 4285285445
-0.3025871515 -0.1507620662 0.5551682711 4284824894
-0.3021880090 -0.1499471962 0.5544359684 4284759101
-0.3023200929 -0.1487801522 0.5546783209 4285614410
-0.3019198775 -0.1479677260 0.5539439917 4285482824
-0.3019852340 -0.1473841518 0.5540639162 4285416518
-0.3020503819 -0.1468002051 0.5541834235 4285416518
-0.3016490340 -0.1459902376 0.5534471273 4285482311
-0.3017136157 -0.1454064399 0.5535655618 4285548104
-0.3017779589 -0.1448222697 0.5536836386 4285548104
-0.3009090126 -0.1437918544 0.5520893335 4285482311
-0.3005060852 -0.1429867148 0.5513500571 4285547334
-0.3001027107 -0.1421830207 0.5506100059 4285547334
-0.2996989191 -0.1413807571 0.5498691201 4285481541
-0.2992946804 -0.1405799389 0.5491274595 4285481541
-0.2988900244 -0.1397805810 0.5483850241 4285481541
-0.2984849513 -0.1389826685 0.5476418138 4285415748
-0.2980794311 -0.1381862164 0.5468978286 4285744713
-0.2976734936 -0.1373912096 0.5461530089 4286205264
-0.2972671390 -0.1365976781 0.5454074740 4286336850
-0.2973278761 -0.1360194683 0.5455188751 4286073678
-0.2969207466 -0.1352279335 0.5447719693 4285678920
-0.2969809175 -0.1346499324 0.5448822975 4285481541
-0.2965730429 -0.1338604391 0.5441340208 4285349955
-0.2966326475 -0.1332826465 0.5442433357 4285218369
-0.2966920137 -0.1327044964 0.5443522334 4285415750
-0.2962830663 -0.1319176108 0.5436019301 4285349957
-0.2963418663 -0.1313396990 0.5437098145 4285217858
-0.2964004278 -0.1307614297 0.5438172817 4285546823
-0.2964587510 -0.1301828176 0.5439242721 4285876042
-0.2965168655 -0.1296038777 0.5440309048 4285744456
-0.2965747118 -0.1290245801 0.5441370010 4285481284
-0.2966323197 -0.1284449548 0.5442427397 4285415491
-0.2971584201 -0.1280669868 0.5452079773 4285218371
-0.2972156405 -0.1274857819 0.5453130007 4285284164
-0.2972726226 -0.1269042194 0.5454175472 4285416520
-0.2977983654 -0.1265215874 0.5463821292 4285811278
-0.2978549600 -0.1259384453 0.5464859605 4286073678
-0.2979113460 -0.1253549904 0.5465893745 4285678920
-0.2979674637 -0.1247711852 0.5466923714 4285218111
-0.2980233431 -0.1241870597 0.5467948914 4285349697
-0.2980789840 -0.1236026064 0.5468969941 4285678920
-0.2981343865 -0.1230178252 0.5469986200 4285876299
-0.2981895506 -0.1224327162 0.5470998287 4285680210
-0.2982444465 -0.1218472794 0.5472005606 4285877589
-0.2987689078 -0.1214524880 0.5481627584 4285879391
-0.2988234162 -0.1208654940 0.5482628345 4286010977
-0.2988776863 -0.1202781722 0.5483623743 4286274147
-0.2989316881 -0.1196905375 0.5484614968 4286274147
-0.2989854813 -0.1191025749 0.5485601425 4286471526
-0.2990390062 -0.1185143068 0.5486583710 4286997870
-0.2990922928 -0.1179257184 0.5487561822 4287326835
-0.2991453409 -0.1173368171 0.5488534570 4287458421
-0.2987276912 -0.1165640354 0.5480871797 4286998383
-0.2987801731 -0.1159754321 0.5481834412 4287261555
-0.2988323867 -0.1153865233 0.5482792854 4288182655
-0.2984136641 -0.1146165282 0.5475110412 4287129967
-0.2979945540 -0.1138480753 0.5467420220 4286669929
-0.2980458438 -0.1132601053 0.5468361974 4287459445
-0.2980969250 -0.1126718298 0.5469298959 4288248961
-0.2976767123 -0.1119061857 0.5461589098 4289104270
-0.2981982827 -0.1114943773 0.5471158624 4289762200
-0.2982486188 -0.1109052002 0.5472081900 4289959579
-0.2982986569 -0.1103157327 0.5473000407 4289828507
-0.2988198102 -0.1098993048 0.5482562184 4289104784
-0.2993408442 -0.1094807163 0.5492121577 4288775051
-0.2993903160 -0.1088884994 0.5493029356 4290025118
-0.2994395494 -0.1082959846 0.5493932366 4289959325
-0.2994885147 -0.1077031717 0.5494830608 4290551462
-0.3000089228 -0.1072787568 0.5504379272 4290486950
-0.3000574708 -0.1066844389 0.5505269766 4289631641
-0.3001057506 -0.1060898304 0.5506155491 4286672498
-0.3006257117 -0.1056608111 0.5515695810 4285685603
-0.3006735444 -0.1050646901 0.5516573191 4285159259
-0.3007211387 -0.1044682935 0.5517446399 4285882982
-0.3007684946 -0.1038716137 0.5518314838 4288447883
-0.3008155525 -0.1032746509 0.5519178510 4287921539
-0.3008623719 -0.1026774123 0.5520038009 4288643465
-0.3009089530 -0.1020798907 0.5520892143 4288906637
-0.3009552360 -0.1014820933 0.5521741509 4288642693
-0.3010013103 -0.1008840278 0.5522586703 4289563795
-0.3015196919 -0.1004431099 0.5532097816 4289169037
-0.3015652895 -0.0998435542 0.5532934666 4289695381
-0.3016106486 -0.0992437303 0.5533766150 4288313728
-0.3021285236 -0.0987982452 0.5543268323 4288642693
-0.3026463091 -0.0983506069 0.5552768111 4288905350
-0.3031639755 -0.0979008228 0.5562266111 4289694866
-0.3036814928 -0.0974488854 0.5571761727 4289563280
-0.3037258387 -0.0968439579 0.5572574735 4289497487
-0.3042430282 -0.0963886678 0.5582064390 4289036936
-0.3047601283 -0.0959312245 0.5591551065 4288839557
-0.3052770793 -0.0954716355 0.5601035953 4288510592
-0.3053205609 -0.0948628262 0.5601833463 4288444799
-0.3053637445 -0.0942537561 0.5602626204 4288115321
-0.3058801889 -0.0937896147 0.5612101555 4289365388
-0.3059229255 -0.0931790844 0.5612885356 4291336860
-0.3054917455 -0.0924250036 0.5604974627 4289626242
-0.3055338860 -0.0918149129 0.5605747700 4288704887
-0.3060494959 -0.0913459733 0.5615208149 4288770680
-0.3060911596 -0.0907344297 0.5615972281 4288639609
-0.3070803285 -0.0904016569 0.5634121299 4289758090
-0.3071215749 -0.0897877291 0.5634877682 4289824912
-0.3076365888 -0.0893111676 0.5644326806 4288574845
-0.3081514239 -0.0888324603 0.5653772950 4288048759
-0.3086661398 -0.0883516073 0.5663216710 4288377724
-0.3091807067 -0.0878686234 0.5672657490 4288909208
-0.3101693690 -0.0875173137 0.5690796971 4290027689
-0.3075954318 -0.1585969329 0.5655095577 4285678922
-0.3058088422 -0.1570511013 0.5622249842 4285744455
-0.3054136634 -0.1562242806 0.5614984035 4285941834
-0.3045537770 -0.1551623344 0.5599175096 4285942347
-0.3046219945 -0.1545748264 0.5600429177 4286008140
-0.3037610352 -0.1535174549 0.5584600568 4285877071
-0.3033639789 -0.1526971310 0.5577301383 4285679692
-0.3029665053 -0.1518781930 0.5569993854 4285417031
-0.3021038473 -0.1508286297 0.5554133654 4285088066
-0.3021702766 -0.1502445638 0.5555354953 4285088066
-0.3017715216 -0.1494298577 0.5548023582 4285417031
-0.3013723195 -0.1486165673 0.5540684462 4285548617
-0.3014378548 -0.1480331570 0.5541889668 4285482824
-0.3015031815 -0.1474493593 0.5543090701 4285482311
-0.3015682697 -0.1468651742 0.5544286966 4285482311
-0.3011676371 -0.1460548788 0.5536921620 4285350725
-0.3012321591 -0.1454708427 0.5538108349 4285416518
-0.3008307815 -0.1446625143 0.5530728698 4285416518
-0.3004289865 -0.1438556015 0.5523341298 4285350725
-0.3000267148 -0.1430501342 0.5515946150 4285350725
-0.2991580665 -0.1420248896 0.5499976277 4285350725
-0.2987548709 -0.1412232071 0.5492563248 4285415748
-0.2983512580 -0.1404229701 0.5485143065 4285349955
-0.2979471982 -0.1396241784 0.5477714539 4285349955
-0.2980090976 -0.1390444487 0.5478852391 4285349955
-0.2971378267 -0.1380309761 0.5462834239 4285744713
-0.2967324853 -0.1372365505 0.5455382466 4286205264
-0.2967934012 -0.1366584599 0.5456501842 4286271057
-0.2963873148 -0.1358660609 0.5449036360 4285942092
-0.2964476645 -0.1352881640 0.5450145602 4285547334
-0.2960408330 -0.1344977915 0.5442666411 4285415748
-0.2961006165 -0.1339201033 0.5443765521 4285218369
-0.2961601913 -0.1333420873 0.5444860458 4285284162
-0.2957522869 -0.1325542927 0.5437361002 4285415750
-0.2958112657 -0.1319764853 0.5438445807 4285284164
-0.2958700359 -0.1313983351 0.5439525843 4285217858
-0.2959285378 -0.1308198273 0.5440601707 4285612616
-0.2959868312 -0.1302409917 0.5441673398 4285810249
-0.2960448861 -0.1296617985 0.5442740321 4285481284
-0.2961027026 -0.1290822774 0.5443803668 4285349955
-0.2961602807 -0.1285024136 0.5444862247 4285284162
-0.2966855764 -0.1281243116 0.5454519391 4285087555
-0.2967427671 -0.1275428534 0.5455570817 4285219141
-0.2967997193 -0.1269610673 0.5456618071 4285613645
-0.2968564332 -0.1263789386 0.5457660556 4286008403
-0.2973812222 -0.1259948909 0.5467309356 4286007885
-0.2974375486 -0.1254111975 0.5468344688 4285349955
-0.2974936366 -0.1248271540 0.5469375849 4285020732
-0.2975494862 -0.1242427826 0.5470402241 4285152318
-0.2976050973 -0.1236580834 0.5471424460 4285481541
-0.2976604402 -0.1230730638 0.5472442508 4285678920
-0.2977155745 -0.1224877089 0.5473455787 4285285452
-0.2977704406 -0.1219020337 0.5474464893 4285482831
-0.2978250980 -0.1213160381 0.5475469232 4285616219
-0.2983485758 -0.1209198460 0.5485093594 4285747805
-0.2984028161 -0.1203322783 0.5486090779 4286010975
-0.2984567881 -0.1197443977 0.5487083197 4286076768
-0.2985105515 -0.1191561967 0.5488071442 4286076768
-0.2985640466 -0.1185676754 0.5489054918 4286405733
-0.2986172736 -0.1179788411 0.5490033627 4286800491
-0.2982006967 -0.1172051206 0.5482374430 4287129456
-0.2982533574 -0.1166165844 0.5483343005 4286735211
-0.2983057797 -0.1160277352 0.5484306812 4287327348
-0.2978881001 -0.1152567863 0.5476627946 4287985276
-0.2974700332 -0.1144873872 0.5468941331 4286866795
-0.2975215614 -0.1138994694 0.5469889045 4286340451
-0.2975728214 -0.1133112535 0.5470831394 4286603623
-0.2971536815 -0.1125446558 0.5463125706 4287393652
-0.2972043753 -0.1119567603 0.5464057326 4287985789
-0.2977251709 -0.1115447804 0.5473632216 4288314754
-0.2977754474 -0.1109553576 0.5474556684 4288643719
-0.2982959747 -0.1105399877 0.5484126210 4288972171
-0.2983458340 -0.1099490374 0.5485042930 4288577413
-0.2988660932 -0.1095302776 0.5494608283 4288840074
-0.2989155352 -0.1089378074 0.5495516658 4289826969
-0.2989647090 -0.1083450392 0.5496420860 4289366418
-0.2990136445 -0.1077519804 0.5497320890 4290024348
-0.2995332778 -0.1073273793 0.5506874323 4289302163
-0.2995817959 -0.1067328081 0.5507766008 4288973198
-0.2996300459 -0.1061379462 0.5508652925 4286343274
-0.2996780276 -0.1055428013 0.5509535074 4286672239
-0.3001970351 -0.1051123813 0.5519077182 4285882469
-0.3002445996 -0.1045157239 0.5519951582 4286211434
-0.3002918959 -0.1039187908 0.5520821214 4287394681
-0.3003389537 -0.1033215672 0.5521686077 4286078821
-0.3003857434 -0.1027240679 0.5522546172 4287787386
-0.3004322648 -0.1021262929 0.5523402095 4288774281
-0.3004785478 -0.1015282422 0.5524252653 4288510593
-0.3005245626 -0.1009299085 0.5525098443 4289431695
-0.3005703092 -0.1003313065 0.5525940061 4289102730
-0.3010877371 -0.0998889953 0.5535452366 4289365902
-0.3011330664 -0.0992889106 0.5536285639 4288246907
-0.3011780977 -0.0986885503 0.5537114143 4288970630
-0.3021671772 -0.0983954147 0.5555297732 4289233802
-0.3022118509 -0.0977926329 0.5556119084 4289825939
-0.3027285337 -0.0973414481 0.5565618277 4289760146
-0.3032450974 -0.0968881100 0.5575115085 4289628560
-0.3037615418 -0.0964326262 0.5584610105 4288839557
-0.3038053513 -0.0958259627 0.5585415959 4288642178
-0.3043214679 -0.0953671187 0.5594904423 4288115575
-0.3048374653 -0.0949061289 0.5604390502 4287852403
-0.3048806190 -0.0942967907 0.5605184436 4287587948
-0.3053962886 -0.0938324481 0.5614664555 4288838015
-0.3054389954 -0.0932216495 0.5615449548 4290614164
-0.3050085306 -0.0924672410 0.5607535839 4289100925
-0.3050506413 -0.0918568820 0.5608310103 4288508019
-0.3055654764 -0.0913877413 0.5617775321 4288442226
-0.3056071103 -0.0907759294 0.5618540645 4288309102
-0.3065947592 -0.0904430151 0.5636698604 4289756548
-0.3066360056 -0.0898288190 0.5637456179 4290087569
-0.3071502149 -0.0893520415 0.5646910071 4288705916
-0.3071909547 -0.0887364000 0.5647659302 4288047989
-0.3077048361 -0.0882562920 0.5657106638 4288442747
-0.3086920083 -0.0879088715 0.5675255656 4288710030
-0.3096791506 -0.0875574127 0.5693404078 4290091683
-0.3892979920 -0.2075084001 0.7171829343 4290886851
-0.3875388205 -0.2057774663 0.7139421105 4287069312
-0.3867036104 -0.2045424581 0.7124034762 4285161315
-0.3872557282 -0.2040418237 0.7134205699 4285487962
-0.3859566450 -0.2025673538 0.7110273838 4285224790
-0.3828051388 -0.2001297474 0.7052214742 4285550926
-0.3828927577 -0.1993918270 0.7053828835 4285221961
-0.3811277151 -0.1976925582 0.7021312714 4285614409
-0.3103446066 -0.1603418291 0.5717313290 4285417030
-0.3076350689 -0.1583122462 0.5667396784 4285548106
-0.3053874671 -0.1565305144 0.5625990629 4285679692
-0.3049926460 -0.1557038575 0.5618717074 4285876817
-0.3041337729 -0.1546428651 0.5602894425 4286008403
-0.3032742441 -0.1535850614 0.5587059855 4285811278
-0.3028779030 -0.1527643949 0.5579758286 4285679692
-0.3024811447 -0.1519451290 0.5572448373 4285613899
-0.3030119836 -0.1515915692 0.5582228303 4285219141
-0.3016862869 -0.1503108293 0.5557805896 4285284934
-0.3017524481 -0.1497261524 0.5559024811 4285482313
-0.3008897007 -0.1486821920 0.5543130636 4285482313
-0.3014196455 -0.1483270824 0.5552893281 4285416520
-0.3010204732 -0.1475145072 0.5545539856 4285482313
-0.3010855317 -0.1469300985 0.5546738505 4285416520
-0.3006856143 -0.1461194754 0.5539370775 4285416520
-0.3002852499 -0.1453102827 0.5531995296 4285219141
-0.3003494143 -0.1447265446 0.5533176661 4285219141
-0.2999482751 -0.1439193040 0.5525787473 4285284934
-0.2990815938 -0.1428912878 0.5509821177 4285219141
-0.2986795306 -0.1420878321 0.5502414107 4285219141
-0.2982770503 -0.1412858218 0.5494998693 4285219141
-0.2978741229 -0.1404852569 0.5487576127 4285153348
-0.2974707782 -0.1396861374 0.5480145216 4285152576
-0.2970669866 -0.1388884783 0.5472706556 4285086783
-0.2966627777 -0.1380922794 0.5465260148 4285810761
-0.2962581515 -0.1372975260 0.5457805991 4286534484
-0.2963190377 -0.1367192119 0.5458927751 4286008140
-0.2959136665 -0.1359264702 0.5451459289 4285876554
-0.2959739566 -0.1353483498 0.5452570319 4285613129
-0.2955678403 -0.1345576495 0.5445088744 4285415750
-0.2956275642 -0.1339797378 0.5446189046 4285086785
-0.2952207029 -0.1331910640 0.5438693762 4285284164
-0.2952798903 -0.1326133609 0.5439783931 4285349957
-0.2948722541 -0.1318267286 0.5432274342 4285349957
-0.2949308753 -0.1312492490 0.5433354378 4285284164
-0.2949892581 -0.1306714267 0.5434430242 4285284164
-0.2950474322 -0.1300932765 0.5435501337 4285481545
-0.2951053381 -0.1295147687 0.5436568260 4285481545
-0.2951630354 -0.1289359182 0.5437631011 4285219141
-0.2956875861 -0.1285598278 0.5447294712 4285021762
-0.2957448959 -0.1279793978 0.5448350310 4285284162
-0.2962692678 -0.1275998801 0.5458010435 4285415748
-0.2963261604 -0.1270178556 0.5459058881 4285810506
-0.2963828444 -0.1264354885 0.5460103154 4286073678
-0.2964392900 -0.1258527935 0.5461142659 4285285706
-0.2964954972 -0.1252697706 0.5462177992 4284627776
-0.2965514362 -0.1246864125 0.5463209152 4284430397
-0.2966071665 -0.1241027191 0.5464235544 4284956741
-0.2966626287 -0.1235187054 0.5465257764 4285088325
-0.2967178822 -0.1229343638 0.5466275215 4285022532
-0.2967728674 -0.1223496869 0.5467288494 4285154120
-0.2968276143 -0.1217646971 0.5468297005 4285548878
-0.2973504066 -0.1213705167 0.5477927923 4285747286
-0.2974047661 -0.1207839474 0.5478929281 4285878872
-0.2974588573 -0.1201970652 0.5479925871 4285945695
-0.2975127399 -0.1196098626 0.5480918288 4286143074
-0.2975663543 -0.1190223396 0.5481905937 4286143072
-0.2976197302 -0.1184345037 0.5482889414 4286208865
-0.2976728380 -0.1178463474 0.5483868122 4286537830
-0.2977257371 -0.1172578782 0.5484842658 4286603623
-0.2973094285 -0.1164853647 0.5477173328 4286735468
-0.2973617315 -0.1158972010 0.5478137136 4287196019
-0.2974137962 -0.1153087243 0.5479096174 4287261812
-0.2969964445 -0.1145389974 0.5471407175 4286867054
-0.2965786457 -0.1137708202 0.5463710427 4286603625
-0.2966298163 -0.1131832823 0.5464652777 4286472039
-0.2966807187 -0.1125954390 0.5465590954 4286932847
-0.2967313826 -0.1120072976 0.5466523767 4286998640
-0.2972514033 -0.1115951538 0.5476104021 4287459191
-0.2973016202 -0.1110054776 0.5477029681 4288314500
-0.2973516285 -0.1104155034 0.5477950573 4288643465
-0.2974013686 -0.1098252386 0.5478867292 4288380293
-0.2979207933 -0.1094072387 0.5488435626 4288445826
-0.2979701161 -0.1088154465 0.5489344597 4288708998
-0.2984892428 -0.1083940566 0.5498908162 4289497485
-0.2985381484 -0.1078007519 0.5499808788 4289234313
-0.2985867858 -0.1072071493 0.5500705242 4288313983
-0.2991054654 -0.1067811474 0.5510260463 4289169292
-0.2991536856 -0.1061860323 0.5511148572 4286077540
-0.2992016375 -0.1055906340 0.5512032509 4285682782
-0.2992493510 -0.1049949452 0.5512911081 4286407534
-0.2997673750 -0.1045631245 0.5522454977 4286999671
-0.2998146713 -0.1039659306 0.5523325801 4287590779
-0.2998616695 -0.1033684537 0.5524191856 4287459193
-0.2999084294 -0.1027707011 0.5525053144 4288247935
-0.2999549210 -0.1021726653 0.5525909662 4288774279
-0.3000011742 -0.1015743539 0.5526761413 4288575872
-0.3000471592 -0.1009757668 0.5527608991 4289431181
-0.3000928760 -0.1003769040 0.5528451204 4289563280
-0.3001383543 -0.0997777730 0.5529288650 4289563280
-0.3006548285 -0.0993340611 0.5538803339 4288707971
-0.3011711538 -0.0988881961 0.5548315644 4289036936
-0.3016873598 -0.0984401852 0.5557825565 4289299595
-0.3017320037 -0.0978371426 0.5558648109 4289628560
-0.3022479117 -0.0973857641 0.5568152070 4290483353
-0.3027637005 -0.0969322398 0.5577654243 4290154388
-0.3032793701 -0.0964765549 0.5587154031 4288839044
-0.3033231497 -0.0958696231 0.5587961078 4288641665
-0.3038384914 -0.0954105854 0.5597454906 4288312700
-0.3038818240 -0.0948021933 0.5598253012 4287720563
-0.3043968379 -0.0943397954 0.5607740879 4287259496
-0.3044397235 -0.0937299356 0.5608530641 4288575356
-0.3049543798 -0.0932641923 0.5618011951 4289891732
-0.3045246601 -0.0925094485 0.5610095859 4288773251
-0.3045667410 -0.0918988213 0.5610870719 4288309355
-0.3050808012 -0.0914294794 0.5620341301 4288243562
-0.3051224053 -0.0908173993 0.5621107817 4287980396
-0.3061085343 -0.0904843435 0.5639274120 4289362049
-0.3061497211 -0.0898698717 0.5640033484 4289627533
-0.3066631854 -0.0893928930 0.5649492145 4288640638
-0.3067038953 -0.0887769833 0.5650241971 4287456611
-0.3072169721 -0.0882966667 0.5659694672 4287785576
-0.3082026243 -0.0879490972 0.5677852631 4288249728
-0.3087154627 -0.0874635503 0.5687300563 4289565588
-0.3818362057 -0.2031651586 0.7048787475 4287398277
-0.3814630806 -0.2021842301 0.7041899562 4285292901
-0.3820132911 -0.2016923279 0.7052056789 4285488216
-0.3816393912 -0.2007121444 0.7045154572 4285422423
-0.3798785806 -0.1990069449 0.7012649179 4285682510
-0.3790411353 -0.1977907866 0.6997189522 4285353545
-0.3772782683 -0.1960970759 0.6964646578 4285482821
-0.3103079796 -0.1606516093 0.5728359222 4285351235
-0.3071404099 -0.1583817452 0.5669885278 4285482311
-0.3053591251 -0.1568368971 0.5637002587 4285613897
-0.3045023382 -0.1557722837 0.5621185899 4285745485
-0.3027191460 -0.1542391777 0.5588268042 4285942864
-0.3023238480 -0.1534176618 0.5580970645 4285811276
-0.3014650345 -0.1523635238 0.5565116405 4285613897
-0.3024582863 -0.1522451639 0.5583451986 4285350727
-0.3011353016 -0.1509615928 0.5559029579 4285021762
-0.3012016416 -0.1503770649 0.5560254455 4285021762
-0.3012677729 -0.1497921497 0.5561475158 4285284934
-0.3008700609 -0.1489773095 0.5554133058 4285416520
-0.3009356260 -0.1483925283 0.5555343628 4285482313
-0.3005371690 -0.1475796252 0.5547987819 4285416520
-0.3006021380 -0.1469949782 0.5549187660 4285284934
-0.3002029359 -0.1461840272 0.5541817546 4285219141
-0.2998032570 -0.1453744918 0.5534439683 4285153348
-0.2998673618 -0.1447905302 0.5535623431 4285219141
-0.2994669676 -0.1439829767 0.5528231859 4285284934
-0.2986017168 -0.1429545134 0.5512259007 4285219141
-0.2982003689 -0.1421507299 0.5504849553 4285219141
-0.2977985740 -0.1413483918 0.5497432351 4285219141
-0.2973963320 -0.1405474991 0.5490007401 4285087555
-0.2969937027 -0.1397480667 0.5482574701 4285152576
-0.2965906262 -0.1389500797 0.5475133657 4284955197
-0.2961871326 -0.1381535381 0.5467684865 4285547589
-0.2957831919 -0.1373584569 0.5460228324 4286402898
-0.2958440185 -0.1367799044 0.5461351275 4285942092
-0.2954393327 -0.1359868497 0.5453881025 4285744713
-0.2954995930 -0.1354085058 0.5454993248 4285415750
-0.2950941920 -0.1346174628 0.5447509289 4285218371
-0.2946883440 -0.1338278949 0.5440016985 4285152578
-0.2947477102 -0.1332503110 0.5441113114 4285349957
-0.2943411171 -0.1324627995 0.5433607697 4285349957
-0.2943999469 -0.1318854243 0.5434693098 4285284164
-0.2944585085 -0.1313077211 0.5435774922 4285284164
-0.2945168614 -0.1307296604 0.5436851978 4285284164
-0.2945749760 -0.1301512718 0.5437924266 4285349959
-0.2946328521 -0.1295725256 0.5438992977 4285349959
-0.2946904898 -0.1289934516 0.5440056920 4284956226
-0.2947479188 -0.1284140199 0.5441116691 4284824640
-0.2952715456 -0.1280365437 0.5450783372 4285219139
-0.2953285575 -0.1274555326 0.5451835990 4285482311
-0.2958519757 -0.1270746142 0.5461498499 4285679692
-0.2959086299 -0.1264920086 0.5462543964 4285679692
-0.2954981923 -0.1257104874 0.5454967618 4284956741
-0.2955542803 -0.1251281351 0.5456002355 4284233018
-0.2960771024 -0.1247422099 0.5465654135 4284167995
-0.2961327732 -0.1241582781 0.5466681719 4284562753
-0.2961882055 -0.1235740185 0.5467705131 4284759362
-0.2962433994 -0.1229894385 0.5468724370 4284693569
-0.2962983549 -0.1224045232 0.5469738841 4284760132
-0.2963530719 -0.1218192875 0.5470748544 4285220683
-0.2964075506 -0.1212337315 0.5471754074 4285615700
-0.2964617908 -0.1206478477 0.5472755432 4285813079
-0.2965157628 -0.1200616434 0.5473752022 4285616728
-0.2965695262 -0.1194751188 0.5474743843 4285814107
-0.2966230214 -0.1188882813 0.5475731492 4285879387
-0.2966762781 -0.1183011234 0.5476714969 4286010973
-0.2967292666 -0.1177136526 0.5477693081 4286208352
-0.2967820466 -0.1171258613 0.5478667021 4286274145
-0.2963663638 -0.1163539514 0.5470994115 4286406246
-0.2964185476 -0.1157664657 0.5471957326 4286866797
-0.2964704931 -0.1151786745 0.5472916365 4286801261
-0.2965222001 -0.1145905703 0.5473870635 4286603882
-0.2961051166 -0.1138220653 0.5466171503 4286603625
-0.2961562574 -0.1132342815 0.5467115045 4286537832
-0.2957384288 -0.1124679521 0.5459402204 4286603882
-0.2962577641 -0.1120577976 0.5468989015 4286143331
-0.2963081300 -0.1114691123 0.5469918847 4286669675
-0.2963582575 -0.1108801216 0.5470844507 4287853949
-0.2968771458 -0.1104653403 0.5480422974 4288051328
-0.2969268560 -0.1098748222 0.5481340885 4287919742
-0.2974454761 -0.1094566509 0.5490914583 4287853689
-0.2974947691 -0.1088646129 0.5491824746 4287722103
-0.2980131209 -0.1084430516 0.5501393080 4288248188
-0.2980619967 -0.1078494862 0.5502295494 4288313981
-0.2981106043 -0.1072556302 0.5503192544 4288182397
-0.2981589437 -0.1066614836 0.5504085422 4288971913
-0.2986766696 -0.1062340885 0.5513643026 4285222229
-0.2987245917 -0.1056384295 0.5514527559 4284564299
-0.2987722754 -0.1050424874 0.5515407324 4285289053
-0.2988196909 -0.1044462621 0.5516282916 4285881190
-0.2993367612 -0.1040130332 0.5525828600 4285617759
-0.2993837595 -0.1034153029 0.5526695848 4285420380
-0.2994304895 -0.1028172970 0.5527558327 4287787384
-0.2994769514 -0.1022190079 0.5528416038 4288445314
-0.2995231450 -0.1016204357 0.5529268980 4288971143
-0.2995691001 -0.1010215953 0.5530117154 4289365901
-0.2996148169 -0.1004224718 0.5530961156 4289300108
-0.2996602356 -0.0998230800 0.5531799793 4289234315
-0.3001759350 -0.0993791819 0.5541319251 4288576385
-0.3006914854 -0.0989331305 0.5550836325 4288905350
-0.3012069166 -0.0984849259 0.5560351610 4289168009
-0.3012515306 -0.0978816226 0.5561175346 4289628560
-0.3017666638 -0.0974300578 0.5570684671 4290023572
-0.3022816479 -0.0969763324 0.5580191612 4289760400
-0.3027965426 -0.0965204537 0.5589696169 4288839044
-0.3028402925 -0.0959132612 0.5590504408 4288904837
-0.3033548594 -0.0954540297 0.5600003004 4288707458
-0.3033981621 -0.0948453695 0.5600802898 4288049528
-0.3039124012 -0.0943827778 0.5610295534 4287325289
-0.3039552271 -0.0937726498 0.5611086488 4288312184
-0.3044691384 -0.0933067054 0.5620573163 4289496204
-0.3040401340 -0.0925516263 0.5612653494 4288706688
-0.3040821850 -0.0919407383 0.5613429546 4288177514
-0.3045954704 -0.0914711878 0.5622904897 4288045928
-0.3046370447 -0.0908588395 0.5623672605 4287914603
-0.3056216240 -0.0905256495 0.5641848445 4288901498
-0.3056628108 -0.0899109095 0.5642608404 4289363846
-0.3061754704 -0.0894337222 0.5652072430 4288574330
-0.3066879809 -0.0889543891 0.5661533475 4287653733
-0.3067284524 -0.0883370116 0.5662280917 4287719526
-0.3077125847 -0.0879892930 0.5680447817 4287920247
-0.3086966574 -0.0876375362 0.5698614120 4289236107
-0.3775320649 -0.2012877464 0.6983650923 4286674808
-0.3780809045 -0.2008033097 0.6993803382 4285161569
-0.3777073324 -0.1998286098 0.6986892819 4285487701
-0.3777945340 -0.1990982741 0.6988506317 4285553494
-0.3769586682 -0.1978830248 0.6973044276 4285616971
-0.3761221170 -0.1966708302 0.6957569718 4285288006
-0.3734384477 -0.1945000440 0.6907926202 4285417028
-0.3098074794 -0.1607220322 0.5730870366 4285219649
-0.3066450953 -0.1584511995 0.5672371984 4285416518
-0.3048667610 -0.1569057107 0.5639475584 4285548104
-0.3040114045 -0.1558406502 0.5623653531 4285679692
-0.3031553924 -0.1547787935 0.5607818961 4285877071
-0.3022987545 -0.1537201107 0.5591972470 4285745483
-0.3019038141 -0.1528987885 0.5584666729 4285482311
-0.3010460138 -0.1518456191 0.5568798780 4285219141
-0.3015751541 -0.1514927000 0.5578587651 4284890176
-0.3007163703 -0.1504432410 0.5562701821 4284824383
-0.3003854454 -0.1490429342 0.5556579828 4285548106
-0.3004509509 -0.1484579295 0.5557791591 4285679692
-0.3005162179 -0.1478725374 0.5558999181 4285482313
-0.3001181185 -0.1470598131 0.5551635027 4285219141
-0.2997196019 -0.1462485343 0.5544263124 4285021762
-0.2993206382 -0.1454386711 0.5536882877 4285153348
-0.2993847132 -0.1448544860 0.5538067818 4285350727
-0.2989850044 -0.1440465897 0.5530673862 4285416520
-0.2981212139 -0.1430177093 0.5514695644 4285547336
-0.2977205515 -0.1422135979 0.5507283807 4285415750
-0.2973194420 -0.1414109319 0.5499864221 4285284164
-0.2969179153 -0.1406097114 0.5492436886 4285086785
-0.2965159714 -0.1398099363 0.5485001802 4285020990
-0.2961136103 -0.1390116215 0.5477558970 4284757818
-0.2957108319 -0.1382147521 0.5470107794 4285481541
-0.2953076065 -0.1374193579 0.5462648869 4286271057
-0.2953683734 -0.1368405670 0.5463773012 4285810506
-0.2949644029 -0.1360471845 0.5456300378 4285415748
-0.2950246334 -0.1354686022 0.5457414389 4284955969
-0.2946199179 -0.1346772313 0.5449928045 4284758590
-0.2942147851 -0.1338873506 0.5442433953 4284955969
-0.2942740917 -0.1333095282 0.5443531275 4285153348
-0.2938682139 -0.1325216740 0.5436022878 4285153348
-0.2939269841 -0.1319440752 0.5437110066 4285153348
-0.2939855158 -0.1313661337 0.5438193083 4285153348
-0.2940438390 -0.1307878494 0.5439271927 4285087555
-0.2941018939 -0.1302092224 0.5440346003 4285153348
-0.2936942875 -0.1294251382 0.5432806015 4285153348
-0.2937518060 -0.1288467348 0.5433869958 4284955715
-0.2938090861 -0.1282679886 0.5434929132 4284824129
-0.2943318188 -0.1278912723 0.5444599390 4285219141
-0.2943887115 -0.1273109466 0.5445651412 4285613899
-0.2949112654 -0.1269308031 0.5455317497 4285679438
-0.2949677706 -0.1263488829 0.5456362963 4285482059
-0.2950240374 -0.1257666349 0.5457403660 4284693315
-0.2946139276 -0.1249862835 0.5449817181 4283969592
-0.2946696281 -0.1244042814 0.5450847745 4284166971
-0.2951914072 -0.1240178794 0.5460500121 4284430143
-0.2952467203 -0.1234342977 0.5461522937 4284430397
-0.2953017950 -0.1228503957 0.5462541580 4284430397
-0.2953566313 -0.1222661659 0.5463556051 4284627776
-0.2954112291 -0.1216816157 0.5464565754 4285022534
-0.2954655588 -0.1210967377 0.5465571284 4285417808
-0.2955196798 -0.1205115318 0.5466572046 4285680980
-0.2960404754 -0.1201154664 0.5476205945 4285484629
-0.2960941792 -0.1195287034 0.5477199554 4285550422
-0.2961476445 -0.1189416200 0.5478188396 4285616215
-0.2962008715 -0.1183542162 0.5479172468 4285813594
-0.2962538302 -0.1177664995 0.5480152369 4286010973
-0.2958391905 -0.1169936433 0.5472482443 4286076766
-0.2958915830 -0.1164062247 0.5473451614 4286208865
-0.2959437370 -0.1158184931 0.5474416614 4286603623
-0.2959956527 -0.1152304560 0.5475376844 4286603625
-0.2955796421 -0.1144609973 0.5467681289 4286537832
-0.2956309617 -0.1138732731 0.5468630791 4286669418
-0.2956820428 -0.1132852435 0.5469575524 4286472039
-0.2952649593 -0.1125185862 0.5461860299 4286274917
-0.2953154743 -0.1119308844 0.5462794900 4285682780
-0.2958338261 -0.1115193292 0.5472383499 4286011745
-0.2958839238 -0.1109300926 0.5473309755 4287130226
-0.2964020073 -0.1105151400 0.5482893586 4287261812
-0.2964516878 -0.1099243760 0.5483812690 4287327605
-0.2969695330 -0.1095060334 0.5493391752 4287327345
-0.2970187962 -0.1089137346 0.5494303107 4286998380
-0.2975363433 -0.1084920019 0.5503876805 4287457902
-0.2975851893 -0.1078981906 0.5504779816 4287918453
-0.2976337671 -0.1073040813 0.5505678654 4287985018
-0.2976820767 -0.1067096815 0.5506572723 4288445569
-0.2977301478 -0.1061149985 0.5507462025 4284366920
-0.2977779806 -0.1055200249 0.5508346558 4283445818
-0.2982945442 -0.1050899997 0.5517902374 4284433744
-0.2983419299 -0.1044935212 0.5518778563 4284960088
-0.2983890772 -0.1038967520 0.5519650578 4284366920
-0.2989051938 -0.1034621298 0.5529197454 4283774783
-0.2989518940 -0.1028638631 0.5530061722 4287129454
-0.2989983261 -0.1022653133 0.5530920625 4287853177
-0.2990444899 -0.1016664878 0.5531774759 4288773251
-0.2990904152 -0.1010673866 0.5532624125 4288707458
-0.2991360724 -0.1004680097 0.5533468723 4288575872
-0.2996511757 -0.1000251397 0.5542997122 4288575872
-0.2996963859 -0.0994242728 0.5543833375 4288246907
-0.3002111614 -0.0989780277 0.5553355813 4288444286
-0.3007258177 -0.0985296369 0.5562875867 4288312700
-0.3007704020 -0.0979260728 0.5563700795 4288970630
-0.3012847304 -0.0974743143 0.5573214889 4289693837
-0.3017989695 -0.0970203951 0.5582727194 4289299079
-0.3023130596 -0.0965643302 0.5592237115 4288509309
-0.3023567796 -0.0959568694 0.5593045950 4288838274
-0.3028705716 -0.0954974368 0.5602549911 4288969860
-0.3029138446 -0.0948885158 0.5603350401 4288180344
-0.3034272790 -0.0944257230 0.5612848401 4287193703
-0.3034701049 -0.0938153341 0.5613640547 4287851633
-0.3039832115 -0.0933491886 0.5623131990 4289035907
-0.3035549521 -0.0925937817 0.5615209341 4288443770
-0.3035969436 -0.0919826180 0.5615986586 4287915625
-0.3041094542 -0.0915128663 0.5625467300 4287784039
-0.3041509986 -0.0909002572 0.5626236200 4288046957
-0.3051340580 -0.0905669183 0.5644420385 4288507508
-0.3051752150 -0.0899519101 0.5645181537 4289166721
-0.3056870997 -0.0894745141 0.5654650331 4288574584
-0.3061988354 -0.0889949799 0.5664116740 4287718756
-0.3067104220 -0.0885132924 0.5673580170 4287652963
-0.3072218597 -0.0880294666 0.5683041215 4287721328
-0.3082044125 -0.0876775533 0.5701216459 4288905602
-0.3749924004 -0.2011176050 0.6950952411 4292136664
-0.3760003746 -0.2008838356 0.6969636679 4286148464
-0.3756275475 -0.1999110281 0.6962726116 4285490534
-0.3752542138 -0.1989395022 0.6955806017 4285619542
-0.3744198680 -0.1977260411 0.6940339804 4285553749
-0.3731241524 -0.1962733418 0.6916322112 4285551178
-0.3704452813 -0.1941012442 0.6866666079 4285288006
-0.3092358708 -0.1613926291 0.5732073188 4285417030
-0.3060795963 -0.1591149867 0.5673567653 4285088065
-0.3043048382 -0.1575656682 0.5640670657 4285219141
-0.3043737113 -0.1569744647 0.5641946793 4285350727
-0.3035198152 -0.1559089720 0.5626118779 4285548106
-0.3026652634 -0.1548466682 0.5610278249 4285745485
-0.3018100560 -0.1537875682 0.5594426394 4285613896
-0.3014158010 -0.1529659033 0.5587118864 4285219138
-0.3014828265 -0.1523790061 0.5588360429 4284956226
-0.3010877967 -0.1515592635 0.5581038594 4284758847
-0.3006923497 -0.1507409364 0.5573708415 4284758847
-0.3002964854 -0.1499240100 0.5566370487 4285153605
-0.2999001741 -0.1491084993 0.5559024811 4285613899
-0.2999656498 -0.1485232711 0.5560237765 4285679692
-0.2995685637 -0.1477096975 0.5552877784 4285416520
-0.2996334732 -0.1471246034 0.5554080606 4285153348
-0.2992356420 -0.1463129818 0.5546706319 4285021762
-0.2988373935 -0.1455028057 0.5539324284 4285219141
-0.2984386981 -0.1446940452 0.5531934500 4285613129
-0.2980395854 -0.1438867301 0.5524536371 4285744715
-0.2976400554 -0.1430808455 0.5517130494 4285678922
-0.2972400784 -0.1422764063 0.5509716272 4285481543
-0.2968397141 -0.1414734125 0.5502294898 4285218371
-0.2964388728 -0.1406718642 0.5494865179 4285020992
-0.2960376441 -0.1398717612 0.5487427711 4284889406
-0.2956359684 -0.1390731186 0.5479981899 4284757820
-0.2952338755 -0.1382759362 0.5472528934 4285547334
-0.2948313653 -0.1374801993 0.5465067625 4286073678
-0.2948921025 -0.1369011849 0.5466193557 4285350725
-0.2944888473 -0.1361074746 0.5458718538 4284824381
-0.2940851450 -0.1353152245 0.5451235771 4284627004
-0.2941449881 -0.1347369701 0.5452345014 4284758590
-0.2937405705 -0.1339467466 0.5444848537 4284758590
-0.2937998474 -0.1333687007 0.5445947647 4285021762
-0.2933946848 -0.1325805336 0.5438436866 4285087555
-0.2929890752 -0.1317938268 0.5430918932 4285153348
-0.2930474877 -0.1312165707 0.5432001352 4285087812
-0.2931056619 -0.1306389570 0.5433079600 4285022019
-0.2931635976 -0.1300610155 0.5434153676 4285087812
-0.2932212949 -0.1294827163 0.5435222983 4285153605
-0.2932787538 -0.1289040893 0.5436288118 4284955715
-0.2933360040 -0.1283251047 0.5437349081 4284824129
-0.2933929861 -0.1277457923 0.5438405871 4285153094
-0.2939147949 -0.1273676753 0.5448077917 4285547852
-0.2939714193 -0.1267867833 0.5449127555 4285745231
-0.2940278053 -0.1262055337 0.5450172424 4285416266
-0.2940839529 -0.1256239712 0.5451213121 4284693056
-0.2936744392 -0.1248442084 0.5443622470 4284232505
-0.2937299907 -0.1242628992 0.5444652438 4284166712
-0.2942509353 -0.1238772571 0.5454308391 4284364091
-0.2943060994 -0.1232943684 0.5455331206 4284364091
-0.2943610549 -0.1227111444 0.5456349850 4284429884
-0.2944157720 -0.1221276000 0.5457363725 4284496190
-0.2944702208 -0.1215437278 0.5458373427 4284825155
-0.2945244610 -0.1209595278 0.5459378362 4285285452
-0.2945784330 -0.1203750148 0.5460379124 4285548624
-0.2950983644 -0.1199797168 0.5470016599 4285352528
-0.2951519489 -0.1193936318 0.5471009612 4285352528
-0.2952052653 -0.1188072264 0.5471998453 4285484114
-0.2952583730 -0.1182205081 0.5472982526 4285813079
-0.2953112125 -0.1176334769 0.5473962426 4286142044
-0.2953638136 -0.1170461252 0.5474937558 4286207837
-0.2949495018 -0.1162744835 0.5467257500 4286208352
-0.2950015366 -0.1156874374 0.5468221903 4286471524
-0.2950533330 -0.1151000857 0.5469182134 4286143072
-0.2946379185 -0.1143312305 0.5461481810 4286274658
-0.2946891487 -0.1137441844 0.5462431312 4286406246
-0.2947401106 -0.1131568402 0.5463376045 4286077281
-0.2947908342 -0.1125691906 0.5464316607 4286077281
-0.2948413193 -0.1119812354 0.5465251803 4285814109
-0.2948915362 -0.1113929823 0.5466183424 4285814366
-0.2954089344 -0.1109800264 0.5475773811 4286143331
-0.2959262431 -0.1105649099 0.5485363007 4286538089
-0.2959758937 -0.1099738926 0.5486282706 4286867054
-0.2964929342 -0.1095553786 0.5495867133 4287063916
-0.2965421677 -0.1089628339 0.5496779680 4286800744
-0.2970589399 -0.1085409224 0.5506358743 4287194730
-0.2971077263 -0.1079468578 0.5507262945 4287786867
-0.2971562743 -0.1073524952 0.5508162975 4287656053
-0.2972045839 -0.1067578495 0.5509058237 4287392881
-0.2972525954 -0.1061629057 0.5509948730 4283380025
-0.2973003983 -0.1055676788 0.5510834455 4282524716
-0.2978161871 -0.1051374823 0.5520395041 4283775555
-0.2978635430 -0.1045407429 0.5521273017 4284367692
-0.2979106307 -0.1039437205 0.5522145629 4283972162
-0.2984259725 -0.1035089120 0.5531697869 4283051060
-0.2984726429 -0.1029103920 0.5532563329 4286471524
-0.2985190451 -0.1023115888 0.5533423424 4287326833
-0.2985651791 -0.1017125025 0.5534278750 4288246137
-0.2986110747 -0.1011131480 0.5535129309 4288048758
-0.2986567020 -0.1005135104 0.5535975099 4287982965
-0.2991710007 -0.1000704542 0.5545508265 4288114551
-0.2992161810 -0.0994693339 0.5546345711 4288048758
-0.2997301817 -0.0990229025 0.5555873513 4287719793
-0.2997749150 -0.0984202921 0.5556702614 4287127656
-0.3002885878 -0.0979704931 0.5566224456 4287719793
-0.3008021712 -0.0975185409 0.5575743914 4288969601
-0.3013156056 -0.0970644280 0.5585260987 4288443257
-0.3018289208 -0.0966081694 0.5594775677 4287719536
-0.3018726110 -0.0960004479 0.5595586300 4288048501
-0.3023855984 -0.0955408216 0.5605095029 4288377464
-0.3024288416 -0.0949316323 0.5605896711 4287785327
-0.3029415309 -0.0944686383 0.5615399480 4286930018
-0.3029842973 -0.0938579887 0.5616192818 4287456362
-0.3034966290 -0.0933916420 0.5625689030 4288706429
-0.3035389483 -0.0927795172 0.5626473427 4288245878
-0.3035809994 -0.0921671465 0.5627253056 4287784298
-0.3036227822 -0.0915545225 0.5628027916 4287784298
-0.3041343689 -0.0910824165 0.5637511015 4288245619
-0.3046458364 -0.0906081647 0.5646991134 4288245619
-0.3051571250 -0.0901317596 0.5656468868 4289035133
-0.3051980436 -0.0895152837 0.5657227039 4288442996
-0.3057090044 -0.0890355408 0.5666698217 4287586657
-0.3062198162 -0.0885536447 0.5676166415 4287586657
-0.3072009087 -0.0882046819 0.5694352984 4287654252
-0.3081820011 -0.0878516734 0.5712538362 4288575354
-0.3086924851 -0.0873614401 0.5722000599 4289041562
-0.3730053306 -0.2004645914 0.6928383708 4291281355
-0.3735519648 -0.1999874413 0.6938536763 4285884779
-0.3736389577 -0.1992629170 0.6940152645 4285753193
-0.3728063107 -0.1980494857 0.6924687028 4285685335
-0.3719729483 -0.1968391091 0.6909207702 4285422163
-0.3706789911 -0.1953893900 0.6885173321 4285551178
-0.3680883348 -0.1925045401 0.6837053299 4285548616
-0.3088045418 -0.1608627141 0.5735886693 4285088065
-0.3056524992 -0.1585899591 0.5677338839 4285152576
-0.3038800359 -0.1570431739 0.5644416213 4285218369
-0.3030275702 -0.1559772491 0.5628582239 4285350725
-0.3021744490 -0.1549145132 0.5612736344 4285679690
-0.3017814457 -0.1540902257 0.5605436563 4285482311
-0.3013879955 -0.1532673389 0.5598128438 4285153346
-0.3009941280 -0.1524458528 0.5590811968 4284758847
-0.3015218973 -0.1520908922 0.5600615144 4284693054
-0.3002050519 -0.1508071125 0.5576155782 4284890433
-0.3002711236 -0.1502206177 0.5577383041 4285219398
-0.2994142771 -0.1491740346 0.5561467409 4285416777
-0.2999411225 -0.1488175094 0.5571253300 4285285191
-0.2990833223 -0.1477746665 0.5555320382 4285153348
-0.2991481721 -0.1471893489 0.5556524992 4284955969
-0.2987510562 -0.1463773996 0.5549148321 4285219141
-0.2983534932 -0.1455668807 0.5541763902 4285416520
-0.2979555130 -0.1447577924 0.5534371734 4285613899
-0.2975571156 -0.1439501494 0.5526971221 4285613899
-0.2966961265 -0.1429213136 0.5510979295 4285613129
-0.2962967753 -0.1421174556 0.5503560901 4285481543
-0.2958969772 -0.1413150430 0.5496135354 4285284164
-0.2959592044 -0.1407339722 0.5497291088 4285152578
-0.2955586612 -0.1399335414 0.5489851236 4284955199
-0.2951577008 -0.1391345710 0.5482403636 4284889406
-0.2952190340 -0.1385542303 0.5483543277 4285547336
-0.2948173285 -0.1377572566 0.5476081371 4285744715
-0.2944152057 -0.1369617581 0.5468611717 4284955969
-0.2940126359 -0.1361677200 0.5461134911 4284429625
-0.2936096489 -0.1353751421 0.5453649759 4284627004
-0.2936694622 -0.1347966492 0.5454760194 4284955969
-0.2932657301 -0.1340061128 0.5447261333 4284692797
-0.2933249772 -0.1334278286 0.5448361635 4284824383
-0.2929205000 -0.1326393336 0.5440849066 4284890176
-0.2925156355 -0.1318523139 0.5433328152 4285153348
-0.2925739884 -0.1312748045 0.5434412360 4285153605
-0.2926321030 -0.1306969672 0.5435492396 4285087812
-0.2926900089 -0.1301187873 0.5436567664 4285153605
-0.2927476764 -0.1295402646 0.5437638760 4285087812
-0.2928051054 -0.1289613843 0.5438705087 4284955715
-0.2928622961 -0.1283821762 0.5439767241 4284824129
-0.2929192483 -0.1278026402 0.5440825224 4285087301
-0.2929759622 -0.1272227466 0.5441879034 4285613645
-0.2930324376 -0.1266425252 0.5442928076 4285811537
-0.2930886745 -0.1260619760 0.5443972945 4285350986
-0.2931447029 -0.1254810840 0.5445013046 4284627263
-0.2932004631 -0.1248998642 0.5446048975 4284298298
-0.2932560146 -0.1243183091 0.5447080731 4284232505
-0.2933112979 -0.1237364262 0.5448107719 4284298298
-0.2933663428 -0.1231542155 0.5449130535 4284166971
-0.2934211791 -0.1225716770 0.5450148582 4284232764
-0.2934757471 -0.1219888180 0.5451162457 4284233534
-0.2935300767 -0.1214056239 0.5452171564 4284562499
-0.2935841978 -0.1208221167 0.5453176498 4285088327
-0.2941034138 -0.1204288304 0.5462820530 4285285706
-0.2941570878 -0.1198437512 0.5463818312 4284957257
-0.2942105532 -0.1192583516 0.5464810729 4284957257
-0.2947293818 -0.1188604087 0.5474447608 4285220942
-0.2947824299 -0.1182734445 0.5475433469 4285681493
-0.2948352396 -0.1176861674 0.5476414561 4285944665
-0.2944219708 -0.1169135794 0.5468737483 4286076251
-0.2944742143 -0.1163266003 0.5469707847 4286207838
-0.2945261896 -0.1157393157 0.5470674038 4286339424
-0.2941118479 -0.1149695069 0.5462977290 4285682008
-0.2941632867 -0.1143825278 0.5463932753 4285682008
-0.2942144573 -0.1137952432 0.5464883447 4285814109
-0.2942653894 -0.1132076532 0.5465829372 4285682523
-0.2943160832 -0.1126197502 0.5466771126 4285945695
-0.2943665087 -0.1120315492 0.5467707515 4285748316
-0.2944166958 -0.1114430502 0.5468640327 4285616730
-0.2949333191 -0.1110299304 0.5478236079 4285616730
-0.2954498529 -0.1106146425 0.5487830043 4286208865
-0.2954994440 -0.1100233719 0.5488751531 4286603623
-0.2955487967 -0.1094318107 0.5489668250 4286931560
-0.2960648835 -0.1090118960 0.5499254465 4286799974
-0.2961138189 -0.1084187999 0.5500163436 4287194473
-0.2966296375 -0.1079954877 0.5509744287 4287720817
-0.2966781557 -0.1074008793 0.5510645509 4287392111
-0.2967264056 -0.1068059802 0.5511541963 4286405216
-0.2967744172 -0.1062107831 0.5512433648 4283248182
-0.2968221605 -0.1056153029 0.5513320565 4282590252
-0.2973371744 -0.1051849276 0.5522886515 4283643199
-0.2973845005 -0.1045879349 0.5523765087 4283643199
-0.2974315584 -0.1039906591 0.5524639487 4283642940
-0.2979460955 -0.1035556719 0.5534197092 4282590252
-0.2979927361 -0.1029568911 0.5535063148 4285681493
-0.2980391085 -0.1023578271 0.5535924435 4287128939
-0.2980852127 -0.1017584950 0.5536780953 4287851379
-0.2981310785 -0.1011588797 0.5537632704 4287325035
-0.2981766760 -0.1005589813 0.5538479686 4286930277
-0.2986901700 -0.1001157388 0.5548017621 4286996070
-0.2987353504 -0.0995143577 0.5548856258 4286996070
-0.2992485464 -0.0990677401 0.5558388829 4286732898
-0.2992932498 -0.0984648690 0.5559219718 4286403933
-0.2993377149 -0.0978617370 0.5560045242 4287193449
-0.2998504043 -0.0974105299 0.5569568276 4287983219
