VERSION 0.7
FIELDS x y z rgba
SIZE 4 4 4 4
TYPE F F F U
COUNT 1 1 1 1
WIDTH 920
HEIGHT 1
VIEWPOINT 0.0 0.0 0.0 1.0 0.0 0.0 0.0
POINTS 920
DATA ascii
-0.2006339133 -0.0900381058 0.4899062812 4280493613
-0.2006679177 -0.0895089507 0.4899893105 4280493613
-0.2014492154 -0.0893109292 0.4918971062 4280559406
-0.2014829665 -0.0887792632 0.4919795394 4280625199
-0.2018904090 -0.0884110630 0.4929744005 4280690992
-0.2022977620 -0.0880406201 0.4939690828 4280756785
-0.2023310661 -0.0875061825 0.4940504134 4280756785
-0.2023641765 -0.0869714916 0.4941312671 4280756785
-0.2023970932 -0.0864365324 0.4942116439 4280888371
-0.2024298161 -0.0859013200 0.4942915440 4280888371
-0.2024623603 -0.0853658393 0.4943709671 4281019955
-0.2036175877 -0.0853005126 0.4971918166 4281085748
-0.2025268376 -0.0842941180 0.4945284426 4281151541
-0.2025588006 -0.0837578699 0.4946064651 4281283127
-0.2029650211 -0.0833752006 0.4955984056 4281348920
-0.2029966563 -0.0828374624 0.4956756234 4281348920
-0.2030593157 -0.0817612335 0.4958286285 4281480506
-0.2034650445 -0.0813725963 0.4968193471 4281612092
-0.2038707137 -0.0809817314 0.4978098869 4281612092
-0.2042762935 -0.0805886388 0.4988002181 4281546299
-0.2043069005 -0.0800464302 0.4988749921 4281546299
-0.2047122568 -0.0796498582 0.4998647869 4281612092
-0.2051175237 -0.0792510509 0.5008543730 4281677885
-0.2051476538 -0.0787061304 0.5009279251 4281612094
-0.2059277743 -0.0784467459 0.5028328300 4281677887
-0.2059576213 -0.0778993517 0.5029057264 4281678400
-0.2063624710 -0.0774926171 0.5038942695 4281678400
-0.2067672312 -0.0770836473 0.5048825741 4281744193
-0.2067965716 -0.0765335485 0.5049542189 4281875779
-0.2072010934 -0.0761211142 0.5059419870 4282007365
-0.2072300762 -0.0755695477 0.5060127974 4282073158
-0.2072588801 -0.0750177577 0.5060830712 4281349435
-0.2080385089 -0.0747355372 0.5079867840 4281809986
-0.2084425688 -0.0743151829 0.5089734197 4281809986
-0.2092221528 -0.0740255043 0.5108770132 4282007365
-0.2092503905 -0.0734677985 0.5109459162 4282073156
-0.2092784196 -0.0729098618 0.5110144019 4288126112
-0.2081274986 -0.1627297550 0.5095860958 4289244080
-0.2081856132 -0.1622088552 0.5097283721 4286678153
-0.2082435936 -0.1616875082 0.5098703504 4286546567
-0.2079385072 -0.1608849764 0.5091233850 4284046433
-0.2079960704 -0.1603636742 0.5092642903 4280230439
-0.2080534697 -0.1598419547 0.5094048381 4279769888
-0.2077475339 -0.1590417475 0.5086557865 4279638302
-0.2081678212 -0.1587972045 0.5096848011 4279440923
-0.2074979693 -0.1577217430 0.5080447197 4279440923
-0.2075545490 -0.1572001278 0.5081832409 4279375130
-0.2068837881 -0.1561293006 0.5065409541 4279637788
-0.2065761685 -0.1553351730 0.5057877898 4279637788
-0.2062681913 -0.1545424610 0.5050337315 4279703581
-0.2059598714 -0.1537511647 0.5042787790 4279703581
-0.2060151696 -0.1532320082 0.5044142008 4279703581
-0.2046139985 -0.1516332030 0.5009835362 4279703581
-0.2050327808 -0.1513857841 0.5020088553 4279703581
-0.2039944828 -0.1500642151 0.4994666874 4279703581
-0.2014979720 -0.1476795524 0.4933541417 4279703581
-0.2030091137 -0.1482348144 0.4970540702 4279637788
-0.1990523785 -0.1448041648 0.4873662889 4279637788
-0.1983753443 -0.1437719911 0.4857085943 4279703581
-0.1980625242 -0.1430064589 0.4849426746 4279637788
-0.1966547966 -0.1414550692 0.4814959466 4279637788
-0.1967059374 -0.1409567446 0.4816211760 4279703581
-0.1960268617 -0.1399368495 0.4799584746 4279637788
-0.1960775107 -0.1394395977 0.4800825119 4279506716
-0.1961279958 -0.1389419734 0.4802061319 4279572509
-0.1958130151 -0.1381861418 0.4794349372 4279572509
-0.1958631128 -0.1376886666 0.4795575738 4279506716
-0.1955475360 -0.1369348615 0.4787849188 4279506716
-0.1959628314 -0.1366925836 0.4798017442 4279572509
-0.1960124671 -0.1361939758 0.4799232483 4279572509
-0.1960619241 -0.1356949806 0.4800443649 4279572509
-0.1957453638 -0.1349433810 0.4792692661 4279440923
-0.1957944334 -0.1344445646 0.4793893993 4279572509
-0.1958433390 -0.1339453906 0.4795091450 4279572509
-0.1958920807 -0.1334458292 0.4796285033 4279572509
-0.1959406734 -0.1329458952 0.4797474742 4279638302
-0.1956227720 -0.1321980208 0.4789691269 4279572509
-0.1956709623 -0.1316982806 0.4790870845 4279507229
-0.1953524649 -0.1309524924 0.4783072770 4279507229
-0.1961334497 -0.1309424639 0.4802194834 4279572764
-0.1961812377 -0.1304406822 0.4803364873 4279506971
-0.1962288767 -0.1299385279 0.4804531336 4279572764
-0.1962763518 -0.1294360161 0.4805693626 4279572764
-0.1963236630 -0.1289331466 0.4806852043 4279572509
-0.1960037649 -0.1281898469 0.4799019396 4279572509
-0.1953163892 -0.1272089630 0.4782189727 4279703581
-0.1964646280 -0.1274223477 0.4810303450 4279703581
-0.1950420439 -0.1259690970 0.4775472581 4279703581
-0.1950882077 -0.1254681945 0.4776602685 4279769374
-0.1955016851 -0.1252022833 0.4786726236 4279769374
-0.1951800287 -0.1244653240 0.4778850675 4279769374
-0.1955933422 -0.1241968051 0.4788970649 4279835167
-0.1956389248 -0.1236935407 0.4790086746 4279835167
-0.1956843585 -0.1231899187 0.4791198969 4279769374
-0.1957296133 -0.1226859540 0.4792307019 4279769374
-0.1957747042 -0.1221816391 0.4793411195 4279704350
-0.1958196312 -0.1216769740 0.4794511199 4279638557
-0.1966007352 -0.1216274947 0.4813635945 4279638557
-0.1962772459 -0.1208934188 0.4805715680 4279704350
-0.1959534287 -0.1201609001 0.4797787070 4279638302
-0.1959977001 -0.1196548566 0.4798870981 4279638302
-0.1956732869 -0.1189245060 0.4790928066 4279638302
-0.1957171410 -0.1184187308 0.4792001843 4279704095
-0.1957608163 -0.1179126129 0.4793071151 4279704095
-0.1958043277 -0.1174061596 0.4794136584 4279704095
-0.1958476752 -0.1168993711 0.4795197845 4279704095
-0.1955219507 -0.1161730513 0.4787222445 4279704095
-0.1955648661 -0.1156665459 0.4788273573 4279900960
-0.1959767044 -0.1153769866 0.4798356891 4279900960
-0.1956502199 -0.1146525294 0.4790363014 4279900960
-0.1960618645 -0.1143603995 0.4800442159 4279900960
-0.1964735091 -0.1140660197 0.4810520709 4279835167
-0.1968851388 -0.1137693971 0.4820599258 4279900960
-0.1969272792 -0.1132580265 0.4821631014 4279966753
-0.1973388046 -0.1129578725 0.4831706882 4279966753
-0.1970110536 -0.1122343168 0.4823682308 4279966753
-0.1970526725 -0.1117219776 0.4824701548 4279966753
-0.1967243552 -0.1110006571 0.4816662669 4279966753
-0.1967655569 -0.1104886308 0.4817671478 4279900960
-0.1964366436 -0.1097695604 0.4809618294 4280164132
-0.1964774281 -0.1092578545 0.4810616970 4280295718
-0.1965180337 -0.1087458283 0.4811611176 4280229925
-0.1965584606 -0.1082334891 0.4812600911 4280098339
-0.1965987235 -0.1077208295 0.4813586771 4280164132
-0.1966388077 -0.1072078571 0.4814568162 4280295718
-0.1966787130 -0.1066945717 0.4815545082 4280229925
-0.1963479817 -0.1059810147 0.4807447195 4280164132
-0.1960169226 -0.1052690819 0.4799341559 4280164132
-0.1964267641 -0.1049548313 0.4809376299 4280164132
-0.1960951984 -0.1042442173 0.4801258445 4280164132
-0.1961340904 -0.1037313268 0.4802210331 4280164132
-0.1961727887 -0.1032181308 0.4803157747 4280098339
-0.1962113082 -0.1027046293 0.4804101288 4280164132
-0.1962496638 -0.1021908298 0.4805040061 4280164132
-0.1966588944 -0.1018689349 0.4815059602 4280164132
-0.1963258237 -0.1011623219 0.4806905091 4280033060
-0.1971060336 -0.1010281444 0.4826007783 4280098853
-0.1971438229 -0.1005112007 0.4826932847 4280098853
-0.1986667812 -0.1007472128 0.4864221513 4280098853
-0.1990758926 -0.1004131213 0.4874238372 4280164646
-0.1991134733 -0.0998904184 0.4875158668 4280164646
-0.1991508901 -0.0993674174 0.4876074791 4280164646
-0.1991881132 -0.0988441184 0.4876986146 4280230439
-0.1999685317 -0.0986874029 0.4896094203 4280427304
-0.2000055313 -0.0981615707 0.4896999896 4280427304
-0.2004141659 -0.0978169218 0.4907005429 4280427304
-0.2000789791 -0.0971090347 0.4898798168 4280427304
-0.2001154125 -0.0965823308 0.4899690449 4280361511
-0.1997796446 -0.0958767980 0.4891469479 4280427304
-0.2001877576 -0.0955280662 0.4901461601 4280427050
-0.1998514682 -0.0948239267 0.4893228114 4280427050
-0.2002593428 -0.0944726616 0.4903214276 4280362027
-0.1999225616 -0.0937699229 0.4894968569 4280362027
-0.1995854676 -0.0930688605 0.4886714816 4280427820
-0.1996204704 -0.0925421417 0.4887572229 4280493613
-0.1996552944 -0.0920151472 0.4888424873 4280559406
-0.1996899396 -0.0914878771 0.4889273047 4280625199
-0.1997243911 -0.0909603387 0.4890116453 4280625199
-0.2005040199 -0.0907699540 0.4909205139 4280690992
-0.2005382180 -0.0902398974 0.4910042584 4280625199
-0.2005722374 -0.0897095725 0.4910875261 4280690992
-0.2009789348 -0.0893447325 0.4920833111 4280690992
-0.2013855726 -0.0889776573 0.4930789173 4280690992
-0.2010461390 -0.0882807672 0.4922478497 4280756785
-0.2014525235 -0.0879111812 0.4932428598 4280822578
-0.2018588334 -0.0875393525 0.4942376614 4280822578
-0.2022650689 -0.0871652886 0.4952323139 4280888371
-0.2026712447 -0.0867889822 0.4962268174 4281085750
-0.2027040273 -0.0862515941 0.4963071048 4281085750
-0.2031099945 -0.0858717933 0.4973010719 4281085748
-0.2031424642 -0.0853329003 0.4973805845 4281151541
-0.2016808093 -0.0841702595 0.4938018024 4281217334
-0.2028332800 -0.0840994492 0.4966235459 4281348920
-0.2032386959 -0.0837146640 0.4976162016 4281349433
-0.2047650218 -0.0837863237 0.5013533235 4281415226
-0.2033018917 -0.0826345682 0.4977709055 4281677885
-0.2040807307 -0.0823959634 0.4996778667 4281743678
-0.2037381232 -0.0817033872 0.4988389909 4281809471
-0.2048907429 -0.0816082358 0.5016611218 4281743678
-0.2041737884 -0.0807672441 0.4999057055 4281677885
-0.2045784146 -0.0803707764 0.5008963943 4281743678
-0.2049829513 -0.0799720660 0.5018869042 4281875264
-0.2050133049 -0.0794261917 0.5019611716 4281941057
-0.2050434351 -0.0788800716 0.5020349622 4281875264
-0.2050733864 -0.0783337131 0.5021082759 4281875264
-0.2062259465 -0.0782129541 0.5049302578 4281875777
-0.2062556595 -0.0776631236 0.5050030351 4281875777
-0.2066595405 -0.0772530138 0.5059918761 4281941572
-0.2066888958 -0.0767017156 0.5060637593 4282138951
-0.2067180574 -0.0761501789 0.5061351657 4282336330
-0.2078706324 -0.0760092735 0.5089571476 4282336330
-0.2071503401 -0.0751823708 0.5071936250 4281809986
-0.2079282403 -0.0748990476 0.5090982318 4282007365
-0.2083314210 -0.0744775459 0.5100854039 4282270535
-0.2083597630 -0.0739208609 0.5101547837 4282467914
-0.2095123082 -0.0737597942 0.5129767060 4283586395
-0.2095403820 -0.0731996521 0.5130454302 4289770937
-0.2066081762 -0.1614187509 0.5072455406 4287072911
-0.2066657543 -0.1608999819 0.5073869228 4286743946
-0.2074472457 -0.1609425396 0.5093055367 4284309605
-0.2075047195 -0.1604210883 0.5094466209 4280625197
-0.2071997821 -0.1596201509 0.5086979866 4279769888
-0.2065321654 -0.1585424542 0.5070589185 4279769888
-0.2065888643 -0.1580224484 0.5071981549 4279506716
-0.2066454142 -0.1575020254 0.5073369741 4279571995
-0.2063391656 -0.1567057520 0.5065851212 4279571995
-0.2063952982 -0.1561853737 0.5067229271 4279769374
-0.2064512819 -0.1556645781 0.5068603158 4279703581
-0.2057812512 -0.1545980424 0.5052153468 4279703581
-0.2047476321 -0.1532630026 0.5026776791 4279769374
-0.2044395208 -0.1524747014 0.5019212365 4279769374
-0.2041310668 -0.1516878158 0.5011639595 4279769374
-0.2030956149 -0.1503643841 0.4986218214 4279769374
-0.2009691894 -0.1482418478 0.4934011996 4279769374
-0.2021130472 -0.1485342830 0.4962095022 4279769374
-0.2007120848 -0.1469571888 0.4927699864 4279637788
-0.1993101835 -0.1453870684 0.4893281758 4279703581
-0.1989987642 -0.1446170807 0.4885635972 4279703581
-0.1968675256 -0.1425312459 0.4833311737 4279703581
-0.1972829252 -0.1422938406 0.4843510091 4279703581
-0.1969701797 -0.1415309757 0.4835832119 4279769374
-0.1962929219 -0.1405088902 0.4819204807 4279703581
-0.1948865801 -0.1389705986 0.4784677625 4279638557
-0.1956655532 -0.1389923245 0.4803801775 4279572764
-0.1957157999 -0.1384941638 0.4805035889 4279638557
-0.1950865686 -0.1369845718 0.4789587259 4279638557
-0.1955009103 -0.1367422342 0.4799759984 4279572764
-0.1951856315 -0.1359892786 0.4792019427 4279638302
-0.1952349246 -0.1354910582 0.4793229699 4279638302
-0.1949190497 -0.1347401440 0.4785474539 4279638302
-0.1949679404 -0.1342421025 0.4786674976 4279572509
-0.1950166672 -0.1337437034 0.4787871242 4279638302
-0.1950652450 -0.1332449168 0.4789063931 4279638302
-0.1951136738 -0.1327457577 0.4790252745 4279572509
-0.1951619387 -0.1322462261 0.4791437685 4279572509
-0.1952100396 -0.1317463368 0.4792618752 4279638302
-0.1948923320 -0.1310002953 0.4784818590 4279638302
-0.1953057796 -0.1307454407 0.4794968963 4279572509
-0.1953534037 -0.1302444339 0.4796138406 4279572509
-0.1957667917 -0.1299860328 0.4806287587 4279638302
-0.1958141923 -0.1294833571 0.4807451069 4279704095
-0.1958614141 -0.1289803237 0.4808610678 4279769374
-0.1959085017 -0.1284769177 0.4809766412 4279835167
-0.1955891401 -0.1277339607 0.4801926017 4279835167
-0.1952694356 -0.1269925088 0.4794076979 4279769374
-0.1956823021 -0.1267272383 0.4804213345 4279835166
-0.1946290433 -0.1255142093 0.4778354466 4279835166
-0.1946749538 -0.1250127852 0.4779481888 4279835166
-0.1947207153 -0.1245110109 0.4780605137 4279900959
-0.1951330900 -0.1242424175 0.4790729582 4279966752
-0.1951786131 -0.1237389892 0.4791846871 4279900959
-0.1952239573 -0.1232352108 0.4792960286 4279835166
-0.1952691376 -0.1227310747 0.4794069827 4279835166
-0.1953141689 -0.1222265959 0.4795174897 4279769888
-0.1953590214 -0.1217217669 0.4796276391 4279769888
-0.1957710087 -0.1214444414 0.4806391299 4279769888
-0.1958156228 -0.1209379658 0.4807486236 4279769888
-0.1958600581 -0.1204311475 0.4808577597 4279704095
-0.1959043443 -0.1199239865 0.4809664488 4279704095
-0.1955808103 -0.1191924363 0.4801721573 4279704095
-0.1952569634 -0.1184624434 0.4793770611 4279704095
-0.1953005642 -0.1179561615 0.4794841409 4279704095
-0.1949761361 -0.1172283515 0.4786876142 4279835681
-0.1950193197 -0.1167223528 0.4787936509 4279835681
-0.1950623542 -0.1162160113 0.4788992703 4279901474
-0.1951052099 -0.1157093346 0.4790045023 4280098085
-0.1955160946 -0.1154196933 0.4800132811 4280032292
-0.1959269792 -0.1151277944 0.4810220301 4279966499
-0.1956011355 -0.1144027635 0.4802220464 4279900706
-0.1963802725 -0.1143227816 0.4821349382 4279835681
-0.1964225173 -0.1138115749 0.4822386503 4279835681
-0.1968332082 -0.1135126129 0.4832469225 4279967267
-0.1968751848 -0.1129997820 0.4833499789 4280033060
-0.1969169974 -0.1124866307 0.4834526479 4280033060
-0.1969586313 -0.1119731516 0.4835548699 4279967267
-0.1970001012 -0.1114593521 0.4836566746 4279967267
-0.1959344149 -0.1103219390 0.4810402989 4279967267
-0.1963443756 -0.1100171730 0.4820467830 4280098855
-0.1960160285 -0.1092984974 0.4812406301 4279901476
-0.1960565597 -0.1087862998 0.4813401699 4279638304
-0.1964662224 -0.1084776893 0.4823459387 4279769890
-0.1965065002 -0.1079638898 0.4824448228 4280164648
-0.1969160438 -0.1076517552 0.4834502935 4280296234
-0.1965865046 -0.1069353521 0.4826412499 4280164648
-0.1966262460 -0.1064206138 0.4827388227 4280098855
-0.1966658235 -0.1059055626 0.4828359485 4280295718
-0.1955959648 -0.1047959030 0.4802093804 4280295718
-0.1956349611 -0.1042831391 0.4803051054 4280229925
-0.1953038871 -0.1035739109 0.4794922769 4280164132
-0.1953424513 -0.1030615047 0.4795869589 4280164132
-0.1957508773 -0.1027430221 0.4805897176 4280229925
-0.1954190582 -0.1020357907 0.4797750413 4280229925
-0.1961974651 -0.1019070446 0.4816861153 4280295718
-0.1973462403 -0.1019654050 0.4845064580 4280164646
-0.1970139444 -0.1012563035 0.4836906791 4280230439
-0.1981629282 -0.1013062820 0.4865115583 4280230439
-0.1978302896 -0.1005965769 0.4856948555 4280230439
-0.1982384026 -0.1002633497 0.4866968095 4280362025
-0.1986838132 -0.0994046926 0.4877903759 4280362025
-0.1987209916 -0.0988812149 0.4878816307 4280427818
-0.1991287917 -0.0985409468 0.4888828099 4280690476
-0.1991656572 -0.0980159044 0.4889733493 4280624683
-0.1995732933 -0.0976721272 0.4899741411 4280624683
-0.1992388368 -0.0969649553 0.4891530275 4280558890
-0.1996462494 -0.0966186374 0.4901532531 4280493097
-0.1993113011 -0.0959128588 0.4893308878 4280493097
-0.1989760250 -0.0952087492 0.4885077775 4280558890
-0.1993830055 -0.0948596075 0.4895069599 4280493097
-0.1994185895 -0.0943325609 0.4895943105 4280493613
-0.1990825534 -0.0936305523 0.4887693226 4280493613
-0.1991177052 -0.0931039229 0.4888556004 4280559406
-0.1991526634 -0.0925770178 0.4889414310 4280625199
-0.1988158077 -0.0918781087 0.4881144166 4280690992
-0.1988503188 -0.0913516358 0.4881991744 4280756785
-0.1996281445 -0.0911644176 0.4901088178 4280756785
-0.2000342309 -0.0908042118 0.4911057949 4280822578
-0.2000683844 -0.0902739689 0.4911896288 4280756787
-0.2001023442 -0.0897434503 0.4912730157 4280888373
-0.2008801103 -0.0895443112 0.4931825101 4280888371
-0.2009138167 -0.0890112817 0.4932652712 4280888371
-0.2016915828 -0.0888056830 0.4951747656 4280954164
-0.2013528496 -0.0881072879 0.4943431318 4280954164
-0.2021305412 -0.0878962129 0.4962524474 4280954164
-0.2017913610 -0.0871982723 0.4954197407 4281019957
-0.2018242329 -0.0866619423 0.4955004454 4281217336
-0.2018569112 -0.0861253515 0.4955806732 4281217336
-0.2018894106 -0.0855884999 0.4956604540 4281151541
-0.2034119070 -0.0856790766 0.4993983209 4281217334
-0.2019538134 -0.0845140219 0.4958185554 4281283640
-0.2019857168 -0.0839763954 0.4958969057 4281415226
-0.2023901641 -0.0835924670 0.4968898594 4281546812
-0.2024217397 -0.0830533430 0.4969673753 4281678398
-0.2035716474 -0.0829698443 0.4997905493 4281678398
-0.2043488175 -0.0827291757 0.5016985536 4281744191
-0.2040071487 -0.0820343569 0.5008597374 4281809984
-0.2044111788 -0.0816392377 0.5018516779 4281744191
-0.2048151344 -0.0812418759 0.5028434396 4281809984
-0.2044727504 -0.0805483088 0.5020028353 4281875777
-0.2048764229 -0.0801484659 0.5029938817 4281941570
-0.2052800208 -0.0797463804 0.5039847493 4281941570
-0.2053102106 -0.0791980699 0.5040588975 4281941570
-0.2053402215 -0.0786495209 0.5041325688 4282007363
-0.2053700238 -0.0781007260 0.5042057633 4282138438
-0.2057730854 -0.0776926950 0.5051953197 4282270024
-0.2069230676 -0.0775624439 0.5080186129 4282401610
-0.2058317959 -0.0765919313 0.5053394437 4282598989
-0.2073553056 -0.0765932128 0.5090798140 4282730575
-0.2085053623 -0.0764492676 0.5119033456 4282730575
-0.2074132264 -0.0754830465 0.5092220306 4282204744
-0.2078156471 -0.0750626177 0.5102100372 4282270537
-0.2082179785 -0.0746399611 0.5111977458 4282862674
-0.2086201906 -0.0742150694 0.5121852756 4282599502
-0.2086483836 -0.0736559480 0.5122544765 4285165427
-0.2090503573 -0.0732275993 0.5132413507 4291481555
-0.2061183006 -0.1614763290 0.5074265003 4287270290
-0.2065368593 -0.1612392962 0.5084568858 4286941325
-0.2065942734 -0.1607190371 0.5085982680 4284506984
-0.2066515535 -0.1601983458 0.5087392330 4280954162
-0.2067086697 -0.1596772224 0.5088798404 4279835681
-0.2064041495 -0.1588774174 0.5081301928 4280032546
-0.2060992718 -0.1580790132 0.5073796511 4279703581
-0.2061557323 -0.1575584114 0.5075186491 4279637787
-0.2058502436 -0.1567618996 0.5067666173 4279637787
-0.2055444121 -0.1559667736 0.5060136914 4279835167
-0.2052382380 -0.1551730633 0.5052599311 4279835167
-0.2049316913 -0.1543807685 0.5045052767 4279769374
-0.2046248019 -0.1535898745 0.5037497878 4279835167
-0.2046798319 -0.1530713290 0.5038852692 4279835167
-0.2029228956 -0.1512023360 0.4995599687 4279835167
-0.2037020326 -0.1512257159 0.5014780760 4279835167
-0.2023060769 -0.1496360153 0.4980414808 4279769374
-0.2023597956 -0.1491222382 0.4981737435 4279769374
-0.2013251185 -0.1478090882 0.4956265390 4279703581
-0.1981126517 -0.1449086666 0.4877180159 4279769374
-0.1967130005 -0.1433468461 0.4842723310 4279769374
-0.1964015365 -0.1425826699 0.4835055470 4279769374
-0.1964528561 -0.1420825720 0.4836319089 4279769374
-0.1957775801 -0.1410586834 0.4819694757 4279835167
-0.1951017678 -0.1400381029 0.4803057611 4279769374
-0.1955156624 -0.1398003995 0.4813247025 4279638557
-0.1952025890 -0.1390426010 0.4805539548 4279638557
-0.1948891580 -0.1382862777 0.4797823727 4279638557
-0.1949390918 -0.1377885044 0.4799052775 4279704350
-0.1949888617 -0.1372903436 0.4800278246 4279704350
-0.1950384825 -0.1367917955 0.4801499546 4279638557
-0.1950879544 -0.1362928748 0.4802717268 4279638302
-0.1947731972 -0.1355402172 0.4794968665 4279704095
-0.1948222518 -0.1350414753 0.4796176553 4279769888
-0.1948711574 -0.1345423460 0.4797380269 4279638302
-0.1949199140 -0.1340428442 0.4798580408 4279638302
-0.1946040690 -0.1332933605 0.4790804982 4279638302
-0.1946524084 -0.1327940375 0.4791995287 4279638302
-0.1947005987 -0.1322943568 0.4793181419 4279638302
-0.1947486252 -0.1317943037 0.4794363678 4279638304
-0.1947964877 -0.1312938780 0.4795542061 4279638304
-0.1952090710 -0.1310380101 0.4805699289 4279638302
-0.1948917508 -0.1302919239 0.4797887206 4279704095
-0.1953042001 -0.1300334483 0.4808040857 4279769888
-0.1957166493 -0.1297727376 0.4818195105 4279704095
-0.1953986734 -0.1290274262 0.4810366631 4279704095
-0.1950803548 -0.1282836348 0.4802530110 4279769888
-0.1943962872 -0.1273020655 0.4785689712 4279769888
-0.1955391765 -0.1275156438 0.4813825786 4279704095
-0.1941233724 -0.1260613948 0.4778971076 4279769888
-0.1949007064 -0.1260330826 0.4798107743 4279769888
-0.1945809722 -0.1252940893 0.4790236354 4279966753
-0.1943064034 -0.1240543425 0.4783477187 4280032545
-0.1947177798 -0.1237843707 0.4793604314 4279900959
-0.1947630495 -0.1232804283 0.4794718921 4279900959
-0.1948081553 -0.1227761284 0.4795829356 4279966752
-0.1948531121 -0.1222714856 0.4796935916 4279835681
-0.1952642351 -0.1219953746 0.4807057381 4279901474
-0.1949425042 -0.1212611496 0.4799136817 4279901474
-0.1949869692 -0.1207554564 0.4800231159 4279835681
-0.1946646571 -0.1200233921 0.4792296588 4279835681
-0.1950753778 -0.1197430491 0.4802407622 4279835681
-0.1951193213 -0.1192363277 0.4803489745 4279835681
-0.1947962642 -0.1185060889 0.4795536697 4279769888
-0.1944728792 -0.1177774146 0.4787575305 4279769888
-0.1945161670 -0.1172715798 0.4788641036 4279901474
-0.1945592910 -0.1167654097 0.4789702594 4280033060
-0.1946022511 -0.1162588969 0.4790760279 4280098853
-0.1946450323 -0.1157520562 0.4791813493 4280098855
-0.1946876496 -0.1152448803 0.4792862833 4280033062
-0.1947301030 -0.1147373691 0.4793907702 4279901476
-0.1951398849 -0.1144450605 0.4803995788 4279901476
-0.1951820701 -0.1139359325 0.4805034399 4279967267
-0.1959594041 -0.1138536856 0.4824171066 4279967267
-0.1963691413 -0.1135546342 0.4834257960 4280033060
-0.1967788637 -0.1132533252 0.4844344854 4280164646
-0.1968206912 -0.1127390340 0.4845374227 4280230439
-0.1953904778 -0.1113853604 0.4810164869 4280164646
-0.1961677223 -0.1112918779 0.4829299450 4280164646
-0.1955541074 -0.1093390733 0.4814193249 4279769890
-0.1955945790 -0.1088267043 0.4815189540 4279572511
-0.1960033029 -0.1085179970 0.4825251698 4279835683
-0.1960435063 -0.1080040261 0.4826241434 4280296234
-0.1964521110 -0.1076917872 0.4836300611 4280362027
-0.1961233914 -0.1069751382 0.4828208089 4280296234
-0.1961630732 -0.1064602211 0.4829185009 4280296234
-0.1958337724 -0.1057458520 0.4821078181 4280361257
-0.1955041438 -0.1050331071 0.4812963605 4280361257
-0.1955431551 -0.1045192033 0.4813923538 4280295464
-0.1952129602 -0.1038087532 0.4805794954 4280229671
-0.1952515393 -0.1032952070 0.4806744754 4280229671
-0.1956591010 -0.1029756442 0.4816778302 4280295464
-0.1960666478 -0.1026538387 0.4826811254 4280296234
-0.1957355291 -0.1019450948 0.4818659723 4280296234
-0.1961428523 -0.1016207412 0.4828687310 4280230441
-0.1969196051 -0.1014845446 0.4847809374 4280296234
-0.1976964474 -0.1013441458 0.4866934121 4280362027
-0.1981038153 -0.1010111049 0.4876962602 4280362027
-0.1981414706 -0.1004883349 0.4877889454 4280427820
-0.1982162297 -0.0994419008 0.4879729748 4280493613
-0.1982533336 -0.0989182442 0.4880643487 4280559406
-0.1990301460 -0.0987614393 0.4899767041 4280756269
-0.1986970156 -0.0980526432 0.4891566038 4280690476
-0.1991037130 -0.0977087468 0.4901578426 4280690476
-0.1991402358 -0.0971819609 0.4902477264 4280690476
-0.1991765648 -0.0966548920 0.4903371632 4280690476
-0.1988424212 -0.0959488526 0.4895145595 4280690476
-0.1988783032 -0.0954221934 0.4896029234 4280559406
-0.1989140213 -0.0948952436 0.4896908402 4280559406
-0.1989495307 -0.0943680108 0.4897782803 4280559406
-0.1986143291 -0.0936657414 0.4889530540 4280559406
-0.1990200281 -0.0933127031 0.4899517894 4280625199
-0.1990549862 -0.0927846283 0.4900378883 4280690992
-0.1990897655 -0.0922562778 0.4901235104 4280690994
-0.1987535506 -0.0915568322 0.4892957807 4280756787
-0.1995296329 -0.0913685784 0.4912063777 4280756787
-0.1995639205 -0.0908384174 0.4912907779 4280822580
-0.1995980144 -0.0903079808 0.4913747013 4280756787
-0.2000029832 -0.0899441466 0.4923716784 4280888373
-0.2000367641 -0.0894121900 0.4924548268 4280954164
-0.2004415393 -0.0890448540 0.4934513271 4280954164
-0.2004750073 -0.0885113701 0.4935337007 4281085750
-0.2012508959 -0.0883034617 0.4954438210 4281151543
-0.2016554773 -0.0879293978 0.4964398146 4281151543
-0.2024314255 -0.0877140388 0.4983500540 4281217336
-0.2020929307 -0.0870145932 0.4975167513 4281283129
-0.2024972290 -0.0866347849 0.4985120595 4281283129
-0.2025298476 -0.0860947743 0.4985923767 4281217849
-0.2029339522 -0.0857114717 0.4995871782 4281283642
-0.2029662430 -0.0851699486 0.4996666610 4281481019
-0.2029983252 -0.0846281648 0.4997456968 4281546812
-0.2041457891 -0.0845481306 0.5025705099 4281678398
-0.2030619383 -0.0835438222 0.4999022782 4281809984
-0.2030934393 -0.0830012709 0.4999798536 4281612607
-0.2038688064 -0.0827605203 0.5018886328 4281744193
-0.2031558752 -0.0819154233 0.5001335144 4281875779
-0.2039310783 -0.0816701874 0.5020419359 4281875779
-0.2039619088 -0.0811246485 0.5021178722 4281941572
-0.2047370523 -0.0808729455 0.5040261149 4282073158
-0.2047675997 -0.0803249180 0.5041013360 4282138951
-0.2051703185 -0.0799217001 0.5050927401 4282138951
-0.2052005231 -0.0793721899 0.5051671267 4282073158
-0.2056030035 -0.0789654925 0.5061579347 4282204744
-0.2060053945 -0.0785565600 0.5071485639 4282467403
-0.2060351074 -0.0780043304 0.5072216988 4282664782
-0.2060646266 -0.0774518698 0.5072943568 4282862161
-0.2079573572 -0.0775944591 0.5119539499 4282993747
-0.2064957917 -0.0764842853 0.5083557963 4283059540
-0.2080159187 -0.0764783472 0.5120980740 4283059540
-0.2084177285 -0.0760559961 0.5130872726 4282336330
-0.2080736458 -0.0753613040 0.5122402310 4282994260
-0.2084751576 -0.0749364868 0.5132286549 4283257432
-0.2085035592 -0.0743763894 0.5132985711 4282994260
-0.2089048028 -0.0739481077 0.5142863393 4287007631
-0.2093059421 -0.0735175982 0.5152738690 4292994794
-0.2049076557 -0.1609680206 0.5058291554 4287336083
-0.2049648315 -0.1604507715 0.5059702992 4287007118
-0.2057425082 -0.1604952365 0.5078900456 4284704363
-0.2057995796 -0.1599753052 0.5080309510 4281282613
-0.2051354647 -0.1588964164 0.5063915253 4280098339
-0.2048314065 -0.1580991000 0.5056409240 4280032545
-0.2056091577 -0.1581354737 0.5075609088 4279703580
-0.2049438804 -0.1570616961 0.5059186220 4279637787
-0.2049998939 -0.1565423459 0.5060568452 4279571994
-0.2050557435 -0.1560225785 0.5061947107 4279835167
-0.2047503144 -0.1552286148 0.5054407716 4279835167
-0.2037221342 -0.1538903415 0.5029026270 4279835167
-0.2034158260 -0.1531010419 0.5021464825 4279835167
-0.2041933686 -0.1531262100 0.5040659308 4279835167
-0.2031636387 -0.1517967731 0.5015239716 4279769374
-0.2024947703 -0.1507416219 0.4998728037 4279769374
-0.1992935091 -0.1478119195 0.4919702411 4279769374
-0.2004318386 -0.1481064558 0.4947803020 4279900960
-0.1972279549 -0.1451980472 0.4868713021 4279900960
-0.1961940974 -0.1438988000 0.4843191206 4279769374
-0.1951594949 -0.1426047087 0.4817651510 4279703581
-0.1955728680 -0.1423703581 0.4827856123 4279769374
-0.1956240237 -0.1418710351 0.4829118550 4279769374
-0.1953126490 -0.1411095262 0.4821431935 4279769374
-0.1946384758 -0.1400886029 0.4804789722 4279835167
-0.1950514317 -0.1398508400 0.4814983606 4279704350
-0.1947391331 -0.1390928030 0.4807274342 4279638557
-0.1947892159 -0.1385943145 0.4808510840 4279638557
-0.1948391646 -0.1380954534 0.4809743762 4279704350
-0.1941630989 -0.1370837390 0.4793054760 4279704350
-0.1942125410 -0.1365859807 0.4794275463 4279704350
-0.1938987225 -0.1358334571 0.4786528647 4279638302
-0.1936333776 -0.1345853806 0.4779978096 4279704095
-0.1936820149 -0.1340879649 0.4781178534 4279638302
-0.1937304884 -0.1335901767 0.4782375693 4279638302
-0.1941423863 -0.1333417147 0.4792543352 4279704095
-0.1941906512 -0.1328422427 0.4793734848 4279704095
-0.1935112625 -0.1318467408 0.4776963890 4279704095
-0.1939228624 -0.1315952986 0.4787124395 4279638304
-0.1939705610 -0.1310956478 0.4788301885 4279638304
-0.1943821162 -0.1308406591 0.4798461497 4279638817
-0.1944295913 -0.1303393394 0.4799633324 4279704610
-0.1944769025 -0.1298376471 0.4800801277 4279704610
-0.1945240498 -0.1293355972 0.4801965058 4279638817
-0.1945710480 -0.1288331747 0.4803125262 4279638817
-0.1946178824 -0.1283303946 0.4804281294 4279704610
-0.1943000108 -0.1275878847 0.4796434343 4279769888
-0.1943464428 -0.1270853132 0.4797580540 4279769888
-0.1943926960 -0.1265823990 0.4798722565 4279769888
-0.1940739900 -0.1258425713 0.4790855050 4279769888
-0.1948496252 -0.1258110851 0.4810002148 4279835681
-0.1941655427 -0.1248368323 0.4793114960 4279967267
-0.1942110658 -0.1243334338 0.4794238806 4279901474
-0.1942564398 -0.1238296777 0.4795358777 4279901474
-0.1943016350 -0.1233255640 0.4796474576 4279901474
-0.1943466663 -0.1228211075 0.4797586203 4279901474
-0.1943915486 -0.1223162934 0.4798693955 4279901474
-0.1948017329 -0.1220401078 0.4808819890 4279967267
-0.1944808066 -0.1213056296 0.4800897539 4279901474
-0.1948908269 -0.1210268438 0.4811019301 4279901474
-0.1949351281 -0.1205196902 0.4812112749 4279901474
-0.1946134418 -0.1197870299 0.4804171920 4279967267
-0.1953891218 -0.1197285652 0.4823319912 4279967267
-0.1943350732 -0.1185496598 0.4797299802 4279901474
-0.1940124780 -0.1178207397 0.4789336324 4280033060
-0.1940556914 -0.1173147336 0.4790403247 4280033060
-0.1940987408 -0.1168083996 0.4791465998 4280164646
-0.1941416264 -0.1163017228 0.4792524874 4280164646
-0.1941843480 -0.1157947108 0.4793579280 4280164648
-0.1945933700 -0.1155048907 0.4803676009 4280098855
-0.1946358234 -0.1149962544 0.4804724455 4280164648
-0.1950447410 -0.1147028953 0.4814818799 4280098855
-0.1954536587 -0.1144072786 0.4824912846 4280164646
-0.1954957694 -0.1138957366 0.4825952351 4280164646
-0.1962714344 -0.1138093099 0.4845100343 4280164646
-0.1955794692 -0.1128716469 0.4828018844 4280296232
-0.1959880888 -0.1125699207 0.4838105738 4280296232
-0.1960295886 -0.1120560914 0.4839130342 4280296232
-0.1957037449 -0.1113330647 0.4831086695 4280296232
-0.1961120814 -0.1110274717 0.4841166735 4280296232
-0.1957857460 -0.1103057191 0.4833110571 4280230441
-0.1954590678 -0.1095855758 0.4825046659 4279704097
-0.1954995543 -0.1090720668 0.4826045930 4279572511
-0.1955398619 -0.1085582450 0.4827041328 4279967269
-0.1959476322 -0.1082471833 0.4837107360 4280296234
-0.1959876716 -0.1077317595 0.4838095605 4280362027
-0.1960275471 -0.1072160155 0.4839079678 4280362027
-0.1960672289 -0.1066999584 0.4840059578 4280427820
-0.1957388073 -0.1059843674 0.4831952453 4280427050
-0.1943060607 -0.1046756580 0.4796583652 4280361257
-0.1954490840 -0.1047553569 0.4824800193 4280164648
-0.1943834722 -0.1036510691 0.4798494875 4280164648
-0.1944219172 -0.1031383127 0.4799443781 4280230441
-0.1948284805 -0.1028196216 0.4809480011 4280362027
-0.1952350140 -0.1024986878 0.4819515646 4280427820
-0.1956415176 -0.1021754965 0.4829550385 4280427820
-0.1967850029 -0.1022329628 0.4857778251 4280427820
-0.1964544058 -0.1015223861 0.4849617183 4280362027
-0.1968607903 -0.1011924595 0.4859649241 4280427820
-0.1976358742 -0.1010488048 0.4878782630 4280493613
-0.1980422586 -0.1007134020 0.4888814390 4280493613
-0.1980797350 -0.1001891717 0.4889739752 4280559406
-0.1977481097 -0.0994790569 0.4881553054 4280625199
-0.1977851540 -0.0989552140 0.4882467687 4280559406
-0.1978220195 -0.0984310806 0.4883377552 4280756015
-0.1985969841 -0.0982719809 0.4902508259 4280756015
-0.1982644051 -0.0975636244 0.4894298315 4280625199
-0.1983007938 -0.0970376357 0.4895196557 4280625199
-0.1979676485 -0.0963316336 0.4886972606 4280690992
-0.1980036050 -0.0958060548 0.4887860119 4280690992
-0.1984088421 -0.0954579487 0.4897863865 4280625199
-0.1988140345 -0.0951075926 0.4907866418 4280625199
-0.1988495737 -0.0945791975 0.4908743501 4280625201
-0.1988849044 -0.0940505117 0.4909616113 4280625201
-0.1985503286 -0.0933477134 0.4901356697 4280690994
-0.1989550442 -0.0929923058 0.4911347330 4280690994
-0.1989898384 -0.0924627855 0.4912205935 4280756787
-0.1990244389 -0.0919329822 0.4913060069 4280822580
-0.1994288415 -0.0915728062 0.4923043251 4280822580
-0.1994631290 -0.0910414681 0.4923889935 4280822580
-0.1994972378 -0.0905098617 0.4924731553 4280888373
-0.1995311528 -0.0899779797 0.4925568700 4280888373
-0.1999351233 -0.0896117836 0.4935541153 4280954166
-0.2003390342 -0.0892433301 0.4945512116 4281019959
-0.2003725022 -0.0887086689 0.4946338236 4281085752
-0.2004057914 -0.0881737396 0.4947159886 4281217338
-0.2008093745 -0.0878005326 0.4957122803 4281348922
-0.2015834451 -0.0875860900 0.4976231456 4281348922
-0.2019869536 -0.0872074142 0.4986192286 4281283642
-0.2023904026 -0.0868264884 0.4996151328 4281217849
-0.2027937621 -0.0864433199 0.5006108880 4281349435
-0.2028262466 -0.0859008655 0.5006910563 4281481021
-0.2032615691 -0.0849702284 0.5017656684 4281678400
-0.2032935321 -0.0844260082 0.5018445849 4281744191
-0.2037279606 -0.0834888741 0.5029169917 4281809986
-0.2041305453 -0.0830939710 0.5039108396 4281941572
-0.2041618377 -0.0825467408 0.5039880872 4282073158
-0.2041929364 -0.0819992647 0.5040648580 4282073158
-0.2045951486 -0.0815996304 0.5050577521 4282138951
-0.2038831711 -0.0807564631 0.5033001304 4282270537
-0.2046564668 -0.0805014372 0.5052090883 4282401869
-0.2054297924 -0.0802421793 0.5071181059 4282467662
-0.2058316022 -0.0798345879 0.5081099868 4282467662
-0.2054901421 -0.0791385323 0.5072670579 4282533455
-0.2062633038 -0.0788705647 0.5091757178 4282730834
-0.2070364803 -0.0785983577 0.5110843182 4282928213
-0.2066944093 -0.0779015794 0.5102398992 4283191128
-0.2078392506 -0.0777630135 0.5130660534 4283256921
-0.2082404941 -0.0773419812 0.5140565038 4283322714
-0.2071539909 -0.0763702765 0.5113744140 4283322714
-0.2082987577 -0.0762209967 0.5142003298 4282928213
-0.2086995840 -0.0757952556 0.5151898265 4283586143
-0.2083561867 -0.0750990734 0.5143421292 4283454811
-0.2087567151 -0.0746708661 0.5153308511 4284244327
-0.2091571391 -0.0742404237 0.5163193345 4289376181
-0.2040591836 -0.1607422084 0.5051195621 4287599255
-0.2048348933 -0.1607898921 0.5070397258 4286875532
-0.2041729987 -0.1597087830 0.5054013133 4284835949
-0.2035105675 -0.1586308926 0.5037615299 4281282612
-0.2042862028 -0.1586736441 0.5056815147 4280164131
-0.2036230713 -0.1575985402 0.5040400028 4280032545
-0.2033192366 -0.1568041891 0.5032879114 4279769373
-0.2033749968 -0.1562878639 0.5034259558 4279703580
-0.2041507214 -0.1563225091 0.5053461790 4279637787
-0.2038462311 -0.1555287093 0.5045924187 4279900960
-0.2031811327 -0.1544624567 0.5029460788 4279900960
-0.2032361925 -0.1539453417 0.5030823946 4279900960
-0.2029306442 -0.1531557888 0.5023260713 4279835167
-0.2011825889 -0.1512831748 0.4979989529 4279835167
-0.2019578665 -0.1513107270 0.4999180734 4279769374
-0.2009297162 -0.1499877870 0.4973730147 4279769374
-0.2006224841 -0.1492066830 0.4966125190 4279769374
-0.2003149092 -0.1484270096 0.4958511591 4279966753
-0.1974798143 -0.1457831711 0.4888333082 4280032546
-0.1982542425 -0.1458096057 0.4907502532 4279966753
-0.1954167485 -0.1431852579 0.4837264419 4279835167
-0.1943841279 -0.1418940276 0.4811703563 4279900960
-0.1951577961 -0.1419220418 0.4830854535 4279835167
-0.1944857091 -0.1408983916 0.4814217985 4279769374
-0.1945362687 -0.1403999925 0.4815469682 4279835167
-0.1942249984 -0.1396411657 0.4807764590 4279900959
-0.1942751706 -0.1391429156 0.4809006155 4279900959
-0.1943251789 -0.1386442780 0.4810244143 4279704350
-0.1940130591 -0.1378879994 0.4802518487 4279704350
-0.1944247335 -0.1376458555 0.4812708497 4279770143
-0.1941121370 -0.1368906796 0.4804970622 4279704350
-0.1937991828 -0.1361369789 0.4797224104 4279638302
-0.1927612424 -0.1348777115 0.4771531224 4279704095
-0.1924474388 -0.1341288537 0.4763763547 4279638302
-0.1924958229 -0.1336331517 0.4764961004 4279704095
-0.1932692528 -0.1336385310 0.4784106314 4279704095
-0.1933175027 -0.1331402063 0.4785300791 4279704095
-0.1926400214 -0.1321437955 0.4768530726 4279769888
-0.1926877797 -0.1316466033 0.4769712687 4279704095
-0.1923724115 -0.1309020668 0.4761906266 4279769888
-0.1931458712 -0.1308971643 0.4781052172 4279769888
-0.1939195395 -0.1308881491 0.4800203145 4279704610
-0.1950566322 -0.1311191767 0.4828350246 4279704610
-0.1947408020 -0.1303712875 0.4820532501 4279704610
-0.1947880536 -0.1298671961 0.4821702242 4279638817
-0.1944716573 -0.1291213930 0.4813869894 4279704610
-0.1945184916 -0.1286175102 0.4815029502 4279704610
-0.1938378215 -0.1276343316 0.4798180759 4279770403
-0.1946116984 -0.1276086420 0.4817336500 4279770403
-0.1942942142 -0.1268661022 0.4809477627 4279770401
-0.1943403184 -0.1263617128 0.4810619056 4279704608
-0.1943862736 -0.1258569658 0.4811756313 4279770401
-0.1944776773 -0.1248464137 0.4814019203 4280033060
-0.1945231408 -0.1243406013 0.4815144539 4280033060
-0.1945684403 -0.1238344312 0.4816265702 4280033060
-0.1946135610 -0.1233279109 0.4817382991 4280033060
-0.1946585327 -0.1228210405 0.4818496108 4279901987
-0.1939741224 -0.1218557134 0.4801554084 4279901987
-0.1940185875 -0.1213500425 0.4802654982 4279967267
-0.1944276690 -0.1210711747 0.4812781513 4280033060
-0.1948367655 -0.1207900569 0.4822907746 4280098853
-0.1948809028 -0.1202814355 0.4824000597 4280098853
-0.1945598572 -0.1195481867 0.4816053212 4280164646
-0.1946035773 -0.1190398335 0.4817135632 4280098853
-0.1935515702 -0.1178639904 0.4791094661 4280296232
-0.1935947090 -0.1173578203 0.4792162776 4280230439
-0.1936376989 -0.1168513149 0.4793226719 4280296232
-0.1936805099 -0.1163444743 0.4794286489 4280296232
-0.1944968253 -0.1157649904 0.4814493358 4280296234
-0.1945392936 -0.1152552217 0.4815544486 4280362027
-0.1945815980 -0.1147451326 0.4816591740 4280230441
-0.1949895620 -0.1144494265 0.4826690257 4280296232
-0.1953975260 -0.1141514778 0.4836788774 4280296232
-0.1958054602 -0.1138512716 0.4846886694 4280362025
-0.1951151788 -0.1129132807 0.4829799831 4280427818
-0.1958890110 -0.1128223389 0.4848954678 4280362025
-0.1955642998 -0.1120974645 0.4840916991 4280362025
-0.1956055611 -0.1115831435 0.4841938317 4280362025
-0.1956875622 -0.1105535254 0.4843968451 4280362027
-0.1957283169 -0.1100382283 0.4844976962 4279704097
-0.1954022795 -0.1093175188 0.4836906493 4279506718
-0.1958092898 -0.1090066805 0.4846981168 4279967269
-0.1958495080 -0.1084904298 0.4847976863 4280362027
-0.1958895624 -0.1079738587 0.4848968089 4280427820
-0.1959294230 -0.1074569747 0.4849955142 4280362027
-0.1959691346 -0.1069397703 0.4850938022 4280362027
-0.1960086524 -0.1064222604 0.4851916134 4280296236
-0.1945794672 -0.1051111370 0.4816538990 4280296236
-0.1942511499 -0.1043995321 0.4808411598 4280230443
-0.1942897737 -0.1038859338 0.4809367955 4280296236
-0.1943282336 -0.1033720374 0.4810319841 4280362029
-0.1947339326 -0.1030522659 0.4820362329 4280427822
-0.1947721094 -0.1025367901 0.4821307361 4280493615
-0.1948100924 -0.1020210087 0.4822247922 4280559408
-0.1952155530 -0.1016964391 0.4832284451 4280493615
-0.1963564008 -0.1017507166 0.4860524237 4280427822
-0.1971296966 -0.1016092747 0.4879666269 4280493615
-0.1971674114 -0.1010864377 0.4880599678 4280559408
-0.1972049475 -0.1005633101 0.4881528914 4280559408
-0.1972422898 -0.1000398770 0.4882453382 4280625201
-0.1972794533 -0.0995161533 0.4883373380 4280690994
-0.1973164529 -0.0989921317 0.4884288907 4280625201
-0.1973532438 -0.0984678119 0.4885199964 4280625199
-0.1977581382 -0.0981259346 0.4895222485 4280690992
-0.1977946460 -0.0976000577 0.4896126091 4280690994
-0.1978309751 -0.0970738828 0.4897025228 4280690994
-0.1978671104 -0.0965474248 0.4897919893 4280756787
-0.1982716173 -0.0961994901 0.4907932580 4280690994
-0.1979388446 -0.0954936445 0.4899695516 4280690994
-0.1983431131 -0.0951431766 0.4909702539 4280690994
-0.1983785778 -0.0946145877 0.4910580516 4280690994
-0.1984138787 -0.0940857232 0.4911454022 4280756787
-0.1980801076 -0.0933826789 0.4903192222 4280756787
-0.1981149614 -0.0928542316 0.4904054999 4280822580
-0.1985186189 -0.0924974382 0.4914047122 4280888373
-0.1981841028 -0.0917965099 0.4905766547 4280888373
-0.1996948868 -0.0919470638 0.4943163991 4280954166
-0.1997292489 -0.0914135724 0.4944014549 4280954166
-0.1997634172 -0.0908797979 0.4944860339 4281019959
-0.2002005726 -0.0899774507 0.4955681562 4281085752
-0.2006036788 -0.0896069035 0.4965659678 4281151545
-0.2006372213 -0.0890700743 0.4966489971 4281217338
-0.2006705701 -0.0885329768 0.4967315495 4281283131
-0.2010733485 -0.0881576613 0.4977285862 4281349435
-0.2014760673 -0.0877801031 0.4987254143 4281283642
-0.2011392117 -0.0870801508 0.4978916049 4281349435
-0.2019114643 -0.0868591666 0.4998032153 4281349435
-0.2030536234 -0.0867920518 0.5026304722 4281481021
-0.2030861825 -0.0862474144 0.5027110577 4281612607
-0.2034885138 -0.0858586282 0.5037069917 4281612607
-0.2035207450 -0.0853124857 0.5037867427 4281744193
-0.2035527676 -0.0847660825 0.5038660169 4281809986
-0.2036162466 -0.0836725011 0.5040231347 4281941318
-0.2040179521 -0.0832764655 0.5050175190 4282072904
-0.2040492594 -0.0827280432 0.5050950050 4282270283
-0.2044507414 -0.0823285207 0.5060888529 4282336076
-0.2044817060 -0.0817786008 0.5061655045 4282467662
-0.2048829645 -0.0813755915 0.5071587563 4282533455
-0.2045430392 -0.0806780234 0.5063173175 4282665041
-0.2049440145 -0.0802725181 0.5073098540 4282796627
-0.2057155520 -0.0800089389 0.5092197061 4282796627
-0.2061163932 -0.0795979574 0.5102118850 4282862420
-0.2065171450 -0.0791847333 0.5112039447 4283059799
-0.2069178075 -0.0787692666 0.5121957064 4283322971
-0.2069474906 -0.0782114044 0.5122691989 4283520350
-0.2073478997 -0.0777924657 0.5132603645 4283586143
-0.2077482194 -0.0773712844 0.5142512918 4283520352
-0.2081484348 -0.0769478604 0.5152419209 4283454559
-0.2081774622 -0.0763860419 0.5153138041 4283783522
-0.2082062960 -0.0758239925 0.5153851509 4283980901
-0.2086060941 -0.0753958598 0.5163748264 4284046948
-0.2086345702 -0.0748323426 0.5164452791 4286612875
-0.2090341151 -0.0744007453 0.5174342990 4291810522
-0.2032119185 -0.1605160981 0.5044090748 4287994013
-0.2032687068 -0.1600003690 0.5045500398 4286743946
-0.2033253461 -0.1594841927 0.5046905875 4284901742
-0.2033818215 -0.1589675993 0.5048307776 4281151026
-0.2034381479 -0.1584505737 0.5049706101 4280229924
-0.2034943402 -0.1579331160 0.5051100850 4280032545
-0.2028323710 -0.1568599641 0.5034669638 4279835166
-0.2032471448 -0.1566202044 0.5044965148 4279769373
-0.2033027560 -0.1561023742 0.5046345592 4279835166
-0.2033582330 -0.1555841267 0.5047722459 4279966753
-0.2034135461 -0.1550654620 0.5049095154 4279966753
-0.2023902386 -0.1537272036 0.5023695230 4279966753
-0.2017257959 -0.1526661813 0.5007202029 4279966753
-0.2010607868 -0.1516084075 0.4990695715 4279900960
-0.2003952563 -0.1505538970 0.4974175990 4279900960
-0.2011686713 -0.1505801529 0.4993373454 4279900960
-0.1990625560 -0.1484546810 0.4941096008 4279900960
-0.1987554729 -0.1476775259 0.4933473468 4280032546
-0.1955667585 -0.1447689235 0.4854323864 4280098339
-0.1966992319 -0.1450647712 0.4882434011 4280098339
-0.1942286342 -0.1427070498 0.4821109176 4280098339
-0.1942796707 -0.1422087401 0.4822375774 4280098339
-0.1943305433 -0.1417100430 0.4823638797 4280032546
-0.1940206289 -0.1409489661 0.4815946221 4279900960
-0.1937103868 -0.1401893497 0.4808245301 4279966753
-0.1937606186 -0.1396913379 0.4809492230 4280032546
-0.1934497803 -0.1389337331 0.4801776707 4280032546
-0.1934996247 -0.1384358704 0.4803013802 4280032546
-0.1935493052 -0.1379376352 0.4804246724 4280032546
-0.1935988218 -0.1374390125 0.4805476069 4279835681
-0.1925643533 -0.1361735463 0.4779798388 4279901474
-0.1926132888 -0.1356769502 0.4781013429 4279835681
-0.1923006177 -0.1349263489 0.4773252010 4279835681
-0.1923491508 -0.1344299316 0.4774456918 4279769888
-0.1916742474 -0.1334296316 0.4757704437 4279769888
-0.1924457699 -0.1334359795 0.4776855409 4279835681
-0.1917701960 -0.1324386746 0.4760085940 4279835681
-0.1918179244 -0.1319426298 0.4761271179 4279769888
-0.1925895363 -0.1319422424 0.4780423641 4279901474
-0.1922750473 -0.1311965138 0.4772617519 4279967267
-0.1930467933 -0.1311907023 0.4791773558 4279967267
-0.1927318871 -0.1304451674 0.4783957303 4279836194
-0.1942285001 -0.1309224516 0.4821105599 4279901987
-0.1931884587 -0.1296886057 0.4795290232 4279836194
-0.1935979128 -0.1294295490 0.4805453420 4279836194
-0.1932821274 -0.1286853850 0.4797615111 4279901987
-0.1936914325 -0.1284237206 0.4807774723 4279901987
-0.1937379390 -0.1279202551 0.4808929265 4279836194
-0.1937842965 -0.1274164319 0.4810079932 4279901987
-0.1938305050 -0.1269122362 0.4811226726 4279901987
-0.1938765347 -0.1264076978 0.4812369347 4279901987
-0.1935592592 -0.1256670058 0.4804493785 4280033060
-0.1936048716 -0.1251626909 0.4805626273 4280098853
-0.1936503351 -0.1246580184 0.4806754887 4280164648
-0.1936956346 -0.1241529882 0.4807879329 4280164648
-0.1937407851 -0.1236476079 0.4808999598 4280230441
-0.1941493303 -0.1233729050 0.4819140732 4280098855
-0.1938305646 -0.1226357892 0.4811228216 4280033573
-0.1942389458 -0.1223584861 0.4821365178 4280033573
-0.1939196885 -0.1216225624 0.4813440740 4280099368
-0.1943279207 -0.1213426590 0.4823573530 4280165161
-0.1943721473 -0.1208342239 0.4824671447 4280230441
-0.1940521449 -0.1201001182 0.4816728532 4280296234
-0.1940959692 -0.1195919439 0.4817816019 4280296234
-0.1941396296 -0.1190834269 0.4818899632 4280362027
-0.1938187927 -0.1183521003 0.4810936153 4280362027
-0.1938620359 -0.1178438589 0.4812009335 4280362027
-0.1939051002 -0.1173352748 0.4813078344 4280427820
-0.1939480007 -0.1168263480 0.4814143479 4280493613
-0.1939907521 -0.1163170859 0.4815204442 4280493613
-0.1940333098 -0.1158074960 0.4816260934 4280493613
-0.1940757185 -0.1152975634 0.4817313552 4280427820
-0.1944828331 -0.1150030643 0.4827418923 4280362027
-0.1945249736 -0.1144915074 0.4828464985 4280296234
-0.1949319839 -0.1141934618 0.4838567674 4280362027
-0.1949738711 -0.1136802807 0.4839607179 4280493613
-0.1950155795 -0.1131667718 0.4840642512 4280493613
-0.1950571239 -0.1126529276 0.4841673672 4280493613
-0.1947331280 -0.1119287685 0.4833631814 4280493613
-0.1947742552 -0.1114152372 0.4834652245 4280493613
-0.1951806992 -0.1111094505 0.4844741225 4280493613
-0.1948559731 -0.1103872061 0.4836680889 4280427820
-0.1948965788 -0.1098726988 0.4837688506 4279769890
-0.1949370056 -0.1093578786 0.4838692248 4279506718
-0.1949772537 -0.1088427380 0.4839691520 4279901476
-0.1957491189 -0.1087337583 0.4858850241 4280296234
-0.1950572431 -0.1078115031 0.4841676950 4280427820
-0.1958290488 -0.1076980159 0.4860834479 4280362027
-0.1951365471 -0.1067790017 0.4843645096 4280362027
-0.1951759309 -0.1062622815 0.4844622612 4280296236
-0.1933838427 -0.1047532633 0.4800139964 4280296236
-0.1941551715 -0.1046356261 0.4819285870 4280362029
-0.1941938102 -0.1041208878 0.4820244908 4280362029
-0.1942322701 -0.1036058366 0.4821199477 4280427822
-0.1942705661 -0.1030904874 0.4822149873 4280493615
-0.1943086684 -0.1025748253 0.4823095798 4280559408
-0.1947133094 -0.1022514328 0.4833139479 4280559408
-0.1951178908 -0.1019257903 0.4843182266 4280493615
-0.1955224574 -0.1015978903 0.4853224158 4280493615
-0.1955600679 -0.1010781080 0.4854157865 4280493615
-0.1966984272 -0.1011240184 0.4882414043 4280559408
-0.1971029341 -0.1007883921 0.4892454743 4280625201
-0.1971402913 -0.1002638042 0.4893381894 4280690994
