VERSION 0.7
FIELDS x y z rgba
SIZE 4 4 4 4
TYPE F F F U
COUNT 1 1 1 1
WIDTH 920
HEIGHT 1
VIEWPOINT 0.0 0.0 0.0 1.0 0.0 0.0 0.0
POINTS 920
DATA ascii
-0.2161202878 -0.0417788588 0.5192711949 4294833640
-0.2246796191 -0.0904590636 0.5412811041 4288585633
-0.2254721671 -0.0901746303 0.5431904197 4287861138
-0.2255067080 -0.0895848349 0.5432736874 4287071622
-0.2251619846 -0.0888451934 0.5424431562 4286807674
-0.2255751640 -0.0884044319 0.5434386134 4286610295
-0.2252299041 -0.0876662433 0.5426067710 4286675568
-0.2252635211 -0.0870763659 0.5426877737 4286478189
-0.2252969444 -0.0864862278 0.5427682996 4286411877
-0.2253301293 -0.0858958215 0.5428482890 4286346084
-0.2253631055 -0.0853051618 0.5429276824 4286542691
-0.2253958732 -0.0847142413 0.5430065989 4286411105
-0.2254284173 -0.0841230676 0.5430850387 4286410847
-0.2254607379 -0.0835316405 0.5431628823 4286279261
-0.2254928350 -0.0829399526 0.5432402492 4286409818
-0.2259043902 -0.0824866518 0.5442317128 4286344025
-0.2266955525 -0.0821687356 0.5461377501 4286277973
-0.2267271578 -0.0815733075 0.5462138653 4286080594
-0.2263787091 -0.0808419883 0.5453743935 4286014799
-0.2260299325 -0.0801124275 0.5445341468 4286014799
-0.2260607779 -0.0795182586 0.5446084738 4286014799
-0.2264713645 -0.0790564865 0.5455976725 4286080592
-0.2261217833 -0.0783291906 0.5447554588 4286409557
-0.2257718593 -0.0776036531 0.5439124107 4286804315
-0.2258017659 -0.0770095214 0.5439844728 4287199075
-0.2254512459 -0.0762865171 0.5431400537 4287330661
-0.2243399471 -0.0753099844 0.5404627919 4287264868
-0.2239886820 -0.0745925158 0.5396165252 4287330661
-0.2228764445 -0.0736255422 0.5369369984 4287133539
-0.2236656100 -0.0732875541 0.5388382077 4286870367
-0.2217917293 -0.0720798746 0.5343238115 4286738781
-0.2206781060 -0.0711272657 0.5316409469 4286738781
-0.2203250229 -0.0704237223 0.5307903290 4286541402
-0.2188299149 -0.0693600848 0.5271884203 4286080851
-0.2161923498 -0.0679454058 0.5208342075 4286209858
-0.2177412659 -0.0678493679 0.5245657563 4285880893
-0.2166253328 -0.0669217929 0.5218773484 4285684027
-0.2162704319 -0.0662332624 0.5210223198 4285947199
-0.2155344188 -0.0654309317 0.5192492008 4286144577
-0.2144171745 -0.0645178333 0.5165575743 4286078784
-0.2136803269 -0.0637241527 0.5147824287 4285947198
-0.2137049586 -0.0631594807 0.5148417950 4285947198
-0.2133484185 -0.0624830276 0.5139828324 4286341443
-0.2126105428 -0.0616978295 0.5122051835 4286604615
-0.2118722796 -0.0609164722 0.5104265809 4287196236
-0.2115147412 -0.0602475107 0.5095652342 4287327822
-0.2111569047 -0.0595803820 0.5087031722 4286669892
-0.2111799717 -0.0590216219 0.5087587833 4286077755
-0.2112028152 -0.0584626794 0.5088137984 4286144318
-0.2112254500 -0.0579035580 0.5088683367 4286407490
-0.2112478763 -0.0573442541 0.5089223385 4286604616
-0.2112700939 -0.0567847751 0.5089758635 4286407237
-0.2116734833 -0.0563266091 0.5099477172 4286012479
-0.2116953135 -0.0557657704 0.5100002885 4285551928
-0.2117169201 -0.0552047603 0.5100523233 4285420341
-0.2117383182 -0.0546435751 0.5101038814 4284893997
-0.2117594928 -0.0540822223 0.5101549029 4284433446
-0.2117804587 -0.0535207056 0.5102054477 4285486134
-0.2118012160 -0.0529590175 0.5102553964 4286011964
-0.2118217498 -0.0523971692 0.5103048682 4285946171
-0.2122237682 -0.0519285537 0.5112733841 4285814072
-0.2122439146 -0.0513653643 0.5113219619 4285879865
-0.2126456052 -0.0508933887 0.5122896433 4285880376
-0.2130471617 -0.0504192300 0.5132570863 4286340927
-0.2130667269 -0.0498535410 0.5133041739 4286538306
-0.2130860686 -0.0492876992 0.5133507848 4286867271
-0.2131052017 -0.0487217046 0.5133969188 4287195723
-0.2131241113 -0.0481555574 0.5134424567 4287064137
-0.2135247886 -0.0476745442 0.5144076943 4286735687
-0.2135432959 -0.0471070856 0.5144523382 4286735687
-0.2139436305 -0.0466227308 0.5154167414 4286670408
-0.2139617354 -0.0460539646 0.5154603720 4286209857
-0.2143617272 -0.0455662757 0.5164240003 4286210111
-0.2147615701 -0.0450764149 0.5173872709 4287262799
-0.2151612490 -0.0445843786 0.5183501244 4287197006
-0.2151785642 -0.0440119952 0.5183918476 4287131213
-0.2151956558 -0.0434394777 0.5184330344 4286672212
-0.2152125388 -0.0428668223 0.5184737444 4287593314
-0.2156114876 -0.0423691571 0.5194348097 4290161824
-0.2156279534 -0.0417952202 0.5194745064 4294240990
-0.2238209695 -0.0897544175 0.5406591296 4288913826
-0.2238552868 -0.0891673788 0.5407420993 4287992724
-0.2246457934 -0.0888793245 0.5426515937 4287531655
-0.2239232957 -0.0879924968 0.5409063697 4287136897
-0.2239569873 -0.0874046534 0.5409877300 4286872949
-0.2239904404 -0.0868165493 0.5410685539 4286543984
-0.2240236998 -0.0862281770 0.5411488414 4286477929
-0.2240567207 -0.0856395513 0.5412286520 4286412136
-0.2240895480 -0.0850506648 0.5413079262 4286411875
-0.2241221368 -0.0844615176 0.5413866639 4286346082
-0.2241545171 -0.0838721097 0.5414648652 4286476641
-0.2241866887 -0.0832824558 0.5415425897 4286345055
-0.2242186368 -0.0826925412 0.5416197181 4286475870
-0.2242503613 -0.0821023807 0.5416963696 4286410077
-0.2254184335 -0.0819250345 0.5445179939 4286343512
-0.2243131548 -0.0809213072 0.5418480635 4286146133
-0.2247231901 -0.0804660991 0.5428385735 4286146385
-0.2255121171 -0.0801433325 0.5447442532 4286080592
-0.2247847766 -0.0792815536 0.5429873466 4285883726
-0.2248152494 -0.0786889195 0.5430608988 4285817933
-0.2248454839 -0.0780960470 0.5431339741 4286015312
-0.2248755097 -0.0775029287 0.5432065129 4286410070
-0.2249053121 -0.0769095793 0.5432785153 4286870367
-0.2245555818 -0.0761872977 0.5424336791 4287199332
-0.2242055237 -0.0754667893 0.5415880680 4287199332
-0.2242345661 -0.0748747438 0.5416582227 4287265125
-0.2242633849 -0.0742824674 0.5417278409 4287199332
-0.2235329449 -0.0734405890 0.5399634242 4287067746
-0.2216634303 -0.0722314492 0.5354474187 4287133539
-0.2224504650 -0.0718908831 0.5373485684 4287067746
-0.2209595293 -0.0708160177 0.5337471366 4286738783
-0.2190883011 -0.0696282908 0.5292270184 4286409818
-0.2191151381 -0.0690487400 0.5292918086 4286539595
-0.2172427773 -0.0678756535 0.5247689486 4286079044
-0.2161294222 -0.0669477284 0.5220795870 4285749566
-0.2165351361 -0.0664922446 0.5230595469 4285749566
-0.2146611214 -0.0653406531 0.5185327530 4285946686
-0.2143063545 -0.0646574944 0.5176757574 4285880893
-0.2139512748 -0.0639761463 0.5168180466 4285947199
-0.2135958970 -0.0632966086 0.5159596205 4286144578
-0.2124800086 -0.0623956546 0.5132640600 4286605129
-0.2117438018 -0.0616111681 0.5114856958 4286868301
-0.2117675990 -0.0610497296 0.5115431547 4287131472
-0.2106504589 -0.0601623133 0.5088446736 4286539335
-0.2110539824 -0.0597111136 0.5098193884 4285551927
-0.2106967270 -0.0590445511 0.5089564323 4285617720
-0.2107195407 -0.0584853962 0.5090115070 4286407236
-0.2107421458 -0.0579260625 0.5090661049 4286670408
-0.2107645422 -0.0573665462 0.5091202259 4286341444
-0.2111672014 -0.0569093935 0.5100928545 4286144065
-0.2111892104 -0.0563485175 0.5101460218 4286144065
-0.2112109959 -0.0557874627 0.5101986527 4285880893
-0.2112325728 -0.0552262366 0.5102508068 4285420855
-0.2112539411 -0.0546648428 0.5103023648 4284697132
-0.2116557658 -0.0542007573 0.5112730265 4284630826
-0.2116767317 -0.0536380112 0.5113236904 4285486135
-0.2116974890 -0.0530750975 0.5113738179 4285814585
-0.2117180377 -0.0525120199 0.5114234686 4285617206
-0.2117383629 -0.0519487821 0.5114725828 4285616693
-0.2117584795 -0.0513853766 0.5115211606 4285748279
-0.2125401646 -0.0510046296 0.5134093761 4285880378
-0.2125599235 -0.0504388809 0.5134571195 4286801480
-0.2125794590 -0.0498729758 0.5135042667 4286998859
-0.2125987709 -0.0493069179 0.5135509372 4286669894
-0.2126178741 -0.0487407036 0.5135971308 4286800967
-0.2126367539 -0.0481743403 0.5136427283 4286932553
-0.2130365223 -0.0476931445 0.5146083832 4287196238
-0.2130550146 -0.0471254662 0.5146530271 4287130445
-0.2134544402 -0.0466409251 0.5156179070 4286670408
-0.2134725153 -0.0460719392 0.5156615973 4286670408
-0.2138716131 -0.0455840640 0.5166256428 4286998857
-0.2142705470 -0.0450940132 0.5175892711 4287196236
-0.2142880261 -0.0445225686 0.5176315308 4286801994
-0.2146866173 -0.0440291874 0.5185943246 4286867787
-0.2147036940 -0.0434564464 0.5186355710 4286935384
-0.2151019275 -0.0429597422 0.5195975304 4287659107
-0.2155000120 -0.0424608663 0.5205591321 4289503894
-0.2155164778 -0.0418856889 0.5205989480 4293714646
-0.2225857526 -0.0889002010 0.5391218066 4288913828
-0.2226196975 -0.0883146599 0.5392040610 4288453529
-0.2226534337 -0.0877288580 0.5392857194 4287795599
-0.2226869464 -0.0871427879 0.5393669009 4287070844
-0.2227202505 -0.0865564570 0.5394475460 4286478707
-0.2227533311 -0.0859698579 0.5395277143 4286478444
-0.2227862030 -0.0853830054 0.5396072865 4286412651
-0.2228188515 -0.0847958848 0.5396863818 4286411877
-0.2228512913 -0.0842085183 0.5397650003 4286411877
-0.2228835225 -0.0836208835 0.5398430228 4286476898
-0.2232933491 -0.0831737369 0.5408356786 4286345312
-0.2240809500 -0.0828640833 0.5427432656 4286410848
-0.2244906127 -0.0824114457 0.5437355042 4286345055
-0.2245221734 -0.0818188190 0.5438119769 4286343772
-0.2245535254 -0.0812259465 0.5438879132 4286146393
-0.2238284796 -0.0803613290 0.5421317816 4286015058
-0.2238592803 -0.0797699615 0.5422064066 4286015058
-0.2238898724 -0.0791783482 0.5422804952 4286015058
-0.2239202261 -0.0785864890 0.5423540473 4285817679
-0.2239503860 -0.0779943988 0.5424270630 4285817933
-0.2239803076 -0.0774020627 0.5424995422 4285949519
-0.2236316204 -0.0766797513 0.5416550040 4286409816
-0.2236610502 -0.0760879442 0.5417262912 4286804574
-0.2233117819 -0.0753681660 0.5408802629 4287001696
-0.2233407199 -0.0747769028 0.5409504175 4287199075
-0.2233694494 -0.0741854087 0.5410199761 4287199073
-0.2222620249 -0.0732194781 0.5383377075 4287330659
-0.2222901732 -0.0726305395 0.5384058952 4287659624
-0.2200456709 -0.0713050142 0.5329695344 4287593831
-0.2212094367 -0.0710868239 0.5357882380 4287199075
-0.2193426192 -0.0698966384 0.5312666893 4287001696
-0.2174751312 -0.0687162876 0.5267434120 4286935382
-0.2182594091 -0.0683767423 0.5286430120 4286409038
-0.2171488106 -0.0674444363 0.5259530544 4286144841
-0.2149006873 -0.0661678687 0.5205079317 4285881669
-0.2153052241 -0.0657130182 0.5214877129 4285881154
-0.2145723253 -0.0649118870 0.5197125673 4285946947
-0.2138390243 -0.0641145930 0.5179364681 4286210117
-0.2123469561 -0.0630957782 0.5143225789 4286604875
-0.2131297290 -0.0627548173 0.5162184834 4287000400
-0.2120160758 -0.0618563481 0.5135211349 4287263572
-0.2116605937 -0.0611830316 0.5126601458 4286736974
-0.2109254599 -0.0604029074 0.5108795762 4285750079
-0.2105693370 -0.0597342625 0.5100170374 4285420855
-0.2105923742 -0.0591740683 0.5100728273 4285815613
-0.2102357149 -0.0585080832 0.5092089176 4286473029
-0.2102582753 -0.0579485334 0.5092636347 4286538822
-0.2106602043 -0.0574923977 0.5102370977 4286012738
-0.2110619992 -0.0570340604 0.5112102628 4286078531
-0.2110840082 -0.0564719588 0.5112636089 4286341957
-0.2111058086 -0.0559096821 0.5113163590 4285947199
-0.2111273855 -0.0553472303 0.5113686919 4285223476
-0.2111487538 -0.0547846071 0.5114204288 4285026097
-0.2111699134 -0.0542218164 0.5114716887 4285420855
-0.2111908495 -0.0536588542 0.5115224123 4285091890
-0.2115914524 -0.0531912223 0.5124926567 4285288756
-0.2116120011 -0.0526269153 0.5125424266 4285288756
-0.2116323411 -0.0520624481 0.5125917196 4284828205
-0.2120324522 -0.0515902713 0.5135607719 4285420342
-0.2120523900 -0.0510244668 0.5136091113 4286012479
-0.2124521583 -0.0505489297 0.5145773888 4286801995
-0.2120916098 -0.0498923808 0.5137041211 4287130960
-0.2124910355 -0.0494145043 0.5146715045 4286275651
-0.2125101388 -0.0488470569 0.5147178173 4286669381
-0.2125290185 -0.0482794605 0.5147635341 4287064139
-0.2125476897 -0.0477117151 0.5148087740 4287656789
-0.2125661522 -0.0471438169 0.5148534775 4287262031
-0.2129646838 -0.0466590934 0.5158187151 4286473283
-0.2133630514 -0.0461721905 0.5167836547 4286868041
-0.2137612849 -0.0456831120 0.5177481771 4287197006
-0.2141593397 -0.0451918580 0.5187123418 4286868041
-0.2141768336 -0.0446191728 0.5187546611 4286341956
-0.2141941041 -0.0440463498 0.5187965035 4286670921
-0.2142111510 -0.0434733890 0.5188378096 4287132763
-0.2142279744 -0.0429002941 0.5188785195 4287593314
-0.2142445743 -0.0423270613 0.5189187527 4288845964
-0.2150221020 -0.0419020243 0.5208020210 4293254095
-0.2217629701 -0.0876136944 0.5385777950 4288651167
-0.2217963636 -0.0870283991 0.5386589170 4287598218
-0.2218295634 -0.0864428505 0.5387395024 4286874495
-0.2218625396 -0.0858570337 0.5388196111 4286610545
-0.2218953073 -0.0852709562 0.5388991833 4286413166
-0.2219278514 -0.0846846178 0.5389782190 4286543722
-0.2219601870 -0.0840980262 0.5390567780 4286412136
-0.2227461040 -0.0837947503 0.5409654379 4286477670
-0.2220242023 -0.0829240754 0.5392122269 4286411877
-0.2220558971 -0.0823367238 0.5392891765 4286411109
-0.2232185453 -0.0821654946 0.5421128273 4286279523
-0.2224957347 -0.0812990591 0.5403574109 4286213215
-0.2225268185 -0.0807099566 0.5404328704 4286081629
-0.2225576937 -0.0801206157 0.5405078530 4286015060
-0.2225883454 -0.0795310214 0.5405822992 4286015060
-0.2226187736 -0.0789411888 0.5406562090 4286015058
-0.2234037369 -0.0786167160 0.5425626040 4285949265
-0.2226789892 -0.0777608007 0.5408024788 4285817679
-0.2227087766 -0.0771702528 0.5408747792 4285751886
-0.2231158614 -0.0767092630 0.5418634415 4285949008
-0.2227676809 -0.0759884417 0.5410178304 4286212180
-0.2227967978 -0.0753971860 0.5410885811 4286738524
-0.2228257060 -0.0748057067 0.5411587954 4287133282
-0.2224766612 -0.0740882009 0.5403110981 4287461475
-0.2228828371 -0.0736220479 0.5412975550 4287593061
-0.2229110897 -0.0730298758 0.5413661003 4287922280
-0.2218055129 -0.0720691606 0.5386811495 4288053866
-0.2210773528 -0.0712360144 0.5369126797 4287856233
-0.2199708223 -0.0702859014 0.5342253447 4287658854
-0.2192417979 -0.0694613680 0.5324548483 4287593314
-0.2185123712 -0.0686406419 0.5306833386 4287066970
-0.2170263529 -0.0675882250 0.5270743966 4286540113
-0.2144053429 -0.0661934242 0.5207089186 4286145355
-0.2151871473 -0.0658541322 0.5226076245 4285882183
-0.2140777558 -0.0649369657 0.5199133754 4285947976
-0.2129679024 -0.0640256405 0.5172179341 4286408009
-0.2122358829 -0.0632328838 0.5154401064 4286605388
-0.2115034759 -0.0624439567 0.5136613846 4287197779
-0.2107706815 -0.0616588704 0.5118817091 4287197779
-0.2111728489 -0.0612066984 0.5128584504 4286474056
-0.2104394138 -0.0604262762 0.5110772252 4285750333
-0.2100841403 -0.0597573742 0.5102143884 4285947199
-0.2101071477 -0.0591969714 0.5102702379 4286276164
-0.2097513080 -0.0585307293 0.5094060898 4286342210
-0.2105311602 -0.0581802540 0.5113000274 4286079038
-0.2105535567 -0.0576182939 0.5113543868 4285881665
-0.2105757445 -0.0570561551 0.5114083290 4286276423
-0.2105977237 -0.0564938374 0.5114616752 4285947458
-0.2106194943 -0.0559313484 0.5115145445 4285223735
-0.2106410414 -0.0553686842 0.5115668774 4285354808
-0.2106623799 -0.0548058450 0.5116186738 4285815359
-0.2106834948 -0.0542428382 0.5116699934 4286145091
-0.2110833675 -0.0537762120 0.5126411319 4285092403
-0.2111041099 -0.0532118566 0.5126914978 4284829231
-0.2115036696 -0.0527418554 0.5136618614 4285092403
-0.2111449242 -0.0520826504 0.5127906203 4284895024
-0.2115441263 -0.0516102947 0.5137600899 4285618747
-0.2115640342 -0.0510442741 0.5138084888 4286342470
-0.2119629085 -0.0505685583 0.5147771835 4286868814
-0.2119824141 -0.0500012040 0.5148245692 4286934094
-0.2120017111 -0.0494336970 0.5148714185 4286407750
-0.2120207846 -0.0488660336 0.5149177313 4287064652
-0.2120396495 -0.0482982211 0.5149635673 4287459410
-0.2120582908 -0.0477302559 0.5150088668 4287657555
-0.2124561071 -0.0472465083 0.5159749985 4286868039
-0.2124743462 -0.0466772318 0.5160192847 4286078523
-0.2128718197 -0.0461901426 0.5169845819 4286473281
-0.2128896564 -0.0456195585 0.5170279145 4286999627
-0.2132867873 -0.0451291315 0.5179923773 4286933834
-0.2133042216 -0.0445572473 0.5180346966 4286736715
-0.2137010098 -0.0440634862 0.5189983249 4287131473
-0.2137180269 -0.0434903055 0.5190396905 4287330657
-0.2137348205 -0.0429169908 0.5190805197 4287330657
-0.2141310722 -0.0424187481 0.5200428367 4288385928
-0.2152865380 -0.0420667231 0.5228490233 4292925645
-0.2205312550 -0.0867660418 0.5370350480 4288387993
-0.2205642909 -0.0861822590 0.5371154547 4287532684
-0.2205971032 -0.0855982229 0.5371953845 4287136891
-0.2206297070 -0.0850139186 0.5372747779 4286742133
-0.2206620872 -0.0844293609 0.5373536348 4286806894
-0.2206942588 -0.0838445425 0.5374319553 4286609515
-0.2211022526 -0.0834013149 0.5384255052 4286609002
-0.2211340517 -0.0828149915 0.5385029316 4286477416
-0.2211656272 -0.0822284222 0.5385798216 4286280039
-0.2211969942 -0.0816415995 0.5386562347 4286148453
-0.2212281525 -0.0810545236 0.5387321115 4286213476
-0.2212590873 -0.0804672092 0.5388074517 4286016097
-0.2212897986 -0.0798796415 0.5388822556 4286212441
-0.2213203013 -0.0792918354 0.5389565229 4286080855
-0.2213505954 -0.0787037835 0.5390302539 4285949267
-0.2213806659 -0.0781154931 0.5391035080 4285949267
-0.2217870653 -0.0776588097 0.5400931239 4285949008
-0.2218167484 -0.0770690441 0.5401654243 4285817422
-0.2218462080 -0.0764790401 0.5402371883 4285685836
-0.2218754590 -0.0758887976 0.5403084159 4285751629
-0.2219044864 -0.0752983242 0.5403791070 4286079822
-0.2219332904 -0.0747076273 0.5404492617 4286737752
-0.2219618708 -0.0741166919 0.5405188799 4287198557
-0.2219902426 -0.0735255331 0.5405879617 4287395936
-0.2220183909 -0.0729341507 0.5406565070 4287790180
-0.2212923467 -0.0720968917 0.5388884544 4288250731
-0.2205658853 -0.0712634325 0.5371193886 4288250732
-0.2202161103 -0.0705545917 0.5362675786 4287987560
-0.2191117555 -0.0696079284 0.5335782766 4287790434
-0.2183840871 -0.0687858835 0.5318062305 4287264090
-0.2157699019 -0.0673786774 0.5254402757 4286672212
-0.2161730081 -0.0669196621 0.5264218450 4286211661
-0.2150667459 -0.0659952983 0.5237278938 4285882694
-0.2132052779 -0.0648472309 0.5191949010 4286014280
-0.2128527611 -0.0641641021 0.5183364749 4286474570
-0.2109901607 -0.0630317554 0.5138006806 4286671949
-0.2106368691 -0.0623563007 0.5129403472 4287066192
-0.2106608152 -0.0617934093 0.5129986405 4286671434
-0.2110621035 -0.0613400564 0.5139758587 4286407749
-0.2099528164 -0.0604496077 0.5112745166 4286276163
-0.2099760324 -0.0598881654 0.5113310814 4286276163
-0.2099990398 -0.0593265407 0.5113871098 4286473542
-0.2100218236 -0.0587647296 0.5114426017 4286342721
-0.2100444138 -0.0582027361 0.5114976168 4285684791
-0.2100667804 -0.0576405637 0.5115520358 4285553470
-0.2100889385 -0.0570782125 0.5116060376 4286277193
-0.2101108730 -0.0565156825 0.5116594434 4285092919
-0.2105105519 -0.0560536161 0.5126327276 4284237610
-0.2105320990 -0.0554897226 0.5126852393 4285684286
-0.2105534375 -0.0549256615 0.5127371550 4286342216
-0.2105745673 -0.0543614291 0.5127886534 4286276423
-0.2105954885 -0.0537970252 0.5128395557 4285289528
-0.2109943181 -0.0533280261 0.5138107538 4284895540
-0.2110148370 -0.0527622774 0.5138607621 4285158712
-0.2110351473 -0.0521963648 0.5139102340 4285553470
-0.2114334702 -0.0517228171 0.5148802400 4285948228
-0.2114533782 -0.0511555634 0.5149286985 4286408779
-0.2114730775 -0.0505881533 0.5149766803 4286606158
-0.2114925683 -0.0500205867 0.5150241256 4286144837
-0.2118902057 -0.0495413281 0.5159924626 4286539595
-0.2115308791 -0.0488849841 0.5151174068 4287064650
-0.2115496993 -0.0483169518 0.5151632428 4287393615
-0.2119468004 -0.0478341877 0.5161302686 4287394383
-0.2119652331 -0.0472648405 0.5161751509 4286539074
-0.2123619765 -0.0467787273 0.5171413422 4285815862
-0.2123800069 -0.0462080687 0.5171852112 4286144827
-0.2127764225 -0.0457186177 0.5181505680 4286736966
-0.2127940506 -0.0451466516 0.5181934834 4287065931
-0.2128114551 -0.0445745476 0.5182358623 4286671435
-0.2132073343 -0.0440806001 0.5191999078 4287197779
-0.2132243216 -0.0435071997 0.5192412734 4287330657
-0.2132411003 -0.0429336615 0.5192821622 4287199071
-0.2136364430 -0.0424352288 0.5202448368 4288385928
-0.2144104391 -0.0420088470 0.5221297145 4292991438
-0.2193345577 -0.0853391364 0.5355694294 4287795597
-0.2193669975 -0.0847566128 0.5356485844 4286874495
-0.2193992287 -0.0841738284 0.5357273221 4286939773
-0.2194312364 -0.0835907981 0.5358054638 4286610808
-0.2194630504 -0.0830075070 0.5358831286 4286478707
-0.2198698372 -0.0825648606 0.5368764400 4286281328
-0.2199012637 -0.0819800645 0.5369531512 4286083433
-0.2199324816 -0.0813950226 0.5370293856 4285820261
-0.2199634761 -0.0808097348 0.5371050835 4285819746
-0.2199942619 -0.0802242011 0.5371802449 4285753953
-0.2200248241 -0.0796384141 0.5372548699 4286409565
-0.2204307020 -0.0791872889 0.5382459164 4286146393
-0.2204608768 -0.0786000267 0.5383196473 4286081112
-0.2204908580 -0.0780125186 0.5383928418 4286015319
-0.2205206007 -0.0774247721 0.5384654999 4285883474
-0.2209258676 -0.0769676864 0.5394550562 4285817681
-0.2209552377 -0.0763784647 0.5395267606 4285817422
-0.2209843844 -0.0757890120 0.5395979285 4285422664
-0.2213891894 -0.0753272101 0.5405864120 4285488457
-0.2214179486 -0.0747362897 0.5406566262 4285751629
-0.2214464992 -0.0741451383 0.5407263041 4286277971
-0.2210988104 -0.0734288767 0.5398772955 4286804315
-0.2211268693 -0.0728382766 0.5399458408 4287330657
-0.2207785845 -0.0721245855 0.5390954018 4287857001
-0.2200538367 -0.0712908134 0.5373257399 4288053865
-0.2189524770 -0.0703399852 0.5346364379 4287659107
-0.2167218477 -0.0690354183 0.5291897058 4287724901
-0.2182534486 -0.0689311773 0.5329295397 4287395936
-0.2152690738 -0.0674045905 0.5256423354 4287066970
-0.2160476446 -0.0670622364 0.5275434256 4286738005
-0.2138147056 -0.0657890439 0.5220910311 4286671183
-0.2142163664 -0.0653314590 0.5230718255 4286605390
-0.2134883404 -0.0645302311 0.5212941170 4286670668
-0.2112536579 -0.0632816255 0.5158374906 4286736461
-0.2116544992 -0.0628274828 0.5168163180 4286999887
-0.2101719677 -0.0618172102 0.5131962299 4286407750
-0.2101956457 -0.0612539165 0.5132541060 4286342210
-0.2094656527 -0.0604729019 0.5114715695 4286539589
-0.2098656148 -0.0600190051 0.5124481916 4286539587
-0.2095118016 -0.0593494102 0.5115842819 4286408001
-0.2095345557 -0.0587873906 0.5116398335 4285882170
-0.2099340111 -0.0583299063 0.5126152039 4285487412
-0.2095794380 -0.0576628000 0.5117493868 4285420075
-0.2096015513 -0.0571002364 0.5118034482 4285814833
-0.2096234709 -0.0565374941 0.5118569136 4284828458
-0.2096451670 -0.0559745803 0.5119099021 4284696872
-0.2100437433 -0.0555111505 0.5128831863 4285947458
-0.2100650519 -0.0549468733 0.5129352212 4286013251
-0.2100861520 -0.0543824248 0.5129867196 4285487679
-0.2101070285 -0.0538178086 0.5130376816 4285619265
-0.2105049491 -0.0533486344 0.5140093565 4286409040
-0.2105254382 -0.0527826697 0.5140593648 4287330142
-0.2105457187 -0.0522165410 0.5141088963 4287396452
-0.2109431326 -0.0517428145 0.5150792599 4287462245
-0.2109630257 -0.0511753485 0.5151278377 4286212180
-0.2109826803 -0.0506077223 0.5151758790 4286146387
-0.2110021412 -0.0500399359 0.5152233243 4285882445
-0.2113988698 -0.0495604984 0.5161920786 4287000926
-0.2114179283 -0.0489913858 0.5162386298 4286870610
-0.2114367634 -0.0484221205 0.5162845850 4286607438
-0.2118329704 -0.0479381569 0.5172520876 4286736978
-0.2122290432 -0.0474520102 0.5182191730 4286539599
-0.2122472972 -0.0468802601 0.5182637572 4286341195
-0.2122653276 -0.0463083647 0.5183078051 4286801746
-0.2122831345 -0.0457363278 0.5183513165 4287459927
-0.2126784921 -0.0452445075 0.5193166733 4287196755
-0.2126958966 -0.0446711667 0.5193591714 4286737225
-0.2127130926 -0.0440976843 0.5194011331 4286737225
-0.2127300501 -0.0435240641 0.5194425583 4286936665
-0.2131246775 -0.0430265963 0.5204061866 4287331423
-0.2131412476 -0.0424516834 0.5204465985 4288715145
-0.2139134556 -0.0420251414 0.5223321915 4293189069
-0.2177008837 -0.0849338397 0.5330258608 4288782494
-0.2177331001 -0.0843540952 0.5331047773 4288058771
-0.2181392759 -0.0839180350 0.5340992808 4287729289
-0.2181711346 -0.0833367780 0.5341772437 4287137152
-0.2182027698 -0.0827552676 0.5342547297 4286741881
-0.2189828604 -0.0824554041 0.5361647010 4286412916
-0.2190141827 -0.0818713978 0.5362414122 4286346607
-0.2190452963 -0.0812871382 0.5363175869 4286215021
-0.2190762013 -0.0807026327 0.5363932252 4286148711
-0.2191068828 -0.0801178813 0.5364683867 4285951332
-0.2191373408 -0.0795328841 0.5365429521 4286344285
-0.2191676050 -0.0789476484 0.5366170406 4286146906
-0.2191976309 -0.0783621669 0.5366905928 4286081112
-0.2184779644 -0.0775105432 0.5349285007 4286015319
-0.2188822627 -0.0770585313 0.5359184146 4285752147
-0.2189116031 -0.0764733404 0.5359902382 4285817940
-0.2196905166 -0.0761478022 0.5378973484 4285817681
-0.2204694301 -0.0758180171 0.5398044586 4285554509
-0.2204983085 -0.0752281100 0.5398752093 4285291335
-0.2205269784 -0.0746379718 0.5399453640 4285357128
-0.2205554396 -0.0740476102 0.5400150418 4285554507
-0.2198333740 -0.0732071623 0.5382471681 4285949265
-0.2194861025 -0.0724944249 0.5373969078 4286607449
-0.2191385180 -0.0717834830 0.5365458131 4287133793
-0.2191659063 -0.0711962357 0.5366128683 4287528036
-0.2188177556 -0.0704878718 0.5357604623 4287725415
-0.2184692770 -0.0697812960 0.5349072218 4287593314
-0.2166188061 -0.0686009526 0.5303764939 4287461728
-0.2170204669 -0.0681377724 0.5313599110 4287330140
-0.2159199417 -0.0672048628 0.5286653638 4287264347
-0.2140678316 -0.0660460442 0.5241305828 4287067222
-0.2122150511 -0.0648971051 0.5195941925 4286869843
-0.2103616297 -0.0637580454 0.5150561929 4286737742
-0.2133915126 -0.0640958622 0.5224746466 4286606156
-0.2115373462 -0.0629634708 0.5179349184 4286474825
-0.2108098716 -0.0621734522 0.5161536932 4286277446
-0.2093303800 -0.0611676537 0.5125312805 4286276928
-0.2097296417 -0.0607137717 0.5135088563 4286408514
-0.2097528726 -0.0601498894 0.5135657191 4286407999
-0.2093999386 -0.0594790317 0.5127015710 4285684276
-0.2094227076 -0.0589157902 0.5127573013 4285223725
-0.2094452530 -0.0583523624 0.5128125548 4285684276
-0.2094675899 -0.0577887520 0.5128672123 4285420074
-0.2094897181 -0.0572249666 0.5129213929 4285485867
-0.2095116377 -0.0566609986 0.5129750371 4284960555
-0.2095333338 -0.0560968556 0.5130282044 4285552692
-0.2095548213 -0.0555325411 0.5130807757 4286211913
-0.2095761001 -0.0549680516 0.5131328702 4285751362
-0.2103497535 -0.0545987375 0.5150271654 4284567864
-0.2103706896 -0.0540318787 0.5150783658 4285028415
-0.2103913873 -0.0534648523 0.5151290894 4287397224
-0.2104118913 -0.0528976582 0.5151792765 4288449912
-0.2104321718 -0.0523303002 0.5152289271 4287266154
-0.2104522288 -0.0517627820 0.5152780414 4287002982
-0.2104720920 -0.0511950999 0.5153266788 4286410331
-0.2104917169 -0.0506272577 0.5153747201 4286147159
-0.2105111480 -0.0500592552 0.5154222846 4286607195
-0.2109069675 -0.0495796353 0.5163914561 4287330918
-0.2109259963 -0.0490103066 0.5164380074 4287067990
-0.2109448016 -0.0484408289 0.5164840817 4286541646
-0.2117168307 -0.0480421633 0.5183743238 4286276941
-0.2117352635 -0.0474703461 0.5184194446 4286408527
-0.2117534876 -0.0468983799 0.5184640884 4286539346
-0.2117714882 -0.0463262685 0.5185081363 4286736725
-0.2121661305 -0.0458354242 0.5194743872 4287263067
-0.2121837288 -0.0452620052 0.5195174813 4287394653
-0.2122011036 -0.0446884446 0.5195600390 4286474831
-0.2122182697 -0.0441147424 0.5196020603 4286672210
-0.2126121819 -0.0436182395 0.5205665231 4287134303
-0.2130059302 -0.0431195647 0.5215306282 4287265889
-0.2133995295 -0.0426187105 0.5224943161 4288912524
-0.2137929499 -0.0421156846 0.5234575868 4293518034
-0.2183432877 -0.0848211572 0.5360565186 4289045925
-0.2183754146 -0.0842379481 0.5361353755 4288518552
-0.2184073329 -0.0836544856 0.5362137556 4287794829
-0.2184390277 -0.0830707699 0.5362915397 4287070847
-0.2177236080 -0.0822047964 0.5345351100 4286610296
-0.2177547812 -0.0816225708 0.5346116424 4286478193
-0.2177857310 -0.0810400993 0.5346876383 4286346607
-0.2178164721 -0.0804573745 0.5347630978 4286215021
-0.2178470045 -0.0798744112 0.5348380804 4286017642
-0.2178773135 -0.0792912021 0.5349125266 4286410594
-0.2179074138 -0.0787077472 0.5349863768 4286213215
-0.2179373056 -0.0781240538 0.5350597501 4286147422
-0.2190885842 -0.0779391229 0.5378863215 4286015836
-0.2191182077 -0.0773519501 0.5379589796 4285818711
-0.2191475928 -0.0767645314 0.5380311608 4285818711
-0.2184287310 -0.0759168938 0.5362662673 4285883733
-0.2195798010 -0.0757179856 0.5390923023 4285620561
-0.2192344815 -0.0750008821 0.5382444859 4285357643
-0.2192630023 -0.0744125322 0.5383145213 4285226057
-0.2192913145 -0.0738239586 0.5383840203 4285160262
-0.2196936756 -0.0733601302 0.5393718481 4285357641
-0.2193472832 -0.0726461262 0.5385214090 4285949519
-0.2190005779 -0.0719339103 0.5376701951 4286475863
-0.2186535597 -0.0712234825 0.5368182659 4287002207
-0.2179317772 -0.0703938976 0.5350462198 4287528551
-0.2172095925 -0.0695681274 0.5332731605 4287264349
-0.2176106423 -0.0691029727 0.5342577696 4287066970
-0.2165132016 -0.0681638718 0.5315634608 4286936152
-0.2146660089 -0.0669967681 0.5270283818 4287001945
-0.2150662392 -0.0665350184 0.5280109644 4286739284
-0.2143421620 -0.0657263249 0.5262333155 4286541905
-0.2121186256 -0.0644658804 0.5207742453 4286476110
-0.2125180215 -0.0640075505 0.5217548609 4286410317
-0.2102933228 -0.0627638623 0.5162929296 4286081094
-0.2099423707 -0.0620864406 0.5154313445 4286212680
-0.2095911354 -0.0614108443 0.5145689845 4286474821
-0.2092395872 -0.0607370771 0.5137059689 4286145856
-0.2092627883 -0.0601729825 0.5137628913 4285947961
-0.2089107037 -0.0595018752 0.5128985047 4285421617
-0.2089334279 -0.0589384213 0.5129542947 4285157932
-0.2089559436 -0.0583747812 0.5130095482 4285421104
-0.2089782506 -0.0578109622 0.5130643249 4285419817
-0.2090003341 -0.0572469607 0.5131185651 4285485610
-0.2090222239 -0.0566827841 0.5131722689 4285618485
-0.2090438902 -0.0561184287 0.5132254362 4286079036
-0.2090653330 -0.0555538982 0.5132781267 4285817155
-0.2094619572 -0.0550879203 0.5142518878 4285619776
-0.2098584473 -0.0546197444 0.5152252913 4284436537
-0.2098793387 -0.0540526733 0.5152766109 4285028674
-0.2099000216 -0.0534854308 0.5153273344 4287135083
-0.2099204808 -0.0529180244 0.5153775811 4286148188
-0.2099407315 -0.0523504540 0.5154272914 4283977536
-0.2099607587 -0.0517827161 0.5154765248 4284306501
-0.2099805921 -0.0512148216 0.5155251622 4285226833
-0.2100001872 -0.0506467633 0.5155733228 4285753177
-0.2103952914 -0.0501681343 0.5165433288 4286542433
-0.2104144990 -0.0495987460 0.5165904760 4286739812
-0.2108092606 -0.0491167530 0.5175596476 4286738775
-0.2112038732 -0.0486325733 0.5185284615 4286541396
-0.2112225145 -0.0480606891 0.5185742378 4286606420
-0.2116167843 -0.0475731567 0.5195422173 4286803799
-0.2116350234 -0.0469999537 0.5195869803 4286474582
-0.2116530240 -0.0464266054 0.5196312070 4286408789
-0.2116708159 -0.0458531119 0.5196748376 4286935135
-0.2120643854 -0.0453598984 0.5206411481 4287000928
-0.2120817751 -0.0447851010 0.5206838250 4286212437
-0.2120989263 -0.0442101620 0.5207259655 4286804574
-0.2121158838 -0.0436350852 0.5207675695 4287529578
-0.2128848433 -0.0432125628 0.5226554275 4287397992
-0.2129014134 -0.0426351726 0.5226961374 4289636247
-0.2132939398 -0.0421319567 0.5236598253 4294373343
-0.2167770863 -0.0832570940 0.5336664915 4288519322
-0.2168085724 -0.0826761648 0.5337440372 4287860620
-0.2168398499 -0.0820949748 0.5338210464 4287202690
-0.2168709189 -0.0815135390 0.5338975191 4286676088
-0.2169017643 -0.0809318498 0.5339734554 4286412916
-0.2169324011 -0.0803499222 0.5340489149 4286281328
-0.2169628292 -0.0797677413 0.5341237783 4286083949
-0.2169930488 -0.0791853145 0.5341981649 4286542695
-0.2170230448 -0.0786026493 0.5342720747 4286345316
-0.2170528471 -0.0780197456 0.5343453884 4286279523
-0.2170824111 -0.0774365962 0.5344181657 4286213730
-0.2171117812 -0.0768532157 0.5344904661 4286015836
-0.2175140232 -0.0764006376 0.5354807377 4286015836
-0.2179161459 -0.0759458318 0.5364706516 4286015320
-0.2179449648 -0.0753597319 0.5365416408 4285686355
-0.2179735601 -0.0747734085 0.5366120338 4285555022
-0.2187485248 -0.0744409189 0.5385198593 4285489229
-0.2176567763 -0.0734740421 0.5358321667 4285291846
-0.2180580646 -0.0730130598 0.5368200541 4285357639
-0.2177123576 -0.0723018125 0.5359690189 4285686347
-0.2177398354 -0.0717153549 0.5360366106 4286015312
-0.2173935622 -0.0710066780 0.5351841450 4286410070
-0.2170469761 -0.0702997968 0.5343309641 4286870621
-0.2174473256 -0.0698346868 0.5353165269 4286673240
-0.2152318805 -0.0685344711 0.5298625231 4286541654
-0.2163790762 -0.0683079138 0.5326867104 4286541653
-0.2156575471 -0.0674902573 0.5309104323 4286541653
-0.2153094262 -0.0667923838 0.5300534368 4286410321
-0.2127179354 -0.0654066205 0.5236735940 4286344528
-0.2108733803 -0.0642626658 0.5191326737 4286541905
-0.2123935819 -0.0641449839 0.5228751302 4286673491
-0.2109221071 -0.0631236583 0.5192525983 4286278474
-0.2101981044 -0.0623320378 0.5174702406 4286475853
-0.2105959207 -0.0618739687 0.5184496045 4286541129
-0.2094971836 -0.0609781258 0.5157446861 4285751613
-0.2087721378 -0.0601960421 0.5139597654 4285355572
-0.2095434517 -0.0598452799 0.5158585906 4285750330
-0.2088178098 -0.0590668693 0.5140721798 4285618998
-0.2088403255 -0.0585020073 0.5141276121 4284829482
-0.2088626325 -0.0579369627 0.5141825676 4285288491
-0.2088847309 -0.0573717393 0.5142369866 4285880628
-0.2089066207 -0.0568063334 0.5142908096 4285947450
-0.2089282870 -0.0562407561 0.5143442154 4286079036
-0.2089497447 -0.0556750000 0.5143970251 4285948226
-0.2089709938 -0.0551090725 0.5144493580 4285421882
-0.2093665749 -0.0546407178 0.5154231787 4284041520
-0.2093874365 -0.0540734343 0.5154744983 4286212689
-0.2094080746 -0.0535059795 0.5155253410 4286608739
-0.2094285041 -0.0529383570 0.5155756474 4284305984
-0.2094487250 -0.0523705706 0.5156254172 4283648317
-0.2094687223 -0.0518026203 0.5156746507 4284174661
-0.2094885111 -0.0512345098 0.5157233477 4284504141
-0.2095080912 -0.0506662391 0.5157715678 4285030485
-0.2099022716 -0.0501874276 0.5167419910 4286148964
-0.2099214494 -0.0496178232 0.5167891979 4287596410
-0.2103153169 -0.0491356514 0.5177587867 4287134054
-0.2103340924 -0.0485647209 0.5178050399 4286870882
-0.2107276171 -0.0480791889 0.5187737942 4286804828
-0.2107460052 -0.0475069359 0.5188190341 4286870621
-0.2111391872 -0.0470180474 0.5197870135 4286606938
-0.2111571729 -0.0464444831 0.5198312998 4286804317
-0.2111749202 -0.0458707698 0.5198749900 4287198823
-0.2115675956 -0.0453773737 0.5208416581 4286935651
-0.2115849406 -0.0448023565 0.5208843946 4286344025
-0.2123524398 -0.0443840325 0.5227738619 4287067748
-0.2123694271 -0.0438066944 0.5228156447 4287397994
-0.2123861909 -0.0432292186 0.5228568912 4287661166
-0.2127779871 -0.0427269675 0.5238214731 4290557095
-0.2131696343 -0.0422225371 0.5247856379 4294833640
-0.2159260958 -0.0825653970 0.5330289602 4288914080
-0.2159572691 -0.0819850042 0.5331059098 4288124564
-0.2159882188 -0.0814043507 0.5331823230 4287400069
-0.2160189748 -0.0808234513 0.5332582593 4286873725
-0.2160495073 -0.0802423060 0.5333336592 4286676088
-0.2160798460 -0.0796609148 0.5334085226 4286347123
-0.2161099613 -0.0790792778 0.5334828496 4286543211
-0.2161398530 -0.0784974024 0.5335566401 4286345832
-0.2161695510 -0.0779152811 0.5336299539 4286410855
-0.2161990255 -0.0773329288 0.5337027311 4286279269
-0.2162282914 -0.0767503306 0.5337749720 4286081631
-0.2166295499 -0.0762986019 0.5347655416 4286081631
-0.2170307040 -0.0758446231 0.5357558131 4286016090
-0.2170594335 -0.0752593204 0.5358266830 4285818711
-0.2178326547 -0.0749299526 0.5377354622 4285686608
-0.2178610414 -0.0743421763 0.5378055573 4285620815
-0.2178892195 -0.0737541765 0.5378751159 4285554761
-0.2171721607 -0.0729157999 0.5361049771 4285423175
-0.2179449052 -0.0725774840 0.5380125642 4285488455
-0.2168546319 -0.0716196299 0.5353211164 4285751627
-0.2168817818 -0.0710337460 0.5353881717 4286080592
-0.2169087380 -0.0704476461 0.5354546905 4286146385
-0.2165627182 -0.0697412863 0.5346005559 4286213202
-0.2162164003 -0.0690367296 0.5337456465 4286278995
-0.2158697844 -0.0683339760 0.5328899622 4286278995
-0.2151499689 -0.0675160140 0.5311130285 4286147409
-0.2140568495 -0.0665858760 0.5284146070 4286278224
-0.2152010351 -0.0663515478 0.5312390924 4286344017
-0.2137341946 -0.0653130710 0.5276181102 4286672464
-0.2118937522 -0.0641694888 0.5230748653 4287001429
-0.2111719549 -0.0633717030 0.5212930441 4287066707
-0.2108229101 -0.0626887232 0.5204313993 4286737742
-0.2093540132 -0.0616777353 0.5168053508 4286343239
-0.2086310238 -0.0608925112 0.5150206089 4285619516
-0.2090274543 -0.0604349039 0.5159991980 4285356342
-0.2086771280 -0.0597612672 0.5151343942 4285751100
-0.2086998671 -0.0591953658 0.5151905417 4285553719
-0.2083490044 -0.0585243963 0.5143244267 4284764203
-0.2083712816 -0.0579591393 0.5143793821 4285026609
-0.2083933502 -0.0573937036 0.5144338608 4285750332
-0.2084151953 -0.0568280891 0.5144878030 4286079295
-0.2088103741 -0.0563631244 0.5154632926 4286079295
-0.2088318318 -0.0557961427 0.5155162811 4286013504
-0.2088530958 -0.0552289858 0.5155687332 4285750332
-0.2088741213 -0.0546616577 0.5156207085 4284566834
-0.2088949531 -0.0540941618 0.5156720877 4286606417
-0.2092892975 -0.0536222458 0.5166455507 4286410329
-0.2093097270 -0.0530533977 0.5166960359 4283975988
-0.2093299478 -0.0524843819 0.5167459249 4283976766
-0.2093499601 -0.0519151986 0.5167953372 4284437317
-0.2093697488 -0.0513458587 0.5168441534 4284504399
-0.2093893290 -0.0507763550 0.5168924928 4285096536
-0.2094087005 -0.0502066910 0.5169402957 4286018667
-0.2098018229 -0.0497255102 0.5179107785 4288321422
-0.2101947963 -0.0492421389 0.5188808441 4289174929
-0.2102135867 -0.0486699715 0.5189272165 4287793276
-0.2102321535 -0.0480976552 0.5189730525 4286739812
-0.2102505118 -0.0475251861 0.5190184116 4286805605
-0.2106427848 -0.0470361151 0.5199867487 4287330920
-0.2106607407 -0.0464623310 0.5200310349 4287067748
-0.2110526711 -0.0459699109 0.5209985971 4287395686
-0.2110702246 -0.0453948192 0.5210419297 4287724651
-0.2118360847 -0.0449785180 0.5229325294 4287001696
-0.2118532658 -0.0444011018 0.5229749084 4287001696
-0.2122445405 -0.0439009704 0.5239408016 4286739810
-0.2122613043 -0.0433222577 0.5239821672 4288582014
-0.2122778445 -0.0427434035 0.5240229964 4292136642
-0.2126685828 -0.0422387831 0.5249875784 4294966512
-0.2147050351 -0.0817337036 0.5314718485 4289111459
-0.2147358358 -0.0811548457 0.5315481424 4288255378
-0.2147664279 -0.0805757344 0.5316238403 4287597448
-0.2147968262 -0.0799963772 0.5316990614 4287005311
-0.2148270011 -0.0794167817 0.5317737460 4286478967
-0.2148569524 -0.0788369328 0.5318479538 4286609264
-0.2148867100 -0.0782568455 0.5319215655 4286411885
-0.2149162441 -0.0776765198 0.5319947004 4286345833
-0.2149455696 -0.0770959556 0.5320672989 4286280040
-0.2149746865 -0.0765151531 0.5321393609 4286147683
-0.2157462686 -0.0761964098 0.5340492725 4286016097
-0.2157750577 -0.0756131336 0.5341205597 4286081629
-0.2165465057 -0.0752879009 0.5360301733 4286015836
-0.2165749669 -0.0747021511 0.5361006260 4285818194
-0.2158601433 -0.0738619119 0.5343312025 4285752401
-0.2158880830 -0.0732777119 0.5344003439 4285751627
-0.2162874192 -0.0728184059 0.5353888869 4285488455
-0.2163149714 -0.0722327456 0.5354570746 4285487939
-0.2159705907 -0.0715237632 0.5346045494 4285816904
-0.2159976661 -0.0709386766 0.5346716046 4286080076
-0.2160245180 -0.0703533590 0.5347380638 4286080076
-0.2156793028 -0.0696477517 0.5338835120 4286213202
-0.2153337747 -0.0689439401 0.5330282450 4286344788
-0.2157318443 -0.0684780627 0.5340136290 4286344274
-0.2150138021 -0.0676587895 0.5322361588 4286146895
-0.2139233202 -0.0667272881 0.5295368433 4286212429
-0.2120881975 -0.0655715689 0.5249942541 4286344015
-0.2132294327 -0.0653379634 0.5278192759 4286869330
-0.2117655277 -0.0643069744 0.5241955519 4287329881
-0.2106732726 -0.0633958727 0.5214918256 4287460950
-0.2099528164 -0.0626016408 0.5197084546 4286868813
-0.2096042633 -0.0619212389 0.5188456774 4286079297
-0.2088830918 -0.0611336939 0.5170604587 4285947711
-0.2081615329 -0.0603500083 0.5152743459 4286080065
-0.2085568607 -0.0598910302 0.5162529349 4285619514
-0.2082071453 -0.0592179671 0.5153872371 4285027888
-0.2078571171 -0.0585467480 0.5145208240 4285225267
-0.2078793645 -0.0579812825 0.5145758986 4285159739
-0.2079013884 -0.0574156344 0.5146304369 4285225532
-0.2082958221 -0.0569516867 0.5156067610 4285882946
-0.2083174735 -0.0563846715 0.5156603456 4285817153
-0.2083389014 -0.0558174774 0.5157133937 4285422137
-0.2083601207 -0.0552501082 0.5157659054 4285882688
-0.2083811164 -0.0546825677 0.5158179402 4285619776
-0.2084019184 -0.0541148558 0.5158693790 4285882948
-0.2087953389 -0.0536427647 0.5168432593 4286015310
-0.2088157386 -0.0530737005 0.5168937445 4284699450
-0.2088359296 -0.0525044724 0.5169437528 4284108605
-0.2088559121 -0.0519350767 0.5169931650 4284371777
-0.2088756710 -0.0513655208 0.5170421004 4284636754
-0.2092682421 -0.0508865081 0.5180138946 4284636754
-0.2092876136 -0.0503156148 0.5180618167 4284703579
-0.2093067616 -0.0497445613 0.5181092024 4286414197
-0.2096988261 -0.0492610075 0.5190797448 4289242267
-0.2097175866 -0.0486886278 0.5191261172 4289176474
-0.2097361237 -0.0481160954 0.5191720128 4287793791
-0.2101276666 -0.0476280078 0.5201412439 4286675310
-0.2101458162 -0.0470541529 0.5201861858 4287200364
-0.2105370313 -0.0465627126 0.5211545825 4287200364
-0.2109280825 -0.0460690856 0.5221225619 4287198821
-0.2113189846 -0.0455732718 0.5230901837 4287264614
-0.2113363594 -0.0449957773 0.5231331587 4286870369
-0.2117269188 -0.0444966182 0.5240999460 4286409818
-0.2117438614 -0.0439178236 0.5241419077 4286608486
-0.2121340781 -0.0434153229 0.5251078606 4290227101
-0.2121506184 -0.0428352319 0.5251488090 4293716450
-0.2138563842 -0.0810452923 0.5308305621 4289111459
-0.2135168314 -0.0803277567 0.5299877524 4288387736
-0.2135470659 -0.0797501951 0.5300627947 4287794829
-0.2135770917 -0.0791723803 0.5301373005 4287005313
-0.2136068940 -0.0785943344 0.5302113295 4286808187
-0.2136365026 -0.0780160353 0.5302847624 4286479222
-0.2132955790 -0.0773032978 0.5294385552 4286478193
-0.2136950642 -0.0768587366 0.5304301381 4286346607
-0.2140944451 -0.0764119327 0.5314214826 4286148711
-0.2148641646 -0.0760940760 0.5333320498 4286017125
-0.2148928493 -0.0755115896 0.5334032774 4286016865
-0.2149213403 -0.0749288723 0.5334739685 4285951072
-0.2149496078 -0.0743459165 0.5335441232 4285884503
-0.2149776518 -0.0737627372 0.5336138010 4285752917
-0.2150055021 -0.0731793344 0.5336828828 4285883215
-0.2154038697 -0.0727208629 0.5346717238 4285685836
-0.2150605321 -0.0720118433 0.5338194966 4285685318
-0.2150877416 -0.0714277625 0.5338870287 4285685318
-0.2151147127 -0.0708434656 0.5339539647 4285947976
-0.2143996209 -0.0700166747 0.5321789980 4286145355
-0.2144260854 -0.0694339499 0.5322446823 4286410068
-0.2148233503 -0.0689701363 0.5332307816 4286739033
-0.2144783586 -0.0682678670 0.5323744416 4286870106
-0.2133908272 -0.0673332065 0.5296750069 4286606934
-0.2141586244 -0.0669848472 0.5315807462 4286409810
-0.2138127536 -0.0662869960 0.5307222605 4286541396
-0.2130953521 -0.0654768869 0.5289415121 4287067222
-0.2120062560 -0.0645575598 0.5262382030 4287461980
-0.2124020308 -0.0640923008 0.5272206068 4287198293
-0.2101980448 -0.0628475472 0.5217499137 4286474570
-0.2094790041 -0.0620548427 0.5199651122 4285751102
-0.2087595910 -0.0612659901 0.5181794167 4285619516
-0.2084113061 -0.0605890006 0.5173149109 4285751100
-0.2080627233 -0.0599138513 0.5164496303 4285487928
-0.2080854177 -0.0593465120 0.5165060163 4285158961
-0.2073646784 -0.0585690662 0.5147169828 4285553719
-0.2077585310 -0.0581073351 0.5156946182 4285489219
-0.2077805698 -0.0575404651 0.5157492757 4285226047
-0.2078023851 -0.0569734126 0.5158034563 4285291325
-0.2081957757 -0.0565070882 0.5167798996 4285554497
-0.2082172036 -0.0559386648 0.5168331265 4285619776
-0.2082384229 -0.0553700700 0.5168857574 4285619776
-0.2082594335 -0.0548013002 0.5169379115 4285488706
-0.2082802355 -0.0542323627 0.5169895291 4285686085
-0.2083008140 -0.0536632501 0.5170406699 4285488966
-0.2083211839 -0.0530939735 0.5170912147 4285094208
-0.2083413452 -0.0525245294 0.5171412230 4284371262
-0.2083612829 -0.0519549213 0.5171907544 4284437055
-0.2087531239 -0.0514769107 0.5181633234 4284701518
-0.2091448158 -0.0509967022 0.5191355944 4284635725
-0.2091641873 -0.0504245758 0.5191836953 4284439635
-0.2091833502 -0.0498522893 0.5192312598 4285623909
-0.2092022896 -0.0492798500 0.5192782283 4286611322
-0.2092210054 -0.0487072542 0.5193247199 4288716698
-0.2096118331 -0.0482201539 0.5202948451 4289308321
-0.2096301615 -0.0476462319 0.5203403234 4287795082
-0.2103930265 -0.0472393818 0.5222338438 4286872434
-0.2100385725 -0.0465805344 0.5213540792 4286806641
-0.2111735940 -0.0462498590 0.5241714120 4287003244
-0.2111911774 -0.0456712730 0.5242150426 4286279521
-0.2112085521 -0.0450925380 0.5242581367 4285884763
-0.2112256885 -0.0445136651 0.5243006945 4286279521
-0.2116151750 -0.0440121330 0.5252674818 4288123018
-0.2116319239 -0.0434319600 0.5253090262 4292202184
-0.2120210528 -0.0429270901 0.5262749791 4294572278
-0.2133776695 -0.0804973245 0.5311065316 4289440170
-0.2134079039 -0.0799185485 0.5311818123 4288650654
-0.2134379297 -0.0793395340 0.5312564969 4287729552
-0.2130984217 -0.0786240026 0.5304114819 4287269512
-0.2127586156 -0.0779102370 0.5295656323 4286677375
-0.2138961703 -0.0777352750 0.5323970914 4286413429
-0.2139254063 -0.0771542862 0.5324698687 4286216050
-0.2135848999 -0.0764408112 0.5316223502 4286215017
-0.2139832377 -0.0759916008 0.5326138139 4286083431
-0.2136422098 -0.0752796605 0.5317649841 4286017378
-0.2136705518 -0.0746987388 0.5318354964 4285951585
-0.2140683979 -0.0742458180 0.5328257680 4285884504
-0.2140963525 -0.0736634284 0.5328953266 4285818711
-0.2141240984 -0.0730808154 0.5329644084 4285948754
-0.2141516358 -0.0724979714 0.5330329537 4285882961
-0.2141789496 -0.0719149113 0.5331009626 4285816904
-0.2142060548 -0.0713316277 0.5331684351 4285553732
-0.2138629556 -0.0706259236 0.5323144197 4285619265
-0.2142596394 -0.0701643899 0.5333017707 4285948230
-0.2139160037 -0.0694602728 0.5324464440 4286145869
-0.2139421999 -0.0688771233 0.5325116515 4286738006
-0.2139681876 -0.0682937577 0.5325763822 4287133280
-0.2136237323 -0.0675930381 0.5317189693 4286935901
-0.2136492580 -0.0670102686 0.5317825079 4286606934
-0.2129339129 -0.0661970302 0.5300019979 4286475348
-0.2111070901 -0.0650452897 0.5254549384 4286738773
-0.2103908509 -0.0642427653 0.5236721635 4286936152
-0.2115264684 -0.0640045479 0.5264987946 4286673232
-0.2108096629 -0.0632046610 0.5247146487 4286015302
-0.2100924850 -0.0624086261 0.5229295492 4285553981
-0.2093749195 -0.0616164468 0.5211434960 4284764465
-0.2090276033 -0.0609361641 0.5202789903 4284697644
-0.2079386711 -0.0600436628 0.5175685883 4285355574
-0.2079613805 -0.0594751015 0.5176251531 4285881659
-0.2076131403 -0.0588013530 0.5167583227 4285684280
-0.2076353878 -0.0582334362 0.5168136954 4285291838
-0.2076574266 -0.0576653369 0.5168685317 4285291838
-0.2076792419 -0.0570970587 0.5169228911 4285488704
-0.2077008486 -0.0565286018 0.5169766545 4285554497
-0.2077222466 -0.0559599698 0.5170299411 4285553729
-0.2077434361 -0.0553911589 0.5170826912 4285487936
-0.2077644169 -0.0548221804 0.5171348453 4285620552
-0.2077851743 -0.0542530268 0.5171865225 4285357380
-0.2078057230 -0.0536837056 0.5172377229 4285357639
-0.2081971765 -0.0532090589 0.5182120800 4285160260
-0.2082173377 -0.0526383854 0.5182622075 4285292618
-0.2086084783 -0.0521603599 0.5192357898 4285358411
-0.2086282521 -0.0515883379 0.5192849636 4285029452
-0.2086478025 -0.0510161594 0.5193336606 4285226831
-0.2086671442 -0.0504438169 0.5193818212 4285227864
-0.2086862624 -0.0498713143 0.5194293857 4286477931
-0.2087051719 -0.0492986590 0.5194764733 4287006594
-0.2090952545 -0.0488125496 0.5204474330 4286282871
