VERSION 0.7
FIELDS x y z rgba
SIZE 4 4 4 4
TYPE F F F U
COUNT 1 1 1 1
WIDTH 920
HEIGHT 1
VIEWPOINT 0.0 0.0 0.0 1.0 0.0 0.0 0.0
POINTS 920
DATA ascii
-0.2889265716 -0.0941119567 0.5745993257 4288510806
-0.2889675498 -0.0934867859 0.5746807456 4288379220
-0.2890082300 -0.0928613469 0.5747616887 4288510806
-0.2890486717 -0.0922356471 0.5748420954 4288773978
-0.2895335853 -0.0917506218 0.5758064985 4288708698
-0.2900183797 -0.0912634134 0.5767706037 4288708698
-0.2900581360 -0.0906350091 0.5768496990 4288379733
-0.2900976539 -0.0900063440 0.5769282579 4288050768
-0.2905818820 -0.0895145088 0.5778912902 4287984975
-0.2906209230 -0.0888843685 0.5779688954 4288182354
-0.2911047935 -0.0883891210 0.5789312124 4288379479
-0.2911433578 -0.0877575129 0.5790079236 4288445272
-0.2916269004 -0.0872588754 0.5799695253 4288248663
-0.2916649878 -0.0866257995 0.5800452828 4288117077
-0.2921481431 -0.0861237571 0.5810061693 4288576858
-0.2921857536 -0.0854892284 0.5810809731 4288576858
-0.2922230959 -0.0848544464 0.5811552405 4288576858
-0.2927056849 -0.0843478069 0.5821149349 4288642651
-0.2931881249 -0.0838389918 0.5830743909 4288840800
-0.2936703861 -0.0833279938 0.5840334892 4289169765
-0.2941524982 -0.0828148276 0.5849922895 4289169765
-0.2937429845 -0.0820504650 0.5841778517 4288972386
-0.2937788665 -0.0814113468 0.5842492580 4289038179
-0.2942603230 -0.0808945596 0.5852067471 4288972386
-0.2942957282 -0.0802540109 0.5852771401 4289038179
-0.2947767973 -0.0797338486 0.5862338543 4289169765
-0.2952577174 -0.0792115182 0.5871902704 4289169765
-0.2952924073 -0.0785683393 0.5872592330 4289103972
-0.2957729101 -0.0780426413 0.5882148743 4288906593
-0.2958070934 -0.0773980319 0.5882828236 4288775007
-0.2967334390 -0.0769847408 0.5901250839 4288709727
-0.2972134352 -0.0764525384 0.5910796523 4288643934
-0.2972469330 -0.0758043528 0.5911462903 4288512864
-0.2977265418 -0.0752687901 0.5921000838 4288447071
-0.2982059419 -0.0747310668 0.5930535197 4288249953
-0.2986851633 -0.0741911829 0.5940065980 4288249953
-0.2991642356 -0.0736491308 0.5949593186 4288184674
-0.2991965413 -0.0729959682 0.5950235724 4288118881
-0.2996751666 -0.0724505708 0.5959753990 4288184674
-0.3001536131 -0.0719030201 0.5969269276 4288053088
-0.3015252948 -0.0715653449 0.5996547937 4287922018
-0.3006632030 -0.0706963763 0.5979403257 4287922018
-0.3011410236 -0.0701433271 0.5988906622 4287659105
-0.3016186655 -0.0695881099 0.5998405218 4287461726
-0.3020960987 -0.0690307468 0.6007900834 4287001947
-0.3021264374 -0.0683700889 0.6008503437 4286738775
-0.3043913543 -0.0682100356 0.6053546667 4286410847
-0.3026332259 -0.0671473593 0.6018582582 4286081882
-0.3035568595 -0.0666815415 0.6036950946 4285884503
-0.3040332794 -0.0661143959 0.6046425700 4285687124
-0.3045094907 -0.0655450970 0.6055896282 4285358160
-0.3049854934 -0.0649736524 0.6065362692 4285160781
-0.3054612875 -0.0644000620 0.6074825525 4285161040
-0.3054896295 -0.0637310073 0.6075388193 4285358419
-0.3059649467 -0.0631541088 0.6084842086 4285556314
-0.3064400852 -0.0625750571 0.6094291210 4285358935
-0.3069150150 -0.0619938709 0.6103736162 4284767571
-0.3078371584 -0.0614999272 0.6122075319 4284570192
-0.3083117008 -0.0609134771 0.6131512523 4284504917
-0.3087860346 -0.0603248850 0.6140945554 4284175952
-0.3092601299 -0.0597341582 0.6150373816 4283847502
-0.3092864156 -0.0590558276 0.6150897145 4284044881
-0.3093124032 -0.0583773218 0.6151413918 4284570196
-0.3093381226 -0.0576986521 0.6151924729 4283912266
-0.3089157939 -0.0569372922 0.6143526435 4283518022
-0.3089408875 -0.0562592670 0.6144024730 4282925885
-0.3080700934 -0.0554199740 0.6126707196 4281675820
-0.3071988821 -0.0545844510 0.6109381318 4281544234
-0.3072229028 -0.0539098717 0.6109859347 4281281320
-0.3067987859 -0.0531575345 0.6101424098 4280689183
-0.3063742816 -0.0524070114 0.6092982292 4280492576
-0.3059494197 -0.0516582988 0.6084532738 4280558369
-0.3046282232 -0.0507621057 0.6058257818 4280952873
-0.3059946299 -0.0503136665 0.6085432172 4281150252
-0.3060168028 -0.0496411249 0.6085872650 4281150767
-0.3064867556 -0.0490401387 0.6095218658 4281282353
-0.3060602546 -0.0482956134 0.6086736917 4281282099
-0.3056333959 -0.0475529209 0.6078247428 4281216306
-0.3052061796 -0.0468120575 0.6069751382 4281281840
-0.3043303788 -0.0460052751 0.6052334309 4281347633
-0.3039024174 -0.0452690683 0.6043823361 4281347633
-0.3039223850 -0.0446004830 0.6044220328 4281413426
-0.3030454516 -0.0438021757 0.6026780605 4281348146
-0.3021681011 -0.0430076867 0.6009332538 4281348146
-0.3021870553 -0.0423426628 0.6009709239 4281348146
-0.3022057414 -0.0416775122 0.6010080576 4281216560
-0.3013272882 -0.0408905447 0.5992610455 4281150513
-0.3000000119 -0.0400475450 0.5966214538 4281018927
-0.2986722887 -0.0392103493 0.5939809680 4280821548
-0.2982410789 -0.0384947360 0.5931234360 4280689962
-0.2969125211 -0.0376671888 0.5904812813 4280558889
-0.2978262007 -0.0371250138 0.5922983289 4280558889
-0.2969454527 -0.0363590829 0.5905467272 4280624682
-0.2960642874 -0.0355970003 0.5887943506 4280690475
-0.2920425236 -0.0344681405 0.5807961226 4280558889
-0.2907118201 -0.0336687192 0.5781496763 4280624682
-0.2916239500 -0.0331299789 0.5799636841 4280624682
-0.2902925313 -0.0323372819 0.5773158073 4280427303
-0.2898580730 -0.0316484049 0.5764517784 4280229924
-0.2894232869 -0.0309614148 0.5755871534 4280295717
-0.2889881730 -0.0302763116 0.5747218132 4280427303
-0.2890015244 -0.0296391211 0.5747483373 4280558889
-0.2885657847 -0.0289568100 0.5738818049 4280558889
-0.2885785401 -0.0283204373 0.5739071369 4280558889
-0.2873023450 -0.0243862048 0.5713691115 4280493096
-0.2882109284 -0.0238264836 0.5731760263 4280493096
-0.2901680470 -0.0105238343 0.5770682693 4280033060
-0.2906217575 -0.0098981233 0.5779706240 4280033060
-0.2995672226 -0.1767383218 0.5970795751 4292796904
-0.2987734079 -0.1756083369 0.5954974294 4292336604
-0.2979789376 -0.1744814962 0.5939139128 4291744467
-0.2967499793 -0.1731047332 0.5914644599 4291020994
-0.2787307203 -0.1607416868 0.5555495620 4289898654
-0.2892200649 -0.1661503166 0.5764562488 4289569171
-0.2884206176 -0.1650523394 0.5748628378 4289305999
-0.2867515683 -0.1634621918 0.5715362430 4289501830
-0.2785628736 -0.1581773609 0.5552149415 4289238658
-0.2855837643 -0.1615316272 0.5692086220 4289105263
-0.2780207992 -0.1547911465 0.5541346073 4288642391
-0.2781501710 -0.1536312252 0.5543923974 4288905556
-0.2803914845 -0.1542482376 0.5588596463 4288510798
-0.2778431773 -0.1522310823 0.5537804961 4288641867
-0.2796493769 -0.1526014060 0.5573804975 4289102418
-0.2792776823 -0.1517801285 0.5566397309 4288905302
-0.2784698009 -0.1507243812 0.5550295115 4289102681
-0.2789689898 -0.1503767818 0.5560243726 4289366366
-0.2781601548 -0.1493248045 0.5544123054 4289629538
-0.2777868211 -0.1485092193 0.5536682010 4289762151
-0.2756683528 -0.1467661709 0.5494457483 4290025323
-0.2770389020 -0.1468823552 0.5521775484 4290354803
-0.2771007121 -0.1463014781 0.5523006916 4290617975
-0.2767258286 -0.1454907358 0.5515534878 4291275903
-0.2767871022 -0.1449099928 0.5516756177 4291012731
-0.2768481672 -0.1443288773 0.5517973304 4291012472
-0.2755987048 -0.1430671811 0.5493069887 4291209851
-0.2756590247 -0.1424880475 0.5494272113 4291473023
-0.2765930593 -0.1423583180 0.5512888432 4291473023
-0.2757790387 -0.1413286328 0.5496664047 4291407230
-0.2758387029 -0.1407483667 0.5497853160 4291538816
-0.2754609287 -0.1399455816 0.5490323305 4291603587
-0.2755200565 -0.1393654794 0.5491502285 4291340415
-0.2764538229 -0.1392255872 0.5510113835 4291078013
-0.2765127122 -0.1386429071 0.5511287451 4290946427
-0.2756961584 -0.1376229525 0.5495011806 4290749048
-0.2757543921 -0.1370413601 0.5496172905 4290749048
-0.2766880393 -0.1368926167 0.5514781475 4290946425
-0.2763081193 -0.1360927671 0.5507209897 4290946425
-0.2763658166 -0.1355091631 0.5508359075 4290551667
-0.2768613398 -0.1351390034 0.5518235564 4290288495
-0.2769186497 -0.1345537454 0.5519378185 4290091629
-0.2769757509 -0.1339681149 0.5520516038 4290289008
-0.2770326138 -0.1333821267 0.5521649718 4290617973
-0.2770892680 -0.1327957809 0.5522778630 4290683766
-0.2771456838 -0.1322090775 0.5523902774 4290551667
-0.2772018611 -0.1316220015 0.5525022745 4290222702
-0.2772578299 -0.1310345829 0.5526138544 4289762151
-0.2777523398 -0.1306532174 0.5535994768 4289696358
-0.2773690522 -0.1298586726 0.5528355241 4289367395
-0.2778632939 -0.1294747293 0.5538206100 4289170016
-0.2783574760 -0.1290885806 0.5548055768 4289170016
-0.2784124613 -0.1284975260 0.5549151897 4289104223
-0.2784672379 -0.1279061288 0.5550243258 4289301602
-0.2785217464 -0.1273143888 0.5551330447 4289433188
-0.2781366706 -0.1265224218 0.5543654561 4289038430
-0.2790696025 -0.1263287961 0.5562249422 4288512086
-0.2782443762 -0.1253390610 0.5545802116 4288446552
-0.2791771889 -0.1251410097 0.5564393997 4288972896
-0.2792306542 -0.1245466098 0.5565459728 4289828205
-0.2792838514 -0.1239518672 0.5566520095 4290288756
-0.2788969278 -0.1231625229 0.5558808446 4291144065
-0.2793895900 -0.1227613613 0.5568627119 4292130960
-0.2794421017 -0.1221656054 0.5569673777 4292262796
-0.2794943750 -0.1215695143 0.5570715666 4291210108
-0.2795464098 -0.1209730804 0.5571752787 4290749559
-0.2795982063 -0.1203763261 0.5572785735 4290749559
-0.2796497643 -0.1197792366 0.5573813319 4291341444
-0.2801415622 -0.1193694994 0.5583615303 4291801995
-0.2801927328 -0.1187708080 0.5584635139 4291934352
-0.2802436650 -0.1181717962 0.5585650206 4291934352
-0.2802943587 -0.1175724491 0.5586661100 4291605135
-0.2807856202 -0.1171566993 0.5596451759 4291736721
-0.2808358967 -0.1165557653 0.5597454309 4291802776
-0.2813268900 -0.1161365435 0.5607240796 4291276432
-0.2813767791 -0.1155340225 0.5608235002 4289960322
-0.2814264297 -0.1149311811 0.5609224439 4289828736
-0.2819170058 -0.1145072207 0.5619002581 4289894787
-0.2819662392 -0.1139027998 0.5619983673 4289960580
-0.2820152342 -0.1132980585 0.5620960593 4289367672
-0.2820639908 -0.1126930118 0.5621932149 4288051812
-0.2821124792 -0.1120876446 0.5622898936 4288117605
-0.2821607590 -0.1114819646 0.5623860359 4288775535
-0.2830920517 -0.1112230048 0.5642422438 4289235570
-0.2831399739 -0.1106148139 0.5643377900 4289038191
-0.2831876278 -0.1100063100 0.5644327998 4288643431
-0.2832350731 -0.1093975082 0.5645273328 4289038189
-0.2837241888 -0.1089581102 0.5655021667 4288972136
-0.2837711871 -0.1083477437 0.5655958652 4288774757
-0.2838179171 -0.1077370718 0.5656890273 4288905825
-0.2843065858 -0.1072929651 0.5666630268 4288905825
-0.2843529284 -0.1066807434 0.5667553544 4288642653
-0.2843990028 -0.1060682237 0.5668472052 4288511067
-0.2848871946 -0.1056194082 0.5678202510 4288445272
-0.2849328518 -0.1050053388 0.5679112077 4288511065
-0.2849782407 -0.1043909788 0.5680016875 4288840800
-0.2854659557 -0.1039374694 0.5689737797 4289103972
-0.2855109274 -0.1033215672 0.5690634251 4288972386
-0.2855556309 -0.1027053744 0.5691525340 4288511835
-0.2856000662 -0.1020888984 0.5692411065 4287985491
-0.2856442630 -0.1014721319 0.5693292022 4287919698
-0.2856882215 -0.1008550748 0.5694168210 4288379479
-0.2857319117 -0.1002377421 0.5695039034 4288445272
-0.2866614759 -0.0999290198 0.5713565946 4288576858
-0.2867047787 -0.0993092060 0.5714429617 4288445272
-0.2871910334 -0.0988416448 0.5724121332 4288248147
-0.2872338891 -0.0982203111 0.5724975467 4288248147
-0.2872765064 -0.0975987017 0.5725824833 4288445526
-0.2877622545 -0.0971264765 0.5735506415 4288577112
-0.2878043950 -0.0965033546 0.5736346841 4288905566
-0.2878462970 -0.0958799571 0.5737181902 4289102945
-0.2878879309 -0.0952562913 0.5738011599 4288708444
-0.2883729637 -0.0947781727 0.5747678876 4288511065
-0.2884141505 -0.0941530094 0.5748499632 4288510806
-0.2884550691 -0.0935275778 0.5749315023 4288642392
-0.2889395654 -0.0930448025 0.5758972168 4288708185
-0.2889800370 -0.0924178809 0.5759778619 4288313427
-0.2894642055 -0.0919316933 0.5769428611 4287589963
-0.2895042002 -0.0913032815 0.5770225525 4287392584
-0.2899880111 -0.0908136815 0.5779868960 4287721549
-0.2900275290 -0.0901837870 0.5780656934 4287984721
-0.2905110121 -0.0896907821 0.5790292621 4288511319
-0.2905500531 -0.0890594125 0.5791071653 4288906077
-0.2910331786 -0.0885629952 0.5800700784 4288840284
-0.2910717726 -0.0879301578 0.5801469684 4288642905
-0.2915545404 -0.0874303430 0.5811091661 4288511835
-0.2915926576 -0.0867960304 0.5811851621 4288577628
-0.2920750380 -0.0862928182 0.5821466446 4288577630
-0.2921126783 -0.0856570452 0.5822216272 4288775009
-0.2921500504 -0.0850210264 0.5822961330 4288840802
-0.2926318645 -0.0845132098 0.5832564831 4288709216
-0.2931135297 -0.0840032101 0.5842164755 4288643423
-0.2935950458 -0.0834910348 0.5851762295 4288577630
-0.2940763831 -0.0829766765 0.5861356258 4288446303
-0.2936676741 -0.0822110176 0.5853209496 4288314717
-0.2941485941 -0.0816942528 0.5862795115 4288380510
-0.2941842675 -0.0810526833 0.5863506198 4288380510
-0.2946648002 -0.0805325359 0.5873084068 4288380510
-0.2951451838 -0.0800102204 0.5882658362 4288380510
-0.2956253588 -0.0794857219 0.5892229080 4288118108
-0.2956601083 -0.0788403228 0.5892922282 4287920729
-0.2961399257 -0.0783124566 0.5902485251 4287789143
-0.2961741686 -0.0776656345 0.5903167725 4287723350
-0.2970989943 -0.0772502199 0.5921601057 4287986268
-0.2971328199 -0.0766009986 0.5922274590 4287854682
-0.2976118624 -0.0760654286 0.5931822658 4287920989
-0.2980907261 -0.0755276978 0.5941367745 4288184161
-0.2981238067 -0.0748758689 0.5942026377 4288053604
-0.2986022532 -0.0743347779 0.5951563120 4287922018
-0.2990805507 -0.0737915263 0.5961095691 4287856227
-0.2995586395 -0.0732461065 0.5970625281 4287724641
-0.3000365496 -0.0726985261 0.5980150700 4287659107
-0.3009601533 -0.0722558275 0.5998558998 4287395935
-0.3014377356 -0.0717029423 0.6008077860 4287002207
-0.3019151092 -0.0711479038 0.6017593145 4286870621
-0.3023923039 -0.0705907047 0.6027104259 4286673501
-0.3037614226 -0.0702376217 0.6054392457 4286607708
-0.3042383194 -0.0696741566 0.6063897610 4286476124
-0.3033766150 -0.0688049719 0.6046722531 4286278745
-0.3038529754 -0.0682401285 0.6056216955 4285819486
-0.3047753870 -0.0677723512 0.6074602008 4285819486
-0.3052513897 -0.0672022104 0.6084089279 4285687900
-0.3061735332 -0.0667271987 0.6102468967 4285358935
-0.3066491783 -0.0661517754 0.6111949086 4285161556
-0.3071246147 -0.0655742064 0.6121425629 4285095763
-0.3075998425 -0.0649944916 0.6130897403 4285029456
-0.3080748618 -0.0644126236 0.6140365601 4284766284
-0.3085497022 -0.0638286024 0.6149829030 4284437836
-0.3094708622 -0.0633338317 0.6168189645 4284503629
-0.3099452853 -0.0627445504 0.6177645326 4284307024
-0.3108661473 -0.0622425452 0.6195999384 4284701782
-0.3113401830 -0.0616479889 0.6205447912 4285623658
-0.3118140101 -0.0610512868 0.6214891672 4286742139
-0.3118408322 -0.0603659637 0.6215426326 4287729806
-0.3118673563 -0.0596804619 0.6215955019 4288782494
-0.3118936121 -0.0589947887 0.6216478348 4288321171
-0.3119195402 -0.0583089404 0.6216995120 4285294693
-0.3114982545 -0.0575403683 0.6208598614 4282728766
-0.3110766113 -0.0567735955 0.6200194359 4282202422
-0.3102076054 -0.0559280366 0.6182873845 4280952357
-0.3093381524 -0.0550862439 0.6165544391 4280294427
-0.3084682822 -0.0542482287 0.6148206592 4280492322
-0.3080450594 -0.0534916259 0.6139771342 4280426529
-0.3053858280 -0.0523535721 0.6086769104 4280558115
-0.3076446652 -0.0520595275 0.6131790876 4280623908
-0.3067731857 -0.0512326993 0.6114420891 4280952875
-0.3067957163 -0.0505570583 0.6114870310 4281084461
-0.3068179786 -0.0498812683 0.6115313768 4281281840
-0.3063926101 -0.0491336063 0.6106836200 4281347633
-0.3059669137 -0.0483877696 0.6098350883 4281281842
-0.3055408597 -0.0476437621 0.6089859009 4281281842
-0.3051144481 -0.0469015874 0.6081359982 4281216047
-0.3046876788 -0.0461612456 0.6072853804 4281216047
-0.3047080040 -0.0454895422 0.6073259115 4281347633
-0.3038330674 -0.0446860828 0.6055820584 4281413426
-0.3034052551 -0.0439512618 0.6047292948 4281413426
-0.3029770553 -0.0432182848 0.6038758755 4281479219
-0.3029960692 -0.0425500050 0.6039137840 4281479732
-0.3016720414 -0.0416960120 0.6012748480 4281413939
-0.3007951677 -0.0409086980 0.5995271206 4281413685
-0.2985749841 -0.0399455465 0.5951019526 4281216306
-0.2994878888 -0.0394044593 0.5969215035 4281084720
-0.2977144718 -0.0385118313 0.5933868289 4280887341
-0.2977314293 -0.0378546901 0.5934206247 4280755755
-0.2941661477 -0.0367499515 0.5863144994 4280689962
-0.2928548455 -0.0352890640 0.5837008953 4280821548
-0.2924225628 -0.0345893949 0.5828392506 4280690475
-0.2924377620 -0.0339435861 0.5828695893 4280690475
-0.2911091149 -0.0331447013 0.5802214146 4280624682
-0.2906758189 -0.0324516594 0.5793578029 4280493096
-0.2897942960 -0.0317114852 0.5776007771 4280361510
-0.2893603146 -0.0310232025 0.5767357945 4280361510
-0.2884780467 -0.0302897729 0.5749773383 4280493096
-0.2880434096 -0.0296062566 0.5741110444 4280558889
-0.2880564332 -0.0289696865 0.5741369724 4280558889
-0.2880691588 -0.0283330325 0.5741623640 4280558889
-0.2880816162 -0.0276962947 0.5741871595 4280624682
-0.2854287922 -0.0255449843 0.5688996911 4280558889
-0.2854399979 -0.0249138754 0.5689220428 4280558889
-0.2881396413 -0.0245114155 0.5743028522 4280493096
-0.2872541249 -0.0237999558 0.5725378990 4280427303
-0.2859201133 -0.0230562538 0.5698789954 4280427303
-0.2855106890 -0.0204941574 0.5690629482 4280230439
-0.2855196595 -0.0198625121 0.5690808296 4280361511
-0.2859765887 -0.0192609988 0.5699915886 4280427304
-0.2864332795 -0.0186574440 0.5709018111 4280230439
-0.2981513441 -0.1802636087 0.5955760479 4293126118
-0.2973615229 -0.1791260988 0.5939983130 4292730584
-0.2961387336 -0.1777322441 0.5915556550 4292270033
-0.2949150503 -0.1763433069 0.5891113281 4291479490
-0.2936905324 -0.1749592721 0.5866652727 4290953146
-0.2924651504 -0.1735801697 0.5842174888 4290492082
-0.2921043932 -0.1727177650 0.5834968686 4290097324
-0.2908775210 -0.1713467389 0.5810461044 4289833885
-0.2896497846 -0.1699806601 0.5785936117 4289439127
-0.2785958350 -0.1616386771 0.5565126538 4289236849
-0.2812633514 -0.1625621021 0.5618411899 4288842091
-0.2821979821 -0.1624759734 0.5637081265 4288513379
-0.2774961591 -0.1591530144 0.5543159842 4288381793
-0.2801645994 -0.1600616425 0.5596463680 4288447069
-0.2793637216 -0.1589840651 0.5580465794 4288447069
-0.2785622180 -0.1579096764 0.5564455390 4288642905
-0.2742881179 -0.1548780203 0.5479077101 4288445526
-0.2778255641 -0.1562588513 0.5549739599 4288444751
-0.2778908014 -0.1556787938 0.5551043153 4288510544
-0.2757843137 -0.1538866162 0.5508964658 4288773967
-0.2780206800 -0.1545174420 0.5553637147 4289102932
-0.2767817676 -0.1532145888 0.5528889298 4289431381
-0.2742381990 -0.1511979252 0.5478079915 4289365588
-0.2769097388 -0.1520562619 0.5531445742 4289628249
-0.2761037946 -0.1510009021 0.5515345931 4290023007
-0.2757321298 -0.1501856744 0.5507922173 4289827946
-0.2753600478 -0.1493718773 0.5500490069 4289959532
-0.2745524645 -0.1483244300 0.5484357476 4290419567
-0.2750498950 -0.1479827017 0.5494294167 4290945911
-0.2751120031 -0.1474055201 0.5495534539 4291406462
-0.2747384906 -0.1465956271 0.5488073230 4291603841
-0.2748000622 -0.1460185796 0.5489303470 4291341187
-0.2739902139 -0.1449801624 0.5473126173 4291143808
-0.2749225497 -0.1448633373 0.5491750240 4290749050
-0.2741118968 -0.1438277960 0.5475556850 4290551671
-0.2750441730 -0.1437065303 0.5494179726 4290485874
-0.2746686935 -0.1429007351 0.5486679077 4290551667
-0.2742927969 -0.1420964003 0.5479170084 4290748529
-0.2747888267 -0.1417434812 0.5489078760 4290682736
-0.2748485804 -0.1411642879 0.5490272641 4290354541
-0.2744717300 -0.1403615773 0.5482744575 4290091369
-0.2745309472 -0.1397825480 0.5483927727 4290156395
-0.2745899260 -0.1392031461 0.5485105515 4290090602
-0.2750853300 -0.1388437599 0.5495002270 4290025325
-0.2747072279 -0.1380432397 0.5487449169 4289959532
-0.2752023935 -0.1376812607 0.5497340560 4289827946
-0.2756975293 -0.1373170763 0.5507230759 4290025325
-0.2753185630 -0.1365172863 0.5499660969 4290551153
-0.2758134305 -0.1361505091 0.5509546399 4290814325
-0.2763082385 -0.1357815117 0.5519430637 4290682737
-0.2759284675 -0.1349824816 0.5511843562 4290616944
-0.2759856284 -0.1343979090 0.5512986183 4290486128
-0.2760425806 -0.1338129938 0.5514123440 4290617714
-0.2760992944 -0.1332277060 0.5515256524 4290815093
-0.2765934467 -0.1328522563 0.5525127649 4290880886
-0.2766498029 -0.1322653294 0.5526253581 4290945908
-0.2767059505 -0.1316780299 0.5527374744 4290945908
-0.2767618597 -0.1310903877 0.5528491735 4290354290
-0.2768175304 -0.1305023879 0.5529603958 4290420083
-0.2768729925 -0.1299140155 0.5530711412 4289762153
-0.2769282162 -0.1293253154 0.5531814694 4289564774
-0.2774214745 -0.1289399415 0.5541667938 4289959534
-0.2774763107 -0.1283496022 0.5542763472 4289959534
-0.2775309384 -0.1277589053 0.5543854833 4289893741
-0.2775853276 -0.1271678507 0.5544940829 4290288499
-0.2780781090 -0.1267764270 0.5554784536 4290222706
-0.2781321108 -0.1261837631 0.5555863380 4289827948
-0.2781859040 -0.1255907416 0.5556937456 4290288244
-0.2782394588 -0.1249973848 0.5558007360 4291669897
-0.2783458531 -0.1238096356 0.5560132861 4291801483
-0.2788378000 -0.1234096065 0.5569959879 4291341445
-0.2788905203 -0.1228139475 0.5571012497 4292328340
-0.2789429724 -0.1222179532 0.5572060347 4293117848
-0.2789951861 -0.1216216236 0.5573104024 4292525711
-0.2794866264 -0.1212155521 0.5582920313 4291867529
-0.2795900702 -0.1200193465 0.5584986806 4290749050
-0.2796414196 -0.1194207445 0.5586012602 4290683257
-0.2796925306 -0.1188218147 0.5587033629 4290815103
-0.2797434330 -0.1182225645 0.5588049889 4290551931
-0.2802339792 -0.1178079247 0.5597849488 4290420093
-0.2802844644 -0.1172070727 0.5598857999 4290091128
-0.2803347111 -0.1166059002 0.5599861741 4289827958
-0.2803847194 -0.1160044000 0.5600860715 4289630579
-0.2808747292 -0.1155837476 0.5610648394 4289038187
-0.2809243202 -0.1149806678 0.5611639619 4288972394
-0.2809736729 -0.1143772602 0.5612625480 4288972649
-0.2814632654 -0.1139518693 0.5622405410 4289301614
-0.2815122008 -0.1133468896 0.5623382926 4288708965
-0.2815609276 -0.1127415970 0.5624355674 4288708965
-0.2816093862 -0.1121359840 0.5625323653 4289103723
-0.2820983827 -0.1117046028 0.5635091662 4289366895
-0.2825872600 -0.1112710088 0.5644857883 4288840550
-0.2830760777 -0.1108352095 0.5654621720 4288314206
-0.2831237614 -0.1102255136 0.5655574799 4288774757
-0.2831712365 -0.1096155047 0.5656522512 4289498480
-0.2832184434 -0.1090051979 0.5657465458 4289498480
-0.2837066054 -0.1085634232 0.5667217374 4288906343
-0.2837533951 -0.1079515517 0.5668151975 4288182618
-0.2837999463 -0.1073393747 0.5669081807 4288051032
-0.2838462293 -0.1067269072 0.5670006275 4288247897
-0.2843337655 -0.1062791646 0.5679745078 4288182104
-0.2843796313 -0.1056651399 0.5680661201 4288313688
-0.2844252288 -0.1050508246 0.5681571960 4288511067
-0.2844705880 -0.1044362113 0.5682477951 4288379997
-0.2845156789 -0.1038213000 0.5683379173 4288577376
-0.2850023806 -0.1033663601 0.5693101287 4288577630
-0.2850470543 -0.1027499214 0.5693993568 4288248665
-0.2850914598 -0.1021331847 0.5694880486 4287788114
-0.2851356268 -0.1015161648 0.5695762634 4287788114
-0.2856216729 -0.1010552943 0.5705471635 4288247895
-0.2861075997 -0.1005922183 0.5715178251 4288379481
-0.2861511111 -0.0999724269 0.5716047883 4288511067
-0.2866367400 -0.0995059162 0.5725748539 4288511067
-0.2866798341 -0.0988846049 0.5726609230 4288511065
-0.2867226601 -0.0982630178 0.5727464557 4288511065
-0.2872077525 -0.0977918282 0.5737155080 4288445272
-0.2876927257 -0.0973184481 0.5746842623 4288247893
-0.2872922421 -0.0965453461 0.5738842487 4288050516
-0.2877768278 -0.0960694924 0.5748522878 4288050516
-0.2878184915 -0.0954446048 0.5749354959 4288248663
-0.2878599167 -0.0948194489 0.5750182271 4287985491
-0.2879010439 -0.0941940248 0.5751004219 4288050768
-0.2883849144 -0.0937122852 0.5760669708 4288182354
-0.2884255946 -0.0930853635 0.5761482120 4288511065
-0.2889091372 -0.0926002041 0.5771141052 4288379479
-0.2885061800 -0.0918307304 0.5763092041 4287985493
-0.2889893353 -0.0913431123 0.5772742629 4287985493
-0.2894723117 -0.0908533111 0.5782390833 4288577630
-0.2895117998 -0.0902231559 0.5783179998 4288643423
-0.2899944484 -0.0897299424 0.5792821050 4288643423
-0.2900334895 -0.0890983045 0.5793600678 4288775009
-0.2905157804 -0.0886016861 0.5803234577 4288906595
-0.2909979224 -0.0881028846 0.5812866092 4288709216
-0.2910362780 -0.0874685571 0.5813632011 4288511583
-0.2915180624 -0.0869663432 0.5823255777 4288445790
-0.2919996977 -0.0864619538 0.5832876563 4288380257
-0.2920373380 -0.0858249441 0.5833628774 4288380257
-0.2925186157 -0.0853171572 0.5843242407 4288249441
-0.2929997146 -0.0848071873 0.5852853060 4287986269
-0.2939246893 -0.0844225585 0.5871329904 4287788890
-0.2939614654 -0.0837807059 0.5872064829 4287723097
-0.2939980030 -0.0831386074 0.5872794390 4287657563
-0.2944784164 -0.0826208815 0.5882391334 4287525977
-0.2945144475 -0.0819773376 0.5883110762 4287394904
-0.2949945033 -0.0814562365 0.5892699957 4287394904
-0.2950300276 -0.0808112547 0.5893409848 4287329113
-0.2955096960 -0.0802867636 0.5902991295 4287197527
-0.2964335978 -0.0798798651 0.5921446681 4287066711
-0.2960239947 -0.0791124851 0.5913264751 4287198297
-0.2969475985 -0.0787002668 0.5931714773 4287395676
-0.2974265814 -0.0781670883 0.5941281915 4287527262
-0.2974607348 -0.0775158703 0.5941964388 4287855457
-0.2979392707 -0.0769793168 0.5951523781 4287723871
-0.2984176576 -0.0764406025 0.5961079597 4287789664
-0.2988958657 -0.0758997127 0.5970632434 4287987043
-0.2993738949 -0.0753566548 0.5980181098 4287921766
-0.2994068265 -0.0747004375 0.5980839133 4287921766
-0.2998844385 -0.0741540268 0.5990380049 4287856233
-0.3003618717 -0.0736054480 0.5999916792 4287790440
-0.3008390963 -0.0730547011 0.6009449363 4287462506
-0.3017612100 -0.0726088881 0.6027869582 4287396713
-0.3022381365 -0.0720528439 0.6037396193 4287266157
-0.3027148247 -0.0714946315 0.6046918631 4287331950
-0.3040817976 -0.0711425841 0.6074224114 4287134830
-0.3045581877 -0.0705780983 0.6083741188 4286740072
-0.3063703477 -0.0703180730 0.6119939685 4286344801
-0.3050650954 -0.0693414211 0.6093866229 4286015836
-0.3059862554 -0.0688716844 0.6112267375 4285359195
-0.3064618707 -0.0682985634 0.6121767759 4284964437
-0.3069372773 -0.0677232891 0.6131264567 4284635987
-0.3083035350 -0.0673404858 0.6158556342 4284635987
-0.3074419200 -0.0664699376 0.6141344905 4284899159
-0.3110359609 -0.0665566549 0.6213138103 4285228124
-0.3088368773 -0.0654006451 0.6169210076 4285820263
-0.3093112409 -0.0648146048 0.6178686023 4286478193
-0.3102311492 -0.0643188283 0.6197061539 4287860362
-0.3111509085 -0.0638189390 0.6215434670 4288847257
-0.3116247356 -0.0632244870 0.6224899292 4289834410
-0.3120983243 -0.0626278967 0.6234359741 4290755512
-0.3149352372 -0.0590032972 0.6291028857 4288716960
-0.3149611354 -0.0583091155 0.6291546226 4283058760
-0.3145405948 -0.0575331561 0.6283145547 4281216556
-0.3136734664 -0.0566783734 0.6265823841 4281150252
-0.3128058910 -0.0558273569 0.6248493791 4280426529
-0.3123841584 -0.0550587736 0.6240069270 4280689703
-0.3066064715 -0.0533599444 0.6124656796 4280426531
-0.3102005720 -0.0532969683 0.6196451187 4280689703
-0.3093312681 -0.0524610654 0.6179085970 4280689703
-0.3084615171 -0.0516289510 0.6161711812 4280887082
-0.3084841967 -0.0509480871 0.6162165403 4281018668
-0.3080601096 -0.0501943305 0.6153693795 4281150254
-0.3071891963 -0.0493706353 0.6136296391 4281216047
-0.3067643642 -0.0486215129 0.6127810478 4281150256
-0.3063391745 -0.0478742234 0.6119316816 4281216049
-0.3054670095 -0.0470599607 0.6101894975 4281216049
-0.3050410748 -0.0463173240 0.6093387008 4281150256
-0.3046147823 -0.0455765240 0.6084871292 4281216049
-0.3046348393 -0.0449034013 0.6085271835 4281347635
-0.3046545684 -0.0442301519 0.6085665822 4281347635
-0.3033337891 -0.0433651693 0.6059282422 4281413428
-0.3033528626 -0.0426946245 0.6059663296 4281413685
-0.3029248416 -0.0419620611 0.6051113605 4281479478
-0.3016028106 -0.0411095433 0.6024705172 4281479732
-0.3007271886 -0.0403227471 0.6007214189 4281413939
-0.2998511791 -0.0395397879 0.5989715457 4281282353
-0.2985278666 -0.0387027264 0.5963281393 4281084974
-0.2967571616 -0.0378145315 0.5927910805 4280953388
-0.2954329550 -0.0369900949 0.5901458263 4280887595
-0.2972370982 -0.0365562886 0.5937497616 4280822059
-0.2927832007 -0.0353587009 0.5848527551 4280822059
-0.2941398025 -0.0348697118 0.5875626802 4280690475
-0.2937080562 -0.0341666676 0.5867002606 4280690475
-0.2919348180 -0.0333124548 0.5831580758 4280624682
-0.2901610732 -0.0324660614 0.5796149373 4280558889
-0.2892811298 -0.0317255631 0.5778571963 4280427303
-0.2884007990 -0.0309889298 0.5760986805 4280427303
-0.2879672348 -0.0303032212 0.5752326250 4280493096
-0.2875333726 -0.0296194032 0.5743659735 4280558889
-0.2875463963 -0.0289825518 0.5743919015 4280558889
-0.2875591218 -0.0283456165 0.5744173527 4280624682
-0.2875715494 -0.0277085956 0.5744422078 4280624682
-0.2875837088 -0.0270714946 0.5744664669 4280624682
-0.2871598899 -0.0257569328 0.5736199021 4280558889
-0.2858292758 -0.0250032023 0.5709618926 4280558889
-0.2862875462 -0.0244078953 0.5718773603 4280493096
-0.2854434252 -0.0211683121 0.5701911449 4280230439
-0.2850052714 -0.0205032676 0.5693159103 4280230439
-0.2854616940 -0.0199025385 0.5702276230 4280361511
-0.2859178185 -0.0192997642 0.5711387992 4280427304
-0.2868211865 -0.0187241603 0.5729432702 4280296232
-0.2868293524 -0.0180880968 0.5729596019 4280296232
-0.2863897681 -0.0174247511 0.5720815063 4280296232
-0.2863973677 -0.0167895742 0.5720967054 4280230439
-0.2887003720 -0.0098763136 0.5766971111 4280098853
-0.2967306972 -0.1837638319 0.5940561891 4292994796
-0.2959448695 -0.1826188713 0.5924829245 4292926685
-0.2951583564 -0.1814769953 0.5909083486 4292268755
-0.2943711877 -0.1803382337 0.5893324614 4291676608
-0.2927211821 -0.1786762774 0.5860291123 4291018678
-0.2919325233 -0.1775455028 0.5844501853 4290754466
-0.2804303169 -0.1693026125 0.5614227057 4290160781
-0.2886995375 -0.1736527830 0.5779777765 4289634437
-0.2870447934 -0.1720189452 0.5746649504 4289370493
-0.2858207226 -0.1706496179 0.5722143054 4289107321
-0.2850276530 -0.1695421040 0.5706266165 4288974708
-0.2842339575 -0.1684377491 0.5690376163 4288777329
-0.2834396064 -0.1673365533 0.5674473047 4288841829
-0.2822124362 -0.1659843177 0.5649905801 4288578657
-0.2805521786 -0.1643837690 0.5616666675 4288578130
-0.2793232203 -0.1630423814 0.5592063069 4288446544
-0.2802559137 -0.1629634053 0.5610735416 4288708176
-0.2746998370 -0.1591216177 0.5499503016 4288773969
-0.2760640681 -0.1592977941 0.5526815057 4288709200
-0.2726678550 -0.1567315608 0.5458822846 4288906579
-0.2757634521 -0.1578975171 0.5520796180 4288907096
-0.2736640871 -0.1560867280 0.5478767157 4288907096
-0.2754615545 -0.1564991921 0.5514752269 4289038432
-0.2750935256 -0.1556781977 0.5507384539 4289235811
-0.2755917311 -0.1553471237 0.5517358780 4289892712
-0.2752231061 -0.1545271277 0.5509978533 4290024298
-0.2752875686 -0.1539509743 0.5511268973 4290221928
-0.2736172974 -0.1524082869 0.5477830768 4290419307
-0.2754158676 -0.1527974755 0.5513837337 4290550378
-0.2750458717 -0.1519804001 0.5506430268 4290550378
-0.2751093805 -0.1514035612 0.5507701635 4290681199
-0.2751726806 -0.1508263052 0.5508969426 4290681199
-0.2748016417 -0.1500116885 0.5501540899 4290683253
-0.2748644352 -0.1494345516 0.5502797961 4290288495
-0.2740583420 -0.1483867019 0.5486660004 4289958756
-0.2749893665 -0.1482791156 0.5505298972 4289695584
-0.2746169567 -0.1474674642 0.5497843623 4289760865
-0.2742441893 -0.1466572583 0.5490380526 4289958244
-0.2743057013 -0.1460800022 0.5491611958 4290089837
-0.2739321887 -0.1452717632 0.5484133959 4290155630
-0.2739931643 -0.1446946412 0.5485355258 4290156658
-0.2740539312 -0.1441171318 0.5486571789 4290288244
-0.2741144896 -0.1435392499 0.5487784147 4290354549
-0.2741748095 -0.1429609656 0.5488991737 4290420342
-0.2737996578 -0.1421563178 0.5481480956 4290355573
-0.2742948532 -0.1418032944 0.5491394997 4290289780
-0.2743545175 -0.1412238777 0.5492589474 4289895279
-0.2739784122 -0.1404208392 0.5485059619 4289303142
-0.2744732499 -0.1400639266 0.5494966507 4289433188
-0.2745322585 -0.1394833773 0.5496147871 4289630567
-0.2745910585 -0.1389024705 0.5497325063 4289827946
-0.2746496499 -0.1383211762 0.5498498082 4289893739
-0.2747080326 -0.1377395242 0.5499666333 4289696360
-0.2747661769 -0.1371574998 0.5500830412 4289564774
-0.2743878663 -0.1363583058 0.5493257046 4289761637
-0.2753181159 -0.1362081915 0.5511880517 4289827430
-0.2758120894 -0.1358390749 0.5521770120 4289498463
-0.2754330039 -0.1350397170 0.5514181256 4289761635
-0.2759267390 -0.1346680075 0.5524065495 4289499233
-0.2759837210 -0.1340819299 0.5525206327 4288907096
-0.2760404646 -0.1334954947 0.5526342392 4288578131
-0.2760969996 -0.1329086870 0.5527474284 4288907096
-0.2761533260 -0.1323215365 0.5528601408 4289630048
-0.2762094140 -0.1317340136 0.5529724360 4290024806
-0.2762652636 -0.1311461329 0.5530842543 4290881145
-0.2763208747 -0.1305578947 0.5531956553 4292262798
-0.2763762772 -0.1299693137 0.5533065200 4292460179
-0.2764314711 -0.1293803751 0.5534169674 4292328593
-0.2764863968 -0.1287910789 0.5535269976 4292262546
-0.2765411139 -0.1282014400 0.5536365509 4291341444
-0.2770332396 -0.1278133541 0.5546217561 4290749307
-0.2766498625 -0.1270211041 0.5538542271 4291407237
-0.2771416903 -0.1266304702 0.5548388958 4290880893
-0.2771955729 -0.1260384917 0.5549467802 4291078272
-0.2776872218 -0.1256443560 0.5559310317 4291078273
-0.2777407169 -0.1250507683 0.5560381413 4291144066
-0.2777939737 -0.1244568378 0.5561447740 4291209861
-0.2782852650 -0.1240579262 0.5571283102 4291473033
-0.2778998017 -0.1232679412 0.5563566089 4291341445
-0.2783907950 -0.1228664815 0.5573395491 4292262547
-0.2784431875 -0.1222702563 0.5574445128 4292591250
-0.2784953713 -0.1216736883 0.5575489402 4291999113
-0.2785473168 -0.1210767850 0.5576529503 4291275394
-0.2790377438 -0.1206692830 0.5586348176 4290156913
-0.2790893018 -0.1200707778 0.5587379932 4289497960
-0.2791406214 -0.1194719449 0.5588407516 4288840030
-0.2791917026 -0.1188727766 0.5589429736 4289432169
-0.2792425156 -0.1182732806 0.5590447783 4289892720
-0.2792931199 -0.1176734641 0.5591460466 4289431917
-0.2797827125 -0.1172573939 0.5601261854 4289168745
-0.2798328996 -0.1166559756 0.5602266788 4288773987
-0.2803222239 -0.1162364334 0.5612063408 4288708194
-0.2803720236 -0.1156334281 0.5613059998 4288774239
-0.2804215848 -0.1150301024 0.5614052415 4289103204
-0.2804708779 -0.1144264564 0.5615039468 4289432421
-0.2809596360 -0.1140009016 0.5624824166 4289958765
-0.2814970315 -0.1129666492 0.5635582805 4289497964
-0.2819854319 -0.1125354096 0.5645360947 4288971618
-0.2820337713 -0.1119273454 0.5646328330 4288511067
-0.2820818424 -0.1113189682 0.5647290945 4287984723
-0.2825697958 -0.1108829975 0.5657060146 4287918930
-0.2826174498 -0.1102730483 0.5658013821 4288511837
-0.2826648653 -0.1096628010 0.5658963323 4288380251
-0.2831524014 -0.1092221066 0.5668723583 4288051032
-0.2831993997 -0.1086102873 0.5669664145 4288051032
-0.2832461298 -0.1079981700 0.5670599937 4287919448
-0.2837331891 -0.1075527593 0.5680351257 4288248413
-0.2837795019 -0.1069390848 0.5681278110 4288314204
-0.2838255763 -0.1063251048 0.5682200193 4287919446
-0.2838713825 -0.1057108343 0.5683117509 4287656274
-0.2839169502 -0.1050962657 0.5684029460 4287458895
-0.2844032049 -0.1046436355 0.5693764687 4287656276
-0.2844483256 -0.1040275246 0.5694667697 4287985241
-0.2844932079 -0.1034111157 0.5695566535 4288314204
-0.2845378220 -0.1027944237 0.5696460009 4288379997
-0.2850234210 -0.1023358479 0.5706180930 4288314204
-0.2850675881 -0.1017176211 0.5707065463 4288182618
-0.2855528891 -0.1012556031 0.5716781020 4287919446
-0.2855966091 -0.1006358415 0.5717656612 4287853653
-0.2860815823 -0.1001703814 0.5727366209 4288313690
-0.2865664363 -0.0997027159 0.5737072825 4288247897
-0.2866095603 -0.0990801901 0.5737935901 4288247895
-0.2866524160 -0.0984573811 0.5738793612 4288182102
-0.2866950035 -0.0978342965 0.5739646554 4288182100
-0.2871791422 -0.0973607227 0.5749339461 4288182100
-0.2872213125 -0.0967361256 0.5750182867 4288116309
-0.2872631848 -0.0961112529 0.5751021504 4288379481
-0.2877468169 -0.0956330076 0.5760703683 4288446553
-0.2877882421 -0.0950066298 0.5761533380 4288643932
-0.2878294289 -0.0943799838 0.5762357712 4289038177
-0.2878703177 -0.0937530622 0.5763176680 4289169763
-0.2879109681 -0.0931258798 0.5763990283 4289235558
-0.2883936763 -0.0926405191 0.5773653984 4289169765
-0.2888762355 -0.0921529680 0.5783315301 4288643682
-0.2889162302 -0.0915230662 0.5784115791 4288248924
-0.2893984616 -0.0910320953 0.5793769956 4288380512
-0.2894379795 -0.0904007107 0.5794560909 4288512098
-0.2899198532 -0.0899063274 0.5804207921 4288314206
-0.2899588943 -0.0892734602 0.5804989934 4288051034
-0.2904404402 -0.0887756720 0.5814630389 4288116828
-0.2909218073 -0.0882756859 0.5824267268 4287985242
-0.2914030254 -0.0877735242 0.5833901763 4287919708
-0.2914412022 -0.0871367455 0.5834665298 4288248673
-0.2919220626 -0.0866311714 0.5844292641 4287986530
-0.2919597328 -0.0859929249 0.5845046639 4287657565
-0.2924402356 -0.0854839608 0.5854666233 4287394393
-0.2929205894 -0.0849728063 0.5864282846 4287262807
-0.2934007645 -0.0844594687 0.5873896480 4287329113
-0.2938807905 -0.0839439481 0.5883506536 4287658078
-0.2943606675 -0.0834262520 0.5893113613 4287724387
-0.2948403656 -0.0829063728 0.5902717113 4287527008
-0.2948764861 -0.0822606161 0.5903440118 4287659108
-0.2953557968 -0.0817373469 0.5913035870 4287593315
-0.2962784767 -0.0813336596 0.5931507945 4287198303
-0.2972010970 -0.0809258521 0.5949978828 4286935131
-0.2967927456 -0.0801544785 0.5941804051 4286935901
-0.2972714007 -0.0796225071 0.5951386094 4287199073
-0.2986373305 -0.0793240890 0.5978732705 4287462245
-0.2977843583 -0.0784351379 0.5961655974 4287725417
-0.2982624173 -0.0778976083 0.5971226692 4288118376
-0.2987402976 -0.0773579106 0.5980793834 4288118376
-0.2992180288 -0.0768160373 0.5990357995 4288053353
-0.2996955514 -0.0762719959 0.5999917984 4287987560
-0.3001728952 -0.0757257864 0.6009474397 4287856233
-0.3006500602 -0.0751774088 0.6019027233 4287922026
-0.3011270463 -0.0746268556 0.6028576493 4287856751
-0.3016038239 -0.0740741417 0.6038121581 4287922544
-0.3029688895 -0.0737354904 0.6065450907 4287725940
-0.3034453988 -0.0731764808 0.6074990630 4287462768
-0.3039217293 -0.0726153105 0.6084526181 4286739820
-0.3043978512 -0.0720519796 0.6094058156 4286279269
-0.3048737645 -0.0714864805 0.6103586555 4285819488
-0.3053494990 -0.0709188208 0.6113110781 4285556316
-0.3062695563 -0.0704512447 0.6131529808 4285555547
-0.3071894944 -0.0699795559 0.6149947047 4285621340
-0.3085539043 -0.0696040392 0.6177262664 4285951849
-0.3076950908 -0.0687258765 0.6160069108 4286872951
-0.3139508069 -0.0694247931 0.6285309196 4287663496
-0.3090891540 -0.0676621944 0.6187978387 4288584598
-0.3095635474 -0.0670774579 0.6197475791 4289374631
-0.3109273612 -0.0666813627 0.6224779487 4290164147
-0.3118462861 -0.0661847666 0.6243175864 4290821823
-0.3170730174 -0.0588306151 0.6347815990 4287927444
-0.3162080944 -0.0579667725 0.6330499649 4281677109
-0.3153427243 -0.0571066923 0.6313174963 4279900698
-0.3149223328 -0.0563300587 0.6304758787 4281216558
-0.3136106431 -0.0553978495 0.6278498769 4280295458
-0.3122984171 -0.0544713885 0.6252228022 4280558630
-0.3105401695 -0.0534739532 0.6217027903 4280623912
-0.3114547729 -0.0529386550 0.6235338449 4280689705
-0.3092499673 -0.0518760160 0.6191198230 4280887082
-0.3088271022 -0.0511181317 0.6182731986 4280952875
-0.3079581857 -0.0502892956 0.6165336370 4281018670
-0.3070888519 -0.0494642518 0.6147932410 4281084463
-0.3066648245 -0.0487138182 0.6139443517 4281018415
-0.3057946861 -0.0478953943 0.6122022867 4281150001
-0.3053699136 -0.0471496060 0.6113519073 4281216049
-0.3049447834 -0.0464056544 0.6105007529 4281150256
-0.3045192957 -0.0456635430 0.6096489429 4281084720
-0.3045393229 -0.0449891388 0.6096890569 4281150513
-0.3027754128 -0.0440550782 0.6061577201 4281150513
-0.3023488224 -0.0433204696 0.6053036451 4281216306
-0.3028137982 -0.0427135229 0.6062345505 4281413685
-0.3014945686 -0.0418567993 0.6035934091 4281479478
-0.3001748621 -0.0410058834 0.6009513736 4281413939
-0.2993007600 -0.0402207188 0.5992014408 4281413939
-0.2984262407 -0.0394393913 0.5974506736 4281282610
-0.2979974747 -0.0387198664 0.5965922475 4281151024
-0.2971222103 -0.0379452296 0.5948399305 4281019438
-0.2966926992 -0.0372304246 0.5939800739 4280953645
-0.2958166897 -0.0364624932 0.5922262669 4280887852
-0.2944940627 -0.0356444046 0.5895784497 4280822059
-0.2904936671 -0.0345140472 0.5815696120 4280690475
-0.2927400768 -0.0341297798 0.5860669017 4280690475
-0.2896311283 -0.0331230722 0.5798428059 4280624682
-0.2909845412 -0.0326305963 0.5825523734 4280558889
-0.2892135978 -0.0317886844 0.5790069103 4280493096
-0.2887811959 -0.0310988016 0.5781412125 4280493096
-0.2879021168 -0.0303637329 0.5763813257 4280558889
-0.2874690592 -0.0296786223 0.5755143166 4280624682
-0.2874820828 -0.0290404987 0.5755403638 4280690475
-0.2866019607 -0.0283140857 0.5737783909 4280690475
-0.2866143584 -0.0276777744 0.5738032460 4280690475
-0.2862034142 -0.0257282238 0.5729805231 4280558889
-0.2857681811 -0.0250534434 0.5721091628 4280493096
-0.2866722047 -0.0244950335 0.5739189982 4280493096
-0.2849270403 -0.0218107831 0.5704251528 4280296232
-0.2849365771 -0.0211777091 0.5704442859 4280230439
-0.2854014337 -0.0199425835 0.5713749528 4280427304
-0.2854101360 -0.0193083342 0.5713923573 4280361511
-0.2863355875 -0.0168232750 0.5732450485 4280230439
-0.2944470048 -0.1866944432 0.5907979012 4293256675
-0.2940942645 -0.1858151406 0.5900900960 4292796118
-0.2937410474 -0.1849371344 0.5893813968 4292269774
-0.2925283313 -0.1835214645 0.5869480968 4291611840
-0.2917443812 -0.1823792458 0.5853751302 4290953910
-0.2909597754 -0.1812401265 0.5838008523 4290230700
-0.2897446156 -0.1798372716 0.5813627243 4289704356
-0.2880986333 -0.1781733632 0.5780600309 4289832081
-0.2890321910 -0.1781063825 0.5799332261 4289568909
-0.2860940099 -0.1756580323 0.5740378499 4289633663
-0.2848754227 -0.1742747426 0.5715928078 4289370491
-0.2789211869 -0.1700103879 0.5596458316 4289566829
-0.2738247812 -0.1662935466 0.5494201183 4289501036
-0.2803531587 -0.1696332246 0.5625190735 4289368927
-0.2778386474 -0.1674923748 0.5574737787 4289303134
-0.2787695527 -0.1674320996 0.5593416095 4289433689
-0.2775458395 -0.1660783738 0.5568862557 4289499482
-0.2771834135 -0.1652435809 0.5561590791 4289367128
-0.2759582102 -0.1638979763 0.5537007451 4289235542
-0.2764573395 -0.1635780931 0.5547022223 4289497692
-0.2739366889 -0.1614759564 0.5496446490 4289431899
-0.2757295966 -0.1619181186 0.5532420278 4289431646
-0.2753650844 -0.1610901803 0.5525106788 4289694818
-0.2750001848 -0.1602636427 0.5517784357 4289498979
-0.2729075849 -0.1584357321 0.5475797653 4289762151
-0.2738371789 -0.1583649367 0.5494449735 4289959530
-0.2734709084 -0.1575434506 0.5487100482 4290091116
-0.2722399831 -0.1562274247 0.5462402105 4290222702
-0.2736015916 -0.1563988477 0.5489723086 4290288495
-0.2728019655 -0.1553335935 0.5473678708 4290354288
-0.2728666067 -0.1547620744 0.5474975109 4290420081
-0.2729310095 -0.1541901678 0.5476267338 4290749046
-0.2729952037 -0.1536178440 0.5477555990 4290617460
-0.2731865644 -0.1518984586 0.5481395125 4290814841
-0.2728168964 -0.1510847062 0.5473977923 4290617462
-0.2733131051 -0.1507501900 0.5483934283 4290222704
-0.2733760476 -0.1501754671 0.5485197306 4289762153
-0.2734387815 -0.1496003419 0.5486455560 4289630049
-0.2730678618 -0.1487886608 0.5479013324 4289695842
-0.2735635936 -0.1484489143 0.5488960743 4289761635
-0.2731920779 -0.1476382613 0.5481505394 4289827428
-0.2736876011 -0.1472959220 0.5491448045 4290551151
-0.2737492621 -0.1467188299 0.5492685437 4291340667
-0.2738107145 -0.1461413503 0.5493918657 4291472253
-0.2734379172 -0.1453327984 0.5486438274 4291867011
-0.2730647326 -0.1445256919 0.5478950739 4291801218
-0.2731253207 -0.1439488828 0.5480166674 4291603839
-0.2736200392 -0.1435996443 0.5490093231 4291274876
-0.2736803293 -0.1430211514 0.5491302609 4291077497
-0.2733058929 -0.1422161758 0.5483789444 4290814325
-0.2738002241 -0.1418630332 0.5493708253 4290616946
-0.2738598585 -0.1412833929 0.5494904518 4290616944
-0.2739192843 -0.1407033950 0.5496096611 4290485358
-0.2739784718 -0.1401230097 0.5497284532 4290419313
-0.2740374207 -0.1395422518 0.5498467684 4290682485
-0.2736611068 -0.1387405396 0.5490916967 4290880118
-0.2737195492 -0.1381599605 0.5492089391 4290814325
-0.2742130160 -0.1377977282 0.5501990914 4290222188
-0.2742711008 -0.1372154802 0.5503156185 4289103707
-0.2747644186 -0.1368497312 0.5513054132 4288379730
-0.2748221457 -0.1362658292 0.5514212847 4288642902
-0.2748796642 -0.1356815398 0.5515366793 4289695590
-0.2753726542 -0.1353109926 0.5525258780 4290353520
-0.2754298151 -0.1347250640 0.5526405573 4290946425
-0.2754867673 -0.1341387630 0.5527547598 4291209597
-0.2751074731 -0.1333407760 0.5519937873 4291078011
-0.2755999565 -0.1329650581 0.5529818535 4290814839
-0.2756561935 -0.1323776841 0.5530947447 4290683253
-0.2757122219 -0.1317899376 0.5532071590 4290683253
-0.2757680416 -0.1312018335 0.5533191562 4291275392
-0.2758235931 -0.1306133717 0.5534306765 4291538564
-0.2758789659 -0.1300245523 0.5535417199 4292065421
-0.2759340703 -0.1294353902 0.5536522865 4292591765
-0.2759889662 -0.1288458556 0.5537624359 4292328339
-0.2760436237 -0.1282559931 0.5538721085 4291604616
-0.2760980427 -0.1276657730 0.5539813042 4291078272
-0.2761522532 -0.1270751953 0.5540900826 4290551928
-0.2766432762 -0.1266844124 0.5550752878 4290354549
-0.2766970992 -0.1260922104 0.5551832914 4290486135
-0.2771878839 -0.1256979257 0.5561680794 4289763182
-0.2772413492 -0.1251040995 0.5562753081 4289171045
-0.2772945464 -0.1245099381 0.5563820601 4289434218
-0.2777850032 -0.1241108775 0.5573661327 4290289527
-0.2774002850 -0.1233205795 0.5565941930 4291209859
-0.2778904140 -0.1229189709 0.5575776696 4291407238
-0.2779427767 -0.1223224998 0.5576826930 4291406210
-0.2784326971 -0.1219173968 0.5586656928 4290616694
-0.2780468166 -0.1211285666 0.5578914285 4289432418
-0.2785364091 -0.1207209080 0.5588738322 4288774488
-0.2785879076 -0.1201221645 0.5589771271 4288906074
-0.2786391675 -0.1195230931 0.5590800047 4288906074
-0.2786901891 -0.1189236864 0.5591824055 4288708697
-0.2791792452 -0.1185100004 0.5601636767 4288774490
-0.2792298794 -0.1179089993 0.5602652431 4288972386
-0.2792802751 -0.1173076704 0.5603663325 4289235558
-0.2793304324 -0.1167060137 0.5604669452 4289696109
-0.2793803215 -0.1161040366 0.5605670810 4289893488
-0.2798686624 -0.1156830564 0.5615469217 4289432937
-0.2799181640 -0.1150794923 0.5616462827 4289564523
-0.2799674273 -0.1144756079 0.5617451072 4290156660
-0.2800164521 -0.1138714030 0.5618434548 4289827695
-0.2805042267 -0.1134444177 0.5628221035 4289432939
-0.2809918821 -0.1130152196 0.5638006330 4288380251
-0.2814794481 -0.1125838086 0.5647789240 4287722321
-0.2815277278 -0.1119754985 0.5648757815 4287722321
-0.2815757394 -0.1113668829 0.5649721622 4287722321
-0.2820628881 -0.1109307408 0.5659495592 4287656528
-0.2821105123 -0.1103205457 0.5660451055 4287853137
-0.2821578681 -0.1097100452 0.5661401153 4287918930
-0.2826445401 -0.1092691794 0.5671166778 4288116311
-0.2826915085 -0.1086571142 0.5672108531 4288379483
-0.2827382088 -0.1080447435 0.5673045516 4288576862
-0.2832244337 -0.1075991541 0.5682801604 4288708448
-0.2837105691 -0.1071513593 0.5692555904 4288840034
-0.2837566435 -0.1065361798 0.5693480372 4288840034
-0.2838025093 -0.1059207022 0.5694400072 4288774241
-0.2838480771 -0.1053049266 0.5695315003 4288576862
-0.2843335867 -0.1048511639 0.5705056190 4288971616
-0.2843787372 -0.1042338461 0.5705962181 4288708444
-0.2844236195 -0.1036162302 0.5706863403 4288182618
-0.2844682932 -0.1029983237 0.5707759261 4287919446
