VERSION 0.7
FIELDS x y z rgba
SIZE 4 4 4 4
TYPE F F F U
COUNT 1 1 1 1
WIDTH 920
HEIGHT 1
VIEWPOINT 0.0 0.0 0.0 1.0 0.0 0.0 0.0
POINTS 920
DATA ascii
-0.3010172844 -0.1380396038 0.5511648059 4284769119
-0.3010787070 -0.1374552697 0.5512772799 4286084979
-0.3011398911 -0.1368705630 0.5513893366 4288651945
-0.3012008667 -0.1362855136 0.5515009761 4287467671
-0.3007930517 -0.1354890615 0.5507542491 4284703849
-0.3003848195 -0.1346940845 0.5500068069 4287335569
-0.2999761701 -0.1339005828 0.5492585301 4287797667
-0.2995670736 -0.1331085414 0.5485094786 4287402909
-0.2991575897 -0.1323179901 0.5477597117 4287731874
-0.2987476587 -0.1315289140 0.5470091105 4286942358
-0.2983373106 -0.1307413131 0.5462577939 4286284434
-0.2974573672 -0.1297505498 0.5446466208 4287863466
-0.2975153625 -0.1291705817 0.5447527766 4285165953
-0.2975730896 -0.1285902858 0.5448585153 4286152848
-0.2981000543 -0.1282115430 0.5458233953 4286613399
-0.2976878881 -0.1274286658 0.5450686812 4285889676
-0.2977449000 -0.1268473566 0.5451731086 4286087055
-0.2982714176 -0.1264648587 0.5461371541 4288192431
-0.2983280718 -0.1258819699 0.5462408662 4286679192
-0.2983844876 -0.1252987385 0.5463441610 4287666087
-0.2984406352 -0.1247151867 0.5464469790 4286350740
-0.2989666462 -0.1243267804 0.5474100709 4286811291
-0.2990224063 -0.1237416491 0.5475121737 4286613912
-0.2995481789 -0.1233498305 0.5484749079 4288456116
-0.2996035516 -0.1227631196 0.5485762954 4289443011
-0.3001290858 -0.1223678887 0.5495385528 4289706183
-0.3001840711 -0.1217796132 0.5496392250 4289574597
-0.3002387881 -0.1211910099 0.5497394204 4289969355
-0.3007639349 -0.1207911223 0.5507009625 4289575114
-0.3008182645 -0.1202009544 0.5508004427 4289509321
-0.3013431728 -0.1197976544 0.5517615676 4289772744
-0.3013970852 -0.1192059293 0.5518602729 4289772744
-0.3019217551 -0.1187992245 0.5528209209 4290033860
-0.3019752502 -0.1182059422 0.5529189110 4289704895
-0.3020285070 -0.1176123396 0.5530163646 4289442498
-0.3025527596 -0.1172009856 0.5539762974 4289113533
-0.3026055992 -0.1166058332 0.5540730357 4288784558
-0.3031296134 -0.1161910743 0.5550324917 4288718765
-0.3031820059 -0.1155943796 0.5551284552 4289902274
-0.3037057519 -0.1151762158 0.5560874343 4290362825
-0.3042294085 -0.1147558838 0.5570462942 4285295986
-0.3052247465 -0.1145103797 0.5588687062 4283782747
-0.3062201142 -0.1142608449 0.5606912971 4284962083
-0.3072155714 -0.1140072867 0.5625139475 4285685806
-0.3086830676 -0.1139238998 0.5652009249 4287199324
-0.3101507723 -0.1138346121 0.5678883195 4288252012
-0.3144799769 -0.1669448167 0.5769885182 4287796638
-0.3057381809 -0.1616808772 0.5609496236 4284112228
-0.3048809171 -0.1606060266 0.5593767166 4280888371
-0.3026305139 -0.1588036418 0.5552478433 4281480256
-0.3022358716 -0.1579804420 0.5545238256 4283914597
-0.3018408120 -0.1571586281 0.5537989736 4287137679
-0.3014453053 -0.1563382000 0.5530732870 4286940300
-0.3005847931 -0.1552791595 0.5514944792 4283782487
-0.2997236252 -0.1542232931 0.5499144793 4280821802
-0.2993265986 -0.1534088254 0.5491860509 4280295458
-0.2989962697 -0.1520204991 0.5485799909 4280295194
-0.2990631759 -0.1514448673 0.5487027168 4280360987
-0.2986646295 -0.1506342143 0.5479714870 4286414177
-0.2987309694 -0.1500587016 0.5480931997 4287466865
-0.2987971008 -0.1494828165 0.5482145548 4287924312
-0.2988629937 -0.1489065439 0.5483354330 4287990105
-0.2989286780 -0.1483298838 0.5484558940 4288056141
-0.2980626523 -0.1472925544 0.5468670130 4288121934
-0.2981276810 -0.1467169523 0.5469863415 4288252748
-0.2981924713 -0.1461409628 0.5471051931 4288121162
-0.2982570231 -0.1455645859 0.5472236276 4287989826
-0.2978552282 -0.1447613090 0.5464864373 4288055619
-0.2979192138 -0.1441850960 0.5466038585 4288253000
-0.2975166738 -0.1433837861 0.5458652973 4287660863
-0.2975801229 -0.1428077370 0.5459817052 4286936378
-0.2976433337 -0.1422313154 0.5460976958 4285883690
-0.2981729507 -0.1418765634 0.5470693707 4284567062
-0.2982358038 -0.1412985176 0.5471847057 4284106511
-0.2982984483 -0.1407200992 0.5472996235 4284105755
-0.2988277674 -0.1403606385 0.5482708216 4284368927
-0.2988900244 -0.1397805810 0.5483850241 4284107038
-0.2994191647 -0.1394176781 0.5493558645 4284107038
-0.2999482751 -0.1390525848 0.5503266454 4283974948
-0.3004773259 -0.1386853158 0.5512973070 4283909155
-0.3005389571 -0.1381011009 0.5514103770 4284769118
-0.3006003499 -0.1375165284 0.5515230298 4286216564
-0.3006615043 -0.1369315982 0.5516352057 4288784044
-0.3011900783 -0.1365583539 0.5526050329 4287862942
-0.3003152907 -0.1355495304 0.5510000587 4284111712
-0.2999077737 -0.1347542256 0.5502523184 4285295986
-0.2994998097 -0.1339603812 0.5495038629 4284113257
-0.2990914285 -0.1331680119 0.5487545729 4283586913
-0.2986826301 -0.1323771328 0.5480045676 4284376429
-0.2982734144 -0.1315877289 0.5472537279 4283981671
-0.2978637815 -0.1307998002 0.5465021133 4284508277
-0.2974537015 -0.1300133616 0.5457497835 4287271583
-0.2975117564 -0.1294322461 0.5458562374 4284902524
-0.2975695431 -0.1288507879 0.5459622741 4285889419
-0.2976271212 -0.1282689869 0.5460678935 4283652457
-0.2976844311 -0.1276868582 0.5461730957 4283323492
-0.2977415323 -0.1271043867 0.5462778211 4285560454
-0.2982673347 -0.1267208308 0.5472425818 4288257967
-0.2983240485 -0.1261367798 0.5473465919 4286679194
-0.2983804941 -0.1255524009 0.5474501848 4288192433
-0.2984367013 -0.1249676794 0.5475533009 4287008159
-0.2989619970 -0.1245782003 0.5485171080 4286350229
-0.2990178168 -0.1239919066 0.5486195087 4285363334
-0.2990733981 -0.1234052777 0.5487214327 4288521398
-0.2995983064 -0.1230111346 0.5496845841 4289442500
-0.2996535003 -0.1224229410 0.5497857928 4289442500
-0.3001781702 -0.1220253780 0.5507484674 4289311427
-0.3002329469 -0.1214356124 0.5508489609 4289377220
-0.3007574081 -0.1210346371 0.5518112183 4289311942
-0.3008117676 -0.1204433069 0.5519109368 4288917184
-0.3013359904 -0.1200389192 0.5528727770 4289049021
-0.3013899624 -0.1194460243 0.5529717207 4289246400
-0.3014436662 -0.1188528016 0.5530703068 4289508032
-0.3019674718 -0.1184437647 0.5540313125 4289376446
-0.3020207584 -0.1178489923 0.5541291237 4289508291
-0.3025443256 -0.1174365431 0.5550897121 4289113533
-0.3025971949 -0.1168402135 0.5551867485 4287666077
-0.3031204939 -0.1164243594 0.5561468601 4287534491
-0.3036437333 -0.1160063297 0.5571068525 4289375676
-0.3041668534 -0.1155861393 0.5580666065 4290428364
-0.3046898842 -0.1151637807 0.5590263009 4285493881
-0.3056838512 -0.1149163246 0.5608499050 4283454298
-0.3066778481 -0.1146648303 0.5626736879 4284962085
-0.3081431091 -0.1145845205 0.5653620362 4285685808
-0.3096085787 -0.1144983172 0.5680507421 4287067997
-0.3110742569 -0.1144062132 0.5707399249 4287989099
-0.3075649440 -0.1629790217 0.5654534698 4283520093
-0.3048563898 -0.1609210521 0.5604739189 4280756787
-0.3021463752 -0.1588733345 0.5554915071 4281414464
-0.3031429946 -0.1587781459 0.5573238134 4282138187
-0.3022853136 -0.1577114463 0.5557469726 4285361014
-0.3018907011 -0.1568889022 0.5550215244 4287992734
-0.3014956713 -0.1560677439 0.5542952418 4287072137
-0.3006362617 -0.1550087631 0.5527152419 4283124557
-0.2997761965 -0.1539529711 0.5511340499 4280756009
-0.2993796468 -0.1531377882 0.5504049659 4280098079
-0.2989826798 -0.1523239911 0.5496751666 4280624159
-0.2985852659 -0.1515116096 0.5489445329 4281611054
-0.2986519039 -0.1509353667 0.5490670204 4286348638
-0.2987183034 -0.1503587365 0.5491890907 4286940775
-0.2983197868 -0.1495487690 0.5484564304 4287529542
-0.2983856499 -0.1489722729 0.5485774875 4287529542
-0.2984512746 -0.1483953893 0.5486981273 4287595588
-0.2985166609 -0.1478181332 0.5488183498 4287727174
-0.2976516783 -0.1467818022 0.5472280979 4287727176
-0.2977164090 -0.1462055892 0.5473471284 4287661383
-0.2977809310 -0.1456289887 0.5474657416 4287661114
-0.2978452146 -0.1450520307 0.5475839376 4287661114
-0.2979092598 -0.1444746852 0.5477016568 4288186175
-0.2975074947 -0.1436721385 0.5469630957 4287659831
-0.2975710034 -0.1430949569 0.5470798016 4287395389
-0.2971684933 -0.1422943771 0.5463398099 4286474287
-0.2972314358 -0.1417173743 0.5464555621 4284895003
-0.2977601290 -0.1413612217 0.5474275351 4284434452
-0.2978227139 -0.1407825649 0.5475425720 4284368669
-0.2978850901 -0.1402035505 0.5476572514 4284434462
-0.2984134853 -0.1398426890 0.5486286879 4284107552
-0.2984754741 -0.1392620355 0.5487426519 4283910173
-0.2990036905 -0.1388977319 0.5497137904 4284106534
-0.2995318770 -0.1385312378 0.5506848097 4283909155
-0.3000600040 -0.1381625682 0.5516557693 4284637532
-0.3001213372 -0.1375777572 0.5517685413 4286282357
-0.3001824617 -0.1369925886 0.5518808961 4288981423
-0.3002433181 -0.1364070624 0.5519928336 4288455079
-0.3007709980 -0.1360324174 0.5529628992 4284901227
-0.3003643453 -0.1352349520 0.5522153378 4285032813
-0.2999572754 -0.1344389617 0.5514669418 4284047464
-0.2990824878 -0.1334359348 0.5498586297 4284310636
-0.2986744940 -0.1326438189 0.5491085052 4284508015
-0.2982660532 -0.1318531632 0.5483576655 4283652706
-0.2978571951 -0.1310639977 0.5476059914 4284837240
-0.2979156375 -0.1304811537 0.5477133989 4288192683
-0.2970382571 -0.1294901222 0.5461003184 4286349970
-0.2970960140 -0.1289084256 0.5462065339 4287863209
-0.2971535325 -0.1283264011 0.5463122725 4285757063
-0.2972108126 -0.1277440190 0.5464175940 4286349200
-0.2972678542 -0.1271613091 0.5465224981 4286876314
-0.2973246574 -0.1265782714 0.5466269255 4288257967
-0.2978495359 -0.1261933148 0.5475919247 4287139745
-0.2979059517 -0.1256086826 0.5476956367 4288324019
-0.2979621291 -0.1250237226 0.5477988720 4287995054
-0.2984866500 -0.1246341020 0.5487632155 4287534503
-0.2985424399 -0.1240475625 0.5488657355 4285494920
-0.2985979617 -0.1234606951 0.5489678383 4288126640
-0.2986532748 -0.1228735000 0.5490695238 4288652985
-0.2991772294 -0.1224779561 0.5500328541 4288916157
-0.2992321253 -0.1218891889 0.5501337647 4288653242
-0.2997558713 -0.1214902252 0.5510966778 4287995312
-0.3002795577 -0.1210890859 0.5520594120 4288390840
-0.3003338873 -0.1204975098 0.5521593094 4288061875
-0.3008573055 -0.1200929582 0.5531216264 4288522677
-0.3009112477 -0.1194998100 0.5532207489 4289114814
-0.3009649217 -0.1189063489 0.5533194542 4289902790
-0.3010183275 -0.1183125675 0.5534176826 4290297548
-0.3015411794 -0.1179021224 0.5543789268 4290363600
-0.3015941978 -0.1173067838 0.5544763803 4289376705
-0.3021168113 -0.1168929264 0.5554372072 4287600284
-0.3021693826 -0.1162960306 0.5555338860 4287402905
-0.3026917577 -0.1158787683 0.5564942360 4288718518
-0.3032140136 -0.1154593304 0.5574544072 4290297550
-0.3037361801 -0.1150377318 0.5584143996 4285559674
-0.3042582572 -0.1146139577 0.5593742728 4282862161
-0.3052505851 -0.1143642366 0.5611985922 4285027880
-0.3062430024 -0.1141104847 0.5630230904 4285554224
-0.3077059388 -0.1140270531 0.5657127500 4287002204
-0.3091691136 -0.1139377207 0.5684027076 4287923306
-0.3748775721 -0.2005891800 0.6906169653 4284176743
-0.3713528216 -0.1971829385 0.6841235161 4282205009
-0.3085302711 -0.1631935686 0.5683888793 4280428598
-0.3053629398 -0.1608932018 0.5625538826 4281086777
-0.3026566505 -0.1588477790 0.5575682521 4281218363
-0.3018004000 -0.1577806473 0.5559908152 4282401094
-0.3014065027 -0.1569577754 0.5552651286 4285953916
-0.3005490601 -0.1558960825 0.5536855459 4288058778
-0.3001541793 -0.1550768763 0.5529580712 4286282367
-0.2992955744 -0.1540206373 0.5513762832 4282203715
-0.2988997102 -0.1532051265 0.5506470203 4280164132
-0.2985034287 -0.1523910016 0.5499169827 4280295197
-0.2985703349 -0.1518140286 0.5500402451 4282532159
-0.2981733084 -0.1510018259 0.5493087769 4286281554
-0.2982396483 -0.1504249722 0.5494310260 4286742105
-0.2983057797 -0.1498477310 0.5495528579 4287463222
-0.2979076505 -0.1490379572 0.5488193631 4287397429
-0.2979732156 -0.1484608501 0.5489401817 4287265853
-0.2980385721 -0.1478833705 0.5490605831 4287331646
-0.2976393700 -0.1470760554 0.5483251214 4287594810
-0.2977041602 -0.1464987099 0.5484445095 4287397431
-0.2977687120 -0.1459209919 0.5485634208 4287331887
-0.2978330553 -0.1453429013 0.5486819744 4287595059
-0.2974324524 -0.1445385814 0.5479439497 4287791420
-0.2974962294 -0.1439606398 0.5480614305 4287725627
-0.2970948517 -0.1431583017 0.5473219752 4287331135
-0.2971580625 -0.1425805241 0.5474384427 4286146861
-0.2967559397 -0.1417801529 0.5466976166 4284633369
-0.2972838283 -0.1414238662 0.5476701856 4284041232
-0.2973463833 -0.1408449858 0.5477854013 4284303385
-0.2974087000 -0.1402657479 0.5479001403 4284500764
-0.2979362905 -0.1399047524 0.5488721132 4284500256
-0.2984638512 -0.1395415664 0.5498440266 4284302877
-0.2985256612 -0.1389594227 0.5499579310 4283975968
-0.2990530431 -0.1385927945 0.5509294868 4284041761
-0.2995803952 -0.1382239759 0.5519009829 4284900186
-0.2996416986 -0.1376389414 0.5520139337 4286347632
-0.2997027636 -0.1370535344 0.5521264076 4288785073
-0.2997635901 -0.1364677697 0.5522384644 4288785073
-0.3002904654 -0.1360929757 0.5532091260 4287731104
-0.2998845279 -0.1352951825 0.5524612665 4287731104
-0.2994781733 -0.1344988644 0.5517126918 4287796898
-0.2986048162 -0.1334954202 0.5501037240 4288257449
-0.2981975377 -0.1327029616 0.5493534207 4287732385
-0.2977898121 -0.1319119781 0.5486022830 4287929764
-0.2973816693 -0.1311224848 0.5478503704 4287928483
-0.2974400520 -0.1305394024 0.5479578972 4288981171
-0.2974981666 -0.1299559772 0.5480650067 4288389553
-0.2966218293 -0.1289660335 0.5464506149 4288586932
-0.2966793180 -0.1283837557 0.5465564728 4288850615
-0.2967365682 -0.1278011501 0.5466619730 4289179580
-0.2967935503 -0.1272182018 0.5467669368 4288258478
-0.2968503237 -0.1266349256 0.5468715429 4287995306
-0.2973744273 -0.1262498051 0.5478370786 4288521396
-0.2974308133 -0.1256649494 0.5479409099 4287995052
-0.2979546785 -0.1252764165 0.5489060283 4287666089
-0.2980106771 -0.1246899590 0.5490091443 4288981949
-0.2985343337 -0.1242979988 0.5499738455 4286416022
-0.2985899150 -0.1237099692 0.5500762463 4288324019
-0.2986452579 -0.1231216118 0.5501782298 4288389812
-0.2991685271 -0.1227249876 0.5511422157 4288784570
-0.2992234826 -0.1221350506 0.5512434244 4288258224
-0.2992781699 -0.1215447932 0.5513442159 4287139743
-0.2998010516 -0.1211434975 0.5523074865 4288192431
-0.3003238738 -0.1207400337 0.5532706380 4287534501
-0.3003779948 -0.1201469600 0.5533703566 4286746527
-0.3004318774 -0.1195535660 0.5534696579 4288457145
-0.3009542823 -0.1191454381 0.5544320345 4290035150
-0.3010077477 -0.1185504869 0.5545305610 4290100943
-0.3010609746 -0.1179552153 0.5546285510 4290100941
-0.3011139333 -0.1173596233 0.5547261834 4289443011
-0.3016357720 -0.1169456020 0.5556874871 4288061350
-0.3016883135 -0.1163484603 0.5557842851 4288982452
-0.3022098839 -0.1159310266 0.5567451715 4288785335
-0.3027313650 -0.1155114174 0.5577058792 4289969609
-0.3032527566 -0.1150896400 0.5586664081 4285560185
-0.3037740588 -0.1146657020 0.5596267581 4282796879
-0.3047648370 -0.1144158840 0.5614520311 4285223212
-0.3057557046 -0.1141620278 0.5632774234 4285617970
-0.3072163761 -0.1140785813 0.5659683347 4286477143
-0.3091470897 -0.1141627282 0.5695251822 4287332452
-0.3765980005 -0.2057850510 0.6952089071 4287204760
-0.3757654428 -0.2045593858 0.6936719418 4283454046
-0.3753933311 -0.2035868466 0.6929850578 4282203979
-0.3768658340 -0.2036124617 0.6957033277 4285098355
-0.3751089871 -0.2018939108 0.6924601793 4282795600
-0.3761200011 -0.2016666234 0.6943265200 4285229171
-0.3803624213 -0.2031611502 0.7021580935 4288387235
-0.3790659308 -0.2016911656 0.6997647285 4284375661
-0.3103428483 -0.1644888669 0.5729002953 4282401871
-0.3062573373 -0.1616953015 0.5653583407 4281087031
-0.3026317358 -0.1591603607 0.5586653948 4280626480
-0.3008527458 -0.1576076895 0.5553813577 4280295718
-0.3004594147 -0.1567853838 0.5546552539 4282664266
-0.2996033132 -0.1557241380 0.5530748963 4286677128
-0.2987465858 -0.1546660811 0.5514933467 4287927195
-0.2983517647 -0.1538497359 0.5507644415 4283585368
-0.2979564965 -0.1530347914 0.5500348210 4279966753
-0.2980235815 -0.1524579823 0.5501586199 4279703058
-0.2980904281 -0.1518807709 0.5502820611 4282795329
-0.2976940870 -0.1510682404 0.5495503545 4286479184
-0.2977603972 -0.1504911631 0.5496727824 4286216012
-0.2978264689 -0.1499136984 0.5497947335 4287331888
-0.2978923023 -0.1493358463 0.5499163270 4287266095
-0.2979579568 -0.1487576216 0.5500375032 4287134768
-0.2975598574 -0.1479485631 0.5493025780 4287266354
-0.2976249456 -0.1473704576 0.5494227409 4287332141
-0.2976897955 -0.1467919946 0.5495424271 4287266348
-0.2977544069 -0.1462131441 0.5496617556 4287331621
-0.2973549068 -0.1454070807 0.5489242673 4287529000
-0.2969549894 -0.1446024328 0.5481860042 4287462957
-0.2970187068 -0.1440242678 0.5483036637 4287199785
-0.2966180444 -0.1432216018 0.5475639701 4287133490
-0.2966812253 -0.1426435858 0.5476806164 4286212388
-0.2967441678 -0.1420652121 0.5477968454 4284830485
-0.2968069017 -0.1414864808 0.5479125977 4284238348
-0.2973339856 -0.1411278844 0.5488856435 4284369170
-0.2978610098 -0.1407671124 0.5498585701 4284434963
-0.2979232371 -0.1401854604 0.5499734282 4284434463
-0.2984501123 -0.1398212314 0.5509460568 4284302877
-0.2985119820 -0.1392379403 0.5510602593 4284106786
-0.2990386784 -0.1388702691 0.5520325303 4284172579
-0.2995653152 -0.1385004073 0.5530047417 4284965979
-0.2996266782 -0.1379142255 0.5531179905 4286216046
-0.2996878028 -0.1373276711 0.5532308221 4288587183
-0.2997486591 -0.1367407739 0.5533431768 4288587183
-0.2993437648 -0.1359420866 0.5525957346 4288191656
-0.2989384532 -0.1351448745 0.5518475175 4288191656
-0.2985326946 -0.1343491375 0.5510984659 4287336093
-0.2976607084 -0.1333461851 0.5494887829 4287138714
-0.2972540259 -0.1325543076 0.5487380028 4287666594
-0.2968468964 -0.1317639202 0.5479865074 4288324524
-0.2959732711 -0.1307690740 0.5463737249 4288125863
-0.2960314453 -0.1301875859 0.5464810729 4288454828
-0.2960893512 -0.1296057552 0.5465880036 4288850363
-0.2961470187 -0.1290235817 0.5466944575 4288587191
-0.2962044775 -0.1284410805 0.5468004942 4288587191
-0.2962616682 -0.1278582364 0.5469061136 4288784570
-0.2967852652 -0.1274754852 0.5478727221 4288324019
-0.2968420982 -0.1268910319 0.5479775667 4287995054
-0.2968986630 -0.1263062656 0.5480820537 4288192433
-0.2974219024 -0.1259188354 0.5490479469 4288126640
-0.2979450822 -0.1255292296 0.5500137806 4286218643
-0.2980011106 -0.1249416098 0.5501171947 4289376707
-0.2980569005 -0.1243536696 0.5502201915 4285626764
-0.2981124520 -0.1237653941 0.5503227115 4287666347
-0.2986350954 -0.1233698577 0.5512875319 4285889936
-0.2986902595 -0.1227800101 0.5513893366 4287008417
-0.2987451553 -0.1221898273 0.5514906645 4288061105
-0.2992674112 -0.1217896268 0.5524547696 4286876831
-0.2997896075 -0.1213872433 0.5534187555 4288060588
-0.2998439372 -0.1207942441 0.5535190701 4287402658
-0.2998980284 -0.1202009246 0.5536189079 4286285976
-0.3004198074 -0.1197938845 0.5545821786 4287799215
-0.3004734814 -0.1191989928 0.5546812415 4289771976
-0.3005269170 -0.1186037883 0.5547798872 4289837769
-0.3005801141 -0.1180082709 0.5548780560 4289837769
-0.3011012971 -0.1175953224 0.5558401942 4289508804
-0.3011540771 -0.1169982404 0.5559375882 4289179831
-0.3016750216 -0.1165818721 0.5568993092 4289245624
-0.3021959066 -0.1161633432 0.5578608513 4289640129
-0.3027166724 -0.1157426313 0.5588222146 4290100680
-0.3032373488 -0.1153197587 0.5597833991 4285625720
-0.3042267263 -0.1150720119 0.5616098046 4282796621
-0.3052161336 -0.1148202419 0.5634362698 4285355052
-0.3071434498 -0.1149153113 0.5669941306 4285618224
-0.3057881594 -0.1137810498 0.5644922256 4286411350
-0.3086538315 -0.1142142713 0.5697823167 4287266659
-0.3782905638 -0.2071346045 0.6997681856 4287402139
-0.3779202700 -0.2061551213 0.6990832090 4283520352
-0.3775494993 -0.2051768899 0.6983973384 4281875527
-0.3771782219 -0.2041999102 0.6977105141 4282927956
-0.3763458133 -0.2029757649 0.6961707473 4282138440
-0.3741304278 -0.2010120004 0.6920726895 4285426548
-0.3737571537 -0.2000432611 0.6913821697 4288255647
-0.3720004559 -0.1983384788 0.6881326437 4287336085
-0.3688594103 -0.1959056705 0.6823222637 4285164916
-0.3071466088 -0.1624979824 0.5681648850 4282007614
-0.3030659556 -0.1597161889 0.5606164336 4281876028
-0.3012900949 -0.1581610888 0.5573314428 4280426791
-0.3008976877 -0.1573366672 0.5566055775 4281216307
-0.3005048633 -0.1565136313 0.5558788776 4285689722
-0.2996498644 -0.1554524601 0.5542972684 4288321442
-0.2987942398 -0.1543944627 0.5527145267 4283913822
-0.2979379594 -0.1533396691 0.5511305928 4280295207
-0.2975430787 -0.1525248885 0.5504000783 4280097301
-0.2976098657 -0.1519474685 0.5505236983 4283321158
-0.2976764441 -0.1513696611 0.5506468415 4286478923
-0.2977428138 -0.1507914513 0.5507696271 4286478923
-0.2973465025 -0.1499796212 0.5500364900 4287003182
-0.2974123061 -0.1494015455 0.5501582623 4286871596
-0.2979405522 -0.1490545422 0.5511353612 4286937642
-0.2980059981 -0.1484747976 0.5512564182 4287069228
-0.2980712354 -0.1478946805 0.5513771176 4287200553
-0.2981362343 -0.1473141760 0.5514973402 4287200553
-0.2977379560 -0.1465054601 0.5507606268 4287266344
-0.2978024185 -0.1459251046 0.5508798361 4287332137
-0.2974033952 -0.1451183259 0.5501416922 4287397162
-0.2974672616 -0.1445381194 0.5502598882 4287002404
-0.2970674932 -0.1437333077 0.5495203733 4286870064
-0.2966672778 -0.1429299414 0.5487800837 4286080548
-0.2967302799 -0.1423504353 0.5488966107 4284764189
-0.2967930734 -0.1417705566 0.5490127206 4284106259
-0.2968555987 -0.1411903203 0.5491284132 4284237335
-0.2969179153 -0.1406097114 0.5492436886 4284434714
-0.2974440455 -0.1402475238 0.5502169132 4284368157
-0.2979701161 -0.1398831606 0.5511900783 4284302364
-0.2984961569 -0.1395166218 0.5521631837 4284040993
-0.2985578477 -0.1389318258 0.5522772670 4284040993
-0.2990837097 -0.1385618299 0.5532500148 4285097567
-0.2991450131 -0.1379754096 0.5533633828 4286150255
-0.2992060781 -0.1373886317 0.5534763932 4288587183
-0.2997316122 -0.1370139122 0.5544484854 4288850355
-0.2997922897 -0.1364254951 0.5545607805 4288915125
-0.2993878722 -0.1356261224 0.5538126826 4288586160
-0.2985180318 -0.1346185356 0.5522035956 4287138716
-0.2981126606 -0.1338230371 0.5514537692 4286349200
-0.2977068722 -0.1330289990 0.5507031083 4287206043
-0.2973006368 -0.1322364509 0.5499516726 4286877078
-0.2964286506 -0.1312393546 0.5483386517 4286743956
-0.2960215211 -0.1304506809 0.5475854874 4287204507
-0.2960794866 -0.1298677027 0.5476927161 4287402404
-0.2956715822 -0.1290811002 0.5469381809 4287205025
-0.2957289815 -0.1284983605 0.5470443964 4287008159
-0.2957861423 -0.1279152781 0.5471501350 4286218643
-0.2963089645 -0.1275323778 0.5481172204 4285560714
-0.2963657379 -0.1269477010 0.5482222438 4285297542
-0.2968883514 -0.1265613586 0.5491889715 4285363335
-0.2969447374 -0.1259751022 0.5492932796 4286152851
-0.2970008552 -0.1253884882 0.5493971109 4285298054
-0.2970567644 -0.1248015612 0.5495005250 4289311427
-0.2975788414 -0.1244092956 0.5504662991 4286350742
-0.2981008589 -0.1240148544 0.5514319539 4287271844
-0.2981562316 -0.1234250888 0.5515343547 4285034627
-0.2982113361 -0.1228349954 0.5516362786 4287008417
-0.2987329662 -0.1224358752 0.5526012182 4288324277
-0.2987876534 -0.1218442023 0.5527023673 4286811038
-0.2993090749 -0.1214416623 0.5536668897 4287994795
-0.2998303771 -0.1210369542 0.5546312332 4287863209
-0.2998845279 -0.1204424575 0.5547313690 4286746527
-0.2999384105 -0.1198476478 0.5548310280 4287667629
-0.2999920547 -0.1192525104 0.5549302697 4289245632
-0.3000454307 -0.1186570600 0.5550290346 4289311425
-0.3005660176 -0.1182451844 0.5559920073 4288982460
-0.3006190062 -0.1176481694 0.5560900569 4288456116
-0.3006717265 -0.1170508415 0.5561875701 4288390315
-0.3007242084 -0.1164532006 0.5562846661 4287863971
-0.3012441993 -0.1160354242 0.5572465658 4289376957
-0.3017641306 -0.1156154796 0.5582082868 4289837508
-0.3022839427 -0.1151933596 0.5591698289 4285691511
-0.3028036654 -0.1147690639 0.5601312518 4282730826
-0.3037913740 -0.1145190597 0.5619583726 4285223465
-0.3061836958 -0.1147915795 0.5663836598 4285618223
-0.3081082702 -0.1148798764 0.5699437857 4286542936
-0.3095648885 -0.1147867441 0.5726382732 4287595624
-0.3744613230 -0.2054600120 0.6941108704 4287007381
-0.3740909696 -0.2044863552 0.6934243441 4283454300
-0.3732604086 -0.2032636255 0.6918848157 4282401612
-0.3728889525 -0.2022933662 0.6911962628 4282204233
-0.3725169897 -0.2013243735 0.6905067563 4281809475
-0.3721445501 -0.2003566623 0.6898164153 4283650137
-0.3713114858 -0.1991434395 0.6882722378 4286216064
-0.3097285926 -0.1654771417 0.5741206408 4287599255
-0.3051973879 -0.1624277085 0.5657214522 4286086016
-0.3043472767 -0.1613484770 0.5641457438 4283126095
-0.3016543686 -0.1592995822 0.5591540933 4284968299
-0.3026451468 -0.1591994911 0.5609905720 4284308580
-0.3008715808 -0.1576469094 0.5577030778 4284111201
-0.3004795611 -0.1568226516 0.5569763780 4286742408
-0.2996261120 -0.1557601541 0.5553944111 4287597717
-0.2987720370 -0.1547008306 0.5538112521 4282992717
-0.2979173064 -0.1536446959 0.5522269607 4280624169
-0.2975232005 -0.1528287083 0.5514964461 4280557850
-0.2975900769 -0.1522501558 0.5516203642 4283386949
-0.2976567149 -0.1516712308 0.5517438650 4285820743
-0.2972615361 -0.1508576572 0.5510113835 4286281294
-0.2973276079 -0.1502788365 0.5511338711 4287134772
-0.2973934710 -0.1496996433 0.5512559414 4286937393
-0.2979210019 -0.1493516117 0.5522338152 4286806054
-0.2979865074 -0.1487707496 0.5523552299 4286806054
-0.2980518043 -0.1481895000 0.5524762273 4286806054
-0.2981168628 -0.1476078629 0.5525968075 4286871847
-0.2981816828 -0.1470258683 0.5527169704 4287003176
-0.2977838814 -0.1462164223 0.5519796610 4287134762
-0.2973856628 -0.1454084218 0.5512414575 4287266348
-0.2974495888 -0.1448270828 0.5513600111 4287003176
-0.2970506251 -0.1440210491 0.5506204367 4286935859
-0.2971140146 -0.1434398741 0.5507379174 4285948964
-0.2967142761 -0.1426358074 0.5499969721 4284566561
-0.2967770994 -0.1420547962 0.5501134396 4284040217
-0.2968397141 -0.1414734125 0.5502294898 4284105755
-0.2969020605 -0.1408916563 0.5503450632 4284303134
-0.2974274755 -0.1405284405 0.5513190031 4284368157
-0.2979528606 -0.1401630342 0.5522928834 4284368157
-0.2984782159 -0.1397954524 0.5532666445 4284040991
-0.2985399365 -0.1392095089 0.5533810854 4283843612
-0.2990651131 -0.1388384700 0.5543545485 4285097565
-0.2991264462 -0.1382509023 0.5544682741 4286018667
-0.2991875708 -0.1376629621 0.5545815825 4288455597
-0.2997124195 -0.1372871995 0.5555543900 4289047734
-0.2997731566 -0.1366976351 0.5556669831 4289178551
-0.2993695140 -0.1358970255 0.5549188256 4288981172
-0.2985012233 -0.1348880976 0.5533093214 4287271070
-0.2980966568 -0.1340913475 0.5525593758 4285889417
-0.2972272336 -0.1330881119 0.5509478450 4286285198
-0.2968217432 -0.1322952360 0.5501961708 4285298303
-0.2964158058 -0.1315038353 0.5494437218 4285954440
-0.2960094512 -0.1307139248 0.5486904979 4286743956
-0.2960674763 -0.1301297992 0.5487980247 4286415763
-0.2951954901 -0.1291385740 0.5471817255 4286678935
-0.2952528596 -0.1285555959 0.5472880602 4286876573
-0.2953099608 -0.1279722750 0.5473939180 4285889678
-0.2958320081 -0.1275892258 0.5483615994 4285823885
-0.2958887219 -0.1270043105 0.5484667420 4286087057
-0.2964105606 -0.1266178340 0.5494340062 4285692299
-0.2964668870 -0.1260313243 0.5495384336 4285955471
-0.2965230048 -0.1254444718 0.5496424437 4286548119
-0.2970444560 -0.1250533164 0.5506089926 4288521909
-0.2971001565 -0.1244648844 0.5507122278 4287995565
-0.2971556187 -0.1238761246 0.5508150458 4288192944
-0.2976766825 -0.1234802753 0.5517809391 4287535014
-0.2981976867 -0.1230822504 0.5527466536 4288785081
-0.2982526124 -0.1224906594 0.5528484583 4288982462
-0.2983072698 -0.1218987480 0.5529497862 4288324532
-0.2988278866 -0.1214960441 0.5539147854 4288916154
-0.2993484139 -0.1210911721 0.5548796654 4289047740
-0.2994025052 -0.1204964295 0.5549799800 4288128181
-0.2994563580 -0.1199013740 0.5550797582 4288325560
-0.2995099723 -0.1193059906 0.5551791191 4289508806
-0.2995633185 -0.1187102869 0.5552780032 4289837771
-0.2996164262 -0.1181142703 0.5553764701 4288916667
-0.3001360595 -0.1177009866 0.5563396811 4287403428
-0.3001887500 -0.1171034053 0.5564373136 4286745490
-0.3002411723 -0.1165055111 0.5565345287 4286613904
-0.3007603884 -0.1160875708 0.5574969649 4288455855
-0.3012795150 -0.1156674549 0.5584592223 4289705922
-0.3017985523 -0.1152451634 0.5594213009 4285888890
-0.3023174703 -0.1148206964 0.5603832006 4282993998
-0.3033036590 -0.1145705953 0.5622112155 4284960806
-0.3047573268 -0.1144920513 0.5649057627 4285421357
-0.3057437241 -0.1142329425 0.5667341948 4286542166
-0.3076653183 -0.1143172532 0.5702961087 4287660647
-0.3091196120 -0.1142209843 0.5729918480 4291019974
-0.3711004555 -0.2040360272 0.6893001795 4286743950
-0.3701623380 -0.1997006088 0.6875576377 4282136896
-0.3684977591 -0.1972815841 0.6844657660 4283980640
-0.3658260703 -0.1950962842 0.6795032620 4284178019
-0.3107485175 -0.1650819331 0.5771995187 4283125584
-0.3030039072 -0.1603423655 0.5628142953 4286349441
-0.3021539748 -0.1592690200 0.5612355471 4287335058
-0.3013033569 -0.1581988335 0.5596556067 4287795609
-0.3004521132 -0.1571318358 0.5580744743 4287729556
-0.2991400063 -0.1558282673 0.5556373000 4286018938
-0.3001286387 -0.1557238698 0.5574736595 4281677107
-0.2983549237 -0.1541878432 0.5541790724 4280361247
-0.2975012362 -0.1531326771 0.5525933504 4280294680
-0.2971075177 -0.1523168534 0.5518620610 4282926400
-0.2976348400 -0.1519729495 0.5528414845 4284504380
-0.2972404659 -0.1511581540 0.5521090031 4284635966
-0.2973065972 -0.1505782157 0.5522318482 4285687593
-0.2973725200 -0.1499978900 0.5523542762 4285884972
-0.2978993356 -0.1496488452 0.5533328056 4286280229
-0.2979649007 -0.1490668505 0.5534545779 4286609194
-0.2980302274 -0.1484844685 0.5535759330 4286740780
-0.2980953455 -0.1479017138 0.5536968708 4286740780
-0.2981602252 -0.1473185718 0.5538173914 4286871850
-0.2982248664 -0.1467350572 0.5539374948 4287003436
-0.2973658144 -0.1456986815 0.5523418188 4287266859
-0.2974298000 -0.1451162100 0.5524606705 4287266859
-0.2970316112 -0.1443089396 0.5517210960 4286936878
-0.2970950603 -0.1437266171 0.5518389344 4285752604
-0.2966961265 -0.1429213136 0.5510979295 4284567576
-0.2967590094 -0.1423391700 0.5512146950 4284172818
-0.2968216538 -0.1417566538 0.5513311028 4284238097
-0.2968840599 -0.1411737651 0.5514470339 4284238097
-0.2974087894 -0.1408095062 0.5524216890 4284105498
-0.2979334891 -0.1404430568 0.5533962250 4284237084
-0.2984581292 -0.1400744170 0.5543707609 4283909405
-0.2985199094 -0.1394873410 0.5544854999 4283646233
-0.2990443707 -0.1391152442 0.5554596186 4284834393
-0.2991057634 -0.1385265291 0.5555737019 4286018667
-0.2991669476 -0.1379374564 0.5556873083 4288390317
-0.2996910810 -0.1375606209 0.5566608906 4289179833
-0.2997518778 -0.1369699091 0.5567737818 4288717746
-0.2993490398 -0.1361680627 0.5560255647 4288915125
-0.2984822989 -0.1351577938 0.5544156432 4287468451
-0.2980785072 -0.1343598068 0.5536656380 4285889419
-0.2976743281 -0.1335632801 0.5529148579 4286022027
-0.2968059480 -0.1325611174 0.5513018966 4285824648
-0.2964008152 -0.1317684650 0.5505493879 4286942105
-0.2950673699 -0.1305667311 0.5480725765 4287271070
-0.2951252460 -0.1299832761 0.5481801033 4287205277
-0.2951829135 -0.1293994784 0.5482871532 4287797414
-0.2952403128 -0.1288153380 0.5483937860 4288455346
-0.2952974737 -0.1282308549 0.5485000014 4287863209
-0.2953543961 -0.1276460439 0.5486057401 4288126127
-0.2958755791 -0.1272606552 0.5495737791 4288455092
-0.2959321141 -0.1266742498 0.5496788025 4288324017
-0.2959884405 -0.1260875016 0.5497834086 4288521396
-0.2965092361 -0.1256974339 0.5507507920 4288258224
-0.2970299721 -0.1253051907 0.5517180562 4288521396
-0.2970857322 -0.1247156039 0.5518215895 4288851128
-0.2971412539 -0.1241256818 0.5519247055 4288390577
-0.2971965373 -0.1235354245 0.5520274043 4288719288
-0.2977167368 -0.1231372431 0.5529936552 4289048253
-0.2977716029 -0.1225454137 0.5530955791 4288982460
-0.2982915938 -0.1221437976 0.5540614128 4289114046
-0.2988114953 -0.1217400134 0.5550270677 4289179328
-0.2988657951 -0.1211453527 0.5551279783 4289771465
-0.2989198565 -0.1205503643 0.5552283525 4289707213
-0.2989736497 -0.1199550554 0.5553283095 4289838799
-0.2994929850 -0.1195453480 0.5562929511 4290232529
-0.2995463908 -0.1189484671 0.5563921332 4290298322
-0.2995995581 -0.1183512732 0.5564908981 4289246402
-0.2996524572 -0.1177537665 0.5565891266 4287338405
-0.2997050881 -0.1171559319 0.5566869378 4287206554
-0.2997575104 -0.1165577918 0.5567842722 4287601312
-0.3002759218 -0.1161396801 0.5577471852 4288456368
-0.3007942438 -0.1157193854 0.5587099791 4289903814
-0.3013125062 -0.1152969226 0.5596725941 4286283650
-0.3018306494 -0.1148722917 0.5606350303 4283849309
-0.3028152883 -0.1146220937 0.5624639392 4285158186
-0.3042666614 -0.1145435348 0.5651597977 4285092393
-0.3052515090 -0.1142843217 0.5669890642 4286213201
-0.3071700335 -0.1143686846 0.5705527067 4287200096
-0.3086220622 -0.1142723933 0.5732496977 4290822338
-0.3701259196 -0.2031554729 0.6889111996 4283453782
-0.3697557449 -0.2021876276 0.6882222295 4282795852
-0.3693850935 -0.2012210488 0.6875323653 4282861645
-0.3685555458 -0.2000069916 0.6859883666 4282401094
-0.3681838214 -0.1990438402 0.6852964163 4282400321
-0.3673529923 -0.1978349835 0.6837500334 4281545012
-0.3656040132 -0.1961370111 0.6804946661 4281414198
-0.3629362285 -0.1939552575 0.6755291820 4281414198
-0.3125372827 -0.1663754284 0.5817221403 4281941310
-0.3057239652 -0.1621161848 0.5690405965 4285559925
-0.3071719408 -0.1622487754 0.5717357397 4287335058
-0.3012722433 -0.1585094929 0.5607546568 4287532437
-0.3031786978 -0.1588855833 0.5643031597 4286282108
-0.3004911244 -0.1568556875 0.5593007803 4283453009
-0.2996403575 -0.1557919234 0.5577172637 4280689952
-0.2987889349 -0.1547313482 0.5561324954 4280558366
-0.2979368865 -0.1536739469 0.5545465946 4280623132
-0.2975440621 -0.1528560221 0.5538154840 4282267957
-0.2976108193 -0.1522748321 0.5539397001 4282990890
-0.2976773381 -0.1516932696 0.5540634990 4283056683
-0.2977436185 -0.1511113048 0.5541868806 4284107061
-0.2978096902 -0.1505289674 0.5543098450 4284370233
-0.2978755236 -0.1499462277 0.5544323921 4284764981
-0.2984016538 -0.1495939642 0.5554116368 4285028153
-0.2984671295 -0.1490095556 0.5555335283 4285094199
-0.2985323966 -0.1484247595 0.5556550026 4285094199
-0.2981366217 -0.1476114392 0.5549184084 4285291830
-0.2982013226 -0.1470267922 0.5550388098 4285555002
-0.2978048027 -0.1462154239 0.5543007851 4285949239
-0.2974078655 -0.1454054713 0.5535619259 4286015032
-0.2974716723 -0.1448214948 0.5536807179 4285554735
-0.2970739603 -0.1440135241 0.5529404879 4284502047
-0.2966758311 -0.1432069838 0.5521994233 4283974938
-0.2967387736 -0.1426236928 0.5523165464 4284040731
-0.2968014777 -0.1420400441 0.5524332523 4284040732
-0.2968639433 -0.1414560229 0.5525495410 4283974939
-0.2973879576 -0.1410907060 0.5535249114 4284039453
-0.2979119420 -0.1407232136 0.5545001626 4284039453
-0.2984358966 -0.1403535306 0.5554754138 4283712544
-0.2984977067 -0.1397653073 0.5555904508 4283383579
-0.2990214825 -0.1393921673 0.5565653443 4284440153
-0.2990829349 -0.1388023049 0.5566797256 4286216564
-0.2991441488 -0.1382120848 0.5567936897 4288455857
-0.2992051244 -0.1376214921 0.5569071770 4289311166
-0.2997284234 -0.1372423321 0.5578811765 4288784311
-0.2993263900 -0.1364392340 0.5571328998 4288915897
-0.2984611988 -0.1354276389 0.5555225015 4288126127
-0.2975954115 -0.1344193518 0.5539110303 4287665576
-0.2971919179 -0.1336224973 0.5531600118 4287666854
-0.2963249981 -0.1326199025 0.5515463948 4287469475
-0.2959205806 -0.1318269372 0.5507936478 4288192174
-0.2955157459 -0.1310354471 0.5500401258 4287994795
-0.2951104641 -0.1302454621 0.5492858291 4288389553
-0.2947047949 -0.1294569522 0.5485307574 4288455346
-0.2947621644 -0.1288725734 0.5486375093 4288718518
-0.2948192954 -0.1282878667 0.5487438440 4288586932
-0.2948761880 -0.1277028024 0.5488497615 4288455092
-0.2949328423 -0.1271174103 0.5489552021 4287468197
-0.2954530716 -0.1267306358 0.5499234796 4287534501
-0.2955093086 -0.1261436492 0.5500282049 4287797673
-0.2955653369 -0.1255563200 0.5501324534 4287271329
-0.2956211269 -0.1249686629 0.5502362847 4288455603
-0.2961408496 -0.1245759353 0.5512036085 4288916154
-0.2966604829 -0.1241810322 0.5521708131 4289113533
-0.2967157066 -0.1235905364 0.5522736311 4288850361
-0.2967706919 -0.1229997054 0.5523759723 4289376705
-0.2972899675 -0.1226001158 0.5533424616 4290035150
-0.2973445356 -0.1220077127 0.5534440875 4289903564
-0.2978635728 -0.1216046885 0.5544101596 4289903564
-0.2983825207 -0.1211994961 0.5553760529 4289771978
-0.2984365225 -0.1206042618 0.5554766059 4289838799
-0.2984903157 -0.1200087070 0.5555766821 4290036178
-0.2985438406 -0.1194128320 0.5556762815 4290167506
-0.2990622222 -0.1190017089 0.5566411614 4290233299
-0.2991153300 -0.1184042618 0.5567400455 4289510087
-0.2991681993 -0.1178065017 0.5568383932 4288062641
-0.2996861637 -0.1173907071 0.5578024983 4288588207
-0.2997386158 -0.1167913824 0.5579001307 4289311930
-0.3002563119 -0.1163721681 0.5588636994 4289048505
-0.3007739484 -0.1159507781 0.5598271489 4290166986
-0.3017571270 -0.1157057732 0.5616571903 4286481286
-0.3022746444 -0.1152790934 0.5626204610 4284507496
-0.3037237525 -0.1152036339 0.5653176308 4285684787
-0.3051730692 -0.1151222512 0.5680152178 4285026857
-0.3066225946 -0.1150349677 0.5707131624 4285884236
-0.3052759171 -0.1138984188 0.5682066083 4286871131
-0.3085899651 -0.1144967228 0.5743750930 4290953670
-0.3684299886 -0.2041705251 0.6871752143 4292467422
-0.3662321568 -0.2021936327 0.6830759645 4286546052
-0.3676916063 -0.2022373974 0.6857979894 4283782487
-0.3673216999 -0.2012727410 0.6851080656 4283190350
-0.3669512868 -0.2003093362 0.6844171882 4282927435
-0.3665803969 -0.1993472129 0.6837254763 4282598470
-0.3662090302 -0.1983863711 0.6830328107 4283255110
-0.3649214506 -0.1969326138 0.6806312203 4282202422
-0.3631749451 -0.1952374876 0.6773738265 4281743413
-0.3600530922 -0.1928130984 0.6715511084 4281546034
-0.3115687370 -0.1662034243 0.5811207891 4281085485
-0.3038499057 -0.1614562124 0.5667240024 4281480243
-0.3066704869 -0.1623194665 0.5719847679 4282531915
-0.3016974926 -0.1590620577 0.5627094507 4283716189
-0.3008494377 -0.1579914987 0.5611277223 4282729288
-0.3004594743 -0.1571640670 0.5604003668 4281018670
-0.2996102571 -0.1560989618 0.5588164330 4280032022
-0.2983014584 -0.1547989100 0.5563753843 4280492573
-0.2988279462 -0.1544528455 0.5573573112 4280754716
-0.2993544042 -0.1541046053 0.5583392382 4281346853
-0.2980439067 -0.1528123319 0.5558949709 4281937432
-0.2981105745 -0.1522287428 0.5560193062 4282134811
-0.2981770337 -0.1516447514 0.5561432838 4282462488
-0.2982432544 -0.1510603875 0.5562667847 4282594074
-0.2983092368 -0.1504756212 0.5563898683 4283054367
-0.2983750105 -0.1498904675 0.5565125346 4283383332
-0.2984405458 -0.1493049413 0.5566347837 4283317789
-0.2985058725 -0.1487190127 0.5567566156 4283251996
-0.2985709310 -0.1481327116 0.5568779707 4283449374
-0.2981756628 -0.1473186761 0.5561407208 4283712546
-0.2977799177 -0.1465060711 0.5554026365 4283712544
-0.2973837852 -0.1456948966 0.5546637774 4283712544
-0.2974476516 -0.1451097876 0.5547828674 4283514900
-0.2970507443 -0.1443005651 0.5540425777 4282922763
-0.2966534197 -0.1434928030 0.5533015132 4282856709
-0.2967163920 -0.1429083794 0.5534189939 4283317260
-0.2967791557 -0.1423235834 0.5535360575 4283580694
-0.2968416810 -0.1417384148 0.5536526442 4283712280
-0.2973649800 -0.1413720697 0.5546287298 4284039966
-0.2978882790 -0.1410035193 0.5556046963 4283908380
-0.2984115183 -0.1406327933 0.5565806031 4283712544
-0.2984733880 -0.1400434226 0.5566960573 4283383579
-0.2989964485 -0.1396692395 0.5576716065 4284111188
-0.2990579605 -0.1390782297 0.5577863455 4286282357
-0.2991192341 -0.1384868473 0.5579006076 4288258478
-0.2991802692 -0.1378951073 0.5580144525 4288850615
-0.2992410660 -0.1373030096 0.5581278205 4286283407
-0.2993016243 -0.1367105544 0.5582407713 4287665060
-0.2984379828 -0.1356976181 0.5566299558 4288126127
-0.2975737154 -0.1346879900 0.5550180078 4288652471
-0.2967088819 -0.1336816698 0.5534049869 4287601061
-0.2958434224 -0.1326786578 0.5517907739 4286943131
-0.2954397202 -0.1318853647 0.5510377884 4287994025
-0.2950355709 -0.1310935467 0.5502840281 4288980920
-0.2946310341 -0.1303032339 0.5495294333 4288916154
-0.2942260504 -0.1295143962 0.5487741232 4288587189
-0.2942833900 -0.1289297789 0.5488810539 4288257967
-0.2943404615 -0.1283448339 0.5489875078 4288586932
-0.2943972945 -0.1277595311 0.5490935445 4287929259
-0.2944539189 -0.1271739006 0.5491991043 4285758090
-0.2945102751 -0.1265879273 0.5493042469 4286021262
-0.2945664227 -0.1260016263 0.5494089723 4286284434
-0.2950855494 -0.1256121844 0.5503772497 4285627019
-0.2951413095 -0.1250242889 0.5504812002 4285627019
-0.2956601977 -0.1246314049 0.5514490604 4285692299
-0.2957155704 -0.1240419149 0.5515522957 4286284436
-0.2962342501 -0.1236456037 0.5525197387 4286218643
-0.2962892056 -0.1230545342 0.5526221991 4288389812
-0.2968076766 -0.1226547882 0.5535892248 4290035150
-0.2973260581 -0.1222528592 0.5545560718 4289969357
-0.2973804474 -0.1216589585 0.5546575189 4289903562
-0.2974345684 -0.1210647300 0.5547584891 4289837769
-0.2974884808 -0.1204701737 0.5548590422 4289838798
-0.2980063260 -0.1200623140 0.5558248758 4289838798
-0.2980597913 -0.1194661930 0.5559245944 4289903564
-0.2985773981 -0.1190549061 0.5568900108 4289903564
-0.2986304462 -0.1184572130 0.5569890141 4289509574
-0.2986832857 -0.1178591996 0.5570875406 4288917437
-0.2987358570 -0.1172608733 0.5571855903 4288785586
-0.2992528677 -0.1168436706 0.5581498742 4288982965
-0.2993050218 -0.1162437797 0.5582471490 4289311164
-0.2998217642 -0.1158231497 0.5592109561 4290363852
-0.3003384173 -0.1154003441 0.5601745844 4286809994
-0.3017849922 -0.1153307781 0.5628726482 4284507239
-0.3023016155 -0.1149017513 0.5638362765 4286342460
-0.3037484884 -0.1148222238 0.5665348172 4285750323
-0.3065912724 -0.1152614877 0.5718370080 4286015823
-0.3080387712 -0.1151673272 0.5745368600 4286871132
-0.3104172945 -0.1154133081 0.5789731145 4291151562
-0.3664567769 -0.2034986019 0.6849136949 4292335834
-0.3660881817 -0.2025336921 0.6842247844 4286019706
-0.3652625084 -0.2013183981 0.6826816201 4283979864
-0.3635227978 -0.1996046305 0.6794300079 4283585106
-0.3649794757 -0.1996465623 0.6821526289 4283059275
-0.3646089733 -0.1986867338 0.6814601421 4282598724
-0.3637809455 -0.1974800825 0.6799125075 4282597433
-0.3629522026 -0.1962765008 0.6783636212 4282663226
-0.3607511222 -0.1943370551 0.6742497683 4282664255
-0.3562620282 -0.1911789626 0.6658595800 4282137911
-0.3101435900 -0.1657866389 0.5796634555 4281743413
-0.3038800955 -0.1611764133 0.5679569244 4280557868
-0.3030345738 -0.1600986719 0.5663766265 4280294696
-0.3021884263 -0.1590240896 0.5647950768 4280557350
-0.3013415933 -0.1579526961 0.5632123947 4280820522
-0.3009521961 -0.1571236253 0.5624846220 4280821024
-0.3005623817 -0.1562959552 0.5617560148 4280755231
-0.2997138500 -0.1552323103 0.5601701140 4281280544
-0.3002398312 -0.1548812538 0.5611531138 4281872681
-0.2984733582 -0.1533501893 0.5578515530 4282529821
-0.2985401750 -0.1527645737 0.5579764843 4282595614
-0.2986067832 -0.1521785706 0.5581009388 4282857489
-0.2986731529 -0.1515921652 0.5582250357 4282791696
-0.2987393141 -0.1510053724 0.5583486557 4283185432
-0.2988052070 -0.1504181921 0.5584718585 4283317018
-0.2984118164 -0.1496004611 0.5577365756 4283054100
-0.2989363670 -0.1492426693 0.5587170124 4282856721
-0.2985423207 -0.1484259814 0.5579804778 4282791444
-0.2986072302 -0.1478381604 0.5581017733 4282857237
-0.2982124090 -0.1470234096 0.5573638678 4283382562
-0.2978171706 -0.1462101042 0.5566251278 4283316769
-0.2974214852 -0.1453982145 0.5558856130 4283185432
-0.2970253825 -0.1445877701 0.5551453233 4282724881
-0.2966288626 -0.1437787712 0.5544041991 4282659081
-0.2966918945 -0.1431932002 0.5545219779 4282922253
-0.2967546880 -0.1426072717 0.5546393394 4283251228
-0.2968172431 -0.1420209706 0.5547562838 4283448607
-0.2973398864 -0.1416535676 0.5557330847 4283645208
-0.2978624403 -0.1412839741 0.5567098260 4283447829
-0.2979245186 -0.1406947523 0.5568258166 4283449372
-0.2979863584 -0.1401051432 0.5569413900 4283251993
-0.2985086143 -0.1397308111 0.5579174757 4283913295
-0.2990308106 -0.1393542886 0.5588935018 4286413429
-0.2990921438 -0.1387617588 0.5590081215 4287995304
-0.2991532087 -0.1381688714 0.5591222644 4288324269
-0.2992140651 -0.1375756264 0.5592359900 4283914857
-0.2988135517 -0.1367709488 0.5584874153 4285691268
-0.2984125912 -0.1359677464 0.5577380061 4285823626
-0.2975499034 -0.1349567771 0.5561256409 4286021005
-0.2966865897 -0.1339491159 0.5545121431 4284771447
-0.2958227098 -0.1329447627 0.5528974533 4284376689
-0.2954197824 -0.1321502328 0.5521444082 4284901752
-0.2950164676 -0.1313571632 0.5513905883 4285493889
-0.2941509187 -0.1303609461 0.5497729182 4284574329
-0.2937466800 -0.1295717955 0.5490173697 4284179571
-0.2938039601 -0.1289869398 0.5491244197 4284113519
-0.2938610017 -0.1284017563 0.5492309928 4286482067
-0.2939178050 -0.1278162301 0.5493372083 4287995306
-0.2939743698 -0.1272303462 0.5494428873 4286482067
-0.2940306962 -0.1266441494 0.5495482087 4286613912
-0.2940867841 -0.1260575950 0.5496529937 4285955982
-0.2946051359 -0.1256680042 0.5506218076 4285692812
-0.2951233983 -0.1252762228 0.5515904427 4285890191
-0.2951789498 -0.1246868297 0.5516942739 4287468710
-0.2956970036 -0.1242916137 0.5526625514 4286744987
-0.2957521379 -0.1237006336 0.5527656078 4285363334
-0.2962699831 -0.1233019754 0.5537334681 4287929261
-0.2963247299 -0.1227094159 0.5538357496 4289443011
-0.2968423367 -0.1223073229 0.5548031926 4289508804
-0.2968966663 -0.1217131764 0.5549047589 4289376705
-0.2969507575 -0.1211187094 0.5550058484 4289508291
-0.2970046401 -0.1205239072 0.5551065207 4289246661
-0.2970582247 -0.1199287921 0.5552067161 4288917696
-0.2971116006 -0.1193333492 0.5553064346 4289245632
-0.2976283133 -0.1189228296 0.5562722087 4289640390
-0.2976812720 -0.1183258146 0.5563711524 4289377988
-0.2977339625 -0.1177284867 0.5564696789 4289114816
-0.2982502580 -0.1173132882 0.5574346185 4288193449
-0.2987664938 -0.1168959141 0.5583994389 4287864484
-0.2988185883 -0.1162957773 0.5584968328 4289245371
-0.2993345559 -0.1158749759 0.5594611764 4290627024
-0.2998504043 -0.1154519990 0.5604253411 4287073166
-0.3012946844 -0.1153824180 0.5631247163 4284112481
-0.3022748530 -0.1151300669 0.5649566054 4286605632
-0.3032550514 -0.1148736700 0.5667886734 4286671425
-0.3046998382 -0.1147882044 0.5694889426 4286411095
-0.3061448038 -0.1146968231 0.5721896291 4286871646
-0.3080546260 -0.1147726253 0.5757591724 4291151562
-0.3644872606 -0.2028259486 0.6826497316 4292269018
-0.3645747304 -0.2021159679 0.6828135848 4285952890
-0.3637503088 -0.2009019703 0.6812694669 4284634961
-0.3633810878 -0.1999418885 0.6805779934 4284108617
-0.3620993197 -0.1984831095 0.6781773567 4283582283
-0.3630973995 -0.1982746273 0.6800466776 4283253318
-0.3618143201 -0.1968210787 0.6776435971 4283123267
-0.3605303466 -0.1953723729 0.6752388477 4282794302
-0.3583325148 -0.1934356987 0.6711224914 4282662716
-0.3145844638 -0.1691649258 0.5891866088 4282531130
-0.3078074157 -0.1648800969 0.5764938593 4282465596
-0.3051381111 -0.1628152877 0.5714944601 4282334010
-0.3038379848 -0.1614893079 0.5690594912 4281808434
-0.3029940128 -0.1604102254 0.5674787760 4281545262
-0.3026065230 -0.1595753729 0.5667530298 4281149989
-0.3017613590 -0.1585017443 0.5651701093 4280952610
-0.3013728857 -0.1576705575 0.5644425154 4281017372
-0.3005265296 -0.1566023976 0.5628574491 4281214751
-0.3001370728 -0.1557748914 0.5621280074 4282134562
-0.3015777171 -0.1558950394 0.5648261905 4282726699
-0.2993568778 -0.1541240662 0.5606667995 4282923816
-0.2994239628 -0.1535355300 0.5607923865 4283055402
-0.2994908094 -0.1529465914 0.5609176159 4283448605
-0.2990994155 -0.1521243006 0.5601845384 4283448605
