VERSION 0.7
FIELDS x y z rgba
SIZE 4 4 4 4
TYPE F F F U
COUNT 1 1 1 1
WIDTH 920
HEIGHT 1
VIEWPOINT 0.0 0.0 0.0 1.0 0.0 0.0 0.0
POINTS 920
DATA ascii
-0.3212015033 -0.1156949401 0.5869286656 4292928490
-0.3217270672 -0.1152310520 0.5878890157 4292928490
-0.3217792809 -0.1145964712 0.5879844427 4292928490
-0.3223045468 -0.1141291633 0.5889442563 4293060076
-0.3228296638 -0.1136596873 0.5899037719 4293191660
-0.3224077821 -0.1128565893 0.5891329050 4293323246
-0.3229325116 -0.1123846322 0.5900917649 4293520625
-0.3229835331 -0.1117466539 0.5901849866 4293718004
-0.3230342865 -0.1111083701 0.5902777314 4293914869
-0.3230847716 -0.1104697883 0.5903699398 4293914869
-0.3231349587 -0.1098309010 0.5904616714 4294112248
-0.3227109909 -0.1090316176 0.5896869898 4294375420
-0.3222866058 -0.1082339138 0.5889114738 4294507519
-0.3223358393 -0.1075960249 0.5890014172 4294704895
-0.3228588700 -0.1071151271 0.5899571776 4294507519
-0.3238559663 -0.1067884192 0.5917791128 4293981178
-0.3239045739 -0.1061468422 0.5918679833 4293652213
-0.3244271874 -0.1056594476 0.5928229690 4293718006
-0.3249496818 -0.1051698849 0.5937777162 4293718006
-0.3254720569 -0.1046781540 0.5947322249 4293586420
-0.3259942830 -0.1041842625 0.5956864953 4293783799
-0.3265163600 -0.1036882028 0.5966404676 4293783799
-0.3270382881 -0.1031899750 0.5975942016 4293783801
-0.3275600672 -0.1026895791 0.5985476375 4293915387
-0.3280816972 -0.1021870226 0.5995007753 4294178815
-0.3286031783 -0.1016823053 0.6004537344 4294310399
-0.3291245103 -0.1011754200 0.6014063358 4294112766
-0.3296456933 -0.1006663740 0.6023586988 4293783801
-0.3301667273 -0.1001551598 0.6033107638 4293652472
-0.3311627209 -0.0997849479 0.6051307321 4293849851
-0.3321586847 -0.0994106904 0.6069506407 4293718008
-0.3326793909 -0.0988911018 0.6079021096 4293652215
-0.3336752355 -0.0985096768 0.6097218394 4292994542
-0.3341956437 -0.0979848206 0.6106727719 4292402405
-0.3165068328 -0.1399915963 0.5795263052 4290757580
-0.3156313598 -0.1389622539 0.5779232979 4291941854
-0.3147552311 -0.1379362047 0.5763191581 4292205026
-0.3138785064 -0.1369134337 0.5747138262 4293652472
-0.3139396906 -0.1363014579 0.5748258829 4294376447
-0.3140006363 -0.1356891096 0.5749374628 4294244863
-0.3140613139 -0.1350764185 0.5750485659 4293192175
-0.3131826818 -0.1340613812 0.5734397769 4292600038
-0.3141819239 -0.1338499635 0.5752694011 4293126382
-0.3137721419 -0.1330370605 0.5745190978 4293586933
-0.3138317466 -0.1324238628 0.5746281743 4293455347
-0.3143609762 -0.1320076436 0.5755972266 4293126382
-0.3144201338 -0.1313928515 0.5757055879 4292665318
-0.3144790530 -0.1307777017 0.5758134127 4292073181
-0.3145377040 -0.1301622093 0.5759208202 4292204767
-0.3145961165 -0.1295463592 0.5760278106 4293060076
-0.3146542609 -0.1289301813 0.5761342645 4293915385
-0.3147121668 -0.1283136606 0.5762403011 4293915385
-0.3152403235 -0.1278876811 0.5772073269 4293125869
-0.3152977824 -0.1272695512 0.5773125291 4292731111
-0.3153550029 -0.1266510934 0.5774173141 4292402144
-0.3154119551 -0.1260323077 0.5775215626 4292402144
-0.3159394860 -0.1256003529 0.5784875154 4292533730
-0.3159960210 -0.1249799728 0.5785909891 4292533730
-0.3165232837 -0.1245445833 0.5795564055 4292467937
-0.3165793717 -0.1239226088 0.5796591043 4292467937
-0.3171063662 -0.1234837845 0.5806240439 4292533730
-0.3171620071 -0.1228602231 0.5807259679 4292599523
-0.3176887333 -0.1224179640 0.5816903710 4292533732
-0.3177439272 -0.1217928231 0.5817914605 4292533732
-0.3177988827 -0.1211673543 0.5818920135 4292599525
-0.3183251321 -0.1207204089 0.5828556418 4292599525
-0.3183796108 -0.1200933680 0.5829554200 4292665318
-0.3189055920 -0.1196429953 0.5839184523 4292665318
-0.3189596236 -0.1190143824 0.5840173960 4292731111
-0.3190133870 -0.1183854491 0.5841158628 4292731111
-0.3195388913 -0.1179303974 0.5850780606 4292731111
-0.3195922077 -0.1172998995 0.5851756334 4292599525
-0.3196452558 -0.1166690886 0.5852727890 4292796906
-0.3201702535 -0.1162093654 0.5862340927 4292862699
-0.3202228546 -0.1155769974 0.5863303542 4292862697
-0.3207475543 -0.1151138544 0.5872910619 4292862697
-0.3212721348 -0.1146485284 0.5882515907 4292862697
-0.3213240504 -0.1140133664 0.5883466601 4292862697
-0.3218483031 -0.1135446280 0.5893065929 4292862695
-0.3218997717 -0.1129079163 0.5894008279 4292862695
-0.3219509721 -0.1122708991 0.5894945264 4292862697
-0.3220018744 -0.1116335765 0.5895877481 4292928490
-0.3220525086 -0.1109959558 0.5896804929 4292994281
-0.3221028745 -0.1103580296 0.5897727013 4292862695
-0.3221529722 -0.1097198129 0.5898644328 4292796902
-0.3222027719 -0.1090812981 0.5899556279 4292862695
-0.3217791021 -0.1082832441 0.5891798735 4293323246
-0.3218283057 -0.1076450720 0.5892699361 4293981176
-0.3218772113 -0.1070066169 0.5893595219 4294112764
-0.3228726983 -0.1066807136 0.5911822319 4293718006
-0.3233946860 -0.1061952785 0.5921380520 4293521140
-0.3239165545 -0.1057076752 0.5930935740 4293586933
-0.3239646256 -0.1050642952 0.5931816101 4293652213
-0.3244861364 -0.1045733020 0.5941364765 4293652213
-0.3250074983 -0.1040801331 0.5950911045 4293849592
-0.3255287409 -0.1035848036 0.5960454941 4293915385
-0.3260498345 -0.1030873060 0.5969995856 4293784058
-0.3265707493 -0.1025876403 0.5979534388 4293718265
-0.3275656104 -0.1022337601 0.5997750163 4293915644
-0.3280863166 -0.1017288268 0.6007283926 4293981437
-0.3286068738 -0.1012217179 0.6016815305 4293849851
-0.3291272521 -0.1007124484 0.6026344299 4293784058
-0.3296475112 -0.1002010182 0.6035870314 4293652472
-0.3301676214 -0.0996874198 0.6045392752 4293849851
-0.3316364288 -0.0994562283 0.6072287560 4293652215
-0.3321563601 -0.0989364162 0.6081807017 4293915387
-0.3326760828 -0.0984144360 0.6091323495 4293323250
-0.3336703181 -0.0980297476 0.6109527946 4292599527
-0.3341898024 -0.0975024924 0.6119039655 4292270819
-0.3347091079 -0.0969730839 0.6128548384 4290560201
-0.3150055408 -0.1402536333 0.5779528022 4291086545
-0.3141317368 -0.1392242163 0.5763496161 4292731370
-0.3127890825 -0.1379915178 0.5738861561 4293323507
-0.3133189678 -0.1375865787 0.5748583674 4293520886
-0.3129119277 -0.1367699653 0.5741115808 4294244607
-0.3125044703 -0.1359548122 0.5733639598 4293849851
-0.3125651777 -0.1353440583 0.5734753609 4293455093
-0.3121569455 -0.1345309466 0.5727263689 4292929003
-0.3126858473 -0.1341214776 0.5736967921 4292994796
-0.3122769296 -0.1333094835 0.5729464889 4293455347
-0.3123365641 -0.1326982379 0.5730558634 4293455347
-0.3128649890 -0.1322849542 0.5740254521 4293191662
-0.3129241765 -0.1316720843 0.5741340518 4292994283
-0.3129831553 -0.1310588717 0.5742422342 4292599525
-0.3130418360 -0.1304453015 0.5743499398 4292467939
-0.3131002784 -0.1298314035 0.5744571686 4292994283
-0.3131584823 -0.1292171478 0.5745639205 4293849592
-0.3132164180 -0.1286025494 0.5746701956 4293915385
-0.3132741153 -0.1279876232 0.5747760534 4293191662
-0.3138012886 -0.1275633126 0.5757433176 4292599525
-0.3138585389 -0.1269467771 0.5758483410 4292402146
-0.3143854737 -0.1265190244 0.5768151283 4292664802
-0.3144423068 -0.1259008944 0.5769193769 4292664802
-0.3149689734 -0.1254696995 0.5778856874 4292730595
-0.3150253892 -0.1248499751 0.5779891610 4292796388
-0.3155517876 -0.1244153380 0.5789549947 4292730595
-0.3156077564 -0.1237940267 0.5790576935 4292664802
-0.3161338866 -0.1233559549 0.5800229907 4292664802
-0.3161894083 -0.1227330565 0.5801248550 4292730595
-0.3167152703 -0.1222915426 0.5810896754 4292730341
-0.3167703450 -0.1216670647 0.5811907649 4292730341
-0.3172959387 -0.1212221235 0.5821550488 4292730341
-0.3164088726 -0.1202382147 0.5805275440 4292730341
-0.3178758621 -0.1201476827 0.5832190514 4292796134
-0.3179300427 -0.1195200533 0.5833184719 4292796134
-0.3184550405 -0.1190682426 0.5842817426 4292796134
-0.3185087740 -0.1184390485 0.5843803287 4292796134
-0.3190335035 -0.1179838032 0.5853430033 4292731111
-0.3190867603 -0.1173530445 0.5854407549 4292599525
-0.3191397786 -0.1167219654 0.5855380297 4292796904
-0.3196640015 -0.1162620485 0.5864998698 4292862697
-0.3197165430 -0.1156294122 0.5865962505 4292862697
-0.3197688162 -0.1149964631 0.5866921544 4292862697
-0.3202925622 -0.1145318821 0.5876530409 4292862695
-0.3208161592 -0.1140651181 0.5886137486 4292862695
-0.3208677769 -0.1134293750 0.5887084603 4292994281
-0.3213910758 -0.1129591987 0.5896685719 4292928488
-0.3214422166 -0.1123219058 0.5897623897 4292862697
-0.3214930892 -0.1116843149 0.5898557305 4292928490
-0.3220158517 -0.1112094820 0.5908148885 4293059560
-0.3220662773 -0.1105703488 0.5909073949 4292993767
-0.3221164048 -0.1099309176 0.5909993649 4292730595
-0.3221662343 -0.1092911884 0.5910907984 4292401630
-0.3217433691 -0.1084918454 0.5903149247 4292270558
-0.3213200569 -0.1076940894 0.5895382762 4292862695
-0.3213689625 -0.1070553586 0.5896279812 4293257455
-0.3223628998 -0.1067293212 0.5914516449 4293389041
-0.3228841126 -0.1062436774 0.5924078822 4293454834
-0.3229323924 -0.1056012511 0.5924964547 4293454834
-0.3229803741 -0.1049585417 0.5925844908 4293586420
-0.3235010207 -0.1044682711 0.5935397744 4293849592
-0.3240215480 -0.1039758399 0.5944948196 4294244350
-0.3245419264 -0.1034812406 0.5954495668 4294244350
-0.3250621557 -0.1029844657 0.5964040756 4293981437
-0.3260554671 -0.1026344970 0.5982265472 4293718265
-0.3265754879 -0.1021324471 0.5991806388 4293652472
-0.3266219795 -0.1014811620 0.5992659330 4293718265
-0.3276150525 -0.1011218578 0.6010879874 4293783801
-0.3281346262 -0.1006133184 0.6020412445 4293849594
-0.3286540210 -0.1001026109 0.6029942036 4293652472
-0.3291732669 -0.0995897353 0.6039468646 4293784058
-0.3301660717 -0.0992170498 0.6057683825 4293652213
-0.3311588168 -0.0988403037 0.6075898409 4293783799
-0.3321515620 -0.0984594971 0.6094112396 4293389041
-0.3326703608 -0.0979351327 0.6103631258 4292928490
-0.3336629570 -0.0975471586 0.6121842861 4292533991
-0.3341814876 -0.0970175192 0.6131356359 4291547096
-0.3205150962 -0.1436528414 0.5892621875 4291678682
-0.3140366077 -0.1401077360 0.5773515701 4293520886
-0.3118236065 -0.1378464848 0.5732830167 4293586679
-0.3114174306 -0.1370307952 0.5725362301 4293981437
-0.3114784956 -0.1364214271 0.5726485252 4293389300
-0.3110715449 -0.1356077641 0.5719003677 4293257714
-0.3106641769 -0.1347955912 0.5711513758 4293257714
-0.3111922741 -0.1343890578 0.5721223354 4293257714
-0.3112522662 -0.1337791681 0.5722326040 4293455093
-0.3108438849 -0.1329686791 0.5714817643 4293389043
-0.3109032810 -0.1323590130 0.5715909600 4292994285
-0.3109624088 -0.1317489892 0.5716997385 4292731111
-0.3114897311 -0.1313361228 0.5726691484 4292665318
-0.3110799789 -0.1305279136 0.5719158053 4292665318
-0.3111383617 -0.1299168617 0.5720232129 4293191662
-0.3116651773 -0.1295001954 0.5729917288 4293849592
-0.3117231429 -0.1288875341 0.5730983019 4293849592
-0.3117808700 -0.1282745302 0.5732044578 4293059560
-0.3118383586 -0.1276611835 0.5733100772 4292204251
-0.3123645782 -0.1272385567 0.5742775798 4292335837
-0.3124216199 -0.1266236156 0.5743824244 4292664802
-0.3129476011 -0.1261975318 0.5753494501 4292730595
-0.3130042255 -0.1255809963 0.5754535198 4292730595
-0.3135299385 -0.1251514703 0.5764200687 4292730595
-0.3135861158 -0.1245333478 0.5765233636 4292927974
-0.3141115904 -0.1241003871 0.5774893761 4293059560
-0.3146369457 -0.1236652434 0.5784552693 4292927974
-0.3146925271 -0.1230442673 0.5785574317 4292730341
-0.3152176142 -0.1226056889 0.5795228481 4292730341
-0.3152727485 -0.1219831333 0.5796241760 4292796134
-0.3162674904 -0.1217219755 0.5814530253 4292796134
-0.3153822422 -0.1207370386 0.5798255205 4292796134
-0.3168469071 -0.1206505299 0.5825182199 4292796134
-0.3169012368 -0.1200238839 0.5826181173 4292730341
-0.3174255490 -0.1195740700 0.5835821033 4292730341
-0.3174794316 -0.1189458594 0.5836811662 4292730341
-0.3180034757 -0.1184926108 0.5846446157 4292730341
-0.3185274005 -0.1180371791 0.5856078267 4292731111
-0.3185806274 -0.1174061447 0.5857056975 4292599525
-0.3191042840 -0.1169472933 0.5866683722 4292731111
-0.3186863065 -0.1161431372 0.5859000087 4292796904
-0.3192095757 -0.1156817898 0.5868619680 4292862697
-0.3192618191 -0.1150485724 0.5869580507 4292862697
-0.3197847605 -0.1145837903 0.5879194140 4292862695
-0.3203075826 -0.1141168401 0.5888806581 4292862695
-0.3203591704 -0.1134808213 0.5889754891 4293059560
-0.3208816648 -0.1130104512 0.5899360776 4292927974
-0.3209327757 -0.1123728901 0.5900300741 4292862181
-0.3214549720 -0.1118990928 0.5909901261 4292862181
-0.3215056062 -0.1112599894 0.5910832286 4292927974
-0.3215559721 -0.1106205806 0.5911757946 4292993767
-0.3216060698 -0.1099808738 0.5912678838 4292862180
-0.3211842477 -0.1091805473 0.5904924273 4292401629
-0.3212337196 -0.1085411832 0.5905833840 4292533216
-0.3208111525 -0.1077430770 0.5898064375 4292664802
-0.3213318288 -0.1072615683 0.5907637477 4292731111
-0.3218524158 -0.1067778915 0.5917208195 4292994283
-0.3219008446 -0.1061364189 0.5918098688 4293191662
-0.3219490051 -0.1054946557 0.5918983817 4293257455
-0.3224690259 -0.1050063521 0.5928544402 4293586418
-0.3229888976 -0.1045158803 0.5938102603 4294046969
-0.3235086501 -0.1040232331 0.5947657824 4294573311
-0.3240282536 -0.1035284176 0.5957210660 4294507519
-0.3250201046 -0.1031814069 0.5975445509 4294178815
-0.3255394995 -0.1026813164 0.5984994173 4293849851
-0.3260587156 -0.1021790579 0.5994540453 4293652472
-0.3265778124 -0.1016746238 0.6004083753 4293586679
-0.3270967305 -0.1011680290 0.6013624072 4293718006
-0.3280882537 -0.1008045226 0.6031853557 4293849592
-0.3286069632 -0.1002926454 0.6041389108 4293652472
-0.3291254938 -0.0997786075 0.6050922275 4293718265
-0.3305897713 -0.0995472223 0.6077842712 4293718006
-0.3311081231 -0.0990269631 0.6087372899 4293520627
-0.3311532438 -0.0983640105 0.6088202000 4293389041
-0.3321443200 -0.0979799330 0.6106423736 4293125869
-0.3326621950 -0.0974531770 0.6115944386 4292599784
-0.3331798911 -0.0969242528 0.6125462055 4292139233
-0.3341707587 -0.0965298936 0.6143679023 4290297029
-0.3790167868 -0.1725478917 0.6982424259 4292599786
-0.3753630817 -0.1701162308 0.6915113926 4292468200
-0.3134096563 -0.1413971484 0.5773779154 4292599786
-0.3139389455 -0.1409933567 0.5783529878 4293718008
-0.3116687834 -0.1393358558 0.5741707683 4293520629
-0.3121974170 -0.1389331520 0.5751446486 4293454836
-0.3113256991 -0.1379079819 0.5735387206 4293783801
-0.3104533851 -0.1368861198 0.5719317198 4293125871
-0.3100473881 -0.1360724717 0.5711837411 4293323250
-0.3101079762 -0.1354643255 0.5712954402 4292928749
-0.3101683557 -0.1348558068 0.5714066029 4293257714
-0.3097612262 -0.1340447664 0.5706565976 4293586422
-0.3102883101 -0.1336377412 0.5716276169 4293389043
-0.3103479147 -0.1330281645 0.5717374086 4293060078
-0.3099398017 -0.1322188228 0.5709855556 4292665320
-0.3099988103 -0.1316094697 0.5710942745 4292139233
-0.3100575805 -0.1309997737 0.5712025762 4292205026
-0.3101161122 -0.1303897351 0.5713103414 4292797163
-0.3097065389 -0.1295835972 0.5705558062 4293718265
-0.3097644448 -0.1289737821 0.5706625581 4293191662
-0.3098221421 -0.1283636391 0.5707687736 4292599525
-0.3103476465 -0.1279461235 0.5717369318 4292336353
-0.3104048967 -0.1273343712 0.5718424320 4292138974
-0.3109301925 -0.1269134134 0.5728101134 4292402659
-0.3109870255 -0.1263000667 0.5729147792 4292600038
-0.3110435903 -0.1256863773 0.5730190277 4292665320
-0.3110999167 -0.1250723600 0.5731227994 4292533734
-0.3116245866 -0.1246454418 0.5740894079 4293060076
-0.3121491969 -0.1242163479 0.5750558376 4293849592
-0.3126736879 -0.1237850636 0.5760220885 4293849592
-0.3127292395 -0.1231669411 0.5761244297 4293257455
-0.3132534623 -0.1227322146 0.5770901442 4292796904
-0.3137776256 -0.1222953126 0.5780557394 4292599525
-0.3143016696 -0.1218562275 0.5790211558 4292796904
-0.3143564165 -0.1212340072 0.5791220665 4292533732
-0.3153494596 -0.1209715009 0.5809514523 4292599523
-0.3144651353 -0.1199886054 0.5793223977 4292731109
-0.3159274161 -0.1198998913 0.5820162296 4292599523
-0.3164508641 -0.1194508225 0.5829805732 4292533730
-0.3169742227 -0.1189995706 0.5839447379 4292665316
-0.3170278072 -0.1183707714 0.5840434432 4292731109
-0.3170811236 -0.1177416518 0.5841416717 4292862181
-0.3176040053 -0.1172857210 0.5851049423 4292862181
-0.3181267679 -0.1168275997 0.5860679746 4292862181
-0.3186494112 -0.1163673103 0.5870308280 4292927974
-0.3187541068 -0.1151006445 0.5872237086 4292993767
-0.3188060522 -0.1144668460 0.5873193741 4292993767
-0.3193280101 -0.1140006334 0.5882809758 4292993767
-0.3193794787 -0.1133652776 0.5883758068 4293059560
-0.3199011087 -0.1128956452 0.5893368125 4293059560
-0.3204226494 -0.1124238297 0.5902975798 4293059560
-0.3204734623 -0.1117856875 0.5903911591 4293059560
-0.3209946454 -0.1113104597 0.5913513303 4292993767
-0.3210449815 -0.1106707752 0.5914440751 4292993767
-0.3206242323 -0.1098694578 0.5906689167 4292927974
-0.3206739426 -0.1092301160 0.5907605290 4292796388
-0.3207233846 -0.1085904762 0.5908516049 4292402144
-0.3207725585 -0.1079505458 0.5909421444 4292336351
-0.3203503489 -0.1071527451 0.5901643634 4292533730
-0.3208700418 -0.1066697985 0.5911217928 4292599523
-0.3209183812 -0.1060289890 0.5912108421 4293060076
-0.3209664524 -0.1053878888 0.5912993550 4293257455
-0.3210142255 -0.1047465056 0.5913873911 4293389041
-0.3215331733 -0.1042577103 0.5923434496 4294112764
-0.3220520020 -0.1037667394 0.5932992101 4294573311
-0.3225706816 -0.1032736003 0.5942547321 4294704895
-0.3230892122 -0.1027782932 0.5952100158 4294508031
-0.3240793347 -0.1024299115 0.5970340967 4294047482
-0.3245976567 -0.1019293219 0.5979889631 4293586933
-0.3251158297 -0.1014265716 0.5989435315 4293586933
-0.3256338239 -0.1009216458 0.5998978615 4293718519
-0.3266237080 -0.1005598754 0.6017214060 4293718519
-0.3271414638 -0.1000496671 0.6026753187 4293520886
-0.3281312287 -0.0996807218 0.6044986844 4293520886
-0.3286487758 -0.0991652384 0.6054521203 4293455093
-0.3301106691 -0.0989306569 0.6081452966 4293520886
-0.3315726519 -0.0986901149 0.6108386517 4293455093
-0.3320899606 -0.0981643423 0.6117916703 4293060335
-0.3326071203 -0.0976364091 0.6127443314 4292731370
-0.3331241012 -0.0971063077 0.6136967540 4292533991
-0.3336409032 -0.0965740383 0.6146488190 4291086545
-0.3774018586 -0.1729390472 0.6966928244 4293455095
-0.3742204010 -0.1707136333 0.6908197999 4292994544
-0.3701062202 -0.1680776924 0.6832249165 4293191923
-0.3119762540 -0.1410390437 0.5759156346 4293784060
-0.3148332238 -0.1416848898 0.5811896920 4293191921
-0.3102379143 -0.1389805228 0.5727065802 4293389300
-0.3107655644 -0.1385795027 0.5736806393 4293389300
-0.3098951280 -0.1375557333 0.5720738173 4292862956
-0.3090240657 -0.1365352720 0.5704658031 4293126128
-0.3095509708 -0.1361331642 0.5714384913 4293191921
-0.3091452420 -0.1353206486 0.5706894994 4292994542
-0.3092054725 -0.1347128153 0.5708007216 4293389300
-0.3087989986 -0.1339023560 0.5700502992 4293257457
-0.3093251884 -0.1334960759 0.5710216761 4293060078
-0.3093846440 -0.1328871697 0.5711314678 4293323250
-0.3089771569 -0.1320784092 0.5703791976 4292665320
-0.3085692227 -0.1312711388 0.5696261525 4292007390
-0.3086277544 -0.1306630224 0.5697342157 4292599527
-0.3086860478 -0.1300545782 0.5698418617 4293520629
-0.3087441027 -0.1294457763 0.5699490309 4293257457
-0.3083347380 -0.1286417246 0.5691933036 4292467939
-0.3083921969 -0.1280331612 0.5692993402 4292073181
-0.3089167476 -0.1276173294 0.5702676773 4292402146
-0.3089737892 -0.1270071715 0.5703729987 4292533732
-0.3094981015 -0.1265878975 0.5713409185 4292533732
-0.3095547259 -0.1259761453 0.5714454055 4292533732
-0.3096111119 -0.1253640503 0.5715494752 4292731113
-0.3101350069 -0.1249400750 0.5725166202 4293389043
-0.3101909459 -0.1243263856 0.5726198554 4294046971
-0.3107145727 -0.1238989681 0.5735865235 4294112764
-0.3112381101 -0.1234693676 0.5745530128 4293389041
-0.3117615879 -0.1230375767 0.5755193233 4292599525
-0.3118167520 -0.1224197969 0.5756211281 4292467939
-0.3123399317 -0.1219845712 0.5765869617 4292796904
-0.3128630221 -0.1215471625 0.5775526166 4292731111
-0.3133860230 -0.1211075708 0.5785180926 4292665318
-0.3139089048 -0.1206657961 0.5794833302 4292533730
-0.3144317269 -0.1202218384 0.5804484487 4292336351
-0.3149544001 -0.1197756976 0.5814133883 4292467937
-0.3154770136 -0.1193273738 0.5823780894 4292731109
-0.3159995079 -0.1188768670 0.5833426118 4292731111
-0.3160529733 -0.1182487383 0.5834413171 4292533732
-0.3165751696 -0.1177947968 0.5844053030 4292796388
-0.3166281581 -0.1171650961 0.5845031738 4292862181
-0.3171500564 -0.1167077273 0.5854666233 4292862181
-0.3172026277 -0.1160764620 0.5855636001 4292862181
-0.3177242279 -0.1156156585 0.5865265131 4292927974
-0.3182457089 -0.1151526794 0.5874891877 4292927974
-0.3182976246 -0.1145186126 0.5875849724 4292927974
-0.3188187778 -0.1140522063 0.5885471106 4292993767
-0.3188702166 -0.1134165823 0.5886420608 4292993767
-0.3193910718 -0.1129467487 0.5896035433 4293059560
-0.3199118078 -0.1124747396 0.5905648470 4293059560
-0.3199625909 -0.1118363291 0.5906586051 4293059560
-0.3200131059 -0.1111976132 0.5907518268 4292993767
-0.3205333054 -0.1107209399 0.5917121768 4292927974
-0.3201132715 -0.1099192724 0.5909367800 4292927974
-0.3201629519 -0.1092796549 0.5910284519 4292862181
-0.3202123642 -0.1086397469 0.5911196470 4292270558
-0.3202614784 -0.1079995334 0.5912103653 4292204765
-0.3198399842 -0.1072013825 0.5904322267 4292467937
-0.3203589022 -0.1067182347 0.5913901925 4292533730
-0.3204072118 -0.1060771495 0.5914793611 4292731111
-0.3204552531 -0.1054357812 0.5915680528 4292994283
-0.3205029964 -0.1047941148 0.5916561484 4293323248
-0.3210211694 -0.1043051034 0.5926127434 4293718006
-0.3215391934 -0.1038139239 0.5935690403 4294310143
-0.3220570982 -0.1033205763 0.5945250988 4294507519
-0.3225748539 -0.1028250605 0.5954808593 4294376447
-0.3230924606 -0.1023273692 0.5964363813 4293915898
-0.3240809739 -0.1019757316 0.5982612371 4293586933
-0.3245983422 -0.1014727578 0.5992162824 4293521140
-0.3251155913 -0.1009676233 0.6001711488 4293586679
-0.3256326616 -0.1004603133 0.6011256576 4293586679
-0.3266209066 -0.1000952721 0.6029500365 4293520886
-0.3271377683 -0.0995826796 0.6039041281 4293520886
-0.3285973370 -0.0993530080 0.6065984964 4293455093
-0.3291139901 -0.0988341942 0.6075522900 4293520886
-0.3301020563 -0.0984538496 0.6093763113 4293455093
-0.3306184709 -0.0979297534 0.6103295684 4293126128
-0.3311347067 -0.0974034816 0.6112825871 4292862956
-0.3316507638 -0.0968750492 0.6122352481 4292599784
-0.3326385021 -0.0964813009 0.6140586138 4291349717
-0.3753247857 -0.1731120050 0.6942820549 4293521658
-0.3735429943 -0.1715224534 0.6909860373 4292929521
-0.3610720336 -0.1650539637 0.6679170132 4292797935
-0.3142009377 -0.1429823786 0.5812140703 4293389302
-0.3165887296 -0.1434183121 0.5856310725 4293191923
-0.3115375042 -0.1404897571 0.5762872696 4293323507
-0.3102045953 -0.1392511129 0.5738216043 4293652472
-0.3088708818 -0.1380175948 0.5713544488 4293389300
-0.3089321256 -0.1374100149 0.5714677572 4293060335
-0.3085277975 -0.1365960687 0.5707198381 4293126128
-0.3081230223 -0.1357835829 0.5699710846 4292862956
-0.3081833422 -0.1351767629 0.5700826645 4293323509
-0.3077778220 -0.1343663186 0.5693325400 4293323509
-0.3078375757 -0.1337597072 0.5694430470 4292994285
-0.3078970611 -0.1331527531 0.5695530772 4293125871
-0.3079563081 -0.1325454414 0.5696626902 4293520629
-0.3075493574 -0.1317381710 0.5689098835 4293060078
-0.3076080084 -0.1311310828 0.5690184236 4292731113
-0.3076664209 -0.1305236518 0.5691264868 4293389043
-0.3072583675 -0.1297190189 0.5683715940 4293586422
-0.3073161840 -0.1291118115 0.5684785843 4292599527
-0.3073737621 -0.1285042763 0.5685850978 4292336353
-0.3078976274 -0.1280904561 0.5695540905 4292073181
-0.3079547882 -0.1274813116 0.5696598887 4292532962
-0.3080117106 -0.1268718243 0.5697651505 4292927720
-0.3085351288 -0.1264533103 0.5707334280 4292599525
-0.3085916340 -0.1258422136 0.5708379149 4292796904
-0.3086478710 -0.1252308041 0.5709419847 4293323248
-0.3091709018 -0.1248075739 0.5719094276 4294178557
-0.3096938431 -0.1243821681 0.5728768110 4294244350
-0.3097494841 -0.1237678975 0.5729797482 4293191662
-0.3102721572 -0.1233390495 0.5739465952 4292402146
-0.3107947409 -0.1229080111 0.5749132633 4292336353
-0.3113172352 -0.1224747971 0.5758797526 4292599525
-0.3118396103 -0.1220393926 0.5768461227 4292731111
-0.3123619258 -0.1216018051 0.5778122544 4292731111
-0.3124164343 -0.1209809259 0.5779131055 4292862697
-0.3120029271 -0.1201795489 0.5771481991 4292862181
-0.3134604096 -0.1200966984 0.5798442364 4292664802
-0.3139822185 -0.1196513027 0.5808095336 4292599009
-0.3149719834 -0.1193811148 0.5826403499 4292730595
-0.3150255680 -0.1187539697 0.5827395320 4292796134
-0.3150789142 -0.1181265041 0.5828382373 4292664548
-0.3156002462 -0.1176733151 0.5838025808 4292796388
-0.3161214888 -0.1172179356 0.5847667456 4292796388
-0.3166425824 -0.1167603731 0.5857307315 4292796388
-0.3157581389 -0.1157852709 0.5840946436 4292862181
-0.3167473674 -0.1154970005 0.5859245062 4292862181
-0.3172679842 -0.1150347590 0.5868875980 4292862181
-0.3177884817 -0.1145703420 0.5878503919 4292927974
-0.3183088899 -0.1141037419 0.5888130665 4292927974
-0.3178914189 -0.1133007407 0.5880408287 4292927974
-0.3188803494 -0.1129978225 0.5898701549 4293059560
-0.3189312816 -0.1123603806 0.5899643898 4293059560
-0.3194510341 -0.1118869260 0.5909258127 4292993767
-0.3195015192 -0.1112479419 0.5910192132 4292993767
-0.3195517063 -0.1106086448 0.5911120176 4292927974
-0.3196016252 -0.1099690571 0.5912044048 4292862181
-0.3196512461 -0.1093291640 0.5912961960 4292862181
-0.3197006285 -0.1086889729 0.5913875103 4292532962
-0.3192802072 -0.1078898311 0.5906097889 4292335583
-0.3193289340 -0.1072499901 0.5906999707 4292270558
-0.3198470771 -0.1067666411 0.5916584730 4292336351
-0.3198953569 -0.1061252803 0.5917477608 4292336351
-0.3199433386 -0.1054836288 0.5918365121 4292731109
-0.3199910522 -0.1048416868 0.5919247866 4293191662
-0.3205084503 -0.1043524742 0.5928818583 4293389041
-0.3205556870 -0.1037090197 0.5929692388 4293849592
-0.3210727274 -0.1032164022 0.5939256549 4294046971
-0.3220597804 -0.1028717980 0.5957515240 4293981437
-0.3225766122 -0.1023738906 0.5967075825 4293718265
-0.3230932951 -0.1018738225 0.5976633430 4293520886
-0.3236098289 -0.1013715789 0.5986188054 4293520886
-0.3245966434 -0.1010135636 0.6004442573 4293455093
-0.3251129389 -0.1005060375 0.6013993025 4293520886
-0.3256290853 -0.0999963433 0.6023540497 4293586422
-0.3266156912 -0.0996280313 0.6041791439 4293520629
-0.3276022971 -0.0992556661 0.6060041785 4293455093
-0.3285888731 -0.0988792256 0.6078291535 4293455093
-0.3291045725 -0.0983580127 0.6087831259 4293323507
-0.3300910294 -0.0979743972 0.6106078625 4293126128
-0.3306064606 -0.0974479020 0.6115613580 4292928749
-0.3311217725 -0.0969192386 0.6125144958 4292665577
-0.3316368759 -0.0963884071 0.6134673953 4292139233
-0.3326229751 -0.0959913731 0.6152914762 4289902271
-0.3741791248 -0.1737095267 0.6935877800 4293521658
-0.3696182668 -0.1708309501 0.6851336360 4293126900
-0.3214527071 -0.1479076594 0.5958527327 4292863728
-0.3642016053 -0.1668273211 0.6750931740 4293455865
-0.3160147369 -0.1441038549 0.5857728124 4293389302
-0.3091164529 -0.1403215677 0.5729859471 4292731372
-0.3079088628 -0.1378709674 0.5707474947 4293126130
-0.3075054586 -0.1370570362 0.5699998140 4293323509
-0.3071016371 -0.1362445801 0.5692512393 4293060337
-0.3071620762 -0.1356387883 0.5693632960 4293191923
-0.3072222769 -0.1350326389 0.5694748759 4293257716
-0.3072822392 -0.1344261467 0.5695860386 4292994544
-0.3073419333 -0.1338192970 0.5696967244 4293126128
-0.3069363534 -0.1330105513 0.5689448714 4293718265
-0.3069954813 -0.1324039102 0.5690544844 4293652472
-0.3070543408 -0.1317969263 0.5691636205 4293323507
-0.3066476583 -0.1309908181 0.5684097409 4293389300
-0.3067059517 -0.1303840429 0.5685178041 4293257714
-0.3067639768 -0.1297769397 0.5686253905 4292533734
-0.3068217635 -0.1291694790 0.5687325001 4292270562
-0.3064136505 -0.1283666044 0.5679759383 4292665320
-0.3064708412 -0.1277593821 0.5680819750 4292533734
-0.3069936633 -0.1273450702 0.5690510869 4292138974
-0.3070504367 -0.1267362535 0.5691563487 4292402146
-0.3071069717 -0.1261271089 0.5692611337 4292731111
-0.3071632683 -0.1255176216 0.5693655014 4293191662
-0.3076854944 -0.1250973344 0.5703334808 4294113277
-0.3077413440 -0.1244862527 0.5704370737 4293718519
-0.3082633317 -0.1240625232 0.5714045763 4292862697
-0.3083187640 -0.1234498546 0.5715073943 4292007388
-0.3088404834 -0.1230226904 0.5724744201 4292073181
-0.3093621135 -0.1225933358 0.5734413266 4292533732
-0.3098836541 -0.1221617982 0.5744080544 4292796904
-0.3104051054 -0.1217280775 0.5753746033 4292731111
-0.3109264374 -0.1212921739 0.5763410330 4292731111
-0.3114477098 -0.1208540872 0.5773072243 4292599525
-0.3119688630 -0.1204138175 0.5782732368 4292664548
-0.3124899268 -0.1199713573 0.5792390704 4292730341
-0.3130108714 -0.1195267141 0.5802047849 4292796134
-0.3130644560 -0.1189024225 0.5803040862 4292664548
-0.3140524924 -0.1186308786 0.5821354985 4292664548
-0.3145731390 -0.1181796789 0.5831006169 4292796134
-0.3146261871 -0.1175516322 0.5831989050 4292730595
-0.3156141043 -0.1172707379 0.5850301981 4292796388
-0.3147314787 -0.1162945852 0.5833941102 4292796388
-0.3161869049 -0.1161811873 0.5860919356 4292796388
-0.3167069256 -0.1157200113 0.5870558619 4292862181
-0.3167589605 -0.1150866523 0.5871523023 4292862181
-0.3177466393 -0.1147910953 0.5889830589 4292927974
-0.3173302412 -0.1139871180 0.5882112384 4292927974
-0.3178496361 -0.1135190800 0.5891740322 4292927974
-0.3183689117 -0.1130488589 0.5901365876 4292993767
-0.3184198141 -0.1124111414 0.5902309418 4292993767
-0.3184704483 -0.1117731184 0.5903247595 4292927974
-0.3185208142 -0.1111347973 0.5904181004 4292993767
-0.3185708821 -0.1104961708 0.5905109644 4292927974
-0.3186207116 -0.1098572463 0.5906032920 4292862181
-0.3186702430 -0.1092180237 0.5906950831 4292862181
-0.3187195063 -0.1085784957 0.5907863975 4292664802
-0.3182997108 -0.1077799499 0.5900082588 4292467423
-0.3188171983 -0.1072985679 0.5909675360 4292073179
-0.3188656569 -0.1066581607 0.5910573006 4292073179
-0.3189138174 -0.1060174704 0.5911465883 4292204765
-0.3194307685 -0.1055314466 0.5921047926 4292467937
-0.3194784224 -0.1048892289 0.5921931863 4292928488
-0.3199950457 -0.1043998078 0.5931507945 4293257453
-0.3205115199 -0.1039082110 0.5941081047 4293323250
-0.3210278451 -0.1034144387 0.5950651765 4293586422
-0.3215440214 -0.1029184982 0.5960220098 4293652215
-0.3220600486 -0.1024203822 0.5969785452 4293520629
-0.3230454922 -0.1020684540 0.5988051891 4293455093
-0.3235613108 -0.1015650481 0.5997613072 4293520886
-0.3245466352 -0.1012059376 0.6015877724 4293521140
-0.3250622153 -0.1006972492 0.6025434732 4293455347
-0.3255776465 -0.1001863852 0.6034988761 4293520629
-0.3270326853 -0.0999605954 0.6061959267 4293520629
-0.3266080618 -0.0991581529 0.6054088473 4293389300
-0.3275930285 -0.0987825096 0.6072345972 4293389300
-0.3285779357 -0.0984027982 0.6090602875 4293257714
-0.3290927112 -0.0978791863 0.6100144386 4293060335
-0.3300775290 -0.0974922925 0.6118398905 4292928749
-0.3305920362 -0.0969633982 0.6127936244 4292665577
-0.3311063647 -0.0964323357 0.6137470007 4292336612
-0.3320909142 -0.0960351378 0.6155719757 4290757580
-0.3610752225 -0.1679719687 0.6706788540 4293126900
-0.3694835901 -0.1711210012 0.6862969398 4292797935
-0.3653911948 -0.1684715897 0.6786954999 4293323509
-0.3108079135 -0.1426633298 0.5773097873 4293652474
-0.3090177774 -0.1412039101 0.5739847422 4292665579
-0.3113971353 -0.1416485012 0.5784043074 4293323509
-0.3096058667 -0.1401947290 0.5750770569 4293389302
-0.3078135848 -0.1387479156 0.5717480183 4293323509
-0.3078750074 -0.1381402165 0.5718621016 4293257716
-0.3070086539 -0.1371178925 0.5702528954 4292797165
-0.3066055477 -0.1363050938 0.5695041418 4292665579
-0.3066659272 -0.1356990635 0.5696163177 4293060337
-0.3062620461 -0.1348883063 0.5688661337 4292863728
-0.3063218892 -0.1342824697 0.5689772367 4292929521
-0.3063814640 -0.1336762905 0.5690879226 4293587451
-0.3059764802 -0.1328681409 0.5683357120 4293982207
-0.3060354590 -0.1322621703 0.5684452653 4293324279
-0.3060941994 -0.1316558570 0.5685544014 4292995314
-0.3061527014 -0.1310491860 0.5686630011 4293126128
-0.3057462871 -0.1302442253 0.5679081082 4292533991
-0.3058041930 -0.1296377927 0.5680156946 4292402405
-0.3058618605 -0.1290310174 0.5681228042 4292862956
-0.3059192896 -0.1284238845 0.5682294369 4293586679
-0.3059764504 -0.1278164238 0.5683356524 4293455093
-0.3060333431 -0.1272086203 0.5684413314 4292731113
-0.3060900271 -0.1266004741 0.5685465932 4292731113
-0.3061464429 -0.1259920001 0.5686513782 4293389041
-0.3062025905 -0.1253831834 0.5687556863 4293718006
-0.3067239523 -0.1249636635 0.5697240829 4293784312
-0.3067796826 -0.1243532524 0.5698276162 4292336866
-0.3073007762 -0.1239302829 0.5707955360 4291678423
-0.3073560894 -0.1233182847 0.5708982944 4292204767
-0.3078769445 -0.1228918731 0.5718656778 4292731111
-0.3083976805 -0.1224632785 0.5728329420 4292665318
-0.3089183569 -0.1220325008 0.5738000870 4292599525
-0.3089728951 -0.1214163974 0.5739014149 4292796904
-0.3094933033 -0.1209821776 0.5748680234 4292599525
-0.3100135922 -0.1205457747 0.5758344531 4292533732
-0.3105337918 -0.1201071814 0.5768007040 4292664548
-0.3110539019 -0.1196664050 0.5777667761 4292796134
-0.3115739226 -0.1192234457 0.5787326694 4292861927
-0.3125603199 -0.1189558506 0.5805648565 4292796134
-0.3126136065 -0.1183309704 0.5806638598 4292730341
-0.3131333292 -0.1178814620 0.5816291571 4292730341
-0.3131861687 -0.1172550172 0.5817273259 4292730341
-0.3137055635 -0.1168020666 0.5826920867 4292730341
-0.3146917820 -0.1165198088 0.5845239162 4292796134
-0.3147440553 -0.1158896163 0.5846210718 4292796134
-0.3157302141 -0.1156011224 0.5864527225 4292861927
-0.3162492514 -0.1151385009 0.5874168277 4292861927
-0.3163009584 -0.1145045608 0.5875129104 4292861927
-0.3168196976 -0.1140385121 0.5884764194 4292861927
-0.3168709576 -0.1134030148 0.5885716081 4292927720
-0.3173893690 -0.1129335314 0.5895345807 4292861927
-0.3174401522 -0.1122964844 0.5896288753 4292927720
-0.3174906671 -0.1116591319 0.5897227526 4292993513
-0.3175409138 -0.1110214740 0.5898160934 4292927720
-0.3180586398 -0.1105460823 0.5907776952 4292927720
-0.3181084096 -0.1099068820 0.5908701420 4292927720
-0.3181579113 -0.1092673838 0.5909621119 4292861927
-0.3182071447 -0.1086275876 0.5910535455 4292796388
-0.3177880645 -0.1078286916 0.5902751088 4292664802
-0.3183047771 -0.1073471084 0.5912348628 4292204251
-0.3183531761 -0.1067064330 0.5913248062 4292072665
-0.3184013069 -0.1060654595 0.5914141536 4292335836
-0.3184491694 -0.1054241955 0.5915030837 4292270043
-0.3184967339 -0.1047826484 0.5915914178 4292402144
-0.3190124929 -0.1042939574 0.5925493836 4292994281
-0.3190595806 -0.1036508977 0.5926368833 4293191662
-0.3195749819 -0.1031588018 0.5935941935 4293323248
-0.3200902343 -0.1026645377 0.5945512652 4293389043
-0.3206053674 -0.1021681055 0.5955080986 4293389043
-0.3215891123 -0.1018179208 0.5973353982 4293389043
-0.3221040070 -0.1013161987 0.5982917547 4293520629
-0.3230876923 -0.1009588316 0.6001188755 4293455347
-0.3236023486 -0.1004518121 0.6010748148 4293323761
-0.3245859146 -0.1000872627 0.6029017568 4293454836
-0.3251003325 -0.0995749608 0.6038572788 4293520629
-0.3270221651 -0.0994886979 0.6074269414 4293454836
-0.3280057013 -0.0991109982 0.6092538834 4293389043
-0.3285199106 -0.0985883847 0.6102089882 4293323250
-0.3290339708 -0.0980636030 0.6111637950 4293125871
-0.3300172985 -0.0976755917 0.6129902601 4292862956
-0.3310005665 -0.0972835124 0.6148166656 4292599784
-0.3315142393 -0.0967503190 0.6157708168 4292336612
-0.3324973881 -0.0963510498 0.6175969243 4291283924
-0.3705807626 -0.1735166907 0.6897578239 4293455610
-0.3688085675 -0.1719241887 0.6864592433 4292797680
-0.3656485379 -0.1696949303 0.6805775166 4292929266
-0.3148642480 -0.1454751492 0.5860533118 4293652474
-0.3167782426 -0.1457043588 0.5896158218 4292928751
-0.3117545843 -0.1427489668 0.5802652836 4292665579
-0.3095044196 -0.1410785913 0.5760771036 4293586681
-0.3081785440 -0.1398369074 0.5736092925 4293718267
-0.3077775240 -0.1390184462 0.5728628635 4293718267
-0.3069131374 -0.1379933208 0.5712540150 4293323509
-0.3060481548 -0.1369715035 0.5696440339 4292665579
-0.3056456745 -0.1361592710 0.5688948631 4292862958
-0.3052427471 -0.1353485286 0.5681449175 4293126130
-0.3053026795 -0.1347437352 0.5682564378 4293587451
-0.3053623736 -0.1341385841 0.5683675408 4294047999
-0.3054217994 -0.1335330606 0.5684781671 4294047999
-0.3054809868 -0.1329272091 0.5685883760 4293455865
-0.3050763011 -0.1321202070 0.5678350925 4292732142
-0.3051349223 -0.1315145493 0.5679441690 4292468970
-0.3047294617 -0.1307096183 0.5671895146 4292665577
-0.3047874868 -0.1301041991 0.5672975183 4292665577
-0.3048452735 -0.1294984370 0.5674051046 4293191921
-0.3049027920 -0.1288923323 0.5675121546 4293981437
-0.3049600720 -0.1282858849 0.5676187873 4294441983
-0.3050171137 -0.1276790947 0.5677249432 4294507775
-0.3050738871 -0.1270719618 0.5678306222 4293981437
-0.3051304221 -0.1264644861 0.5679358840 4293652472
-0.3051867187 -0.1258566827 0.5680406094 4293784058
-0.3052427471 -0.1252485365 0.5681449175 4293323507
-0.3057632148 -0.1248297766 0.5691136718 4292138974
-0.3062836230 -0.1244088262 0.5700822473 4291744216
-0.3063390553 -0.1237978339 0.5701854825 4291875802
-0.3068591952 -0.1233734339 0.5711535811 4292533732
-0.3069142103 -0.1227608547 0.5712560415 4292796904
-0.3065038919 -0.1219628677 0.5704922676 4292665318
-0.3074887097 -0.1217188463 0.5723252892 4292599525
-0.3080083132 -0.1212875620 0.5732924342 4292533732
-0.3085278273 -0.1208541021 0.5742594004 4292928490
-0.3090472519 -0.1204184443 0.5752261877 4293586420
-0.3095665872 -0.1199806109 0.5761928558 4294046201
-0.3100858331 -0.1195405871 0.5771592855 4293519857
-0.3106049597 -0.1190983802 0.5781255364 4292861927
-0.3111239970 -0.1186539829 0.5790916085 4292730341
-0.3116429150 -0.1182074100 0.5800575018 4292796388
-0.3121617436 -0.1177586392 0.5810231566 4292730595
-0.3126804829 -0.1173076928 0.5819886923 4292730341
-0.3131991029 -0.1168545559 0.5829539895 4292730341
-0.3137176037 -0.1163992360 0.5839190483 4292796134
-0.3142360151 -0.1159417331 0.5848839879 4292796134
-0.3147542775 -0.1154820397 0.5858486295 4292861927
-0.3152724504 -0.1150201634 0.5868130922 4292861927
-0.3157905340 -0.1145561039 0.5877773762 4292861927
-0.3163084686 -0.1140898615 0.5887414217 4292927720
-0.3163596988 -0.1134540960 0.5888367295 4292861927
-0.3168773055 -0.1129844189 0.5898002386 4292861927
-0.3169280589 -0.1123471037 0.5898946524 4292927720
-0.3169785440 -0.1117094755 0.5899886489 4292993513
-0.3170287609 -0.1110715494 0.5900821090 4292927720
-0.3170787096 -0.1104333177 0.5901750326 4292927720
-0.3171283603 -0.1097947881 0.5902674794 4292927720
-0.3171777725 -0.1091559529 0.5903594494 4292927720
-0.3172268867 -0.1085168272 0.5904508233 4292796388
-0.3172757328 -0.1078774035 0.5905417800 4292927974
-0.3177916408 -0.1073956192 0.5915020108 4292335837
-0.3178400099 -0.1067546606 0.5915920734 4291941079
-0.3178881109 -0.1061134189 0.5916815996 4292138458
-0.3179359138 -0.1054718792 0.5917705894 4292072665
-0.3179834783 -0.1048300564 0.5918591022 4292007386
-0.3180307448 -0.1041879430 0.5919470787 4292731109
-0.3185454905 -0.1036978140 0.5929051638 4293191662
-0.3190601170 -0.1032055169 0.5938630104 4293257455
-0.3195745647 -0.1027110443 0.5948205590 4293323248
-0.3200888932 -0.1022143960 0.5957779288 4293323248
-0.3210711181 -0.1018640697 0.5976061225 4293323248
-0.3215852380 -0.1013621241 0.5985630155 4293454834
-0.3225673437 -0.1010046080 0.6003910303 4293454834
-0.3230812252 -0.1004973799 0.6013475060 4293257455
-0.3235949576 -0.0999879763 0.6023036838 4293454836
-0.3245768845 -0.0996201485 0.6041313410 4293520629
-0.3255588114 -0.0992482603 0.6059589386 4293389043
-0.3265406787 -0.0988722965 0.6077865362 4293323250
-0.3270539641 -0.0983513594 0.6087418795 4293323250
-0.3280357420 -0.0979682058 0.6105692387 4293125871
-0.3285487592 -0.0974419788 0.6115241647 4292862956
-0.3295303881 -0.0970516279 0.6133512259 4292665577
-0.3305119574 -0.0966572091 0.6151782274 4292665577
-0.3319623470 -0.0963948742 0.6178778410 4292007647
-0.3694398999 -0.1741064489 0.6890588403 4293455610
-0.3676712513 -0.1725109965 0.6857600212 4292929266
-0.3649787009 -0.1704913080 0.6807380319 4292600301
-0.3115186989 -0.1448731422 0.5810274482 4292995059
-0.3180449903 -0.1472491324 0.5931998491 4292929521
-0.3102610111 -0.1430023313 0.5786816478 4292271591
-0.3080151081 -0.1413288713 0.5744926929 4293390072
-0.3062298894 -0.1398751438 0.5711629987 4292797935
-0.3058296144 -0.1390585452 0.5704164505 4293126131
-0.3058910072 -0.1384525597 0.5705309510 4293060338
-0.3050278127 -0.1374297589 0.5689209700 4292665580
-0.3050885201 -0.1368248612 0.5690342188 4292731373
-0.3046866357 -0.1360132247 0.5682846308 4292797165
-0.3047467768 -0.1354085356 0.5683968067 4293060337
-0.3048066497 -0.1348034889 0.5685085058 4293652474
-0.3048663139 -0.1341980994 0.5686197281 4294178815
-0.3049257100 -0.1335923374 0.5687305331 4293719037
-0.3045220375 -0.1327844262 0.5679776669 4292666349
-0.3045808673 -0.1321788877 0.5680873394 4292205798
-0.3041764498 -0.1313730478 0.5673330426 4292337384
-0.3042346835 -0.1307677180 0.5674417019 4292797163
-0.3038295209 -0.1299639493 0.5666859746 4293455093
-0.3038871586 -0.1293588579 0.5667935014 4293849851
-0.3034812510 -0.1285571456 0.5660364032 4294310399
-0.3035382926 -0.1279523075 0.5661428571 4294311167
-0.3035951257 -0.1273471117 0.5662488341 4294113791
-0.3036516905 -0.1267415732 0.5663543344 4293915644
-0.3037080169 -0.1261357069 0.5664593577 4293520886
-0.3042278588 -0.1257211566 0.5674289465 4293060335
-0.3042837679 -0.1251136959 0.5675331950 4292402405
-0.3048033416 -0.1246956810 0.5685023069 4291612630
-0.3048588336 -0.1240866259 0.5686058402 4292073181
-0.3053781986 -0.1236651763 0.5695744753 4292467939
-0.3054332733 -0.1230545267 0.5696771741 4292533732
-0.3050238192 -0.1222574562 0.5689135194 4292467939
-0.3064713478 -0.1222025454 0.5716133714 4292665318
-0.3069902658 -0.1217732802 0.5725812316 4292862697
-0.3075090647 -0.1213418245 0.5735489130 4292994283
-0.3080278039 -0.1209081858 0.5745164156 4293783797
-0.3085464239 -0.1204723567 0.5754837394 4294441727
-0.3090649843 -0.1200343370 0.5764508843 4294441727
-0.3095834255 -0.1195941418 0.5774178505 4293454834
-0.3096368313 -0.1189731136 0.5775174499 4292665318
-0.3106200099 -0.1187071800 0.5793511868 4292467939
-0.3111381233 -0.1182604134 0.5803176165 4292599523
-0.3116561770 -0.1178114712 0.5812838078 4292665316
-0.3126393557 -0.1175352335 0.5831176043 4292730341
-0.3131572306 -0.1170809790 0.5840835571 4292730341
-0.3122788668 -0.1161054373 0.5824452043 4292796134
-0.3141927123 -0.1161659062 0.5860148668 4292796134
-0.3142447472 -0.1155339330 0.5861119032 4292861927
-0.3152277470 -0.1152420938 0.5879453421 4292861927
-0.3148137033 -0.1144383252 0.5871730447 4292861927
-0.3157965541 -0.1141411737 0.5890062451 4292861927
-0.3153818846 -0.1133377329 0.5882328153 4292861927
-0.3163645566 -0.1130352691 0.5900656581 4292861927
-0.3164152801 -0.1123976782 0.5901602507 4292927720
-0.3164657354 -0.1117597893 0.5902543664 4292993513
-0.3165158927 -0.1111215875 0.5903479457 4292993513
-0.3165658116 -0.1104830876 0.5904409885 4292927720
-0.3166154325 -0.1098442823 0.5905335546 4292927720
-0.3166647851 -0.1092051789 0.5906256437 4292927720
-0.3167138696 -0.1085657775 0.5907171965 4292862181
-0.3167626858 -0.1079260781 0.5908082128 4292993767
-0.3172778189 -0.1074440926 0.5917689800 4292599009
-0.3168594837 -0.1066458002 0.5909887552 4291875286
-0.3173741996 -0.1061613411 0.5919488072 4291875032
-0.3174220026 -0.1055195257 0.5920379162 4292138204
-0.3174695075 -0.1048774272 0.5921265483 4292007388
-0.3175167441 -0.1042350382 0.5922146440 4292402146
-0.3180307150 -0.1037447006 0.5931732655 4293060076
-0.3185445368 -0.1032521948 0.5941315889 4293125869
-0.3190582097 -0.1027575135 0.5950896740 4293191662
-0.3195717633 -0.1022606567 0.5960475206 4293191662
-0.3205524385 -0.1019101813 0.5978766084 4293257455
-0.3210657537 -0.1014080271 0.5988340378 4293323248
-0.3220463097 -0.1010503620 0.6006629467 4293323250
-0.3225594163 -0.1005429104 0.6016199589 4293191664
-0.3235398829 -0.1001780555 0.6034486890 4293454836
-0.3240527213 -0.0996653140 0.6044052243 4293389043
-0.3250330985 -0.0992932618 0.6062337160 4293257457
-0.3260134459 -0.0989171416 0.6080622077 4293257457
-0.3269937336 -0.0985369459 0.6098906398 4293257457
-0.3275061548 -0.0980126634 0.6108463407 4293060078
-0.3280183971 -0.0974862054 0.6118017435 4292928749
-0.3285304904 -0.0969575793 0.6127568483 4292731370
-0.3295104504 -0.0965639502 0.6145846248 4292533991
-0.3304903805 -0.0961662382 0.6164123416 4292468198
-0.3659979105 -0.1736024171 0.6840561032 4293456123
-0.3665346503 -0.1730958521 0.6850592494 4293127158
-0.3643078804 -0.1712877452 0.6808974147 4292271849
-0.3606978953 -0.1688413918 0.6741502881 4292732400
-0.3142357767 -0.1464401037 0.5873118043 4293061365
-0.3052075803 -0.1403313726 0.5704379678 4292732142
-0.3066527843 -0.1403590739 0.5731390715 4291745247
-0.3057921827 -0.1393301636 0.5715306401 4291481820
-0.3049309850 -0.1383045465 0.5699210167 4291810785
-0.3049919903 -0.1376988590 0.5700350404 4292205543
-0.3045912385 -0.1368854046 0.5692859888 4292073957
-0.3041900694 -0.1360734403 0.5685362220 4291349719
-0.3042501509 -0.1354684979 0.5686485171 4291152340
-0.3038482070 -0.1346585602 0.5678973198 4291744477
-0.3039077222 -0.1340538412 0.5680084825 4292402407
-0.3039669693 -0.1334487647 0.5681192875 4292731372
-0.3035639524 -0.1326414347 0.5673660040 4292336614
-0.3036226332 -0.1320365667 0.5674756765 4292402407
-0.3036810756 -0.1314313561 0.5675848722 4292994544
-0.3037392497 -0.1308257878 0.5676936507 4293586679
-0.3033348024 -0.1300216764 0.5669376850 4294244607
-0.3029299080 -0.1292190552 0.5661810040 4294310399
-0.3029871881 -0.1286143064 0.5662879944 4294441983
-0.3030442297 -0.1280092001 0.5663946271 4294047999
-0.3031010032 -0.1274037659 0.5665007234 4293324277
-0.3031575382 -0.1267979890 0.5666064024 4292863726
-0.3032138050 -0.1261918694 0.5667115450 4292600554
-0.3032698333 -0.1255854219 0.5668162704 4292336612
-0.3033256233 -0.1249786243 0.5669205785 4292139233
-0.3033811450 -0.1243714988 0.5670243502 4292665318
-0.3038997054 -0.1239529997 0.5679935217 4292533732
-0.3039548099 -0.1233442798 0.5680965185 4292467941
-0.3044731021 -0.1229223311 0.5690652132 4292533734
-0.3040643036 -0.1221258640 0.5683011413 4292533734
-0.3050458431 -0.1218866333 0.5701356530 4292533734
-0.3055637777 -0.1214590520 0.5711037517 4293125869
-0.3060816526 -0.1210292876 0.5720716119 4294046971
-0.3065994084 -0.1205973327 0.5730393529 4294573311
-0.3071171045 -0.1201631948 0.5740068555 4294046969
-0.3076346815 -0.1197268665 0.5749742389 4293060076
-0.3081521690 -0.1192883477 0.5759414434 4292402146
-0.3086695373 -0.1188476458 0.5769084096 4292467937
-0.3091868460 -0.1184047610 0.5778752565 4292731109
-0.3097040355 -0.1179596856 0.5788418651 4292665316
-0.3106855154 -0.1176883355 0.5806763172 4292599523
-0.3112025559 -0.1172379553 0.5816426873 4292730341
-0.3121840656 -0.1169594303 0.5834771395 4292730341
-0.3127010167 -0.1165037379 0.5844432712 4292796134
-0.3132178187 -0.1160458550 0.5854092240 4292796134
-0.3132697344 -0.1154145449 0.5855062604 4292796134
-0.3137862384 -0.1149532273 0.5864716172 4292861927
-0.3143026233 -0.1144897193 0.5874367952 4292861927
-0.3138888776 -0.1136871800 0.5866634250 4292861927
-0.3153859675 -0.1129195392 0.5894615054 4292861927
-0.3154365718 -0.1122826189 0.5895560980 4292861927
-0.3154869080 -0.1116453931 0.5896501541 4292927720
-0.3155369461 -0.1110078618 0.5897437334 4293059306
-0.3155867457 -0.1103700250 0.5898368359 4292993513
-0.3156362772 -0.1097318903 0.5899293423 4292927720
-0.3156855106 -0.1090934575 0.5900214314 4292927720
-0.3157345057 -0.1084547266 0.5901129246 4292796388
