VERSION 0.7
FIELDS x y z rgba
SIZE 4 4 4 4
TYPE F F F U
COUNT 1 1 1 1
WIDTH 920
HEIGHT 1
VIEWPOINT 0.0 0.0 0.0 1.0 0.0 0.0 0.0
POINTS 920
DATA ascii
-0.3472791016 -0.0957370475 0.5338236094 4284725736
-0.3473265171 -0.0951569155 0.5338965058 4284199392
-0.3484524488 -0.0948702693 0.5356272459 4284197078
-0.3484994471 -0.0942878649 0.5356994867 4279131017
-0.3496252596 -0.0939953402 0.5374300480 4278196021
-0.3502114713 -0.0935548171 0.5383311510 4278196535
-0.3661957383 -0.1637739241 0.5638641715 4282147966
-0.3662740588 -0.1631823331 0.5639848113 4283398033
-0.3621168733 -0.1607107073 0.5575835705 4282350236
-0.3516033292 -0.1554431766 0.5413949490 4281955478
-0.3506185114 -0.1544079483 0.5398785472 4281499047
-0.3485735059 -0.1529110074 0.5367296338 4281367461
-0.3491766751 -0.1525782198 0.5376583934 4280776616
-0.3460700214 -0.1506286561 0.5328748226 4281105581
-0.3461422622 -0.1500679255 0.5329860449 4280777388
-0.3456841111 -0.1492778808 0.5322805643 4280777388
-0.3452254832 -0.1484892070 0.5315743685 4280384942
-0.3447663784 -0.1477019191 0.5308674574 4280450735
-0.3443068266 -0.1469159871 0.5301598907 4280385459
-0.3427855670 -0.1456804276 0.5278174281 4280385459
-0.3428556323 -0.1451236308 0.5279253125 4280581557
-0.3429254293 -0.1445665061 0.5280328393 4280581557
-0.3419331014 -0.1435631812 0.5265048742 4280451252
-0.3409401178 -0.1425629854 0.5249758363 4280385459
-0.3410087824 -0.1420082897 0.5250815749 4280385972
-0.3405459225 -0.1412329376 0.5243688822 4280320179
-0.3406140208 -0.1406784356 0.5244737267 4280188593
-0.3406818509 -0.1401236206 0.5245781541 4280122800
-0.3407494426 -0.1395684630 0.5246822238 4280057007
-0.3402850926 -0.1387961060 0.5239672661 4280122800
-0.3398202956 -0.1380251497 0.5232515931 4280057264
-0.3398869634 -0.1374707371 0.5233542323 4280123057
-0.3399533927 -0.1369160116 0.5234565139 4280188850
-0.3394874632 -0.1361475587 0.5227390528 4280254643
-0.3395532668 -0.1355930418 0.5228404403 4280188852
-0.3396188617 -0.1350382119 0.5229414105 4280254645
-0.3391517997 -0.1342722625 0.5222222209 4280123829
-0.3392167985 -0.1337176561 0.5223222971 4279992243
-0.3392815292 -0.1331627369 0.5224219561 4279795891
-0.3388133049 -0.1323993206 0.5217010379 4279730098
-0.3388774693 -0.1318446249 0.5217998028 4280058293
-0.3384084702 -0.1310832053 0.5210776329 4279926707
-0.3384720385 -0.1305287629 0.5211755037 4279730098
-0.3380022347 -0.1297693253 0.5204521418 4279861684
-0.3380652070 -0.1292151362 0.5205491185 4279730611
-0.3375946283 -0.1284577101 0.5198245049 4279730611
-0.3376570046 -0.1279037744 0.5199205279 4279796406
-0.3377191424 -0.1273495406 0.5200162530 4279730613
-0.3377810419 -0.1267949939 0.5201115012 4279862199
-0.3378426731 -0.1262401491 0.5202064514 4279862199
-0.3373702765 -0.1254864484 0.5194790363 4279796406
-0.3374313116 -0.1249318719 0.5195730329 4279796406
-0.3374921083 -0.1243769974 0.5196666718 4279862456
-0.3375526667 -0.1238218248 0.5197598934 4279796663
-0.3376129866 -0.1232663542 0.5198527575 4280124856
-0.3371387422 -0.1225164160 0.5191225410 4280124856
-0.3377328515 -0.1221545190 0.5200372934 4280059576
-0.3377923965 -0.1215981543 0.5201290250 4280059576
-0.3378517032 -0.1210414991 0.5202203393 4280125369
-0.3379107416 -0.1204845533 0.5203112364 4280256955
-0.3369000256 -0.1195477992 0.5187549591 4280322750
-0.3369583786 -0.1189920381 0.5188448429 4280322750
-0.3375514448 -0.1186239794 0.5197579861 4280388800
-0.3376093805 -0.1180667505 0.5198472142 4280323007
-0.3371319473 -0.1173230186 0.5191121101 4280388800
-0.3371893167 -0.1167661101 0.5192003846 4280388800
-0.3372464180 -0.1162089109 0.5192883015 4280388802
-0.3373032510 -0.1156514362 0.5193758607 4280454595
-0.3373598456 -0.1150936782 0.5194630027 4280455365
-0.3379517496 -0.1147174463 0.5203744173 4280455365
-0.3380079269 -0.1141582429 0.5204609036 4280718537
-0.3385995924 -0.1137787923 0.5213719606 4280652744
-0.3386553526 -0.1132181436 0.5214577913 4280718533
-0.3387108147 -0.1126572266 0.5215432048 4280915912
-0.3387660682 -0.1120960265 0.5216282606 4281113544
-0.3388210237 -0.1115345582 0.5217128992 4281245130
-0.3388757408 -0.1109728143 0.5217971206 4281507786
-0.3394664824 -0.1105855033 0.5227067471 4281705165
-0.3395207524 -0.1100223288 0.5227903128 4281901770
-0.3395747840 -0.1094588786 0.5228735209 4282033356
-0.3396285474 -0.1088951677 0.5229563117 4282755533
-0.3396820426 -0.1083311886 0.5230386853 4283018705
-0.3397352695 -0.1077669412 0.5231206417 4283543505
-0.3397882581 -0.1072024330 0.5232022405 4283806677
-0.3398409784 -0.1066376567 0.5232834220 4284529373
-0.3398934305 -0.1060726270 0.5233641863 4284858338
-0.3399456143 -0.1055073291 0.5234445333 4285515240
-0.3405346572 -0.1051075533 0.5243515372 4285844205
-0.3405864239 -0.1045408472 0.5244312286 4286567156
-0.3406378925 -0.1039738804 0.5245105028 4286961914
-0.3406891227 -0.1034066603 0.5245893598 4287290109
-0.3412775099 -0.1030013859 0.5254953504 4287290109
-0.3418658078 -0.1025940701 0.5264012218 4287027707
-0.3419163823 -0.1020242944 0.5264790654 4286830328
-0.3419666886 -0.1014542654 0.5265565515 4286501109
-0.3425545096 -0.1010426059 0.5274616480 4286106351
-0.3426043689 -0.1004711762 0.5275384188 4285580521
-0.3426539600 -0.0998995006 0.5276147723 4285317349
-0.3432412744 -0.0994835123 0.5285191536 4284923873
-0.3432903886 -0.0989104435 0.5285947919 4284923873
-0.3438774049 -0.0984912589 0.5294986367 4284924130
-0.3444642723 -0.0980700403 0.5304023027 4285055716
-0.3445127606 -0.0974944383 0.5304769278 4285252838
-0.3450993299 -0.0970700383 0.5313801765 4285647596
-0.3456857800 -0.0966435894 0.5322831869 4285713136
-0.3457335830 -0.0960654616 0.5323567390 4285581550
-0.3463197052 -0.0956358388 0.5332592726 4284988635
-0.3474443853 -0.0953520015 0.5349910259 4284791256
-0.3480303288 -0.0949173868 0.5358932614 4284397026
-0.3486161232 -0.0944807380 0.5367953181 4282489029
-0.3497407138 -0.0941871777 0.5385268927 4278270312
-0.3487094343 -0.0933128670 0.5369389653 4278195267
-0.3831861019 -0.1716661155 0.5910364985 4282675598
-0.3700520098 -0.1651479155 0.5707781315 4283136149
-0.3543435633 -0.1569229811 0.5465490222 4281824151
-0.3475418687 -0.1533152312 0.5360578895 4281170598
-0.3476152718 -0.1527518779 0.5361711383 4281104805
-0.3492760658 -0.1528831124 0.5387327671 4280646056
-0.3467027247 -0.1511625648 0.5347635746 4280975021
-0.3446574807 -0.1496801823 0.5316089392 4280384683
-0.3447292447 -0.1491205692 0.5317196846 4280450476
-0.3437415063 -0.1481042057 0.5301961303 4280319665
-0.3438125849 -0.1475456208 0.5303057432 4280319665
-0.3433535695 -0.1467602253 0.5295977592 4280385459
-0.3423641026 -0.1457505673 0.5280715823 4280319666
-0.3424341381 -0.1451935321 0.5281795859 4280253875
-0.3425039351 -0.1446361691 0.5282872915 4280319668
-0.3420431912 -0.1438554227 0.5275766253 4280319666
-0.3415820003 -0.1430760771 0.5268652439 4280253873
-0.3411203325 -0.1422981024 0.5261531472 4280254386
-0.3406582177 -0.1415215433 0.5254403949 4280188593
-0.3401956856 -0.1407463700 0.5247269273 4280122800
-0.3402634859 -0.1401913017 0.5248315334 4280122800
-0.3392691910 -0.1392002255 0.5232979059 4280122800
-0.3394032121 -0.1380919069 0.5235046148 4280123057
-0.3394698501 -0.1375372559 0.5236074328 4280123057
-0.3390049040 -0.1367679089 0.5228902698 4280188850
-0.3390709460 -0.1362134665 0.5229921341 4280188850
-0.3391367495 -0.1356587112 0.5230936408 4280188850
-0.3392023444 -0.1351036429 0.5231947899 4280188850
-0.3387358785 -0.1343373507 0.5224753618 4280123827
-0.3388008773 -0.1337824911 0.5225755572 4280058034
-0.3388656080 -0.1332273334 0.5226753950 4280058036
-0.3383980095 -0.1324635744 0.5219541788 4279992243
-0.3384621739 -0.1319086403 0.5220531225 4279992243
-0.3379938006 -0.1311468631 0.5213307142 4279926450
-0.3380573392 -0.1305921823 0.5214287043 4279992243
-0.3375881910 -0.1298324019 0.5207050443 4279992243
-0.3371185660 -0.1290740520 0.5199807286 4279860914
-0.3371811807 -0.1285201907 0.5200772882 4279795121
-0.3372435570 -0.1279660165 0.5201734900 4279795891
-0.3373056650 -0.1274115294 0.5202693343 4279730098
-0.3373675644 -0.1268567294 0.5203647614 4279730100
-0.3374291956 -0.1263016462 0.5204598308 4279795893
-0.3369573951 -0.1255475879 0.5197321773 4279861686
-0.3370184302 -0.1249927729 0.5198262930 4279927479
-0.3370792270 -0.1244376451 0.5199200511 4279862199
-0.3371397555 -0.1238822266 0.5200134516 4279796406
-0.3366665244 -0.1231313646 0.5192834735 4279861684
-0.3367264569 -0.1225762218 0.5193759203 4279927477
-0.3367861509 -0.1220207885 0.5194680095 4279993270
-0.3368456066 -0.1214650571 0.5195596814 4280059063
-0.3363708854 -0.1207174212 0.5188274384 4280059576
-0.3364297152 -0.1201619878 0.5189182162 4280059576
-0.3364883065 -0.1196062565 0.5190086365 4280125371
-0.3365466595 -0.1190502420 0.5190986395 4280125371
-0.3366047740 -0.1184939370 0.5191882253 4280454336
-0.3366626203 -0.1179373488 0.5192774534 4280322750
-0.3367201984 -0.1173804700 0.5193662643 4280257214
-0.3367775381 -0.1168233082 0.5194547176 4280257214
-0.3368346095 -0.1162658557 0.5195427537 4280257214
-0.3368914425 -0.1157081276 0.5196304321 4280388800
-0.3369480371 -0.1151501164 0.5197176933 4280520386
-0.3370043635 -0.1145918220 0.5198045373 4280586179
-0.3375954330 -0.1142142564 0.5207162499 4280521158
-0.3381864429 -0.1138346344 0.5216278434 4280586951
-0.3382421732 -0.1132737324 0.5217137933 4280586947
-0.3382976353 -0.1127125546 0.5217993855 4280784326
-0.3383528590 -0.1121511012 0.5218845606 4280916166
-0.3384078145 -0.1115893722 0.5219693184 4280981959
-0.3384625316 -0.1110273749 0.5220536590 4281113542
-0.3385169506 -0.1104651019 0.5221376419 4281376714
-0.3385711312 -0.1099025533 0.5222212076 4281639111
-0.3386250734 -0.1093397439 0.5223044157 4281836490
-0.3392146230 -0.1089487746 0.5232137442 4282295752
-0.3392680883 -0.1083845347 0.5232962370 4282493131
-0.3393213153 -0.1078200266 0.5233783126 4283017933
-0.3393743038 -0.1072552577 0.5234600306 4283346898
-0.3394269943 -0.1066902205 0.5235413313 4283872472
-0.3394794464 -0.1061249226 0.5236222148 4284333023
-0.3395316303 -0.1055593640 0.5237026811 4284923873
-0.3395835459 -0.1049935445 0.5237827897 4285318631
-0.3401717246 -0.1045924351 0.5246900320 4286041071
-0.3402231932 -0.1040252075 0.5247694254 4286435829
-0.3402743936 -0.1034577191 0.5248484015 4286764281
-0.3403253555 -0.1028899699 0.5249269605 4286895867
-0.3403760195 -0.1023219749 0.5250051022 4286830074
-0.3415003419 -0.1020747125 0.5267392993 4286830074
-0.3410136104 -0.1013448238 0.5259885192 4286501623
-0.3421377838 -0.1010925695 0.5277224779 4286041072
-0.3421876132 -0.1005208790 0.5277993679 4285646314
-0.3422372043 -0.0999489352 0.5278758407 4285383142
-0.3422864974 -0.0993767381 0.5279518962 4284923618
-0.3428729773 -0.0989594087 0.5288564563 4284857825
-0.3434593081 -0.0985400379 0.5297608376 4284727521
-0.3435079455 -0.0979653075 0.5298358798 4284727521
-0.3440939784 -0.0975427479 0.5307397842 4285055717
-0.3446798921 -0.0971181467 0.5316435099 4285187303
-0.3452656865 -0.0966915041 0.5325470567 4285319407
-0.3453134596 -0.0961131081 0.5326207876 4285319407
-0.3458989263 -0.0956832767 0.5335237980 4285251553
-0.3464842737 -0.0952514112 0.5344266295 4284922588
-0.3465313613 -0.0946704894 0.5344992876 4284594663
-0.3471163809 -0.0942354426 0.5354016423 4284199905
-0.3477012515 -0.0937983543 0.5363037586 4281759394
-0.3482860029 -0.0933592245 0.5372056365 4278199890
-0.3494089842 -0.0930614397 0.5389378071 4278193695
-0.3499934971 -0.0926173255 0.5398393869 4278656045
-0.3580555022 -0.1594536304 0.5532221794 4282021531
-0.3523213267 -0.1562951952 0.5443624854 4281889945
-0.3497544229 -0.1545560509 0.5403963923 4281169828
-0.3466577232 -0.1525925249 0.5356117487 4281104035
-0.3462021947 -0.1517976820 0.5349079370 4280449706
-0.3452175558 -0.1507733166 0.5333865881 4280581292
-0.3447609842 -0.1499820799 0.5326811671 4280122540
-0.3437750936 -0.1489630193 0.5311579108 4280254126
-0.3433175087 -0.1481753737 0.5304508805 4280253872
-0.3428594768 -0.1473890990 0.5297431946 4280253872
-0.3418717682 -0.1463776082 0.5282170773 4280319666
-0.3419420123 -0.1458206922 0.5283256173 4280253873
-0.3420120478 -0.1452634186 0.5284337997 4280057007
-0.3415522873 -0.1444818079 0.5277234316 4280122800
-0.3416216969 -0.1439247131 0.5278307199 4280253873
-0.3411611319 -0.1431450248 0.5271191597 4280122287
-0.3407001197 -0.1423667073 0.5264068246 4280122800
-0.3402386606 -0.1415897906 0.5256938338 4280057007
-0.3397767246 -0.1408142745 0.5249801278 4280057007
-0.3398445249 -0.1402589679 0.5250848532 4280188593
-0.3399120867 -0.1397033185 0.5251892805 4280188593
-0.3389186263 -0.1387131959 0.5236542821 4280122800
-0.3384549916 -0.1379424185 0.5229379535 4280123057
-0.3390521109 -0.1376037449 0.5238605142 4280057264
-0.3385878205 -0.1368340403 0.5231431127 4280057264
-0.3386538327 -0.1362793744 0.5232451558 4280057264
-0.3381887376 -0.1355116367 0.5225265622 4280057264
-0.3382541835 -0.1349571943 0.5226276517 4280057264
-0.3383193910 -0.1344024092 0.5227283835 4280058034
-0.3378531337 -0.1336372048 0.5220080018 4280058034
-0.3379177451 -0.1330826581 0.5221078396 4280123057
-0.3379821181 -0.1325277984 0.5222073197 4280123057
-0.3380462527 -0.1319726259 0.5223063827 4280057266
-0.3375785053 -0.1312105060 0.5215836763 4280057266
-0.3376420438 -0.1306555718 0.5216818452 4279992243
-0.3371735215 -0.1298954487 0.5209579468 4279860657
-0.3367045522 -0.1291367710 0.5202333331 4279860657
-0.3367671371 -0.1285826564 0.5203300714 4279860657
-0.3368295133 -0.1280282289 0.5204264522 4279860914
-0.3368916214 -0.1274735034 0.5205223560 4279795121
-0.3369534612 -0.1269184649 0.5206179619 4279795123
-0.3370150924 -0.1263631135 0.5207131505 4279860916
-0.3365439475 -0.1256087273 0.5199851990 4279795893
-0.3366049528 -0.1250536591 0.5200794935 4279861686
-0.3366657495 -0.1244982779 0.5201733708 4279861686
-0.3361934721 -0.1237464994 0.5194436908 4279795893
-0.3362536430 -0.1231914088 0.5195366740 4279993272
-0.3363135755 -0.1226360127 0.5196292996 4279993272
-0.3363732398 -0.1220803335 0.5197215080 4280059065
-0.3364326954 -0.1215243489 0.5198132992 4280124858
-0.3359586000 -0.1207763702 0.5190808177 4280124858
-0.3360174298 -0.1202206835 0.5191717148 4280124858
-0.3360760212 -0.1196647063 0.5192622542 4280124858
-0.3361343443 -0.1191084385 0.5193523765 4280124858
-0.3356587887 -0.1183637008 0.5186175704 4280191164
-0.3357165158 -0.1178077459 0.5187067986 4280125371
-0.3357740045 -0.1172514930 0.5187956095 4280125371
-0.3358312547 -0.1166949645 0.5188840628 4280191164
-0.3364222348 -0.1163227856 0.5197971463 4280256957
-0.3364790380 -0.1157648042 0.5198849440 4280388543
-0.3370697796 -0.1153894067 0.5207976699 4280454336
-0.3371261954 -0.1148299724 0.5208848119 4280520129
-0.3371823430 -0.1142702550 0.5209715962 4280520386
-0.3372382224 -0.1137102619 0.5210579038 4280520386
-0.3378283978 -0.1133293137 0.5219697952 4280389568
-0.3378838599 -0.1127678752 0.5220554471 4280586947
-0.3379390538 -0.1122061610 0.5221407413 4280784580
-0.3379940093 -0.1116441786 0.5222256780 4280784580
-0.3380486965 -0.1110819206 0.5223101377 4280850370
-0.3381031156 -0.1105193868 0.5223942399 4281047749
-0.3381572962 -0.1099565849 0.5224779248 4281375685
-0.3382111788 -0.1093935072 0.5225612521 4281704650
-0.3388000727 -0.1090023667 0.5234711170 4281835460
-0.3388535380 -0.1084378660 0.5235537291 4282164425
-0.3389067650 -0.1078730971 0.5236359239 4282492361
-0.3389597237 -0.1073080674 0.5237177610 4282952912
-0.3390124142 -0.1067427695 0.5237991810 4283280851
-0.3390648365 -0.1061772034 0.5238801837 4283741402
-0.3391169906 -0.1056113839 0.5239607692 4284331994
-0.3391689062 -0.1050453037 0.5240409970 4284726752
-0.3397564292 -0.1046440154 0.5249487758 4285252583
-0.3398078978 -0.1040765196 0.5250282884 4285647341
-0.3398590982 -0.1035087630 0.5251073837 4286107122
-0.3399100006 -0.1029407531 0.5251860619 4286304501
-0.3399606645 -0.1023724899 0.5252643228 4286435830
-0.3405473828 -0.1019645482 0.5261707902 4286567416
-0.3405975699 -0.1013948843 0.5262483954 4286238451
-0.3411839902 -0.1009837463 0.5271543860 4285843693
-0.3417702615 -0.1005705670 0.5280602574 4285514985
-0.3418198228 -0.0999983549 0.5281368494 4285317606
-0.3418691158 -0.0994258896 0.5282130241 4284923618
-0.3424549103 -0.0990083665 0.5291181207 4284923618
-0.3430405855 -0.0985888019 0.5300230384 4284793061
-0.3430892229 -0.0980138034 0.5300981998 4284727268
-0.3431375921 -0.0974385589 0.5301728845 4284989926
-0.3437227607 -0.0970146656 0.5310770273 4284924133
-0.3443078101 -0.0965887234 0.5319809914 4285254127
-0.3448927402 -0.0961607322 0.5328847170 4285254127
-0.3449402452 -0.0955818295 0.5329580903 4285448935
-0.3455248177 -0.0951506570 0.5338613391 4284922591
-0.3461093009 -0.0947174430 0.5347644091 4284134367
-0.3461561203 -0.0941360220 0.5348367691 4284529125
-0.3467402458 -0.0936996266 0.5357393026 4283933902
-0.3473242521 -0.0932611972 0.5366415977 4278604669
-0.3484458625 -0.0929641873 0.5383745432 4278461240
-0.3495674431 -0.0926633254 0.5401074886 4278263861
-0.3612270355 -0.1617637277 0.5590818524 4282217365
-0.3544473946 -0.1581181735 0.5485888124 4282021277
-0.3508299887 -0.1559011489 0.5429900289 4282087070
-0.3487937748 -0.1543965042 0.5398384929 4281235623
-0.3451730609 -0.1522001922 0.5342346430 4281169830
-0.3441900611 -0.1511748582 0.5327132344 4280187304
-0.3447903991 -0.1508456171 0.5336423516 4280253097
-0.3438063562 -0.1498238891 0.5321193337 4280056493
-0.3433498740 -0.1490345150 0.5314128399 4280122286
-0.3428929150 -0.1482465267 0.5307055712 4280253358
-0.3424355090 -0.1474598944 0.5299976468 4280319151
-0.3419776559 -0.1466746628 0.5292890072 4280384431
-0.3409906626 -0.1456649601 0.5277613997 4280318638
-0.3410605490 -0.1451083124 0.5278695822 4280056493
-0.3406013250 -0.1443272084 0.5271587968 4280056493
-0.3406706154 -0.1437707543 0.5272660851 4280122286
-0.3402105868 -0.1429915577 0.5265540481 4280056493
-0.3402793109 -0.1424352825 0.5266603827 4279991213
-0.3398184776 -0.1416580230 0.5259471536 4279991213
-0.3393571675 -0.1408821642 0.5252332091 4280057006
-0.3394249678 -0.1403266042 0.5253381133 4280188592
-0.3394924998 -0.1397707313 0.5254426599 4280122800
-0.3385003209 -0.1387801468 0.5239070654 4280057007
-0.3380373418 -0.1380090266 0.5231904387 4280057264
-0.3381038606 -0.1374547631 0.5232933760 4279991471
-0.3381701112 -0.1369001716 0.5233959556 4279925678
-0.3382361233 -0.1363452524 0.5234981179 4279991471
-0.3377716541 -0.1355771720 0.5227792263 4279991471
-0.3378371000 -0.1350224763 0.5228804946 4279991471
-0.3373718262 -0.1342563778 0.5221604109 4279926448
-0.3374366462 -0.1337019056 0.5222607851 4279992241
-0.3375012577 -0.1331471205 0.5223607421 4279991471
-0.3375656009 -0.1325920224 0.5224603415 4280057264
-0.3376297355 -0.1320365965 0.5225595832 4279860655
-0.3371626139 -0.1312741339 0.5218366385 4279926448
-0.3372261524 -0.1307189614 0.5219349265 4279926448
-0.3367582560 -0.1299584955 0.5212107897 4279794862
-0.3362899125 -0.1291994601 0.5204859376 4279795121
-0.3363524973 -0.1286450922 0.5205827951 4279860914
-0.3364148438 -0.1280904263 0.5206792355 4279664305
-0.3364769220 -0.1275354475 0.5207753778 4279664305
-0.3360071182 -0.1267795712 0.5200482011 4279730098
-0.3360686302 -0.1262248605 0.5201433897 4279730098
-0.3361298740 -0.1256698370 0.5202382207 4279664818
-0.3356589377 -0.1249165535 0.5195093155 4279664818
-0.3357195854 -0.1243618131 0.5196031928 4279730613
-0.3357799947 -0.1238067746 0.5196967125 4279730613
-0.3358401656 -0.1232514307 0.5197898149 4279927479
-0.3359000981 -0.1226957887 0.5198825598 4279861686
-0.3354273140 -0.1219462901 0.5191508532 4279861686
-0.3354866505 -0.1213909388 0.5192426443 4279861686
-0.3355457187 -0.1208352968 0.5193340778 4279861686
-0.3356045485 -0.1202793643 0.5194251537 4279861686
-0.3356631100 -0.1197231337 0.5195158124 4279927479
-0.3357214332 -0.1191666126 0.5196060538 4279927479
-0.3352465034 -0.1184215397 0.5188710093 4279927479
-0.3353042305 -0.1178653240 0.5189603567 4279927479
-0.3353616893 -0.1173088253 0.5190492868 4280059065
-0.3354189098 -0.1167520434 0.5191378593 4280124858
-0.3354758918 -0.1161949709 0.5192260146 4280190651
-0.3355326056 -0.1156376228 0.5193138123 4280322237
-0.3355890512 -0.1150799841 0.5194011927 4280322750
-0.3367125094 -0.1148862094 0.5211399794 4280388543
-0.3367686272 -0.1143262461 0.5212268233 4280388543
-0.3368245065 -0.1137659922 0.5213133097 4280322750
-0.3368801177 -0.1132054701 0.5213993788 4280454334
-0.3374694288 -0.1128231809 0.5223115087 4280717506
-0.3375246227 -0.1122612134 0.5223969221 4280849603
-0.3375795782 -0.1116989702 0.5224819183 4280783810
-0.3376342356 -0.1111364514 0.5225665569 4280783809
-0.3376886547 -0.1105736569 0.5226507783 4280915395
-0.3377428055 -0.1100105941 0.5227345824 4281112513
-0.3377967179 -0.1094472632 0.5228180289 4281375685
-0.3378503323 -0.1088836640 0.5229010582 4281506242
-0.3384383917 -0.1084911823 0.5238111615 4281901000
-0.3384915888 -0.1079261526 0.5238934755 4282097351
-0.3385445178 -0.1073608622 0.5239754319 4282689488
-0.3385972083 -0.1067953035 0.5240569711 4282820815
-0.3386496007 -0.1062294766 0.5241380930 4283347159
-0.3387017548 -0.1056633964 0.5242187977 4283806677
-0.3387536705 -0.1050970480 0.5242991447 4284135642
-0.3388052881 -0.1045304388 0.5243790150 4284726752
-0.3393919766 -0.1041278169 0.5252870321 4285121510
-0.3394431472 -0.1035597995 0.5253662467 4285449964
-0.3394940794 -0.1029915288 0.5254450440 4285647343
-0.3395447135 -0.1024229974 0.5255234838 4285975538
-0.3401307464 -0.1020148695 0.5264304876 4286107124
-0.3401809335 -0.1014449373 0.5265081525 4285975536
-0.3407666683 -0.1010336131 0.5274147391 4285778157
-0.3413522840 -0.1006202400 0.5283210874 4285514985
-0.3414018452 -0.1000477597 0.5283977985 4285251813
-0.3414511383 -0.0994750261 0.5284740925 4284923620
-0.3425723612 -0.0992125794 0.5302094221 4284923620
-0.3420850635 -0.0984831899 0.5294552445 4284792293
-0.3426698744 -0.0980622843 0.5303604007 4284726500
-0.3427182436 -0.0974867716 0.5304352045 4284660961
-0.3427663445 -0.0969110206 0.5305096507 4284792547
-0.3433506191 -0.0964857787 0.5314139724 4284990955
-0.3439348042 -0.0960584953 0.5323181748 4285056748
-0.3445188701 -0.0956291705 0.5332220793 4285646060
-0.3451027870 -0.0951978043 0.5341258645 4285185509
-0.3456865847 -0.0947643891 0.5350294113 4284199645
-0.3457334042 -0.0941826850 0.5351018906 4284199645
-0.3463168740 -0.0937460884 0.5360049605 4284264920
-0.3479742110 -0.0935963318 0.5385700464 4283409611
-0.3491407633 -0.0927093104 0.5403755307 4285503921
-0.3497238159 -0.0922627375 0.5412779450 4287337629
-0.3601744175 -0.1621905267 0.5584126115 4282283673
-0.3581450284 -0.1606597155 0.5552662611 4282086294
-0.3524269164 -0.1574875563 0.5464009047 4281890463
-0.3498675227 -0.1557411700 0.5424328446 4281890463
-0.3473067880 -0.1540030092 0.5384626985 4281169830
-0.3457989693 -0.1527387202 0.5361249447 4281169830
-0.3448174596 -0.1517112106 0.5346032381 4280187563
-0.3433079123 -0.1504556835 0.5322628617 4280121770
-0.3428524137 -0.1496654451 0.5315566659 4279991213
-0.3423964679 -0.1488765925 0.5308496952 4279925420
-0.3419400156 -0.1480891109 0.5301420689 4280252843
-0.3414831460 -0.1473030150 0.5294337273 4280252843
-0.3410257995 -0.1465182751 0.5287246704 4280252843
-0.3405680060 -0.1457349360 0.5280148983 4280252843
-0.3406378925 -0.1451780498 0.5281232595 4280056747
-0.3407075107 -0.1446208209 0.5282312036 4279990954
-0.3402485847 -0.1438398957 0.5275196433 4279990700
-0.3403176069 -0.1432828605 0.5276266932 4280056493
-0.3393293321 -0.1422822326 0.5260944366 4280057006
-0.3388690054 -0.1415054798 0.5253807902 4279991213
-0.3389370143 -0.1409500241 0.5254862309 4280057006
-0.3384759128 -0.1401752234 0.5247713327 4280122799
-0.3380814195 -0.1388470829 0.5241597295 4279925420
-0.3376190662 -0.1380756199 0.5234429240 4279925933
-0.3376855552 -0.1375211179 0.5235459805 4279925933
-0.3377518058 -0.1369662881 0.5236486793 4279859885
-0.3378178179 -0.1364111155 0.5237510204 4279925678
-0.3373539746 -0.1356426924 0.5230318904 4279925678
-0.3368896842 -0.1348756850 0.5223120451 4279925678
-0.3369547427 -0.1343213022 0.5224129558 4279794862
-0.3370195925 -0.1337665915 0.5225134492 4279860655
-0.3370841742 -0.1332115680 0.5226135850 4279925678
-0.3371484876 -0.1326562166 0.5227133036 4279991471
-0.3372125924 -0.1321005523 0.5228126645 4279794862
-0.3367461264 -0.1313377470 0.5220894814 4279926448
-0.3362792134 -0.1305763721 0.5213655829 4279860655
-0.3363423944 -0.1300215125 0.5214635134 4279794862
-0.3358746767 -0.1292621344 0.5207384229 4279860914
-0.3359372616 -0.1287075281 0.5208353996 4279860914
-0.3359995782 -0.1281526089 0.5209320188 4279795121
-0.3360616565 -0.1275973916 0.5210282803 4279795121
-0.3355924785 -0.1268411577 0.5203008652 4279730098
-0.3356539607 -0.1262861937 0.5203962326 4279730098
-0.3357152045 -0.1257309318 0.5204911232 4279664818
-0.3352448940 -0.1249773055 0.5197619796 4279664818
-0.3353055418 -0.1244223192 0.5198560357 4279664818
-0.3353659511 -0.1238670275 0.5199496746 4279730611
-0.3354260921 -0.1233114377 0.5200428963 4279861686
-0.3354859948 -0.1227555498 0.5201357603 4279795893
-0.3350138664 -0.1220057085 0.5194038153 4279795891
-0.3350731730 -0.1214501113 0.5194957256 4279795891
-0.3351322412 -0.1208942160 0.5195873380 4279861684
-0.3351910412 -0.1203380302 0.5196784735 4279861684
-0.3352496028 -0.1197815463 0.5197692513 4279861684
-0.3347756565 -0.1190355346 0.5190345049 4279795891
-0.3348336220 -0.1184793562 0.5191243291 4279795891
-0.3348913193 -0.1179228947 0.5192137957 4279927477
-0.3349487782 -0.1173661426 0.5193029046 4279993270
-0.3350059986 -0.1168091074 0.5193915963 4280059063
-0.3350629508 -0.1162517816 0.5194798708 4280124856
-0.3351196349 -0.1156941801 0.5195677876 4280190649
-0.3351760805 -0.1151362881 0.5196552873 4280256442
-0.3357652426 -0.1147602797 0.5205687284 4280322235
-0.3363543153 -0.1143822148 0.5214819908 4280322237
-0.3364101648 -0.1138217077 0.5215685964 4280256444
-0.3364657760 -0.1132609248 0.5216548443 4280388541
-0.3365211189 -0.1126998663 0.5217406154 4280717506
-0.3365761936 -0.1121385321 0.5218260288 4280849092
-0.3366310298 -0.1115769148 0.5219110250 4280783299
-0.3372191787 -0.1111909673 0.5228229165 4280718016
-0.3372735977 -0.1106279194 0.5229072571 4280783809
-0.3373277187 -0.1100645959 0.5229911804 4280915136
-0.3373816013 -0.1095010042 0.5230747461 4281112515
-0.3374352455 -0.1089371443 0.5231578946 4281112256
-0.3380225897 -0.1085444912 0.5240685344 4281507014
-0.3380757868 -0.1079792008 0.5241509676 4281439938
-0.3381287158 -0.1074136421 0.5242330432 4282097868
-0.3381813765 -0.1068478227 0.5243147016 4282492110
-0.3382337689 -0.1062817350 0.5243959427 4282886868
-0.3382859230 -0.1057153940 0.5244767666 4283281103
-0.3383378088 -0.1051487848 0.5245572329 4283544275
-0.3383894265 -0.1045819148 0.5246372223 4284135644
-0.3384407759 -0.1040147841 0.5247168541 4284530402
-0.3384918571 -0.1034474000 0.5247960687 4284989926
-0.3385426700 -0.1028797626 0.5248748660 4285187305
-0.3391281366 -0.1024734974 0.5257825255 4285646573
-0.3391785026 -0.1019044444 0.5258606672 4285843952
-0.3397636712 -0.1014949828 0.5267679095 4285778159
-0.3398135900 -0.1009245291 0.5268452764 4285646573
-0.3398632705 -0.1003538296 0.5269222856 4285383399
-0.3409832418 -0.1000971571 0.5286586881 4285120227
-0.3410325050 -0.0995241553 0.5287350416 4284923620
-0.3410815001 -0.0989509076 0.5288110375 4284923620
-0.3416657746 -0.0985318571 0.5297169089 4284726500
-0.3422499299 -0.0981107578 0.5306225419 4284660707
-0.3422982693 -0.0975349769 0.5306974649 4284792034
-0.3423463404 -0.0969589427 0.5307720304 4284792034
-0.3429299593 -0.0965335146 0.5316768885 4284661475
-0.3435134888 -0.0961060300 0.5325815678 4284990440
-0.3440968692 -0.0956765041 0.5334860086 4285580267
-0.3441440761 -0.0950968117 0.5335592031 4285448681
-0.3452632725 -0.0948113203 0.5352944136 4285054438
-0.3453100622 -0.0942293406 0.5353669524 4284593887
-0.3458928466 -0.0937925428 0.5362705588 4284397276
-0.3464755416 -0.0933537036 0.5371739268 4284397276
-0.3470580578 -0.0929128155 0.5380770564 4285572802
-0.3481769264 -0.0926125869 0.5398117304 4285770181
-0.3627246022 -0.1648724675 0.5633364320 4283200400
-0.3523630500 -0.1589466780 0.5472441912 4282021530
-0.3550689220 -0.1595545709 0.5514466166 4282021530
-0.3504097164 -0.1568562388 0.5442105532 4281563038
-0.3478532732 -0.1551116258 0.5402402282 4281431452
-0.3468745351 -0.1540766507 0.5387201905 4280842664
-0.3453686535 -0.1528117955 0.5363814235 4280842664
-0.3454416096 -0.1522479951 0.5364947915 4280056747
-0.3434075415 -0.1507589370 0.5333357453 4279990954
-0.3418991864 -0.1495067775 0.5309931040 4279925420
-0.3414437473 -0.1487184316 0.5302857757 4279859627
-0.3415148556 -0.1481601149 0.5303962231 4280121770
-0.3410586119 -0.1473736614 0.5296876431 4280187563
-0.3406019211 -0.1465885788 0.5289783478 4280121768
-0.3401447535 -0.1458048820 0.5282683969 4280187561
-0.3402146101 -0.1452477574 0.5283768773 4280056747
-0.3402842283 -0.1446902901 0.5284850001 4279990954
-0.3398259282 -0.1439090222 0.5277732015 4279859114
-0.3393671513 -0.1431291550 0.5270606875 4279990700
-0.3394358456 -0.1425723881 0.5271673799 4280057006
-0.3389762640 -0.1417944431 0.5264536142 4279925420
-0.3385162652 -0.1410178840 0.5257391930 4279991213
-0.3385840058 -0.1404618472 0.5258443952 4279925420
-0.3386515081 -0.1399054825 0.5259492397 4279793834
-0.3381903470 -0.1391313970 0.5252330303 4279859627
-0.3377287388 -0.1383587122 0.5245161057 4279860140
-0.3372666836 -0.1375874430 0.5237985253 4279860140
-0.3373329043 -0.1370323747 0.5239013433 4279860140
-0.3373988867 -0.1364769638 0.5240038633 4279925933
-0.3369356990 -0.1357081980 0.5232844353 4279925933
-0.3364720345 -0.1349408478 0.5225644112 4279860140
-0.3365370929 -0.1343862116 0.5226653814 4279729068
-0.3366018832 -0.1338312626 0.5227660537 4279794861
-0.3366664648 -0.1332760006 0.5228663087 4279991214
-0.3367307782 -0.1327204108 0.5229662061 4279991214
-0.3367948532 -0.1321644932 0.5230657458 4279925678
-0.3363290429 -0.1314013451 0.5223422647 4279991471
-0.3358627558 -0.1306396127 0.5216181278 4279991471
-0.3359259069 -0.1300845146 0.5217162371 4279991471
-0.3359888196 -0.1295291036 0.5218138695 4279926448
-0.3355214000 -0.1287699342 0.5210880041 4279860655
-0.3355837166 -0.1282147765 0.5211847425 4279794862
-0.3351155221 -0.1274576336 0.5204576254 4279860655
-0.3351772428 -0.1269027293 0.5205534697 4279795121
-0.3347082734 -0.1261476129 0.5198251009 4279795121
-0.3347693980 -0.1255929768 0.5199200511 4279730098
-0.3348302543 -0.1250380427 0.5200145841 4279795891
-0.3348909020 -0.1244828105 0.5201087594 4279795891
-0.3349512815 -0.1239272729 0.5202025175 4279795891
-0.3344804943 -0.1231759191 0.5194713473 4280058293
-0.3345402777 -0.1226206645 0.5195642114 4280058293
-0.3345998228 -0.1220651120 0.5196567178 4279861684
-0.3341279030 -0.1213163882 0.5189237595 4279861684
-0.3341868520 -0.1207611263 0.5190153122 4279927477
-0.3342455328 -0.1202055737 0.5191065073 4279927477
-0.3343039751 -0.1196497306 0.5191972256 4279993270
-0.3343621790 -0.1190935895 0.5192876458 4279927477
-0.3338884711 -0.1183487102 0.5185518861 4279795891
-0.3339460492 -0.1177928820 0.5186413527 4279927477
-0.3340034187 -0.1172367632 0.5187304616 4279993270
-0.3340605199 -0.1166803613 0.5188190937 4280059063
-0.3341173530 -0.1161236688 0.5189073682 4280190649
-0.3341739476 -0.1155667007 0.5189952850 4280190649
-0.3347625136 -0.1151925847 0.5199093819 4280059576
-0.3348186910 -0.1146341562 0.5199965835 4280125369
-0.3348746002 -0.1140754521 0.5200834274 4280190651
-0.3354627490 -0.1136969402 0.5209968686 4280124858
-0.3355182409 -0.1131367907 0.5210830569 4280388543
-0.3361061513 -0.1127550602 0.5219961405 4280717508
-0.3361612260 -0.1121934652 0.5220816731 4280652226
-0.3362160325 -0.1116315946 0.5221667886 4280586433
-0.3362706006 -0.1110694483 0.5222515464 4280521408
-0.3368579149 -0.1106821671 0.5231636763 4280587201
-0.3369120359 -0.1101185828 0.5232477188 4280783809
-0.3369658887 -0.1095547304 0.5233314037 4280915395
-0.3370195031 -0.1089906096 0.5234146714 4281112517
-0.3376062214 -0.1085977778 0.5243258476 4281375689
-0.3376593888 -0.1080322340 0.5244084001 4281112002
-0.3377122879 -0.1074664146 0.5244905949 4281506760
-0.3377649486 -0.1069003344 0.5245723724 4282032588
-0.3378173411 -0.1063339859 0.5246537328 4282361553
-0.3378694654 -0.1057673767 0.5247346759 4282755018
-0.3379213214 -0.1052005067 0.5248152614 4282952397
-0.3379729390 -0.1046333686 0.5248953700 4283478484
-0.3380242586 -0.1040659845 0.5249751210 4283939035
-0.3380753398 -0.1034983322 0.5250544548 4284398305
-0.3381261528 -0.1029304266 0.5251333714 4284727270
-0.3381766975 -0.1023622677 0.5252118707 4285252585
-0.3387612998 -0.1019546613 0.5261197686 4285384171
-0.3388113976 -0.1013850942 0.5261975527 4285449194
-0.3393957019 -0.1009742916 0.5271050334 4285449194
-0.3394453526 -0.1004033238 0.5271821618 4285186022
-0.3400293589 -0.0999893248 0.5280891657 4284988643
-0.3400785625 -0.0994169563 0.5281655192 4284923622
-0.3401274681 -0.0988443419 0.5282415152 4284923622
-0.3412458599 -0.0985805094 0.5299784541 4284792036
-0.3418293297 -0.0981592163 0.5308846235 4284726243
-0.3418776691 -0.0975831598 0.5309596658 4284923620
-0.3424608111 -0.0971586704 0.5318653584 4284792034
-0.3430438638 -0.0967321396 0.5327708721 4284660961
-0.3436267674 -0.0963035598 0.5336762071 4285187305
-0.3431389332 -0.0955747291 0.5329185128 4285318380
-0.3437214494 -0.0951438621 0.5338231921 4285055208
-0.3443038166 -0.0947109461 0.5347276926 4285251813
-0.3448860943 -0.0942759886 0.5356320143 4284857055
-0.3454682231 -0.0938389823 0.5365360975 4284726754
-0.3460502028 -0.0933999345 0.5374399424 4284529375
-0.3466320634 -0.0929588452 0.5383436084 4285312718
-0.3472138047 -0.0925157070 0.5392470956 4285510097
-0.3743472099 -0.1704494059 0.5823917389 4283267996
-0.3670762777 -0.1665042639 0.5710799694 4283070617
-0.3561251163 -0.1609212756 0.5540426373 4282021530
-0.3494468033 -0.1566955000 0.5436528921 4281235102
-0.3474191129 -0.1551857144 0.5404982567 4281235102
-0.3459159434 -0.1539163589 0.5381597281 4280580777
-0.3438860774 -0.1524187326 0.5350017548 4280449191
-0.3444847465 -0.1520886123 0.5359331369 4279990700
-0.3429792225 -0.1508310735 0.5335909128 4279924907
-0.3425250947 -0.1500392854 0.5328844190 4279925420
-0.3415442407 -0.1490192711 0.5313584208 4279859627
-0.3405627310 -0.1480023414 0.5298314095 4279990952
-0.3401069939 -0.1472163945 0.5291224718 4280056745
-0.3396508396 -0.1464318335 0.5284127593 4279990952
-0.3397209048 -0.1458748132 0.5285217762 4279990952
-0.3397907317 -0.1453174502 0.5286303759 4279990700
-0.3388064802 -0.1443108916 0.5270991921 4279924907
-0.3388756216 -0.1437545717 0.5272067189 4279859114
-0.3389445245 -0.1431979090 0.5273138881 4279859114
-0.3390131891 -0.1426409185 0.5274207592 4279859627
-0.3385542631 -0.1418626159 0.5267067552 4279793834
-0.3380948901 -0.1410857141 0.5259920955 4279793834
-0.3381626010 -0.1405294389 0.5260974765 4279793834
-0.3382301033 -0.1399728358 0.5262024403 4279728041
-0.3377695680 -0.1391984075 0.5254859924 4279925420
-0.3373086154 -0.1384253800 0.5247688293 4279794347
-0.3373751640 -0.1378695220 0.5248723626 4279860140
-0.3369133770 -0.1370984465 0.5241539478 4279860140
-0.3369793594 -0.1365427971 0.5242565870 4279860140
-0.3365167975 -0.1357736886 0.5235369802 4279860140
-0.3360537887 -0.1350059807 0.5228166580 4279860140
-0.3361188173 -0.1344511211 0.5229178071 4279729068
-0.3361836076 -0.1338959187 0.5230185986 4279729068
-0.3362481594 -0.1333404034 0.5231190324 4279991214
-0.3363124430 -0.1327845752 0.5232190490 4279925421
-0.3358476162 -0.1320205182 0.5224958658 4279925678
-0.3359113336 -0.1314649135 0.5225949883 4279859885
-0.3354457021 -0.1307028532 0.5218706131 4279925678
-0.3355088234 -0.1301475018 0.5219688416 4279991471
-0.3355717063 -0.1295918375 0.5220666528 4279991471
-0.3356343508 -0.1290358603 0.5221641064 4279925678
-0.3351672292 -0.1282769293 0.5214374065 4279925678
-0.3346996903 -0.1275194436 0.5207099915 4279925678
-0.3347613811 -0.1269643009 0.5208060145 4279794864
-0.3342930675 -0.1262088269 0.5200774074 4279794864
-0.3343541622 -0.1256539524 0.5201724768 4279860914
-0.3344150186 -0.1250987649 0.5202671289 4279860914
-0.3344756365 -0.1245432869 0.5203614235 4279926450
-0.3340058327 -0.1237910017 0.5196305513 4279992243
-0.3340658545 -0.1232357994 0.5197238922 4279992500
-0.3341256380 -0.1226802990 0.5198168755 4279926707
-0.3336547017 -0.1219306439 0.5190842748 4279926707
-0.3337138891 -0.1213754341 0.5191763043 4279860914
-0.3332421780 -0.1206278354 0.5184424520 4279860914
-0.3333007693 -0.1200729162 0.5185335875 4279926707
-0.3333590925 -0.1195177063 0.5186243653 4279926707
-0.3334171772 -0.1189622059 0.5187147260 4279926707
-0.3334750235 -0.1184064075 0.5188047290 4279730098
-0.3335326016 -0.1178503260 0.5188943148 4279861684
-0.3335899413 -0.1172939613 0.5189834833 4279993272
-0.3336470127 -0.1167373061 0.5190722942 4280059065
-0.3337038457 -0.1161803603 0.5191607475 4280190651
-0.3337604403 -0.1156231388 0.5192487240 4280190651
-0.3338167667 -0.1150656343 0.5193364024 4280124858
-0.3344044685 -0.1146901771 0.5202507377 4280124858
-0.3344603777 -0.1141312197 0.5203377008 4280124856
-0.3345160484 -0.1135719866 0.5204242468 4280124856
-0.3345714211 -0.1130124703 0.5205104351 4280322750
-0.3346265852 -0.1124526709 0.5205962658 4280585922
-0.3352135420 -0.1120704934 0.5215094090 4280520640
-0.3352682590 -0.1115092561 0.5215945244 4280520640
-0.3358549774 -0.1111238524 0.5225073695 4280455615
-0.3364416063 -0.1107363924 0.5234199762 4280521408
-0.3364957273 -0.1101725549 0.5235041976 4280587201
-0.3365495801 -0.1096084490 0.5235880017 4280718787
-0.3366031945 -0.1090440676 0.5236713290 4281046982
-0.3371891975 -0.1086510569 0.5245830417 4281112775
-0.3372423649 -0.1080852523 0.5246657729 4281112004
-0.3372952640 -0.1075191721 0.5247480869 4281375176
-0.3373478949 -0.1069528237 0.5248299837 4281834957
-0.3374002874 -0.1063862145 0.5249114633 4282032336
-0.3374523818 -0.1058193445 0.5249925256 4282098373
-0.3375042379 -0.1052522138 0.5250731707 4282295752
-0.3375558257 -0.1046848148 0.5251534581 4282821326
-0.3376071453 -0.1041171625 0.5252333283 4283216084
-0.3376582265 -0.1035492495 0.5253127217 4283872474
-0.3377090096 -0.1029810831 0.5253917575 4284201439
-0.3377595544 -0.1024126559 0.5254703760 4284660707
-0.3378098309 -0.1018439755 0.5255485773 4284858086
-0.3383935690 -0.1014350355 0.5264567733 4285055208
-0.3389772177 -0.1010240465 0.5273647904 4285055208
-0.3390268385 -0.1004528105 0.5274419785 4284923368
-0.3396101892 -0.1000386178 0.5283495188 4284857575
-0.3396593630 -0.0994659811 0.5284259915 4284792295
-0.3397082686 -0.0988930985 0.5285021067 4284726502
-0.3408253193 -0.0986291543 0.5302399397 4284660450
-0.3414081037 -0.0982076600 0.5311466455 4284594657
-0.3414564431 -0.0976313353 0.5312218070 4284792036
-0.3415044844 -0.0970547721 0.5312966108 4284528864
-0.3420867920 -0.0966289416 0.5322024822 4284660450
-0.3421343565 -0.0960509852 0.5322765112 4285186794
-0.3421816826 -0.0954727903 0.5323501229 4284924910
-0.3432981670 -0.0951908976 0.5340871215 4284727531
-0.3438799083 -0.0947577804 0.5349921584 4285120997
-0.3444614708 -0.0943226218 0.5358969569 4284792032
-0.3445079923 -0.0937398598 0.5359693170 4284726500
-0.3450892568 -0.0933015123 0.5368735790 4284529121
-0.3456703722 -0.0928611159 0.5377776623 4284789975
-0.3462513387 -0.0924186781 0.5386815071 4284724182
-0.3468321860 -0.0919741988 0.5395851731 4286950067
-0.3479482234 -0.0916687027 0.5413214564 4287147446
-0.3654883802 -0.1667038053 0.5695937872 4283005852
-0.3540289104 -0.1608639807 0.5517348051 4282676887
-0.3504332006 -0.1586233824 0.5461311340 4282086811
-0.3473603725 -0.1566309929 0.5413423181 4282021018
-0.3479597569 -0.1562987566 0.5422763824 4281037981
-0.3464593589 -0.1550249010 0.5399381518 4281169567
-0.3449580669 -0.1537558287 0.5375984311 4280515499
-0.3429307044 -0.1522583812 0.5344389081 4280252327
-0.3430033028 -0.1516966820 0.5345520377 4279859115
-0.3425502479 -0.1509031802 0.5338460207 4279859115
-0.3415712714 -0.1498804688 0.5323203206 4279859114
-0.3411172330 -0.1490905732 0.5316126943 4279924907
-0.3406627178 -0.1483020484 0.5309043527 4279990952
-0.3402077258 -0.1475148946 0.5301952958 4279990952
-0.3397523165 -0.1467291266 0.5294855237 4279925161
-0.3392964303 -0.1459447294 0.5287750959 4279925161
-0.3393662274 -0.1453871280 0.5288838744 4279989931
-0.3394358158 -0.1448291838 0.5289922953 4279924138
-0.3379948139 -0.1430438459 0.5267465711 4279727782
-0.3380633593 -0.1424874812 0.5268533826 4279662248
-0.3381316364 -0.1419307739 0.5269598365 4279662248
-0.3376729190 -0.1411535293 0.5262448788 4279662248
-0.3377406001 -0.1405970156 0.5263504386 4279793834
-0.3372810781 -0.1398216933 0.5256342292 4279793834
-0.3373481929 -0.1392653883 0.5257388353 4279925420
-0.3368878663 -0.1384920180 0.5250214338 4279794347
-0.3369543850 -0.1379359215 0.5251251459 4279860140
-0.3364932835 -0.1371644884 0.5244064927 4279860140
-0.3360317051 -0.1363944858 0.5236871839 4279794347
-0.3360973001 -0.1358391494 0.5237894058 4279860140
-0.3361626565 -0.1352834851 0.5238912702 4279860140
-0.3356999457 -0.1345159858 0.5231701136 4279663275
-0.3357647061 -0.1339605600 0.5232710838 4279663275
-0.3358292282 -0.1334047914 0.5233716369 4279794347
-0.3358935118 -0.1328487247 0.5234718323 4279794347
-0.3354293406 -0.1320843101 0.5227484107 4279860140
-0.3354930282 -0.1315284818 0.5228476524 4279794347
-0.3355564773 -0.1309723258 0.5229465365 4279729069
-0.3350911438 -0.1302104741 0.5222213864 4279860655
-0.3351539969 -0.1296545565 0.5223193169 4279859885
-0.3352166116 -0.1290983409 0.5224168897 4279991471
-0.3347501755 -0.1283390671 0.5216899514 4279794862
-0.3342832625 -0.1275812387 0.5209622979 4279860655
-0.3343449235 -0.1270258427 0.5210584402 4279729582
-0.3338772357 -0.1262700260 0.5203295946 4279729582
-0.3339383304 -0.1257148981 0.5204247832 4279795121
-0.3339991868 -0.1251594722 0.5205196142 4279795121
-0.3335303664 -0.1244062707 0.5197889805 4279860657
-0.3335906267 -0.1238511205 0.5198828578 4279926450
-0.3336506188 -0.1232956648 0.5199763775 4280058034
-0.3337103724 -0.1227399111 0.5200695395 4280123827
-0.3332400918 -0.1219899207 0.5193365812 4280123827
-0.3332992494 -0.1214344576 0.5194287896 4280123827
-0.3328281939 -0.1206865236 0.5186946988 4280058036
-0.3328867555 -0.1201313511 0.5187859535 4279992243
-0.3329450786 -0.1195758879 0.5188768506 4279860914
-0.3330031633 -0.1190201342 0.5189673305 4279860914
-0.3330609798 -0.1184640899 0.5190574527 4279860914
-0.3325881064 -0.1177200079 0.5183205009 4279992500
-0.3326453269 -0.1171642765 0.5184096694 4279861686
-0.3327023089 -0.1166082546 0.5184984803 4279927479
-0.3327590227 -0.1160519496 0.5185868740 4280124858
-0.3328154981 -0.1154953614 0.5186749101 4280190651
-0.3334026337 -0.1151218042 0.5195899010 4280190651
-0.3334586918 -0.1145637557 0.5196772814 4280190651
-0.3335144818 -0.1140054390 0.5197642446 4280255672
-0.3335700333 -0.1134468317 0.5198507905 4280189879
-0.3341565728 -0.1130677089 0.5207648873 4280190651
-0.3342117071 -0.1125076562 0.5208507776 4280453823
-0.3342665732 -0.1119473353 0.5209363103 4280520129
-0.3343212008 -0.1113867313 0.5210214257 4280585922
-0.3354387581 -0.1111782417 0.5227630734 4280520638
-0.3360247016 -0.1107906103 0.5236762762 4280520638
-0.3360788226 -0.1102265194 0.5237605572 4280652224
-0.3361326456 -0.1096621454 0.5238444805 4280718017
-0.3361862302 -0.1090975031 0.5239279866 4280849090
-0.3367715776 -0.1087043285 0.5248402357 4280849090
-0.3368247151 -0.1081382558 0.5249230862 4281046212
-0.3368776143 -0.1075719148 0.5250054598 4281243591
-0.3369302452 -0.1070053056 0.5250874758 4281637065
-0.3369826078 -0.1064384356 0.5251690745 4281834444
-0.3370347023 -0.1058713049 0.5252503157 4281703874
-0.3370865285 -0.1053039059 0.5253310800 4281967046
-0.3371381164 -0.1047362462 0.5254114866 4282295752
-0.3371894360 -0.1041683331 0.5254914165 4282690510
-0.3372404873 -0.1036001593 0.5255709887 4283346644
-0.3372912705 -0.1030317247 0.5256501436 4283675609
-0.3378747106 -0.1026249006 0.5265594125 4284135133
-0.3379250467 -0.1020550579 0.5266378522 4284332512
-0.3379751146 -0.1014849618 0.5267158747 4284660196
-0.3385580778 -0.1010737792 0.5276244283 4284660196
-0.3386076987 -0.1005022824 0.5277017355 4284594918
-0.3391903639 -0.1000878960 0.5286098123 4284660711
-0.3392395377 -0.0995149985 0.5286864042 4284792295
-0.3392884135 -0.0989418477 0.5287625790 4284792295
-0.3398706019 -0.0985231102 0.5296698809 4284660709
-0.3404526412 -0.0981023312 0.5305770040 4284594916
-0.3410345912 -0.0976795033 0.5314838886 4284529891
-0.3410826325 -0.0971026644 0.5315587521 4284332512
-0.3411304057 -0.0965255797 0.5316331983 4284594916
-0.3417118192 -0.0960984081 0.5325393081 4284792295
-0.3417591155 -0.0955199376 0.5326130390 4284465900
-0.3423402011 -0.0950895771 0.5335186720 4284663279
-0.3429211974 -0.0946571678 0.5344240665 4285055719
-0.3435020447 -0.0942227095 0.5353292823 4284726754
-0.3435484469 -0.0936405733 0.5354016423 4284989674
-0.3441289663 -0.0932029262 0.5363063216 4284792295
-0.3447093368 -0.0927632377 0.5372108221 4284528860
-0.3452895880 -0.0923215002 0.5381150842 4284265688
-0.3464042544 -0.0920197219 0.5398522615 4286820282
-0.3469842970 -0.0915729851 0.5407562256 4286886075
-0.3561262190 -0.1627152562 0.5559657216 4282021020
-0.3514890373 -0.1599868536 0.5487263799 4281955227
-0.3489453495 -0.1582237780 0.5447553396 4281430949
-0.3511168063 -0.1585993618 0.5481452942 4281430949
-0.3464747071 -0.1559015512 0.5408983231 4281104039
-0.3455003500 -0.1548638344 0.5393771529 4281038246
-0.3445252776 -0.1538291872 0.5378549099 4280514469
-0.3435495198 -0.1527976096 0.5363316536 4280514469
-0.3415238559 -0.1513042748 0.5331692696 4280122022
-0.3410712481 -0.1505121589 0.5324626565 4279990436
-0.3395684958 -0.1492600143 0.5301166773 4279859877
-0.3406895995 -0.1491618454 0.5318668485 4279859877
-0.3407607675 -0.1486019492 0.5319779515 4279859625
-0.3397813737 -0.1475854814 0.5304489732 4279925418
-0.3393265903 -0.1467993706 0.5297390223 4279924907
-0.3388713300 -0.1460146308 0.5290282965 4279859114
-0.3384156525 -0.1452312768 0.5283168554 4280121257
-0.3384850919 -0.1446739584 0.5284252763 4280055464
-0.3380285800 -0.1438925117 0.5277126431 4279793575
-0.3375716209 -0.1431124657 0.5269992352 4279727782
-0.3376401365 -0.1425558627 0.5271062255 4279727782
-0.3371824026 -0.1417777240 0.5263915658 4279727782
-0.3372503221 -0.1412213147 0.5264976621 4279793575
-0.3373180032 -0.1406645626 0.5266032815 4279859368
-0.3368591070 -0.1398888975 0.5258868933 4279859625
-0.3369262218 -0.1393323541 0.5259916782 4279859625
-0.3364665210 -0.1385586411 0.5252740383 4279859627
-0.3365330398 -0.1380022913 0.5253778696 4279925420
-0.3360725343 -0.1372305304 0.5246589780 4279859627
-0.3356116116 -0.1364601851 0.5239393711 4279859627
-0.3356771767 -0.1359045953 0.5240417719 4279925420
-0.3352154493 -0.1351362169 0.5233209133 4279793834
-0.3352804482 -0.1345808506 0.5234224200 4279728041
-0.3353452086 -0.1340251714 0.5235235095 4279793834
-0.3354097307 -0.1334691644 0.5236241817 4279925420
-0.3349465132 -0.1327038705 0.5229010582 4279925420
-0.3350104392 -0.1321481019 0.5230008364 4279794347
-0.3350740969 -0.1315920204 0.5231002569 4279794347
-0.3346097767 -0.1308292598 0.5223753452 4279860140
-0.3346728683 -0.1302734166 0.5224738121 4279860140
-0.3347356915 -0.1297172755 0.5225719213 4279860140
-0.3342702091 -0.1289570779 0.5218452811 4279991726
-0.3343324661 -0.1284011751 0.5219424367 4279794862
-0.3338662088 -0.1276430041 0.5212145448 4279794862
-0.3339278698 -0.1270873696 0.5213108063 4279860655
-0.3334608376 -0.1263312101 0.5205817223 4279860655
-0.3335219026 -0.1257758439 0.5206770301 4279860657
-0.3335827291 -0.1252201647 0.5207719803 4279860657
-0.3331145644 -0.1244666204 0.5200411081 4279926707
-0.3331747949 -0.1239112169 0.5201351643 4279926707
-0.3327058256 -0.1231597140 0.5194030404 4280058034
