VERSION 0.7
FIELDS x y z rgba
SIZE 4 4 4 4
TYPE F F F U
COUNT 1 1 1 1
WIDTH 920
HEIGHT 1
VIEWPOINT 0.0 0.0 0.0 1.0 0.0 0.0 0.0
POINTS 920
DATA ascii
-0.2793566287 -0.1574431807 0.5894171000 4288055699
-0.2794204652 -0.1568241417 0.5895518661 4288845215
-0.2790676057 -0.1559718847 0.5888072848 4289503145
-0.2791309357 -0.1553529203 0.5889409184 4290358200
-0.2796107233 -0.1549644768 0.5899532437 4290818751
-0.2796736956 -0.1543437541 0.5900861025 4291411914
-0.2797364295 -0.1537225991 0.5902184844 4292201430
-0.2797989547 -0.1531010270 0.5903503895 4292663008
-0.2798612416 -0.1524790525 0.5904818773 4292926180
-0.2803404927 -0.1520829648 0.5914930105 4293321708
-0.2804116607 -0.1468627155 0.5916431546 4292929519
-0.2804716825 -0.1462366432 0.5917698145 4292929519
-0.2801133692 -0.1453931779 0.5910137892 4292666862
-0.2801728249 -0.1447672397 0.5911392570 4291877346
-0.2806503177 -0.1443560421 0.5921466947 4291021524
-0.2807094157 -0.1437283754 0.5922713876 4289903043
-0.2807682455 -0.1431003213 0.5923955441 4288519593
-0.2808268666 -0.1424718648 0.5925192237 4286216838
-0.2808852494 -0.1418430060 0.5926424265 4284702573
-0.2805247307 -0.1410033256 0.5918816924 4284242022
-0.2805825472 -0.1403746307 0.5920037031 4287455084
-0.2806401551 -0.1397455484 0.5921252370 4288244600
-0.2802785635 -0.1389084458 0.5913622975 4289554557
-0.2794975042 -0.1378661394 0.5897144079 4289620350
-0.2795541584 -0.1372387260 0.5898338556 4290078591
-0.2787721455 -0.1362013072 0.5881838799 4289947005
-0.2784088254 -0.1353711486 0.5874173641 4290011517
-0.2780451477 -0.1345424950 0.5866500139 4289879931
-0.2776810229 -0.1337153614 0.5858817697 4289684349
-0.2773165107 -0.1328897327 0.5851126909 4289750142
-0.2769516110 -0.1320656240 0.5843427777 4289685889
-0.2765862942 -0.1312430352 0.5835720301 4290080647
-0.2762205899 -0.1304219663 0.5828003883 4290999695
-0.2758544981 -0.1296024173 0.5820279121 4291460246
-0.2754879892 -0.1287844181 0.5812546611 4291790240
-0.2755410969 -0.1281633079 0.5813667178 4292382377
-0.2751738727 -0.1273474246 0.5805919170 4292121515
-0.2748062611 -0.1265330762 0.5798162818 4292911031
-0.2748585045 -0.1259128004 0.5799264908 4292781242
-0.2740698159 -0.1249090061 0.5782624483 4292912828
-0.2741214335 -0.1242899224 0.5783713460 4293312719
-0.2737523317 -0.1234808043 0.5775925517 4294957801
-0.2731437087 -0.1947381496 0.5776621699 4294041581
-0.2732201219 -0.1941506267 0.5778237581 4292594135
-0.2732963562 -0.1935626119 0.5779849887 4292389056
-0.2733723819 -0.1929741055 0.5781457424 4292125884
-0.2730388939 -0.1920970976 0.5774404407 4293633733
-0.2727049589 -0.1912213713 0.5767342448 4294028491
-0.2723706365 -0.1903469265 0.5760271549 4294027208
-0.2716261744 -0.1891884059 0.5744527578 4293961415
-0.2704712749 -0.1877484769 0.5720103383 4293568454
-0.2701353729 -0.1868805438 0.5712998509 4293371075
-0.2693890035 -0.1857312024 0.5697214007 4293896392
-0.2686419785 -0.1845849305 0.5681415796 4293699013
-0.2674840987 -0.1831608117 0.5656928420 4293567425
-0.2667357028 -0.1820215881 0.5641101003 4293501632
-0.2663971782 -0.1811645925 0.5633941293 4293435325
-0.2660582066 -0.1803089082 0.5626772642 4293106360
-0.2661295533 -0.1797319055 0.5628281236 4292973748
-0.2657898962 -0.1788779646 0.5621097684 4292776369
-0.2658607066 -0.1783009320 0.5622596145 4292973234
-0.2659313679 -0.1777234375 0.5624089837 4293104820
-0.2668240964 -0.1776930690 0.5642969608 4293038514
-0.2664833367 -0.1768399626 0.5635763407 4292709549
-0.2673761845 -0.1768042147 0.5654646158 4292708779
-0.2678578496 -0.1764933020 0.5664832592 4292708779
-0.2675164044 -0.1756397188 0.5657611489 4292642473
-0.2684095502 -0.1755954176 0.5676500201 4292642473
-0.2684793770 -0.1750102490 0.5677977204 4292117925
-0.2689608932 -0.1746921241 0.5688160658 4292117925
-0.2694424391 -0.1743717641 0.5698344111 4292052132
-0.2699239850 -0.1740491390 0.5708528161 4291986339
-0.2704055309 -0.1737242639 0.5718712807 4291920546
-0.2708871067 -0.1733971238 0.5728896856 4291723167
-0.2713686824 -0.1730677336 0.5739082098 4291656861
-0.2714377344 -0.1724739671 0.5740542412 4291656861
-0.2719192207 -0.1721409559 0.5750725269 4291459482
-0.2719880044 -0.1715453863 0.5752179623 4291459482
-0.2724694014 -0.1712087691 0.5762360692 4291458712
-0.2725378573 -0.1706113815 0.5763808489 4291195540
-0.2730191648 -0.1702711582 0.5773987174 4290800782
-0.2735004425 -0.1699286550 0.5784165859 4290340231
-0.2735685110 -0.1693281084 0.5785605311 4289813887
-0.2736363411 -0.1687271297 0.5787039995 4289419129
-0.2737039924 -0.1681256890 0.5788470507 4288044148
-0.2741849720 -0.1677768677 0.5798642635 4287912562
-0.2742522657 -0.1671736240 0.5800065994 4287453038
-0.2747331560 -0.1668211818 0.5810235739 4287387245
-0.2748001516 -0.1662161499 0.5811652541 4287454832
-0.2752808928 -0.1658600867 0.5821819901 4287783797
-0.2753475606 -0.1652532667 0.5823230147 4288047485
-0.2758281827 -0.1648935825 0.5833394527 4288508036
-0.2758945525 -0.1642849594 0.5834797621 4289165450
-0.2759606838 -0.1636759043 0.5836196542 4289560208
-0.2764410675 -0.1633112580 0.5846356153 4290086550
-0.2765068710 -0.1627003998 0.5847747922 4290547101
-0.2769871056 -0.1623321325 0.5857903957 4290615204
-0.2770525813 -0.1617195010 0.5859289169 4291009962
-0.2775326967 -0.1613475978 0.5869442225 4291013044
-0.2775978446 -0.1607331783 0.5870820284 4291473595
-0.2780778110 -0.1603576690 0.5880970359 4291673033
-0.2781426013 -0.1597414613 0.5882341266 4291870412
-0.2782071829 -0.1591248363 0.5883706808 4291806672
-0.2786868513 -0.1587443501 0.5893851519 4292004051
-0.2787511051 -0.1581259370 0.5895209908 4291808982
-0.2788151205 -0.1575070918 0.5896563530 4292006361
-0.2788788974 -0.1568878293 0.5897912979 4292007901
-0.2785267532 -0.1560352594 0.5890465379 4292205280
-0.2785899937 -0.1554160714 0.5891803503 4292468966
-0.2786530256 -0.1547964662 0.5893136263 4292600552
-0.2792724669 -0.1439847350 0.5906236172 4292468970
-0.2793313265 -0.1433587074 0.5907480717 4291482075
-0.2793899179 -0.1427322924 0.5908720493 4290098625
-0.2798660100 -0.1423178911 0.5918788910 4287598491
-0.2799242437 -0.1416897476 0.5920020342 4286083710
-0.2795643508 -0.1408506781 0.5912409425 4285228401
-0.2796220481 -0.1402226835 0.5913629532 4286207584
-0.2796794772 -0.1395943165 0.5914844275 4286931307
-0.2793185413 -0.1387578249 0.5907210708 4288701299
-0.2789572179 -0.1379228383 0.5899569392 4289096057
-0.2785954773 -0.1370893568 0.5891918540 4289816700
-0.2782333195 -0.1362573653 0.5884259939 4289816700
-0.2778707743 -0.1354268938 0.5876592398 4290208894
-0.2775078118 -0.1345979124 0.5868916512 4290208894
-0.2775631249 -0.1339725256 0.5870085955 4289552763
-0.2771994472 -0.1331456304 0.5862394571 4289486970
-0.2768353522 -0.1323202699 0.5854694843 4289225338
-0.2764708996 -0.1314964145 0.5846986771 4289554303
-0.2761059999 -0.1306740791 0.5839270353 4290473351
-0.2757407427 -0.1298532784 0.5831544995 4290933902
-0.2753750682 -0.1290340126 0.5823811293 4291329176
-0.2745897770 -0.1280208230 0.5807203650 4291658141
-0.2742232084 -0.1272055656 0.5799451470 4291529635
-0.2738562822 -0.1263918430 0.5791690946 4292187565
-0.2739083767 -0.1257722825 0.5792793036 4292845238
-0.2735407352 -0.1249606982 0.5785017610 4293108410
-0.2731726766 -0.1241506711 0.5777233839 4292913598
-0.2728042305 -0.1233421862 0.5769441724 4293703114
-0.2728551626 -0.1227240711 0.5770518780 4294170595
-0.2717165947 -0.1948167682 0.5759969950 4292924640
-0.2717928886 -0.1942313015 0.5761587024 4292784841
-0.2714607716 -0.1933545917 0.5754546523 4292126911
-0.2719448805 -0.1930589080 0.5764809251 4293567940
-0.2716121674 -0.1921829730 0.5757755637 4293896905
-0.2708704770 -0.1910202056 0.5742033124 4294159562
-0.2705368102 -0.1901477128 0.5734959841 4294159562
-0.2693851888 -0.1887037903 0.5710546970 4293898186
-0.2690504789 -0.1878356338 0.5703451633 4293766600
-0.2678973377 -0.1863995939 0.5679007173 4293569221
-0.2671524584 -0.1852521002 0.5663216710 4293569221
-0.2668161690 -0.1843904704 0.5656087995 4293765319
-0.2656607628 -0.1829663068 0.5631595850 4293699526
-0.2653234303 -0.1821090579 0.5624444485 4293895365
-0.2645761371 -0.1809729636 0.5608602762 4293566400
-0.2646475434 -0.1803984940 0.5610116720 4293498811
-0.2643089592 -0.1795451790 0.5602939129 4293301432
-0.2643798888 -0.1789706498 0.5604442954 4293169330
-0.2648606300 -0.1786722541 0.5614633560 4293169330
-0.2649312615 -0.1780959219 0.5616130829 4292775342
-0.2654119432 -0.1777939200 0.5626320243 4292643756
-0.2654823065 -0.1772157699 0.5627812147 4292577963
-0.2663733661 -0.1771831810 0.5646701455 4292577963
-0.2668541074 -0.1768744439 0.5656892657 4292314791
-0.2673348784 -0.1765634567 0.5667083859 4291985826
-0.2674049139 -0.1759798825 0.5668568611 4292248998
-0.2678856254 -0.1756652892 0.5678758621 4292248998
-0.2687773108 -0.1756169647 0.5697661042 4292246687
-0.2684359848 -0.1747616976 0.5690425634 4292115101
-0.2693278193 -0.1747079641 0.5709331632 4291918492
-0.2693972886 -0.1741185188 0.5710803866 4291852699
-0.2698779702 -0.1737935543 0.5720993876 4291459481
-0.2703586519 -0.1734663248 0.5731183290 4291393688
-0.2708393633 -0.1731368303 0.5741373301 4290803604
-0.2713200450 -0.1728050858 0.5751563311 4290277260
-0.2713889480 -0.1722097695 0.5753023624 4289620100
-0.2718695700 -0.1718744040 0.5763211846 4289159549
-0.2719381452 -0.1712772697 0.5764666200 4288764021
-0.2724186480 -0.1709382832 0.5774852037 4288500849
-0.2724869549 -0.1703393459 0.5776299834 4288304497
-0.2729673684 -0.1699967384 0.5786483884 4288501876
-0.2730353177 -0.1693959981 0.5787924528 4288701565
-0.2731030881 -0.1687947959 0.5789361000 4289293702
-0.2731706500 -0.1681931615 0.5790793300 4288905875
-0.2736507356 -0.1678442210 0.5800970197 4289629598
-0.2737179995 -0.1672407836 0.5802395940 4289699241
-0.2741979659 -0.1668882370 0.5812571049 4290291378
-0.2742649019 -0.1662829816 0.5813989639 4290359994
-0.2747447491 -0.1659268141 0.5824161768 4290820545
-0.2748113573 -0.1653197706 0.5825573802 4290953671
-0.2752910852 -0.1649599820 0.5835743546 4291282636
-0.2753573656 -0.1643511504 0.5837148428 4291546320
-0.2754234374 -0.1637418717 0.5838549137 4291677906
-0.2759029269 -0.1633771062 0.5848713517 4291875285
-0.2759686708 -0.1627660394 0.5850107074 4291941078
-0.2764480412 -0.1623976529 0.5860268474 4292269273
-0.2765134275 -0.1617847979 0.5861654878 4292466652
-0.2769926488 -0.1614127904 0.5871813893 4292990686
-0.2770577371 -0.1607981473 0.5873193145 4292990686
-0.2775368094 -0.1604225188 0.5883348584 4292664289
-0.2776015401 -0.1598060876 0.5884720683 4292730082
-0.2776660323 -0.1591892391 0.5886088610 4292861668
-0.2777303159 -0.1585719585 0.5887451172 4293059047
-0.2777943909 -0.1579542458 0.5888808966 4293256426
-0.2778582275 -0.1573361158 0.5890162587 4293453805
-0.2783138156 -0.1438283324 0.5899820328 4292730345
-0.2783725262 -0.1432030052 0.5901064873 4291611864
-0.2784309685 -0.1425772905 0.5902304053 4290559176
-0.2784892023 -0.1419511884 0.5903537869 4288388007
-0.2785471976 -0.1413246840 0.5904767513 4286018946
-0.2786049545 -0.1406977922 0.5905991793 4285295223
-0.2786624730 -0.1400705129 0.5907211304 4286210157
-0.2787197828 -0.1394428462 0.5908426046 4285815399
-0.2783595026 -0.1386069804 0.5900788903 4287256426
-0.2779988348 -0.1377726197 0.5893142819 4287980149
-0.2780552506 -0.1371456683 0.5894339085 4289289591
-0.2776938677 -0.1363133639 0.5886678100 4289355384
-0.2777497172 -0.1356866062 0.5887862444 4289814138
-0.2773875892 -0.1348563731 0.5880185962 4289682552
-0.2770250738 -0.1340276450 0.5872501135 4289815935
-0.2766621709 -0.1332004368 0.5864807963 4289750142
-0.2762988210 -0.1323747486 0.5857105851 4289619321
-0.2759351134 -0.1315505803 0.5849395394 4289750907
-0.2759891450 -0.1309263110 0.5850540996 4290275968
-0.2752064466 -0.1299068183 0.5833948851 4290670726
-0.2748415470 -0.1290872246 0.5826213360 4291327629
-0.2744762003 -0.1282691658 0.5818468928 4291788180
-0.2741104960 -0.1274526417 0.5810716748 4291462302
-0.2737443745 -0.1266376674 0.5802955627 4292054439
-0.2733778656 -0.1258242279 0.5795186162 4292253871
-0.2725922465 -0.1248205975 0.5778532028 4292648629
-0.2722248435 -0.1240112036 0.5770744085 4293438145
-0.2718570828 -0.1232033595 0.5762947798 4293635524
-0.2714889050 -0.1223970726 0.5755143166 4293573581
-0.2711203694 -0.1215923429 0.5747330189 4294957547
-0.2706995904 -0.1951847076 0.5751953125 4292854997
-0.2707758546 -0.1946004331 0.5753573775 4291078586
-0.2708519399 -0.1940156668 0.5755190253 4292190394
-0.2709278166 -0.1934304088 0.5756802559 4292848324
-0.2705959976 -0.1925546676 0.5749751925 4293765833
-0.2702637613 -0.1916801929 0.5742692947 4293897419
-0.2691156268 -0.1902305484 0.5718296170 4294159562
-0.2683744729 -0.1890730560 0.5702548027 4294159562
-0.2676326632 -0.1879186034 0.5686786175 4294028489
-0.2660740614 -0.1861960739 0.5653668046 4293896903
-0.2653307915 -0.1850495189 0.5637874007 4293830597
-0.2645868659 -0.1839060336 0.5622066855 4293764804
-0.2638423145 -0.1827656180 0.5606245995 4293961669
-0.2630971074 -0.1816282868 0.5590412021 4293764290
-0.2627599239 -0.1807751805 0.5583247542 4293632191
-0.2628311217 -0.1802036315 0.5584760308 4293237433
-0.2629021108 -0.1796316355 0.5586268306 4293039541
-0.2629728913 -0.1790591627 0.5587772727 4293039541
-0.2630435228 -0.1784862429 0.5589273572 4293104820
-0.2635231316 -0.1781895459 0.5599464774 4293039027
-0.2640028000 -0.1778905988 0.5609656572 4292644269
-0.2644824684 -0.1775894165 0.5619848967 4292775855
-0.2649621665 -0.1772859842 0.5630041957 4292644269
-0.2654418945 -0.1769803017 0.5640235543 4292315304
-0.2663314044 -0.1769445837 0.5659136176 4292248998
-0.2668112814 -0.1766335070 0.5669332743 4292314791
-0.2672911882 -0.1763201803 0.5679529905 4292248998
-0.2677711248 -0.1760046035 0.5689727664 4291920033
-0.2686612308 -0.1759553850 0.5708641410 4291198877
-0.2683207393 -0.1750989258 0.5701406598 4290540947
-0.2692109942 -0.1750443131 0.5720322728 4290537610
-0.2701014578 -0.1749856323 0.5739244223 4290340231
-0.2697603703 -0.1741278023 0.5731996298 4290141312
-0.2702402771 -0.1737995744 0.5742194057 4289614968
-0.2707202137 -0.1734690964 0.5752391219 4288828789
-0.2707892060 -0.1728740185 0.5753857493 4288894582
-0.2712690532 -0.1725399196 0.5764052868 4288506240
-0.2713377476 -0.1719430238 0.5765513182 4289164170
-0.2718174756 -0.1716053039 0.5775706768 4288972951
-0.2718859017 -0.1710066050 0.5777160525 4289828260
-0.2723655105 -0.1706652641 0.5787351727 4290290864
-0.2724336088 -0.1700647622 0.5788798928 4291080380
-0.2729131579 -0.1697197855 0.5798987746 4291607238
-0.2729809284 -0.1691174805 0.5800428391 4292133582
-0.2730485201 -0.1685147136 0.5801864266 4292592852
-0.2731159031 -0.1679115146 0.5803295970 4292987610
-0.2731830478 -0.1673078537 0.5804722905 4292793054
-0.2736621499 -0.1669552028 0.5814903378 4292924640
-0.2737289965 -0.1663497388 0.5816323757 4292728801
-0.2742079794 -0.1659934670 0.5826501250 4292794594
-0.2742744982 -0.1653862149 0.5827914476 4292730082
-0.2743408084 -0.1647785157 0.5829323530 4292861668
-0.2748195529 -0.1644172519 0.5839496255 4293125353
-0.2748855352 -0.1638077646 0.5840898752 4293256939
-0.2753641605 -0.1634428799 0.5851068497 4293191660
-0.2754298151 -0.1628316045 0.5852463245 4293257453
-0.2769403160 -0.1434562802 0.5884559155 4293256176
-0.2769987583 -0.1428326070 0.5885800719 4292466660
-0.2770569921 -0.1422085315 0.5887038112 4291545558
-0.2771149576 -0.1415840685 0.5888270140 4289834940
-0.2771727145 -0.1409592032 0.5889497399 4287532185
-0.2772302330 -0.1403339654 0.5890719295 4286150532
-0.2772875428 -0.1397083253 0.5891937017 4286540149
-0.2773445845 -0.1390822977 0.5893149376 4285882219
-0.2774014175 -0.1384558976 0.5894356966 4286731879
-0.2770414054 -0.1376221478 0.5886707306 4286666086
-0.2770976722 -0.1369959116 0.5887902975 4287778407
-0.2771537304 -0.1363693029 0.5889093280 4288502130
-0.2772095203 -0.1357423067 0.5890279412 4289421692
-0.2768481672 -0.1349117607 0.5882600546 4289619071
-0.2769033909 -0.1342849433 0.5883774757 4289750655
-0.2765413225 -0.1334564835 0.5876080990 4289750655
-0.2761788368 -0.1326295286 0.5868378282 4289619580
-0.2758159339 -0.1318040937 0.5860667825 4289685373
-0.2754526436 -0.1309801787 0.5852948427 4290013566
-0.2750889361 -0.1301577985 0.5845220685 4290276738
-0.2747248709 -0.1293369383 0.5837484002 4290736262
-0.2743603885 -0.1285176277 0.5829739571 4291065227
-0.2735778093 -0.1275051683 0.5813111067 4291066004
-0.2732124627 -0.1266898811 0.5805347562 4291658141
-0.2728466988 -0.1258761138 0.5797576308 4291989159
-0.2720626295 -0.1248720959 0.5780915618 4292581296
-0.2712780237 -0.1238715202 0.5764244199 4293174203
-0.2709109187 -0.1230643168 0.5756443739 4293437375
-0.2705434263 -0.1222586632 0.5748634934 4293308356
-0.2701755464 -0.1214545742 0.5740818381 4294295251
-0.2698072791 -0.1206520498 0.5732993484 4294434280
-0.2692013085 -0.1958376616 0.5733648539 4294895350
-0.2692776322 -0.1952559501 0.5735273957 4292658388
-0.2693537474 -0.1946737468 0.5736895204 4291666360
-0.2694297135 -0.1940910369 0.5738512874 4291929532
-0.2690989673 -0.1932159811 0.5731468797 4293307335
-0.2687678039 -0.1923421919 0.5724415779 4293570507
-0.2684362531 -0.1914696693 0.5717353821 4293897932
-0.2681042850 -0.1905984282 0.5710282922 4293832139
-0.2669579983 -0.1891517788 0.5685868859 4294028489
-0.2658108473 -0.1877099425 0.5661435723 4294028489
-0.2650700212 -0.1865595132 0.5645657182 4294159048
-0.2639212608 -0.1851264536 0.5621190071 4293961669
-0.2627716362 -0.1836982220 0.5596704483 4293960643
-0.2620286942 -0.1825587600 0.5580880642 4293763264
-0.2616927028 -0.1817054003 0.5573724508 4293894335
-0.2613563240 -0.1808533520 0.5566560030 4293894335
-0.2614273727 -0.1802838743 0.5568073988 4293631678
-0.2614982724 -0.1797139198 0.5569583178 4293434299
-0.2615689337 -0.1791435182 0.5571088791 4293105847
-0.2620476186 -0.1788512319 0.5581283569 4292974261
-0.2621180415 -0.1782789975 0.5582783818 4292974261
-0.2630050480 -0.1782599241 0.5601676106 4292645296
-0.2630753219 -0.1776849926 0.5603172779 4292578990
-0.2639625967 -0.1776596308 0.5622071028 4292578990
-0.2648501396 -0.1776302308 0.5640974045 4292447404
-0.2645114362 -0.1767771244 0.5633760095 4292250025
-0.2653991282 -0.1767423302 0.5652667284 4292250025
-0.2662870586 -0.1767034978 0.5671578646 4292184232
-0.2667661011 -0.1763900667 0.5681781173 4291329436
-0.2672451138 -0.1760744005 0.5691984296 4290605713
-0.2677241862 -0.1757564694 0.5702187419 4289226629
-0.2682032585 -0.1754362881 0.5712391138 4288634492
-0.2686823308 -0.1751138419 0.5722594857 4288175481
-0.2695711255 -0.1750551909 0.5741525292 4288833411
-0.2692307532 -0.1741970479 0.5734275579 4289362065
-0.2701196671 -0.1741329581 0.5753208399 4290217374
-0.2705987990 -0.1738014817 0.5763413310 4290746539
-0.2710779309 -0.1734677255 0.5773618221 4291536055
-0.2707366645 -0.1726086587 0.5766350031 4291737284
-0.2712156177 -0.1722721905 0.5776550770 4292526800
-0.2712841630 -0.1716737449 0.5778010488 4292530393
-0.2713524699 -0.1710748523 0.5779465437 4292727772
-0.2718312144 -0.1707334071 0.5789662004 4292467423
-0.2718992531 -0.1701326966 0.5791110992 4292599009
-0.2719670534 -0.1695315242 0.5792555213 4292796388
-0.2720346749 -0.1689299196 0.5793995261 4292927974
-0.2721020579 -0.1683278531 0.5795431137 4293582570
-0.2725803852 -0.1679787189 0.5805618763 4293779949
-0.2760426998 -0.1426763237 0.5879361033 4293124590
-0.2761007547 -0.1420529634 0.5880597830 4292400867
-0.2761586010 -0.1414292008 0.5881829858 4291348179
-0.2762161791 -0.1408050507 0.5883056521 4289571768
-0.2762735784 -0.1401805133 0.5884278417 4287861150
-0.2763307095 -0.1395555884 0.5885495543 4287922316
-0.2763876021 -0.1389302760 0.5886707902 4286343284
-0.2760285735 -0.1380966008 0.5879060626 4286405483
-0.2760849297 -0.1374714524 0.5880261064 4286208104
-0.2761410773 -0.1368459314 0.5881456733 4286795362
-0.2761969566 -0.1362200230 0.5882647038 4287058534
-0.2762526274 -0.1355937272 0.5883832574 4288174192
-0.2763080299 -0.1349670738 0.5885012746 4288897915
-0.2763632238 -0.1343400329 0.5886188149 4289489023
-0.2760019004 -0.1335112453 0.5878491998 4289489023
-0.2756401598 -0.1326839775 0.5870787501 4289619580
-0.2752780020 -0.1318582147 0.5863074660 4289619580
-0.2753320038 -0.1312325299 0.5864224434 4289750394
-0.2745525241 -0.1302112937 0.5847622752 4289881980
-0.2741892040 -0.1293901205 0.5839884281 4290341761
-0.2738254666 -0.1285704821 0.5832137465 4290604933
-0.2734613419 -0.1277523786 0.5824381709 4291195793
-0.2726798654 -0.1267420202 0.5807737708 4291590551
-0.2723148763 -0.1259279549 0.5799963474 4291790497
-0.2715323865 -0.1249235347 0.5783297420 4292448427
-0.2707493305 -0.1239225715 0.5766619444 4292909748
-0.2703830004 -0.1231150478 0.5758816600 4293501885
-0.2695989311 -0.1221200451 0.5742117167 4293635524
-0.2692317367 -0.1213165969 0.5734296441 4293832903
-0.2692816257 -0.1207018420 0.5735359192 4293444818
-0.2684961557 -0.1197143868 0.5718629956 4294958571
-0.2673774064 -0.1956062764 0.5708305240 4294042610
-0.2678587139 -0.1953230053 0.5718580484 4292852944
-0.2679347098 -0.1947428584 0.5720202923 4291010740
-0.2676050365 -0.1938684881 0.5713164806 4292387003
-0.2676805556 -0.1932882369 0.5714777112 4293242312
-0.2677558959 -0.1927074939 0.5716385245 4293504457
-0.2670194209 -0.1915440708 0.5700662136 4293965008
-0.2666882277 -0.1906738877 0.5693591833 4293701836
-0.2655445635 -0.1892263293 0.5669175386 4293570250
-0.2648061812 -0.1880720258 0.5653411150 4293831626
-0.2636609077 -0.1866331995 0.5628960729 4293831626
-0.2625147700 -0.1851992011 0.5604491234 4294027462
-0.2613677680 -0.1837700456 0.5580003858 4293830083
-0.2598133385 -0.1820608079 0.5546817780 4293632191
-0.2606980503 -0.1820623726 0.5565705895 4293500605
-0.2595489323 -0.1806442142 0.5541173220 4293631933
-0.2596197724 -0.1800776720 0.5542685390 4293631933
-0.2600974441 -0.1797920316 0.5552883148 4293171640
-0.2597608566 -0.1789432019 0.5545697808 4292908468
-0.2602383792 -0.1786548644 0.5555892587 4292645296
-0.2611233294 -0.1786429733 0.5574784875 4292579503
-0.2607860863 -0.1777936518 0.5567585230 4292710576
-0.2620787621 -0.1780533046 0.5595183372 4292447404
-0.2625565231 -0.1777550876 0.5605382919 4292381097
-0.2634421289 -0.1777297556 0.5624290109 4292249511
-0.2639200687 -0.1774261594 0.5634493232 4291987368
-0.2648060322 -0.1773936450 0.5653408170 4291461024
-0.2652841210 -0.1770846397 0.5663614869 4290147218
-0.2661704719 -0.1770449281 0.5682538152 4289423495
-0.2658320069 -0.1761892438 0.5675312281 4288833154
-0.2671269476 -0.1764138639 0.5702958107 4289162119
-0.2676052451 -0.1760949492 0.5713168979 4289821076
-0.2676748633 -0.1755058318 0.5714655519 4290807971
-0.2685618401 -0.1754503399 0.5733591318 4290880694
-0.2690401375 -0.1751246452 0.5743803382 4291867589
-0.2695184648 -0.1747966856 0.5754015446 4291545297
-0.2695877254 -0.1742021292 0.5755493641 4292137434
-0.2700659633 -0.1738705486 0.5765703917 4292335326
-0.2705442309 -0.1735367030 0.5775914192 4292466912
-0.2710224688 -0.1732005924 0.5786124468 4292925921
-0.2710912228 -0.1726014912 0.5787592530 4293320679
-0.2711597979 -0.1720019281 0.5789055824 4293714667
-0.2708184421 -0.1711430103 0.5781768560 4293780460
-0.2747311294 -0.1416834593 0.5865301490 4292993004
-0.2747887075 -0.1410613507 0.5866531134 4292400867
-0.2748460770 -0.1404388398 0.5867755413 4291413459
-0.2749032080 -0.1398159564 0.5868975520 4289966013
-0.2749601305 -0.1391926706 0.5870190263 4289831340
-0.2750167847 -0.1385690123 0.5871400237 4287923343
-0.2750732303 -0.1379449517 0.5872604847 4287525762
-0.2747144699 -0.1371134073 0.5864945650 4286999418
-0.2747703493 -0.1364895254 0.5866138935 4286864237
-0.2748260200 -0.1358652711 0.5867327452 4286403686
-0.2752966583 -0.1354449391 0.5877375603 4286926948
-0.2753519416 -0.1348189861 0.5878555775 4287453292
-0.2754069865 -0.1341926455 0.5879730582 4288503668
-0.2754617929 -0.1335659474 0.5880900621 4288766840
-0.2751007974 -0.1327383518 0.5873193741 4289291642
-0.2751550674 -0.1321118474 0.5874352455 4289423228
-0.2747933567 -0.1312863678 0.5866630077 4289750907
-0.2744312584 -0.1304623932 0.5858899355 4289750907
-0.2740687728 -0.1296399534 0.5851160288 4290013566
-0.2732898891 -0.1286232919 0.5834532380 4290276738
-0.2729265392 -0.1278048605 0.5826774836 4290669449
-0.2725627720 -0.1269879937 0.5819008350 4291064207
-0.2717823982 -0.1259797364 0.5802348256 4291329689
-0.2710014582 -0.1249749213 0.5785676241 4291921826
-0.2702199817 -0.1239735559 0.5768992305 4292448427
-0.2702708542 -0.1233557984 0.5770078301 4293172150
-0.2690719366 -0.1221703291 0.5744481683 4293634754
-0.2687054873 -0.1213665679 0.5736658573 4293832133
-0.2683386505 -0.1205643713 0.5728827119 4292981444
-0.2679714262 -0.1197637394 0.5720987320 4294363097
-0.2680206597 -0.1191499755 0.5722038150 4294896371
-0.2671751976 -0.1965581775 0.5717545748 4294631924
-0.2664428353 -0.1953858733 0.5701873302 4292329169
-0.2665186822 -0.1948077977 0.5703496337 4291929021
-0.2665943801 -0.1942292303 0.5705115795 4291929021
-0.2662651837 -0.1933563054 0.5698071718 4293043652
-0.2663403749 -0.1927776337 0.5699680448 4293438410
-0.2660104930 -0.1919063777 0.5692620873 4293701066
-0.2660852075 -0.1913276017 0.5694220066 4294095824
-0.2653495073 -0.1901676804 0.5678476095 4293636043
-0.2633974850 -0.1881424487 0.5636702776 4293504457
-0.2622548342 -0.1867026985 0.5612249970 4293634247
-0.2607058883 -0.1849800944 0.5579102039 4293568454
-0.2599669695 -0.1838376820 0.5563289523 4293829829
-0.2592274249 -0.1826983541 0.5547463298 4293566657
-0.2584872246 -0.1815620810 0.5531623363 4293369532
-0.2581523359 -0.1807130426 0.5524456501 4293237946
-0.2582230270 -0.1801485568 0.5525969267 4293172153
-0.2582935393 -0.1795836091 0.5527478456 4293172153
-0.2587701082 -0.1792996824 0.5537676811 4292843188
-0.2592467070 -0.1790135056 0.5547876358 4292711602
-0.2597233653 -0.1787250936 0.5558076501 4292842162
-0.2606065869 -0.1787132323 0.5576977730 4292710576
-0.2610834241 -0.1784194410 0.5587181449 4292907187
-0.2615602612 -0.1781233996 0.5597385764 4292709808
-0.2624440193 -0.1781012267 0.5616298318 4291526817
-0.2629210353 -0.1777998060 0.5626506805 4290539922
-0.2638051808 -0.1777704507 0.5645427108 4289555081
-0.2642823458 -0.1774636209 0.5655638576 4289620874
-0.2651668787 -0.1774270833 0.5674567223 4289493651
-0.2660516202 -0.1773865074 0.5693501234 4290414753
-0.2657140195 -0.1765296161 0.5686275959 4291075252
-0.2665989101 -0.1764836162 0.5705212951 4292193733
-0.2674840391 -0.1764335632 0.5724154711 4292591825
-0.2671458423 -0.1755752861 0.5716916919 4293183962
-0.2676231563 -0.1752526611 0.5727131367 4293186785
-0.2685085237 -0.1751940250 0.5746079087 4293318371
-0.2685777843 -0.1746006310 0.5747560859 4293255145
-0.2734214365 -0.1406930685 0.5851215124 4293256174
-0.2734785676 -0.1400722116 0.5852437615 4292598244
-0.2735354602 -0.1394509822 0.5853655338 4291545556
-0.2740060389 -0.1390393823 0.5863725543 4291739337
-0.2740625441 -0.1384164244 0.5864934921 4290555063
-0.2737047672 -0.1375849396 0.5857278109 4289764520
-0.2737607360 -0.1369621456 0.5858476162 4288119695
-0.2742307484 -0.1365452558 0.5868533850 4287261562
-0.2742863297 -0.1359207630 0.5869723558 4286801011
-0.2743417025 -0.1352958977 0.5870908499 4286666343
-0.2743968368 -0.1346706599 0.5872088075 4286139999
-0.2744517326 -0.1340450346 0.5873262882 4287058532
-0.2745063901 -0.1334190518 0.5874432921 4287519083
-0.2745608091 -0.1327926815 0.5875597596 4288634997
-0.2742001712 -0.1319662929 0.5867879987 4289161341
-0.2738391459 -0.1311414391 0.5860154033 4289816959
-0.2738927007 -0.1305158436 0.5861300230 4289882752
-0.2735309601 -0.1296931058 0.5853558779 4290013566
-0.2727536857 -0.1286760271 0.5836924911 4289947773
-0.2723910511 -0.1278572977 0.5829164982 4290078339
-0.2720280588 -0.1270401031 0.5821396112 4290473097
-0.2720800340 -0.1264174581 0.5822508931 4290934418
-0.2713008523 -0.1254103482 0.5805833936 4291723934
-0.2705211043 -0.1244066954 0.5789147615 4292185255
-0.2697408199 -0.1234064922 0.5772449374 4292777392
-0.2689599693 -0.1224097610 0.5755739808 4293370812
-0.2681785822 -0.1214164868 0.5739018321 4293765570
-0.2678125203 -0.1206139773 0.5731184483 4293242563
-0.2674460709 -0.1198130324 0.5723342299 4293768907
-0.2670792341 -0.1190136597 0.5715491772 4294104802
-0.2654334307 -0.1957420260 0.5693805218 4292654284
-0.2655092478 -0.1951651275 0.5695431232 4291075252
-0.2651812732 -0.1942920238 0.5688396096 4291927224
-0.2652566433 -0.1937150359 0.5690012574 4292716740
-0.2649279535 -0.1928435713 0.5682961941 4293108418
-0.2645988464 -0.1919733882 0.5675902367 4293503176
-0.2638652623 -0.1908122748 0.5660166144 4293897932
-0.2639394104 -0.1902368367 0.5661756992 4293371588
-0.2636091113 -0.1893704832 0.5654671192 4293634760
-0.2624695301 -0.1879262775 0.5630226135 4293503174
-0.2613290846 -0.1864868850 0.5605762601 4293436868
-0.2597831488 -0.1847645342 0.5572600961 4293305282
-0.2586408854 -0.1833356917 0.5548098087 4293566657
-0.2570928931 -0.1816256791 0.5514892340 4293369278
-0.2571637630 -0.1810628176 0.5516412258 4293106106
-0.2572344542 -0.1804995090 0.5517928600 4292974520
-0.2573049366 -0.1799357384 0.5519440770 4292646838
-0.2573752701 -0.1793714911 0.5520949364 4292712631
-0.2578508258 -0.1790883839 0.5531150699 4292646325
-0.2587319613 -0.1790837198 0.5550051928 4292646325
-0.2592077255 -0.1787952185 0.5560257435 4292514739
-0.2600892484 -0.1787834018 0.5579167008 4291856809
-0.2605651915 -0.1784895360 0.5589376092 4290935707
-0.2614471018 -0.1784705371 0.5608294606 4290343570
-0.2619231939 -0.1781712770 0.5618507266 4289556107
-0.2628055215 -0.1781450957 0.5637433529 4290082451
-0.2632817626 -0.1778404415 0.5647649765 4290546852
-0.2641644776 -0.1778070778 0.5666584373 4291862712
-0.2646408677 -0.1774970144 0.5676803589 4292327626
-0.2651173174 -0.1771846861 0.5687023997 4293314521
-0.2655937672 -0.1768701226 0.5697244406 4293382883
-0.2660702467 -0.1765532792 0.5707464814 4293777641
-0.2669536769 -0.1765032411 0.5726415515 4293519085
-0.2721136510 -0.1397051811 0.5837101936 4293322221
-0.2725833058 -0.1392966509 0.5847176909 4292664291
-0.2726398408 -0.1386757344 0.5848389268 4292990174
-0.2726961076 -0.1380544305 0.5849596858 4292134865
-0.2727521658 -0.1374327391 0.5850799084 4291345349
-0.2728079855 -0.1368106753 0.5851996541 4289832110
-0.2728635967 -0.1361882240 0.5853189230 4288645526
-0.2733324766 -0.1357707977 0.5863246918 4287724424
-0.2733877003 -0.1351466328 0.5864431262 4287063926
-0.2734426558 -0.1345221102 0.5865610838 4286208617
-0.2734974325 -0.1338972002 0.5866785049 4286534500
-0.2731381059 -0.1330702901 0.5859077573 4286666086
-0.2731922865 -0.1324455887 0.5860239863 4287518570
-0.2732462585 -0.1318205148 0.5861397982 4288044914
-0.2732999921 -0.1311950535 0.5862550139 4289029242
-0.2729393244 -0.1303714067 0.5854813457 4289424000
-0.2725782394 -0.1295492947 0.5847068429 4289948032
-0.2726311088 -0.1289246380 0.5848202109 4289882239
-0.2722693384 -0.1281046420 0.5840441585 4290013829
-0.2719071805 -0.1272861809 0.5832672715 4290211208
-0.2715446055 -0.1264692694 0.5824895501 4290867855
-0.2707669735 -0.1254617721 0.5808214545 4291591578
-0.2699888051 -0.1244577244 0.5791522264 4292250278
-0.2696249187 -0.1236473620 0.5783716440 4292776622
-0.2688457370 -0.1226492822 0.5767002106 4293041334
-0.2680660188 -0.1216546670 0.5750276446 4293633471
-0.2672857344 -0.1206635237 0.5733538866 4293766597
-0.2669200301 -0.1198622733 0.5725694299 4293766597
-0.2661387622 -0.1188771278 0.5708935261 4293772500
-0.2657722235 -0.1180799752 0.5701072216 4294958830
-0.2640227675 -0.1957974881 0.5677070618 4291740625
-0.2636958659 -0.1949250698 0.5670041442 4290810026
-0.2633685470 -0.1940539181 0.5663003325 4290941612
-0.2634436488 -0.1934798658 0.5664618015 4291991477
-0.2635185719 -0.1929053366 0.5666229129 4292715200
-0.2635932863 -0.1923303008 0.5667836070 4293502663
-0.2632646859 -0.1914615780 0.5660769939 4293502663
-0.2621291280 -0.1900094897 0.5636352897 4293502147
-0.2613960803 -0.1888536364 0.5620590448 4293436354
-0.2602588832 -0.1874102801 0.5596138835 4293305282
-0.2587172389 -0.1856820583 0.5562989712 4293239489
-0.2571744919 -0.1839604229 0.5529817939 4293239489
-0.2576498985 -0.1836849451 0.5540039539 4293107903
-0.2565095127 -0.1822591275 0.5515518785 4293106876
-0.2561764121 -0.1814104319 0.5508356690 4292975290
-0.2558428943 -0.1805630326 0.5501185060 4293105336
-0.2559132874 -0.1800013185 0.5502698421 4292973750
-0.2563878894 -0.1797226071 0.5512903333 4292515252
-0.2564580142 -0.1791590750 0.5514411330 4292449459
-0.2573371828 -0.1791584641 0.5533315539 4291923629
-0.2578119040 -0.1788730323 0.5543522835 4291068320
-0.2586914897 -0.1788652688 0.5562435985 4290082451
-0.2595713139 -0.1788534820 0.5581354499 4289687693
-0.2604514062 -0.1788376719 0.5600278378 4289558674
-0.2609265745 -0.1785405725 0.5610495210 4290348190
-0.2618070543 -0.1785175800 0.5629427433 4291470521
-0.2622823715 -0.1782150865 0.5639648438 4292589002
-0.2635687292 -0.1784594506 0.5667307377 4293118939
-0.2632331252 -0.1776033491 0.5660091639 4293776869
-0.2641142607 -0.1775668561 0.5679037571 4293647850
-0.2645897865 -0.1772544533 0.5689262748 4294042608
-0.2712199688 -0.1389309466 0.5831825733 4293388525
-0.2712762356 -0.1383116692 0.5833035707 4293912046
-0.2717446387 -0.1379012913 0.5843107700 4293056737
-0.2718005478 -0.1372803152 0.5844309926 4292530393
-0.2718562186 -0.1366589516 0.5845506787 4291806670
-0.2719116807 -0.1360372156 0.5846699476 4290752442
-0.2719669044 -0.1354150921 0.5847886205 4289436582
-0.2724346519 -0.1349971443 0.5857944489 4288512912
-0.2724894881 -0.1343733221 0.5859123468 4287460224
-0.2725440860 -0.1337491274 0.5860297680 4287194483
-0.2721854448 -0.1329228580 0.5852586031 4286799725
-0.2722395062 -0.1322988719 0.5853748322 4286928488
-0.2722933292 -0.1316744983 0.5854905248 4286862695
-0.2727601826 -0.1312486231 0.5864943862 4287846508
-0.2728136182 -0.1306225806 0.5866093040 4288636024
-0.2720399499 -0.1296022236 0.5849457383 4289751936
-0.2716792524 -0.1287813336 0.5841701627 4289883522
-0.2717317343 -0.1281570345 0.5842829943 4289883783
-0.2713703215 -0.1273382604 0.5835058689 4289883783
-0.2710084915 -0.1265210211 0.5827279091 4290670219
-0.2702324688 -0.1255131364 0.5810592771 4291196563
-0.2698698044 -0.1246999502 0.5802794099 4291986336
-0.2690927386 -0.1236980185 0.5786085725 4292710059
-0.2683151364 -0.1226995513 0.5769365430 4292778162
-0.2675369978 -0.1217045486 0.5752633810 4293436092
-0.2671725154 -0.1209004596 0.5744796991 4293831363
-0.2663933635 -0.1199114546 0.5728043318 4294094535
-0.2656136751 -0.1189259216 0.5711278319 4293638347
-0.2652478814 -0.1181284562 0.5703413486 4294954464
-0.2626152039 -0.1958487630 0.5660322309 4293187301
-0.2626907527 -0.1952760071 0.5661950707 4289239721
-0.2627660930 -0.1947027743 0.5663574934 4289624469
-0.2628412843 -0.1941290349 0.5665195584 4290348192
-0.2629162967 -0.1935548037 0.5666812062 4291596719
-0.2625889778 -0.1926850080 0.5659757257 4292254649
-0.2622612715 -0.1918164790 0.5652693510 4292843963
-0.2623355091 -0.1912425309 0.5654293895 4293041342
-0.2607996762 -0.1894983649 0.5621191263 4293304255
-0.2596653402 -0.1880523264 0.5596742034 4293106876
-0.2581274509 -0.1863204241 0.5563595295 4293042110
-0.2569912970 -0.1848848909 0.5539106727 4293042110
-0.2558543086 -0.1834541857 0.5514600277 4292911550
-0.2551194727 -0.1823163480 0.5498761535 4292779964
-0.2547871470 -0.1814687103 0.5491599441 4292646838
-0.2548576891 -0.1809086204 0.5493119359 4292646838
-0.2549280524 -0.1803480685 0.5494636297 4293039543
-0.2554017007 -0.1800715327 0.5504845381 4293039543
-0.2554718256 -0.1795091629 0.5506356359 4292316590
-0.2563491464 -0.1795117408 0.5525265932 4291198109
-0.2568229437 -0.1792284697 0.5535477996 4290015632
-0.2577006519 -0.1792238802 0.5554395914 4289884046
-0.2581746280 -0.1789352447 0.5564611554 4290216347
-0.2590527534 -0.1789234877 0.5583539009 4291598000
-0.2599311471 -0.1789076924 0.5602471232 4292194244
-0.2608097792 -0.1788878739 0.5621408820 4293312725
-0.2612842023 -0.1785875559 0.5631634593 4293383651
-0.2617586255 -0.1782849878 0.5641860366 4294041581
-0.2704382837 -0.1369192451 0.5828938484 4293452011
-0.2704937160 -0.1362995505 0.5830133557 4292794081
-0.2705489397 -0.1356794685 0.5831323862 4292069329
-0.2706039250 -0.1350590140 0.5832508802 4291279813
-0.2710706294 -0.1346427947 0.5842568278 4290290863
-0.2711252570 -0.1340206414 0.5843744874 4288580245
-0.2711796165 -0.1333981007 0.5844917297 4287788160
-0.2708215415 -0.1325734109 0.5837199688 4287196023
-0.2708753943 -0.1319510788 0.5838359594 4286864235
-0.2709289789 -0.1313283741 0.5839514732 4286403684
-0.2713947892 -0.1309042424 0.5849555135 4287123814
-0.2714480162 -0.1302798539 0.5850701928 4287979123
-0.2715010047 -0.1296551079 0.5851843953 4289489023
-0.2711410522 -0.1288338900 0.5844085813 4289883781
-0.2707806826 -0.1280142069 0.5836318731 4289622151
-0.2708328068 -0.1273902655 0.5837442279 4289556358
-0.2704717517 -0.1265727282 0.5829660296 4290670219
-0.2696973085 -0.1255644411 0.5812968016 4291064977
-0.2693353891 -0.1247509420 0.5805166960 4291920543
-0.2689730823 -0.1239390001 0.5797358155 4292775852
-0.2681971490 -0.1229391918 0.5780633688 4292712882
-0.2674206495 -0.1219428405 0.5763897300 4293370812
-0.2666436136 -0.1209499687 0.5747149587 4293633471
-0.2658660412 -0.1199605763 0.5730389953 4294291401
-0.2650879323 -0.1189746633 0.5713618994 4293505735
-0.2643092871 -0.1179922372 0.5696836114 4294361044
-0.2639438212 -0.1171969995 0.5688958764 4294830578
-0.2616868615 -0.1956247389 0.5653848052 4291868620
-0.2617621720 -0.1950526834 0.5655475259 4288513177
-0.2618373334 -0.1944801360 0.5657098889 4289426579
-0.2619122863 -0.1939070970 0.5658718944 4289887130
-0.2615858912 -0.1930374950 0.5651666522 4291332266
-0.2612590790 -0.1921691746 0.5644605756 4292055989
-0.2613332868 -0.1915964186 0.5646208525 4293040315
-0.2606042027 -0.1904363185 0.5630456805 4293369280
-0.2602761686 -0.1895717978 0.5623369217 4293171901
-0.2591441870 -0.1881252378 0.5598912239 4293106108
-0.2580113113 -0.1866834909 0.5574436784 4292581045
-0.2564756274 -0.1849566549 0.5541257262 4292646838
-0.2553409338 -0.1835254431 0.5516741872 4292319413
-0.2546076477 -0.1823871881 0.5500898957 4292450999
-0.2538737059 -0.1812520176 0.5485041738 4292320181
-0.2539440393 -0.1806926429 0.5486561656 4292254388
-0.2540142238 -0.1801328063 0.5488077402 4291990446
-0.2540841997 -0.1795724928 0.5489589572 4291135137
-0.2545567751 -0.1792954206 0.5499799848 4289493135
-0.2550294101 -0.1790161133 0.5510011315 4289427342
-0.2559050620 -0.1790164709 0.5528930426 4289890460
-0.2567809820 -0.1790128201 0.5547854900 4291666871
-0.2576571703 -0.1790051311 0.5566784739 4292657359
-0.2581302822 -0.1787141562 0.5577006340 4293446875
-0.2594102621 -0.1789776385 0.5604661703 4293515235
-0.2610943019 -0.1795127541 0.5641045570 4293844200
-0.2695447206 -0.1361472756 0.5823620558 4293452264
-0.2695997953 -0.1355279088 0.5824810266 4292858845
-0.2696546316 -0.1349081695 0.5825994611 4292332501
-0.2697092295 -0.1342880577 0.5827174783 4291345095
-0.2697636187 -0.1336675584 0.5828349590 4290029235
-0.2702290714 -0.1332494915 0.5838406086 4289172897
-0.2698716819 -0.1324254423 0.5830684304 4287922830
-0.2703368366 -0.1320047379 0.5840734243 4287261816
-0.2703903615 -0.1313818097 0.5841890574 4286669679
-0.2704436779 -0.1307584941 0.5843042135 4286862693
-0.2700850368 -0.1299367547 0.5835293531 4286599521
-0.2701377869 -0.1293136626 0.5836433768 4287846510
-0.2701902986 -0.1286902130 0.5837568045 4288767612
-0.2698306441 -0.1278711706 0.5829797387 4289949574
-0.2698826194 -0.1272479445 0.5830920339 4290015367
-0.2695222497 -0.1264310479 0.5823134780 4289949061
-0.2691614628 -0.1256156862 0.5815340281 4290672784
-0.2688003182 -0.1248018742 0.5807537436 4291789211
-0.2684387863 -0.1239896193 0.5799725652 4292578727
-0.2676644027 -0.1229894161 0.5782995224 4293170864
-0.2673020065 -0.1221812367 0.5775165558 4294091966
-0.2661140561 -0.1209994256 0.5749499202 4293699777
-0.2653380632 -0.1200096458 0.5732734203 4294160328
-0.2645615637 -0.1190233454 0.5715956688 4293833673
-0.2637844980 -0.1180405393 0.5699167848 4293965259
-0.2630068958 -0.1170612201 0.5682367682 4294695912
-0.2602843940 -0.1956706792 0.5637074113 4292994542
-0.2603595555 -0.1951006949 0.5638701916 4290683830
-0.2604345679 -0.1945302188 0.5640326738 4288249489
-0.2605094016 -0.1939592510 0.5641946793 4290017687
-0.2605840564 -0.1933877766 0.5643563867 4290017687
-0.2606585026 -0.1928158253 0.5645176768 4290806176
-0.2599317729 -0.1916527748 0.5629437566 4291529899
-0.2592044175 -0.1904927641 0.5613684654 4292383412
-0.2584764361 -0.1893357784 0.5597918630 4292778170
-0.2577477992 -0.1881818324 0.5582138300 4292842934
-0.2562166154 -0.1864473820 0.5548976660 4292908727
-0.2550854087 -0.1850104183 0.5524477959 4292646325
-0.2539533675 -0.1835782677 0.5499960780 4292646325
-0.2536230683 -0.1827292144 0.5492807627 4292450227
-0.2528909743 -0.1815932244 0.5476952195 4292581813
-0.2529613078 -0.1810350269 0.5478475094 4292187825
-0.2530314326 -0.1804763526 0.5479994416 4291200930
-0.2535031438 -0.1802028120 0.5490210652 4290083732
-0.2539749146 -0.1799270213 0.5500427485 4289688974
-0.2544467151 -0.1796489954 0.5510645509 4290219425
-0.2553206384 -0.1796516329 0.5529571772 4291798457
-0.2561948001 -0.1796502471 0.5548504591 4293050834
-0.2570692301 -0.1796448380 0.5567442179 4293906143
-0.2579439282 -0.1796354055 0.5586385727 4293908966
-0.2588188648 -0.1796219349 0.5605334640 4294303724
-0.2682414949 -0.1351694465 0.5809403658 4293846253
-0.2682960927 -0.1345513612 0.5810586214 4293517288
-0.2683504522 -0.1339329034 0.5811764002 4292727774
-0.2688150108 -0.1335179210 0.5821824670 4291740879
-0.2688690126 -0.1328977644 0.5822994113 4290818237
-0.2689227760 -0.1322772354 0.5824158788 4289568170
-0.2685656846 -0.1314553320 0.5816425085 4288512399
-0.2690296173 -0.1310350597 0.5826473236 4287393918
-0.2690826952 -0.1304134279 0.5827622414 4287324016
-0.2687246501 -0.1295932680 0.5819867849 4286797672
-0.2687771916 -0.1289718449 0.5821005702 4287321191
-0.2688294947 -0.1283500642 0.5822138786 4287584363
-0.2688815594 -0.1277279109 0.5823265910 4289358207
-0.2689333856 -0.1271054000 0.5824388862 4289884551
-0.2685737014 -0.1262891442 0.5816598535 4290146440
-0.2686249912 -0.1256668717 0.5817709565 4290672784
-0.2682645917 -0.1248527467 0.5809904337 4291986590
-0.2679038048 -0.1240401790 0.5802090764 4292907692
-0.2671310306 -0.1230395883 0.5785354376 4293433782
-0.2667694092 -0.1222310960 0.5777522326 4294289091
-0.2659956217 -0.1212364957 0.5760764480 4293830850
-0.2648094594 -0.1200586557 0.5735074878 4294225608
-0.2636226118 -0.1188862100 0.5709370971 4293898696
-0.2628470659 -0.1179039776 0.5692574978 4293898696
-0.2616589069 -0.1167413890 0.5666842461 4294168541
-0.2589600384 -0.1951445043 0.5621915460 4292336355
-0.2590349019 -0.1945760846 0.5623540282 4289564836
-0.2591095865 -0.1940071881 0.5625161529 4288183183
-0.2595834434 -0.1937358528 0.5635449290 4290016660
-0.2592584193 -0.1928679198 0.5628392696 4290082453
-0.2589329779 -0.1920012534 0.5621327758 4290674590
-0.2590068281 -0.1914312690 0.5622931123 4291398313
-0.2578810751 -0.1899771839 0.5598490834 4291727276
-0.2567544281 -0.1885278970 0.5574032664 4291858862
-0.2560270131 -0.1873762012 0.5558240414 4292252594
-0.2544986308 -0.1856437624 0.5525059700 4292515766
-0.2533694208 -0.1842089295 0.5500545502 4292712116
-0.2526397705 -0.1830690503 0.5484704971 4292909495
-0.2523099780 -0.1822214723 0.5477545261 4292647606
-0.2523804009 -0.1816635728 0.5479073524 4291858090
-0.2520498931 -0.1808177233 0.5471898913 4290347673
-0.2529214919 -0.1808329225 0.5490821004 4289689743
-0.2525905669 -0.1799870282 0.5483636260 4290218140
-0.2534623444 -0.1799968630 0.5502562523 4291994551
-0.2539332509 -0.1797187626 0.5512785912 4292591565
-0.2548054755 -0.1797214448 0.5531721115 4293644253
-0.2556779385 -0.1797201037 0.5550661683 4294106857
-0.2565506399 -0.1797147393 0.5569608212 4294567408
-0.2674038112 -0.1337822378 0.5805225968 4293255145
-0.2674578130 -0.1331641227 0.5806398392 4292465629
-0.2675115764 -0.1325456351 0.5807566047 4291937745
-0.2675651312 -0.1319267750 0.5808728337 4290753471
-0.2676184475 -0.1313075423 0.5809885263 4289697701
-0.2676715255 -0.1306879371 0.5811038017 4288118669
-0.2677243650 -0.1300679594 0.5812185407 4287720314
-0.2677769959 -0.1294476241 0.5813327432 4287325556
-0.2678293884 -0.1288269311 0.5814465284 4287322987
-0.2678815424 -0.1282058656 0.5815597177 4287125608
-0.2679334879 -0.1275844276 0.5816724896 4288766583
-0.2675747871 -0.1267682165 0.5808937550 4289753478
-0.2676261663 -0.1261470169 0.5810053349 4290344334
-0.2672667503 -0.1253329366 0.5802250504 4290804885
-0.2673175931 -0.1247119904 0.5803354383 4291987106
-0.2669574916 -0.1239000633 0.5795536637 4292908208
-0.2665970027 -0.1230897009 0.5787710547 4293368759
-0.2658252716 -0.1220921949 0.5770956874 4293960896
-0.2650530040 -0.1210981607 0.5754191279 4293896643
-0.2642802000 -0.1201076061 0.5737413764 4294291401
-0.2630957663 -0.1189347059 0.5711699724 4294029771
-0.2619106472 -0.1177672073 0.5685971379 4293898185
-0.2607248127 -0.1166051179 0.5660228133 4293509844
-0.2595383525 -0.1154484525 0.5634469986 4294960631
-0.2576383352 -0.1946177632 0.5606740713 4292072413
-0.2577128708 -0.1940509379 0.5608362556 4289630629
-0.2577872276 -0.1934836060 0.5609980822 4288577941
-0.2578614056 -0.1929157972 0.5611594915 4290410905
-0.2575367391 -0.1920502037 0.5604529977 4290213526
-0.2576104701 -0.1914822906 0.5606133938 4290346139
-0.2568862140 -0.1903228313 0.5590372682 4291004069
-0.2573583424 -0.1900503635 0.5600647330 4291333288
-0.2558349371 -0.1883067936 0.5567495227 4291728046
-0.2547096908 -0.1868626773 0.5543007255 4292253620
-0.2535835803 -0.1854233891 0.5518500805 4292319413
-0.2528560758 -0.1842800528 0.5502669215 4292582583
-0.2521279454 -0.1831397712 0.5486823320 4292122032
-0.2517988980 -0.1822919101 0.5479662418 4290808482
-0.2514694333 -0.1814453453 0.5472491980 4290018966
-0.2515394390 -0.1808876842 0.5474016070 4290219167
-0.2520093322 -0.1806162447 0.5484241843 4291600820
-0.2524792552 -0.1803425550 0.5494468212 4292590538
-0.2529492080 -0.1800666302 0.5504695177 4293972191
-0.2542198896 -0.1803565174 0.5532348156 4293910505
-0.2661032677 -0.1328099370 0.5790954828 4292927461
-0.2661567926 -0.1321931183 0.5792120099 4292662495
-0.2662101090 -0.1315759271 0.5793280005 4291741393
-0.2662631869 -0.1309583634 0.5794435143 4291014587
-0.2663160563 -0.1303404272 0.5795585513 4289172383
-0.2663686872 -0.1297221184 0.5796731114 4288379271
-0.2664210796 -0.1291034520 0.5797871351 4287721341
-0.2664732337 -0.1284844279 0.5799006224 4287390320
-0.2665251791 -0.1278650314 0.5800136924 4287192941
-0.2665768862 -0.1272452772 0.5801261663 4287978094
-0.2666283548 -0.1266251504 0.5802382231 4289228161
-0.2666796148 -0.1260046810 0.5803497434 4290345102
-0.2667306066 -0.1253838539 0.5804607272 4290937239
-0.2663715780 -0.1245710179 0.5796794295 4292184485
-0.2664220631 -0.1239504293 0.5797892809 4293105587
-0.2660623491 -0.1231397539 0.5790064335 4293631931
-0.2652921975 -0.1221418604 0.5773304105 4294158275
-0.2645215094 -0.1211474389 0.5756532550 4294094022
-0.2633400857 -0.1199696288 0.5730822682 4294291401
-0.2621580064 -0.1187972277 0.5705097914 4294095305
-0.2605648637 -0.1174452752 0.5670428276 4294095305
-0.2589709163 -0.1161006540 0.5635740161 4293245645
-0.2577866316 -0.1149464101 0.5609967709 4294959861
-0.2562448978 -0.1946552396 0.5589927435 4292993515
-0.2563192844 -0.1940904707 0.5591549873 4291875034
-0.2567909956 -0.1938252598 0.5601840615 4290485938
-0.2564675212 -0.1929594874 0.5594784021 4288972699
-0.2565413713 -0.1923932582 0.5596395135 4290542491
-0.2566150427 -0.1918265373 0.5598002076 4290410905
-0.2562905848 -0.1909627914 0.5590924025 4290543004
-0.2559657097 -0.1901003420 0.5583837628 4290871969
-0.2556404471 -0.1892391592 0.5576741695 4291069346
