VERSION 0.7
FIELDS x y z rgba
SIZE 4 4 4 4
TYPE F F F U
COUNT 1 1 1 1
WIDTH 920
HEIGHT 1
VIEWPOINT 0.0 0.0 0.0 1.0 0.0 0.0 0.0
POINTS 920
DATA ascii
-0.3011454642 -0.1172959059 0.5267609358 4283475834
-0.3016868532 -0.1169204563 0.5277079344 4282028640
-0.3022281528 -0.1165428758 0.5286548138 4278673197
-0.3027694225 -0.1161631644 0.5296015739 4285691262
-0.3028229475 -0.1155951768 0.5296952128 4291349460
-0.3033639789 -0.1152121127 0.5306415558 4292337893
-0.3034171164 -0.1146426126 0.5307345390 4293324788
-0.3034700155 -0.1140728146 0.5308270454 4293260276
-0.3035226762 -0.1135027111 0.5309191346 4293391862
-0.3035750687 -0.1129323170 0.5310108066 4291614936
-0.3036272228 -0.1123616323 0.5311020613 4286812047
-0.3036791384 -0.1117906496 0.5311928391 4281943110
-0.3042191267 -0.1113981828 0.5321373343 4281877317
-0.3042706251 -0.1108257025 0.5322274566 4284245608
-0.3048103452 -0.1104298979 0.5331715345 4284508780
-0.3048614264 -0.1098559126 0.5332608819 4286349700
-0.3054009080 -0.1094567701 0.5342045426 4291086796
-0.3059403002 -0.1090555042 0.5351480246 4294440438
-0.3064796031 -0.1086521074 0.5360913873 4294703610
-0.3070188165 -0.1082465798 0.5370345712 4294835709
-0.3075579405 -0.1078389287 0.5379775763 4294835709
-0.3076079190 -0.1072586253 0.5380650163 4294835709
-0.3081467748 -0.1068476364 0.5390075445 4294835709
-0.3081963062 -0.1062658504 0.5390942097 4294835709
-0.3087348938 -0.1058515310 0.5400363207 4294769916
-0.3092733622 -0.1054350808 0.5409781933 4294769916
-0.3098117411 -0.1050165147 0.5419199467 4294769916
-0.3103500307 -0.1045958102 0.5428614616 4294835709
-0.3108882010 -0.1041729823 0.5438028574 4294835709
-0.3119159043 -0.1039111540 0.5456005335 4294835709
-0.3119642138 -0.1033209488 0.5456849933 4294835709
-0.3125020564 -0.1028917357 0.5466257930 4294835709
-0.3130397797 -0.1024604067 0.5475664139 4294835709
-0.3135774136 -0.1020269394 0.5485067964 4294835709
-0.3136248887 -0.1014328673 0.5485898256 4294835709
-0.3141621947 -0.1009960771 0.5495297313 4294835709
-0.3142092228 -0.1004005373 0.5496119261 4294835709
-0.3147462308 -0.0999604240 0.5505512953 4294835709
-0.3152831197 -0.0995181948 0.5514904261 4294835709
-0.3163102865 -0.0992276743 0.5532871485 4294835709
-0.3163565397 -0.0986273512 0.5533680320 4294835709
-0.3168930709 -0.0981787443 0.5543065071 4294835709
-0.3174294829 -0.0977280140 0.5552448034 4294835709
-0.3179657459 -0.0972751603 0.5561828017 4294835709
-0.3185018897 -0.0968201831 0.5571206212 4294835709
-0.3190378845 -0.0963630751 0.5580582023 4294835709
-0.3195737600 -0.0959038511 0.5589956045 4294835709
-0.3201095164 -0.0954425037 0.5599327087 4294835709
-0.3206451237 -0.0949790329 0.5608695745 4294835709
-0.3206894994 -0.0943689197 0.5609471798 4294835709
-0.3212247491 -0.0939021409 0.5618834496 4294835709
-0.3212686479 -0.0932905897 0.5619602203 4294835707
-0.3218035698 -0.0928205028 0.5628958941 4294835707
-0.3223383427 -0.0923482999 0.5638313293 4294835707
-0.3223815262 -0.0917341337 0.5639069080 4294835707
-0.3234074712 -0.0913975239 0.5657014251 4294835709
-0.3239417970 -0.0909189582 0.5666360855 4294835709
-0.3244759738 -0.0904382765 0.5675705075 4294770429
-0.3245183229 -0.0898193866 0.5676445365 4294770429
-0.3250521421 -0.0893354043 0.5685783029 4294836222
-0.3255858123 -0.0888493061 0.5695117712 4294704636
-0.3261193335 -0.0883610919 0.5704450011 4294704636
-0.3261607289 -0.0877384245 0.5705174208 4294836222
-0.3271858692 -0.0873783156 0.5723106265 4294704382
-0.3272268474 -0.0867532939 0.5723822713 4294835967
-0.3277596533 -0.0862575620 0.5733142495 4294572796
-0.3278001249 -0.0856311321 0.5733850002 4294375417
-0.3283325434 -0.0851321146 0.5743163228 4294441464
-0.3293571174 -0.0847576782 0.5761085153 4294573050
-0.3298892677 -0.0842534900 0.5770393610 4294901759
-0.3304212689 -0.0837471932 0.5779699087 4294770175
-0.3304605782 -0.0831149146 0.5780386925 4292730341
-0.3304996192 -0.0824824125 0.5781069398 4284835181
-0.3310309649 -0.0819716752 0.5790364146 4280296236
-0.3310694695 -0.0813377872 0.5791037679 4281480510
-0.3311077058 -0.0807036757 0.5791706443 4281283131
-0.3311456442 -0.0800693482 0.5792369843 4281283131
-0.3311832845 -0.0794348046 0.5793027878 4280625201
-0.3307277262 -0.0786827803 0.5785059929 4282927956
-0.2983749211 -0.1954608262 0.5229306817 4280493615
-0.2994023860 -0.1955508888 0.5247313976 4280625201
-0.3023167551 -0.1968656778 0.5298390985 4280756787
-0.3005148768 -0.1951071322 0.5266811252 4280822580
-0.3005993366 -0.1945766211 0.5268291831 4280756787
-0.3016276658 -0.1946549267 0.5286314487 4280690226
-0.3026563823 -0.1947294325 0.5304343104 4280690226
-0.3036853969 -0.1948001683 0.5322378278 4280887605
-0.3042423427 -0.1945649832 0.5332139134 4280163882
-0.3047993779 -0.1943276674 0.5341901183 4282335051
-0.3053564727 -0.1940882504 0.5351665020 4287664284
-0.3054408133 -0.1935470849 0.5353143215 4291217623
-0.3055249751 -0.1930054873 0.5354618430 4291480795
-0.3051358759 -0.1921654940 0.5347799063 4290296521
-0.3052195311 -0.1916238368 0.5349264741 4292336104
-0.3053029776 -0.1910817325 0.5350727439 4293388792
-0.3049127758 -0.1902437657 0.5343888998 4293388792
-0.3049957454 -0.1897016168 0.5345342755 4293585917
-0.3050784767 -0.1891590208 0.5346792936 4293520124
-0.3042133451 -0.1880302280 0.5331630707 4293060086
-0.3042954803 -0.1874884367 0.5333070159 4292994293
-0.3043773770 -0.1869462132 0.5334506035 4293125881
-0.3044591248 -0.1864035577 0.5335938334 4293125881
-0.3035919368 -0.1852814555 0.5320739746 4293060088
-0.3041475117 -0.1850282699 0.5330476761 4293191674
-0.3037539124 -0.1841973364 0.5323578715 4293257212
-0.3033598661 -0.1833676547 0.5316672921 4293191419
-0.3034402430 -0.1828253716 0.5318081379 4293125879
-0.3035204411 -0.1822826415 0.5319486856 4293125879
-0.3031252921 -0.1814550757 0.5312561393 4293060088
-0.3032049537 -0.1809123456 0.5313957930 4292994295
-0.3028090596 -0.1800864786 0.5307019353 4293060088
-0.3024127185 -0.1792618930 0.5300073028 4292994295
-0.3024915457 -0.1787195802 0.5301454067 4292994293
-0.3020944297 -0.1778967083 0.5294494629 4292994293
-0.3016968668 -0.1770751029 0.5287526846 4292994293
-0.3017748296 -0.1765332371 0.5288893580 4292928500
-0.3013765216 -0.1757133752 0.5281912684 4292928502
-0.3014539778 -0.1751715243 0.5283269882 4293191674
-0.3015312254 -0.1746292561 0.5284624100 4293389053
-0.3016082942 -0.1740865856 0.5285974741 4293454846
-0.3016851544 -0.1735434830 0.5287321806 4293454844
-0.3012850881 -0.1727266759 0.5280310512 4293520637
-0.3018382788 -0.1724560559 0.5290005207 4293651710
-0.3014375865 -0.1716401279 0.5282982588 4293651710
-0.3015134931 -0.1710962355 0.5284313560 4293454844
-0.3011120260 -0.1702820808 0.5277277231 4293389051
-0.3011874557 -0.1697382331 0.5278598666 4293389051
-0.3012626469 -0.1691939831 0.5279917121 4293389051
-0.3013376296 -0.1686493158 0.5281231403 4293388538
-0.3009347618 -0.1678378433 0.5274170637 4293388538
-0.3010092378 -0.1672932208 0.5275475383 4293191159
-0.3010835052 -0.1667482108 0.5276777148 4292993780
-0.3011575639 -0.1662027985 0.5278074741 4292928500
-0.3007532656 -0.1653940380 0.5270989537 4292994293
-0.3008267879 -0.1648486853 0.5272278190 4292862707
-0.3004217446 -0.1640417129 0.5265179276 4292796914
-0.3004947305 -0.1634964347 0.5266458392 4292927987
-0.2996102870 -0.1624318063 0.5250957608 4292927987
-0.2996826470 -0.1618874669 0.5252225995 4292796916
-0.2997547984 -0.1613427401 0.5253490210 4292862709
-0.2998267114 -0.1607976109 0.5254750848 4292862196
-0.2994193733 -0.1599961072 0.5247612000 4292796403
-0.2994907796 -0.1594510674 0.5248863101 4292796403
-0.2995619476 -0.1589056551 0.5250110626 4292796403
-0.2996329367 -0.1583598405 0.5251354575 4292731123
-0.2992241979 -0.1575611383 0.5244190693 4292731123
-0.2992946208 -0.1570154279 0.5245425701 4292994293
-0.2993648648 -0.1564693302 0.5246656537 4292994293
-0.2989550233 -0.1556729674 0.5239473581 4292928500
-0.2990247011 -0.1551269889 0.5240694880 4292862707
-0.2990942001 -0.1545806229 0.5241912603 4292928500
-0.2991634607 -0.1540338695 0.5243126750 4292862707
-0.2992325127 -0.1534867436 0.5244337320 4292796914
-0.2993013561 -0.1529392451 0.5245543718 4292862707
-0.2993699908 -0.1523913592 0.5246746540 4293387252
-0.2989577651 -0.1515993625 0.5239521861 4293255666
-0.2990258634 -0.1510516107 0.5240715146 4292797431
-0.2990937233 -0.1505034864 0.5241904855 4293060603
-0.2991614044 -0.1499549896 0.5243090391 4293126908
-0.2992288172 -0.1494061202 0.5244272351 4293126908
-0.2992960513 -0.1488568783 0.5245450735 4293061628
-0.2988817692 -0.1480688304 0.5238189697 4293193214
-0.2989484370 -0.1475197226 0.5239358544 4293585917
-0.2990148962 -0.1469702721 0.5240523219 4293322745
-0.2990811467 -0.1464204341 0.5241684318 4292532202
-0.2991471887 -0.1458702385 0.5242841244 4286150281
-0.2992129922 -0.1453196853 0.5243994594 4280096545
-0.2987966239 -0.1445356458 0.5236697793 4282070335
-0.2983798683 -0.1437530071 0.5229393244 4287725355
-0.2984447777 -0.1432031542 0.5230531096 4287396390
-0.2980272472 -0.1424224675 0.5223213434 4287068951
-0.2976092994 -0.1416432112 0.5215888619 4286805779
-0.2971909046 -0.1408653706 0.5208555460 4285492766
-0.2972546220 -0.1403167546 0.5209672451 4285295387
-0.2973181605 -0.1397677660 0.5210785866 4285624868
-0.2973814309 -0.1392184496 0.5211895108 4287993416
-0.2974445224 -0.1386687756 0.5213000178 4289837162
-0.2975073457 -0.1381187439 0.5214101672 4289179232
-0.2980530560 -0.1377916932 0.5223665833 4286748502
-0.2981155515 -0.1372400820 0.5224760771 4282669336
-0.2986610830 -0.1369096637 0.5234321952 4283652968
-0.2987232506 -0.1363564581 0.5235411525 4289903303
-0.2992686331 -0.1360226572 0.5244970322 4292927201
-0.2993304431 -0.1354678720 0.5246053338 4293190373
-0.2993920147 -0.1349127442 0.5247132182 4293386731
-0.2994533479 -0.1343572736 0.5248207450 4293386731
-0.2995144725 -0.1338014603 0.5249278545 4292731109
-0.2995753586 -0.1332453191 0.5250345469 4292336351
-0.2996360064 -0.1326888204 0.5251408815 4292599273
-0.2996964455 -0.1321319938 0.5252467990 4292270308
-0.2997566462 -0.1315748394 0.5253522992 4292269539
-0.2993322611 -0.1308056712 0.5246084929 4291348437
-0.2993918955 -0.1302487403 0.5247130394 4290230197
-0.2994513214 -0.1296914816 0.5248171687 4289835439
-0.2995104790 -0.1291338801 0.5249208808 4288388005
-0.2995694280 -0.1285759658 0.5250241756 4287532696
-0.2996281385 -0.1280177087 0.5251270533 4287401126
-0.2996866405 -0.1274591237 0.5252295732 4287664298
-0.2997448742 -0.1269002259 0.5253316760 4287335834
-0.2998028994 -0.1263409853 0.5254333019 4287204248
-0.2998606861 -0.1257814318 0.5255345702 4287335834
-0.2999182045 -0.1252215505 0.5256354213 4287335834
-0.2999755442 -0.1246613488 0.5257359147 4287204760
-0.3005180955 -0.1243016347 0.5266867876 4285362556
-0.3005750179 -0.1237398908 0.5267865658 4280692524
-0.3001460433 -0.1229788288 0.5260347724 4281087282
-0.3002024293 -0.1224173456 0.5261335373 4280364848
-0.2997727096 -0.1216583773 0.5253804326 4280430641
-0.2993425429 -0.1209009141 0.5246265531 4281024294
-0.2993980348 -0.1203403175 0.5247237682 4280563743
-0.2994532585 -0.1197794080 0.5248205662 4280253007
-0.2995082736 -0.1192181855 0.5249169469 4282161004
-0.2995630205 -0.1186566576 0.5250129700 4282162033
-0.2996175587 -0.1180948168 0.5251085162 4281372517
-0.3001583219 -0.1177234724 0.5260562301 4282161263
-0.3006990254 -0.1173500046 0.5270038843 4282556021
-0.3012396395 -0.1169743985 0.5279513597 4281961317
-0.3017802238 -0.1165966615 0.5288987756 4279000632
-0.3023207188 -0.1162167937 0.5298460722 4286281341
-0.3023742139 -0.1156485602 0.5299398303 4292400090
-0.3024275005 -0.1150800288 0.5300332308 4293192172
-0.3029676080 -0.1146956012 0.5309798121 4293784309
-0.3030204773 -0.1141255498 0.5310724378 4292865517
-0.3030731082 -0.1135552078 0.5311646461 4291483864
-0.3031254709 -0.1129845679 0.5312564969 4287405211
-0.3031775951 -0.1124136299 0.5313478112 4282470736
-0.3032294810 -0.1118424013 0.5314387679 4281221445
-0.3037687242 -0.1114497781 0.5323837996 4282734684
-0.3038201928 -0.1108770445 0.5324740410 4285761673
-0.3043591678 -0.1104810759 0.5334186554 4284051055
-0.3044102192 -0.1099068373 0.5335081220 4285102973
-0.3049489558 -0.1095075309 0.5344522595 4290826964
-0.3049995899 -0.1089318022 0.5345410109 4293983484
-0.3060261309 -0.1087025255 0.5363401771 4294115070
-0.3065645993 -0.1082968339 0.5372838378 4294835709
-0.3066147268 -0.1077174768 0.5373716950 4294835709
-0.3071529269 -0.1073084474 0.5383149385 4294835709
-0.3072026074 -0.1067276075 0.5384020805 4294835709
-0.3077405393 -0.1063152403 0.5393447876 4294835709
-0.3077898026 -0.1057329178 0.5394311547 4294769916
-0.3083274662 -0.1053172201 0.5403734446 4294769916
-0.3088650107 -0.1048993915 0.5413155556 4294769916
-0.3094024658 -0.1044794396 0.5422574878 4294835709
-0.3099398017 -0.1040573567 0.5431992412 4294835709
-0.3109659553 -0.1037963405 0.5449976921 4294770429
-0.3115031719 -0.1033690795 0.5459392071 4294770429
-0.3115511835 -0.1027783379 0.5460233092 4294770429
-0.3120881021 -0.1023477465 0.5469642878 4294770429
-0.3126249015 -0.1019150242 0.5479050875 4294770429
-0.3131615818 -0.1014801711 0.5488457084 4294770429
-0.3132087588 -0.1008855626 0.5489283800 4294835709
-0.3137451410 -0.1004473940 0.5498684645 4294835709
-0.3142814040 -0.1000070944 0.5508083105 4294835709
-0.3148175478 -0.0995646641 0.5517479181 4294835709
-0.3153535724 -0.0991201103 0.5526873469 4294835709
-0.3158894777 -0.0986734331 0.5536265969 4294835709
-0.3164252341 -0.0982246324 0.5545656085 4294835709
-0.3169609010 -0.0977737010 0.5555043817 4294835709
-0.3174964190 -0.0973206460 0.5564429164 4294835709
-0.3180318177 -0.0968654677 0.5573812723 4294835709
-0.3180769682 -0.0962598473 0.5574603677 4294835709
-0.3186120391 -0.0958013535 0.5583981276 4294835709
-0.3191469610 -0.0953407362 0.5593356490 4294835709
-0.3196817338 -0.0948779956 0.5602729321 4294835709
-0.3197260201 -0.0942685455 0.5603505373 4294835709
-0.3202604651 -0.0938024893 0.5612872243 4294835709
-0.3207947910 -0.0933343172 0.5622236133 4294835707
-0.3208383620 -0.0927222446 0.5623000264 4294835707
-0.3213723302 -0.0922507644 0.5632358193 4294835707
-0.3219061494 -0.0917771608 0.5641714334 4294835707
-0.3229306042 -0.0914404094 0.5659668446 4294835709
-0.3234641850 -0.0909616277 0.5669020414 4294835709
-0.3239976168 -0.0904807299 0.5678369403 4294770429
-0.3240399361 -0.0898615569 0.5679110885 4294770429
-0.3245730102 -0.0893773586 0.5688453317 4294836222
-0.3251059353 -0.0888910443 0.5697793365 4294704636
-0.3256387115 -0.0884026140 0.5707130432 4294638843
-0.3256801069 -0.0877796635 0.5707855821 4294836222
-0.3262124956 -0.0872879401 0.5717186928 4294704382
-0.3267447054 -0.0867940933 0.5726514459 4294835967
-0.3272767663 -0.0862981379 0.5735839605 4294507003
-0.3273172081 -0.0856714249 0.5736548305 4294572796
-0.3278488815 -0.0851721838 0.5745866299 4294178292
-0.3288719952 -0.0847975761 0.5763797164 4294178292
-0.3294034004 -0.0842931569 0.5773110390 4294901759
-0.3294429481 -0.0836617649 0.5773803592 4294901759
-0.3299739361 -0.0831540674 0.5783109665 4293717236
-0.3300129473 -0.0825212821 0.5783793330 4287072143
-0.3300516903 -0.0818882659 0.5784472227 4280559408
-0.3305820525 -0.0813761279 0.5793767571 4281283131
-0.3306202590 -0.0807417259 0.5794436932 4281019959
-0.3306581676 -0.0801071078 0.5795101523 4281151545
-0.3302036822 -0.0793540105 0.5787136555 4281217336
-0.3302409649 -0.0787199065 0.5787789822 4281151543
-0.3297857344 -0.0779692084 0.5779811144 4286546569
-0.2955695987 -0.1940007359 0.5190243721 4280888373
-0.2975364923 -0.1947112232 0.5224782825 4280888119
-0.3009170294 -0.1963363886 0.5284145474 4280888119
-0.2995887399 -0.1948852092 0.5260820389 4279901224
-0.3015577495 -0.1955777109 0.5295397043 4280230189
-0.3025850058 -0.1956535876 0.5313435793 4280427568
-0.3036126196 -0.1957256794 0.5331480503 4280559154
-0.3032258153 -0.1948847175 0.5324687958 4281348670
-0.3042536974 -0.1949517280 0.5342738032 4281414463
-0.3043382466 -0.1944121122 0.5344222784 4286019974
-0.3044226170 -0.1938720644 0.5345703959 4291020242
-0.3045067787 -0.1933315545 0.5347182155 4291875299
-0.3041185141 -0.1924916953 0.5340363979 4291414748
-0.3042021692 -0.1919511259 0.5341833234 4291348955
-0.3042856455 -0.1914101094 0.5343298912 4292862194
-0.3043689132 -0.1908686608 0.5344761014 4292993780
-0.3039792478 -0.1900312155 0.5337918401 4292927987
-0.3045349121 -0.1897844225 0.5347675681 4293191161
-0.3041445911 -0.1889477819 0.5340821743 4292993782
-0.3032807112 -0.1878193766 0.5325651765 4293060088
-0.3033626378 -0.1872782409 0.5327090621 4293125881
-0.3034443855 -0.1867366731 0.5328526497 4293060088
-0.3035259247 -0.1861946583 0.5329958200 4293060088
-0.3031336367 -0.1853625774 0.5323069692 4293191674
-0.3036884665 -0.1851093322 0.5332812071 4293191674
-0.3032955229 -0.1842780709 0.5325912237 4293125626
-0.3029021621 -0.1834480762 0.5319004655 4293191419
-0.3029824793 -0.1829055995 0.5320414901 4293256952
-0.3025883436 -0.1820772886 0.5313493609 4293125366
-0.3021937311 -0.1812502593 0.5306564569 4293191159
-0.3022732437 -0.1807081699 0.5307960510 4293191159
-0.3018778563 -0.1798828393 0.5301017761 4293059575
-0.3019568324 -0.1793407649 0.5302404761 4292993782
-0.3015607297 -0.1785171330 0.5295448899 4293059575
-0.3016391695 -0.1779750586 0.5296826363 4293059575
-0.3007671237 -0.1768737137 0.5281513333 4292927989
-0.3003696799 -0.1760539412 0.5274533629 4292993782
-0.3004471660 -0.1755131632 0.5275894403 4293125368
-0.3005244434 -0.1749719828 0.5277251601 4293256954
-0.3006015420 -0.1744303703 0.5278605223 4293322747
-0.3006784320 -0.1738883555 0.5279955864 4293454333
-0.3007551134 -0.1733459085 0.5281302333 4293585919
-0.3008316159 -0.1728030592 0.5282645822 4293520126
-0.3004317880 -0.1719872206 0.5275624394 4293585917
-0.3005077541 -0.1714444011 0.5276958346 4293520124
-0.3005835116 -0.1709011793 0.5278288722 4293454331
-0.3001826108 -0.1700875610 0.5271248817 4293454331
-0.3007344306 -0.1698134840 0.5280939341 4293388538
-0.3003328741 -0.1690007746 0.5273887515 4293388538
-0.3004077077 -0.1684567630 0.5275201797 4293585919
-0.3000053763 -0.1676458269 0.5268136859 4293388540
-0.3005567491 -0.1673675478 0.5277819037 4293256954
-0.3006309867 -0.1668223292 0.5279122591 4292927989
-0.3007049859 -0.1662767082 0.5280421972 4292862196
-0.3003013730 -0.1654676199 0.5273334384 4292993782
-0.2998973131 -0.1646598577 0.5266239047 4292796403
-0.2994928062 -0.1638534367 0.5259135962 4292796403
-0.2990878820 -0.1630483568 0.5252025127 4292993782
-0.2991603911 -0.1625042111 0.5253298283 4292927989
-0.2987546921 -0.1617009342 0.5246174335 4292796916
-0.2988266647 -0.1611568779 0.5247438550 4292796916
-0.2988984287 -0.1606124192 0.5248698592 4292796916
-0.2984916568 -0.1598114520 0.5241555572 4292796916
-0.2985628843 -0.1592670828 0.5242806673 4292796916
-0.2986339331 -0.1587223262 0.5244053602 4292796916
-0.2987047434 -0.1581771672 0.5245297551 4292731123
-0.2987753451 -0.1576316357 0.5246537328 4292731123
-0.2988457680 -0.1570857167 0.5247773528 4292928500
-0.2989159524 -0.1565394104 0.5249006152 4292928500
-0.2985067964 -0.1557427347 0.5241821408 4292862707
-0.2985764444 -0.1551965326 0.5243044496 4292862707
-0.2986458838 -0.1546499580 0.5244264007 4292928500
-0.2987151146 -0.1541029960 0.5245479345 4292928500
-0.2983045280 -0.1533091664 0.5238269567 4292862707
-0.2983732224 -0.1527623385 0.5239475965 4292928500
-0.2984417081 -0.1522151083 0.5240678191 4292601845
-0.2985099554 -0.1516675204 0.5241877437 4292536052
-0.2985780239 -0.1511195451 0.5243071914 4292994291
-0.2981657088 -0.1503291279 0.5235831738 4293191670
-0.2982332110 -0.1497813016 0.5237017274 4293519861
-0.2983005047 -0.1492330879 0.5238199234 4293519861
-0.2983675897 -0.1486845165 0.5239377022 4293454331
-0.2984344363 -0.1481355727 0.5240550637 4293520124
-0.2980203927 -0.1473485976 0.5233280063 4293914879
-0.2980867326 -0.1467998028 0.5234444737 4293454333
-0.2981528044 -0.1462506354 0.5235605240 4292334310
-0.2982186973 -0.1457011104 0.5236762166 4284899701
-0.2982843518 -0.1451512277 0.5237915516 4279703580
-0.2978685796 -0.1443677396 0.5230614543 4282137921
-0.2979336977 -0.1438180059 0.5231757760 4284510532
-0.2975171804 -0.1430364698 0.5224443674 4282668328
-0.2971002162 -0.1422563642 0.5217121840 4281880855
-0.2966828346 -0.1414776593 0.5209792256 4282144027
-0.2962650061 -0.1407003850 0.5202455521 4281356318
-0.2963286042 -0.1401524395 0.5203572512 4281487904
-0.2963919938 -0.1396041363 0.5204685330 4282805047
-0.2964551449 -0.1390554756 0.5205793977 4284910423
-0.2965180576 -0.1385064721 0.5206899047 4285832046
-0.2970630229 -0.1381814480 0.5216468573 4282673982
-0.2971256077 -0.1376308501 0.5217567682 4281614386
-0.2976704240 -0.1373024285 0.5227134824 4281351214
-0.2977326512 -0.1367502511 0.5228227377 4285429368
-0.2982773185 -0.1364184618 0.5237792134 4291679703
-0.2983392179 -0.1358646899 0.5238878727 4293125353
-0.2988837361 -0.1355295181 0.5248440504 4293651697
-0.2989452481 -0.1349741668 0.5249521136 4293322478
-0.2990065813 -0.1344184726 0.5250597596 4293388271
-0.2990676463 -0.1338624209 0.5251669884 4292927722
-0.2991285026 -0.1333060414 0.5252738595 4292861929
-0.2987057865 -0.1325348765 0.5245315433 4292861929
-0.2987660766 -0.1319787204 0.5246374607 4292861929
-0.2988261580 -0.1314222217 0.5247429013 4292796136
-0.2988859713 -0.1308653951 0.5248479843 4292730343
-0.2989455760 -0.1303082258 0.5249526501 4292598757
-0.2990049720 -0.1297507435 0.5250569582 4292532964
-0.2985801697 -0.1289838552 0.5243110061 4292138722
-0.2991230190 -0.1286347508 0.5252642632 4292138722
-0.2991816998 -0.1280762702 0.5253672600 4292007136
-0.2992401421 -0.1275174469 0.5254698992 4291941343
-0.2992983758 -0.1269583106 0.5255721211 4292072929
-0.2993563414 -0.1263988465 0.5256739855 4292138722
-0.2994140983 -0.1258390546 0.5257753730 4292138722
-0.2994716167 -0.1252789348 0.5258763433 4292336101
-0.2995288968 -0.1247185022 0.5259769559 4292794594
-0.2995859385 -0.1241577491 0.5260770917 4290360253
-0.2996427417 -0.1235966682 0.5261768699 4281349183
-0.2996993065 -0.1230352744 0.5262762308 4281283390
-0.2992706001 -0.1222753823 0.5255234241 4280429360
-0.2988414764 -0.1215169951 0.5247698426 4280824118
-0.2984119356 -0.1207601130 0.5240155458 4280172594
-0.2984672785 -0.1202001870 0.5241127610 4280172594
-0.2985224128 -0.1196399480 0.5242095590 4280252237
-0.2985772789 -0.1190794036 0.5243059397 4282357613
-0.2986319363 -0.1185185462 0.5244019032 4282490996
-0.2991720140 -0.1181491837 0.5253502727 4282490996
-0.2987405062 -0.1173959151 0.5245925188 4282754172
-0.3002519608 -0.1174040660 0.5272466540 4283412102
-0.3007918298 -0.1170283034 0.5281947255 4282288748
-0.3013316393 -0.1166504174 0.5291426182 4279657028
-0.3013852835 -0.1160831600 0.5292367935 4285889150
-0.3019248843 -0.1157019213 0.5301843286 4292336864
-0.3019781113 -0.1151331440 0.5302778482 4293587701
-0.3020310998 -0.1145640686 0.5303708911 4293324529
-0.3020838499 -0.1139946952 0.5304635167 4290956493
-0.3021363616 -0.1134250239 0.5305557251 4286548362
-0.3021886349 -0.1128550544 0.5306475163 4282141258
-0.3022406399 -0.1122847944 0.5307388306 4281220156
-0.3027791977 -0.1118941307 0.5316845775 4281025600
-0.3028308153 -0.1113223657 0.5317751765 4284315250
-0.3033691049 -0.1109283566 0.5327204466 4287276193
-0.3034203053 -0.1103550866 0.5328103304 4284644473
-0.3039583862 -0.1099577397 0.5337551832 4286680975
-0.3044963479 -0.1095582619 0.5346998572 4292536552
-0.3045469522 -0.1089822873 0.5347887278 4294901759
-0.3050846756 -0.1085794717 0.5357329845 4294901759
-0.3051348627 -0.1080019996 0.5358211398 4294770175
-0.3061598241 -0.1077674478 0.5376210213 4294835967
-0.3062096834 -0.1071875617 0.5377085209 4294967295
-0.3067469597 -0.1067771465 0.5386519432 4294967295
-0.3067963719 -0.1061957777 0.5387387276 4294901759
-0.3073333800 -0.1057820246 0.5396817327 4294901759
-0.3078702688 -0.1053661555 0.5406244993 4294901759
-0.3084070683 -0.1049481481 0.5415671468 4294901759
-0.3089437485 -0.1045280099 0.5425096154 4294770427
-0.3094803393 -0.1041057482 0.5434518456 4294770427
-0.3100168407 -0.1036813557 0.5443938971 4294835961
-0.3105531931 -0.1032548323 0.5453358293 4294835961
-0.3110894859 -0.1028261781 0.5462775230 4294901240
-0.3116256297 -0.1023954004 0.5472190380 4294901240
-0.3116731644 -0.1018029302 0.5473024845 4294901241
-0.3122090399 -0.1013688222 0.5482434630 4294901241
-0.3127447665 -0.1009325832 0.5491842031 4294835709
-0.3132804036 -0.1004942209 0.5501248240 4294835709
-0.3138159215 -0.1000537276 0.5510651469 4294835709
-0.3143513203 -0.0996111110 0.5520053506 4294835709
-0.3148865700 -0.0991663635 0.5529452562 4294835709
-0.3154217303 -0.0987194926 0.5538849831 4294835709
-0.3159567416 -0.0982704908 0.5548245311 4294835709
-0.3164916635 -0.0978193656 0.5557637811 4294835709
-0.3165371716 -0.0972158611 0.5558437705 4294835709
-0.3170717657 -0.0967614129 0.5567824841 4294835709
-0.3176062107 -0.0963048413 0.5577209592 4294835709
-0.3181405067 -0.0958461463 0.5586592555 4294835709
-0.3186746836 -0.0953853279 0.5595972538 4294835709
-0.3187191486 -0.0947767943 0.5596753359 4294835709
-0.3192529976 -0.0943126604 0.5606127381 4294835709
-0.3192969561 -0.0937026814 0.5606899858 4294835709
-0.3198304772 -0.0932352394 0.5616267920 4294770427
-0.3198739588 -0.0926238298 0.5617032051 4294770427
-0.3204071224 -0.0921530724 0.5626394153 4294770427
-0.3209401071 -0.0916801989 0.5635753870 4294770427
-0.3219630122 -0.0913442373 0.5653715730 4294770429
-0.3224957883 -0.0908661857 0.5663071871 4294770429
-0.3230284154 -0.0903860107 0.5672424436 4294770429
-0.3235608935 -0.0899037123 0.5681775212 4294770429
-0.3236029148 -0.0892840177 0.5682512522 4294770429
-0.3241350353 -0.0887984261 0.5691856742 4294770429
-0.3246669769 -0.0883107111 0.5701197982 4294770429
-0.3251987696 -0.0878208801 0.5710536242 4294704636
-0.3257304132 -0.0873289332 0.5719872117 4294704636
-0.3262619078 -0.0868348703 0.5729205012 4294704636
-0.3267932236 -0.0863386914 0.5738534927 4294704636
-0.3268336356 -0.0857116953 0.5739244819 4294638843
-0.3273645639 -0.0852122232 0.5748567581 4293784050
-0.3283861876 -0.0848374516 0.5766507983 4293060327
-0.3289168477 -0.0843328089 0.5775825977 4294441980
-0.3289563656 -0.0837011263 0.5776519775 4294441980
-0.3289955854 -0.0830692202 0.5777208805 4294047224
-0.3295256197 -0.0825601220 0.5786516070 4289441714
-0.3295643032 -0.0819268227 0.5787195563 4281677885
-0.3296027184 -0.0812932998 0.5787870288 4281217334
-0.3296408653 -0.0806595534 0.5788539648 4281217336
-0.3296786845 -0.0800255910 0.5789204240 4281546301
-0.3292248547 -0.0792730898 0.5781235099 4281480510
-0.3292620480 -0.0786396414 0.5781888366 4281019959
-0.3292989731 -0.0780059695 0.5782536268 4284112230
-0.3019558191 -0.1968088597 0.5312748551 4280164396
-0.3025113046 -0.1965795457 0.5322521925 4280032810
-0.3030668795 -0.1963481009 0.5332297087 4280361775
-0.3036225140 -0.1961145550 0.5342072845 4281019705
-0.3037073612 -0.1955756545 0.5343565941 4281348670
-0.3037920594 -0.1950363070 0.5345056057 4282927702
-0.3038765490 -0.1944965124 0.5346542597 4288914865
-0.3039608300 -0.1939562559 0.5348025560 4292138722
-0.3036573529 -0.1925753802 0.5342686176 4291283162
-0.3037409484 -0.1920346320 0.5344157219 4292072932
-0.3038243651 -0.1914934367 0.5345624685 4293191413
-0.3039076030 -0.1909517795 0.5347088575 4293059827
-0.3035185933 -0.1901140362 0.5340244770 4293059827
-0.3036012948 -0.1895723343 0.5341699719 4293191159
-0.3032115400 -0.1887362152 0.5334842205 4293125366
-0.3028213084 -0.1879013479 0.5327976346 4292994293
-0.3029032052 -0.1873600185 0.5329416990 4293060086
-0.3025122285 -0.1865268052 0.5322538018 4292994293
-0.3025935888 -0.1859854460 0.5323969722 4292994293
-0.3026747704 -0.1854436547 0.5325397849 4293060086
-0.3022826910 -0.1846125126 0.5318499804 4293060086
-0.3023633659 -0.1840707064 0.5319918990 4293060088
-0.3024438322 -0.1835284531 0.5321334600 4293125881
-0.3020506799 -0.1826994121 0.5314417481 4293256952
-0.3016570807 -0.1818716228 0.5307492018 4293059573
-0.3017367125 -0.1813297868 0.5308893323 4293059573
-0.3013423383 -0.1805036962 0.5301954746 4293059573
-0.3014214337 -0.1799618453 0.5303346515 4293059573
-0.3010263145 -0.1791374683 0.5296394229 4292993780
-0.3006307185 -0.1783143729 0.5289434195 4293059573
-0.3007090092 -0.1777729541 0.5290811658 4293059573
-0.3003126681 -0.1769515723 0.5283837914 4292927987
-0.2999158800 -0.1761314720 0.5276857018 4292927987
-0.2999933064 -0.1755905002 0.5278218985 4292993780
-0.3000705540 -0.1750491112 0.5279578567 4293059573
-0.3001475930 -0.1745073050 0.5280933976 4293125366
-0.2997494042 -0.1736898273 0.5273928046 4293322745
-0.2998259366 -0.1731480509 0.5275273919 4293454331
-0.2999022305 -0.1726058573 0.5276616812 4293520124
-0.2999783754 -0.1720632464 0.5277956128 4293585919
-0.3000542819 -0.1715202183 0.5279291868 4293585919
-0.3001300097 -0.1709767878 0.5280624032 4293520126
-0.2997297645 -0.1701628417 0.5273582339 4293454333
-0.2998049557 -0.1696194559 0.5274904966 4293388540
-0.2998799384 -0.1690756530 0.5276224613 4293388540
-0.2999547124 -0.1685314476 0.5277540088 4293520126
-0.2995530665 -0.1677201837 0.5270473361 4293454333
-0.2996273339 -0.1671760380 0.5271779895 4293454333
-0.3001778424 -0.1668963879 0.5281466246 4292993782
-0.2997752428 -0.1660865098 0.5274382234 4292862196
-0.2993721664 -0.1652779728 0.5267290473 4292927989
-0.2994454801 -0.1647330672 0.5268580317 4292862196
-0.2985647321 -0.1636648774 0.5253083706 4292862196
-0.2986373901 -0.1631209254 0.5254362822 4292927989
-0.2987098694 -0.1625765711 0.5255637765 4292862196
-0.2983048260 -0.1617729813 0.5248511434 4292796916
-0.2983767688 -0.1612287015 0.5249777436 4292862709
-0.2979709804 -0.1604269445 0.5242637396 4292796916
-0.2980423868 -0.1598827541 0.5243893862 4292796916
-0.2981135845 -0.1593381763 0.5245146751 4292796916
-0.2981845737 -0.1587931961 0.5246395469 4292796916
-0.2982553542 -0.1582478434 0.5247641206 4292731123
-0.2983259261 -0.1577021033 0.5248882771 4292796916
-0.2983962893 -0.1571559608 0.5250120759 4292862707
-0.2979881167 -0.1563584656 0.5242938995 4292928500
-0.2980579436 -0.1558124423 0.5244167447 4292862707
-0.2981275618 -0.1552660316 0.5245392323 4292928500
-0.2981969714 -0.1547192484 0.5246613622 4292994293
-0.2977873981 -0.1539245993 0.5239407420 4292928500
-0.2978562415 -0.1533779204 0.5240619183 4292928500
-0.2979249060 -0.1528308690 0.5241826773 4292994293
-0.2979933321 -0.1522834450 0.5243030787 4292601845
-0.2980615497 -0.1517356336 0.5244231224 4292601845
-0.2976502478 -0.1509443820 0.5236994624 4293059833
-0.2977179289 -0.1503967047 0.5238185525 4293257212
-0.2977854013 -0.1498486549 0.5239372253 4293454583
-0.2978526652 -0.1493002325 0.5240555406 4293388790
-0.2979196906 -0.1487514377 0.5241734982 4293389053
-0.2975066602 -0.1479636282 0.5234467983 4293520639
-0.2975731492 -0.1474149823 0.5235638022 4293979903
-0.2976394296 -0.1468659639 0.5236803889 4293716735
-0.2977055013 -0.1463165879 0.5237966180 4291808731
-0.2977713346 -0.1457668394 0.5239124894 4283979364
-0.2973565757 -0.1449825019 0.5231826901 4279508511
-0.2974218726 -0.1444329172 0.5232976079 4281548094
-0.2970063388 -0.1436505318 0.5225664973 4282276922
-0.2965903878 -0.1428695619 0.5218346715 4280434718
-0.2961740196 -0.1420900077 0.5211020708 4279453750
-0.2957572043 -0.1413118690 0.5203687549 4279782715
-0.2953399718 -0.1405351758 0.5196346641 4279126843
-0.2958845496 -0.1402158886 0.5205927491 4279587394
-0.2954666615 -0.1394402534 0.5198575258 4281101396
-0.2955296934 -0.1388922781 0.5199683905 4283667323
-0.2960738838 -0.1385692507 0.5209259391 4284784775
-0.2961365581 -0.1380196810 0.5210362077 4281560918
-0.2966806293 -0.1376932710 0.5219934583 4280497976
-0.2967429757 -0.1371421069 0.5221031308 4281484871
-0.2972868979 -0.1368123293 0.5230601430 4287797665
-0.2973488569 -0.1362595707 0.5231691599 4292600554
-0.2978926599 -0.1359264255 0.5241259336 4293848562
-0.2979542613 -0.1353720874 0.5242343545 4293848562
-0.2980156839 -0.1348173916 0.5243423581 4293651183
-0.2985591590 -0.1344796270 0.5252986550 4293651183
-0.2986202240 -0.1339233518 0.5254060626 4293190381
-0.2981985211 -0.1331512928 0.5246640444 4293124588
-0.2982589900 -0.1325952411 0.5247704983 4292993515
-0.2978365421 -0.1318251938 0.5240272284 4292927722
-0.2978964746 -0.1312693805 0.5241326690 4292861929
-0.2979561687 -0.1307132244 0.5242376924 4292796136
-0.2980156541 -0.1301567256 0.5243423581 4292796136
-0.2980749011 -0.1295999140 0.5244466066 4292796136
-0.2981339097 -0.1290427595 0.5245504379 4292796138
-0.2981927097 -0.1284852624 0.5246538520 4292861931
-0.2982512414 -0.1279274523 0.5247568488 4292861931
-0.2983095646 -0.1273693144 0.5248594880 4292927724
-0.2988512218 -0.1270163804 0.5258125067 4292993517
-0.2989091873 -0.1264566779 0.5259144306 4293059310
-0.2989668846 -0.1258966476 0.5260159969 4293125103
-0.2985405028 -0.1251334846 0.5252658129 4293256689
-0.2985976636 -0.1245737299 0.5253663659 4293452778
-0.2991386354 -0.1242146343 0.5263181329 4291084230
-0.2991954088 -0.1236533225 0.5264180303 4282073926
-0.2992519438 -0.1230916902 0.5265175104 4280955445
-0.2988239229 -0.1223314777 0.5257644653 4280233515
-0.2983954847 -0.1215727627 0.5250106454 4280496687
-0.2979666591 -0.1208155528 0.5242561102 4280107822
-0.2980219722 -0.1202553883 0.5243534446 4279713064
-0.2980770469 -0.1196949109 0.5244503617 4279856709
-0.2981319129 -0.1191341281 0.5245468616 4282422636
-0.2981865108 -0.1185730398 0.5246429443 4283081338
-0.2987258434 -0.1182035208 0.5255918503 4283015545
-0.2982950211 -0.1174499243 0.5248338580 4283147649
-0.2993191481 -0.1172680408 0.5266357660 4283410821
-0.3003433943 -0.1170821860 0.5284379125 4282222955
-0.3008824587 -0.1167041436 0.5293863416 4279459649
-0.3009360731 -0.1161366403 0.5294806361 4285627007
-0.3009894490 -0.1155688465 0.5295745730 4291745756
-0.3015281260 -0.1151862293 0.5305223465 4293653240
-0.3015810847 -0.1146169081 0.5306155086 4293061103
-0.3016338050 -0.1140472889 0.5307082534 4290101185
-0.3016862869 -0.1134773716 0.5308005810 4283192920
-0.3017385006 -0.1129071638 0.5308924913 4281878599
-0.3017905056 -0.1123366505 0.5309839845 4281812806
-0.3018422425 -0.1117658541 0.5310750008 4280566077
-0.3023798764 -0.1113738120 0.5320209265 4285829517
-0.3024311960 -0.1108015031 0.5321112871 4286685339
-0.3029685915 -0.1104061231 0.5330567956 4284579963
-0.3030195236 -0.1098323166 0.5331463814 4286221964
-0.3035566509 -0.1094335914 0.5340914130 4292406506
-0.3036071658 -0.1088582873 0.5341802835 4294639615
-0.3041440248 -0.1084562242 0.5351248980 4294705151
-0.3046808243 -0.1080520302 0.5360693336 4294901759
-0.3052175343 -0.1076457053 0.5370136499 4294704382
-0.3057541251 -0.1072372496 0.5379577875 4294835709
-0.3058037162 -0.1066568270 0.5380449891 4294967295
-0.3063400388 -0.1062450334 0.5389886498 4294967295
-0.3063891828 -0.1056631282 0.5390751362 4294967295
-0.3069252372 -0.1052479967 0.5400182605 4294836222
-0.3079484701 -0.1049968749 0.5418186188 4294836222
-0.3084844053 -0.1045765579 0.5427615643 4294770429
-0.3090202510 -0.1041541174 0.5437043309 4294770429
-0.3095559776 -0.1037295386 0.5446469188 4294835707
-0.3096040487 -0.1031404063 0.5447314978 4294835707
-0.3101394773 -0.1027125046 0.5456735492 4294901241
-0.3106748164 -0.1022824645 0.5466154814 4294901241
-0.3112100363 -0.1018503010 0.5475571752 4294835707
-0.3112572730 -0.1012572944 0.5476402640 4294835707
-0.3117921948 -0.1008218005 0.5485814214 4294835709
-0.3123269975 -0.1003841758 0.5495223999 4294835709
-0.3128616810 -0.0999444202 0.5504631400 4294835709
-0.3133962750 -0.0995025411 0.5514037013 4294835709
-0.3144189417 -0.0992125943 0.5532030463 4294835709
-0.3149533272 -0.0987655222 0.5541432500 4294835709
-0.3154876232 -0.0983163267 0.5550832748 4294835709
-0.3160217702 -0.0978650078 0.5560231209 4294835709
-0.3160672784 -0.0972612277 0.5561031699 4294835709
-0.3166010976 -0.0968065858 0.5570424199 4294835709
-0.3171347678 -0.0963498130 0.5579814315 4294835709
-0.3176683486 -0.0958909169 0.5589201450 4294835709
-0.3177129626 -0.0952832997 0.5589987040 4294835709
-0.3182461858 -0.0948210880 0.5599368811 4294835709
-0.3182903528 -0.0942120254 0.5600146055 4294835709
-0.3188232481 -0.0937464982 0.5609521866 4294835709
-0.3188669384 -0.0931360051 0.5610290170 4294770427
-0.3193994761 -0.0926671624 0.5619660020 4294770427
-0.3194426596 -0.0920552313 0.5620419979 4294770427
-0.3199748397 -0.0915830806 0.5629783869 4294770427
-0.3205069005 -0.0911088139 0.5639144778 4294770429
-0.3215281665 -0.0907705799 0.5657113791 4294770429
-0.3225494325 -0.0904283524 0.5675082207 4294770429
-0.3225916624 -0.0898095593 0.5675824881 4294770429
-0.3231231570 -0.0893258676 0.5685176253 4294770429
-0.3236545324 -0.0888400599 0.5694525242 4294770429
-0.3241857290 -0.0883521289 0.5703871846 4294770429
-0.3247167766 -0.0878620818 0.5713214874 4294704636
-0.3252476752 -0.0873699114 0.5722556114 4294704636
-0.3257783949 -0.0868756250 0.5731893778 4294704636
-0.3263089657 -0.0863792226 0.5741229057 4294704636
-0.3263493478 -0.0857519433 0.5741939545 4294704636
-0.3268795311 -0.0852522478 0.5751267672 4294113015
-0.3278996944 -0.0848773122 0.5769217014 4293060327
-0.3284296095 -0.0843724385 0.5778540373 4294310394
-0.3284690976 -0.0837404728 0.5779235363 4294639359
-0.3285082877 -0.0831082761 0.5779924989 4294507775
-0.3285472095 -0.0824758485 0.5780609250 4291283918
-0.3290762603 -0.0819653571 0.5789917707 4283585882
-0.3291146457 -0.0813315436 0.5790593624 4280888369
-0.3291527629 -0.0806975141 0.5791263580 4281020470
-0.3291905820 -0.0800632536 0.5791929364 4281152056
-0.3287374377 -0.0793104097 0.5783956647 4281480767
-0.3287746310 -0.0786766708 0.5784611106 4281020216
-0.3288115263 -0.0780427158 0.5785259604 4282599250
-0.2991926074 -0.1983198225 0.5274438858 4281084984
-0.2988088727 -0.1974801719 0.5267673731 4281019191
-0.2984246612 -0.1966417432 0.5260900259 4280953398
-0.3003867865 -0.1973462850 0.5295490623 4280821812
-0.3000023663 -0.1965061128 0.5288713574 4280887605
-0.3019655943 -0.1972005963 0.5323323011 4280032296
-0.3015809357 -0.1963586807 0.5316542387 4280624433
-0.3030753732 -0.1967380792 0.5342887044 4280756019
-0.3026903570 -0.1958952546 0.5336099863 4281413949
-0.3037153184 -0.1959637105 0.5354169011 4281282363
-0.3033297956 -0.1951208264 0.5347372293 4286414217
-0.3024733961 -0.1939774901 0.5332275033 4291546071
-0.3034984469 -0.1940404028 0.5350345969 4292467173
-0.3031118512 -0.1931995153 0.5343530178 4291020244
-0.3022539914 -0.1920607090 0.5328407288 4291086037
-0.3032791317 -0.1921180785 0.5346479416 4292533483
-0.3028914332 -0.1912792176 0.5339644551 4292994034
-0.3029744625 -0.1907382160 0.5341108441 4292928241
-0.3030573130 -0.1901967824 0.5342569351 4293059827
-0.3031399846 -0.1896549016 0.5344026089 4293059573
-0.3027508855 -0.1888184696 0.5337166786 4293125366
-0.3018896282 -0.1876900047 0.5321983695 4292994293
-0.3019713163 -0.1871493310 0.5323424339 4292928500
-0.3020528257 -0.1866082251 0.5324860811 4292928500
-0.3016620576 -0.1857759356 0.5317972302 4292862707
-0.3017430604 -0.1852348000 0.5319400430 4292862707
-0.3013515472 -0.1844041944 0.5312498212 4292928500
-0.3014320135 -0.1838630289 0.5313916802 4292994293
-0.3015123308 -0.1833214313 0.5315332413 4293060086
-0.3011196852 -0.1824929118 0.5308411121 4293191159
-0.3007266223 -0.1816656739 0.5301481485 4293059573
-0.3012790680 -0.1814092696 0.5311220288 4292993780
-0.3008853495 -0.1805828661 0.5304279923 4292993780
-0.3004912138 -0.1797577292 0.5297331214 4292993780
-0.3000966311 -0.1789338887 0.5290375352 4292993780
-0.3006485105 -0.1786740720 0.5300104022 4292993780
-0.2997796834 -0.1775705665 0.5284788013 4292993780
-0.2993838787 -0.1767497063 0.5277810693 4292928241
-0.2994614840 -0.1762089580 0.5279178023 4292796655
-0.2995388806 -0.1756677926 0.5280542374 4292862448
-0.2996160686 -0.1751262099 0.5281903148 4292928241
-0.2992188632 -0.1743079573 0.5274900794 4292994034
-0.2992955148 -0.1737663895 0.5276252627 4293125620
-0.2988975644 -0.1729498953 0.5269237161 4293257206
-0.2989737093 -0.1724083573 0.5270579457 4293322999
-0.2990496755 -0.1718664020 0.5271918178 4293454333
-0.2991254032 -0.1713240445 0.5273253918 4293585919
-0.2992009521 -0.1707812697 0.5274585485 4293520126
-0.2988012731 -0.1699678749 0.5267539620 4293520126
-0.2988762856 -0.1694251448 0.5268862247 4293520126
-0.2989511192 -0.1688819975 0.5270181298 4293454333
-0.2990257442 -0.1683384478 0.5271496773 4293454333
-0.2991001606 -0.1677944958 0.5272808671 4293388540
-0.2991743684 -0.1672501415 0.5274116993 4293520126
-0.2992483675 -0.1667053849 0.5275421739 4292993782
-0.2988463044 -0.1658960432 0.5268333554 4292862196
-0.2989197969 -0.1653513461 0.5269628763 4292993782
-0.2985169590 -0.1645438075 0.5262527466 4292862196
-0.2981137037 -0.1637376100 0.5255418420 4292796403
-0.2977100015 -0.1629327536 0.5248301625 4292927989
-0.2977823019 -0.1623890549 0.5249575973 4292862196
-0.2978543937 -0.1618449688 0.5250847340 4292862709
-0.2974496186 -0.1610424072 0.5243711472 4292862709
-0.2975211740 -0.1604984105 0.5244972706 4292796916
-0.2971156240 -0.1596976668 0.5237823725 4292796916
-0.2971866727 -0.1591537595 0.5239076018 4292796916
-0.2972575128 -0.1586094499 0.5240324736 4292796916
-0.2973281145 -0.1580647528 0.5241569877 4292796916
-0.2973985374 -0.1575196683 0.5242810845 4292796916
-0.2974687517 -0.1569742113 0.5244048238 4292862707
-0.2975387275 -0.1564283520 0.5245282650 4292862707
-0.2971308231 -0.1556318998 0.5238091350 4292928500
-0.2972002625 -0.1550861597 0.5239315629 4292928500
-0.2972695231 -0.1545400321 0.5240536332 4292994293
-0.2968605161 -0.1537459493 0.5233325958 4292994293
-0.2969292104 -0.1531999409 0.5234537125 4292994293
-0.2969977260 -0.1526535451 0.5235744715 4293125879
-0.2970660031 -0.1521067768 0.5236948729 4292929270
-0.2971340716 -0.1515596360 0.5238148570 4292929270
-0.2967233360 -0.1507689506 0.5230907798 4293125628
-0.2967908680 -0.1502219439 0.5232098699 4293257214
-0.2968581915 -0.1496745497 0.5233285427 4293454585
-0.2969253063 -0.1491267979 0.5234467983 4293454585
-0.2969921827 -0.1485786736 0.5235646963 4293454846
-0.2970588505 -0.1480301768 0.5236822367 4293652223
-0.2966460586 -0.1472434402 0.5229545832 4293782527
-0.2967121899 -0.1466950923 0.5230711699 4293519356
-0.2967781126 -0.1461463869 0.5231873393 4290690758
-0.2968437970 -0.1455973089 0.5233031511 4282466633
-0.2969092727 -0.1450478733 0.5234185457 4279444256
-0.2964947522 -0.1442646235 0.5226878524 4281418046
-0.2960798144 -0.1434828043 0.5219563246 4280897595
-0.2956644595 -0.1427023858 0.5212240815 4279647528
-0.2952486575 -0.1419233978 0.5204910636 4279454512
-0.2953126132 -0.1413757205 0.5206038356 4279783477
-0.2948960662 -0.1405986995 0.5198695064 4279390778
-0.2949594855 -0.1400511861 0.5199813247 4279851329
-0.2950226963 -0.1395033300 0.5200927258 4280840531
-0.2950856686 -0.1389551312 0.5202037096 4283735423
-0.2951484025 -0.1384065747 0.5203143358 4284457349
-0.2956917286 -0.1380821913 0.5212721825 4281101906
-0.2957541645 -0.1375320405 0.5213822126 4280629049
-0.2962973416 -0.1372042894 0.5223398209 4282537046
-0.2963594198 -0.1366525441 0.5224491954 4290559690
-0.2969024479 -0.1363213956 0.5234065652 4293454582
-0.2969641685 -0.1357680708 0.5235153437 4294243323
-0.2970256507 -0.1352144033 0.5236237645 4293914358
-0.2970869243 -0.1346603930 0.5237317681 4293914617
-0.2976295650 -0.1343233883 0.5246883631 4293717238
-0.2976904809 -0.1337677836 0.5247957110 4293321967
-0.2977511585 -0.1332118511 0.5249027014 4293321967
-0.2973297238 -0.1324409246 0.5241597295 4293321967
-0.2973898351 -0.1318852156 0.5242657661 4293256174
-0.2974497378 -0.1313291639 0.5243713260 4293190381
-0.2975094020 -0.1307727695 0.5244765282 4293124588
-0.2975688577 -0.1302160472 0.5245813131 4293059308
-0.2976280451 -0.1296589971 0.5246856809 4293125101
-0.2976870239 -0.1291016191 0.5247896910 4292927724
-0.2977457941 -0.1285438985 0.5248932242 4292927724
-0.2978042960 -0.1279858500 0.5249963999 4293059310
-0.2978625894 -0.1274274737 0.5250991583 4293190896
-0.2979206443 -0.1268687844 0.5252014995 4293256689
-0.2984614074 -0.1265144646 0.5261548162 4293454068
-0.2980360389 -0.1257503927 0.5254049301 4293585654
-0.2980934083 -0.1251907200 0.5255060792 4293717240
-0.2981505096 -0.1246307269 0.5256067514 4293847282
-0.2982074022 -0.1240704060 0.5257070065 4291149769
-0.2982640564 -0.1235097647 0.5258069038 4282337357
-0.2983204722 -0.1229488105 0.5259063244 4280758325
-0.2978930473 -0.1221891716 0.5251528621 4280234544
-0.2974652350 -0.1214310452 0.5243986249 4280234544
-0.2975207567 -0.1208709553 0.5244965553 4279779633
-0.2975760400 -0.1203105599 0.5245940089 4279253289
-0.2976310849 -0.1197498441 0.5246910453 4280315727
-0.2976859212 -0.1191888228 0.5247876644 4282618482
-0.2977404892 -0.1186274886 0.5248839259 4283803269
-0.2977948189 -0.1180658564 0.5249797106 4283079546
-0.2983332276 -0.1176949739 0.5259288549 4283212675
-0.2988715768 -0.1173219532 0.5268779397 4283344261
-0.2994098663 -0.1169468015 0.5278268456 4281893992
-0.2999480963 -0.1165695190 0.5287756324 4279459651
-0.3004862368 -0.1161900982 0.5297243595 4285758595
-0.3005395532 -0.1156220511 0.5298183560 4292140516
-0.3005926609 -0.1150537059 0.5299119949 4293587449
-0.3011304140 -0.1146697178 0.5308600068 4292271589
-0.3011831045 -0.1140998527 0.5309528708 4287863458
-0.3007504642 -0.1133468747 0.5301901698 4281942088
-0.3012877703 -0.1129592359 0.5311373472 4280825658
-0.3013397157 -0.1123884842 0.5312289596 4280957244
-0.3013914227 -0.1118174344 0.5313200951 4281224520
-0.3014428914 -0.1112460941 0.5314108729 4285895823
-0.3019796014 -0.1108526811 0.5323570371 4285831570
-0.3020306528 -0.1102798358 0.5324470401 4282344541
-0.3025671244 -0.1098830774 0.5333927870 4284512887
-0.3026177883 -0.1093087345 0.5334820151 4291486945
-0.3031539917 -0.1089086309 0.5344273448 4294115327
-0.3032042086 -0.1083327904 0.5345158577 4294311935
-0.3037401736 -0.1079293489 0.5354607105 4294704382
-0.3042760491 -0.1075237766 0.5364053845 4294572796
-0.3048118055 -0.1071160734 0.5373498797 4294704636
-0.3053475022 -0.1067062393 0.5382942557 4294770429
-0.3053967953 -0.1061252803 0.5383810997 4294901502
-0.3059321940 -0.1057121083 0.5393249989 4294901502
-0.3064675033 -0.1052967981 0.5402686596 4294901502
-0.3070027232 -0.1048793644 0.5412122011 4294967295
-0.3075378239 -0.1044597998 0.5421555638 4294835709
-0.3080728352 -0.1040380970 0.5430986881 4294835709
-0.3086077273 -0.1036142707 0.5440416932 4294835709
-0.3091425300 -0.1031883061 0.5449844599 4294835709
-0.3096772134 -0.1027602181 0.5459270477 4294835709
-0.3102118075 -0.1023299918 0.5468694568 4294835709
-0.3107462525 -0.1018976420 0.5478116870 4294770429
-0.3107934892 -0.1013043746 0.5478948951 4294770429
-0.3113276362 -0.1008686945 0.5488365889 4294835709
-0.3118616939 -0.1004308760 0.5497780442 4294835709
-0.3123956323 -0.0999909341 0.5507193208 4294835709
-0.3129294515 -0.0995488688 0.5516603589 4294835709
-0.3129756451 -0.0989505351 0.5517418385 4294835709
-0.3135091364 -0.0985051394 0.5526823401 4294835709
-0.3145301640 -0.0982098728 0.5544822812 4294835709
-0.3150634766 -0.0977592915 0.5554224849 4294835709
-0.3155966997 -0.0973065719 0.5563624501 4294835709
-0.3156419098 -0.0967022702 0.5564421415 4294835709
-0.3161747754 -0.0962462276 0.5573815107 4294835709
-0.3167075217 -0.0957880691 0.5583207011 4294835709
-0.3167520463 -0.0951811150 0.5583992004 4294835709
-0.3172844648 -0.0947196335 0.5593377948 4294835709
-0.3178167343 -0.0942560285 0.5602760911 4294835709
-0.3178606033 -0.0936464444 0.5603534579 4294835709
-0.3183925152 -0.0931795239 0.5612911582 4294770427
-0.3189243078 -0.0927104726 0.5622286797 4294770427
-0.3189674914 -0.0920982659 0.5623047948 4294770427
-0.3194989264 -0.0916259065 0.5632416606 4294770427
-0.3200302124 -0.0911514312 0.5641782284 4294770429
-0.3210500181 -0.0908130556 0.5659760237 4294770429
-0.3215810657 -0.0903333873 0.5669122338 4294770429
-0.3221119940 -0.0898516029 0.5678482056 4294770429
