VERSION 0.7
FIELDS x y z rgba
SIZE 4 4 4 4
TYPE F F F U
COUNT 1 1 1 1
WIDTH 920
HEIGHT 1
VIEWPOINT 0.0 0.0 0.0 1.0 0.0 0.0 0.0
POINTS 920
DATA ascii
-0.2669578791 -0.1999194175 0.5285742283 4280098855
-0.2670380175 -0.1993919760 0.5287329555 4280295464
-0.2666906416 -0.1985458881 0.5280451179 4280361257
-0.2667703331 -0.1980183572 0.5282028913 4280361257
-0.2672775090 -0.1978068352 0.5292071104 4280361257
-0.2669292390 -0.1969618648 0.5285175443 4280230441
-0.2674363554 -0.1967477202 0.5295215845 4280230441
-0.2679435313 -0.1965313852 0.5305258632 4280296234
-0.2680226564 -0.1959998012 0.5306825042 4280493613
-0.2681016326 -0.1954677403 0.5308388472 4280953394
-0.2677519917 -0.1946238130 0.5301465988 4280953394
-0.2678304911 -0.1940916628 0.5303020477 4280756015
-0.2670515180 -0.1929396689 0.5287596583 4280558636
-0.2667006552 -0.1920994520 0.5280649066 4280427820
-0.2667782605 -0.1915684640 0.5282186270 4280362027
-0.2668556869 -0.1910370141 0.5283719301 4280558890
-0.2669329643 -0.1905051023 0.5285249352 4280493097
-0.2670100629 -0.1899727285 0.5286775827 4280558890
-0.2670869827 -0.1894398928 0.5288298726 4280558890
-0.2675932646 -0.1892103106 0.5298323035 4280493097
-0.2672403455 -0.1883728355 0.5291334987 4280493097
-0.2677465081 -0.1881406158 0.5301357508 4280558890
-0.2673929930 -0.1873039603 0.5294357538 4280493097
-0.2670390308 -0.1864685565 0.5287349224 4280427304
-0.2675449252 -0.1862332523 0.5297366381 4280427304
-0.2671903968 -0.1853986531 0.5290346146 4280427304
-0.2676961720 -0.1851607114 0.5300360918 4280493097
-0.2673410475 -0.1843269467 0.5293329358 4280558890
-0.2678467333 -0.1840863675 0.5303341746 4280624683
-0.2674909830 -0.1832534224 0.5296298265 4280624683
-0.2675656974 -0.1827159822 0.5297777653 4280624683
-0.2676402330 -0.1821780950 0.5299253464 4280624683
-0.2677145898 -0.1816397607 0.5300725102 4280690476
-0.2669263184 -0.1805177182 0.5285117626 4280756015
-0.2670000792 -0.1799802184 0.5286577940 4280690222
-0.2670736611 -0.1794422716 0.5288034678 4280756015
-0.2671470642 -0.1789038926 0.5289488435 4280756015
-0.2667885721 -0.1780769080 0.5282390118 4280821808
-0.2668614984 -0.1775385141 0.5283834338 4280821808
-0.2669342160 -0.1769996732 0.5285274386 4280690992
-0.2670067847 -0.1764603853 0.5286710858 4280690992
-0.2670791447 -0.1759206653 0.5288143754 4280690992
-0.2671513557 -0.1753804982 0.5289573073 4280625199
-0.2672233582 -0.1748399138 0.5290998816 4280493613
-0.2668626606 -0.1740168333 0.5283856988 4280493613
-0.2669341862 -0.1734762490 0.5285273194 4280427820
-0.2670055032 -0.1729352176 0.5286685824 4280362027
-0.2670766711 -0.1723937541 0.5288094878 4280624429
-0.2667146623 -0.1715733409 0.5280926824 4280558636
-0.2663522363 -0.1707542390 0.5273751020 4280558636
-0.2668558061 -0.1704900116 0.5283721685 4280492843
-0.2669261098 -0.1699477136 0.5285113454 4280427052
-0.2669962049 -0.1694049835 0.5286501646 4280361259
-0.2674996853 -0.1691359431 0.5296469927 4280361257
-0.2675695121 -0.1685914844 0.5297852755 4280361257
-0.2680729628 -0.1683189422 0.5307821035 4280427050
-0.2681425214 -0.1677727401 0.5309198499 4280427050
-0.2682119310 -0.1672261208 0.5310572386 4280361259
-0.2682811022 -0.1666790694 0.5311942697 4280295466
-0.2683501244 -0.1661315858 0.5313308835 4280295466
-0.2684189379 -0.1655836999 0.5314671397 4280229673
-0.2684875727 -0.1650353819 0.5316029787 4280163880
-0.2685559988 -0.1644866467 0.5317385197 4280098087
-0.2686242163 -0.1639374793 0.5318735838 4279966753
-0.2691270411 -0.1636522859 0.5328691602 4279769374
-0.2696298957 -0.1633649021 0.5338647962 4279966499
-0.2696977556 -0.1628127098 0.5339992046 4280032292
-0.2697654366 -0.1622601151 0.5341331959 4279177753
-0.2693977058 -0.1614462733 0.5334050655 4279835683
-0.2694648802 -0.1608937234 0.5335381031 4282598989
-0.2690964341 -0.1600817442 0.5328085423 4286086018
-0.2687275410 -0.1592711359 0.5320782065 4287533466
-0.2687939107 -0.1587191373 0.5322095752 4288257189
-0.2684243321 -0.1579103917 0.5314778090 4289375670
-0.2684901953 -0.1573584825 0.5316082239 4289836221
-0.2685558796 -0.1568061709 0.5317382812 4290230725
-0.2686213255 -0.1562534571 0.5318678617 4290625483
-0.2682504058 -0.1554475725 0.5311334729 4290625483
-0.2683153749 -0.1548949480 0.5312620997 4290625483
-0.2679437399 -0.1540909559 0.5305262804 4290164933
-0.2680082023 -0.1535384357 0.5306538939 4290164933
-0.2680724561 -0.1529855132 0.5307810903 4290099140
-0.2676998079 -0.1521839201 0.5300432444 4290164933
-0.2673267424 -0.1513837427 0.5293046236 4290230726
-0.2673901916 -0.1508314461 0.5294302106 4290296519
-0.2674534321 -0.1502787322 0.5295554399 4290296519
-0.2670793533 -0.1494809985 0.5288147330 4290296519
-0.2671420872 -0.1489284188 0.5289389491 4290296519
-0.2672046125 -0.1483754516 0.5290627480 4290296519
-0.2672669291 -0.1478220969 0.5291861892 4290230726
-0.2673290670 -0.1472683549 0.5293091536 4290230726
-0.2669533491 -0.1464741081 0.5285652876 4290296519
-0.2670149505 -0.1459205002 0.5286872387 4290230726
-0.2666385174 -0.1451282054 0.5279419422 4290099140
-0.2666996419 -0.1445747465 0.5280629396 4290164933
-0.2663224936 -0.1437844187 0.5273162127 4290296519
-0.2659449577 -0.1429955363 0.5265686512 4290230726
-0.2660052478 -0.1424427629 0.5266880393 4290230726
-0.2660652995 -0.1418896019 0.5268069506 4290164933
-0.2661251724 -0.1413360834 0.5269255042 4290099140
-0.2657463253 -0.1405502558 0.5261753798 4290099140
-0.2653670609 -0.1397658885 0.5254244208 4290164933
-0.2654260993 -0.1392130703 0.5255413651 4290164933
-0.2654849291 -0.1386598945 0.5256578326 4290099139
-0.2655435801 -0.1381063461 0.5257739425 4290099139
-0.2656019926 -0.1375524253 0.5258896351 4290164932
-0.2652211189 -0.1367717087 0.5251354575 4290164932
-0.2652790248 -0.1362179816 0.5252501369 4290164932
-0.2648974359 -0.1354392767 0.5244945884 4290164932
-0.2649548054 -0.1348857433 0.5246081948 4290164932
-0.2645725012 -0.1341090798 0.5238512754 4290164932
-0.2646293938 -0.1335557550 0.5239638686 4290164932
-0.2642463744 -0.1327811331 0.5232055187 4290164932
-0.2643027604 -0.1322280169 0.5233170986 4290230725
-0.2639190257 -0.1314554513 0.5225573778 4290230725
-0.2639748752 -0.1309025437 0.5226679444 4290230725
-0.2640305161 -0.1303492934 0.5227780938 4290230725
-0.2636457980 -0.1295793504 0.5220163465 4290362311
-0.2637009025 -0.1290263236 0.5221254826 4290428104
-0.2633154988 -0.1282584667 0.5213623643 4290428104
-0.2633700967 -0.1277056783 0.5214704871 4290428104
-0.2634244859 -0.1271525323 0.5215781331 4290428105
-0.2630380690 -0.1263873577 0.5208130479 4290428105
-0.2630919218 -0.1258344650 0.5209196806 4290362312
-0.2631455660 -0.1252812296 0.5210259557 4290428105
-0.2627581358 -0.1245187297 0.5202588439 4290428105
-0.2628112733 -0.1239657477 0.5203640461 4290428105
-0.2624231577 -0.1232053638 0.5195955634 4290362825
-0.2624757588 -0.1226526424 0.5196996927 4290428618
-0.2625281811 -0.1220995858 0.5198034644 4290362825
-0.2625803649 -0.1215462014 0.5199068189 4290362825
-0.2621909380 -0.1207891405 0.5191357136 4290362825
-0.2618010938 -0.1200336143 0.5183638930 4290362825
-0.2618524730 -0.1194811091 0.5184655786 4290362825
-0.2619036138 -0.1189282835 0.5185668468 4290362825
-0.2619545460 -0.1183751300 0.5186676979 4290428618
-0.2615634203 -0.1176229715 0.5178932548 4290362825
-0.2616138160 -0.1170701087 0.5179930329 4290362825
-0.2621060014 -0.1167137474 0.5189675689 4290362825
-0.2621560395 -0.1161593199 0.5190666914 4290362825
-0.2622058988 -0.1156045645 0.5191653371 4290033860
-0.2618132532 -0.1148554906 0.5183879137 4290494411
-0.2618625462 -0.1143010482 0.5184855461 4290297032
-0.2614692152 -0.1135541499 0.5177067518 4289836480
-0.2615180016 -0.1130000204 0.5178033710 4288191655
-0.2611239851 -0.1122553200 0.5170232058 4288257449
-0.2607295811 -0.1115121841 0.5162423253 4290099653
-0.2607775629 -0.1109590158 0.5163372755 4290494157
-0.2608252764 -0.1104055345 0.5164318085 4290494157
-0.2608728111 -0.1098517478 0.5165258646 4290362312
-0.2609201074 -0.1092976630 0.5166195035 4290559691
-0.2609671652 -0.1087432802 0.5167127252 4290888141
-0.2610140145 -0.1081885919 0.5168054700 4290427590
-0.2610606551 -0.1076336056 0.5168977976 4287795868
-0.2611070573 -0.1070783287 0.5169897079 4281808705
-0.2615966201 -0.1067036092 0.5179589987 4279111444
-0.2616426647 -0.1061467901 0.5180501938 4279966753
-0.2612449229 -0.1054107174 0.5172626376 4279637528
-0.2608468235 -0.1046762466 0.5164744258 4279637528
-0.2600046396 -0.1037662923 0.5148069263 4279637274
-0.2596057057 -0.1030359715 0.5140169859 4279637274
-0.2596502304 -0.1024824381 0.5141051412 4279571481
-0.2596945167 -0.1019286141 0.5141928792 4279505688
-0.2597385943 -0.1013745144 0.5142801404 4279439895
-0.2593383789 -0.1006477848 0.5134876966 4279374102
-0.2593819201 -0.1000940725 0.5135739446 4279308309
-0.2589810193 -0.0993696302 0.5127801895 4279308309
-0.2590240538 -0.0988163128 0.5128653646 4279439895
-0.2595112324 -0.0984312594 0.5138299465 4279439895
-0.2599983215 -0.0980440378 0.5147943497 4279374102
-0.2600407898 -0.0974879935 0.5148785114 4279374102
-0.2600830793 -0.0969316736 0.5149621964 4279308309
-0.2601251006 -0.0963750929 0.5150454044 4279308309
-0.2601669133 -0.0958182365 0.5151281953 4279242516
-0.2602084875 -0.0952611119 0.5152105093 4279242516
-0.2606947124 -0.0948656127 0.5161732435 4279242516
-0.2611808181 -0.0944679379 0.5171357393 4279242516
-0.2612218559 -0.0939081088 0.5172169805 4279242516
-0.2612626553 -0.0933480188 0.5172977448 4279242516
-0.2613032162 -0.0927876681 0.5173780918 4279176723
-0.2617887855 -0.0923841745 0.5183394551 4279176723
-0.2622742355 -0.0919785127 0.5193006396 4279176723
-0.2618688643 -0.0912602693 0.5184980631 4279176723
-0.2619085908 -0.0906979293 0.5185766816 4279242770
-0.2615025640 -0.0899820402 0.5177727938 4279242770
-0.2610961795 -0.0892678201 0.5169681311 4279242770
-0.2611350417 -0.0887066349 0.5170450807 4279242770
-0.2611736655 -0.0881451964 0.5171216130 4279242770
-0.2612120807 -0.0875835121 0.5171976089 4279242770
-0.2616960704 -0.0871700868 0.5181559324 4279242770
-0.2612881660 -0.0864594057 0.5173482895 4279242770
-0.2613258660 -0.0858969912 0.5174229145 4279176977
-0.2613633275 -0.0853343233 0.5174971223 4279176977
-0.2614005506 -0.0847714245 0.5175707936 4279111184
-0.2614375651 -0.0842082798 0.5176440477 4279111184
-0.2619205117 -0.0837876350 0.5186002851 4279111184
-0.2619570792 -0.0832230523 0.5186727643 4279045391
-0.2624397576 -0.0827990547 0.5196284056 4279045391
-0.2624759376 -0.0822330415 0.5197000504 4279045391
-0.2625118494 -0.0816667899 0.5197711587 4279111184
-0.2625475526 -0.0811003149 0.5198418498 4279045391
-0.2630295753 -0.0806705654 0.5207962394 4279111184
-0.2630648315 -0.0801026672 0.5208660364 4279111184
-0.2635465562 -0.0796695650 0.5218198895 4279045391
-0.2631346583 -0.0789661780 0.5210043192 4279045391
-0.2631691992 -0.0783976018 0.5210727453 4279045391
-0.2632035315 -0.0778287947 0.5211406350 4278979598
-0.2627906799 -0.0771285966 0.5203232169 4279045389
-0.2628244460 -0.0765603185 0.5203900933 4279045389
-0.2628579736 -0.0759918243 0.5204564929 4279045389
-0.2628912628 -0.0754231066 0.5205223560 4279045389
-0.2629243135 -0.0748541802 0.5205878019 4279045389
-0.2629570961 -0.0742850378 0.5206527710 4279045389
-0.2634369433 -0.0738410503 0.5216028094 4279111182
-0.2639166117 -0.0733949095 0.5225526094 4279111182
-0.2643961608 -0.0729466304 0.5235021114 4279045902
-0.2644281685 -0.0723737329 0.5235654712 4279111695
-0.2649073899 -0.0719221309 0.5245143175 4279111695
-0.2653864920 -0.0714683756 0.5254629254 4279111695
-0.2649702728 -0.0707733780 0.5246388316 4279111695
-0.2654489875 -0.0703172758 0.5255866647 4279045902
-0.2650321722 -0.0696238130 0.5247613788 4278980109
-0.2650627494 -0.0690487251 0.5248218775 4278980109
-0.2646452785 -0.0683577806 0.5239953399 4279045902
-0.2646753192 -0.0677832738 0.5240547657 4279045902
-0.2647050917 -0.0672085807 0.5241137743 4278980109
-0.2647346258 -0.0666336864 0.5241722465 4279045902
-0.2647639215 -0.0660585985 0.5242302418 4279045902
-0.2647929490 -0.0654833242 0.5242877007 4279111695
-0.2652698457 -0.0650176853 0.5252319574 4279111441
-0.2652984262 -0.0644410625 0.5252885818 4279045648
-0.2657749653 -0.0639721304 0.5262321234 4279111441
-0.2653548717 -0.0632872581 0.5254003406 4279177234
-0.2653827369 -0.0627100840 0.5254554749 4279177234
-0.2654103339 -0.0621327236 0.5255101323 4279243027
-0.2654376626 -0.0615551844 0.5255642533 4279243027
-0.2650163472 -0.0608744696 0.5247300267 4279308820
-0.2645947039 -0.0601955280 0.5238951445 4279374613
-0.2646211982 -0.0596194156 0.5239476562 4279374613
-0.2637503445 -0.0588429831 0.5222233534 4279505942
-0.2637762725 -0.0582684837 0.5222746730 4279440149
-0.2638019323 -0.0576938130 0.5223255157 4279374356
-0.2633786798 -0.0570218340 0.5214874744 4279308563
-0.2634038031 -0.0564478077 0.5215372443 4279308563
-0.2634286880 -0.0558736213 0.5215864778 4279374356
-0.2634533048 -0.0552992709 0.5216352344 4279440406
-0.2634777129 -0.0547247604 0.5216835141 4279506199
-0.2639507353 -0.0542423390 0.5226201415 4279571992
-0.2644235790 -0.0537578054 0.5235563517 4279637785
-0.2648962736 -0.0532711558 0.5244922638 4279637787
-0.2649197578 -0.0526930802 0.5245388150 4279637787
-0.2653920650 -0.0522031821 0.5254739523 4279703580
-0.2654151022 -0.0516238213 0.5255195498 4279703580
-0.2658870220 -0.0511306822 0.5264539123 4279703580
-0.2659095824 -0.0505500436 0.5264986157 4279703580
-0.2659318745 -0.0499692596 0.5265427828 4279637787
-0.2655046880 -0.0493049026 0.5256969333 4279703580
-0.2650771737 -0.0486423634 0.5248504877 4279703580
-0.2646493316 -0.0479816459 0.5240033269 4279769373
-0.2646705210 -0.0474032350 0.5240452886 4279835166
-0.2646914423 -0.0468246862 0.5240867138 4279835166
-0.2647121251 -0.0462459996 0.5241276622 4279835166
-0.2647325397 -0.0456671789 0.5241680741 4279900959
-0.2652021945 -0.0451647788 0.5250980258 4279835166
-0.2647726238 -0.0445091426 0.5242474675 4279900959
-0.2643427253 -0.0438553430 0.5233962536 4279966752
-0.2643620968 -0.0432769842 0.5234345794 4279966752
-0.2639315724 -0.0426258817 0.5225821733 4279966752
-0.2639504075 -0.0420482531 0.5226194859 4279900959
-0.2639689744 -0.0414705053 0.5226562619 4279835166
-0.2639873028 -0.0408926345 0.5226925611 4279769373
-0.2640053630 -0.0403146446 0.5227283239 4279769373
-0.2649227381 -0.0398719274 0.5245447159 4279703580
-0.2649403811 -0.0392917320 0.5245795846 4279703580
-0.2654075623 -0.0387771465 0.5255046487 4279769373
-0.2654246986 -0.0381957404 0.5255385637 4279966752
-0.2654415965 -0.0376142189 0.5255720019 4279900959
-0.2659081221 -0.0370953567 0.5264957547 4279966753
-0.2663744986 -0.0365744159 0.5274191499 4280229925
-0.2668406367 -0.0360513926 0.5283421278 4280361511
-0.2677565813 -0.0355861001 0.5301556587 4280493097
-0.2677723169 -0.0349991173 0.5301868320 4280493097
-0.2682378292 -0.0344698615 0.5311085582 4280493097
-0.2687031627 -0.0339385346 0.5320298672 4280558890
-0.2691682577 -0.0334051363 0.5329508185 4280493097
-0.2696331441 -0.0328696631 0.5338712931 4280492843
-0.2705480158 -0.0323860049 0.5356826782 4280624429
-0.2714626789 -0.0318983011 0.5374937057 4280493613
-0.2719269991 -0.0313546434 0.5384130478 4280690992
-0.2728413045 -0.0308598429 0.5402233601 4280690992
-0.2733051777 -0.0303110629 0.5411418676 4280690992
-0.2737688422 -0.0297602192 0.5420598984 4280690992
-0.2760334909 -0.0293991491 0.5465438962 4280559406
-0.2773974240 -0.0289341658 0.5492444634 4280690992
-0.2774102092 -0.0283252206 0.5492697358 4281151543
-0.2819263041 -0.0281661302 0.5582116246 4280625712
-0.2841906548 -0.0277671553 0.5626949668 4280757298
-0.3091731369 -0.2749879658 0.6135092378 4291810270
-0.3092788756 -0.2744001448 0.6137191057 4284375661
-0.3081302047 -0.2727016807 0.6114397645 4280033321
-0.3094899356 -0.2732226849 0.6141378880 4280691251
-0.3095952272 -0.2726330757 0.6143468022 4280164650
-0.3092818260 -0.2716751993 0.6137249470 4279835685
-0.3093866706 -0.2710851729 0.6139329672 4280625199
-0.3090725541 -0.2701285183 0.6133096814 4280559406
-0.3058254123 -0.2666162550 0.6068661809 4280558636
-0.3059284985 -0.2660316229 0.6070707440 4280492843
-0.3043545485 -0.2639919221 0.6039475203 4280427304
-0.3027793169 -0.2619580328 0.6008216739 4280427304
-0.2978467941 -0.2570338249 0.5910337567 4280361510
-0.2740267813 -0.2358736396 0.5437664390 4280361510
-0.2703402638 -0.2321043462 0.5364510417 4280361257
-0.2687506676 -0.2301470488 0.5332967639 4280427050
-0.2679999471 -0.2289132923 0.5318070650 4280492843
-0.2685091197 -0.2287562191 0.5328174233 4280492843
-0.2669167519 -0.2268110961 0.5296576023 4280558636
-0.2661640644 -0.2255846858 0.5281640291 4280558636
-0.2666725516 -0.2254277021 0.5291730165 4280427050
-0.2667604089 -0.2249138355 0.5293473601 4280295464
-0.2664272487 -0.2240455151 0.5286862254 4280361511
-0.2660936415 -0.2231783122 0.5280242562 4280427304
-0.2666019797 -0.2230168581 0.5290329456 4280493097
-0.2666891217 -0.2225017697 0.5292059183 4280493097
-0.2663546801 -0.2216354907 0.5285422206 4280493097
-0.2664414048 -0.2211202085 0.5287142992 4280493097
-0.2665279806 -0.2206044346 0.5288861394 4280493097
-0.2666144073 -0.2200881541 0.5290576220 4280493097
-0.2662786841 -0.2192239463 0.5283914208 4280492843
-0.2663646936 -0.2187074721 0.5285621285 4280427050
-0.2664505243 -0.2181905061 0.5287324786 4280427050
-0.2652690411 -0.2166381478 0.5263879299 4280427050
-0.2657767236 -0.2164667845 0.5273953676 4280427050
-0.2654391825 -0.2156066298 0.5267255902 4280492843
-0.2651012242 -0.2147476375 0.5260549188 4280558636
-0.2647628486 -0.2138897926 0.5253834724 4280558636
-0.2652702034 -0.2137148082 0.5263902545 4280492843
-0.2649312615 -0.2128576338 0.5257176757 4280492843
-0.2645918727 -0.2120016068 0.5250442624 4280558636
-0.2650990486 -0.2118234932 0.5260506868 4280558636
-0.2656063437 -0.2116432339 0.5270572901 4280624429
-0.2656899989 -0.2111241221 0.5272232890 4280756015
-0.2653496265 -0.2102686167 0.5265479088 4280756015
-0.2654328644 -0.2097493410 0.5267130136 4280690222
-0.2655159235 -0.2092295885 0.5268778801 4280492843
-0.2660230994 -0.2090427428 0.5278843045 4280361257
-0.2661060095 -0.2085211724 0.5280487537 4280295464
-0.2661887407 -0.2079991251 0.5282129645 4280295464
-0.2662713230 -0.2074765861 0.5283768177 4280361257
-0.2663537264 -0.2069535553 0.5285403728 4280427050
-0.2664359808 -0.2064300478 0.5287036300 4280427050
-0.2660930157 -0.2055776566 0.5280230641 4280361257
-0.2666000426 -0.2053815722 0.5290291309 4280427050
-0.2662565112 -0.2045298815 0.5283474326 4280361257
-0.2654870749 -0.2033534944 0.5268206000 4280361257
-0.2664193511 -0.2034801841 0.5286705494 4280361257
-0.2660748065 -0.2026304007 0.5279868841 4280295464
-0.2661556900 -0.2021051943 0.5281473398 4280295464
-0.2662363946 -0.2015795112 0.5283075571 4280295464
-0.2663169801 -0.2010533512 0.5284674168 4280295464
-0.2659711540 -0.2002058625 0.5277811885 4280098855
-0.2660512626 -0.1996795833 0.5279401541 4280098855
-0.2661311924 -0.1991528273 0.5280987620 4280164648
-0.2657843828 -0.1983072907 0.5274105668 4280230441
-0.2662906051 -0.1980978996 0.5284150839 4280296234
-0.2663700581 -0.1975697279 0.5285727978 4280230441
-0.2668763697 -0.1973568648 0.5295774341 4280230441
-0.2669556141 -0.1968268901 0.5297347307 4280230441
-0.2670347095 -0.1962964535 0.5298916698 4280296234
-0.2671136260 -0.1957655549 0.5300482512 4280493613
-0.2667648792 -0.1949218065 0.5293561816 4280822578
-0.2668433189 -0.1943908036 0.5295119286 4280822578
-0.2669216096 -0.1938593388 0.5296672583 4280625199
-0.2665718496 -0.1930175871 0.5289732218 4280427820
-0.2662216723 -0.1921770722 0.5282783508 4280427820
-0.2662992179 -0.1916459203 0.5284321904 4280362027
-0.2655200660 -0.1904997826 0.5268860459 4280427820
-0.2660253942 -0.1902758181 0.5278888345 4280362027
-0.2661022842 -0.1897441298 0.5280414224 4280427820
-0.2661790252 -0.1892119795 0.5281936526 4280427820
-0.2666843235 -0.1889832020 0.5291963816 4280362027
-0.2667608261 -0.1884492785 0.5293481946 4280362027
-0.2664081752 -0.1876127720 0.5286483765 4280362027
-0.2664842010 -0.1870787889 0.5287992954 4280362027
-0.2661308348 -0.1862439513 0.5280980468 4280362027
-0.2666357756 -0.1860094517 0.5291000605 4280362027
-0.2667112947 -0.1854740977 0.5292499065 4280362027
-0.2667866349 -0.1849382967 0.5293993950 4280427820
-0.2668617964 -0.1844020337 0.5295485258 4280427820
-0.2665069401 -0.1835692376 0.5288444161 4280362027
-0.2670116127 -0.1833281517 0.5298458338 4280362027
-0.2670862377 -0.1827905327 0.5299939513 4280427820
-0.2671607137 -0.1822524667 0.5301416516 4280493611
-0.2668046355 -0.1814213395 0.5294351578 4280559404
-0.2664481699 -0.1805914938 0.5287277699 4280559406
-0.2660912871 -0.1797629446 0.5280196071 4280493613
-0.2661646903 -0.1792256832 0.5281652212 4280493613
-0.2662378848 -0.1786879897 0.5283104777 4280493613
-0.2663109303 -0.1781498492 0.5284554362 4280559406
-0.2659527361 -0.1773238778 0.5277446508 4280493613
-0.2660252750 -0.1767857224 0.5278885961 4280493613
-0.2665289044 -0.1765327901 0.5288879871 4280559406
-0.2666012049 -0.1759928912 0.5290314555 4280559406
-0.2666733265 -0.1754525453 0.5291745663 4280493613
-0.2663136423 -0.1746287346 0.5284608006 4280427820
-0.2663852870 -0.1740883887 0.5286029577 4280427820
-0.2660248876 -0.1732663363 0.5278878212 4280427820
-0.2660960257 -0.1727260053 0.5280290246 4280362027
-0.2661670148 -0.1721852422 0.5281698108 4280492843
-0.2658055723 -0.1713653952 0.5274526477 4280427050
-0.2658760548 -0.1708246469 0.5275925398 4280427050
-0.2659463584 -0.1702834666 0.5277320147 4280427050
-0.2660164833 -0.1697418541 0.5278711319 4280427050
-0.2665190697 -0.1694749296 0.5288684368 4280361257
-0.2665889263 -0.1689315885 0.5290070772 4280361257
-0.2670914829 -0.1686611772 0.5300043225 4280361257
-0.2671610713 -0.1681160927 0.5301423669 4280427050
-0.2676635683 -0.1678421646 0.5311395526 4280427050
-0.2672996521 -0.1670246422 0.5304174423 4280427052
-0.2673686743 -0.1664782912 0.5305544138 4280361259
-0.2674375176 -0.1659315079 0.5306909680 4280295466
-0.2675061524 -0.1653843075 0.5308271646 4280229673
-0.2675746083 -0.1648366898 0.5309630036 4280163878
-0.2676428556 -0.1642886400 0.5310984254 4280163878
-0.2677109241 -0.1637401879 0.5312334895 4280098339
-0.2682127655 -0.1634557992 0.5322293639 4280164132
-0.2687146664 -0.1631692201 0.5332252979 4279900960
-0.2687823772 -0.1626177281 0.5333596468 4279966753
-0.2688498795 -0.1620658189 0.5334935784 4280163878
-0.2689171731 -0.1615134925 0.5336271524 4279637534
-0.2689842880 -0.1609607488 0.5337603092 4279571741
-0.2686165571 -0.1601484567 0.5330306292 4281677117
-0.2686831653 -0.1595957875 0.5331627727 4284901746
-0.2683146894 -0.1587853581 0.5324316025 4287401880
-0.2683807909 -0.1582327634 0.5325627923 4288059810
-0.2680116296 -0.1574241966 0.5318302512 4288915119
-0.2676420510 -0.1566170305 0.5310968161 4289901760
-0.2677073479 -0.1560650021 0.5312263966 4289967553
-0.2677724361 -0.1555125862 0.5313555598 4290362311
-0.2678373456 -0.1549597532 0.5314843655 4290296518
-0.2674664259 -0.1541554630 0.5307483673 4290099140
-0.2670950890 -0.1533525586 0.5300115347 4290033347
-0.2671591938 -0.1528003365 0.5301386714 4290033347
-0.2672230899 -0.1522477120 0.5302654505 4290099140
-0.2668507397 -0.1514472365 0.5295265913 4290230726
-0.2669141293 -0.1508947313 0.5296523571 4290296519
-0.2669773102 -0.1503418237 0.5297777653 4290296519
-0.2666039467 -0.1495437771 0.5290368795 4290296519
-0.2666666210 -0.1489909887 0.5291612148 4290362312
-0.2662925422 -0.1481948793 0.5284188986 4290296519
-0.2667913437 -0.1478842646 0.5294087529 4290296519
-0.2664166689 -0.1470891833 0.5286652446 4290296519
-0.2660415769 -0.1462955475 0.5279209018 4290296519
-0.2665399611 -0.1459819525 0.5289099216 4290164933
-0.2661642730 -0.1451893598 0.5281643867 4290099140
-0.2657881677 -0.1443981975 0.5274180770 4290099140
-0.2658489048 -0.1438450664 0.5275385976 4290164933
-0.2654720843 -0.1430558711 0.5267908573 4290164933
-0.2655323148 -0.1425028890 0.5269103646 4290164933
-0.2651547790 -0.1417156756 0.5261611938 4290099140
-0.2652144730 -0.1411628574 0.5262796879 4290099140
-0.2652739882 -0.1406096667 0.5263977647 4290099140
-0.2648954391 -0.1398249865 0.5256466269 4290164933
-0.2649544477 -0.1392719597 0.5257636905 4290164933
-0.2645751834 -0.1384892911 0.5250111222 4290033346
-0.2646336854 -0.1379364431 0.5251271725 4290033346
-0.2646919489 -0.1373832375 0.5252428055 4290033346
-0.2647500336 -0.1368296742 0.5253580213 4290033346
-0.2643694580 -0.1360501051 0.5246028304 4290033346
-0.2644270062 -0.1354967356 0.5247170329 4290033346
-0.2640457451 -0.1347192079 0.5239604712 4290033346
-0.2641027570 -0.1341660172 0.5240736604 4290033346
-0.2637207806 -0.1333905309 0.5233156681 4290099139
-0.2637773156 -0.1328375489 0.5234278440 4290099139
-0.2633946240 -0.1320641190 0.5226684809 4290099139
-0.2634506524 -0.1315113604 0.5227795839 4290164932
-0.2635064423 -0.1309582442 0.5228903294 4290230725
-0.2635620236 -0.1304047704 0.5230005980 4290230725
-0.2631780207 -0.1296345294 0.5222386718 4290296518
-0.2627936304 -0.1288657933 0.5214759111 4290362311
-0.2628484070 -0.1283131391 0.5215845704 4290296518
-0.2624633312 -0.1275464743 0.5208204389 4290362311
-0.2625175714 -0.1269940585 0.5209280252 4290362312
-0.2625716031 -0.1264412850 0.5210352540 4290362312
-0.2626254261 -0.1258881688 0.5211420655 4290428105
-0.2622390389 -0.1251247823 0.5203753114 4290493898
-0.2622923255 -0.1245719269 0.5204811096 4290493898
-0.2619052231 -0.1238106415 0.5197129846 4290362312
-0.2619580030 -0.1232580394 0.5198177099 4290297032
-0.2620105743 -0.1227051020 0.5199220181 4290362825
-0.2620629370 -0.1221518368 0.5200259089 4290428618
-0.2621150613 -0.1215982363 0.5201293826 4290362825
-0.2617263794 -0.1208408698 0.5193580389 4290362825
-0.2613372803 -0.1200850457 0.5185859799 4290362825
-0.2613885999 -0.1195323244 0.5186877847 4290297032
-0.2609988153 -0.1187786385 0.5179143548 4290297032
-0.2614905834 -0.1184259057 0.5188901424 4290362825
-0.2615412474 -0.1178722158 0.5189906955 4290231239
-0.2615916729 -0.1173182055 0.5190907717 4290428618
-0.2612006962 -0.1165669635 0.5183148980 4290165446
-0.2612506151 -0.1160132512 0.5184139609 4290428618
-0.2613003254 -0.1154592186 0.5185126066 4290099653
-0.2613497972 -0.1149048656 0.5186107755 4290165446
-0.2613990605 -0.1143502071 0.5187085271 4290428618
-0.2610064745 -0.1136030108 0.5179294944 4288717999
-0.2610552013 -0.1130486578 0.5180262327 4287796897
-0.2606619298 -0.1123036519 0.5172458291 4289639102
-0.2602682710 -0.1115602180 0.5164646506 4289770688
-0.2603161931 -0.1110068262 0.5165597200 4290362571
-0.2603638768 -0.1104531214 0.5166543722 4290823122
-0.2604113519 -0.1098991185 0.5167486072 4290493898
-0.2604586184 -0.1093448102 0.5168423653 4290362312
-0.2605056465 -0.1087902039 0.5169357061 4290362311
-0.2605524659 -0.1082352921 0.5170285702 4289112244
-0.2605990469 -0.1076800898 0.5171210170 4284308837
-0.2606453896 -0.1071245819 0.5172129869 4279505948
-0.2606915534 -0.1065687835 0.5173045397 4279440408
-0.2607374489 -0.1060126871 0.5173956752 4279637787
-0.2603403926 -0.1052772626 0.5166077614 4279440149
-0.2599429488 -0.1045434251 0.5158190727 4279505942
-0.2595451176 -0.1038111970 0.5150296688 4279571481
-0.2591469288 -0.1030805707 0.5142394900 4279571481
-0.2591914237 -0.1025268137 0.5143277645 4279505688
-0.2592356801 -0.1019727662 0.5144156218 4279439895
-0.2592796981 -0.1014184430 0.5145030022 4279439895
-0.2593235075 -0.1008638293 0.5145899057 4279374102
-0.2593671083 -0.1003089398 0.5146764517 4279308309
-0.2589670420 -0.0995832533 0.5138825178 4279308309
-0.2590100765 -0.0990287587 0.5139679909 4279374102
-0.2599400878 -0.0988112241 0.5158134103 4279374102
-0.2599828541 -0.0982542783 0.5158982873 4279374102
-0.2600253820 -0.0976970568 0.5159826279 4279374102
-0.2596238554 -0.0969737917 0.5151858926 4279308309
-0.2596658468 -0.0964169800 0.5152692795 4279308309
-0.2597076297 -0.0958598927 0.5153521299 4279242516
-0.2597491741 -0.0953025371 0.5154345632 4279308309
-0.2602345645 -0.0949068815 0.5163977742 4279242516
-0.2607198656 -0.0945090428 0.5173608065 4279242516
-0.2607608736 -0.0939489901 0.5174421072 4279242516
-0.2608016133 -0.0933886692 0.5175229907 4279242516
-0.2608421445 -0.0928280875 0.5176034570 4279176723
-0.2613268793 -0.0924244300 0.5185652971 4279176723
-0.2613670230 -0.0918623731 0.5186449289 4279176977
-0.2614069283 -0.0913000554 0.5187241435 4279176977
-0.2614465952 -0.0907374844 0.5188028216 4279242770
-0.2610413134 -0.0900212973 0.5179986358 4279242770
-0.2606356740 -0.0893067718 0.5171937346 4279242770
-0.2606745064 -0.0887453556 0.5172708035 4279242770
-0.2607131004 -0.0881836861 0.5173473954 4279242768
-0.2607514858 -0.0876217708 0.5174235106 4279242768
-0.2612346411 -0.0872081667 0.5183823109 4279242768
-0.2612726092 -0.0866447985 0.5184575915 4279242768
-0.2613103390 -0.0860811844 0.5185324550 4279176977
-0.2613478303 -0.0855173245 0.5186069012 4279111184
-0.2618303895 -0.0850979462 0.5195644498 4279111184
-0.2618674636 -0.0845326483 0.5196380019 4279111184
-0.2619042993 -0.0839671046 0.5197111368 4279111184
-0.2619409263 -0.0834013224 0.5197837949 4279045391
-0.2624228299 -0.0829761848 0.5207400322 4279045391
-0.2624590397 -0.0824089721 0.5208119154 4279045391
-0.2624949813 -0.0818415210 0.5208832622 4279045391
-0.2625307143 -0.0812738389 0.5209541321 4279045391
-0.2625661790 -0.0807059333 0.5210245252 4279111184
-0.2626014352 -0.0801377892 0.5210944414 4279111184
-0.2626364231 -0.0795694217 0.5211638808 4279111184
-0.2626711726 -0.0790008232 0.5212329030 4279045391
-0.2627057135 -0.0784320012 0.5213013887 4279045391
-0.2622939050 -0.0777307600 0.5204842091 4278979598
-0.2623278797 -0.0771624669 0.5205516815 4279045391
-0.2619154453 -0.0764636844 0.5197331905 4279045391
-0.2619488835 -0.0758959129 0.5197995901 4278979598
-0.2624283731 -0.0754562467 0.5207510591 4278979598
-0.2624613941 -0.0748870820 0.5208166242 4279045391
-0.2624941766 -0.0743176937 0.5208816528 4279111184
-0.2629731894 -0.0738735199 0.5218321681 4279045648
-0.2634520531 -0.0734271929 0.5227824450 4278979855
-0.2639307976 -0.0729787201 0.5237324238 4279111441
-0.2639627755 -0.0724055842 0.5237958431 4279111441
-0.2644411922 -0.0719537809 0.5247451663 4279111441
-0.2653661966 -0.0716204122 0.5265807509 4279111441
-0.2653976083 -0.0710437447 0.5266430378 4279111441
-0.2649818957 -0.0703482479 0.5258181691 4279111441
-0.2650127411 -0.0697721466 0.5258793831 4278979855
-0.2645963728 -0.0690791532 0.5250531435 4278979855
-0.2646266818 -0.0685036257 0.5251132846 4279045648
-0.2642096877 -0.0678131580 0.5242857933 4279045648
-0.2642394304 -0.0672382116 0.5243448615 4279111441
-0.2638218105 -0.0665502772 0.5235161185 4279111441
-0.2638510168 -0.0659759194 0.5235740542 4279111441
-0.2638799846 -0.0654013678 0.5236315727 4279111441
-0.2643560171 -0.0649365112 0.5245761871 4279177234
-0.2648318708 -0.0644695088 0.5255204439 4279177234
-0.2653076053 -0.0640003756 0.5264644623 4279177234
-0.2648882568 -0.0633152053 0.5256323814 4279243027
-0.2649160922 -0.0627377853 0.5256875753 4279243027
-0.2649436593 -0.0621601753 0.5257422924 4279308820
-0.2645234168 -0.0614783652 0.5249083638 4279308820
-0.2641028166 -0.0607983284 0.5240737200 4279440406
-0.2641295493 -0.0602221414 0.5241267681 4279506199
-0.2641560137 -0.0596457794 0.5241793394 4279440406
-0.2632867396 -0.0588690080 0.5224543214 4279637528
-0.2628648281 -0.0581951179 0.5216171145 4279571735
-0.2628904283 -0.0576211773 0.5216679573 4279440406
-0.2629157901 -0.0570470691 0.5217182636 4279374613
-0.2629408836 -0.0564727932 0.5217680931 4279374613
-0.2629657388 -0.0558983572 0.5218173862 4279506199
-0.2634383738 -0.0554180034 0.5227552652 4279571992
-0.2634627819 -0.0548422672 0.5228036642 4279637785
-0.2634869218 -0.0542663671 0.5228515863 4279637787
-0.2639589608 -0.0537816212 0.5237883329 4279703580
-0.2644308507 -0.0532947592 0.5247246623 4279703580
-0.2644543350 -0.0527164340 0.5247712731 4279703580
-0.2649258077 -0.0522263236 0.5257068872 4279769373
-0.2645005286 -0.0515593216 0.5248629451 4279769373
-0.2649715841 -0.0510669462 0.5257977247 4279769373
-0.2649940848 -0.0504870340 0.5258423686 4279769373
-0.2641195059 -0.0497380868 0.5241068602 4279769373
-0.2645898759 -0.0492433123 0.5250402689 4279769373
-0.2641631067 -0.0485814661 0.5241934061 4279835166
-0.2637359798 -0.0479214415 0.5233458281 4279835166
-0.2637571096 -0.0473437607 0.5233877897 4279835166
-0.2637780011 -0.0467659384 0.5234292150 4279835166
-0.2637986243 -0.0461879820 0.5234701037 4279835166
-0.2642676532 -0.0456874594 0.5244008303 4279835166
-0.2642877996 -0.0451082513 0.5244408250 4279835166
-0.2643077075 -0.0445289128 0.5244803429 4279966752
-0.2643273473 -0.0439494438 0.5245193243 4280032545
-0.2638979256 -0.0432962142 0.5236671567 4280098338
-0.2634682059 -0.0426448248 0.5228144526 4280098338
-0.2634870112 -0.0420669429 0.5228517652 4280098338
-0.2635055780 -0.0414889418 0.5228886008 4279966752
-0.2635238767 -0.0409108140 0.5229249001 4279900959
-0.2635419369 -0.0403325707 0.5229607224 4279900959
-0.2635597289 -0.0397542082 0.5229960680 4279835166
-0.2644753158 -0.0393092074 0.5248129368 4279835166
-0.2644926608 -0.0387286432 0.5248473287 4279900959
-0.2649588287 -0.0382127315 0.5257723927 4280032545
-0.2649756968 -0.0376309566 0.5258058310 4279966752
-0.2654414475 -0.0371118635 0.5267300606 4280032546
-0.2659069896 -0.0365906917 0.5276538730 4280164132
-0.2663723230 -0.0360674411 0.5285772681 4280229925
-0.2672866881 -0.0356019437 0.5303916931 4280361511
-0.2673023939 -0.0350146964 0.5304228663 4280427304
-0.2677671313 -0.0344852097 0.5313450098 4280427304
-0.2677823305 -0.0338967741 0.5313752294 4280493097
-0.2682466209 -0.0333641246 0.5322965384 4280493097
-0.2691600323 -0.0328842998 0.5341090560 4280493097
-0.2705226541 -0.0324543417 0.5368130207 4280624683
-0.2700875700 -0.0318066664 0.5359496474 4280690992
-0.2714498639 -0.0313686132 0.5386528969 4280756785
-0.2719131410 -0.0308226477 0.5395722389 4280690992
-0.2728256881 -0.0303245708 0.5413830280 4280690992
-0.2732885480 -0.0297734831 0.5423014760 4280756785
-0.2755492330 -0.0294122528 0.5467875004 4280625199
-0.2755621970 -0.0288060885 0.5468131900 4280690992
-0.2791712880 -0.0285678636 0.5539749861 4281019957
-0.2791838944 -0.0279536173 0.5539999604 4280494126
-0.2809945643 -0.0275153890 0.5575929880 4280888884
-0.2828051448 -0.0270691644 0.5611858368 4280494124
-0.3062128723 -0.2722800076 0.6089772582 4286613393
-0.3063175082 -0.2716962099 0.6091853380 4280296493
-0.3076744080 -0.2722198963 0.6118838191 4280757044
-0.3073615432 -0.2712639272 0.6112616062 4280230700
-0.3074660003 -0.2706767321 0.6114693284 4279770149
-0.3071523905 -0.2697219551 0.6108456850 4280493613
-0.3064203262 -0.2684020400 0.6093897820 4280493613
-0.3061057329 -0.2674500644 0.6087641120 4280427820
-0.3045357168 -0.2654054165 0.6056417823 4280362027
-0.3025459647 -0.2630028129 0.6016846895 4280427303
-0.3034848571 -0.2631483972 0.6035518646 4280361510
-0.3019116819 -0.2611172199 0.6004232764 4280361510
-0.2747855484 -0.2370492071 0.5464764833 4280427303
-0.2979235053 -0.2563513219 0.5924918652 4280361257
-0.2699391544 -0.2316754311 0.5368382931 4280427050
-0.2670939267 -0.2286433280 0.5311799049 4280427050
-0.2659243643 -0.2270545512 0.5288538933 4280492843
-0.2655929923 -0.2261847407 0.5281949043 4280427050
-0.2652611732 -0.2253160328 0.5275350213 4280492843
-0.2653488219 -0.2248041481 0.5277093053 4280427050
-0.2654362917 -0.2242917567 0.5278832912 4280295464
-0.2655236423 -0.2237788588 0.5280570388 4280295718
-0.2656108737 -0.2232654542 0.5282304287 4280361511
-0.2661183476 -0.2231040001 0.5292396545 4280361511
-0.2657848597 -0.2222371250 0.5285764337 4280295718
-0.2654509544 -0.2213713825 0.5279123783 4280295718
-0.2655374408 -0.2208567709 0.5280843973 4280361511
-0.2656237781 -0.2203416675 0.5282561183 4280427304
-0.2657099962 -0.2198260576 0.5284276009 4280427304
-0.2653748095 -0.2189623863 0.5277609825 4280427050
-0.2658819556 -0.2187933177 0.5287695527 4280427050
-0.2655462027 -0.2179302871 0.5281018615 4280427050
-0.2647884190 -0.2167232931 0.5265948176 4280427050
-0.2652952373 -0.2165519148 0.5276027918 4280427050
-0.2645364702 -0.2153480351 0.5260937810 4280427050
-0.2641990781 -0.2144895643 0.5254227519 4280492843
-0.2642834187 -0.2139740735 0.5255904794 4280558636
-0.2643676102 -0.2134580910 0.5257579684 4280558636
-0.2644516528 -0.2129416168 0.5259250998 4280558636
-0.2641129792 -0.2120853066 0.5252515078 4280558636
-0.2641965747 -0.2115686685 0.5254178047 4280558636
-0.2647028863 -0.2113892138 0.5264247060 4280690222
-0.2652093172 -0.2112076283 0.5274318457 4280756015
-0.2652927339 -0.2106878608 0.5275977850 4280756015
-0.2649527490 -0.2098324150 0.5269216299 4280690222
-0.2650357187 -0.2093124986 0.5270866752 4280492843
-0.2651185393 -0.2087921053 0.5272513628 4280361257
-0.2656248808 -0.2086039186 0.5282583237 4280295464
-0.2657075226 -0.2080817074 0.5284226537 4280361257
-0.2653661072 -0.2072279751 0.5277436972 4280427050
-0.2650242746 -0.2063754201 0.5270638466 4280427050
-0.2651061714 -0.2058534324 0.5272268057 4280361257
-0.2651879489 -0.2053309381 0.5273894072 4280427050
-0.2648451030 -0.2044802904 0.5267075896 4280427050
-0.2649264336 -0.2039576769 0.5268692970 4280427050
-0.2650075853 -0.2034345865 0.5270307064 4280427050
-0.2650885880 -0.2029110193 0.5271917582 4280361257
-0.2651694119 -0.2023869604 0.5273525119 4280361257
-0.2656751871 -0.2021859288 0.5283583403 4280361257
-0.2657558322 -0.2016600817 0.5285187364 4280295464
-0.2658362985 -0.2011337578 0.5286787748 4280295464
-0.2659166157 -0.2006069571 0.5288385153 4280164648
-0.2655712068 -0.1997595429 0.5281515718 4280164648
-0.2656510472 -0.1992326230 0.5283104181 4280164648
-0.2657307684 -0.1987052411 0.5284689069 4280296234
-0.2653843164 -0.1978597790 0.5277799368 4280296234
-0.2654635906 -0.1973322928 0.5279375315 4280230441
-0.2659688890 -0.1971202344 0.5289424658 4280230441
-0.2660479546 -0.1965909451 0.5290997028 4280230441
-0.2657003403 -0.1957469881 0.5284084082 4280362027
-0.2657789290 -0.1952176243 0.5285646915 4280427820
-0.2658573687 -0.1946877688 0.5287206769 4280559406
-0.2655087411 -0.1938458085 0.5280273557 4280559406
-0.2651597261 -0.1930050850 0.5273332596 4280493613
-0.2656645179 -0.1927854866 0.5283371210 4280427820
-0.2653149068 -0.1919455379 0.5276418328 4280427820
-0.2649648786 -0.1911068261 0.5269457102 4280493613
-0.2650419176 -0.1905767471 0.5270989537 4280362027
-0.2651187778 -0.1900462061 0.5272518396 4280427820
-0.2656232119 -0.1898208708 0.5282549858 4280362027
-0.2656998634 -0.1892885566 0.5284074545 4280362027
-0.2653483748 -0.1884518266 0.5277084112 4280362027
-0.2654245496 -0.1879194379 0.5278599262 4280362027
-0.2650723457 -0.1870843619 0.5271594524 4280296234
-0.2651480436 -0.1865519285 0.5273100734 4280362027
-0.2652235925 -0.1860190332 0.5274602771 4280427820
-0.2652989626 -0.1854856908 0.5276101828 4280427820
-0.2658028901 -0.1852506697 0.5286123157 4280427820
-0.2658780515 -0.1847155541 0.5287618041 4280427820
-0.2655240595 -0.1838829219 0.5280578136 4280427820
-0.2660278082 -0.1836439520 0.5290596485 4280362027
-0.2661024332 -0.1831074804 0.5292080641 4280362027
-0.2661768794 -0.1825705469 0.5293560624 4280427820
-0.2666805685 -0.1823267788 0.5303578377 4280493613
-0.2663252354 -0.1814953536 0.5296511054 4280493613
-0.2659694552 -0.1806652099 0.5289435983 4280493613
-0.2656132877 -0.1798363477 0.5282352567 4280427820
-0.2656866014 -0.1792989224 0.5283810496 4280427820
-0.2657597363 -0.1787610501 0.5285264850 4280427820
-0.2654025257 -0.1779343486 0.5278161168 4280427820
-0.2659054399 -0.1776839644 0.5288163424 4280362027
-0.2655476630 -0.1768581271 0.5281047821 4280362027
-0.2656199634 -0.1763193458 0.5282485485 4280427820
-0.2656920850 -0.1757801324 0.5283919573 4280493613
-0.2657639980 -0.1752404869 0.5285350084 4280493613
-0.2658357620 -0.1747003943 0.5286777020 4280493613
-0.2659073174 -0.1741598696 0.5288200378 4280427820
-0.2655476332 -0.1733375192 0.5281046629 4280427822
-0.2651875019 -0.1725164950 0.5273885131 4280362029
-0.2652582824 -0.1719764173 0.5275292993 4280361257
-0.2653288841 -0.1714359075 0.5276696682 4280427050
-0.2653993070 -0.1708949804 0.5278097391 4280427304
-0.2650378942 -0.1700766087 0.5270909667 4280361511
-0.2655395865 -0.1698118150 0.5280886889 4280361257
-0.2656094432 -0.1692695916 0.5282276273 4280361257
-0.2665431201 -0.1692756414 0.5300844312 4280361257
-0.2661807239 -0.1684573293 0.5293637514 4280361257
-0.2666823566 -0.1681855172 0.5303613544 4280361257
-0.2667516768 -0.1676398218 0.5304992199 4280361257
-0.2668208182 -0.1670937091 0.5306367278 4280427050
-0.2668897808 -0.1665471494 0.5307738781 4280427050
-0.2669585347 -0.1660001874 0.5309106112 4280361257
-0.2670271099 -0.1654527932 0.5310469866 4280361257
-0.2666625977 -0.1646377146 0.5303220749 4280295464
-0.2667306662 -0.1640903652 0.5304574370 4280229671
-0.2667985559 -0.1635425985 0.5305924416 4279966753
-0.2672994733 -0.1632590145 0.5315886736 4280164132
-0.2673670650 -0.1627095342 0.5317230821 4280032546
-0.2678679228 -0.1624224484 0.5327191949 4279835167
-0.2679352760 -0.1618712395 0.5328530669 4279966753
-0.2684360445 -0.1615806371 0.5338490009 4280361511
-0.2685030997 -0.1610276997 0.5339823365 4279769120
-0.2681360841 -0.1602151096 0.5332524180 4279637534
-0.2682026327 -0.1596622467 0.5333848000 4280888371
-0.2678348720 -0.1588515043 0.5326534510 4284309607
-0.2674667239 -0.1580421478 0.5319212675 4287401880
-0.2675324678 -0.1574898511 0.5320519805 4288717740
-0.2671635747 -0.1566823721 0.5313184261 4289244084
-0.2676633298 -0.1563840210 0.5323122740 4289573049
-0.2672938704 -0.1555775255 0.5315774679 4289835967
-0.2669239640 -0.1547724307 0.5308418870 4290099139
-0.2669884861 -0.1542198956 0.5309702158 4290033347
-0.2666178942 -0.1534167081 0.5302331448 4290033347
-0.2666819096 -0.1528642774 0.5303605199 4290099140
-0.2663106024 -0.1520629823 0.5296220183 4290164933
-0.2663741112 -0.1515106708 0.5297483802 4290164933
-0.2664374411 -0.1509579569 0.5298743248 4290230726
-0.2665005624 -0.1504048556 0.5299998522 4290230726
-0.2665634751 -0.1498513520 0.5301249623 4290230726
-0.2666262090 -0.1492974609 0.5302497149 4290164933
-0.2658171952 -0.1482570916 0.5286407471 4290164933
-0.2663151622 -0.1479463726 0.5296310782 4290230726
-0.2659412026 -0.1471509933 0.5288873911 4290296519
-0.2655668259 -0.1463570446 0.5281428695 4290230726
-0.2656282187 -0.1458039433 0.5282649398 4290164933
-0.2656894028 -0.1452504545 0.5283866525 4290033347
-0.2653140128 -0.1444589794 0.5276401043 4289901761
-0.2653746903 -0.1439056396 0.5277608037 4289901761
-0.2649985850 -0.1431161463 0.5270128250 4289901761
-0.2650587559 -0.1425629556 0.5271324515 4289967554
-0.2646819651 -0.1417754441 0.5263831019 4289967554
-0.2647416294 -0.1412224174 0.5265017748 4290033347
-0.2648010850 -0.1406690180 0.5266199708 4290033347
-0.2644232512 -0.1398840398 0.5258685946 4289967554
-0.2644822001 -0.1393308043 0.5259858370 4289967554
-0.2641036808 -0.1385478228 0.5252330303 4290033346
-0.2641620934 -0.1379947811 0.5253492594 4290033346
-0.2642203271 -0.1374413669 0.5254650116 4290033346
-0.2638407946 -0.1366609484 0.5247102380 4290033346
-0.2638984919 -0.1361077130 0.5248249769 4290033346
-0.2635182440 -0.1353293359 0.5240687728 4290033346
-0.2635754347 -0.1347762942 0.5241825581 4290033346
-0.2636324167 -0.1342229098 0.5242958665 4290033346
-0.2632511854 -0.1334471107 0.5235376358 4290033346
-0.2633076608 -0.1328939199 0.5236499906 4289967553
-0.2629257143 -0.1321201771 0.5228903890 4290033346
-0.2629816532 -0.1315672100 0.5230016708 4290164932
-0.2630373836 -0.1310138851 0.5231124759 4290296518
-0.2630929351 -0.1304602027 0.5232229233 4290296518
-0.2627096772 -0.1296896636 0.5224607587 4290296518
-0.2623260021 -0.1289206296 0.5216977596 4290296518
-0.2623807192 -0.1283677518 0.5218065381 4290230725
-0.2619963586 -0.1276007891 0.5210421681 4290296518
-0.2620505691 -0.1270481497 0.5211499333 4290362312
-0.2621045411 -0.1264951676 0.5212572813 4290362312
-0.2617191970 -0.1257308871 0.5204909444 4290428105
-0.2617726624 -0.1251781434 0.5205972791 4290493898
-0.2613866031 -0.1244159713 0.5198295116 4290428105
-0.2614395618 -0.1238634884 0.5199347734 4290362312
-0.2614922822 -0.1233106703 0.5200396776 4290362825
-0.2615447938 -0.1227575243 0.5201441050 4290362825
-0.2615970969 -0.1222040355 0.5202481151 4290362825
-0.2612094581 -0.1214457676 0.5194771886 4290297032
-0.2612612247 -0.1208925545 0.5195801854 4290231239
-0.2608728707 -0.1201364249 0.5188078284 4290297032
-0.2609241605 -0.1195834875 0.5189098120 4290297032
-0.2614153028 -0.1192309484 0.5198865533 4290297032
-0.2610260248 -0.1184766367 0.5191124082 4290297032
-0.2610766292 -0.1179227233 0.5192130804 4290231239
-0.2606866956 -0.1171705723 0.5184375644 4290297032
-0.2607367933 -0.1166169569 0.5185371637 4290165446
-0.2607866526 -0.1160630211 0.5186364055 4290297032
-0.2608363330 -0.1155087724 0.5187351108 4290231239
-0.2604450583 -0.1147600189 0.5179570317 4290165446
-0.2604942024 -0.1142060757 0.5180547833 4289507516
-0.2605431378 -0.1136518195 0.5181520581 4287402909
-0.2601508796 -0.1129058823 0.5173720121 4288850355
-0.2601992786 -0.1123519465 0.5174682140 4290494411
-0.2598063648 -0.1116082072 0.5166867971 4290033860
-0.2598542273 -0.1110545918 0.5167820454 4290231239
-0.2599018812 -0.1105006710 0.5168768167 4290099653
-0.2599493265 -0.1099464446 0.5169711113 4290559691
-0.2599965334 -0.1093919128 0.5170649886 4290099140
-0.2600435019 -0.1088370830 0.5171584487 4289835967
-0.2600902915 -0.1082819551 0.5172514319 4285954180
-0.2601368129 -0.1077265218 0.5173439980 4280361257
-0.2601831555 -0.1071707979 0.5174361467 4279374362
-0.2602292299 -0.1066147760 0.5175278187 4279769373
-0.2602751255 -0.1060584560 0.5176190138 4279440408
-0.2598787844 -0.1053227261 0.5168308616 4279440406
-0.2594820857 -0.1045885906 0.5160419345 4278979855
-0.2586428821 -0.1036788300 0.5143729448 4279505688
-0.2586875558 -0.1031251326 0.5144618154 4279439895
-0.2587319911 -0.1025711522 0.5145502090 4279439895
-0.2587762177 -0.1020168811 0.5146381259 4279439895
-0.2592626512 -0.1016357690 0.5156055093 4279374102
-0.2593064904 -0.1010799855 0.5156927109 4279374102
-0.2593501210 -0.1005239189 0.5157794952 4279374102
-0.2589508593 -0.0997969881 0.5149854422 4279308309
-0.2589939535 -0.0992413089 0.5150711536 4279308309
-0.2594796121 -0.0988540575 0.5160369873 4279308309
-0.2599652112 -0.0984646231 0.5170027018 4279374102
-0.2600077689 -0.0979062244 0.5170873404 4279308309
-0.2596070766 -0.0971817076 0.5162904859 4279308309
-0.2592060268 -0.0964588225 0.5154929161 4279308309
-0.2592477500 -0.0959015116 0.5155758858 4279308309
-0.2597324848 -0.0955069140 0.5165398717 4279308309
-0.2602171302 -0.0951101407 0.5175037384 4279242516
-0.2607016861 -0.0947111920 0.5184673667 4279242516
-0.2607426941 -0.0941499472 0.5185489655 4279242516
-0.2603399754 -0.0934292823 0.5177480578 4279242516
-0.2603804767 -0.0928684697 0.5178285837 4279242770
-0.2608643770 -0.0924646482 0.5187909603 4279242770
-0.2609044909 -0.0919023529 0.5188707113 4279242770
-0.2609443665 -0.0913398042 0.5189499855 4279242770
-0.2609839737 -0.0907770023 0.5190287828 4279242770
-0.2605794668 -0.0900605172 0.5182242990 4279242770
-0.2606185675 -0.0894981548 0.5183020830 4279242768
-0.2602133751 -0.0887840390 0.5174962878 4279176975
-0.2602519393 -0.0882221386 0.5175729990 4279176975
-0.2602902651 -0.0876599848 0.5176491737 4279176975
-0.2607726157 -0.0872462168 0.5186084509 4279176975
-0.2612548769 -0.0868302807 0.5195674896 4279176975
-0.2612926364 -0.0862654746 0.5196425915 4279176977
-0.2613301575 -0.0857004151 0.5197172165 4279176977
-0.2618119419 -0.0852799118 0.5206753612 4279111184
-0.2618490458 -0.0847134069 0.5207492113 4279111184
-0.2618859112 -0.0841466635 0.5208225250 4279045391
-0.2619225681 -0.0835796893 0.5208953619 4279045391
-0.2619589567 -0.0830124691 0.5209677815 4279045391
-0.2624399364 -0.0825849921 0.5219243169 4279045391
-0.2624759376 -0.0820163414 0.5219959021 4278979598
