VERSION 0.7
FIELDS x y z rgba
SIZE 4 4 4 4
TYPE F F F U
COUNT 1 1 1 1
WIDTH 920
HEIGHT 1
VIEWPOINT 0.0 0.0 0.0 1.0 0.0 0.0 0.0
POINTS 920
DATA ascii
-0.2138869911 -0.1140917763 0.4903513193 4279966753
-0.2139313370 -0.1135704964 0.4904529750 4279900960
-0.2139754891 -0.1130489036 0.4905542135 4279769374
-0.2140194625 -0.1125269756 0.4906550348 4279769374
-0.2140632421 -0.1120047346 0.4907554090 4279835167
-0.2137154192 -0.1112783700 0.4899579883 4279835167
-0.2137587517 -0.1107564420 0.4900573492 4279900960
-0.2138019055 -0.1102342010 0.4901562631 4279966753
-0.2134532034 -0.1095107049 0.4893568456 4279966753
-0.2134959102 -0.1089887917 0.4894547462 4279966753
-0.2131465971 -0.1082675457 0.4886539280 4280032546
-0.2131888419 -0.1077459604 0.4887507856 4280098339
-0.2132309079 -0.1072240770 0.4888471961 4280098339
-0.2132727653 -0.1067018732 0.4889431894 4280032546
-0.2133144438 -0.1061793715 0.4890387356 4280032546
-0.2133559436 -0.1056565642 0.4891338646 4280032546
-0.2133972496 -0.1051334515 0.4892285466 4279966753
-0.2134383619 -0.1046100333 0.4893228114 4279966753
-0.2134792805 -0.1040863097 0.4894166291 4280098339
-0.2135200202 -0.1035622954 0.4895099998 4280098339
-0.2131679803 -0.1028485671 0.4887029529 4280032546
-0.2132082582 -0.1023249105 0.4887953103 4280098339
-0.2128556371 -0.1016134843 0.4879868627 4280032546
-0.2128954530 -0.1010902077 0.4880781770 4280032546
-0.2129350901 -0.1005666330 0.4881690145 4280098339
-0.2133674771 -0.1002273560 0.4891602993 4280098339
-0.2134068012 -0.0997022316 0.4892504513 4280098339
-0.2134459317 -0.0991768241 0.4893401563 4280164132
-0.2134848684 -0.0986511260 0.4894294441 4280296234
-0.2139168382 -0.0983058438 0.4904197752 4280230441
-0.2139554620 -0.0977786034 0.4905083179 4280098855
-0.2139938921 -0.0972510800 0.4905964136 4280033062
-0.2140321285 -0.0967232734 0.4906840622 4280033062
-0.2144636810 -0.0963720083 0.4916734397 4280033062
-0.2145015895 -0.0958426669 0.4917603433 4280033062
-0.2145393193 -0.0953130424 0.4918468297 4280033062
-0.2145768404 -0.0947831422 0.4919328690 4280098855
-0.2142203748 -0.0940800235 0.4911156595 4280098855
-0.2138635814 -0.0933785737 0.4902976751 4280098855
-0.2142943144 -0.0930207819 0.4912851453 4280098855
-0.2147249728 -0.0926607773 0.4922724664 4280164648
-0.2147615105 -0.0921294987 0.4923562109 4280098855
-0.2144037187 -0.0914298818 0.4915359914 4280098855
-0.2144397944 -0.0908990428 0.4916186929 4280164648
-0.2144756764 -0.0903679356 0.4917009473 4280098853
-0.2141170353 -0.0896714255 0.4908787310 4280164646
-0.2141524553 -0.0891407654 0.4909599125 4280230439
-0.2145821303 -0.0887730271 0.4919449687 4280230439
-0.2150117308 -0.0884030759 0.4929298759 4280296232
-0.2150466740 -0.0878696740 0.4930099845 4280296232
-0.2158707082 -0.0876565129 0.4948991537 4280230441
-0.2163001001 -0.0872799084 0.4958835542 4280230441
-0.2167294025 -0.0869010836 0.4968677461 4280362027
-0.2167637944 -0.0863627344 0.4969466031 4280296234
-0.2171928883 -0.0859804526 0.4979303181 4280427820
-0.2172269374 -0.0854406133 0.4980084002 4280493613
-0.2184458375 -0.0853636041 0.5008028150 4280427822
-0.2180845886 -0.0846669301 0.4999746084 4280362029
-0.2193035781 -0.0845815614 0.5027692318 4280427822
-0.2205227166 -0.0844900459 0.5055642128 4280427822
-0.2213467509 -0.0842419490 0.5074533820 4280296234
-0.2221708149 -0.0839896575 0.5093426108 4280362027
-0.2222041339 -0.0834362581 0.5094189644 4280428333
-0.2230281383 -0.0831775665 0.5113080740 4280494126
-0.2242476642 -0.0830611736 0.5141038895 4280559919
-0.2254673243 -0.0829386190 0.5169000626 4280559919
-0.2255002707 -0.0823763460 0.5169755816 4280427820
-0.2263243347 -0.0821008906 0.5188648701 4280296234
-0.2267526984 -0.0816786960 0.5198469162 4280098855
-0.2283683121 -0.0816789493 0.5235508084 4280098855
-0.2323592156 -0.0825144798 0.5327002406 4279967782
-0.2292248607 -0.0808175355 0.5255144835 4279836196
-0.2312367857 -0.0809378698 0.5301269889 4279901476
-0.2336450517 -0.0811856687 0.5356481075 4279967269
-0.2332812995 -0.0804650635 0.5348141789 4279967269
-0.2348978072 -0.0804243013 0.5385201573 4279901476
-0.2349298447 -0.0798368528 0.5385935903 4279901476
-0.2353578657 -0.0793828070 0.5395748615 4279835683
-0.2369746119 -0.0793244913 0.5432813764 4279769890
-0.2366099060 -0.0785997063 0.5424452424 4279704097
-0.2382267714 -0.0785300061 0.5461520553 4279572511
-0.2394474000 -0.0783224478 0.5489503741 4279506718
-0.2398751229 -0.0778513476 0.5499309897 4279440925
-0.2403027117 -0.0773780197 0.5509113073 4279440925
-0.2403335869 -0.0767757818 0.5509820580 4279375132
-0.2407608777 -0.0762990117 0.5519616604 4279375132
-0.2419814020 -0.0760694295 0.5547598004 4279375132
-0.2424085289 -0.0755862296 0.5557389855 4279375132
-0.2428354919 -0.0751008168 0.5567178726 4279309339
-0.2432623357 -0.0746131837 0.5576964021 4279309339
-0.2432921529 -0.0740026087 0.5577647686 4279309339
-0.2433217168 -0.0733918101 0.5578325987 4279309339
-0.2437480390 -0.0728995204 0.5588099360 4279505948
-0.2441742122 -0.0724050179 0.5597869754 4279440155
-0.2446002513 -0.0719083026 0.5607637167 4279506202
-0.2446290106 -0.0712936372 0.5608296394 4279506202
-0.2446575314 -0.0706787556 0.5608950257 4279440409
-0.2446858138 -0.0700636581 0.5609598160 4279440409
-0.2447138429 -0.0694483444 0.5610241294 4279506202
-0.2447416484 -0.0688328221 0.5610878468 4279506202
-0.2459612638 -0.0685493201 0.5638839006 4279440409
-0.2451939136 -0.0677109063 0.5621247292 4279440409
-0.2468107939 -0.0675287321 0.5658315420 4279506202
-0.2452479005 -0.0664764196 0.5622484684 4279440409
-0.2472621650 -0.0663925707 0.5668663383 4279440409
-0.2472887784 -0.0657698140 0.5669273138 4279440409
-0.2469175160 -0.0650421232 0.5660762191 4279506202
-0.2473412454 -0.0645237118 0.5670475960 4279440409
-0.2469694167 -0.0637976304 0.5661951900 4279440409
-0.2469949871 -0.0631750897 0.5662538409 4279440409
-0.2470203340 -0.0625523552 0.5663118958 4279440409
-0.2474432290 -0.0620291568 0.5672814250 4279374616
-0.2470702529 -0.0613063201 0.5664263368 4279374616
-0.2474927455 -0.0607807375 0.5673949718 4279374616
-0.2475171387 -0.0601562485 0.5674508810 4279505689
-0.2475412786 -0.0595315732 0.5675061941 4279439896
-0.2475651801 -0.0589067191 0.5675609708 4279439896
-0.2479868680 -0.0583753847 0.5685277581 4279439896
-0.2480103076 -0.0577491671 0.5685815215 4279505689
-0.2472372353 -0.0569393933 0.5668091774 4279439896
-0.2472601086 -0.0563148372 0.5668616295 4279505689
-0.2480791211 -0.0558694601 0.5687392354 4279505689
-0.2469068617 -0.0549765341 0.5660517216 4279571482
-0.2481237650 -0.0546154678 0.5688415766 4279571482
-0.2485440075 -0.0540748760 0.5698050261 4279440409
-0.2481673956 -0.0533608012 0.5689415932 4279440409
-0.2481888384 -0.0527332202 0.5689907670 4279440409
-0.2486084402 -0.0521891192 0.5699527264 4279506202
-0.2482309639 -0.0514775813 0.5690873861 4279506202
-0.2482516617 -0.0508495234 0.5691348314 4279506202
-0.2482721061 -0.0502213091 0.5691816807 4279506202
-0.2482922971 -0.0495929383 0.5692279935 4279506202
-0.2487108111 -0.0490430109 0.5701874495 4279440409
-0.2487305254 -0.0484133326 0.5702326298 4279374616
-0.2487500012 -0.0477835014 0.5702772737 4279439896
-0.2479718775 -0.0470023938 0.5684933662 4279505689
-0.2479907721 -0.0463742912 0.5685366988 4279571482
-0.2480094284 -0.0457460470 0.5685794950 4279571482
-0.2476290762 -0.0450451225 0.5677074790 4279703068
-0.2476471961 -0.0444176085 0.5677490234 4279900447
-0.2472662330 -0.0437194444 0.5668756366 4279506718
-0.2476826757 -0.0431621745 0.5678303838 4279769890
-0.2477000356 -0.0425342545 0.5678701401 4280559665
-0.2473182529 -0.0418387242 0.5669949055 4281349181
-0.2473350763 -0.0412115566 0.5670334697 4282007114
-0.2473516613 -0.0405842625 0.5670714974 4281678149
-0.2473679930 -0.0399568416 0.5671089292 4281612872
-0.2473840564 -0.0393292978 0.5671457648 4281547079
-0.2473998815 -0.0387016349 0.5671820641 4281678665
-0.2478145063 -0.0381352603 0.5681326389 4282665560
-0.2482289374 -0.0375667438 0.5690827370 4286547600
-0.2486431599 -0.0369960852 0.5700323582 4291416282
-0.2329556495 -0.1799065024 0.5354309678 4281085752
-0.2326409668 -0.1790693998 0.5347077250 4280427820
-0.2327074111 -0.1785262674 0.5348603725 4279704097
-0.2320104837 -0.1773991138 0.5332585573 4279571995
-0.2313129604 -0.1762750596 0.5316553712 4279900960
-0.2309966534 -0.1754441261 0.5309283733 4279900960
-0.2299161255 -0.1740363091 0.5284448266 4279637788
-0.2292168140 -0.1729216129 0.5268375278 4279637788
-0.2288990319 -0.1720973402 0.5261071324 4279637788
-0.2289631367 -0.1715608239 0.5262544751 4279900447
-0.2282623649 -0.1704528183 0.5246438384 4279834654
-0.2271785587 -0.1690633446 0.5221527219 4279768861
-0.2245636880 -0.1665439308 0.5161426663 4279834654
-0.2257738560 -0.1668648720 0.5189241767 4279835167
-0.2235395312 -0.1646426618 0.5137887597 4279835167
-0.2232181728 -0.1638359427 0.5130501390 4279835167
-0.2225134671 -0.1627504677 0.5114303827 4279769374
-0.2229574323 -0.1625058204 0.5124508142 4279703581
-0.2226350605 -0.1617023200 0.5117098689 4279703581
-0.2226956189 -0.1611775905 0.5118490458 4279769374
-0.2227559984 -0.1606524438 0.5119878650 4279769374
-0.2228162289 -0.1601268649 0.5121262670 4279769374
-0.2228762805 -0.1596008688 0.5122643113 4279769374
-0.2229361832 -0.1590744406 0.5124019980 4279835167
-0.2222282737 -0.1580018252 0.5107749104 4279900960
-0.2215197980 -0.1569323987 0.5091465116 4279900960
-0.2208107561 -0.1558662057 0.5075168610 4279900960
-0.2204852551 -0.1550733745 0.5067687035 4279835167
-0.2205435932 -0.1545512080 0.5069028139 4279769374
-0.2202174515 -0.1537602842 0.5061531663 4279769374
-0.2202753723 -0.1532382071 0.5062863231 4279769374
-0.2203331143 -0.1527157128 0.5064190030 4279703581
-0.2200060785 -0.1519271880 0.5056673288 4279703581
-0.2196786553 -0.1511400938 0.5049148202 4279769374
-0.2189660519 -0.1500906497 0.5032769442 4279769374
-0.2190227360 -0.1495701671 0.5034071803 4279835167
-0.2190792412 -0.1490492970 0.5035370588 4279835167
-0.2187504619 -0.1482669860 0.5027813911 4279835167
-0.2188065350 -0.1477462202 0.5029102564 4279835167
-0.2184771150 -0.1469658613 0.5021531582 4279835167
-0.2185327560 -0.1464452147 0.5022810102 4279900960
-0.2189737409 -0.1461815387 0.5032945871 4279835167
-0.2190291435 -0.1456591785 0.5034219027 4279966753
-0.2194700688 -0.1453919560 0.5044354200 4279900960
-0.2195252329 -0.1448678821 0.5045621395 4279835167
-0.2191943079 -0.1440897435 0.5038015246 4279900960
-0.2188630104 -0.1433130503 0.5030401349 4279835167
-0.2189174592 -0.1427896470 0.5031652451 4279835167
-0.2189717293 -0.1422658563 0.5032899976 4279900960
-0.2186395377 -0.1414916962 0.5025264621 4279835167
-0.2183069885 -0.1407189965 0.5017620921 4279835167
-0.2183605433 -0.1401958913 0.5018852353 4279835167
-0.2184139341 -0.1396723986 0.5020079613 4279835167
-0.2180804908 -0.1389022470 0.5012415051 4279900960
-0.2181334347 -0.1383789182 0.5013632178 4279900960
-0.2181861997 -0.1378552169 0.5014845133 4279900960
-0.2178518623 -0.1370876282 0.5007160306 4279900960
-0.2179041803 -0.1365640908 0.5008363128 4279966752
-0.2175692022 -0.1357985437 0.5000663996 4279900959
-0.2176210880 -0.1352751851 0.5001856685 4279900959
-0.2165108472 -0.1340321451 0.4976338446 4279835166
-0.2165621072 -0.1335108429 0.4977516532 4279900959
-0.2170006931 -0.1332270652 0.4987597167 4279900959
-0.2170516998 -0.1327040941 0.4988769293 4279966752
-0.2167148292 -0.1319447160 0.4981026649 4280032545
-0.2167653888 -0.1314219385 0.4982188642 4280032546
-0.2164279073 -0.1306646317 0.4974431694 4280032546
-0.2164780051 -0.1301420629 0.4975583553 4280032546
-0.2165279388 -0.1296191216 0.4976731241 4280032546
-0.2165776938 -0.1290958375 0.4977874756 4279966753
-0.2166272700 -0.1285721809 0.4979014099 4279900960
-0.2166766673 -0.1280481666 0.4980149567 4279835167
-0.2167258859 -0.1275237948 0.4981280565 4279835167
-0.2167749256 -0.1269990653 0.4982407689 4279900960
-0.2168237716 -0.1264739782 0.4983530641 4279900960
-0.2168724537 -0.1259485483 0.4984649420 4279835167
-0.2161434442 -0.1249732077 0.4967893958 4279835167
-0.2161915898 -0.1244489551 0.4969000518 4279900960
-0.2158506364 -0.1237014607 0.4961163700 4279900960
-0.2158983201 -0.1231774464 0.4962259829 4279900960
-0.2155567408 -0.1224320978 0.4954409003 4279966753
-0.2144364566 -0.1212481856 0.4928659797 4279900960
-0.2140939981 -0.1205078140 0.4920788705 4279900960
-0.2141405344 -0.1199871600 0.4921858609 4279966753
-0.2141868919 -0.1194661632 0.4922924042 4279966753
-0.2142330706 -0.1189448237 0.4923985302 4279900960
-0.2138894647 -0.1182078421 0.4916087985 4279900960
-0.2139351964 -0.1176867858 0.4917138815 4279900960
-0.2139807492 -0.1171653941 0.4918185771 4279966753
-0.2140261084 -0.1166436672 0.4919228256 4280032546
-0.2136813551 -0.1159101054 0.4911304712 4280032546
-0.2137262672 -0.1153886691 0.4912336767 4280032546
-0.2133809030 -0.1146572977 0.4904398918 4280032546
-0.2134253681 -0.1141361594 0.4905420840 4279966753
-0.2134696543 -0.1136147007 0.4906438589 4279900960
-0.2135137469 -0.1130929217 0.4907452166 4279835167
-0.2131672353 -0.1123650149 0.4899488091 4279835167
-0.2132108808 -0.1118435413 0.4900491238 4279900960
-0.2132543474 -0.1113217473 0.4901490211 4279900960
-0.2129069716 -0.1105967090 0.4893505871 4279900960
-0.2129499763 -0.1100752354 0.4894494414 4279966753
-0.2129928023 -0.1095534489 0.4895478487 4280032546
-0.2130354345 -0.1090313494 0.4896458685 4280032546
-0.2130778879 -0.1085089371 0.4897434413 4280032546
-0.2127290964 -0.1077880710 0.4889417887 4280098339
-0.2127711028 -0.1072659940 0.4890383184 4280098339
-0.2128129154 -0.1067436039 0.4891344011 4280032546
-0.2128545344 -0.1062209159 0.4892300665 4280032546
-0.2128959745 -0.1056979150 0.4893253148 4280032546
-0.2129372209 -0.1051746160 0.4894201159 4279966753
-0.2129782736 -0.1046510041 0.4895144701 4279966753
-0.2126275599 -0.1039356887 0.4887084067 4280032546
-0.2126681656 -0.1034124419 0.4888017178 4279966753
-0.2127085775 -0.1028888971 0.4888946116 4279966753
-0.2127488106 -0.1023650542 0.4889870584 4280032546
-0.2123969644 -0.1016533598 0.4881783724 4280032546
-0.2124367356 -0.1011298969 0.4882697761 4280032546
-0.2124763131 -0.1006061286 0.4883607626 4280098339
-0.2125156969 -0.1000820771 0.4884512722 4280098339
-0.2129470706 -0.0997414216 0.4894427359 4280032546
-0.2125938982 -0.0990330949 0.4886310101 4280098339
-0.2130250335 -0.0986899212 0.4896219373 4280164646
-0.2130637169 -0.0981637463 0.4897108674 4280098853
-0.2131022215 -0.0976372808 0.4897993505 4280098853
-0.2131405175 -0.0971105322 0.4898873866 4280033060
-0.2135712355 -0.0967613682 0.4908773303 4280033060
-0.2136092186 -0.0962330848 0.4909646511 4279967267
-0.2136470079 -0.0957045183 0.4910515249 4280033062
-0.2136846185 -0.0951756686 0.4911379516 4280033062
-0.2137220204 -0.0946465433 0.4912239015 4280098855
-0.2137592286 -0.0941171423 0.4913094342 4280098855
-0.2134032249 -0.0934154317 0.4904912114 4280098855
-0.2138330489 -0.0930575132 0.4914791286 4280098855
-0.2142628133 -0.0926973745 0.4924668968 4280098855
-0.2142993063 -0.0921659023 0.4925507605 4280098855
-0.2139423192 -0.0914660245 0.4917302728 4280098855
-0.2139783502 -0.0909349844 0.4918130636 4280098855
-0.2140141726 -0.0904036835 0.4918954074 4279967780
-0.2140498161 -0.0898721144 0.4919773340 4279967780
-0.2140852362 -0.0893402770 0.4920587540 4280164646
-0.2141204774 -0.0888081789 0.4921397567 4280230439
-0.2149428427 -0.0886003599 0.4940299094 4280296232
-0.2145840824 -0.0879044905 0.4932053089 4280296232
-0.2150125802 -0.0875309408 0.4941901565 4280296234
-0.2154410034 -0.0871551782 0.4951748550 4280296234
-0.2154754251 -0.0866188407 0.4952539802 4280296234
-0.2170855850 -0.0867117345 0.4989548326 4280362027
-0.2179079503 -0.0864837393 0.5008449554 4280362027
-0.2179421484 -0.0859407485 0.5009235740 4280427820
-0.2187644690 -0.0857063532 0.5028136373 4280427820
-0.2199810743 -0.0856212154 0.5056098700 4280427820
-0.2196206599 -0.0849200860 0.5047814846 4280362027
-0.2208373249 -0.0848265737 0.5075778961 4280427820
-0.2216597348 -0.0845764205 0.5094681382 4280362027
-0.2220876962 -0.0841725692 0.5104517937 4280427820
-0.2233046293 -0.0840635374 0.5132488608 4280493613
-0.2241271287 -0.0838008076 0.5151392817 4280427820
-0.2249496281 -0.0835338831 0.5170297623 4280362027
-0.2257721573 -0.0832627714 0.5189202428 4280164648
-0.2269894779 -0.0831320360 0.5217181444 4280033062
-0.2286017388 -0.0831387267 0.5254238248 4279967269
-0.2294244766 -0.0828520581 0.5273148417 4279901476
-0.2298523039 -0.0824195817 0.5282981396 4279967269
-0.2306749970 -0.0821255073 0.5301890373 4280033062
-0.2322877944 -0.0821065009 0.5338959694 4279967269
-0.2331106216 -0.0818020403 0.5357871652 4279901476
-0.2339334339 -0.0814933777 0.5376783013 4279835683
-0.2335706055 -0.0807705149 0.5368443727 4279966499
-0.2351837754 -0.0807277709 0.5405521393 4279900706
-0.2360065132 -0.0804074854 0.5424431562 4279834913
-0.2368292361 -0.0800829902 0.5443341136 4279769120
-0.2372565120 -0.0796215907 0.5453161597 4279769120
-0.2384746373 -0.0794213861 0.5481159687 4279769120
-0.2392973155 -0.0790842697 0.5500068069 4279703327
-0.2393287867 -0.0784834996 0.5500791669 4279637534
-0.2401513159 -0.0781399533 0.5519696474 4279571741
-0.2397867441 -0.0774089843 0.5511317253 4279571741
-0.2406090498 -0.0770599991 0.5530217290 4279505948
-0.2410355508 -0.0765810534 0.5540019870 4279505948
-0.2414619029 -0.0760998875 0.5549819469 4279506202
-0.2414922416 -0.0754927471 0.5550516844 4279506202
-0.2419182658 -0.0750081390 0.5560308695 4279506202
-0.2427401543 -0.0746430829 0.5579199195 4279506202
-0.2419778556 -0.0737907290 0.5561678410 4279506202
-0.2427994609 -0.0734212399 0.5580562353 4279506202
-0.2436210215 -0.0730475336 0.5599445105 4279506202
-0.2436501682 -0.0724340603 0.5600115061 4279440409
-0.2436790913 -0.0718203709 0.5600779653 4279506202
-0.2437077612 -0.0712064654 0.5601438880 4279571995
-0.2437361926 -0.0705923364 0.5602092147 4279506202
-0.2437643856 -0.0699779987 0.5602740645 4279440409
-0.2437923402 -0.0693634450 0.5603383183 4279440409
-0.2438200563 -0.0687486902 0.5604019761 4279374616
-0.2442440391 -0.0682445019 0.5613764524 4279506202
-0.2442713082 -0.0676283240 0.5614391565 4279506202
-0.2446949333 -0.0671207309 0.5624128580 4279506202
-0.2459116727 -0.0668264925 0.5652093887 4279506202
-0.2455417216 -0.0660989210 0.5643591285 4279506202
-0.2459648848 -0.0655847043 0.5653316975 4279506202
-0.2451975942 -0.0647539496 0.5635681748 4279506202
-0.2456203103 -0.0642383397 0.5645397305 4279506202
-0.2456460148 -0.0636177585 0.5645987988 4279506202
-0.2456714809 -0.0629969761 0.5646573305 4279506202
-0.2464905530 -0.0625775382 0.5665398836 4279506202
-0.2457216680 -0.0617548376 0.5647727251 4279440409
-0.2461434007 -0.0612322502 0.5657420158 4279440409
-0.2465649694 -0.0607074648 0.5667109489 4279440409
-0.2461922020 -0.0599869825 0.5658541918 4279440409
-0.2466133535 -0.0594598204 0.5668221712 4279374616
-0.2462400198 -0.0587409772 0.5659641027 4279506202
-0.2466607541 -0.0582114458 0.5669311285 4279506202
-0.2466840893 -0.0575869903 0.5669847727 4279440409
-0.2463098913 -0.0568706319 0.5661246777 4279440409
-0.2467299998 -0.0563375540 0.5670902729 4279505689
-0.2467525899 -0.0557125770 0.5671421885 4279571482
-0.2463775426 -0.0549987182 0.5662801862 4279571482
-0.2467970252 -0.0544621088 0.5672442913 4279505689
-0.2468188703 -0.0538366251 0.5672945380 4279506202
-0.2476354390 -0.0533823445 0.5691713691 4279506202
-0.2468618006 -0.0525851622 0.5673931837 4279506202
-0.2472804487 -0.0520428568 0.5683554411 4279571995
-0.2473013401 -0.0514157154 0.5684034228 4279571995
-0.2469243407 -0.0507067591 0.5675369501 4279571995
-0.2481376678 -0.0503222458 0.5703256726 4279571995
-0.2473624796 -0.0495333485 0.5685439706 4279571995
-0.2473823577 -0.0489055850 0.5685896873 4279506202
-0.2481974959 -0.0484329052 0.5704631805 4279506202
-0.2474213690 -0.0476496108 0.5686793327 4279637787
-0.2478383183 -0.0470969975 0.5696376562 4279703580
-0.2474593818 -0.0463930480 0.5687667131 4279703580
-0.2470801324 -0.0456909761 0.5678949952 4279703580
-0.2470984757 -0.0450633503 0.5679371953 4279835166
-0.2467186302 -0.0443640277 0.5670641661 4280032545
-0.2471344173 -0.0438076816 0.5680198073 4279638302
-0.2471520007 -0.0431796461 0.5680602193 4280033060
-0.2471693456 -0.0425514765 0.5681000948 4280954423
-0.2467883825 -0.0418556631 0.5672244430 4282138697
-0.2468051910 -0.0412282459 0.5672631264 4282994523
-0.2468217611 -0.0406006984 0.5673011541 4283915625
-0.2468380630 -0.0399730280 0.5673386455 4285494659
-0.2468541116 -0.0393452309 0.5673755407 4286744726
-0.2468699217 -0.0387173146 0.5674118400 4287205275
-0.2476818711 -0.0382121466 0.5692780614 4288126377
-0.2476972193 -0.0375819691 0.5693133473 4290691787
-0.2318188697 -0.1782997698 0.5341818333 4280296234
-0.2315041721 -0.1774650067 0.5334566236 4279703581
-0.2308082134 -0.1763405800 0.5318529606 4279835167
-0.2308736295 -0.1757994592 0.5320037007 4279900960
-0.2301767021 -0.1746794730 0.5303977728 4279703581
-0.2298603654 -0.1738509089 0.5296688080 4279703581
-0.2287810594 -0.1724488586 0.5271817446 4279835167
-0.2280823588 -0.1713382453 0.5255717039 4279900447
-0.2285276055 -0.1710876375 0.5265977383 4279834654
-0.2274464071 -0.1696958840 0.5241063237 4279768861
-0.2263644189 -0.1683090627 0.5216130614 4279834654
-0.2248997986 -0.1666442752 0.5182381272 4279900960
-0.2238160968 -0.1652682573 0.5157409906 4279966753
-0.2231136560 -0.1641783416 0.5141223073 4279835167
-0.2224106342 -0.1630915850 0.5125023127 4279769374
-0.2220892757 -0.1622873396 0.5117618442 4279703581
-0.2221499085 -0.1617628783 0.5119015574 4279769374
-0.2218279094 -0.1609604806 0.5111595392 4279769374
-0.2222706676 -0.1607126892 0.5121798515 4279769374
-0.2223308086 -0.1601869464 0.5123184323 4279769374
-0.2220080048 -0.1593859792 0.5115745664 4279769374
-0.2220677137 -0.1588602960 0.5117121339 4279835167
-0.2213612944 -0.1577882022 0.5100843906 4279835167
-0.2210373878 -0.1569914073 0.5093379617 4279900960
-0.2203299254 -0.1559248418 0.5077077746 4279900960
-0.2200051695 -0.1551317424 0.5069594383 4279900960
-0.2200634331 -0.1546094120 0.5070936680 4279835167
-0.2193545699 -0.1535497755 0.5054602027 4279769374
-0.2186451256 -0.1524933726 0.5038254261 4279769374
-0.2194698602 -0.1525066942 0.5057259202 4279769374
-0.2183758914 -0.1511874050 0.5032050610 4279769374
-0.2192005962 -0.1511971653 0.5051054358 4279769374
-0.2181055993 -0.1498834640 0.5025822520 4279835167
-0.2181620896 -0.1493637413 0.5027124286 4279835167
-0.2182184309 -0.1488436162 0.5028422475 4279835167
-0.2182745934 -0.1483230889 0.5029716492 4279769374
-0.2179462016 -0.1475419402 0.5022149086 4279769374
-0.2180019319 -0.1470215321 0.5023433566 4279835167
-0.2180574834 -0.1465007216 0.5024713874 4279835167
-0.2184975594 -0.1462369710 0.5034854412 4279835167
-0.2189376503 -0.1459709704 0.5044995546 4279966753
-0.2189928889 -0.1454471350 0.5046268106 4279900960
-0.2186630070 -0.1446681917 0.5038666725 4279900960
-0.2183327377 -0.1438907087 0.5031056404 4279900960
-0.2183872759 -0.1433675289 0.5032312870 4279835167
-0.2184416503 -0.1428439468 0.5033565760 4279835167
-0.2181104869 -0.1420689821 0.5025935173 4279900960
-0.2181644142 -0.1415455490 0.5027177334 4279835167
-0.2174470723 -0.1405234337 0.5010647774 4279835167
-0.2175004780 -0.1400010735 0.5011878610 4279835167
-0.2175536901 -0.1394783407 0.5013104677 4279900960
-0.2176067382 -0.1389552206 0.5014327168 4279900960
-0.2172736824 -0.1381862760 0.5006652474 4279900960
-0.2173262984 -0.1376633197 0.5007864833 4279900960
-0.2169926167 -0.1368964016 0.5000175834 4279900960
-0.2170447856 -0.1363736242 0.5001378059 4279900960
-0.2170967758 -0.1358504593 0.5002575517 4279900960
-0.2167622000 -0.1350861341 0.4994866252 4279835167
-0.2160407901 -0.1340834349 0.4978242815 4279835167
-0.2160919756 -0.1335619539 0.4979422390 4279835167
-0.2165296525 -0.1332781017 0.4989507496 4279900960
-0.2165805697 -0.1327549517 0.4990681112 4279966753
-0.2162444890 -0.1319953054 0.4982936382 4279966753
-0.2162949741 -0.1314723492 0.4984099865 4279966752
-0.2163452804 -0.1309490204 0.4985258877 4280032545
-0.2160082906 -0.1301920265 0.4977493882 4280032545
-0.2164453566 -0.1299012899 0.4987565279 4280032545
-0.2168824226 -0.1296083331 0.4997636378 4280032545
-0.2165447176 -0.1288521141 0.4989854991 4279966752
-0.2162066698 -0.1280974150 0.4982065260 4279900959
-0.2162558138 -0.1275728643 0.4983197749 4279835166
-0.2163047791 -0.1270479560 0.4984326065 4279900960
-0.2163535655 -0.1265226901 0.4985450208 4279900960
-0.2164021730 -0.1259970814 0.4986570179 4279835167
-0.2160626948 -0.1252462417 0.4978747666 4279835167
-0.2153348774 -0.1242730394 0.4961976409 4279900960
-0.2149946094 -0.1235262230 0.4954135418 4279900960
-0.2150421441 -0.1230029762 0.4955230951 4279900960
-0.2150895000 -0.1224793792 0.4956322312 4279900960
-0.2143600136 -0.1215151697 0.4939512610 4279966753
-0.2144068480 -0.1209927797 0.4940591753 4279900960
-0.2144534886 -0.1204700470 0.4941666424 4279900960
-0.2141113579 -0.1197296754 0.4933782816 4279900960
-0.2141575515 -0.1192072108 0.4934847355 4279835167
-0.2138148248 -0.1184690073 0.4926949441 4279769374
-0.2138605714 -0.1179468185 0.4928003848 4279769374
-0.2135172039 -0.1172107980 0.4920091629 4279769374
-0.2131735086 -0.1164763495 0.4912171662 4279835167
-0.2132185400 -0.1159550622 0.4913209379 4279900960
-0.2124850601 -0.1150121540 0.4896307886 4279900960
-0.2125295699 -0.1144921109 0.4897333384 4279966753
-0.2125738859 -0.1139717475 0.4898354709 4279966753
-0.2126180232 -0.1134510562 0.4899371862 4279966753
-0.2126619816 -0.1129300445 0.4900384545 4279900960
-0.2123161703 -0.1122028306 0.4892416298 4279900960
-0.2123596817 -0.1116821244 0.4893418849 4279966753
-0.2120132744 -0.1109571382 0.4885436296 4279966753
-0.2124461383 -0.1106397659 0.4895410836 4279966753
-0.2124890834 -0.1101181060 0.4896400571 4279966753
-0.2125318497 -0.1095961332 0.4897386134 4280032546
-0.2125744224 -0.1090738475 0.4898367226 4280098339
-0.2126168162 -0.1085512489 0.4899343848 4280098339
-0.2122688293 -0.1078301147 0.4891325235 4280032546
-0.2123107612 -0.1073078513 0.4892291427 4280098339
-0.2119621634 -0.1065889820 0.4884258807 4280032546
-0.2120036483 -0.1060670614 0.4885214865 4280032546
-0.2120449543 -0.1055448428 0.4886166453 4279966753
-0.2120860666 -0.1050223112 0.4887113869 4279966753
-0.2121269852 -0.1044994816 0.4888056815 4279966753
-0.2117770016 -0.1037848592 0.4879992008 4280032546
-0.2118174732 -0.1032623872 0.4880924523 4279966753
-0.2122486383 -0.1029291749 0.4890859723 4280032546
-0.2122887969 -0.1024051383 0.4891785383 4280032546
-0.2123287767 -0.1018808112 0.4892706573 4280032546
-0.2119774669 -0.1011695266 0.4884611368 4280032546
-0.2120169848 -0.1006455719 0.4885522127 4280098339
-0.2120563239 -0.1001213267 0.4886428416 4280098339
-0.2124867886 -0.0997805521 0.4896347821 4280098339
-0.2125258148 -0.0992547572 0.4897246957 4280098339
-0.2121731788 -0.0985468552 0.4889121056 4280033060
-0.2122117430 -0.0980214477 0.4890009761 4280033060
-0.2122501284 -0.0974957645 0.4890894294 4280033060
-0.2122883052 -0.0969697908 0.4891774058 4280033060
-0.2127180398 -0.0966214761 0.4901676476 4279967267
-0.2127559036 -0.0960939676 0.4902549088 4279967267
-0.2127935886 -0.0955661759 0.4903417230 4279967267
-0.2128310651 -0.0950381085 0.4904280901 4280033060
-0.2128683478 -0.0945097581 0.4905139804 4280033062
-0.2132975310 -0.0941542163 0.4915029407 4280033062
-0.2133344859 -0.0936243385 0.4915881157 4280098855
-0.2133712471 -0.0930941924 0.4916728437 4280098855
-0.2138001174 -0.0927339271 0.4926610589 4280033062
-0.2138365507 -0.0922022536 0.4927450418 4280033062
-0.2134803683 -0.0915021077 0.4919242859 4280098855
-0.2135163397 -0.0909708738 0.4920071959 4280033062
-0.2135521322 -0.0904393718 0.4920896292 4279967782
-0.2131950855 -0.0897423327 0.4912669063 4279967782
-0.2136230916 -0.0893755704 0.4922531545 4280098855
-0.2144437879 -0.0891699046 0.4941442907 4280230441
-0.2148717195 -0.0887977257 0.4951303899 4280296234
-0.2149067074 -0.0882619619 0.4952110052 4280296234
-0.2157273740 -0.0880466998 0.4971020818 4280296234
-0.2157620788 -0.0875084549 0.4971820414 4280362027
-0.2165827304 -0.0872867927 0.4990730882 4280230441
-0.2162240297 -0.0865886360 0.4982464910 4280362027
-0.2170445770 -0.0863615423 0.5001373291 4280427820
-0.2190449536 -0.0865966827 0.5047467947 4280427820
-0.2194724530 -0.0862037838 0.5057318807 4280493613
-0.2198998779 -0.0858086646 0.5067167878 4280493613
-0.2203272134 -0.0854113251 0.5077015162 4280427820
-0.2215414643 -0.0853148401 0.5104995370 4280362027
-0.2227558643 -0.0852121860 0.5132978559 4280492843
-0.2231831700 -0.0848042443 0.5142825246 4280492843
-0.2236103863 -0.0843940750 0.5152669549 4280296234
-0.2260062099 -0.0847196653 0.5207876563 4280098855
-0.2268273234 -0.0844467282 0.5226797462 4280032292
-0.2268607318 -0.0838783532 0.5227567554 4279966499
-0.2280756831 -0.0837436244 0.5255563855 4279966499
-0.2300786972 -0.0838900208 0.5301719308 4279966499
-0.2305059433 -0.0834556520 0.5311564207 4280032292
-0.2305390090 -0.0828773901 0.5312326550 4280032292
-0.2309659868 -0.0824395567 0.5322165489 4280032292
-0.2333638519 -0.0826979578 0.5377418995 4280032292
-0.2341851294 -0.0823894292 0.5396344066 4279966499
-0.2342178077 -0.0818012655 0.5397096872 4279900706
-0.2350389808 -0.0814863071 0.5416019559 4279834913
-0.2358601391 -0.0811671391 0.5434941649 4279834913
-0.2362868190 -0.0807090178 0.5444773436 4279768863
-0.2375024259 -0.0805161744 0.5472784638 4279768863
-0.2375344038 -0.0799188614 0.5473521352 4279768863
-0.2383553982 -0.0795848370 0.5492439866 4279768863
-0.2387816906 -0.0791158378 0.5502263308 4279768863
-0.2396025956 -0.0787743852 0.5521179438 4279703070
-0.2396339029 -0.0781711563 0.5521900654 4279637277
-0.2400598228 -0.0776954740 0.5531715155 4279637277
-0.2404855937 -0.0772175789 0.5541526079 4279637275
-0.2405163050 -0.0766116530 0.5542233586 4279637275
-0.2409417778 -0.0761303082 0.5552037954 4279637275
-0.2409720570 -0.0755229294 0.5552735925 4279637275
-0.2413972020 -0.0750381351 0.5562532544 4279703068
-0.2418222129 -0.0745511279 0.5572325587 4279703068
-0.2422470748 -0.0740618929 0.5582116246 4279637275
-0.2426718026 -0.0735704452 0.5591902733 4279703068
-0.2427010983 -0.0729579479 0.5592578053 4279703067
-0.2427301705 -0.0723452419 0.5593248010 4279637274
-0.2427590042 -0.0717323050 0.5593912005 4279637274
-0.2427875847 -0.0711191595 0.5594571233 4279637274
-0.2428159416 -0.0705057904 0.5595224500 4279571481
-0.2428440452 -0.0698922127 0.5595872402 4279571481
-0.2428719252 -0.0692784265 0.5596514344 4279571481
-0.2425039560 -0.0685525909 0.5588034987 4279505688
-0.2429269403 -0.0680502132 0.5597782135 4279637274
-0.2429541051 -0.0674357936 0.5598407984 4279637274
-0.2441682070 -0.0671476573 0.5626385212 4279637274
-0.2445907891 -0.0666376576 0.5636122227 4279637274
-0.2438257486 -0.0658049732 0.5618493557 4279637275
-0.2438520342 -0.0651877448 0.5619099140 4279637275
-0.2438780665 -0.0645703152 0.5619698763 4279637275
-0.2439038604 -0.0639526844 0.5620293021 4279637275
-0.2435334176 -0.0632320493 0.5611757040 4279571995
-0.2455388308 -0.0631241053 0.5657967925 4279571995
-0.2435836941 -0.0619978346 0.5612915754 4279571995
-0.2436084747 -0.0613804422 0.5613486767 4279571995
-0.2436330169 -0.0607628636 0.5614052415 4279571995
-0.2456382662 -0.0606340840 0.5660259128 4279506202
-0.2444738150 -0.0597207323 0.5633426905 4279440409
-0.2456865013 -0.0593879521 0.5661370754 4279374616
-0.2457102537 -0.0587646142 0.5661918521 4279571995
-0.2445447296 -0.0578597710 0.5635061264 4279571995
-0.2457570285 -0.0575174019 0.5662996173 4279571995
-0.2457800359 -0.0568935312 0.5663526058 4279571995
-0.2446134388 -0.0559972115 0.5636644363 4279571995
-0.2450323403 -0.0554657653 0.5646296740 4279571995
-0.2450545430 -0.0548433885 0.5646808743 4279571995
-0.2450764924 -0.0542208441 0.5647314787 4279506202
-0.2450982034 -0.0535981357 0.5647814870 4279703068
-0.2459129244 -0.0531467013 0.5666588545 4279703068
-0.2459342182 -0.0525216460 0.5667079091 4279637275
-0.2459552437 -0.0518964343 0.5667563677 4279637275
-0.2463727742 -0.0513537526 0.5677184463 4279571995
-0.2467901111 -0.0508088991 0.5686801672 4279637788
-0.2452232540 -0.0498584844 0.5650696158 4279637788
-0.2464337349 -0.0494736657 0.5678589344 4279703581
-0.2468504161 -0.0489253178 0.5688191056 4279571994
-0.2456793338 -0.0480642132 0.5661205649 4279571994
-0.2464924455 -0.0475922078 0.5679942369 4279769373
-0.2461145669 -0.0468891300 0.5671234727 4279900959
-0.2457363605 -0.0461879298 0.5662519932 4279900959
-0.2457548678 -0.0455622151 0.5662946701 4279835166
-0.2457731366 -0.0449363589 0.5663367510 4279966752
-0.2461882234 -0.0443819501 0.5672932267 4280164131
-0.2466031164 -0.0438253805 0.5682492852 4279835681
-0.2466206849 -0.0431970917 0.5682897568 4280362025
-0.2462408394 -0.0425001234 0.5674144626 4281283388
-0.2462578863 -0.0418725833 0.5674537420 4282730834
-0.2458774596 -0.0411783867 0.5665771365 4283718759
-0.2458939701 -0.0405516028 0.5666151643 4285560963
-0.2459102273 -0.0399246924 0.5666525960 4288586930
-0.2305516154 -0.1777800620 0.5326248407 4281151541
-0.2302374393 -0.1769468188 0.5318989754 4280427304
-0.2299228758 -0.1761149019 0.5311722755 4279966753
-0.2299880832 -0.1755745113 0.5313229561 4279769374
-0.2292926162 -0.1744550467 0.5297162533 4279966753
-0.2285965681 -0.1733386815 0.5281082392 4279966753
-0.2282803804 -0.1725129783 0.5273777843 4279703581
-0.2272026837 -0.1711153686 0.5248880386 4279834654
-0.2280275822 -0.1711513251 0.5267937183 4279834654
-0.2265680134 -0.1694742590 0.5234218240 4279768861
-0.2262501121 -0.1686557233 0.5226874352 4279834654
-0.2247888446 -0.1669894457 0.5193115473 4279966753
-0.2240887731 -0.1658941805 0.5176942348 4280032546
-0.2233881205 -0.1648020893 0.5160756111 4279966753
-0.2226868868 -0.1637131721 0.5144555569 4279769374
-0.2219850719 -0.1626274139 0.5128342509 4279769374
-0.2212826759 -0.1615448445 0.5112115145 4279703581
-0.2213429511 -0.1610206962 0.5113508105 4279703581
-0.2214030623 -0.1604961306 0.5114896894 4279769374
-0.2218448371 -0.1602469385 0.5125102997 4279769374
-0.2219047248 -0.1597206146 0.5126486421 4279769374
-0.2215824127 -0.1589198560 0.5119040012 4279769374
-0.2208775878 -0.1578473896 0.5102757215 4279769374
-0.2197899371 -0.1565059572 0.5077630281 4279769374
-0.2202309072 -0.1562546641 0.5087817311 4279835167
-0.2187596560 -0.1546493024 0.5053828359 4279835167
-0.2188176364 -0.1541286260 0.5055167675 4279769374
-0.2184928060 -0.1533389837 0.5047663450 4279769374
-0.2181676030 -0.1525507569 0.5040150285 4279769374
-0.2182248831 -0.1520306617 0.5041473508 4279835167
-0.2175160944 -0.1509785503 0.5025099516 4279835167
-0.2175728530 -0.1504594684 0.5026410222 4279769374
-0.2172462791 -0.1496760100 0.5018866062 4279769374
-0.2173026055 -0.1491570324 0.5020166636 4279769374
-0.2173587531 -0.1486376524 0.5021464229 4279769374
-0.2174147367 -0.1481178701 0.5022757649 4279835167
-0.2174705565 -0.1475976855 0.5024046898 4279835167
-0.2175261974 -0.1470771134 0.5025332570 4279835167
-0.2175816745 -0.1465561241 0.5026614070 4279835167
-0.2180208266 -0.1462923139 0.5036759377 4279900960
-0.2184600085 -0.1460262537 0.5046905875 4279900960
-0.2185151726 -0.1455022395 0.5048180223 4279835167
-0.2181860358 -0.1447230279 0.5040576458 4279835167
-0.2178565413 -0.1439452767 0.5032964349 4279900960
-0.2179110050 -0.1434219182 0.5034222603 4279900960
-0.2179652900 -0.1428981721 0.5035476685 4279835167
-0.2176349014 -0.1421229392 0.5027843714 4279900960
-0.2173041403 -0.1413491666 0.5020202398 4279835167
-0.2169730216 -0.1405768543 0.5012552738 4279835167
-0.2170263380 -0.1400543302 0.5013784766 4279900960
-0.2170794755 -0.1395314187 0.5015012026 4279900960
-0.2167474627 -0.1387616545 0.5007342100 4279835167
-0.2168001682 -0.1382389069 0.5008559823 4279835167
-0.2164675146 -0.1374711692 0.5000874996 4279835167
-0.2161345184 -0.1367049217 0.4993181825 4279900960
-0.2165718675 -0.1364256442 0.5003285408 4279835167
-0.2162383348 -0.1356604993 0.4995580018 4279835167
-0.2162899822 -0.1351377219 0.4996773303 4279835167
-0.2155701816 -0.1341346651 0.4980144501 4279835167
-0.2156213075 -0.1336130053 0.4981325269 4279835167
-0.2160580605 -0.1333290637 0.4991415441 4279835167
-0.2161089182 -0.1328057349 0.4992590249 4279900960
-0.2157735974 -0.1320458204 0.4984843731 4279900960
-0.2158240080 -0.1315226853 0.4986008108 4279835166
-0.2158742398 -0.1309991926 0.4987168908 4279900959
-0.2155380249 -0.1302419156 0.4979401529 4279966752
-0.2155878246 -0.1297186315 0.4980551898 4280032545
-0.2160238773 -0.1294265091 0.4990625679 4280032545
-0.2160734087 -0.1289015710 0.4991769791 4279966752
-0.2157361358 -0.1281466037 0.4983977973 4279900959
-0.2157852054 -0.1276218742 0.4985111952 4279835166
-0.2158341110 -0.1270967871 0.4986241460 4279835167
-0.2154959440 -0.1263445169 0.4978429079 4279835167
-0.2155443877 -0.1258196533 0.4979548454 4279769374
-0.2155926675 -0.1252944469 0.4980663657 4279769374
-0.2152536064 -0.1245448813 0.4972830713 4279835167
-0.2149142027 -0.1237968579 0.4964989722 4279835167
-0.2149617523 -0.1232724860 0.4966088235 4279835167
-0.2146217376 -0.1225265935 0.4958232939 4279835167
-0.2142813504 -0.1217822507 0.4950369596 4279900960
-0.2139406204 -0.1210394576 0.4942497909 4279900960
-0.2135995477 -0.1202982217 0.4934618175 4279835167
-0.2136458606 -0.1197759137 0.4935688078 4279835167
-0.2133041620 -0.1190368384 0.4927794337 4279835167
-0.2133500278 -0.1185147986 0.4928853810 4279835167
-0.2130077183 -0.1177778989 0.4920945764 4279835167
-0.2126650661 -0.1170425639 0.4913029671 4279769374
-0.2127102166 -0.1165214255 0.4914072752 4279769374
-0.2123669535 -0.1157882735 0.4906142652 4279835167
-0.2120233327 -0.1150567010 0.4898204505 4279900960
-0.2120677829 -0.1145364791 0.4899231195 4279900960
-0.2121120393 -0.1140159294 0.4900253713 4279966753
-0.2121561170 -0.1134950593 0.4901271760 4279966753
-0.2118113637 -0.1127669439 0.4893307388 4279966753
-0.2122437209 -0.1124523357 0.4903295636 4279966753
-0.2118984312 -0.1117254943 0.4895318747 4279966753
-0.2119416893 -0.1112042889 0.4896318316 4279966753
-0.2119847685 -0.1106827632 0.4897313416 4280032546
-0.2120276541 -0.1101609170 0.4898304343 4279966753
-0.2120703608 -0.1096387580 0.4899290800 4280032546
-0.2121128887 -0.1091162860 0.4900273085 4280098339
-0.2117659450 -0.1083942428 0.4892258048 4280098339
-0.2118080109 -0.1078721061 0.4893229902 4280032546
-0.2118498832 -0.1073496565 0.4894197285 4280098339
-0.2115020752 -0.1066305190 0.4886161983 4280032546
-0.2115435004 -0.1061084196 0.4887119234 4279966753
-0.2115847468 -0.1055860072 0.4888072014 4279966753
-0.2112360746 -0.1048697978 0.4880016744 4279966753
-0.2112768590 -0.1043477431 0.4880959392 4279966753
-0.2113174647 -0.1038253829 0.4881897271 4280032546
-0.2113578916 -0.1033027247 0.4882830977 4280032546
-0.2113981098 -0.1027797610 0.4883760512 4280098339
-0.2114381492 -0.1022565067 0.4884685278 4280098339
-0.2114780098 -0.1017329544 0.4885605872 4280098339
-0.2115176618 -0.1012091041 0.4886522293 4280098339
-0.2115571350 -0.1006849632 0.4887433946 4280098339
-0.2115964144 -0.1001605242 0.4888341427 4280164132
-0.2112450302 -0.0994519666 0.4880223870 4280164132
-0.2116743922 -0.0991107821 0.4890143275 4280229925
-0.2117131054 -0.0985854790 0.4891037345 4280033315
-0.2113609314 -0.0978789628 0.4882901311 4280033315
-0.2113991827 -0.0973540470 0.4883785248 4280033315
-0.2118280679 -0.0970078409 0.4893693328 4279967522
-0.2114751190 -0.0963033810 0.4885539114 4279967267
-0.2115127891 -0.0957776234 0.4886409640 4279967267
-0.2123323381 -0.0956037119 0.4905343056 4279967267
-0.2123697698 -0.0950754508 0.4906207621 4280033060
-0.2128352821 -0.0941912383 0.4916962087 4280033060
-0.2128721923 -0.0936611667 0.4917814732 4280098855
-0.2129089087 -0.0931308195 0.4918662906 4280033062
-0.2129454166 -0.0926002041 0.4919506609 4280033062
-0.2129817456 -0.0920693129 0.4920345843 4280098855
-0.2130178660 -0.0915381536 0.4921180308 4280098855
-0.2134454399 -0.0911740139 0.4931057990 4280033062
-0.2134812325 -0.0906413347 0.4931885004 4280033062
-0.2135168314 -0.0901083872 0.4932707548 4280033062
-0.2135522366 -0.0895751789 0.4933525324 4280098855
-0.2135874480 -0.0890417024 0.4934338629 4280230441
-0.2140144110 -0.0886703655 0.4944202602 4280296234
-0.2160094380 -0.0889424905 0.4990292192 4280296234
-0.2183969915 -0.0893649831 0.5045449734 4280296234
-0.2168635279 -0.0881808624 0.5010023117 4280362027
-0.2168982327 -0.0876382366 0.5010825396 4280296234
-0.2173250169 -0.0872528479 0.5020685196 4280362027
-0.2177517265 -0.0868652388 0.5030542612 4280427820
-0.2201403975 -0.0872530565 0.5085726380 4280427820
-0.2209597081 -0.0870106295 0.5104654431 4280493613
-0.2209940106 -0.0864568874 0.5105446577 4280493613
-0.2218132764 -0.0862080455 0.5124373436 4280362027
-0.2234178782 -0.0862582028 0.5161443353 4280296234
-0.2250227481 -0.0863002241 0.5198519230 4280163878
-0.2246640325 -0.0855859816 0.5190232396 4280098085
-0.2254834771 -0.0853193700 0.5209163427 4280032292
-0.2266958207 -0.0851962194 0.5237171054 4279966499
-0.2275153697 -0.0849202201 0.5256104469 4279900706
-0.2299069315 -0.0852227509 0.5311354399 4279900706
-0.2279753089 -0.0839215517 0.5266729593 4279966499
-0.2307603061 -0.0843544379 0.5331069231 4279966499
-0.2315800041 -0.0840596557 0.5350006223 4280032035
-0.2320064753 -0.0836189389 0.5359858871 4279966242
-0.2332194149 -0.0834574699 0.5387880206 4279900449
-0.2336457819 -0.0830103233 0.5397730470 4279966242
-0.2344654351 -0.0826997012 0.5416666269 4279966242
-0.2348916233 -0.0822471008 0.5426512361 4279900449
-0.2357112169 -0.0819290504 0.5445446372 4279834656
-0.2361372262 -0.0814710036 0.5455288291 4279834656
-0.2369567305 -0.0811455175 0.5474220514 4279768863
-0.2373825610 -0.0806820244 0.5484058261 4279768863
-0.2378082573 -0.0802163035 0.5493893027 4279768863
-0.2382338345 -0.0797483549 0.5503724813 4279768863
-0.2386592925 -0.0792781785 0.5513553619 4279703070
-0.2386907339 -0.0786759481 0.5514279604 4279703070
-0.2391158789 -0.0782023147 0.5524101853 4279637275
-0.2391469181 -0.0775986165 0.5524818897 4279637275
-0.2391777188 -0.0769946873 0.5525529981 4279637275
-0.2396023721 -0.0765163675 0.5535340309 4279703068
-0.2392386198 -0.0757861286 0.5526937246 4279637275
-0.2396629006 -0.0753053576 0.5536739230 4279637275
-0.2412697524 -0.0751909539 0.5573860407 4279703067
-0.2416939139 -0.0747027546 0.5583659410 4279703067
-0.2413292676 -0.0739706084 0.5575235486 4279703067
-0.2417530566 -0.0734799653 0.5585026145 4279703067
-0.2421766967 -0.0729871094 0.5594813228 4279703580
-0.2414167672 -0.0721384063 0.5577257276 4279637787
-0.2414454669 -0.0715272352 0.5577920079 4279637787
-0.2414739281 -0.0709158480 0.5578577518 4279571994
-0.2415021509 -0.0703042448 0.5579229593 4279571994
-0.2415301204 -0.0696924254 0.5579876304 4279571994
-0.2415578663 -0.0690803975 0.5580517054 4279571994
-0.2415853739 -0.0684681535 0.5581152439 4279571994
-0.2416126430 -0.0678557083 0.5581782460 4279571994
-0.2428241819 -0.0675726756 0.5609771609 4279571994
-0.2428510934 -0.0669568107 0.5610393286 4279571995
-0.2424828559 -0.0662328675 0.5601885915 4279637788
-0.2425092459 -0.0656176060 0.5602495670 4279637788
-0.2425353974 -0.0650021359 0.5603100061 4279637788
-0.2425613105 -0.0643864721 0.5603698492 4279637788
-0.2437722683 -0.0640821904 0.5631674528 4279637788
-0.2437978238 -0.0634631217 0.5632264614 4279637788
-0.2438231260 -0.0628438592 0.5632849336 4279571995
-0.2438482046 -0.0622244067 0.5633428693 4279571995
-0.2442682832 -0.0617046095 0.5643133521 4279637788
-0.2442929000 -0.0610837750 0.5643702149 4279637788
-0.2443172783 -0.0604627542 0.5644265413 4279506202
-0.2443414181 -0.0598415434 0.5644822717 4279506202
-0.2443653047 -0.0592201538 0.5645374656 4279506202
-0.2443889529 -0.0585985817 0.5645921230 4279571995
-0.2444123477 -0.0579768308 0.5646461844 4279637788
-0.2444355041 -0.0573549010 0.5646996498 4279703581
-0.2444584072 -0.0567327961 0.5647525787 4279703581
-0.2444810718 -0.0561105162 0.5648049116 4279703581
-0.2445034981 -0.0554880649 0.5648567080 4279637788
-0.2449213415 -0.0549542233 0.5658220053 4279703581
-0.2449432909 -0.0543304235 0.5658727884 4279703581
-0.2449650019 -0.0537064597 0.5659229159 4279768861
-0.2445906997 -0.0529965758 0.5650581717 4279768861
-0.2446118742 -0.0523732901 0.5651071072 4279768861
-0.2454245090 -0.0519173220 0.5669844747 4279703068
-0.2446535081 -0.0511262417 0.5652033091 4279637788
-0.2450698614 -0.0505841970 0.5661651492 4279637788
-0.2450900972 -0.0499592721 0.5662118793 4279703581
-0.2455060482 -0.0494138896 0.5671728253 4279769374
-0.2455258071 -0.0487876497 0.5672184825 4279703580
-0.2451492846 -0.0480835773 0.5663486719 4279637787
-0.2455645949 -0.0475347154 0.5673081279 4279638557
-0.2455836087 -0.0469080284 0.5673520565 4279835936
-0.2452062368 -0.0462065488 0.5664802194 4279901729
-0.2456208915 -0.0456542186 0.5674381852 4279901729
-0.2456391603 -0.0450271033 0.5674803853 4280033315
-0.2452609539 -0.0443282351 0.5666066408 4280230694
-0.2452786863 -0.0437018573 0.5666475892 4280493611
-0.2456924617 -0.0431449302 0.5676034689 4281151541
-0.2457097173 -0.0425172672 0.5676434040 4281678916
-0.2453304082 -0.0418219119 0.5667670965 4282863190
-0.2449507862 -0.0411284529 0.5658900738 4283455589
-0.2449672371 -0.0405024290 0.5659281015 4285100414
-0.2445870340 -0.0398117565 0.5650497079 4287995306
-0.2293525636 -0.1767202169 0.5312178135 4281479992
-0.2290386409 -0.1758889109 0.5304906964 4280690476
-0.2283450216 -0.1747686267 0.5288841724 4279966753
-0.2287890762 -0.1745197177 0.5299126506 4279900960
-0.2280945927 -0.1734029949 0.5283041596 4279900960
-0.2277791500 -0.1725770086 0.5275735259 4279703581
-0.2274633348 -0.1717523783 0.5268420577 4279834654
-0.2267673016 -0.1706432551 0.5252299309 4279834654
-0.2275904864 -0.1706770062 0.5271365643 4279834654
-0.2249934077 -0.1681503803 0.5211213231 4279900447
-0.2261963189 -0.1684672832 0.5239074230 4279966753
-0.2243575603 -0.1665204316 0.5196485519 4280098339
-0.2232783288 -0.1651448309 0.5171489120 4279966753
-0.2225787789 -0.1640546322 0.5155286193 4279835167
-0.2214980721 -0.1626880765 0.5130255222 4279769374
-0.2211779505 -0.1618837565 0.5122840405 4279769374
-0.2212382406 -0.1613585502 0.5124236941 4279769374
-0.2209174782 -0.1605560929 0.5116807818 4279769374
-0.2209773362 -0.1600309312 0.5118194222 4279769374
-0.2206559330 -0.1592303365 0.5110750198 4279769374
-0.2203341722 -0.1584311277 0.5103297234 4279769374
-0.2211559415 -0.1584528834 0.5122330785 4279769374
-0.2196895182 -0.1568368822 0.5088366270 4279703581
-0.2193666399 -0.1560418606 0.5080887675 4279703581
-0.2186617851 -0.1549777687 0.5064562559 4279769374
-0.2183380723 -0.1541864574 0.5057064295 4279835167
-0.2180140018 -0.1533965468 0.5049558282 4279835167
-0.2180714607 -0.1528757960 0.5050889254 4279835167
-0.2181287557 -0.1523546278 0.5052216649 4279835167
-0.2181858867 -0.1518330425 0.5053539872 4279835167
-0.2167140096 -0.1502510905 0.5019448400 4279703581
-0.2167704105 -0.1497323513 0.5020754933 4279703581
-0.2168266475 -0.1492132097 0.5022057295 4279703581
-0.2165002078 -0.1484314203 0.5014496446 4279703581
-0.2169386297 -0.1481737196 0.5024651289 4279769374
-0.2169943601 -0.1476533711 0.5025941730 4279835167
-0.2174327374 -0.1473921090 0.5036095381 4279835167
-0.2174882293 -0.1468700469 0.5037381053 4279835167
-0.2179265618 -0.1466052234 0.5047533512 4279900960
-0.2183649093 -0.1463381797 0.5057685971 4279835167
-0.2184201032 -0.1458130628 0.5058964491 4279835167
-0.2180918306 -0.1450326741 0.5051360726 4279900960
-0.2177631855 -0.1442537308 0.5043749213 4279900960
-0.2174341828 -0.1434762329 0.5036128759 4279835167
-0.2171048224 -0.1427001953 0.5028500557 4279900960
-0.2167750895 -0.1419256181 0.5020863414 4279835167
-0.2164449990 -0.1411525011 0.5013217926 4279835167
-0.2161145508 -0.1403808445 0.5005564094 4279900960
-0.2165516466 -0.1401074976 0.5015687943 4279900960
