VERSION 0.7
FIELDS x y z rgba
SIZE 4 4 4 4
TYPE F F F U
COUNT 1 1 1 1
WIDTH 920
HEIGHT 1
VIEWPOINT 0.0 0.0 0.0 1.0 0.0 0.0 0.0
POINTS 920
DATA ascii
-0.2915438712 -0.1203844696 0.5660510063 4291276148
-0.2920463085 -0.1199619323 0.5670265555 4291078769
-0.2925486565 -0.1195371896 0.5680018663 4291407734
-0.2930509448 -0.1191102415 0.5689770579 4289960288
-0.2935531139 -0.1186810955 0.5699520707 4288709449
-0.2945055068 -0.1184308305 0.5718012452 4288841035
-0.2950075865 -0.1179963425 0.5727760196 4288906828
-0.2955095768 -0.1175596416 0.5737506747 4289104207
-0.2960114479 -0.1171207428 0.5747250915 4289498965
-0.2965132594 -0.1166796386 0.5756993890 4289564758
-0.2965642214 -0.1160599515 0.5757983327 4289433944
-0.2970657349 -0.1156153828 0.5767720938 4289697116
-0.2971163094 -0.1149941087 0.5768702030 4289761878
-0.2971665859 -0.1143725291 0.5769678950 4289696085
-0.2976676524 -0.1139232367 0.5779407024 4289432919
-0.2977175117 -0.1133000776 0.5780375004 4289696091
-0.2977671027 -0.1126766056 0.5781338215 4289434971
-0.2982676923 -0.1122226045 0.5791057348 4289632350
-0.2983168662 -0.1115975678 0.5792012215 4290223718
-0.2988171577 -0.1111401096 0.5801725388 4290618476
-0.2988658845 -0.1105135083 0.5802671313 4291077999
-0.2998173833 -0.1102185920 0.5821145773 4291341171
-0.3003173470 -0.1097545326 0.5830852985 4290948468
-0.3008171916 -0.1092882752 0.5840557218 4290619503
-0.3008651435 -0.1086566672 0.5841488838 4290094988
-0.3018164933 -0.1083491594 0.5859959722 4291871399
-0.3316112161 -0.1902758330 0.6452357173 4292729820
-0.3312492371 -0.1893520355 0.6445314288 4288716447
-0.3313291967 -0.1886814386 0.6446869373 4288385148
-0.3309664130 -0.1877593398 0.6439810991 4288714113
-0.3301606178 -0.1865884364 0.6424131989 4289566841
-0.3280261159 -0.1846729815 0.6382599473 4289172083
-0.3241191506 -0.1817727238 0.6306579709 4289039982
-0.3157811463 -0.1764139235 0.6144341826 4289105775
-0.3065529168 -0.1705957651 0.5964783430 4289105773
-0.3030803800 -0.1680080891 0.5897216201 4288908394
-0.3004923761 -0.1659238189 0.5846859217 4288908394
-0.2987894714 -0.1643375903 0.5813724995 4289039980
-0.2975289524 -0.1630010605 0.5789198279 4289237100
-0.2967110872 -0.1619115472 0.5773285031 4289039721
-0.2963362336 -0.1610663384 0.5765990615 4288973926
-0.2955172062 -0.1599823087 0.5750054121 4288710754
-0.2951413691 -0.1591407806 0.5742741227 4288447323
-0.2943211794 -0.1580622494 0.5726782680 4288381530
-0.2939443588 -0.1572244167 0.5719450712 4288381789
-0.2931230068 -0.1561513990 0.5703469515 4288184410
-0.2918568254 -0.1548459083 0.5678831935 4288181832
-0.2928114235 -0.1547193527 0.5697406530 4288510797
-0.2915440500 -0.1534194201 0.5672746897 4287919173
-0.2911649346 -0.1525904387 0.5665369630 4287392829
-0.2907853723 -0.1517628878 0.5657984614 4287392829
-0.2904053926 -0.1509367526 0.5650591254 4287458622
-0.2895801663 -0.1498818099 0.5634534359 4287787072
-0.2891992629 -0.1490594447 0.5627122521 4287984451
-0.2892629504 -0.1484669149 0.5628361702 4288050498
-0.2888812721 -0.1476464868 0.5620934963 4287918912
-0.2889443934 -0.1470540911 0.5622163415 4288050498
-0.2885619998 -0.1462356299 0.5614722967 4288050498
-0.2881791592 -0.1454186141 0.5607273579 4288182084
-0.2877959013 -0.1446030438 0.5599816442 4288050498
-0.2874122560 -0.1437889189 0.5592351556 4288247107
-0.2870281637 -0.1429762542 0.5584878325 4288181314
-0.2870894372 -0.1423861235 0.5586070418 4287918142
-0.2871505022 -0.1417956203 0.5587258339 4287852349
-0.2872113287 -0.1412047446 0.5588442087 4287852349
-0.2868258655 -0.1403951496 0.5580942035 4288115521
-0.2868861556 -0.1398044378 0.5582115054 4288510279
-0.2864999473 -0.1389968544 0.5574600101 4288707658
-0.2865596712 -0.1384063363 0.5575762391 4288773449
-0.2866191566 -0.1378154308 0.5576919913 4288905035
-0.2866784334 -0.1372241676 0.5578073263 4289037391
-0.2862908244 -0.1364197135 0.5570531487 4289037391
-0.2863495648 -0.1358286291 0.5571674109 4288971598
-0.2864080369 -0.1352372020 0.5572811961 4288774219
-0.2860193849 -0.1344353408 0.5565249920 4288576840
-0.2860773206 -0.1338441074 0.5566377044 4288905805
-0.2861350179 -0.1332525164 0.5567499399 4289432148
-0.2857452929 -0.1324532777 0.5559917092 4289432148
-0.2858024538 -0.1318618953 0.5561028719 4289235540
-0.2858593464 -0.1312701702 0.5562136173 4289498712
-0.2863634825 -0.1308825761 0.5571944714 4290222437
-0.2864200175 -0.1302892119 0.5573045015 4290682988
-0.2864763141 -0.1296954900 0.5574140549 4290946160
-0.2865323722 -0.1291014254 0.5575231314 4291143539
-0.2870360017 -0.1287077963 0.5585030317 4291340916
-0.2870916724 -0.1281121075 0.5586113930 4291472502
-0.2871471047 -0.1275160760 0.5587192178 4291144307
-0.2872022986 -0.1269196868 0.5588266253 4291341686
-0.2877054214 -0.1265200377 0.5598055720 4291275893
-0.2877602279 -0.1259220392 0.5599122047 4291210100
-0.2878147960 -0.1253236979 0.5600184202 4291539065
-0.2883175313 -0.1249192953 0.5609965920 4291670651
-0.2883717120 -0.1243193448 0.5611020327 4291407991
-0.2884256244 -0.1237190515 0.5612069368 4291144819
-0.2884793282 -0.1231184304 0.5613114238 4291473785
-0.2894302309 -0.1228985488 0.5631616712 4291539578
-0.2894836068 -0.1222953871 0.5632655621 4291473784
-0.2895367444 -0.1216918901 0.5633689165 4291539577
-0.2895896435 -0.1210880652 0.5634718537 4291736699
-0.2900913358 -0.1206707060 0.5644480586 4291605113
-0.2905929685 -0.1202511415 0.5654240847 4291473527
-0.2910945117 -0.1198293716 0.5663999319 4291276148
-0.2915959656 -0.1194054037 0.5673756599 4291736699
-0.2920973301 -0.1189792231 0.5683512092 4290486632
-0.2930480838 -0.1187329516 0.5702010989 4288643656
-0.2935493290 -0.1183014363 0.5711764693 4288577863
-0.2940505147 -0.1178677082 0.5721516609 4288774729
-0.2950012982 -0.1176110655 0.5740016103 4288972108
-0.2955023646 -0.1171719879 0.5749765635 4289433172
-0.2960033417 -0.1167307124 0.5759513378 4289301586
-0.2960542738 -0.1161107644 0.5760504603 4289433942
-0.2961049676 -0.1154905036 0.5761491060 4289565528
-0.2966054976 -0.1150444970 0.5771229863 4289564499
-0.2971059084 -0.1145962849 0.5780966878 4289498706
-0.2971559763 -0.1139731854 0.5781941414 4289301333
-0.2976561189 -0.1135215163 0.5791672468 4289630298
-0.2977057397 -0.1128968447 0.5792638063 4289631580
-0.2977551222 -0.1122718602 0.5793598890 4289960545
-0.2978042662 -0.1116465628 0.5794554949 4290289253
-0.2983037233 -0.1111889184 0.5804273486 4290684011
-0.2988030910 -0.1107290760 0.5813989639 4291077997
-0.2993023396 -0.1102670282 0.5823704004 4291341169
-0.2993506491 -0.1096376628 0.5824643970 4291014004
-0.2998495996 -0.1091721654 0.5834352374 4290619246
-0.3003484011 -0.1087044701 0.5844058394 4290094729
-0.3008471131 -0.1082345694 0.5853762031 4291607968
-0.3297900558 -0.1889262050 0.6430819631 4289243565
-0.3294281363 -0.1880051345 0.6423761845 4288386178
-0.3290657401 -0.1870853752 0.6416695118 4288517764
-0.3287028968 -0.1861669272 0.6409620047 4289632120
-0.3270138502 -0.1845018268 0.6376684308 4289303155
-0.3239976764 -0.1820981354 0.6317869425 4289039982
-0.3165585995 -0.1772312522 0.6172809005 4289039982
-0.3077890277 -0.1716545969 0.6001805067 4289105775
-0.3025536835 -0.1680793315 0.5899717212 4288974189
-0.3004126251 -0.1662390530 0.5857967734 4288974187
-0.2987128794 -0.1646512747 0.5824822783 4289039980
-0.2974546850 -0.1633133143 0.5800288320 4289039721
-0.2966384292 -0.1622224748 0.5784371495 4289039721
-0.2962643504 -0.1613760293 0.5777077079 4288973926
-0.2954469323 -0.1602906585 0.5761137009 4288513375
-0.2946288288 -0.1592084914 0.5745185018 4288118617
-0.2938101292 -0.1581295282 0.5729220510 4288250203
-0.2934340537 -0.1572913826 0.5721886754 4288447582
-0.2926141918 -0.1562179327 0.5705899596 4288184410
-0.2913502157 -0.1549119204 0.5681253076 4288182343
-0.2923032343 -0.1547853351 0.5699836016 4288445515
-0.2910381258 -0.1534848660 0.5675166845 4287919173
-0.2906597257 -0.1526555717 0.5667787790 4287656001
-0.2902808785 -0.1518276930 0.5660400987 4287656001
-0.2894576490 -0.1507699937 0.5644348264 4287590208
-0.2895219326 -0.1501762122 0.5645601749 4287852865
-0.2891418338 -0.1493525952 0.5638189316 4287852865
-0.2887612879 -0.1485304236 0.5630769134 4288050498
-0.2888246775 -0.1479372829 0.5632005334 4287853119
-0.2884434164 -0.1471170634 0.5624570847 4287787326
-0.2880617380 -0.1462982744 0.5617128015 4287984705
-0.2876796126 -0.1454809308 0.5609676838 4288050498
-0.2877418101 -0.1448889822 0.5610889792 4287984705
-0.2873589694 -0.1440736204 0.5603424311 4288312902
-0.2865307629 -0.1430376023 0.5587274432 4288115523
-0.2865920067 -0.1424472481 0.5588468313 4287786556
-0.2866530120 -0.1418565214 0.5589658022 4287786556
-0.2867137790 -0.1412654221 0.5590843558 4287852349
-0.2863290310 -0.1404554993 0.5583340526 4288115521
-0.2859438658 -0.1396470368 0.5575830340 4288444486
-0.2860037684 -0.1390566528 0.5576997995 4288641865
-0.2860634327 -0.1384658962 0.5578162074 4288707656
-0.2861228883 -0.1378747672 0.5579321384 4288839242
-0.2857363522 -0.1370694339 0.5571783781 4288971598
-0.2857952416 -0.1364784986 0.5572931767 4289037391
-0.2854079604 -0.1356751919 0.5565379858 4288905805
-0.2854662836 -0.1350844502 0.5566517711 4288708426
-0.2855243981 -0.1344933510 0.5567650795 4288576839
-0.2851360738 -0.1336926520 0.5560078025 4288905804
-0.2851936221 -0.1331017613 0.5561200380 4289366355
-0.2852509320 -0.1325104982 0.5562318563 4289300562
-0.2853080332 -0.1319188774 0.5563431978 4289103954
-0.2853648961 -0.1313269138 0.5564540625 4289498712
-0.2854215205 -0.1307345927 0.5565644503 4290222437
-0.2854779363 -0.1301419139 0.5566744208 4290551402
-0.2855340838 -0.1295488924 0.5567839742 4290682986
-0.2860369384 -0.1291573197 0.5577645302 4291011951
-0.2860927284 -0.1285626739 0.5578733087 4291143537
-0.2861482501 -0.1279676706 0.5579816103 4291340916
-0.2862035632 -0.1273723245 0.5580894351 4291210100
-0.2867059112 -0.1269747317 0.5590689778 4291341686
-0.2867608368 -0.1263777614 0.5591760874 4291407479
-0.2872629464 -0.1259766817 0.5601552129 4291473272
-0.2873174846 -0.1253781021 0.5602615476 4291868285
-0.2873717844 -0.1247791871 0.5603674054 4292065664
-0.2874258161 -0.1241799295 0.5604727864 4291605370
-0.2874796093 -0.1235803366 0.5605776906 4291210612
-0.2884289324 -0.1233635172 0.5624288321 4291342199
-0.2884824276 -0.1227613837 0.5625331402 4291473785
-0.2885356843 -0.1221589148 0.5626369715 4291539578
-0.2885886729 -0.1215561107 0.5627403259 4291671164
-0.2890896499 -0.1211407930 0.5637171865 4291670906
-0.2891422510 -0.1205363870 0.5638197660 4291539320
-0.2896429598 -0.1201175973 0.5647961497 4291539320
-0.2901436090 -0.1196966022 0.5657724142 4291407734
-0.2906441689 -0.1192734092 0.5667484403 4291933308
-0.2915932238 -0.1190311313 0.5685991645 4291670136
-0.2920936942 -0.1186025813 0.5695750117 4289762137
-0.2930428386 -0.1183530763 0.5714257956 4288051519
-0.2935431898 -0.1179191843 0.5724014640 4287919420
-0.2940434515 -0.1174830794 0.5733770132 4288972108
-0.2949926257 -0.1172231957 0.5752278566 4289301073
-0.2954927683 -0.1167817414 0.5762031078 4289169487
-0.2955436707 -0.1161615402 0.5763024092 4289236561
-0.2955943048 -0.1155410260 0.5764011145 4289104975
-0.2960940003 -0.1150948405 0.5773755312 4289301073
-0.2961442173 -0.1144727468 0.5774734616 4289498452
-0.2966436446 -0.1140230969 0.5784472823 4289367128
-0.2971429527 -0.1135712415 0.5794209242 4289432921
-0.2971925437 -0.1129463091 0.5795176625 4289631834
-0.2972418964 -0.1123210713 0.5796138644 4290158178
-0.2972909808 -0.1116955206 0.5797095895 4290355044
-0.2977896333 -0.1112376899 0.5806819201 4290815595
-0.2982881665 -0.1107776612 0.5816540718 4291209070
-0.2987866104 -0.1103154272 0.5826260448 4291472242
-0.2988348603 -0.1096858010 0.5827201009 4291079027
-0.2993330061 -0.1092201099 0.5836914778 4290552683
-0.2998310030 -0.1087522209 0.5846625566 4289831042
-0.3003288805 -0.1082821339 0.5856334567 4291081109
-0.3283332288 -0.1884998828 0.6416308284 4289836217
-0.3279717863 -0.1875802577 0.6409244537 4288124037
-0.3276098669 -0.1866619438 0.6402172446 4288189830
-0.3272475302 -0.1857449412 0.6395090818 4289303154
-0.3255612850 -0.1840809584 0.6362138391 4289171568
-0.3225502372 -0.1816780865 0.6303296089 4289039982
-0.3168893456 -0.1778015196 0.6192671061 4288974189
-0.3085767925 -0.1724674702 0.6030226350 4289039982
-0.3033509552 -0.1688880324 0.5928102732 4289039982
-0.3003306985 -0.1665544361 0.5869081020 4288973930
-0.2986340523 -0.1649651080 0.5835924745 4288842344
-0.2973782420 -0.1636257172 0.5811383724 4288579170
-0.2965635657 -0.1625335366 0.5795462728 4288908135
-0.2957482338 -0.1614445448 0.5779529810 4288973926
-0.2949322760 -0.1603587419 0.5763584375 4288513375
-0.2945579588 -0.1595156640 0.5756269097 4288183897
-0.2937408388 -0.1584353596 0.5740301013 4288512862
-0.2929230630 -0.1573582739 0.5724320412 4288710495
-0.2925472558 -0.1565212011 0.5716976523 4288447323
-0.2917283475 -0.1554496437 0.5700973272 4288379722
-0.2909088135 -0.1543813050 0.5684958100 4288379722
-0.2905315459 -0.1535502672 0.5677585006 4288050246
-0.2901538610 -0.1527206451 0.5670204163 4288050246
-0.2897757292 -0.1518924534 0.5662814975 4288116039
-0.2893971801 -0.1510656625 0.5655417442 4287918660
-0.2890182137 -0.1502403170 0.5648011565 4287984453
-0.2886388302 -0.1494163871 0.5640597343 4287984453
-0.2882589996 -0.1485938877 0.5633174777 4288050244
-0.2883223295 -0.1480005085 0.5634412766 4287918658
-0.2879417837 -0.1471799612 0.5626975894 4287983935
-0.2875608206 -0.1463608593 0.5619530678 4288181314
-0.2871794105 -0.1455432028 0.5612077713 4288049728
-0.2867976129 -0.1447269917 0.5604616404 4287983935
-0.2868594229 -0.1441353410 0.5605824590 4288115523
-0.2864768803 -0.1433210969 0.5598348379 4287918144
-0.2860938907 -0.1425083131 0.5590864420 4287786558
-0.2861548662 -0.1419173628 0.5592055321 4287786558
-0.2857711613 -0.1411065757 0.5584557056 4287983935
-0.2858315408 -0.1405157894 0.5585737824 4288247107
-0.2854470909 -0.1397070140 0.5578224659 4288444486
-0.2855069637 -0.1391163915 0.5579394102 4288641865
-0.2855665684 -0.1385254115 0.5580559373 4288773451
-0.2856259644 -0.1379340589 0.5581719875 4288839244
-0.2852401435 -0.1371283978 0.5574180484 4288840012
-0.2848539054 -0.1363242269 0.5566632152 4288840012
-0.2849124372 -0.1357336044 0.5567775965 4288708426
-0.2849707305 -0.1351426393 0.5568915009 4288642633
-0.2845834196 -0.1343410611 0.5561346412 4288576839
-0.2846411765 -0.1337502897 0.5562474728 4288905804
-0.2846986651 -0.1331591457 0.5563598871 4289366355
-0.2847559452 -0.1325676590 0.5564718246 4289300562
-0.2848129869 -0.1319758147 0.5565832853 4289169747
-0.2848697901 -0.1313836128 0.5566943288 4289564505
-0.2849263847 -0.1307910532 0.5568048358 4290222435
-0.2849827111 -0.1301981509 0.5569149852 4290354021
-0.2850388288 -0.1296048909 0.5570245981 4290485607
-0.2850947082 -0.1290112734 0.5571337938 4290748779
-0.2851503491 -0.1284173280 0.5572425723 4290815342
-0.2856521010 -0.1280230582 0.5582230687 4291078514
-0.2857073545 -0.1274274737 0.5583310127 4291012721
-0.2857623696 -0.1268315464 0.5584385395 4291078514
-0.2862637341 -0.1264325231 0.5594183207 4291341941
-0.2863183618 -0.1258349717 0.5595251322 4291670906
-0.2868195176 -0.1254324764 0.5605044365 4291934335
-0.2868737578 -0.1248333082 0.5606104732 4292131714
-0.2873747051 -0.1244273260 0.5615893602 4291802749
-0.2874285281 -0.1238265559 0.5616946220 4291276405
-0.2874821424 -0.1232254505 0.5617993474 4291013234
-0.2879826725 -0.1228147149 0.5627775192 4291210613
-0.2880358696 -0.1222120002 0.5628814697 4291539578
-0.2880888581 -0.1216089502 0.5629849434 4291539578
-0.2885890007 -0.1211934760 0.5639623404 4291078514
-0.2886415422 -0.1205888242 0.5640650392 4291012721
-0.2891414464 -0.1201698706 0.5650419593 4291473527
-0.2896412611 -0.1197487190 0.5660187006 4291539320
-0.2901409864 -0.1193253547 0.5669953227 4291735929
-0.2906406522 -0.1188997850 0.5679717064 4292064894
-0.2915880978 -0.1186542735 0.5698232651 4291143792
-0.2920876443 -0.1182233542 0.5707994699 4287854142
-0.2930351794 -0.1179706082 0.5726511478 4286537767
-0.2935346365 -0.1175343320 0.5736271739 4288379971
-0.2944822013 -0.1172743514 0.5754789114 4289037901
-0.2949815392 -0.1168327257 0.5764546990 4289235280
-0.2950323820 -0.1162122712 0.5765540600 4289169998
-0.2950829864 -0.1155915037 0.5766529441 4289038412
-0.2955818474 -0.1151451394 0.5776278973 4289235280
-0.2956320345 -0.1145227924 0.5777258873 4289366866
-0.2956819534 -0.1139001250 0.5778234601 4289498201
-0.2961803675 -0.1134490371 0.5787974596 4289366615
-0.2966786623 -0.1129957363 0.5797712803 4289433942
-0.2967279851 -0.1123702377 0.5798676014 4289697114
-0.2967770100 -0.1117444336 0.5799634457 4289959516
-0.2972748578 -0.1112864166 0.5809363127 4290617446
-0.2977725565 -0.1108262017 0.5819089413 4291011691
-0.2982701957 -0.1103637815 0.5828813910 4291340656
-0.2983184159 -0.1097338945 0.5829756260 4290947441
-0.2988157272 -0.1092680171 0.5839474797 4290552683
-0.2993129194 -0.1087999418 0.5849190950 4289699456
-0.2998099923 -0.1083296612 0.5858904719 4290686351
-0.3268787563 -0.1880730540 0.6401779652 4290625994
-0.3265177906 -0.1871548742 0.6394709945 4287926664
-0.3261563778 -0.1862380058 0.6387631893 4287860871
-0.3257945180 -0.1853224486 0.6380544901 4288974189
-0.3249918222 -0.1841586679 0.6364824176 4289039982
-0.3224265575 -0.1820034683 0.6314585209 4289105775
-0.3176569045 -0.1786198765 0.6221174002 4289039982
-0.3106813133 -0.1740214229 0.6084559560 4289039982
-0.3045837283 -0.1699432284 0.5965141058 4289039982
-0.3011283278 -0.1673600227 0.5897468328 4288776549
-0.2985530496 -0.1652790904 0.5847032666 4288315998
-0.2972995937 -0.1639382541 0.5822483897 4288118104
-0.2964864671 -0.1628447473 0.5806559920 4288578655
-0.2956727445 -0.1617544144 0.5790622830 4288973413
-0.2948583663 -0.1606672853 0.5774673820 4288710241
-0.2940433621 -0.1595833600 0.5758712292 4288447069
-0.2936693132 -0.1587413400 0.5751386881 4288644448
-0.2928531468 -0.1576629281 0.5735402703 4288842081
-0.2920363545 -0.1565877199 0.5719406009 4288644702
-0.2916608453 -0.1557517201 0.5712051988 4288708689
-0.2908428907 -0.1546820551 0.5696032643 4288445517
-0.2900243104 -0.1536156088 0.5680001378 4288116039
-0.2896473408 -0.1527856737 0.5672618151 4288181832
-0.2892699242 -0.1519571394 0.5665226579 4288116039
-0.2888920903 -0.1511300355 0.5657827258 4287918660
-0.2885138392 -0.1503043622 0.5650418997 4287984453
-0.2881351709 -0.1494801044 0.5643002987 4288116039
-0.2877560854 -0.1486572772 0.5635578632 4287918658
-0.2878193557 -0.1480636895 0.5636817813 4287852865
-0.2874395251 -0.1472428143 0.5629379153 4287983935
-0.2870592475 -0.1464233994 0.5621931553 4287983935
-0.2866785824 -0.1456054151 0.5614476204 4287457591
-0.2862975001 -0.1447888762 0.5607013106 4287523384
-0.2859159708 -0.1439737827 0.5599541068 4287589947
-0.2855340540 -0.1431601346 0.5592061281 4287524154
-0.2855951786 -0.1425693333 0.5593258142 4287720765
-0.2852125168 -0.1417576969 0.5585764050 4287918144
-0.2852730751 -0.1411670446 0.5586950183 4288181314
-0.2848896682 -0.1403574049 0.5579441190 4288444486
-0.2849497199 -0.1397669315 0.5580617189 4288510279
-0.2850095034 -0.1391760856 0.5581788421 4288641865
-0.2846250534 -0.1383690089 0.5574258566 4288773451
-0.2846843004 -0.1377783418 0.5575419068 4288773451
-0.2847433090 -0.1371873021 0.5576574802 4288642633
-0.2843577862 -0.1363828182 0.5569024682 4288642633
-0.2839718759 -0.1355797946 0.5561466813 4288576840
-0.2840300202 -0.1349895149 0.5562605262 4288576840
-0.2840879261 -0.1343988627 0.5563739538 4288576840
-0.2837009430 -0.1335984617 0.5556160808 4288840012
-0.2837583125 -0.1330080181 0.5557284355 4289234770
-0.2838154435 -0.1324172169 0.5558403134 4289168977
-0.2838723660 -0.1318260729 0.5559517741 4289103954
-0.2839290202 -0.1312345564 0.5560627580 4289498712
-0.2844305933 -0.1308474690 0.5570450425 4289959263
-0.2844868898 -0.1302543283 0.5571553111 4290090849
-0.2845429480 -0.1296608299 0.5572651029 4290354021
-0.2845987678 -0.1290669888 0.5573744178 4290551400
-0.2846543789 -0.1284728050 0.5574833155 4290617963
-0.2847097218 -0.1278782636 0.5575917363 4290815342
-0.2847648561 -0.1272833794 0.5576996803 4290749549
-0.2852654755 -0.1268864125 0.5586801171 4290749549
-0.2853201926 -0.1262899041 0.5587872863 4291012976
-0.2858206034 -0.1258894503 0.5597673059 4291276148
-0.2858749330 -0.1252913177 0.5598737597 4291342198
-0.2859290540 -0.1246928573 0.5599796772 4291539577
-0.2859829068 -0.1240940541 0.5600851774 4291671163
-0.2869290113 -0.1238802373 0.5619381070 4291407991
-0.2869825661 -0.1232788861 0.5620430112 4291078514
-0.2874822915 -0.1228679940 0.5630216599 4291341686
-0.2875354588 -0.1222650409 0.5631257892 4291605371
-0.2875883579 -0.1216617525 0.5632293820 4291210613
-0.2880876660 -0.1212461069 0.5642073154 4290223205
-0.2881401777 -0.1206412241 0.5643101335 4290157412
-0.2886392772 -0.1202221066 0.5652875304 4291077744
-0.2886913717 -0.1196156144 0.5653895736 4291275123
-0.2891902030 -0.1191930249 0.5663665533 4291472757
-0.2896889448 -0.1187682301 0.5673432946 4291801722
-0.2906347215 -0.1185235754 0.5691955686 4292064894
-0.2911333740 -0.1180934235 0.5701721907 4289104209
-0.2920792103 -0.1178415343 0.5720245838 4286603562
-0.2925777733 -0.1174060255 0.5730009675 4287919422
-0.2935236692 -0.1171468943 0.5748534203 4288906315
-0.2940220833 -0.1167060286 0.5758295655 4289103694
-0.2945204377 -0.1162629649 0.5768055320 4289103946
-0.2945709825 -0.1156419367 0.5769045949 4289169739
-0.2950690389 -0.1151954010 0.5778799653 4289235023
-0.2951191664 -0.1145727932 0.5779781342 4288971851
-0.2951690257 -0.1139498726 0.5780758262 4289037650
-0.2952186465 -0.1133266315 0.5781729817 4289300822
-0.2957160771 -0.1128741056 0.5791471601 4289564756
-0.2957652509 -0.1122492924 0.5792434812 4289433170
-0.2962623835 -0.1117933020 0.5802170634 4289564499
-0.2972076535 -0.1115032807 0.5820683837 4290222429
-0.2972562909 -0.1108747050 0.5821636319 4290813801
-0.2977530956 -0.1104120985 0.5831365585 4291208559
-0.2978012562 -0.1097819507 0.5832309127 4290947441
-0.2982977629 -0.1093158871 0.5842033029 4290750062
-0.2987941206 -0.1088476181 0.5851753950 4290027905
-0.2992903888 -0.1083771437 0.5861473083 4290949007
-0.3002353013 -0.1080660075 0.5879978538 4292534496
-0.3249874711 -0.1873925030 0.6378614306 4291745247
-0.3250661790 -0.1867289990 0.6380158663 4288256147
-0.3247052431 -0.1858135760 0.6373074651 4287598217
-0.3243438601 -0.1848994642 0.6365981698 4289237361
-0.3235424161 -0.1837370396 0.6350252032 4289039982
-0.3214212358 -0.1818314940 0.6308618784 4288777580
-0.3175395131 -0.1789430976 0.6232431531 4288843373
-0.3118960559 -0.1750826836 0.6121665835 4289039982
-0.3053696156 -0.1707531363 0.5993569493 4289039982
-0.3014805317 -0.1679210365 0.5917237401 4288710756
-0.2989100516 -0.1658374518 0.5866785645 4288052826
-0.2972187102 -0.1642509401 0.5833589435 4287723859
-0.2959667742 -0.1629136652 0.5809017420 4288118617
-0.2951545119 -0.1618229002 0.5793074965 4288776549
-0.2943416238 -0.1607353538 0.5777119994 4289039721
-0.2939688265 -0.1598907113 0.5769802928 4288710241
-0.2931547761 -0.1588086486 0.5753825307 4288578655
-0.2923400998 -0.1577298045 0.5737835765 4288907104
-0.2919658124 -0.1568911672 0.5730489492 4288907104
-0.2911500037 -0.1558178514 0.5714477301 4288971608
-0.2903335392 -0.1547477543 0.5698451996 4288642643
-0.2895164490 -0.1536808908 0.5682414770 4288248138
-0.2891401649 -0.1528506279 0.5675029755 4288116552
-0.2892050147 -0.1522542238 0.5676302314 4287984966
-0.2883863747 -0.1511943489 0.5660234690 4287919173
-0.2884505689 -0.1505989730 0.5661494732 4287919173
-0.2876308858 -0.1495437771 0.5645406246 4287919173
-0.2872524858 -0.1487206221 0.5637980103 4287919173
-0.2873157263 -0.1481268108 0.5639221072 4287853380
-0.2869366109 -0.1473056227 0.5631780028 4287918658
-0.2865570784 -0.1464858651 0.5624330640 4287655486
-0.2861770988 -0.1456675678 0.5616872907 4286866224
-0.2857967317 -0.1448507011 0.5609407425 4287063603
-0.2854159474 -0.1440352947 0.5601933599 4287195189
-0.2854773402 -0.1434437186 0.5603138208 4287260982
-0.2850958109 -0.1426302940 0.5595650077 4287654970
-0.2847138643 -0.1418183297 0.5588153601 4287983935
-0.2847743630 -0.1412274688 0.5589341521 4288312900
-0.2843917012 -0.1404175013 0.5581830144 4288444486
-0.2844516635 -0.1398268044 0.5583007336 4288510279
-0.2845114172 -0.1392357200 0.5584179759 4288641865
-0.2841276824 -0.1384283304 0.5576648116 4288707658
-0.2841868699 -0.1378374249 0.5577810407 4288641865
-0.2838023901 -0.1370320618 0.5570263863 4288576842
-0.2838610411 -0.1364413500 0.5571414828 4288511049
-0.2834758461 -0.1356380135 0.5563854575 4288511047
-0.2830902338 -0.1348361522 0.5556285977 4288576840
-0.2831479907 -0.1342462003 0.5557419658 4288576840
-0.2832055390 -0.1336558908 0.5558549166 4288708426
-0.2828188837 -0.1328566670 0.5550960302 4288840012
-0.2828758657 -0.1322665662 0.5552079082 4288774219
-0.2829326391 -0.1316761076 0.5553193092 4288972111
-0.2829891741 -0.1310852915 0.5554302335 4289366869
-0.2834898233 -0.1306989789 0.5564128757 4289564505
-0.2835459709 -0.1301065385 0.5565230846 4289827677
-0.2836019099 -0.1295137405 0.5566328764 4290156642
-0.2841022015 -0.1291226596 0.5576148033 4290288228
-0.2841577530 -0.1285282373 0.5577238202 4290485607
-0.2842130363 -0.1279334575 0.5578323603 4290682986
-0.2842681110 -0.1273383349 0.5579404831 4290552170
-0.2843229473 -0.1267428696 0.5580481291 4290683756
-0.2848225832 -0.1263444722 0.5590287447 4290749804
-0.2848770618 -0.1257473826 0.5591356158 4290947183
-0.2853764594 -0.1253454983 0.5601158738 4290947183
-0.2854305208 -0.1247468069 0.5602219701 4291012976
-0.2859297097 -0.1243414432 0.5612017512 4291407991
-0.2859833837 -0.1237411276 0.5613070726 4291407991
-0.2864823639 -0.1233322844 0.5622864366 4291144307
-0.2865356207 -0.1227303594 0.5623909831 4291473272
-0.2865886390 -0.1221280992 0.5624950528 4291736444
-0.2866414487 -0.1215255037 0.5625986457 4291078514
-0.2871398628 -0.1211106405 0.5635768771 4289828447
-0.2876381874 -0.1206935644 0.5645549893 4289631068
-0.2881364226 -0.1202742904 0.5655329227 4290354276
-0.2881884873 -0.1196675599 0.5656350851 4290354276
-0.2886865139 -0.1192447990 0.5666125417 4291209585
-0.2891844213 -0.1188198403 0.5675898194 4291867515
-0.2901286185 -0.1185750961 0.5694429874 4292196480
-0.2906264365 -0.1181447729 0.5704200864 4290880620
-0.2915706635 -0.1178927943 0.5722733736 4288643658
-0.2920683920 -0.1174571142 0.5732502937 4288380486
-0.2925660312 -0.1170192286 0.5742269754 4288708938
-0.2935102880 -0.1167568490 0.5760803223 4288379973
-0.2935609818 -0.1161368415 0.5761798024 4288248124
-0.2940583229 -0.1156923324 0.5771559477 4288511296
-0.2941085696 -0.1150707304 0.5772545934 4288840263
-0.2946056426 -0.1146227494 0.5782302022 4288642884
-0.2946554720 -0.1139995754 0.5783280134 4288905805
-0.2947050333 -0.1133760810 0.5784252882 4289234770
-0.2947543561 -0.1127522737 0.5785220861 4289565010
-0.2952507734 -0.1122983024 0.5794963837 4289433424
-0.2957470715 -0.1118421331 0.5804705024 4289630292
-0.2962432504 -0.1113837510 0.5814443827 4290222429
-0.2967393398 -0.1109231636 0.5824180841 4290945387
-0.2972353101 -0.1104603708 0.5833915472 4291142766
-0.2972834408 -0.1098299623 0.5834860206 4290815857
-0.2977791131 -0.1093637124 0.5844588876 4290815857
-0.2982746661 -0.1088952497 0.5854315162 4290027904
-0.2987700999 -0.1084245890 0.5864039063 4290751627
-0.2997134030 -0.1081133261 0.5882553458 4292402910
-0.3231784105 -0.1860501766 0.6356965303 4289111457
-0.3228178620 -0.1851371080 0.6349872947 4287729804
-0.3224568665 -0.1842253506 0.6342772245 4289632889
-0.3220954239 -0.1833149046 0.6335662603 4288974959
-0.3204167485 -0.1816592515 0.6302642822 4288579946
-0.3169808388 -0.1790185273 0.6235058308 4288579946
-0.3117865026 -0.1754035503 0.6132884622 4288711787
-0.3061501980 -0.1715636104 0.6022017598 4288843373
-0.3018289804 -0.1684824079 0.5937018991 4288645476
-0.2988238335 -0.1661518216 0.5877906680 4288053339
-0.2975751758 -0.1648072153 0.5853345990 4287723859
-0.2958860397 -0.1632250547 0.5820120573 4287921238
-0.2950753868 -0.1621329635 0.5804174542 4288776549
-0.2942640781 -0.1610440761 0.5788215995 4289368686
-0.2934521437 -0.1599583775 0.5772245526 4289039208
-0.2926395833 -0.1588758975 0.5756261945 4288578657
-0.2918263972 -0.1577966213 0.5740266442 4288841311
-0.2914528251 -0.1569576710 0.5732918382 4288972897
-0.2906384766 -0.1558839232 0.5716900229 4289037660
-0.2902639806 -0.1550486833 0.5709533691 4288840281
-0.2894484699 -0.1539804935 0.5693492889 4288576848
-0.2890730202 -0.1531489938 0.5686107278 4288247883
-0.2882564068 -0.1520863622 0.5670043826 4288182345
-0.2878800035 -0.1512586027 0.5662640333 4288116552
-0.2875031829 -0.1504322737 0.5655227900 4287919173
-0.2875669897 -0.1498371959 0.5656483173 4287853380
-0.2871894240 -0.1490128189 0.5649056435 4287787587
-0.2868114412 -0.1481898725 0.5641621947 4287787587
-0.2864330411 -0.1473683566 0.5634178519 4287918658
-0.2860542238 -0.1465482861 0.5626727343 4287721279
-0.2856749892 -0.1457296610 0.5619267225 4286932017
-0.2852953374 -0.1449124813 0.5611799359 4287260982
-0.2853569984 -0.1443201452 0.5613012314 4287261239
-0.2849766016 -0.1435049474 0.5605530143 4287392825
-0.2850376964 -0.1429127753 0.5606731772 4287458361
-0.2846565843 -0.1420995742 0.5599235296 4287918912
-0.2842750251 -0.1412878186 0.5591729879 4288182082
-0.2843352854 -0.1406963468 0.5592914820 4288247875
-0.2839529812 -0.1398866028 0.5585395694 4288313668
-0.2840126753 -0.1392953098 0.5586569905 4288445254
-0.2836296558 -0.1384875923 0.5579035878 4288641865
-0.2832462490 -0.1376813352 0.5571493506 4288641865
-0.2833050787 -0.1370907724 0.5572650433 4288707658
-0.2829208970 -0.1362865567 0.5565094352 4288641865
-0.2829791903 -0.1356961727 0.5566240549 4288641863
-0.2825942934 -0.1348939985 0.5558669567 4288707656
-0.2826520205 -0.1343038231 0.5559805036 4288641863
-0.2827095091 -0.1337132752 0.5560935736 4288641863
-0.2823235691 -0.1329137236 0.5553344488 4288641865
-0.2823805213 -0.1323233992 0.5554464459 4288510279
-0.2824372351 -0.1317327023 0.5555580258 4288708939
-0.2824937105 -0.1311416626 0.5556691289 4289169490
-0.2825499475 -0.1305502653 0.5557797551 4289366869
-0.2826059759 -0.1299585104 0.5558899641 4289695834
-0.2831054926 -0.1295695007 0.5568725467 4289959518
-0.2831611335 -0.1289761215 0.5569819808 4290091104
-0.2836604714 -0.1285836101 0.5579641461 4290288228
-0.2837157249 -0.1279886067 0.5580728650 4290419814
-0.2837707400 -0.1273932457 0.5581811070 4290288228
-0.2838255465 -0.1267975420 0.5582888722 4290485607
-0.2847686112 -0.1265964955 0.5601438880 4290420839
-0.2848230898 -0.1259982437 0.5602510571 4290684011
-0.2848773599 -0.1253996342 0.5603577495 4290552425
-0.2849313617 -0.1248007044 0.5604640245 4290420839
-0.2849851251 -0.1242014170 0.5605697632 4290881390
-0.2854833305 -0.1237946302 0.5615497828 4290947183
-0.2855367362 -0.1231937334 0.5616547465 4290551655
-0.2860347033 -0.1227834597 0.5626342893 4291143792
-0.2860876918 -0.1221809611 0.5627385378 4291407479
-0.2861404121 -0.1215781271 0.5628422499 4291012721
-0.2866380215 -0.1211631000 0.5638210177 4290157412
-0.2871355116 -0.1207458675 0.5647996068 4289960033
-0.2871876955 -0.1201401651 0.5649022460 4290288483
-0.2876849473 -0.1197194532 0.5658804178 4290091104
-0.2881821394 -0.1192965284 0.5668583512 4291077999
-0.2886792421 -0.1188714057 0.5678361654 4292328066
-0.2896218300 -0.1186265722 0.5696902275 4291933308
-0.2901188135 -0.1181960851 0.5706678033 4291933308
-0.2910614610 -0.1179440096 0.5725219846 4290814827
-0.2915583551 -0.1175081581 0.5734993815 4289170002
-0.2920551598 -0.1170701012 0.5744765997 4288577350
-0.2925518453 -0.1166298389 0.5754536390 4287590455
-0.2930484712 -0.1161873639 0.5764304996 4286735139
-0.2930988669 -0.1155667752 0.5765296221 4287327276
-0.2935951948 -0.1151208282 0.5775058866 4288510528
-0.2936451435 -0.1144986600 0.5776041746 4288905286
-0.2941412032 -0.1140492335 0.5785799026 4289103183
-0.2941907346 -0.1134254858 0.5786773562 4289037390
-0.2942400277 -0.1128014252 0.5787742734 4289236043
-0.2942890227 -0.1121770516 0.5788707137 4289301836
-0.2952310741 -0.1118909195 0.5807237029 4289498704
-0.2957264483 -0.1114323512 0.5816981196 4290090841
-0.2962217033 -0.1109715775 0.5826722980 4291011181
-0.2967168689 -0.1105085984 0.5836462379 4291142767
-0.2967649698 -0.1098779365 0.5837408900 4290618478
-0.2972598076 -0.1094114929 0.5847142339 4290684271
-0.2977545261 -0.1089428440 0.5856873989 4289896318
-0.2982491255 -0.1084719896 0.5866602659 4290488455
-0.2991908491 -0.1081606075 0.5885126591 4292337117
-0.3212945759 -0.1853706539 0.6333746910 4290691779
-0.3209344149 -0.1844599247 0.6326647401 4287402129
-0.3214496970 -0.1840520203 0.6336804628 4289633147
-0.3206507862 -0.1828922778 0.6321055889 4288909424
-0.3194130659 -0.1814867109 0.6296656728 4288251747
-0.3168597221 -0.1793419272 0.6246321797 4288646505
-0.3121130764 -0.1759717166 0.6152750254 4288711018
-0.3069254458 -0.1723746359 0.6050485373 4289039983
-0.3021736741 -0.1690441072 0.5956812501 4288841063
-0.2991740704 -0.1667107791 0.5897681117 4288117340
-0.2970503569 -0.1648767442 0.5855815411 4287788365
-0.2958031297 -0.1635365784 0.5831229091 4287985744
-0.2949940562 -0.1624431610 0.5815279484 4288709725
-0.2941843271 -0.1613529325 0.5799317360 4289630827
-0.2933740020 -0.1602659076 0.5783342719 4289104999
-0.2925630212 -0.1591820866 0.5767356157 4288183897
-0.2917514145 -0.1581014842 0.5751356483 4288316247
-0.2909391820 -0.1570241004 0.5735344887 4288974177
-0.2905659080 -0.1561862230 0.5727986693 4289563504
-0.2897525430 -0.1551143676 0.5711952448 4289168746
-0.2889385521 -0.1540457457 0.5695905685 4288774490
-0.2885637879 -0.1532139331 0.5688518286 4288511318
-0.2881886363 -0.1523835212 0.5681123137 4288182856
-0.2878130674 -0.1515545398 0.5673719049 4287985477
-0.2874370515 -0.1507269740 0.5666306615 4287722303
-0.2870606184 -0.1499008387 0.5658886433 4287722303
-0.2866837978 -0.1490761489 0.5651457310 4287787585
-0.2863065302 -0.1482528746 0.5644020438 4287721792
-0.2859288454 -0.1474310458 0.5636575222 4288181316
-0.2855507433 -0.1466106474 0.5629121661 4288049730
-0.2851722240 -0.1457916945 0.5621659756 4287720512
-0.2847932875 -0.1449742019 0.5614189506 4287523133
-0.2848548889 -0.1443816423 0.5615404248 4287721028
-0.2844752371 -0.1435661316 0.5607919693 4287589442
-0.2840951383 -0.1427520514 0.5600426793 4287720511
-0.2841558754 -0.1421601921 0.5601624250 4288049476
-0.2837750614 -0.1413481236 0.5594117045 4288116037
-0.2838352323 -0.1407564282 0.5595303178 4288181830
-0.2834536731 -0.1399463713 0.5587781668 4288247877
-0.2835133076 -0.1393548399 0.5588957071 4288379463
-0.2831310332 -0.1385467947 0.5581421256 4288510281
-0.2827483118 -0.1377402246 0.5573876500 4288576074
-0.2828070819 -0.1371494383 0.5575035214 4288576072
-0.2824236453 -0.1363448948 0.5567476749 4288576072
-0.2820398211 -0.1355418414 0.5559909940 4288576070
-0.2820976973 -0.1349518001 0.5561051369 4288576070
-0.2817131281 -0.1341507882 0.5553469658 4288576325
-0.2817704976 -0.1335609406 0.5554600358 4288642118
-0.2818275988 -0.1329707354 0.5555726886 4288838985
-0.2818844914 -0.1323801726 0.5556848049 4288970571
-0.2819411755 -0.1317892522 0.5557965040 4289037391
-0.2819975913 -0.1311979890 0.5559077859 4289366356
-0.2820537984 -0.1306063533 0.5560185313 4289630041
-0.2821097672 -0.1300143749 0.5561288595 4289761627
-0.2821654975 -0.1294220388 0.5562387705 4289892959
-0.2822210193 -0.1288293600 0.5563482046 4290090338
-0.2827194333 -0.1284376383 0.5573306680 4290090338
-0.2827745378 -0.1278433204 0.5574393868 4290024545
-0.2828294337 -0.1272486597 0.5575475693 4290024798
-0.2833274901 -0.1268521696 0.5585293770 4290090591
-0.2838254571 -0.1264534742 0.5595110655 4290288481
-0.2838798165 -0.1258559078 0.5596182346 4290354274
-0.2839339375 -0.1252580136 0.5597248673 4290420067
-0.2844315469 -0.1248545498 0.5607058406 4289959516
-0.2844852805 -0.1242550313 0.5608117580 4290354021
-0.2845387459 -0.1236551777 0.5609171987 4290551400
-0.2850359976 -0.1232469529 0.5618973970 4290156897
-0.2850890756 -0.1226454824 0.5620020628 4290814827
-0.2855860591 -0.1222337782 0.5629817843 4291209583
-0.2856387794 -0.1216307059 0.5630856752 4291012204
-0.2856912315 -0.1210272983 0.5631890893 4290749034
-0.2861878276 -0.1206108406 0.5641680360 4290617448
-0.2866843343 -0.1201921776 0.5651468039 4290485607
-0.2871807814 -0.1197713017 0.5661254525 4290156642
-0.2876771390 -0.1193482131 0.5671039224 4290814572
-0.2881734073 -0.1189229190 0.5680822134 4292064639
-0.2886695862 -0.1184954196 0.5690603852 4291867515
-0.2896105349 -0.1182473451 0.5709153414 4291801722
-0.2901066244 -0.1178144813 0.5718932748 4291604858
-0.2910476327 -0.1175591573 0.5737482905 4290617963
-0.2915436327 -0.1171209291 0.5747260451 4289828447
-0.2920394838 -0.1166804880 0.5757035613 4289236310
-0.2925352752 -0.1162378415 0.5766808987 4288115772
-0.2925856411 -0.1156169996 0.5767801404 4287260463
-0.2930811346 -0.1151708737 0.5777569413 4287919674
-0.2931310534 -0.1145484522 0.5778553486 4289432913
-0.2936262786 -0.1140988544 0.5788316131 4289367369
-0.2936757803 -0.1134748533 0.5789291859 4288906818
-0.2941707075 -0.1130217761 0.5799048543 4289366342
-0.2942197621 -0.1123962030 0.5800015926 4289300549
-0.2947144210 -0.1119396612 0.5809767246 4289300562
-0.2952089608 -0.1114809141 0.5819516182 4290024285
-0.2957034111 -0.1110199541 0.5829262733 4290617963
-0.2957516313 -0.1103902906 0.5830214024 4290946928
-0.2962457836 -0.1099258661 0.5839955211 4290882679
-0.2967398167 -0.1094592363 0.5849694014 4290816886
-0.2972337008 -0.1089904010 0.5859430432 4290684797
-0.2981738746 -0.1086820513 0.5877963305 4291079555
-0.2986676097 -0.1082078516 0.5887696743 4292271574
-0.3198516369 -0.1849430799 0.6319137812 4291678674
-0.3199290037 -0.1842855662 0.6320666671 4287796887
-0.3195689917 -0.1833766997 0.6313554049 4288712822
-0.3192085326 -0.1824691743 0.6306432486 4289041787
-0.3179728687 -0.1810648441 0.6282020211 4288515436
-0.3158613741 -0.1791691482 0.6240304708 4288318057
-0.3124358654 -0.1765402257 0.6172628403 4288710505
-0.3076953590 -0.1731862277 0.6078972816 4288907884
-0.3029523492 -0.1698516160 0.5985267758 4288906595
-0.3003963232 -0.1677591801 0.5934769511 4288182872
-0.2978388369 -0.1656771302 0.5884242654 4288116301
-0.2957179844 -0.1638482511 0.5842342377 4287918922
-0.2944723070 -0.1625116616 0.5817731619 4288380502
-0.2936640680 -0.1614210159 0.5801764131 4289301604
-0.2928552330 -0.1603335589 0.5785784125 4288710241
-0.2920457423 -0.1592493206 0.5769791603 4287920725
-0.2912356257 -0.1581682861 0.5753786564 4288119381
-0.2908636034 -0.1573277712 0.5746436715 4288711518
-0.2900523245 -0.1562522650 0.5730409026 4289498480
-0.2896793485 -0.1554154754 0.5723040104 4289103722
-0.2888669670 -0.1543455273 0.5706989765 4288840283
-0.2884930372 -0.1535124630 0.5699602365 4288445525
-0.2876794934 -0.1524480730 0.5683529973 4287985477
-0.2873046100 -0.1516187787 0.5676123500 4287722305
-0.2869293392 -0.1507908851 0.5668709278 4287590717
-0.2865536213 -0.1499644369 0.5661286712 4287788096
-0.2861775160 -0.1491394192 0.5653855801 4287984964
-0.2858009636 -0.1483158171 0.5646416545 4287721792
-0.2854239941 -0.1474936754 0.5638969541 4288181316
-0.2850466073 -0.1466729492 0.5631513596 4288049730
-0.2846688330 -0.1458536834 0.5624049902 4287786304
-0.2842906117 -0.1450358629 0.5616577864 4287588925
-0.2843521535 -0.1444430798 0.5617793798 4287852098
-0.2839732170 -0.1436272413 0.5610306859 4287720512
-0.2835938334 -0.1428128481 0.5602812171 4287589695
-0.2836545110 -0.1422207654 0.5604010820 4287787074
-0.2832744122 -0.1414083838 0.5596501231 4288050244
-0.2833345532 -0.1408164501 0.5597689152 4288116037
-0.2829537094 -0.1400060654 0.5590165257 4288116037
-0.2825724781 -0.1391971558 0.5582633018 4288181830
-0.2826317251 -0.1386059523 0.5583804250 4288378695
-0.2822497487 -0.1377990693 0.5576257706 4288444488
-0.2823084891 -0.1372080445 0.5577417612 4288576072
-0.2814845741 -0.1361897141 0.5561140180 4288576072
-0.2819839418 -0.1358123422 0.5571005940 4288445254
-0.2816005051 -0.1350095272 0.5563430190 4288445254
-0.2812166512 -0.1342082024 0.5555846691 4288445254
-0.2812739611 -0.1336181313 0.5556979179 4288445254
-0.2813310325 -0.1330277026 0.5558106303 4288707656
-0.2813878655 -0.1324369162 0.5559229851 4288773449
-0.2814444900 -0.1318457574 0.5560348034 4288971600
-0.2815008461 -0.1312542558 0.5561462045 4289037393
-0.2815569937 -0.1306623966 0.5562571287 4289300822
-0.2816129327 -0.1300701797 0.5563675761 4289695580
-0.2816686034 -0.1294776201 0.5564776063 4289827166
-0.2817240655 -0.1288847029 0.5565871596 4289827166
-0.2822216451 -0.1284928322 0.5575702190 4289892959
-0.2822767198 -0.1278982759 0.5576789975 4289892959
-0.2827740908 -0.1275029182 0.5586616397 4289695834
-0.2828287780 -0.1269067526 0.5587697029 4289695834
-0.2833259106 -0.1265079081 0.5597518682 4289959518
-0.2833802402 -0.1259101033 0.5598591566 4290091104
-0.2834343016 -0.1253119707 0.5599659681 4290156897
-0.2834881246 -0.1247134879 0.5600723624 4289893725
-0.2839847505 -0.1243085936 0.5610535145 4290222690
-0.2840381861 -0.1237085015 0.5611590743 4290354276
-0.2840913832 -0.1231080666 0.5612641573 4290354276
-0.2845876515 -0.1226984113 0.5622445941 4290814827
-0.2846404314 -0.1220963672 0.5623489022 4291209585
-0.2851364613 -0.1216832325 0.5633288622 4291143792
-0.2851888537 -0.1210795864 0.5634323955 4291077999
-0.2856846452 -0.1206629649 0.5644118786 4291012206
-0.2861803174 -0.1202441379 0.5653911829 4290617193
-0.2866759300 -0.1198230982 0.5663703084 4290025056
-0.2871714532 -0.1193998531 0.5673493147 4289893470
-0.2876668870 -0.1189743951 0.5683281422 4291340916
-0.2881622612 -0.1185467243 0.5693067908 4292196225
-0.2886575162 -0.1181168407 0.5702852607 4292130432
-0.2895968556 -0.1178655252 0.5721410513 4291933823
-0.2900920212 -0.1174302772 0.5731192827 4291670651
-0.2910314202 -0.1171717122 0.5749751925 4291210100
-0.2915264666 -0.1167310998 0.5759532452 4290946928
-0.2915769517 -0.1161112711 0.5760530233 4290616933
-0.2920717299 -0.1156671867 0.5770304799 4290090589
-0.2925664186 -0.1152208820 0.5780078173 4290156895
-0.2926162779 -0.1145982072 0.5781063437 4290288481
-0.2931106985 -0.1141484231 0.5790831447 4289893715
-0.2931601405 -0.1135241687 0.5791807771 4289564750
-0.2936542630 -0.1130709201 0.5801569819 4289432651
-0.2937032580 -0.1124450862 0.5802538395 4288906307
-0.2941970825 -0.1119883582 0.5812294483 4289235282
-0.2946908176 -0.1115294248 0.5822048783 4289959005
-0.2951844037 -0.1110682860 0.5831800699 4290617963
-0.2956779003 -0.1106049344 0.5841550231 4290946928
-0.2957259417 -0.1099737510 0.5842499137 4290882677
-0.2962191105 -0.1095069349 0.5852242708 4290948470
-0.2967121899 -0.1090379059 0.5861984491 4290882176
-0.2976507545 -0.1087294444 0.5880526900 4291211141
-0.2981436551 -0.1082550511 0.5890265107 4292468440
-0.3180518746 -0.1836071759 0.6297399402 4288849834
-0.3181286454 -0.1829516441 0.6298919320 4287925369
-0.3177686930 -0.1820455641 0.6291791797 4288649092
-0.3169716597 -0.1808916628 0.6276011467 4288910455
-0.3153005838 -0.1792443544 0.6242923737 4288581490
-0.3123180270 -0.1768617332 0.6183869243 4289039470
-0.3080230057 -0.1737519056 0.6098828316 4288578919
-0.3032886982 -0.1704141200 0.6005089283 4288971618
-0.2998632193 -0.1678297222 0.5937265754 4288576860
-0.2977475524 -0.1659905910 0.5895375609 4288182092
-0.2951933146 -0.1639172286 0.5844801664 4287655748
-0.2943873107 -0.1628220379 0.5828843117 4288117330
-0.2935806811 -0.1617300510 0.5812871456 4288972639
-0.2927734256 -0.1606412679 0.5796887875 4288512864
-0.2919655442 -0.1595556885 0.5780891776 4288052313
-0.2911570072 -0.1584733278 0.5764883161 4288250969
-0.2903478742 -0.1573941857 0.5748862624 4288843106
-0.2899761498 -0.1565547436 0.5741502047 4289366892
-0.2896039784 -0.1557167172 0.5734133124 4288972134
-0.2887931764 -0.1546454281 0.5718079209 4288840283
-0.2879817188 -0.1535773873 0.5702012777 4288445525
-0.2876081169 -0.1527454257 0.5694615245 4287985477
-0.2867955267 -0.1516829431 0.5678526163 4287590719
-0.2864209712 -0.1508547515 0.5671110153 4287655997
-0.2860459685 -0.1500279754 0.5663685203 4287853376
-0.2852317691 -0.1489734352 0.5647563934 4287853378
-0.2848558426 -0.1481504440 0.5640120506 4287261241
-0.2849185169 -0.1475562304 0.5641361475 4287655488
-0.2845418453 -0.1467352062 0.5633903742 4287721281
-0.2841647863 -0.1459156126 0.5626437664 4287786304
-0.2837872803 -0.1450974643 0.5618963242 4287720511
-0.2838487923 -0.1445044577 0.5620180964 4287917891
-0.2834705412 -0.1436883062 0.5612692237 4287852098
-0.2830919027 -0.1428736001 0.5605195165 4287655486
-0.2831525207 -0.1422812790 0.5606395006 4287721279
-0.2827731669 -0.1414685696 0.5598883629 4287984451
-0.2828332484 -0.1408764273 0.5600073338 4288116037
-0.2824531198 -0.1400657147 0.5592547059 4288116037
-0.2820726037 -0.1392564923 0.5585013032 4288181830
-0.2821318209 -0.1386650503 0.5586184859 4288247623
-0.2817505598 -0.1378578395 0.5578636527 4288313416
-0.2818092108 -0.1372665912 0.5579797626 4288379463
-0.2809868157 -0.1362478584 0.5563514233 4288379463
-0.2814853489 -0.1358703524 0.5573385358 4288445256
-0.2811026573 -0.1350672245 0.5565807819 4288445256
-0.2807195187 -0.1342655718 0.5558221936 4288445256
-0.2807767689 -0.1336752772 0.5559355617 4288445256
-0.2808337808 -0.1330846101 0.5560484529 4288641865
-0.2808905840 -0.1324935853 0.5561608672 4288773451
-0.2805061042 -0.1316951364 0.5553995967 4288905553
-0.2805623412 -0.1311043352 0.5555109382 4288708174
-0.2810595632 -0.1307183802 0.5564954877 4288971600
-0.2811154425 -0.1301259398 0.5566061139 4289695323
-0.2811710835 -0.1295331419 0.5567162633 4289695834
-0.2816679776 -0.1291424036 0.5577000976 4289432662
-0.2821647823 -0.1287494600 0.5586838126 4289564248
-0.2822199166 -0.1281537563 0.5587929487 4289564248
-0.2822747827 -0.1275576949 0.5589016080 4289564248
-0.2823294103 -0.1269612759 0.5590097904 4289432662
-0.2823838294 -0.1263645291 0.5591174960 4289762139
-0.2828800082 -0.1259642541 0.5600998998 4290025311
-0.2829340100 -0.1253658682 0.5602068901 4290156897
-0.2829878032 -0.1247671545 0.5603133440 4290025311
-0.2830413580 -0.1241680980 0.5604193807 4290156895
-0.2835370004 -0.1237617731 0.5614007711 4290288481
-0.2835901380 -0.1231610999 0.5615059733 4290485862
-0.2840855420 -0.1227512956 0.5624868870 4290814827
-0.2841383219 -0.1221490130 0.5625913739 4291143792
-0.2846334875 -0.1217357144 0.5635718107 4291275378
-0.2846858501 -0.1211318225 0.5636754632 4291209585
-0.2851808071 -0.1207150444 0.5646554828 4291143792
-0.2856756449 -0.1202960610 0.5656352639 4290485607
-0.2861704230 -0.1198748574 0.5666149259 4289564505
-0.2862220705 -0.1192668229 0.5667171478 4289169747
-0.2867166102 -0.1188421398 0.5676963329 4290419814
-0.2872110307 -0.1184152439 0.5686753392 4292064639
-0.2881487012 -0.1181679368 0.5705319047 4292130432
-0.2890864313 -0.1179165244 0.5723885894 4291868030
-0.2895807624 -0.1174811125 0.5733674169 4292065409
-0.2900750041 -0.1170434803 0.5743460059 4291604858
-0.2905691564 -0.1166036427 0.5753244162 4291341686
-0.2910632193 -0.1161615849 0.5763025880 4291144562
-0.2915571630 -0.1157173216 0.5772806406 4291078769
-0.2916071713 -0.1150956601 0.5773796439 4290947183
-0.2921008468 -0.1146479100 0.5783571005 4290486632
-0.2925944328 -0.1141979545 0.5793343782 4290354013
-0.2930878997 -0.1137457862 0.5803114772 4290288220
-0.2931371033 -0.1131200120 0.5804089308 4289893203
-0.2931860685 -0.1124939248 0.5805058479 4289366859
-0.2936790884 -0.1120370179 0.5814819932 4289432661
-0.2941719592 -0.1115778983 0.5824579000 4289959005
-0.2946647406 -0.1111165732 0.5834336281 4290552682
-0.2951574326 -0.1106530353 0.5844091177 4290947440
-0.2956499755 -0.1101872921 0.5853843689 4290947957
-0.2956977487 -0.1095545888 0.5854789615 4291145336
-0.2961900234 -0.1090853736 0.5864536166 4291079556
-0.2971269488 -0.1087767929 0.5883087516 4291276935
-0.2976190448 -0.1083022058 0.5892830491 4292731612
-0.3166142106 -0.1831800640 0.6282750368 4290363844
