VERSION 0.7
FIELDS x y z rgba
SIZE 4 4 4 4
TYPE F F F U
COUNT 1 1 1 1
WIDTH 920
HEIGHT 1
VIEWPOINT 0.0 0.0 0.0 1.0 0.0 0.0 0.0
POINTS 920
DATA ascii
-0.3096528351 -0.1747929454 0.6064417362 4280886564
-0.3088453412 -0.1736650914 0.6048603058 4281281322
-0.3080372214 -0.1725403965 0.6032776237 4280888369
-0.3067876697 -0.1711729169 0.6008303761 4281019955
-0.3055372536 -0.1698103994 0.5983815193 4280691245
-0.2995050550 -0.1651544124 0.5865677595 4280752384
-0.2911920846 -0.1599368006 0.5702871084 4282397205
-0.2965553403 -0.1622372717 0.5807908177 4285289995
-0.2891201079 -0.1575405300 0.5662292242 4287855922
-0.2878622711 -0.1562287509 0.5637658238 4290225726
-0.2883700132 -0.1558768302 0.5647602677 4291015242
-0.2871109247 -0.1545714885 0.5622943640 4290819645
-0.2867346406 -0.1537449807 0.5615574121 4290556473
-0.2863579094 -0.1529198736 0.5608196259 4289897252
-0.2855387628 -0.1518611014 0.5592153668 4289436701
-0.2851611078 -0.1510397345 0.5584757328 4289699621
-0.2847830355 -0.1502197981 0.5577352643 4288712726
-0.2852891386 -0.1498659849 0.5587264895 4289305117
-0.2844680250 -0.1488156468 0.5571183562 4288647187
-0.2849738002 -0.1484601349 0.5581088662 4288778254
-0.2841517329 -0.1474135667 0.5564988852 4289041426
-0.2850998640 -0.1472850591 0.5583558083 4288777742
-0.2851625681 -0.1466969401 0.5584785938 4288646156
-0.2852250338 -0.1461084336 0.5586009622 4288184075
-0.2848443091 -0.1452935785 0.5578552485 4287789317
-0.2853493094 -0.1449302733 0.5588443279 4287723273
-0.2854111195 -0.1443406045 0.5589653850 4288315410
-0.2854726911 -0.1437505633 0.5590859652 4287657479
-0.2855340540 -0.1431601346 0.5592061281 4288118030
-0.2855951786 -0.1425693333 0.5593258142 4287394560
-0.2856560647 -0.1419781595 0.5594450831 4287723521
-0.2852730751 -0.1411670446 0.5586950183 4287264000
-0.2857771814 -0.1407946497 0.5596823096 4286277120
-0.2858374119 -0.1402023435 0.5598002076 4286804480
-0.2850095034 -0.1391760856 0.5581788421 4287528201
-0.2859571278 -0.1390165985 0.5600347519 4286804740
-0.2860166728 -0.1384231746 0.5601513386 4286081024
-0.2860759795 -0.1378293782 0.5602674484 4286541581
-0.2856907248 -0.1370221078 0.5595129728 4287265304
-0.2861938775 -0.1366406679 0.5604983568 4286014990
-0.2862524688 -0.1360457689 0.5606130958 4284830720
-0.2863108516 -0.1354504973 0.5607274175 4286343186
-0.2863689959 -0.1348548681 0.5608413219 4287724839
-0.2868716419 -0.1344673634 0.5618257523 4287658786
-0.2869294286 -0.1338700801 0.5619388819 4285487617
-0.2869869471 -0.1332724392 0.5620515347 4284434432
-0.2865992188 -0.1324687451 0.5612921715 4285816081
-0.2866561711 -0.1318713129 0.5614037514 4288645401
-0.2871581316 -0.1314773709 0.5623868108 4291803465
-0.2867694199 -0.1306753904 0.5616255403 4291935044
-0.2868256867 -0.1300769001 0.5617357492 4292329802
-0.2868817151 -0.1294780672 0.5618454814 4291936318
-0.2869375050 -0.1288788766 0.5619547367 4292265283
-0.2869930565 -0.1282793283 0.5620635152 4292462650
-0.2874940932 -0.1278777122 0.5630447865 4292067892
-0.2871034443 -0.1270792037 0.5622797012 4291672372
-0.2876041830 -0.1266750246 0.5632603765 4290356512
-0.2885508239 -0.1264640987 0.5651143789 4287331107
-0.2890515029 -0.1260545552 0.5660949349 4283975680
-0.2899982631 -0.1258364022 0.5679491162 4281280284
-0.2904988825 -0.1254215091 0.5689295530 4281280284
-0.2901068032 -0.1246209592 0.5681616664 4281216306
-0.2914998829 -0.1245850921 0.5708899498 4281347892
-0.2928932607 -0.1245432720 0.5736187696 4281151027
-0.2933937013 -0.1241176575 0.5745989084 4281479992
-0.2943407595 -0.1238778085 0.5764536262 4281940289
-0.3240717351 -0.1911047399 0.6360640526 4291482075
-0.3237131238 -0.1901873499 0.6353601813 4289507513
-0.3229153156 -0.1890144199 0.6337943077 4290560201
-0.3221168220 -0.1878446043 0.6322271228 4291481044
-0.3195618391 -0.1856577694 0.6272124052 4290362563
-0.3165662885 -0.1832270771 0.6213329434 4288191392
-0.3131298125 -0.1805552095 0.6145880818 4286875532
-0.3096914291 -0.1778972149 0.6078394651 4286217602
-0.3075692356 -0.1760074496 0.6036741734 4284572777
-0.3058852553 -0.1743767262 0.6003690362 4282401094
-0.3046398163 -0.1730023921 0.5979245305 4281348406
-0.3047125936 -0.1723792404 0.5980674028 4281479982
-0.3052249849 -0.1720034778 0.5990730524 4281940533
-0.3039776981 -0.1706376970 0.5966249704 4281349684
-0.3040495813 -0.1700150073 0.5967660546 4281218098
-0.3032410145 -0.1689016074 0.5951790810 4281086261
-0.3019915819 -0.1675471216 0.5927267671 4281152054
-0.3003009856 -0.1659542918 0.5894085765 4281543465
-0.2977284789 -0.1638833880 0.5843594670 4281017121
-0.2920708060 -0.1601322144 0.5732550025 4281212430
-0.2894946635 -0.1580885053 0.5681988001 4281804567
-0.2869170904 -0.1560552418 0.5631397367 4283318549
-0.2865422666 -0.1552264988 0.5624039769 4284963374
-0.2857260704 -0.1541612595 0.5608020425 4287462455
-0.2853502929 -0.1533362269 0.5600644946 4288712522
-0.2849740684 -0.1525126249 0.5593261123 4290554689
-0.2845974565 -0.1516904384 0.5585868955 4291344205
-0.2838429511 -0.1500503123 0.5571060181 4291935564
-0.2839066088 -0.1494648308 0.5572309494 4292264519
-0.2830867767 -0.1484158933 0.5556218028 4292527691
-0.2835915089 -0.1480620801 0.5566124916 4291936057
-0.2836544216 -0.1474763453 0.5567359328 4292199229
-0.2832751572 -0.1466614157 0.5559915900 4292330551
-0.2842215598 -0.1465315968 0.5578491092 4292462137
-0.2842838764 -0.1459437758 0.5579714179 4292395826
-0.2843459845 -0.1453555822 0.5580933094 4292330033
-0.2839655280 -0.1445418447 0.5573465824 4292460857
-0.2849119008 -0.1444022506 0.5592040420 4292724029
-0.2845309377 -0.1435886621 0.5584563017 4292394565
-0.2846530974 -0.1424088180 0.5586960912 4292328519
-0.2847138643 -0.1418183297 0.5588153601 4292262726
-0.2847743630 -0.1412274688 0.5589341521 4291540283
-0.2843917012 -0.1404175013 0.5581830144 4291277111
-0.2848947346 -0.1400445998 0.5591703653 4291343928
-0.2849545777 -0.1394526064 0.5592877865 4291343928
-0.2836844325 -0.1382123679 0.5567948222 4291014965
-0.2850735784 -0.1382675022 0.5595213771 4290883379
-0.2851327360 -0.1376743913 0.5596374869 4290883642
-0.2851916552 -0.1370809227 0.5597531199 4290686263
-0.2852503359 -0.1364870816 0.5598683357 4290620472
-0.2857525051 -0.1361042112 0.5608539581 4290357300
-0.2858108282 -0.1355087161 0.5609683990 4290422323
-0.2863128185 -0.1351223439 0.5619536638 4290027565
-0.2868725657 -0.1341353208 0.5630522966 4289895722
-0.2869301140 -0.1335365176 0.5631652474 4290093863
-0.2874317169 -0.1331431419 0.5641497374 4291278137
-0.2861558795 -0.1319281310 0.5616456270 4291935556
-0.2862125635 -0.1313301027 0.5617568493 4292659279
-0.2862690091 -0.1307317317 0.5618676543 4292659026
-0.2863811851 -0.1295339316 0.5620878935 4291936093
-0.2864369452 -0.1289345026 0.5621972680 4290949198
-0.2869372964 -0.1285340041 0.5631793737 4289634116
-0.2874928117 -0.1275289506 0.5642696619 4285555726
-0.2879928946 -0.1271227449 0.5652511716 4283187200
-0.2884928882 -0.1267143339 0.5662325621 4281673985
-0.2885475457 -0.1261090934 0.5663398504 4280950272
-0.2886019647 -0.1255035102 0.5664466023 4280886304
-0.2891015708 -0.1250903308 0.5674272776 4282070578
-0.2901006043 -0.1242573261 0.5693880320 4283124817
-0.2914914191 -0.1242173836 0.5721178055 4283914079
-0.2928824723 -0.1241714731 0.5748480558 4284440423
-0.2960572243 -0.1248718426 0.5810793042 4285033332
-0.3015173972 -0.1258597821 0.5917960405 4285362043
-0.3060329854 -0.1270773113 0.6006589532 4282796116
-0.3155706525 -0.1289732158 0.6193788052 4292468970
-0.3221875131 -0.1904087067 0.6337473989 4291678682
-0.3218292594 -0.1894936264 0.6330426931 4290362563
-0.3205946386 -0.1880660206 0.6306141615 4288915117
-0.3189210594 -0.1863872707 0.6273221970 4290691526
-0.3150554299 -0.1834395379 0.6197184920 4291678421
-0.3103110790 -0.1799989641 0.6103862524 4291151562
-0.3055641353 -0.1765776575 0.6010490060 4289177772
-0.3030071557 -0.1744378209 0.5960193872 4286940810
-0.3013259172 -0.1728114039 0.5927123427 4286809224
-0.3005210161 -0.1716930121 0.5911291242 4285888122
-0.3005931377 -0.1710772663 0.5912709236 4283914332
-0.3006650209 -0.1704610735 0.5914123654 4282467654
-0.3011757135 -0.1700923890 0.5924168825 4282138689
-0.3016863763 -0.1697214693 0.5934213996 4282271304
-0.3017578125 -0.1691021472 0.5935618877 4282402890
-0.3013896346 -0.1682371497 0.5928376913 4282270534
-0.3005816042 -0.1671291888 0.5912482738 4281941569
-0.2993333936 -0.1657809615 0.5887929797 4282267967
-0.2989636064 -0.1649227887 0.5880656838 4282596932
-0.2933163643 -0.1611664444 0.5769574642 4282071105
-0.2903053761 -0.1588775516 0.5710347891 4281873726
-0.2881726623 -0.1570805609 0.5668396950 4281872683
-0.2869188190 -0.1557700485 0.5643733740 4281346339
-0.2861042917 -0.1547025740 0.5627712011 4282132234
-0.2852891684 -0.1536383182 0.5611678362 4282724371
-0.2844734192 -0.1525772959 0.5595632792 4283974410
-0.2840975225 -0.1517547816 0.5588238239 4285619235
-0.2841617465 -0.1511680633 0.5589501858 4286935320
-0.2842257619 -0.1505809426 0.5590761304 4288382766
-0.2834080458 -0.1495283246 0.5574676394 4289765165
-0.2834714055 -0.1489422470 0.5575922728 4290225716
-0.2822117209 -0.1476635933 0.5551144481 4291014460
-0.2822743356 -0.1470794529 0.5552376509 4291672390
-0.2827779055 -0.1467238367 0.5562281609 4291935814
-0.2828402221 -0.1461380124 0.5563507080 4292001607
-0.2833436430 -0.1457788646 0.5573409200 4292264511
-0.2834055722 -0.1451913565 0.5574627519 4292396097
-0.2834672928 -0.1446034610 0.5575841665 4292263228
-0.2839704454 -0.1442395151 0.5585738420 4292329021
-0.2841538787 -0.1424696296 0.5589346886 4292723528
-0.2842145562 -0.1418789178 0.5590540767 4292591942
-0.2838329375 -0.1410680860 0.5583033562 4292658499
-0.2843352854 -0.1406963468 0.5592914820 4292658499
-0.2839529812 -0.1398866028 0.5585395694 4292330813
-0.2840126753 -0.1392953098 0.5586569905 4292265020
-0.2845146358 -0.1389196813 0.5596442819 4292331074
-0.2836888134 -0.1378964633 0.5580199361 4292396867
-0.2841903865 -0.1375191808 0.5590065122 4292067904
-0.2846919298 -0.1371396780 0.5599930286 4292331076
-0.2847505808 -0.1365455985 0.5601084232 4292265533
-0.2848089635 -0.1359511614 0.5602232814 4292133947
-0.2853101790 -0.1355668604 0.5612091422 4292199478
-0.2853682041 -0.1349707693 0.5613233447 4291936306
-0.2858692408 -0.1345829666 0.5623088479 4292198449
-0.2859268785 -0.1339852214 0.5624222159 4292066863
-0.2864277065 -0.1335939169 0.5634073615 4291672907
-0.2864849865 -0.1329945326 0.5635200143 4291146563
-0.2865420282 -0.1323947757 0.5636322498 4290817600
-0.2861551940 -0.1315906495 0.5628713369 4289896498
-0.2862116694 -0.1309911013 0.5629824400 4288843820
-0.2862679362 -0.1303912103 0.5630930662 4287725339
-0.2863239348 -0.1297909766 0.5632032752 4285884190
-0.2863797247 -0.1291903704 0.5633129478 4284239365
-0.2868793607 -0.1287887990 0.5642957687 4282792468
-0.2864905596 -0.1279881299 0.5635309815 4282002952
-0.2869898975 -0.1275839955 0.5645132065 4282135591
-0.2874891460 -0.1271776259 0.5654951930 4282267177
-0.2884327471 -0.1269646883 0.5673513412 4282531137
-0.2884874344 -0.1263582706 0.5674588680 4283123274
-0.2885418832 -0.1257515103 0.5675659776 4283848540
-0.2894854546 -0.1255300641 0.5694219470 4283848540
-0.2886500657 -0.1245369688 0.5677787066 4284638056
-0.2937055826 -0.1247924790 0.5777230263 4285558904
-0.2959848940 -0.1251140684 0.5822064877 4285559422
-0.2982648015 -0.1254259348 0.5866910815 4285691008
-0.2987642586 -0.1249830201 0.5876735449 4285559423
-0.3028262854 -0.1260204762 0.5956635475 4283585633
-0.3046624064 -0.1261187494 0.5992752910 4287336347
-0.3082809150 -0.1269429177 0.6063929200 4291415513
-0.3119004071 -0.1277516931 0.6135125160 4292008419
-0.3202277422 -0.1903662533 0.6312716603 4293255396
-0.3198702335 -0.1894531101 0.6305668354 4290294711
-0.3195122480 -0.1885412782 0.6298611760 4289506987
-0.3174050450 -0.1866026223 0.6257072091 4289770159
-0.3139846027 -0.1839040369 0.6189644337 4288519078
-0.3088125885 -0.1801983416 0.6087687016 4290229696
-0.3040753007 -0.1767680198 0.5994299650 4291088339
-0.2997730374 -0.1736104190 0.5909488797 4290759374
-0.2972193658 -0.1714804918 0.5859147310 4289770929
-0.2964155376 -0.1703674942 0.5843301415 4287665553
-0.2960490286 -0.1695083976 0.5836076140 4286875017
-0.2965581715 -0.1691503823 0.5846112967 4285953915
-0.2970673144 -0.1687901169 0.5856149793 4284572777
-0.2980146706 -0.1686756611 0.5874825716 4283585882
-0.2985239029 -0.1683100313 0.5884863734 4283191124
-0.2994715571 -0.1681883931 0.5903545022 4282796366
-0.2991036773 -0.1673266739 0.5896293521 4282927438
-0.2987353802 -0.1664663404 0.5889033079 4282927438
-0.2970503569 -0.1648767442 0.5855815411 4282861645
-0.2940476239 -0.1625660360 0.5796622038 4282795852
-0.2932381332 -0.1614762396 0.5780664682 4282664012
-0.2902325988 -0.1591855139 0.5721415877 4282729805
-0.2876646221 -0.1571469605 0.5670792460 4283058770
-0.2859737575 -0.1555969119 0.5637460351 4282992977
-0.2851606607 -0.1545299143 0.5621431470 4282597962
-0.2843469083 -0.1534661502 0.5605390072 4282203204
-0.2839721441 -0.1526419073 0.5598002076 4282202422
-0.2835969329 -0.1518190801 0.5590605736 4281873457
-0.2836611271 -0.1512321383 0.5591871142 4281544747
-0.2837250829 -0.1506447941 0.5593131781 4281610540
-0.2824688554 -0.1493591219 0.5568367839 4282201899
-0.2820920050 -0.1485419869 0.5560938716 4282596657
-0.2825950980 -0.1481879354 0.5570855737 4283647021
-0.2826578617 -0.1476017535 0.5572093725 4284239158
-0.2827204168 -0.1470151842 0.5573326945 4285487663
-0.2827827632 -0.1464282274 0.5574555397 4286211386
-0.2832854390 -0.1460680366 0.5584464669 4287394608
-0.2833474278 -0.1454793960 0.5585687160 4288052538
-0.2834091783 -0.1448903680 0.5586904287 4288710443
-0.2836540043 -0.1425303966 0.5591730475 4289566493
-0.2837146223 -0.1419394463 0.5592926145 4289895458
-0.2842163742 -0.1415679604 0.5602816939 4290355493
-0.2838352323 -0.1407564282 0.5595303178 4290421286
-0.2830121517 -0.1397283822 0.5579077601 4290487332
-0.2843965292 -0.1397889704 0.5606368184 4290355746
-0.2831310332 -0.1385467947 0.5581421256 4290289953
-0.2836319208 -0.1381706595 0.5591295362 4290289953
-0.2841327488 -0.1377923191 0.5601168275 4289960483
-0.2841915786 -0.1371983886 0.5602327585 4289960483
-0.2842501402 -0.1366040856 0.5603482723 4289762093
-0.2847506702 -0.1362209320 0.5613349676 4289104163
-0.2848088741 -0.1356249750 0.5614497066 4288511019
-0.2848668694 -0.1350286454 0.5615640283 4288116261
-0.2849246264 -0.1344319582 0.5616778731 4287458345
-0.2854246497 -0.1340427250 0.5626636147 4286800415
-0.2854820192 -0.1334443837 0.5627766848 4284437317
-0.2855391800 -0.1328456849 0.5628893375 4283845180
-0.2860388756 -0.1324516535 0.5638743639 4283188279
-0.2856527567 -0.1316471994 0.5631132126 4282793521
-0.2857092023 -0.1310474277 0.5632244945 4282268207
-0.2857653797 -0.1304472983 0.5633352995 4282268207
-0.2862644792 -0.1300481409 0.5643191934 4282333750
-0.2863202989 -0.1294463724 0.5644292235 4282662715
-0.2868191898 -0.1290436983 0.5654126406 4282860102
-0.2868746221 -0.1284403056 0.5655218959 4283320653
-0.2873732746 -0.1280341446 0.5665049553 4283782234
-0.2874283195 -0.1274291128 0.5666134357 4284374371
-0.2883704007 -0.1272151619 0.5684705973 4284375398
-0.2884251177 -0.1266075820 0.5685784817 4284638570
-0.2889234126 -0.1261934936 0.5695607662 4285033840
-0.2889777422 -0.1255842745 0.5696678758 4284968047
-0.2899197638 -0.1253586560 0.5715249181 4285098604
-0.2899737656 -0.1247468889 0.5716313720 4285559155
-0.2909158170 -0.1245149672 0.5734884739 4285033330
-0.2954660356 -0.1251682043 0.5824583769 4284769909
-0.2968532145 -0.1251056492 0.5851929188 4285362046
-0.2995740175 -0.1255961657 0.5905565023 4284835959
-0.3036292195 -0.1266312599 0.5985506177 4285099131
-0.3059070408 -0.1269112378 0.6030409932 4290231239
-0.3077407181 -0.1269979328 0.6066557169 4291547099
-0.3082404137 -0.1265290082 0.6076407433 4292271591
-0.3187878728 -0.1899261326 0.6298121810 4291413446
-0.3179946244 -0.1887555122 0.6282449961 4287729038
-0.3172007203 -0.1875879914 0.6266764998 4286348150
-0.3146604598 -0.1853950024 0.6216578484 4288979870
-0.3094995022 -0.1816748381 0.6114616394 4290031793
-0.3021525443 -0.1766989678 0.5969466567 4288518554
-0.2969854772 -0.1730253398 0.5867383480 4288917162
-0.2944367230 -0.1708941013 0.5817028880 4290693573
-0.2931973338 -0.1695311517 0.5792542696 4291153360
-0.2923941314 -0.1684249192 0.5776674747 4290100672
-0.2924646437 -0.1678235531 0.5778067708 4288125084
-0.2929722369 -0.1674717069 0.5788095593 4287401361
-0.2939171493 -0.1673666835 0.5806764364 4286678153
-0.2944248021 -0.1670094728 0.5816793442 4285822844
-0.2958076298 -0.1671445370 0.5844112635 4284178019
-0.2967531383 -0.1670273989 0.5862793326 4283059538
-0.2972610593 -0.1666607708 0.5872827768 4283190610
-0.2977689505 -0.1662918925 0.5882862210 4283190610
-0.2969628274 -0.1651898474 0.5866935849 4283124304
-0.2957179844 -0.1638482511 0.5842342377 4283387476
-0.2896520793 -0.1598515064 0.5722501278 4283321942
-0.2853362858 -0.1568434089 0.5637236238 4283124563
-0.2871559560 -0.1572133005 0.5673186183 4283058770
-0.2845911086 -0.1551843882 0.5622514486 4283058770
-0.2837792933 -0.1541187912 0.5606476068 4283190097
-0.2829668522 -0.1530564278 0.5590424538 4283321683
-0.2830314040 -0.1524700671 0.5591700077 4283322712
-0.2830957472 -0.1518833041 0.5592971444 4283191126
-0.2831598520 -0.1512961388 0.5594238043 4283190356
-0.2823455334 -0.1502412707 0.5578149557 4283256149
-0.2819698155 -0.1494223922 0.5570726991 4283387476
-0.2820329666 -0.1488367766 0.5571974516 4283124304
-0.2820959091 -0.1482507735 0.5573217869 4283188808
-0.2825981379 -0.1478943676 0.5583140254 4283188808
-0.2826607227 -0.1473066658 0.5584377050 4282990136
-0.2836545110 -0.1422207654 0.5604010820 4283714320
-0.2833944559 -0.1402241439 0.5598872900 4283845646
-0.2830133140 -0.1394143105 0.5591342449 4283845646
-0.2830726504 -0.1388221830 0.5592515469 4283845647
-0.2836318016 -0.1378512084 0.5603561997 4283845397
-0.2836905718 -0.1372570395 0.5604722500 4283911190
-0.2837491035 -0.1366624981 0.5605879426 4283779100
-0.2842487693 -0.1362792104 0.5615751147 4283515928
-0.2843069434 -0.1356830299 0.5616900325 4283581220
-0.2843648791 -0.1350864619 0.5618044734 4283778599
-0.2848642170 -0.1346983761 0.5627909899 4283844143
-0.2853635252 -0.1343080699 0.5637774467 4283712557
-0.2854209244 -0.1337085664 0.5638908744 4283845966
-0.2854781151 -0.1331087053 0.5640038252 4284109138
-0.2850930393 -0.1323033720 0.5632430911 4284176214
-0.2851496637 -0.1317037195 0.5633549690 4284176214
-0.2856482267 -0.1313069612 0.5643399358 4284110939
-0.2857044637 -0.1307056695 0.5644510388 4284242525
-0.2862028182 -0.1303054243 0.5654356480 4284176734
-0.2867011130 -0.1299029589 0.5664200783 4284045148
-0.2867568135 -0.1292987466 0.5665301085 4283848029
-0.2872548997 -0.1288927794 0.5675141215 4283913822
-0.2873101830 -0.1282869130 0.5676233768 4283914597
-0.2878080606 -0.1278774440 0.5686069727 4283585632
-0.2878629565 -0.1272699684 0.5687154531 4283783271
-0.2883605957 -0.1268569976 0.5696985722 4284178029
-0.2888581157 -0.1264418215 0.5706815720 4283981422
-0.2889124751 -0.1258314252 0.5707889795 4284310387
-0.2889665961 -0.1252206862 0.5708958507 4283980393
-0.2903503180 -0.1251829565 0.5736296177 4284177772
-0.2912909091 -0.1249490902 0.5754879117 4283914600
-0.2926750481 -0.1249003634 0.5782224536 4284967288
-0.2931723595 -0.1244690567 0.5792049766 4285098620
-0.2967748642 -0.1253470927 0.5863222480 4284967034
-0.3003784120 -0.1262097359 0.5934416056 4284178029
-0.2999890447 -0.1253876388 0.5926723480 4288257195
-0.3053693473 -0.1269661486 0.6033018827 4291415259
-0.3080877066 -0.1274201125 0.6086723804 4291349466
-0.3112507463 -0.1280450672 0.6149214506 4292271336
-0.3172712922 -0.1901362389 0.6281943321 4292206571
-0.3169150651 -0.1892255843 0.6274890304 4290556582
-0.3161229789 -0.1880571842 0.6259207129 4287661690
-0.3148946762 -0.1866337508 0.6234887242 4286608989
-0.3114872873 -0.1839289963 0.6167420745 4285622094
-0.3050276637 -0.1794436276 0.6039520502 4287660661
-0.2972570062 -0.1742183268 0.5885662436 4289371279
-0.2934060097 -0.1713158339 0.5809413195 4288191117
-0.2917332351 -0.1696973443 0.5776292086 4288322703
-0.2909317613 -0.1685911119 0.5760422945 4290560453
-0.2901296318 -0.1674880385 0.5744541287 4291284176
-0.2906360626 -0.1671410054 0.5754568577 4291085769
-0.2911424637 -0.1667917520 0.5764595270 4289111979
-0.2920854688 -0.1666894257 0.5783266425 4287336083
-0.2925919592 -0.1663347930 0.5793294907 4287072911
-0.2939720750 -0.1664726436 0.5820621252 4286611846
-0.2949156463 -0.1663582027 0.5839303732 4284835435
-0.2958594263 -0.1662397087 0.5857990980 4283387989
-0.2963662744 -0.1658725291 0.5868026614 4283059024
-0.2959986627 -0.1650156081 0.5860747695 4283519062
-0.2943186760 -0.1634315550 0.5827483535 4283782234
-0.2922001779 -0.1616123766 0.5785537958 4283716700
-0.2883303463 -0.1588377208 0.5708915591 4283585114
-0.2857713699 -0.1567993313 0.5658248067 4283584857
-0.2845241427 -0.1554890573 0.5633552670 4283387478
-0.2837139070 -0.1544221342 0.5617510080 4283255892
-0.2833409905 -0.1535958350 0.5610126853 4283387478
-0.2825296223 -0.1525344551 0.5594061613 4283388505
-0.2821557522 -0.1517118961 0.5586659312 4283454298
-0.2822197080 -0.1511254311 0.5587925911 4283388507
-0.2827217877 -0.1507723182 0.5597866774 4283585886
-0.2819085419 -0.1497184485 0.5581764579 4283914597
-0.2815332413 -0.1488997787 0.5574333072 4283914597
-0.2815960944 -0.1483135521 0.5575578213 4283979621
-0.2816587687 -0.1477269232 0.5576819181 4283979621
-0.2821600437 -0.1473691016 0.5586743951 4284110949
-0.2822223604 -0.1467807889 0.5587977767 4284045156
-0.2822844386 -0.1461920887 0.5589207411 4284110947
-0.2823463082 -0.1456029862 0.5590432286 4284045154
-0.2827731669 -0.1414685696 0.5598883629 4284176994
-0.2828930914 -0.1402838975 0.5601258278 4284045408
-0.2829526961 -0.1396909803 0.5602438450 4284111201
-0.2825719714 -0.1388813853 0.5594899654 4284177253
-0.2826310396 -0.1382886469 0.5596069694 4284308839
-0.2831301987 -0.1379100382 0.5605953336 4284572013
-0.2831889093 -0.1373156309 0.5607115626 4284703599
-0.2832473814 -0.1367208809 0.5608273745 4284637040
-0.2837462425 -0.1363374442 0.5618150830 4284308075
-0.2838043571 -0.1357410252 0.5619301200 4284242284
-0.2838622332 -0.1351442337 0.5620447397 4284308077
-0.2843607366 -0.1347559988 0.5630317926 4284308336
-0.2844182551 -0.1341575533 0.5631456375 4284308336
-0.2849165797 -0.1337658167 0.5641322732 4283979361
-0.2849736810 -0.1331657171 0.5642454028 4283913568
-0.2850305736 -0.1325652599 0.5643580556 4283979363
-0.2850872576 -0.1319644451 0.5644702315 4284176742
-0.2851436734 -0.1313632727 0.5645819306 4284243048
-0.2851998508 -0.1307617426 0.5646932125 4284111462
-0.2865805328 -0.1307643205 0.5674269199 4284111462
-0.2866365016 -0.1301592886 0.5675377250 4284374634
-0.2866922319 -0.1295538992 0.5676481128 4283717218
-0.2867477238 -0.1289481521 0.5677579641 4283717218
-0.2872448862 -0.1285398155 0.5687423944 4283454306
-0.2872999907 -0.1279324442 0.5688514709 4283717478
-0.2877969444 -0.1275205910 0.5698354244 4285691787
-0.2882938087 -0.1271065325 0.5708192587 4287797163
-0.2887906134 -0.1266902536 0.5718029141 4288322741
-0.2888450027 -0.1260786951 0.5719105601 4288520120
-0.2897839844 -0.1258510500 0.5737697482 4288519607
-0.2902805805 -0.1254281104 0.5747529864 4288256435
-0.2912196517 -0.1251932234 0.5766123533 4287401124
-0.2926014662 -0.1251435578 0.5793483257 4285361541
-0.2939835191 -0.1250879169 0.5820847750 4284046447
-0.2944801748 -0.1246514097 0.5830681324 4283980654
-0.2989628911 -0.1258912235 0.5919439197 4285954442
-0.3021180034 -0.1265551895 0.5981910229 4290954710
-0.3017294407 -0.1257286519 0.5974216461 4291942373
-0.3071013987 -0.1272915006 0.6080580354 4290692306
-0.3098156154 -0.1277349591 0.6134322286 4292468717
-0.3158364892 -0.1896935403 0.6267317533 4291613910
-0.3154807687 -0.1887843311 0.6260258555 4291016044
-0.3142552972 -0.1873581409 0.6235940456 4290160735
-0.3125941455 -0.1856785864 0.6202977896 4289305654
-0.3078878522 -0.1822042614 0.6109588146 4287068692
-0.3001341224 -0.1769539714 0.5955726504 4285817116
-0.2936815619 -0.1725021601 0.5827684999 4287461941
-0.2894015610 -0.1693501174 0.5742754340 4288516457
-0.2912133634 -0.1697682738 0.5778706670 4289042801
-0.2886717618 -0.1676501483 0.5728272200 4288387733
-0.2883062065 -0.1668022126 0.5721018910 4290032558
-0.2888114750 -0.1664577723 0.5731045008 4291020491
-0.2893167138 -0.1661110967 0.5741071105 4291152077
-0.2902577817 -0.1660114676 0.5759744644 4290099389
-0.2911990583 -0.1659077853 0.5778422952 4288454564
-0.2921405137 -0.1658000797 0.5797104836 4287401876
-0.2930821776 -0.1656883210 0.5815790892 4287336083
-0.2940240204 -0.1655725390 0.5834480524 4286546053
-0.2949660420 -0.1654526889 0.5853173733 4285032814
-0.2945989668 -0.1645972580 0.5845889449 4284440677
-0.2933583260 -0.1632573158 0.5821270943 4284309091
-0.2912435830 -0.1614383012 0.5779306889 4284177251
-0.2869438529 -0.1584222913 0.5693984628 4284243044
-0.2848260999 -0.1566251069 0.5651960969 4284243044
-0.2827071548 -0.1548365951 0.5609913468 4283979872
-0.2836463153 -0.1547256112 0.5628550053 4283979872
-0.2823999226 -0.1534230858 0.5603817105 4284243044
-0.2820271850 -0.1525987834 0.5596420765 4284242784
-0.2816540599 -0.1517759115 0.5589016676 4284308577
-0.2817179561 -0.1511892229 0.5590284467 4284176992
-0.2817816436 -0.1506021321 0.5591548085 4284176992
-0.2814074457 -0.1497817189 0.5584123135 4284374373
-0.2814705968 -0.1491947472 0.5585376024 4284440166
-0.2810956836 -0.1483762711 0.5577936172 4284308328
-0.2811582685 -0.1477894187 0.5579178333 4284308328
-0.2812206447 -0.1472021937 0.5580416322 4284243048
-0.2817209661 -0.1468429416 0.5590344071 4284243048
-0.2817829847 -0.1462540179 0.5591574907 4284177769
-0.2818447948 -0.1456646919 0.5592801571 4284243562
-0.2822110057 -0.1421207190 0.5600068569 4284178019
-0.2822712660 -0.1415287107 0.5601263642 4284178019
-0.2823312879 -0.1409363300 0.5602454543 4284243812
-0.2823910713 -0.1403435767 0.5603641272 4284243812
-0.2824506462 -0.1397504508 0.5604823232 4284309605
-0.2820706069 -0.1389405131 0.5597282648 4284572779
-0.2821296453 -0.1383475661 0.5598453283 4284770158
-0.2826279700 -0.1379688084 0.5608342290 4284441195
-0.2826866210 -0.1373741776 0.5609506369 4284638574
-0.2827450633 -0.1367791891 0.5610665679 4284704367
-0.2832430601 -0.1363956183 0.5620548129 4284638574
-0.2833011150 -0.1357989758 0.5621700287 4284506984
-0.2833589315 -0.1352019459 0.5622847676 4284506984
-0.2834165394 -0.1346045583 0.5623990297 4284441703
-0.2839140892 -0.1342148930 0.5633863211 4284441703
-0.2844115496 -0.1338230222 0.5643734932 4284901746
-0.2844686210 -0.1332226843 0.5644867420 4285033332
-0.2845254838 -0.1326219887 0.5645995736 4284900976
-0.2850226164 -0.1322253048 0.5655860305 4284835183
-0.2855196893 -0.1318264008 0.5665724277 4284966771
-0.2851352990 -0.1310202777 0.5658096671 4285164150
-0.2856320739 -0.1306187958 0.5667954087 4285361527
-0.2861287892 -0.1302150935 0.5677810907 4285295734
-0.2861844599 -0.1296094656 0.5678915977 4285164918
-0.2862398922 -0.1290034801 0.5680016279 4284967539
-0.2862951159 -0.1283971518 0.5681111217 4284770419
-0.2867912948 -0.1279873848 0.5690957308 4287665311
-0.2864048183 -0.1271834373 0.5683287978 4291678431
-0.2873420715 -0.1269661337 0.5701887012 4293586428
-0.2873964906 -0.1263565421 0.5702966452 4294112255
-0.2878922224 -0.1259397566 0.5712803602 4293980671
-0.2883878648 -0.1255207509 0.5722638965 4293915135
-0.2906503081 -0.1258646697 0.5767533779 4293717759
-0.2907043397 -0.1252471209 0.5768606067 4292994040
-0.2920837402 -0.1251974553 0.5795978308 4289704390
-0.2939053774 -0.1253302842 0.5832126141 4286086030
-0.2957274020 -0.1254552454 0.5868281722 4285691272
-0.2953391969 -0.1246394068 0.5860578418 4289441471
-0.3002570570 -0.1260528415 0.5958165526 4291612640
-0.3038495481 -0.1268911213 0.6029453278 4291087064
-0.3087701499 -0.1282652467 0.6127095819 4290363341
-0.3101526797 -0.1281557530 0.6154530048 4292666094
-0.3139704466 -0.1889893115 0.6244050264 4291021273
-0.3136150837 -0.1880824417 0.6236982942 4291145310
-0.3128254116 -0.1869176328 0.6221278310 4291408482
-0.3102991581 -0.1847224981 0.6171037555 4291211572
-0.3047327101 -0.1807354242 0.6060335636 4289829919
-0.2965580821 -0.1752317995 0.5897763371 4287855123
-0.2914192975 -0.1715514362 0.5795566440 4286868228
-0.2893186212 -0.1696755439 0.5753789544 4285948695
-0.2876511812 -0.1680620462 0.5720629096 4288843587
-0.2872865796 -0.1672142148 0.5713377595 4290097049
-0.2869215310 -0.1663677543 0.5706117749 4289044361
-0.2874257267 -0.1660250127 0.5716145039 4289310388
-0.2879299223 -0.1656800210 0.5726172328 4291218385
-0.2888691723 -0.1655821800 0.5744851232 4291613141
-0.2893734574 -0.1652318388 0.5754880309 4290363074
-0.2916187346 -0.1658695191 0.5799533129 4288849324
-0.2903819978 -0.1645244360 0.5774937272 4288059808
-0.2926280797 -0.1651504189 0.5819606185 4286941327
-0.2931327224 -0.1647875160 0.5829642415 4285954432
-0.2936373651 -0.1644223779 0.5839678049 4285954432
-0.2919631302 -0.1628397554 0.5806382298 4284572779
-0.2894161344 -0.1607796997 0.5755729079 4283520091
-0.2864317298 -0.1584888548 0.5696377158 4283322712
-0.2843178511 -0.1566909552 0.5654337406 4283453530
-0.2817665339 -0.1546623111 0.5603598952 4283256151
-0.2831402719 -0.1547907144 0.5630918145 4283059542
-0.2814597785 -0.1532500684 0.5597497821 4283125335
-0.2810876667 -0.1524263769 0.5590097904 4283387478
-0.2811517119 -0.1518398672 0.5591371655 4283519064
-0.2812155783 -0.1512529552 0.5592641234 4283386967
-0.2812791765 -0.1506656557 0.5593906641 4283189588
-0.2804688513 -0.1496118754 0.5577790737 4283320920
-0.2805318236 -0.1490256041 0.5579043627 4283452506
-0.2805945873 -0.1484389305 0.5580291748 4283387227
-0.2806571424 -0.1478518695 0.5581535697 4283518813
-0.2811567187 -0.1474937946 0.5591471195 4283453277
-0.2808434665 -0.1460883319 0.5585240722 4283519325
-0.2818884254 -0.1404032111 0.5606022477 4285098096
-0.2815094292 -0.1395924091 0.5598485470 4285163889
-0.2815686166 -0.1389996111 0.5599662662 4285295221
-0.2820662558 -0.1386220008 0.5609559417 4285492600
-0.2821250856 -0.1380275339 0.5610729456 4285295734
-0.2821837068 -0.1374326795 0.5611894727 4285295734
-0.2822420597 -0.1368374527 0.5613055825 4285361529
-0.2827392519 -0.1364537477 0.5622943044 4285361529
-0.2823581100 -0.1356459111 0.5615363717 4285361527
-0.2828550041 -0.1352596134 0.5625245571 4285427320
-0.2829125524 -0.1346619874 0.5626389980 4285493111
-0.2834092677 -0.1342721879 0.5636268258 4285427318
-0.2834664285 -0.1336729079 0.5637404919 4284902257
-0.2839629352 -0.1332795918 0.5647279024 4284902257
-0.2844593823 -0.1328840554 0.5657151937 4284770156
-0.2849557698 -0.1324862987 0.5667023659 4284704363
-0.2845724225 -0.1316792667 0.5659400225 4284900974
-0.2846285999 -0.1310763359 0.5660517216 4285098353
-0.2851245403 -0.1306747049 0.5670379996 4285164918
-0.2856204212 -0.1302708536 0.5680242181 4284967539
-0.2856760323 -0.1296649873 0.5681348443 4284769906
-0.2857314348 -0.1290587634 0.5682449937 4284506734
-0.2857865989 -0.1284521967 0.5683546662 4284769906
-0.2858414948 -0.1278452724 0.5684639215 4288125349
-0.2858961821 -0.1272380054 0.5685726404 4292073183
-0.2863912284 -0.1268255115 0.5695571303 4293915387
-0.2868861854 -0.1264107823 0.5705415010 4294769919
-0.2873810828 -0.1259938478 0.5715257525 4294835711
-0.2874350548 -0.1253823787 0.5716330409 4294441983
-0.2888115644 -0.1253446639 0.5743706226 4294113023
-0.2888652980 -0.1247297004 0.5744774342 4293454842
-0.2902420759 -0.1246828511 0.5772154927 4292007396
-0.2929426432 -0.1251956671 0.5825861692 4288520371
-0.2952026427 -0.1255092472 0.5870807767 4288915129
-0.2974632084 -0.1258130819 0.5915764570 4291678950
-0.3023728728 -0.1272214949 0.6013404727 4291415778
-0.3015445173 -0.1262066662 0.5996930599 4290231757
-0.3051313758 -0.1270336658 0.6068264246 4290626515
-0.3073942661 -0.1272965372 0.6113266945 4292929266
-0.3121083677 -0.1882843524 0.6220758557 4290824405
-0.3117533922 -0.1873798221 0.6213683486 4290816078
-0.3109648824 -0.1862172484 0.6197967529 4291013457
-0.3080096543 -0.1837654561 0.6139065623 4291474474
-0.3015862107 -0.1792652160 0.6011037827 4290948130
-0.2938590944 -0.1740213931 0.5857024789 4290159385
-0.2900296152 -0.1711113304 0.5780698061 4289106697
-0.2879325747 -0.1692364812 0.5738900900 4287131905
-0.2867017090 -0.1678781211 0.5714368224 4287460870
-0.2863377035 -0.1670308709 0.5707113147 4290227847
-0.2859732807 -0.1661849916 0.5699849725 4290622605
-0.2864765227 -0.1658430398 0.5709879994 4288192421
-0.2874139249 -0.1657492220 0.5728563666 4290560969
-0.2870487571 -0.1649029553 0.5721285343 4291481557
-0.2884206176 -0.1650523394 0.5748628378 4291415764
-0.2893584073 -0.1649482101 0.5767319798 4290955213
-0.2898618281 -0.1645932794 0.5777353644 4290297283
-0.2907999158 -0.1644819826 0.5796051025 4288915376
-0.2913033962 -0.1641216725 0.5806086659 4288520618
-0.2918068767 -0.1637591124 0.5816121697 4287994274
-0.2905704081 -0.1624217331 0.5791476965 4287073172
-0.2880278230 -0.1603626609 0.5740799308 4286678157
-0.2854838073 -0.1583140343 0.5690093637 4286875536
-0.2838089466 -0.1567567438 0.5656711459 4286941329
-0.2825684249 -0.1554458141 0.5631986260 4286941329
-0.2817625999 -0.1543785483 0.5615924597 4287336087
-0.2809561491 -0.1533145010 0.5599851012 4287796638
-0.2805847526 -0.1524904817 0.5592448711 4288322978
-0.2806487679 -0.1519037634 0.5593724251 4288717736
-0.2802766562 -0.1510816664 0.5586307645 4288848554
-0.2803401053 -0.1504950523 0.5587572455 4288848554
-0.2804033458 -0.1499080509 0.5588833094 4289111730
-0.2800301909 -0.1490884125 0.5581395626 4289243316
-0.2800928950 -0.1485015303 0.5582644939 4289374647
-0.2797189951 -0.1476838589 0.5575193167 4289572026
-0.2802176476 -0.1473265737 0.5585131645 4289572796
-0.2802796960 -0.1467385143 0.5586368442 4289572796
-0.2803415060 -0.1461500525 0.5587600470 4289572795
-0.2804031074 -0.1455612183 0.5588828325 4289638588
-0.2804645002 -0.1449719816 0.5590052009 4289836221
-0.2809626162 -0.1446072608 0.5599979758 4289967807
-0.2810236514 -0.1440163404 0.5601196289 4290099391
-0.2811450362 -0.1428333521 0.5603615642 4290427588
-0.2812053859 -0.1422412694 0.5604819059 4290427588
-0.2808280885 -0.1414285302 0.5597298741 4290296770
-0.2813254297 -0.1410559863 0.5607211590 4290296770
-0.2813851237 -0.1404627860 0.5608401299 4290230975
-0.2814445794 -0.1398691982 0.5609586239 4290296768
-0.2810660005 -0.1390586346 0.5602040887 4290559426
-0.2811249197 -0.1384652257 0.5603215098 4290691012
-0.2816215754 -0.1380861998 0.5613114238 4290625735
-0.2816801071 -0.1374911070 0.5614280701 4290428356
-0.2817384303 -0.1368956566 0.5615442991 4290296772
-0.2817965150 -0.1362998486 0.5616601110 4290165186
-0.2818543911 -0.1357036531 0.5617754459 4290033600
-0.2823504508 -0.1353172213 0.5627641678 4290033600
-0.2828464508 -0.1349285692 0.5637527704 4289901760
-0.2833423913 -0.1345376819 0.5647412539 4289704381
-0.2833996117 -0.1339372545 0.5648552775 4289508283
-0.2838953733 -0.1335428506 0.5658434033 4289310904
-0.2839521766 -0.1329407692 0.5659566522 4289376181
-0.2840651274 -0.1317355037 0.5661817193 4289046705
-0.2845603824 -0.1313350201 0.5671688318 4288520361
-0.2846163511 -0.1307305545 0.5672804117 4288125862
-0.2846720815 -0.1301257461 0.5673915148 4287994276
-0.2847275734 -0.1295205802 0.5675020814 4287730851
-0.2847828269 -0.1289150566 0.5676122308 4287270300
-0.2857169807 -0.1287052035 0.5694741011 4287335836
-0.2857719362 -0.1280971020 0.5695836544 4287730594
-0.2858266532 -0.1274886578 0.5696926713 4289046451
-0.2863209248 -0.1270750612 0.5706778765 4290493897
-0.2872550488 -0.1268535107 0.5725396872 4291086286
-0.2864293158 -0.1258545667 0.5708939433 4291546837
-0.2869232297 -0.1254361868 0.5718783140 4290955213
-0.2882973552 -0.1253984720 0.5746171474 4290823627
-0.2896717191 -0.1253547817 0.5773564577 4290494411
-0.2910463214 -0.1253051162 0.5800962448 4290165446
-0.2906596065 -0.1244949475 0.5793254972 4289967817
-0.2959986329 -0.1261262596 0.5899668932 4291152091
-0.2964932621 -0.1256804317 0.5909527540 4292073710
-0.2987503409 -0.1259755939 0.5954514146 4291152608
-0.3036522269 -0.1273701489 0.6052215695 4290428882
-0.3050292730 -0.1272722781 0.6079662442 4291284191
-0.3059656322 -0.1269854009 0.6098325253 4292929779
-0.3106823564 -0.1878399104 0.6206074953 4290692827
-0.3103278577 -0.1869368404 0.6198993921 4290617941
-0.3095406294 -0.1857756078 0.6183267832 4290552148
-0.3061581552 -0.1830660701 0.6115701199 4290750769
-0.2997460067 -0.1785666794 0.5987614393 4290421804
-0.2924651504 -0.1735801697 0.5842174888 4290553893
-0.2890751660 -0.1709266156 0.5774458051 4289830170
-0.2874146998 -0.1693068892 0.5741288662 4289893912
-0.2857531607 -0.1676939279 0.5708098412 4288709638
-0.2853897512 -0.1668472588 0.5700839162 4288056141
-0.2854591012 -0.1662542373 0.5702224374 4290951033
-0.2855282128 -0.1656607836 0.5703605413 4288126628
-0.2864639163 -0.1655678749 0.5722296238 4289771453
-0.2860993147 -0.1647221744 0.5715013146 4290955213
-0.2874686718 -0.1648725718 0.5742366910 4291613143
-0.2879710495 -0.1645215601 0.5752402544 4291284178
-0.2884734273 -0.1641683280 0.5762437582 4291152592
-0.2894096673 -0.1640588045 0.5781139731 4290691787
-0.2894781232 -0.1634551287 0.5782506466 4290691787
-0.2899804413 -0.1630951762 0.5792540908 4290757580
-0.2887459397 -0.1617599875 0.5767880678 4290428615
-0.2866419852 -0.1599451452 0.5725852847 4290559944
-0.2845367789 -0.1581389457 0.5683800578 4290757323
-0.2828648686 -0.1565819383 0.5650402904 4290757323
-0.2811919451 -0.1550317854 0.5616985559 4290757323
-0.2821262479 -0.1549207419 0.5635648370 4290823116
-0.2808866799 -0.1536166668 0.5610887408 4290888909
-0.2805161178 -0.1527914107 0.5603485107 4291020491
-0.2805801630 -0.1522035599 0.5604764223 4291217870
-0.2806439698 -0.1516153067 0.5606039166 4291020491
-0.2802723646 -0.1507925093 0.5598616004 4290691526
-0.2799003422 -0.1499711275 0.5591184497 4290691526
-0.2795279026 -0.1491511762 0.5583745241 4290691526
-0.2795905471 -0.1485640705 0.5584996343 4290692041
-0.2792173624 -0.1477460861 0.5577542186 4290955213
-0.2792794704 -0.1471590996 0.5578782558 4291021006
-0.2793413699 -0.1465717405 0.5580018759 4291086799
-0.2794030309 -0.1459839791 0.5581250787 4291086799
-0.2794644833 -0.1453958303 0.5582478642 4291086799
-0.2799617946 -0.1450332105 0.5592412353 4291086545
-0.2800228894 -0.1444433630 0.5593633056 4291152338
-0.2805200517 -0.1440772116 0.5603563786 4291021522
-0.2810171545 -0.1437088251 0.5613493919 4290955729
-0.2806413174 -0.1428937614 0.5605986118 4291218385
-0.2802650630 -0.1420801580 0.5598470569 4291152592
-0.2803250551 -0.1414884031 0.5599668622 4291021004
-0.2808215618 -0.1411157399 0.5609586239 4290955211
-0.2804443538 -0.1403037608 0.5602051616 4290889418
-0.2805036604 -0.1397108734 0.5603236556 4291021004
-0.2805627286 -0.1391176134 0.5604416728 4291284176
-0.2810586989 -0.1387397349 0.5614323616 4291349969
-0.2811174095 -0.1381448060 0.5615496635 4291415249
-0.2816132009 -0.1377634108 0.5625399947 4291415249
-0.2816715539 -0.1371668130 0.5626565814 4291349969
-0.2817296684 -0.1365698278 0.5627726912 4291284176
-0.2817875743 -0.1359724849 0.5628883243 4291349971
-0.2818452120 -0.1353747696 0.5630034804 4291415764
-0.2823404074 -0.1349859685 0.5639926195 4291415253
-0.2823976874 -0.1343865991 0.5641070604 4291283667
-0.2828926444 -0.1339942813 0.5650957823 4291218903
-0.2829495668 -0.1333932579 0.5652095079 4291350489
-0.2834443450 -0.1329974234 0.5661978126 4291481305
-0.2835008800 -0.1323947459 0.5663107634 4291218133
-0.2835571766 -0.1317916960 0.5664232373 4291152340
-0.2836132348 -0.1311882883 0.5665352345 4291349719
-0.2841075063 -0.1307863593 0.5675225258 4291349720
-0.2841631770 -0.1301813126 0.5676338077 4291218134
-0.2842186391 -0.1295759082 0.5677445531 4291283927
-0.2842738330 -0.1289701462 0.5678548217 4290889169
-0.2843288183 -0.1283640414 0.5679646134 4290954451
-0.2848224044 -0.1279547364 0.5689505935 4290559693
-0.2857548892 -0.1277394295 0.5708132982 4290362314
-0.2853703499 -0.1269341707 0.5700451732 4290625486
-0.2867418826 -0.1269078255 0.5727848411 4290625997
-0.2867960632 -0.1262952834 0.5728930831 4291020755
-0.2877824306 -0.1254522204 0.5748634934 4290823376
-0.2887149453 -0.1252179444 0.5767261982 4291415259
-0.2900870740 -0.1251692176 0.5794671178 4291481052
-0.2918990552 -0.1253032088 0.5830866694 4292533742
-0.2932717502 -0.1252415627 0.5858286619 4292138984
-0.2972832620 -0.1262948811 0.5938419700 4291349984
-0.2995365858 -0.1265873611 0.5983431339 4290757847
-0.3017904460 -0.1268700659 0.6028453708 4291087323
-0.3053648770 -0.1276949942 0.6099854708 4291613667
-0.3062997758 -0.1274061352 0.6118530035 4292929779
-0.3092587590 -0.1873949617 0.6191374063 4290561233
-0.3089047670 -0.1864933372 0.6184287071 4290420799
-0.3081187904 -0.1853334606 0.6168552041 4290420799
-0.3043106496 -0.1823659539 0.6092312336 4290487330
-0.2910017669 -0.1737429649 0.5825867653 4290289951
-0.2975516021 -0.1769916862 0.5956996083 4290224158
-0.2881216407 -0.1707416177 0.5768207908 4290158365
-0.2864641249 -0.1691221595 0.5735024214 4290616343
-0.2852376997 -0.1677636355 0.5710471272 4290418964
-0.2844427228 -0.1666633636 0.5694555640 4288646977
-0.2845118940 -0.1660710275 0.5695940852 4290949732
-0.2845808566 -0.1654782742 0.5697321296 4289705660
-0.2850821912 -0.1651356667 0.5707358122 4290297797
-0.2855835259 -0.1647908241 0.5717394948 4289968316
-0.2865176797 -0.1646925211 0.5736096501 4290297281
-0.2870191038 -0.1643423140 0.5746134520 4290889418
-0.2875204980 -0.1639898568 0.5756173134 4291547348
-0.2880218923 -0.1636351645 0.5766211152 4290955213
-0.2880900800 -0.1630330831 0.5767576098 4290692041
-0.2868580520 -0.1616977900 0.5742911100 4290954959
-0.2886591852 -0.1620709747 0.5778969526 4291086545
-0.2856921256 -0.1597695947 0.5719568729 4291152079
-0.2835906744 -0.1579635888 0.5677497983 4290888907
-0.2823554575 -0.1566474885 0.5652768612 4290494149
-0.2811194360 -0.1553364396 0.5628023148 4290428356
-0.2816182673 -0.1549856663 0.5638010502 4290559944
-0.2803809941 -0.1536810696 0.5613240004 4290494151
-0.2804452777 -0.1530924886 0.5614526868 4290624456
-0.2800751328 -0.1522674412 0.5607116222 4291019214
-0.2801388800 -0.1516789645 0.5608392954 4291085005
-0.2802024186 -0.1510900855 0.5609664917 4291019212
-0.2793966830 -0.1500341445 0.5593534112 4291019723
-0.2794595957 -0.1494463086 0.5594793558 4290953930
-0.2795222700 -0.1488580704 0.5596048236 4290692039
-0.2791499197 -0.1480388343 0.5588594079 4290889418
-0.2792120874 -0.1474507302 0.5589838028 4290757832
-0.2792740166 -0.1468622237 0.5591077805 4290757832
-0.2793357074 -0.1462733299 0.5592313409 4290823114
-0.2793971896 -0.1456840336 0.5593544245 4290823114
-0.2803290486 -0.1455463767 0.5612199903 4290823375
-0.2803902924 -0.1449544728 0.5613425970 4290954961
-0.2804512978 -0.1443621814 0.5614647269 4290758610
-0.2805726528 -0.1431764513 0.5617076755 4290954702
-0.2806329727 -0.1425830126 0.5618284345 4291020495
-0.2806930840 -0.1419891864 0.5619487762 4291020752
-0.2807529867 -0.1413949877 0.5620687008 4290889166
-0.2803766131 -0.1405817717 0.5613151789 4290757582
-0.2804359496 -0.1399877220 0.5614339709 4290823375
-0.2804950476 -0.1393933147 0.5615523458 4290954702
-0.2814265788 -0.1392302513 0.5634172559 4290954702
-0.2814854383 -0.1386332363 0.5635350943 4291086286
-0.2815440595 -0.1380358338 0.5636523962 4291217872
-0.2811658382 -0.1372250021 0.5628952384 4291283665
-0.2816605866 -0.1368399411 0.5638857484 4291217872
-0.2817185223 -0.1362414360 0.5640017390 4291217874
-0.2813393474 -0.1354322731 0.5632426143 4291217874
-0.2818336785 -0.1350433379 0.5642322898 4291217620
-0.2818909287 -0.1344437301 0.5643468499 4291217620
-0.2819479406 -0.1338437647 0.5644609928 4291349717
-0.2820047140 -0.1332434267 0.5645746589 4291218131
-0.2824985385 -0.1328483820 0.5655633211 4291349719
-0.2829923332 -0.1324511021 0.5665518641 4291349719
-0.2830485702 -0.1318478286 0.5666645169 4291415512
-0.2831045985 -0.1312441975 0.5667766333 4291349719
-0.2835980058 -0.1308421195 0.5677644610 4291218133
-0.2836536467 -0.1302368343 0.5678758621 4291481305
-0.2837090492 -0.1296311915 0.5679867268 4291086288
-0.2842020988 -0.1292243004 0.5689738393 4291283667
-0.2842571139 -0.1286170185 0.5690839887 4291414485
-0.2843118608 -0.1280093789 0.5691936016 4291546071
-0.2843663990 -0.1274013966 0.5693027377 4291612381
-0.2848589122 -0.1269884259 0.5702888370 4291941346
-0.2853513956 -0.1265732348 0.5712746978 4292138986
-0.2858437598 -0.1261558235 0.5722604990 4291875814
-0.2863360643 -0.1257361770 0.5732460618 4291678435
-0.2868283093 -0.1253143102 0.5742315054 4292204779
-0.2908836901 -0.1257920414 0.5823504329 4292599533
-0.2922538817 -0.1257344931 0.5850935578 4291876064
-0.2940632403 -0.1258588135 0.5887158513 4291481306
-0.2963119447 -0.1261621416 0.5932177901 4290955478
-0.2981221378 -0.1262697428 0.5968418121 4291547615
-0.3003718555 -0.1265544742 0.6013457775 4291548128
-0.3026221097 -0.1268294305 0.6058507562 4291679714
-0.3066300750 -0.1278271228 0.6138747334 4292930034
-0.3074070811 -0.1866880506 0.6168017983 4290167755
-0.3070534468 -0.1857887655 0.6160922647 4290224459
-0.3062686324 -0.1846311241 0.6145175695 4289961287
-0.3020362556 -0.1814063340 0.6060254574 4290683932
-0.2960776091 -0.1771674603 0.5940696597 4290683932
-0.2896846831 -0.1726962477 0.5812424421 4290355744
-0.2871690094 -0.1705563366 0.5761948228 4290224158
-0.2855144441 -0.1689371318 0.5728749633 4290487071
-0.2842901945 -0.1675789803 0.5704185963 4290026520
-0.2839281261 -0.1667325795 0.5696920753 4289305402
-0.2835656106 -0.1658875495 0.5689647198 4291147606
-0.2836343944 -0.1652954668 0.5691027641 4289639602
-0.2841347754 -0.1649536490 0.5701067448 4290758083
-0.2846351564 -0.1646096110 0.5711107850 4290428867
-0.2851355374 -0.1642633229 0.5721147656 4289639351
-0.2860680521 -0.1641627848 0.5739857554 4289310136
-0.2865684927 -0.1638111174 0.5749899149 4289244343
-0.2866366208 -0.1632110476 0.5751265883 4289441723
-0.2871369421 -0.1628558189 0.5761305094 4289310137
-0.2872047424 -0.1622539908 0.5762665272 4289573308
-0.2855417430 -0.1606779248 0.5729297400 4289639101
-0.2843104601 -0.1593512446 0.5704592466 4289574074
-0.2830783427 -0.1580296010 0.5679870248 4289771453
-0.2818454206 -0.1567129791 0.5655131936 4289771453
-0.2810447216 -0.1556412280 0.5639066100 4289705660
-0.2806765139 -0.1548116058 0.5631678700 4289903043
-0.2803079188 -0.1539833993 0.5624282956 4290232008
-0.2799389064 -0.1531566083 0.5616878867 4290428615
-0.2795694768 -0.1523312479 0.5609465837 4290560201
-0.2796331644 -0.1517425478 0.5610744357 4290757323
-0.2796966434 -0.1511534601 0.5612017512 4290757323
-0.2797598839 -0.1505639702 0.5613287091 4290559944
-0.2793890834 -0.1497415602 0.5605846643 4290494151
-0.2794518173 -0.1491521895 0.5607105494 4290625737
-0.2795143127 -0.1485624164 0.5608359575 4290823116
-0.2795765996 -0.1479722559 0.5609608889 4290954702
-0.2796386480 -0.1473816931 0.5610854030 4290888909
-0.2797004879 -0.1467907429 0.5612094998 4290888909
-0.2793276906 -0.1459723860 0.5604615211 4290823116
-0.2798235118 -0.1456076652 0.5614563227 4290888909
-0.2798846960 -0.1450155377 0.5615790486 4290954702
-0.2801271379 -0.1426431835 0.5620655417 4290889938
-0.2806822062 -0.1416743547 0.5631792545 4290889938
-0.2807419002 -0.1410786211 0.5632990599 4291086547
-0.2808013558 -0.1404825151 0.5634183884 4291086547
-0.2808606029 -0.1398860216 0.5635372400 4291020754
-0.2809196413 -0.1392891556 0.5636556745 4291152340
-0.2809784114 -0.1386919171 0.5637736320 4291086547
-0.2806012630 -0.1378801912 0.5630168319 4291020754
-0.2810952961 -0.1374963075 0.5640081763 4291152340
-0.2811534107 -0.1368979365 0.5641247034 4291218133
-0.2812112868 -0.1362992078 0.5642408729 4291218133
-0.2808328569 -0.1354897171 0.5634815097 4291086547
-0.2813263535 -0.1351006329 0.5644717216 4291086547
-0.2813835144 -0.1345008016 0.5645864606 4291086547
