VERSION 0.7
FIELDS x y z rgba
SIZE 4 4 4 4
TYPE F F F U
COUNT 1 1 1 1
WIDTH 920
HEIGHT 1
VIEWPOINT 0.0 0.0 0.0 1.0 0.0 0.0 0.0
POINTS 920
DATA ascii
-0.2950632274 -0.1711658388 0.6055286527 4290824658
-0.2951334715 -0.1705336422 0.6056727767 4290627279
-0.2952034771 -0.1699009836 0.6058164239 4290758865
-0.2948484123 -0.1690243334 0.6050877571 4290955731
-0.2949178517 -0.1683916897 0.6052302718 4291021524
-0.2949870825 -0.1677585989 0.6053723693 4290956244
-0.2946309149 -0.1668842584 0.6046414375 4290890451
-0.2938490808 -0.1657713950 0.6030369401 4290758865
-0.2922159135 -0.1641837656 0.5996853709 4290758865
-0.2901563048 -0.1623649597 0.5954586267 4290626766
-0.2880954444 -0.1605548561 0.5912293792 4290626766
-0.2860334218 -0.1587534845 0.5869976282 4290626766
-0.2843959033 -0.1571961790 0.5836371779 4290560973
-0.2831832469 -0.1558801979 0.5811485052 4290560973
-0.2823957205 -0.1548027992 0.5795323849 4290626766
-0.2820336223 -0.1539612263 0.5787892342 4290626766
-0.2820972204 -0.1533527225 0.5789197683 4290626766
-0.2817343771 -0.1525130868 0.5781751275 4290560971
-0.2817974389 -0.1519046873 0.5783045888 4290560971
-0.2818602622 -0.1512958854 0.5784335136 4290758350
-0.2814963758 -0.1504586935 0.5776867270 4290824143
-0.2815586627 -0.1498499960 0.5778145790 4290824143
-0.2816207409 -0.1492408961 0.5779419541 4290824143
-0.2812558115 -0.1484061927 0.5771930218 4290758350
-0.2808904350 -0.1475729495 0.5764431953 4290692557
-0.2809516490 -0.1469644904 0.5765688419 4290824658
-0.2810126245 -0.1463556439 0.5766939521 4290824658
-0.2810733616 -0.1457463950 0.5768186450 4290956244
-0.2807066441 -0.1449161768 0.5760660172 4291022037
-0.2803395092 -0.1440874338 0.5753126144 4291022037
-0.2803993821 -0.1434788555 0.5754354596 4290956244
-0.2800315022 -0.1426521093 0.5746805668 4290890451
-0.2796632349 -0.1418268234 0.5739247799 4290890451
-0.2792945504 -0.1410030276 0.5731681585 4290363592
-0.2793532312 -0.1403957009 0.5732886195 4290166213
-0.2785559297 -0.1393598467 0.5716523528 4289837248
-0.2786140144 -0.1387536079 0.5717715025 4289442490
-0.2786718309 -0.1381469965 0.5718902349 4289113525
-0.2783012986 -0.1373287439 0.5711297393 4288850353
-0.2779303193 -0.1365119666 0.5703684688 4288652974
-0.2779873013 -0.1359061003 0.5704854131 4288587181
-0.2776156068 -0.1350913942 0.5697226524 4288521388
-0.2772435248 -0.1342781782 0.5689590573 4288455595
-0.2772996426 -0.1336730719 0.5690741539 4288521388
-0.2773555219 -0.1330675930 0.5691888332 4288784560
-0.2769823968 -0.1322570145 0.5684230924 4289179318
-0.2770377100 -0.1316517442 0.5685366392 4289705662
-0.2770928144 -0.1310461164 0.5686497092 4290034627
-0.2771476507 -0.1304401308 0.5687623024 4290232006
-0.2767731845 -0.1296328008 0.5679937601 4290626764
-0.2768274844 -0.1290270239 0.5681052208 4290692557
-0.2773108482 -0.1286199987 0.5690971613 4291021522
-0.2773647606 -0.1280125827 0.5692078471 4291021522
-0.2774184644 -0.1274048090 0.5693179965 4290824143
-0.2774719000 -0.1267966926 0.5694277287 4290560971
-0.2775251269 -0.1261882037 0.5695369244 4290166213
-0.2775781155 -0.1255793869 0.5696457028 4289968834
-0.2776308656 -0.1249702126 0.5697539449 4290034629
-0.2776833773 -0.1243606955 0.5698617101 4289968836
-0.2777356505 -0.1237508282 0.5699689984 4289837250
-0.2777876854 -0.1231406182 0.5700757504 4289574078
-0.2778394818 -0.1225300655 0.5701820850 4289310906
-0.2783212364 -0.1221079081 0.5711706877 4289113527
-0.2779423892 -0.1213079467 0.5703932047 4288981941
-0.2779934704 -0.1206963807 0.5704980493 4288981941
-0.2784747183 -0.1202703640 0.5714856982 4288982454
-0.2780949175 -0.1194722280 0.5707062483 4289245626
-0.2781452835 -0.1188596562 0.5708096027 4289574591
-0.2781953812 -0.1182467490 0.5709124804 4289837763
-0.2782452703 -0.1176335141 0.5710148215 4290166728
-0.2787257135 -0.1172010973 0.5720007420 4290627279
-0.2787751853 -0.1165862530 0.5721023083 4290890451
-0.2788244188 -0.1159710810 0.5722033381 4290956244
-0.2797354460 -0.1157121733 0.5740729570 4290824915
-0.2793532610 -0.1149171069 0.5732886195 4290759122
-0.2802641690 -0.1146527976 0.5751580000 4291416795
-0.2807438970 -0.1142089069 0.5761424899 4291416795
-0.2816548645 -0.1139372811 0.5780119896 4291153623
-0.2829972506 -0.1138350442 0.5807668567 4291614174
-0.2847713232 -0.1138993427 0.5844075680 4292140263
-0.2861141860 -0.1137840599 0.5871633887 4292206056
-0.2874572277 -0.1136627346 0.5899195671 4292666862
-0.2933819890 -0.1732612699 0.6034538150 4291087317
-0.2934528589 -0.1726324856 0.6035996079 4290889938
-0.2935234904 -0.1720032245 0.6037448645 4290692559
-0.2935938835 -0.1713735163 0.6038897038 4290626766
-0.2936640680 -0.1707433611 0.6040340662 4290692559
-0.2937340140 -0.1701127440 0.6041779518 4290429900
-0.2938037515 -0.1694816947 0.6043213606 4290627279
-0.2938732505 -0.1688501835 0.6044643521 4290692559
-0.2935183644 -0.1679754853 0.6037343740 4290889938
-0.2935873270 -0.1673439890 0.6038761735 4291022037
-0.2932316959 -0.1664711535 0.6031447053 4290890451
-0.2924511731 -0.1653596908 0.6015392542 4290758865
-0.2912454903 -0.1640123576 0.5990592837 4290824658
-0.2891896665 -0.1621937305 0.5948306918 4290626766
-0.2871326208 -0.1603838354 0.5905995965 4290626766
-0.2850743830 -0.1585826725 0.5863660574 4290626766
-0.2834399045 -0.1570256799 0.5830040574 4290626766
-0.2822294533 -0.1557101011 0.5805143118 4290626766
-0.2818684876 -0.1548667848 0.5797718763 4290692559
-0.2815071046 -0.1540248841 0.5790285468 4290692559
-0.2811453342 -0.1531844139 0.5782843828 4290626766
-0.2812085450 -0.1525762081 0.5784144402 4290692559
-0.2812715471 -0.1519675851 0.5785440207 4290692559
-0.2813343108 -0.1513585448 0.5786731243 4290758350
-0.2813968658 -0.1507491171 0.5788018107 4290824143
-0.2810333967 -0.1499121338 0.5780541301 4290758350
-0.2810953856 -0.1493027955 0.5781816840 4290692557
-0.2807311714 -0.1484677792 0.5774325132 4290692557
-0.2807926238 -0.1478585750 0.5775589347 4290626764
-0.2804276943 -0.1470255256 0.5768082738 4290561486
-0.2804886103 -0.1464164555 0.5769335628 4290561486
-0.2805492878 -0.1458069831 0.5770584345 4290561486
-0.2801832855 -0.1449764520 0.5763056278 4290627279
-0.2793903351 -0.1439276338 0.5746746063 4290627279
-0.2794500589 -0.1433197707 0.5747974515 4290627279
-0.2795095742 -0.1427115053 0.5749198198 4290693072
-0.2791420221 -0.1418859065 0.5741638541 4290824658
-0.2787740827 -0.1410617828 0.5734069943 4291021524
-0.2788327038 -0.1404542327 0.5735276341 4291021524
-0.2784640491 -0.1396321356 0.5727692842 4291021522
-0.2780949473 -0.1388115138 0.5720100999 4291218901
-0.2781527340 -0.1382046789 0.5721289515 4291284694
-0.2777829170 -0.1373860985 0.5713682771 4291218901
-0.2774126828 -0.1365690082 0.5706067681 4291153108
-0.2774696052 -0.1359629035 0.5707238317 4291087315
-0.2775262892 -0.1353564411 0.5708404183 4290889936
-0.2771550119 -0.1345419735 0.5700767636 4290824143
-0.2767833769 -0.1337290108 0.5693123341 4290560971
-0.2768391669 -0.1331232935 0.5694271326 4290100420
-0.2764667869 -0.1323124021 0.5686611533 4289574076
-0.2765220702 -0.1317069083 0.5687748790 4289179318
-0.2765770853 -0.1311010420 0.5688880682 4288850353
-0.2766318917 -0.1304948181 0.5690007806 4288718767
-0.2762581706 -0.1296871752 0.5682320595 4288850353
-0.2763124108 -0.1290811747 0.5683436394 4288916146
-0.2767949104 -0.1286740005 0.5693360567 4289245111
-0.2768487930 -0.1280663460 0.5694468617 4289442490
-0.2769024074 -0.1274583340 0.5695571899 4289508283
-0.2769558132 -0.1268499792 0.5696670413 4289639869
-0.2770089805 -0.1262412667 0.5697764158 4289837248
-0.2770619094 -0.1256322116 0.5698853135 4290166213
-0.2771146297 -0.1250227988 0.5699936748 4290889938
-0.2771670818 -0.1244130433 0.5701015592 4291021524
-0.2772192955 -0.1238029376 0.5702089667 4291284696
-0.2777004838 -0.1233831942 0.5711987615 4291482075
-0.2777523100 -0.1227714568 0.5713053346 4291482075
-0.2778038979 -0.1221593842 0.5714114904 4291218903
-0.2774257958 -0.1213591024 0.5706337690 4290955731
-0.2774768472 -0.1207472980 0.5707387328 4290824145
-0.2779572308 -0.1203211173 0.5717268586 4290561486
-0.2775781751 -0.1195226684 0.5709471703 4290429900
-0.2776284814 -0.1189098582 0.5710506439 4290166728
-0.2776785791 -0.1182967126 0.5711536407 4289837763
-0.2777284086 -0.1176832318 0.5712561607 4289903556
-0.2777779996 -0.1170694232 0.5713581443 4290364107
-0.2782573998 -0.1166355610 0.5723442435 4290824658
-0.2787367404 -0.1161994711 0.5733302236 4290956244
-0.2787857652 -0.1155827790 0.5734310150 4291088087
-0.2792648077 -0.1151431799 0.5744163990 4291088087
-0.2801741660 -0.1148778200 0.5762868524 4291679967
-0.2802226841 -0.1142572984 0.5763866305 4291548381
-0.2811319828 -0.1139855683 0.5782569647 4291219416
-0.2824719250 -0.1138833091 0.5810130835 4291679967
-0.2842427492 -0.1139476523 0.5846554637 4292140518
-0.2855831683 -0.1138323396 0.5874125361 4292206311
-0.2869237363 -0.1137109697 0.5901699662 4292601069
-0.2886953950 -0.1137533262 0.5938140750 4293587964
-0.2923380733 -0.1737097204 0.6026834846 4291021524
-0.2919864357 -0.1728319377 0.6019585133 4290889938
-0.2920570076 -0.1722047329 0.6021040082 4290758352
-0.2921273410 -0.1715770811 0.6022490263 4290560973
-0.2921974957 -0.1709489673 0.6023936272 4290429387
-0.2922673821 -0.1703204066 0.6025377512 4290363594
-0.2923370600 -0.1696913838 0.6026813984 4290363594
-0.2924065292 -0.1690619141 0.6028245687 4290363594
-0.2924757600 -0.1684320122 0.6029673219 4290429387
-0.2925447524 -0.1678016484 0.6031095982 4290824145
-0.2921900749 -0.1669289172 0.6023783684 4290890451
-0.2918349802 -0.1660575718 0.6016462445 4290693072
-0.2897847891 -0.1642272174 0.5974196196 4290692559
-0.2915472388 -0.1645582169 0.6010530591 4290824145
-0.2882239521 -0.1620222479 0.5942018032 4290560973
-0.2861707211 -0.1602125615 0.5899688601 4290626766
-0.2845403552 -0.1586480290 0.5866076946 4290626766
-0.2829089761 -0.1570904255 0.5832444429 4290560973
-0.2817008495 -0.1557743251 0.5807538033 4290626766
-0.2813406289 -0.1549306959 0.5800111294 4290692559
-0.2809799612 -0.1540884823 0.5792676210 4290692559
-0.2810434401 -0.1534795314 0.5793985128 4290626766
-0.2806820571 -0.1526392549 0.5786534548 4290560973
-0.2807449996 -0.1520304084 0.5787832141 4290626766
-0.2803828716 -0.1511920840 0.5780366659 4290692559
-0.2804452777 -0.1505833417 0.5781652927 4290758352
-0.2805074453 -0.1499741971 0.5782934427 4290758352
-0.2805693746 -0.1493646353 0.5784211755 4290692559
-0.2806310952 -0.1487546861 0.5785483718 4290626766
-0.2802672982 -0.1479198635 0.5777983665 4290560973
-0.2799030840 -0.1470865011 0.5770475268 4290561744
-0.2799639404 -0.1464772075 0.5771729350 4290495951
-0.2795989811 -0.1456458122 0.5764206052 4290495951
-0.2792336345 -0.1448158920 0.5756673813 4290495951
-0.2788678706 -0.1439874321 0.5749133229 4290495693
-0.2789275348 -0.1433793306 0.5750363469 4290429900
-0.2785610557 -0.1425528824 0.5742807984 4290364107
-0.2786201835 -0.1419449300 0.5744026899 4290364107
-0.2782529593 -0.1411204934 0.5736456513 4290429900
-0.2778853178 -0.1402975172 0.5728877187 4290429900
-0.2779435813 -0.1396902800 0.5730078220 4290560971
-0.2780016363 -0.1390826702 0.5731275082 4290692557
-0.2776329517 -0.1382622868 0.5723674297 4290824143
-0.2776904404 -0.1376548409 0.5724859238 4290824143
-0.2773210406 -0.1368364990 0.5717244148 4290889936
-0.2773779929 -0.1362292320 0.5718417764 4290889936
-0.2774347067 -0.1356216073 0.5719587207 4290824658
-0.2770642638 -0.1348058879 0.5711950064 4290824658
-0.2766934335 -0.1339916587 0.5704305172 4290890451
-0.2763221860 -0.1331789494 0.5696651936 4291022037
-0.2759505510 -0.1323677450 0.5688989758 4291219416
-0.2760057747 -0.1317620128 0.5690128207 4291219416
-0.2760607600 -0.1311559081 0.5691261888 4290956244
-0.2761155069 -0.1305494606 0.5692390203 4290627279
-0.2761700153 -0.1299426407 0.5693514347 4290627279
-0.2762242854 -0.1293354779 0.5694633126 4290429900
-0.2762783468 -0.1287279427 0.5695747733 4290298314
-0.2763321400 -0.1281200498 0.5696856976 4290035142
-0.2763857245 -0.1275118142 0.5697961450 4289706177
-0.2764390707 -0.1269032210 0.5699061155 4289443005
-0.2764922082 -0.1262942702 0.5700156093 4289245626
-0.2765450776 -0.1256849766 0.5701246262 4289377212
-0.2770258784 -0.1252689362 0.5711159110 4289310904
-0.2770783603 -0.1246580034 0.5712240934 4289245111
-0.2771306038 -0.1240467206 0.5713317990 4289376697
-0.2771826386 -0.1234350950 0.5714390278 4289574076
-0.2772344053 -0.1228231192 0.5715457797 4289837248
-0.2772859335 -0.1222108081 0.5716519952 4290100420
-0.2769085765 -0.1214102134 0.5708740354 4290429387
-0.2769595683 -0.1207981631 0.5709791780 4290626766
-0.2770102918 -0.1201857775 0.5710837841 4290758865
-0.2770608068 -0.1195730567 0.5711878538 4290890451
-0.2771110535 -0.1189600080 0.5712915063 4290956244
-0.2771610916 -0.1183466166 0.5713946223 4290890451
-0.2772108614 -0.1177328974 0.5714972615 4291087830
-0.2772603929 -0.1171188504 0.5715993643 4291351002
-0.2773096859 -0.1165044755 0.5717009902 4291482588
-0.2777881026 -0.1160691679 0.5726872683 4291416795
-0.2782664001 -0.1156316251 0.5736733675 4291350747
-0.2783151269 -0.1150143668 0.5737738013 4291350747
-0.2787931859 -0.1145733297 0.5747593641 4291679712
-0.2805600762 -0.1146568060 0.5784019828 4291482333
-0.2818976045 -0.1145577058 0.5811594129 4291350747
-0.2849545181 -0.1151472554 0.5874615312 4291877091
-0.2832836211 -0.1138231903 0.5840168595 4292271849
-0.2863412797 -0.1143958569 0.5903204679 4292469228
-0.2881096303 -0.1144424006 0.5939661264 4292863473
-0.2898783386 -0.1144809648 0.5976124406 4293389817
-0.2916473448 -0.1145115569 0.6012594700 4293653242
-0.2908736765 -0.1739040166 0.6010406613 4291021524
-0.2909445167 -0.1732784063 0.6011870503 4290824145
-0.2910151184 -0.1726523489 0.6013329625 4290692559
-0.2910855412 -0.1720258296 0.6014784575 4290560973
-0.2911556959 -0.1713988483 0.6016234756 4290429387
-0.2912256718 -0.1707714200 0.6017680168 4290166215
-0.2908732295 -0.1698969603 0.6010397673 4289903043
-0.2909426391 -0.1692695469 0.6011831760 4289771457
-0.2910118103 -0.1686416715 0.6013261080 4289574078
-0.2910807729 -0.1680133641 0.6014686227 4290100422
-0.2911494970 -0.1673846096 0.6016106606 4290758352
-0.2907953262 -0.1665133685 0.6008788347 4290758865
-0.2908635139 -0.1658846438 0.6010197401 4290495693
-0.2900857329 -0.1647750735 0.5994125605 4290560973
-0.2888843715 -0.1634294391 0.5969301462 4290692559
-0.2872591615 -0.1618504971 0.5935719013 4290560973
-0.2856329083 -0.1602784544 0.5902115107 4290626766
-0.2840056419 -0.1587133259 0.5868490934 4290626766
-0.2823773921 -0.1571550965 0.5834845901 4290626766
-0.2815950513 -0.1560731828 0.5818679929 4290692559
-0.2808120847 -0.1549945325 0.5802501440 4290692559
-0.2808758318 -0.1543848664 0.5803818703 4290692559
-0.2805155814 -0.1535428464 0.5796374679 4290626766
-0.2805787623 -0.1529332548 0.5797680616 4290692559
-0.2802177966 -0.1520931721 0.5790221691 4290758352
-0.2802804410 -0.1514836997 0.5791515708 4290692559
-0.2799187303 -0.1506455541 0.5784041882 4290692559
-0.2804050446 -0.1502635181 0.5794090629 4290692559
-0.2800427079 -0.1494264156 0.5786603689 4290692559
-0.2801043689 -0.1488162279 0.5787877440 4290626766
-0.2797412872 -0.1479810923 0.5780375600 4290626766
-0.2798024118 -0.1473710388 0.5781638026 4290693072
-0.2794386148 -0.1465378851 0.5774120688 4290627279
-0.2790744007 -0.1457061917 0.5766595006 4290495693
-0.2787097692 -0.1448759437 0.5759060979 4290429900
-0.2783447504 -0.1440471560 0.5751518011 4290364107
-0.2784043550 -0.1434388459 0.5752750039 4290364107
-0.2780385911 -0.1426120698 0.5745192170 4290364107
-0.2780976593 -0.1420038939 0.5746412873 4290429900
-0.2777311802 -0.1411791295 0.5738840103 4290561486
-0.2777897120 -0.1405711174 0.5740048885 4290495693
-0.2774224877 -0.1397483796 0.5732461214 4290495693
-0.2774804831 -0.1391405314 0.5733659267 4290495693
-0.2775382102 -0.1385323107 0.5734852552 4290495180
-0.2775957286 -0.1379237026 0.5736041069 4290495180
-0.2772271633 -0.1371041089 0.5728425384 4290560971
-0.2772841454 -0.1364956796 0.5729602575 4290626764
-0.2773408592 -0.1358868778 0.5730774999 4290627279
-0.2769712806 -0.1350699067 0.5723137856 4290693072
-0.2766012549 -0.1342544407 0.5715491772 4290758865
-0.2762308419 -0.1334404647 0.5707837939 4290627279
-0.2762863934 -0.1328329891 0.5708985925 4290561486
-0.2763417363 -0.1322251558 0.5710129142 4290627279
-0.2763968110 -0.1316169500 0.5711267591 4290758865
-0.2764516771 -0.1310083866 0.5712401271 4290956244
-0.2760795951 -0.1301982254 0.5704712868 4291022037
-0.2761339247 -0.1295898855 0.5705835223 4290890451
-0.2761879861 -0.1289811730 0.5706952214 4290890451
-0.2762418389 -0.1283721179 0.5708065033 4290824658
-0.2762954533 -0.1277626902 0.5709172487 4290824658
-0.2767759264 -0.1273494512 0.5719101429 4290693072
-0.2768291533 -0.1267383844 0.5720201135 4290429900
-0.2768821418 -0.1261269599 0.5721296072 4290495693
-0.2765075266 -0.1253215075 0.5713555217 4290955729
-0.2769874036 -0.1249030828 0.5723471045 4291021522
-0.2770396769 -0.1242906153 0.5724551082 4291087315
-0.2770917118 -0.1236778051 0.5725626349 4290955729
-0.2767158151 -0.1228747293 0.5717859268 4290626764
-0.2767673135 -0.1222621799 0.5718923211 4290297799
-0.2768185437 -0.1216492876 0.5719981790 4290100422
-0.2764416337 -0.1208489761 0.5712193251 4290034629
-0.2764923275 -0.1202363521 0.5713241100 4289771970
-0.2769708633 -0.1198085696 0.5723128915 4289771970
-0.2765929699 -0.1190100983 0.5715320706 4289640384
-0.2766429484 -0.1183964759 0.5716353059 4289574591
-0.2766926885 -0.1177825183 0.5717380643 4290035142
-0.2767421603 -0.1171682253 0.5718403459 4290693072
-0.2772198915 -0.1167340279 0.5728274584 4291285209
-0.2772689462 -0.1161181331 0.5729289055 4291548381
-0.2777464092 -0.1156804264 0.5739154816 4291219161
-0.2777950764 -0.1150629222 0.5740160346 4291350747
-0.2782723010 -0.1146217138 0.5750020742 4291482335
-0.2791782320 -0.1143539250 0.5768740773 4291482335
-0.2800842226 -0.1140820086 0.5787461400 4291811300
-0.2814192772 -0.1139796898 0.5815047622 4292206058
-0.2831835747 -0.1140441149 0.5851504207 4292468715
-0.2845190763 -0.1139287427 0.5879099965 4292929266
-0.2858547270 -0.1138073057 0.5906699300 4293455610
-0.2876198888 -0.1138497293 0.5943173170 4293718782
-0.2894121110 -0.1740941852 0.5993962288 4291086547
-0.2894828916 -0.1734706312 0.5995427966 4290889168
-0.2895534337 -0.1728466153 0.5996889472 4290429387
-0.2896237969 -0.1722221524 0.5998346210 4290232008
-0.2896938920 -0.1715972275 0.5999798775 4290100422
-0.2897638083 -0.1709718406 0.6001245975 4289837250
-0.2898334861 -0.1703460068 0.6002689600 4289508285
-0.2894815505 -0.1694730520 0.5995400548 4289113527
-0.2895506918 -0.1688472331 0.5996832848 4288850355
-0.2896195948 -0.1682209522 0.5998259783 4288389804
-0.2896882892 -0.1675942391 0.5999681950 4289574078
-0.2897567451 -0.1669670939 0.6001099944 4290824145
-0.2898249924 -0.1663394868 0.6002513170 4290758865
-0.2894710302 -0.1654702276 0.5995182395 4290495693
-0.2891166508 -0.1646023542 0.5987842679 4290626766
-0.2879174948 -0.1632571220 0.5963007808 4290560973
-0.2862952948 -0.1616784781 0.5929410458 4290626766
-0.2850944102 -0.1603442878 0.5904539824 4290626766
-0.2834703028 -0.1587785333 0.5870902538 4290626766
-0.2822677195 -0.1574554145 0.5845996141 4290692559
-0.2814869881 -0.1563721746 0.5829826593 4290692559
-0.2807056606 -0.1552921981 0.5813645124 4290626766
-0.2803465724 -0.1544484198 0.5806207657 4290560973
-0.2804100215 -0.1538381130 0.5807521343 4290626766
-0.2800501883 -0.1529962718 0.5800068974 4290560973
-0.2796899378 -0.1521558762 0.5792608261 4290560973
-0.2797525227 -0.1515461653 0.5793904662 4290560973
-0.2798148692 -0.1509360671 0.5795195699 4290495180
-0.2798770070 -0.1503255367 0.5796482563 4290495180
-0.2795153856 -0.1494881213 0.5788993239 4290560973
-0.2795769870 -0.1488777250 0.5790268779 4290560973
-0.2792146504 -0.1480422616 0.5782764554 4290626766
-0.2792756855 -0.1474319845 0.5784028769 4290429900
-0.2789126337 -0.1465985030 0.5776509643 4290495693
-0.2785491645 -0.1457664818 0.5768981576 4290495693
-0.2781852782 -0.1449359208 0.5761445165 4290561486
-0.2778209746 -0.1441068351 0.5753900409 4290561486
-0.2778805196 -0.1434982866 0.5755133629 4290561486
-0.2779398561 -0.1428893358 0.5756362677 4290495693
-0.2775745094 -0.1420627832 0.5748795867 4290429900
-0.2772087753 -0.1412377059 0.5741221309 4290429900
-0.2772672176 -0.1406294703 0.5742431879 4290561486
-0.2773254514 -0.1400208473 0.5743637681 4290561486
-0.2769586742 -0.1391983330 0.5736041665 4290495693
-0.2770163417 -0.1385898888 0.5737236142 4290495693
-0.2770738006 -0.1379810423 0.5738425851 4290495693
-0.2767059803 -0.1371611357 0.5730808377 4290495693
-0.2767629027 -0.1365524828 0.5731986761 4290495693
-0.2768195570 -0.1359434575 0.5733160377 4290364107
-0.2768760324 -0.1353340447 0.5734329820 4290364107
-0.2765068412 -0.1345173270 0.5726683736 4290429900
-0.2765627503 -0.1339081079 0.5727841258 4290495693
-0.2761928439 -0.1330934614 0.5720180273 4290561486
-0.2762481868 -0.1324844509 0.5721327066 4290495693
-0.2763033211 -0.1318750829 0.5722468495 4290429900
-0.2763581872 -0.1312653422 0.5723605156 4290429900
-0.2764128447 -0.1306552440 0.5724737048 4290758865
-0.2760412693 -0.1298443973 0.5717041492 4290627279
-0.2760953903 -0.1292345226 0.5718162060 4290561486
-0.2761492431 -0.1286242902 0.5719277859 4290495693
-0.2762028873 -0.1280137002 0.5720388889 4290561486
-0.2762562931 -0.1274027377 0.5721494555 4290627279
-0.2763094604 -0.1267914474 0.5722595453 4290627279
-0.2763623893 -0.1261797845 0.5723692179 4290693072
-0.2764150798 -0.1255677789 0.5724783540 4291021524
-0.2764675319 -0.1249554306 0.5725869536 4291087317
-0.2765197754 -0.1243427247 0.5726951361 4291218903
-0.2765717506 -0.1237296760 0.5728027821 4291284696
-0.2766234875 -0.1231162846 0.5729099512 4291153110
-0.2766749859 -0.1225025430 0.5730166435 4291218903
-0.2762992382 -0.1217003614 0.5722383857 4291350489
-0.2763501704 -0.1210868955 0.5723438859 4291416282
-0.2764008939 -0.1204730794 0.5724489093 4291219416
-0.2764513791 -0.1198589355 0.5725534558 4291153623
-0.2765015960 -0.1192444488 0.5726575255 4290956244
-0.2761241496 -0.1184462756 0.5718758106 4290693072
-0.2761738300 -0.1178320795 0.5719786882 4290693072
-0.2766508460 -0.1173989996 0.5729666352 4291022037
-0.2767001390 -0.1167831868 0.5730686784 4291285209
-0.2771769166 -0.1163465977 0.5740561485 4291351002
-0.2776535749 -0.1159077734 0.5750433803 4291614174
-0.2777022719 -0.1152890697 0.5751442313 4291745760
-0.2781786919 -0.1148467362 0.5761309266 4291811813
-0.2786550224 -0.1144021675 0.5771174431 4291877606
-0.2795593739 -0.1141301468 0.5789903998 4292337644
-0.2813201249 -0.1142016277 0.5826370716 4292469230
-0.2826529741 -0.1140922755 0.5853975415 4292600301
-0.2839860022 -0.1139768660 0.5881583095 4293324024
-0.2879534066 -0.1742802262 0.5977501273 4290955731
-0.2880241275 -0.1736587137 0.5978969336 4290757582
-0.2880946100 -0.1730367541 0.5980432630 4290560203
-0.2881649137 -0.1724143326 0.5981891751 4290034629
-0.2882349491 -0.1717914641 0.5983346105 4289705664
-0.2883048058 -0.1711681336 0.5984795690 4289508285
-0.2883744240 -0.1705443561 0.5986241102 4289179320
-0.2884438038 -0.1699201167 0.5987681746 4288849585
-0.2885130048 -0.1692954451 0.5989117622 4288454827
-0.2885819376 -0.1686703116 0.5990549326 4287995046
-0.2886506915 -0.1680447310 0.5991975665 4287402909
-0.2882983088 -0.1671746522 0.5984661579 4289179320
-0.2883664966 -0.1665491015 0.5986076593 4290889938
-0.2884344757 -0.1659231037 0.5987487435 4290824658
-0.2885022163 -0.1652966589 0.5988893509 4290693072
-0.2877271771 -0.1641889811 0.5972805619 4290758352
-0.2869515419 -0.1630845368 0.5956704021 4290560973
-0.2857538164 -0.1617447585 0.5931841135 4290626766
-0.2845552862 -0.1604100466 0.5906960964 4290560973
-0.2837775946 -0.1593171358 0.5890817642 4290495180
-0.2821557820 -0.1577558666 0.5857151151 4290495180
-0.2813766897 -0.1566712856 0.5840978026 4290429387
-0.2810189426 -0.1558239311 0.5833551884 4290429387
-0.2802387178 -0.1547449678 0.5817355514 4290429387
-0.2803021967 -0.1541335136 0.5818672776 4290495180
-0.2799431980 -0.1532904357 0.5811220407 4290495180
-0.2795837820 -0.1524487883 0.5803759694 4290495180
-0.2796463668 -0.1518379450 0.5805059075 4290626766
-0.2797087431 -0.1512266845 0.5806354284 4290692559
-0.2793483138 -0.1503874958 0.5798871517 4290692559
-0.2794101238 -0.1497763544 0.5800155401 4290692559
-0.2790489495 -0.1489391327 0.5792657733 4290692559
-0.2791102529 -0.1483281106 0.5793929696 4290560973
-0.2787483335 -0.1474928558 0.5786417127 4290561486
-0.2783859968 -0.1466590613 0.5778895617 4290561486
-0.2784464359 -0.1460486799 0.5780150294 4290561486
-0.2780833840 -0.1452168822 0.5772613883 4290495693
-0.2777199149 -0.1443865448 0.5765068531 4290429900
-0.2773560584 -0.1435576528 0.5757515430 4290429900
-0.2774153054 -0.1429484934 0.5758745074 4290429900
-0.2770507038 -0.1421216279 0.5751177073 4290364107
-0.2766856849 -0.1412962228 0.5743600130 4290364107
-0.2767440975 -0.1406877637 0.5744811893 4290495693
-0.2768022716 -0.1400789022 0.5746019483 4290429900
-0.2764362097 -0.1392560899 0.5738421082 4290298314
-0.2764938474 -0.1386474073 0.5739617348 4290429900
-0.2765512466 -0.1380383372 0.5740808845 4290429900
-0.2761841416 -0.1372181177 0.5733188391 4290298314
-0.2762410045 -0.1366092265 0.5734368563 4290298314
-0.2762976289 -0.1359999627 0.5735543966 4290495693
-0.2763540149 -0.1353903264 0.5736714602 4290429900
-0.2759855688 -0.1345732808 0.5729066133 4290429900
-0.2760414183 -0.1339638531 0.5730225444 4290429900
-0.2760970294 -0.1333540380 0.5731379986 4290429900
-0.2761524022 -0.1327438653 0.5732529163 4290495693
-0.2762075365 -0.1321333200 0.5733674169 4290561486
-0.2762624621 -0.1315224022 0.5734813809 4290693072
-0.2763171494 -0.1309111267 0.5735949278 4290495693
-0.2759464085 -0.1300990433 0.5728253126 4290495693
-0.2764258087 -0.1296875030 0.5738204718 4290495693
-0.2764797807 -0.1290751398 0.5739325285 4290495693
-0.2765335143 -0.1284624338 0.5740441084 4290561486
-0.2765870392 -0.1278493702 0.5741551518 4290627279
-0.2766402960 -0.1272359341 0.5742657781 4290561486
-0.2766933441 -0.1266221553 0.5743758678 4290627279
-0.2767461538 -0.1260080338 0.5744854808 4290758352
-0.2767986953 -0.1253935546 0.5745945573 4290824145
-0.2768510282 -0.1247787178 0.5747032166 4290955731
-0.2769031227 -0.1241635382 0.5748113394 4290955731
-0.2769549787 -0.1235480085 0.5749189854 4290889938
-0.2765804231 -0.1227430180 0.5741414428 4290955731
-0.2766317129 -0.1221277490 0.5742479563 4291021524
-0.2766827941 -0.1215121374 0.5743539333 4290955731
-0.2763071954 -0.1207099110 0.5735743046 4290956244
-0.2763577104 -0.1200945750 0.5736790895 4290956244
-0.2764079571 -0.1194789037 0.5737834573 4291087575
-0.2764579654 -0.1188628897 0.5738872886 4291153368
-0.2760810554 -0.1180640683 0.5731047988 4291087575
-0.2765572965 -0.1176298782 0.5740934610 4291350747
-0.2766065896 -0.1170128733 0.5741957426 4291613919
-0.2766556442 -0.1163955405 0.5742976069 4291482333
-0.2771314681 -0.1159565449 0.5752853155 4291614685
-0.2776072025 -0.1155153215 0.5762729049 4291812064
-0.2785100043 -0.1152486205 0.5781469941 4292009190
-0.2794128656 -0.1149777770 0.5800212026 4291943397
-0.2790338397 -0.1141782403 0.5792343616 4292140778
-0.2807913125 -0.1142497659 0.5828827024 4292206571
-0.2825491726 -0.1143133268 0.5865316987 4292600301
-0.2838797867 -0.1141969264 0.5892938972 4293718782
-0.2864975929 -0.1744621247 0.5961024165 4291087315
-0.2865682244 -0.1738426685 0.5962494016 4290626764
-0.2866386771 -0.1732227653 0.5963959694 4290429387
-0.2867088914 -0.1726024002 0.5965420604 4290100422
-0.2867788672 -0.1719815731 0.5966876745 4289705662
-0.2868486643 -0.1713602990 0.5968328714 4289376697
-0.2869182229 -0.1707385629 0.5969775915 4289047732
-0.2869875431 -0.1701163799 0.5971218944 4288587181
-0.2870566845 -0.1694937497 0.5972657204 4287995046
-0.2871255875 -0.1688706726 0.5974090695 4287534495
-0.2871942520 -0.1682471335 0.5975519419 4287337116
-0.2872627079 -0.1676231623 0.5976943970 4286613393
-0.2869108915 -0.1667545885 0.5969623327 4288258216
-0.2869787812 -0.1661306322 0.5971036553 4290626764
-0.2870464921 -0.1655062437 0.5972445011 4291284694
-0.2871139646 -0.1648814082 0.5973848701 4291218901
-0.2867607176 -0.1640156358 0.5966499448 4291284696
-0.2859865129 -0.1629116833 0.5950390697 4291087317
-0.2852116823 -0.1618109643 0.5934269428 4291021524
-0.2844362259 -0.1607134789 0.5918135047 4290955731
-0.2836601734 -0.1596192420 0.5901987553 4290889938
-0.2824625671 -0.1582923383 0.5877069235 4290824145
-0.2816851735 -0.1572055072 0.5860894918 4290692559
-0.2809072137 -0.1561219394 0.5844707489 4290626766
-0.2805498540 -0.1552747637 0.5837272406 4290560973
-0.2801921070 -0.1544290334 0.5829828978 4290692559
-0.2798339427 -0.1535847187 0.5822376609 4290627279
-0.2798968852 -0.1529722065 0.5823686719 4290561486
-0.2795379758 -0.1521298289 0.5816218853 4290561486
-0.2791786790 -0.1512888968 0.5808742642 4290627279
-0.2792407572 -0.1506770104 0.5810034871 4290627279
-0.2788807154 -0.1498380303 0.5802543759 4290561486
-0.2789422572 -0.1492262483 0.5803824067 4290627279
-0.2785815001 -0.1483892351 0.5796317458 4290824658
-0.2786425054 -0.1477775723 0.5797587037 4290627275
-0.2782810032 -0.1469425410 0.5790065527 4290627275
-0.2779190838 -0.1461089551 0.5782535672 4290495691
-0.2775567770 -0.1452768296 0.5774996877 4290429898
-0.2771940529 -0.1444461644 0.5767449737 4290429898
-0.2772535384 -0.1438362449 0.5768687725 4290429898
-0.2768900990 -0.1430075765 0.5761125684 4290495691
-0.2765262425 -0.1421803981 0.5753555298 4290561484
-0.2761619687 -0.1413546801 0.5745975971 4290495691
-0.2762203217 -0.1407459825 0.5747189522 4290429898
-0.2762784064 -0.1401369125 0.5748398900 4290429900
-0.2759131193 -0.1393137723 0.5740798116 4290429900
-0.2755474150 -0.1384921223 0.5733188987 4290495693
-0.2756046653 -0.1378837675 0.5734379888 4290429900
-0.2756616771 -0.1372750252 0.5735566616 4290364107
-0.2757184505 -0.1366659105 0.5736747980 4290232521
-0.2753514051 -0.1358474195 0.5729110837 4290364107
-0.2754076421 -0.1352384984 0.5730280876 4290364107
-0.2754636407 -0.1346291900 0.5731446147 4290364107
-0.2755194306 -0.1340195239 0.5732606649 4290364107
-0.2755749822 -0.1334094852 0.5733762383 4290429900
-0.2756302953 -0.1327990741 0.5734913349 4290364107
-0.2756853998 -0.1321882904 0.5736059546 4290364107
-0.2761644423 -0.1317795813 0.5746027827 4290364107
-0.2762191594 -0.1311671287 0.5747165680 4290364107
-0.2762736380 -0.1305543184 0.5748299360 4290364107
-0.2763278782 -0.1299411505 0.5749427676 4290364107
-0.2763818800 -0.1293276250 0.5750551224 4290429900
-0.2764356434 -0.1287137270 0.5751670003 4290495693
-0.2764891982 -0.1280994862 0.5752784014 4290561486
-0.2765424848 -0.1274848729 0.5753893256 4290627279
-0.2765955627 -0.1268699169 0.5754997134 4290627279
-0.2766483724 -0.1262546033 0.5756096244 4290692304
-0.2767009735 -0.1256389469 0.5757190585 4290823890
-0.2767533064 -0.1250229329 0.5758279562 4290955476
-0.2768054307 -0.1244065613 0.5759364367 4290955476
-0.2768573165 -0.1237898543 0.5760443807 4290955989
-0.2769089639 -0.1231727973 0.5761517882 4290955989
-0.2765349150 -0.1223671362 0.5753735304 4290890196
-0.2765859962 -0.1217503399 0.5754798651 4290890196
-0.2766368389 -0.1211332008 0.5755856037 4290955989
-0.2762617767 -0.1203303188 0.5748052001 4290824403
-0.2763120532 -0.1197134554 0.5749098659 4290890196
-0.2763620913 -0.1190962568 0.5750139952 4290955989
-0.2764118910 -0.1184787229 0.5751175880 4291219161
-0.2764614522 -0.1178608537 0.5752207041 4291416540
-0.2765107751 -0.1172426566 0.5753233433 4291350747
-0.2765598595 -0.1166241243 0.5754254460 4291350747
-0.2766087055 -0.1160052642 0.5755270720 4291220444
-0.2770835757 -0.1155638695 0.5765151381 4291549409
-0.2775583565 -0.1151202470 0.5775029659 4291746018
-0.2793123424 -0.1152020246 0.5811523795 4291877604
-0.2802136540 -0.1149259880 0.5830277205 4292271851
-0.2832478881 -0.1155156419 0.5893409848 4292206058
-0.2820164263 -0.1143614575 0.5867786407 4292271597
-0.2841980457 -0.1145891398 0.5913178325 4292863734
-0.2855265439 -0.1144647226 0.5940819979 4293324539
-0.2872820795 -0.1145043820 0.5977346897 4293587711
-0.2850446403 -0.1746398956 0.5944530964 4291020754
-0.2855332792 -0.1742776632 0.5954720974 4290692559
-0.2856037319 -0.1736588925 0.5956190825 4290166215
-0.2856740057 -0.1730396748 0.5957655907 4290034629
-0.2857440412 -0.1724199951 0.5959116220 4289639871
-0.2858138382 -0.1717998534 0.5960572362 4289179318
-0.2854648829 -0.1709286422 0.5953294635 4288850353
-0.2855341733 -0.1703085154 0.5954739451 4288389802
-0.2856032252 -0.1696879268 0.5956180096 4287995044
-0.2860909402 -0.1693148017 0.5966351032 4287534495
-0.2861596644 -0.1686924100 0.5967784524 4287139737
-0.2862281799 -0.1680695713 0.5969213247 4286876565
-0.2862964571 -0.1674462855 0.5970637202 4285758084
-0.2863645256 -0.1668225527 0.5972056389 4286416012
-0.2864323556 -0.1661983877 0.5973471403 4288521388
-0.2864999771 -0.1655737609 0.5974881649 4290100420
-0.2861478031 -0.1647071987 0.5967537165 4290889936
-0.2857952118 -0.1638420224 0.5960183740 4291087315
-0.2854421735 -0.1629782468 0.5952821374 4291021522
-0.2846688926 -0.1618771106 0.5936694741 4290560971
-0.2838949859 -0.1607792079 0.5920554996 4290824143
-0.2831204534 -0.1596845388 0.5904402137 4290889936
-0.2823452950 -0.1585931182 0.5888236761 4291021522
-0.2819898129 -0.1577400416 0.5880823135 4291153108
-0.2812135518 -0.1566542089 0.5864634514 4291087315
-0.2808571458 -0.1558048874 0.5857201815 4290890451
-0.2800797522 -0.1547246724 0.5840989947 4290824658
-0.2801430523 -0.1541105062 0.5842309594 4290824658
-0.2797853947 -0.1532654613 0.5834850669 4290561486
-0.2798481584 -0.1526513994 0.5836159587 4290298314
-0.2790688276 -0.1515796632 0.5819907188 4290298314
-0.2795519531 -0.1511943340 0.5829982758 4290429900
-0.2787717283 -0.1501264125 0.5813711286 4290429900
-0.2788332999 -0.1495134830 0.5814995170 4290364107
-0.2784733772 -0.1486752182 0.5807488561 4290429900
-0.2785344124 -0.1480624080 0.5808761716 4290297799
-0.2781737447 -0.1472261250 0.5801239610 4290297799
-0.2778126597 -0.1463913023 0.5793709755 4290297801
-0.2774511576 -0.1455579251 0.5786170959 4290363594
-0.2770892680 -0.1447260231 0.5778623819 4290364107
-0.2767269611 -0.1438955814 0.5771067739 4290429900
-0.2763642669 -0.1430666000 0.5763503909 4290429898
-0.2760011256 -0.1422391087 0.5755931139 4290429898
-0.2756375968 -0.1414130777 0.5748350024 4290364105
-0.2756958902 -0.1408041567 0.5749564767 4290298312
-0.2757539153 -0.1401948482 0.5750775337 4290364107
-0.2753893733 -0.1393713951 0.5743172765 4290429900
-0.2750243843 -0.1385494322 0.5735561252 4290495693
-0.2750815749 -0.1379408389 0.5736753941 4290495693
-0.2751385272 -0.1373318732 0.5737941861 4290495693
-0.2747725248 -0.1365125179 0.5730308890 4290364107
-0.2748289406 -0.1359037310 0.5731485486 4290232266
-0.2748851180 -0.1352945715 0.5732656717 4290298059
-0.2749410868 -0.1346850395 0.5733823776 4290298059
-0.2754198611 -0.1342814118 0.5743808746 4290363852
-0.2754754424 -0.1336701959 0.5744968057 4290298059
-0.2755307853 -0.1330586225 0.5746122003 4290298059
-0.2755859196 -0.1324466616 0.5747271180 4290298059
-0.2756407857 -0.1318343580 0.5748416185 4290298059
-0.2756954432 -0.1312216818 0.5749555826 4290429645
-0.2757498622 -0.1306086332 0.5750690699 4290495438
-0.2758040428 -0.1299952269 0.5751820207 4290495438
-0.2758579850 -0.1293814629 0.5752945542 4290561231
-0.2759116888 -0.1287673414 0.5754065514 4290561231
-0.2759651840 -0.1281528473 0.5755180717 4290627024
-0.2760184109 -0.1275380105 0.5756291151 4290627024
-0.2760714293 -0.1269228160 0.5757396817 4290627024
-0.2761241794 -0.1263072640 0.5758497119 4290758097
-0.2761767209 -0.1256913692 0.5759592652 4290823890
-0.2762290239 -0.1250751168 0.5760683417 4290889683
-0.2762810886 -0.1244585142 0.5761769414 4290889683
-0.2763329148 -0.1238415614 0.5762850046 4290824403
-0.2759599388 -0.1230349839 0.5755071640 4290890196
-0.2760111988 -0.1224182919 0.5756140947 4290955989
-0.2760622203 -0.1218012571 0.5757204890 4290955989
-0.2761130035 -0.1211838797 0.5758264065 4290955989
-0.2761635780 -0.1205661669 0.5759318471 4290890196
-0.2762138844 -0.1199481115 0.5760367513 4290955989
-0.2762639523 -0.1193297207 0.5761411786 4291021782
-0.2763137817 -0.1187109947 0.5762450695 4291219161
-0.2763633430 -0.1180919334 0.5763484836 4291416540
-0.2764126956 -0.1174725369 0.5764514208 4291350747
-0.2768871188 -0.1170325875 0.5774407983 4291350747
-0.2769360542 -0.1164115816 0.5775428414 4291153883
-0.2769847512 -0.1157902405 0.5776444077 4291417055
-0.2774587572 -0.1153454855 0.5786329508 4291614434
-0.2783582807 -0.1150744557 0.5805088878 4291877606
-0.2792578638 -0.1147992685 0.5823848844 4292337644
-0.2805832624 -0.1146939844 0.5851489902 4292206058
-0.2814829946 -0.1144095436 0.5870253444 4292008425
-0.2828086913 -0.1142930761 0.5897901058 4292337390
-0.2837085724 -0.1139993742 0.5916667581 4292271849
-0.2850345671 -0.1138717234 0.5944321156 4292535021
-0.2863607407 -0.1137380004 0.5971977711 4292797931
-0.2881132960 -0.1137664914 0.6008526683 4293192689
-0.2836650908 -0.1741981655 0.5929495096 4290757582
-0.2841526568 -0.1738376319 0.5939686298 4290363594
-0.2842228413 -0.1732204705 0.5941153765 4289771457
-0.2842927873 -0.1726028472 0.5942615867 4289639871
-0.2843625546 -0.1719847620 0.5944074392 4289113527
-0.2844320834 -0.1713662297 0.5945527554 4288652976
-0.2845014036 -0.1707472354 0.5946976542 4288324011
-0.2845705152 -0.1701278090 0.5948421359 4287929251
-0.2846393883 -0.1695079058 0.5949861407 4287402907
-0.2847080529 -0.1688875705 0.5951296687 4286942358
-0.2847765088 -0.1682667881 0.5952727199 4286547600
-0.2848447561 -0.1676455587 0.5954153538 4286087047
-0.2849127650 -0.1670238674 0.5955575109 4286021254
-0.2849805355 -0.1664017439 0.5956991911 4285889152
-0.2850480974 -0.1657791734 0.5958404541 4285625980
-0.2851154506 -0.1651561707 0.5959812403 4286481289
-0.2851825655 -0.1645327210 0.5961215496 4288257700
-0.2848306000 -0.1636681408 0.5953857899 4289705146
-0.2844782174 -0.1628049463 0.5946491957 4290297283
-0.2841254175 -0.1619431674 0.5939117670 4290692557
-0.2833530307 -0.1608448476 0.5922971964 4290824143
-0.2825800478 -0.1597497612 0.5906814337 4290560971
-0.2822257876 -0.1588940322 0.5899409056 4290560971
-0.2818711400 -0.1580397189 0.5891995430 4290758350
-0.2815160453 -0.1571868062 0.5884573460 4290889936
-0.2811605632 -0.1563353240 0.5877142549 4291087315
-0.2808046341 -0.1554852575 0.5869702697 4291021522
-0.2800284922 -0.1544051319 0.5853478312 4290758865
-0.2800915837 -0.1537894011 0.5854797363 4290758865
-0.2797344327 -0.1529436260 0.5847331882 4290693072
-0.2793768644 -0.1520992815 0.5839857459 4290693072
-0.2798593044 -0.1517119706 0.5849941969 4290693072
-0.2790808082 -0.1506417692 0.5833669305 4290561486
-0.2787221074 -0.1498008221 0.5826171041 4290430157
-0.2783629894 -0.1489613205 0.5818664432 4290495950
-0.2784240544 -0.1483473629 0.5819940567 4290495180
-0.2780642211 -0.1475098282 0.5812419057 4290363594
-0.2777039707 -0.1466737539 0.5804888606 4290166215
-0.2773433030 -0.1458391398 0.5797349811 4290034629
-0.2769822478 -0.1450059861 0.5789802074 4290034629
-0.2766207755 -0.1441743076 0.5782246590 4290100422
-0.2762588859 -0.1433440745 0.5774681568 4290166215
-0.2758965790 -0.1425153315 0.5767108798 4290232008
-0.2755338848 -0.1416880637 0.5759527683 4290232008
-0.2751708031 -0.1408622563 0.5751937628 4290166215
-0.2752287686 -0.1402527243 0.5753149390 4290166473
-0.2748649716 -0.1394289583 0.5745544434 4290298059
-0.2745007277 -0.1386066675 0.5737931132 4290298059
-0.2741360962 -0.1377858818 0.5730309486 4290363852
-0.2741929293 -0.1371776164 0.5731496811 4290364107
-0.2742494941 -0.1365689784 0.5732679367 4290232521
-0.2738838494 -0.1357508004 0.5725035667 4290298059
-0.2739398777 -0.1351423562 0.5726207495 4290232266
-0.2744178474 -0.1347408295 0.5736198425 4290232266
-0.2744735181 -0.1341307014 0.5737361908 4290298059
-0.2745289505 -0.1335201859 0.5738520622 4290232266
-0.2745841444 -0.1329093277 0.5739674568 4290298059
-0.2746391296 -0.1322980821 0.5740823746 4290363852
-0.2746938467 -0.1316864789 0.5741968155 4290363852
-0.2747483552 -0.1310745031 0.5743107200 4290363852
-0.2748026252 -0.1304621696 0.5744241476 4290363852
-0.2748566866 -0.1298494786 0.5745371580 4290429645
-0.2749104798 -0.1292364150 0.5746496320 4290495438
-0.2749640644 -0.1286229938 0.5747615695 4290561231
-0.2750173807 -0.1280092299 0.5748730898 4290627024
-0.2750704885 -0.1273950934 0.5749840736 4290627024
-0.2751233578 -0.1267806143 0.5750945807 4290627024
-0.2751759887 -0.1261657774 0.5752046108 4290823890
-0.2752284110 -0.1255505830 0.5753141642 4290758097
-0.2752805650 -0.1249350384 0.5754231811 4290889683
-0.2753324807 -0.1243191436 0.5755317211 4290889683
-0.2753841579 -0.1237029061 0.5756397843 4290824403
-0.2754356265 -0.1230863258 0.5757473111 4290890196
-0.2754868269 -0.1224693954 0.5758543611 4290955989
-0.2755378187 -0.1218521222 0.5759609342 4290890196
-0.2755885422 -0.1212345064 0.5760669708 4290955989
-0.2756390274 -0.1206165478 0.5761725307 4290824403
-0.2756893039 -0.1199982539 0.5762775540 4290890196
-0.2757393122 -0.1193796247 0.5763821006 4290955989
-0.2757890821 -0.1187606528 0.5764861703 4291087575
-0.2758386135 -0.1181413531 0.5765897036 4291284954
-0.2763123512 -0.1177025214 0.5775799751 4291284954
-0.2763614655 -0.1170815974 0.5776826143 4291350747
-0.2764103711 -0.1164603457 0.5777848363 4291285469
-0.2768836617 -0.1160167083 0.5787742138 4291417055
-0.2773568928 -0.1155708283 0.5797633529 4291614434
-0.2786796391 -0.1154747754 0.5825282931 4292009192
-0.2795776725 -0.1151975766 0.5844055414 4292403437
-0.2804757953 -0.1149162278 0.5862828493 4292271851
-0.2813739479 -0.1146307290 0.5881602764 4292140265
-0.2822721303 -0.1143410727 0.5900377631 4292337644
-0.2835955322 -0.1142185032 0.5928041339 4292601069
-0.2844938636 -0.1139195785 0.5946819186 4292732655
-0.2858175635 -0.1137858108 0.5974488258 4292995564
-0.2871414125 -0.1136459708 0.6002161503 4293324529
-0.2822880745 -0.1737559587 0.5914442539 4290363594
-0.2827745676 -0.1733971238 0.5924634933 4290100422
-0.2828444541 -0.1727815419 0.5926099420 4289508285
-0.2829141319 -0.1721655279 0.5927559733 4289179320
-0.2829836011 -0.1715490520 0.5929015279 4288652976
-0.2830528617 -0.1709321141 0.5930466056 4288192425
-0.2831219137 -0.1703147292 0.5931912661 4287929253
-0.2831907272 -0.1696968973 0.5933354497 4287534493
-0.2832593322 -0.1690786034 0.5934792161 4287008149
-0.2833277285 -0.1684598625 0.5936225057 4286416012
-0.2833959162 -0.1678406894 0.5937653184 4286087047
-0.2834638655 -0.1672210544 0.5939077139 4286349449
-0.2835315764 -0.1666009873 0.5940496325 4285954691
-0.2835991085 -0.1659804732 0.5941910744 4285823359
-0.2832486331 -0.1651159674 0.5934567451 4285823359
-0.2833155990 -0.1644954830 0.5935971141 4285757566
-0.2833823562 -0.1638745666 0.5937369466 4285494394
-0.2834489048 -0.1632531881 0.5938763618 4285889152
-0.2835152149 -0.1626313925 0.5940153003 4286876047
-0.2831630409 -0.1617702097 0.5932773948 4287928481
-0.2828104496 -0.1609104127 0.5925386548 4288981169
-0.2824574411 -0.1600520462 0.5917990804 4289836478
-0.2816854715 -0.1589588672 0.5901816487 4290362822
-0.2821688354 -0.1585747749 0.5911943913 4290166213
-0.2818146646 -0.1577197164 0.5904523730 4289771455
-0.2814601064 -0.1568660736 0.5897094607 4290100420
-0.2811051011 -0.1560138464 0.5889657140 4290363592
-0.2807497084 -0.1551630348 0.5882210732 4290495180
-0.2803938985 -0.1543136537 0.5874755979 4290560973
-0.2796184421 -0.1532359719 0.5858508945 4290429900
-0.2796810269 -0.1526191980 0.5859820247 4290429900
-0.2793239653 -0.1517741233 0.5852339268 4290429900
-0.2789665163 -0.1509304941 0.5844849348 4290429900
-0.2786086500 -0.1500882953 0.5837351680 4290495693
-0.2782503664 -0.1492475420 0.5829845071 4290758865
-0.2778916657 -0.1484082490 0.5822329521 4290626511
-0.2779524326 -0.1477936506 0.5823602676 4290758097
-0.2775930166 -0.1469563395 0.5816072226 4290955476
-0.2772331834 -0.1461204737 0.5808533430 4290955476
-0.2768729329 -0.1452860683 0.5800985694 4290889683
-0.2765122950 -0.1444531381 0.5793429613 4290758097
-0.2765715718 -0.1438402683 0.5794671178 4290626511
-0.2762101889 -0.1430093497 0.5787100196 4290560718
-0.2758484185 -0.1421798915 0.5779520273 4290297546
-0.2759068310 -0.1415677071 0.5780743957 4290231753
-0.2747029960 -0.1403105408 0.5755521059 4290100680
-0.2747606635 -0.1397003829 0.5756729841 4290166473
-0.2743972838 -0.1388768554 0.5749115944 4290232266
-0.2744544148 -0.1382668763 0.5750313401 4290232266
-0.2745113373 -0.1376565248 0.5751506090 4290166473
-0.2741469145 -0.1368355900 0.5743870735 4290034887
-0.2742033005 -0.1362254173 0.5745051503 4290100680
-0.2738381624 -0.1354065388 0.5737401247 4290100680
-0.2738939822 -0.1347965449 0.5738571286 4290100680
-0.2743710577 -0.1343926340 0.5748566389 4290100680
-0.2744264901 -0.1337809563 0.5749728084 4290166473
-0.2744817138 -0.1331689209 0.5750885606 4290232266
-0.2745367289 -0.1325564981 0.5752037764 4290298059
-0.2745914757 -0.1319437325 0.5753185153 4290298059
-0.2742241323 -0.1311288476 0.5745488405 4290363852
-0.2742783427 -0.1305162758 0.5746623874 4290429645
-0.2743323445 -0.1299033463 0.5747755170 4290495438
-0.2743860781 -0.1292900592 0.5748881102 4290561231
-0.2744396031 -0.1286764145 0.5750002265 4290627024
-0.2744928896 -0.1280623972 0.5751118660 4290692817
-0.2741235495 -0.1272519678 0.5743380785 4290758610
-0.2741762698 -0.1266381890 0.5744485259 4290758610
-0.2742287815 -0.1260240525 0.5745585561 4290823890
-0.2742810249 -0.1254095733 0.5746680498 4290823890
-0.2743330598 -0.1247947440 0.5747770667 4290889683
-0.2743848562 -0.1241795644 0.5748855472 4290955476
-0.2744363844 -0.1235640422 0.5749935508 4290890196
-0.2744877040 -0.1229481623 0.5751010776 4290890196
-0.2745387852 -0.1223319471 0.5752080679 4290890196
-0.2745896280 -0.1217153817 0.5753145814 4290824403
-0.2746402323 -0.1210984811 0.5754206181 4290890196
-0.2746905982 -0.1204812378 0.5755261779 4290824403
-0.2747407258 -0.1198636517 0.5756311417 4290890196
-0.2747906148 -0.1192457378 0.5757356882 4290890196
-0.2748402357 -0.1186274812 0.5758396983 4291021782
-0.2748896480 -0.1180088893 0.5759432316 4291219161
-0.2753624618 -0.1175708473 0.5769338012 4291284954
-0.2758351564 -0.1171305627 0.5779241920 4291416540
-0.2758840024 -0.1165090650 0.5780265331 4291482594
-0.2763564289 -0.1160652563 0.5790163875 4291614180
-0.2768287957 -0.1156192124 0.5800060630 4291746020
-0.2781490684 -0.1155231297 0.5827722549 4292074985
-0.2790454626 -0.1152458340 0.5846503377 4292469228
-0.2799418867 -0.1149643883 0.5865285397 4292469228
-0.2808383703 -0.1146787852 0.5884068012 4292535276
-0.2821591794 -0.1145612970 0.5911741853 4292930034
-0.2830558121 -0.1142664179 0.5930528045 4293126898
-0.2843769193 -0.1141377315 0.5958207250 4293324277
-0.2809136212 -0.1733132452 0.5899373293 4290100167
-0.2809833586 -0.1727006435 0.5900837779 4289836481
-0.2810528576 -0.1720875800 0.5902297497 4289178551
-0.2811221778 -0.1714740545 0.5903753042 4288850355
-0.2811912596 -0.1708600968 0.5905203819 4288324011
-0.2812601328 -0.1702456623 0.5906649828 4287731874
-0.2813287973 -0.1696307957 0.5908091664 4287468702
-0.2813972235 -0.1690154672 0.5909529328 4287205528
-0.2814654708 -0.1683997065 0.5910962224 4286613391
-0.2815334797 -0.1677834839 0.5912390351 4286086277
-0.2816012800 -0.1671668291 0.5913814306 4285823105
-0.2816688418 -0.1665497124 0.5915233493 4285757566
-0.2817361951 -0.1659321636 0.5916647911 4285691773
-0.2818033397 -0.1653141677 0.5918058157 4285757566
-0.2818702757 -0.1646957248 0.5919463634 4285823359
-0.2819369733 -0.1640768498 0.5920864344 4286020225
-0.2820034623 -0.1634575427 0.5922260284 4285822846
-0.2820697129 -0.1628377885 0.5923652053 4285428086
-0.2817184031 -0.1619776338 0.5916274190 4285428086
-0.2822015882 -0.1615969837 0.5926421285 4285493881
-0.2818496227 -0.1607377827 0.5919029713 4285559674
