VERSION 0.7
FIELDS x y z rgba
SIZE 4 4 4 4
TYPE F F F U
COUNT 1 1 1 1
WIDTH 920
HEIGHT 1
VIEWPOINT 0.0 0.0 0.0 1.0 0.0 0.0 0.0
POINTS 920
DATA ascii
-0.2880915403 -0.1276595891 0.5593481064 4292789058
-0.2885957062 -0.1272604316 0.5603269339 4292789058
-0.2886509001 -0.1266620904 0.5604341030 4292854849
-0.2891548276 -0.1262594461 0.5614125133 4292854849
-0.2896586955 -0.1258546114 0.5623908639 4292920642
-0.2901625037 -0.1254475713 0.5633689761 4292920642
-0.2906662226 -0.1250383109 0.5643470287 4292986437
-0.2911698818 -0.1246268600 0.5653249025 4292986437
-0.2916734815 -0.1242132038 0.5663026571 4292986183
-0.2926264703 -0.1239877939 0.5681529641 4293183562
-0.2931299806 -0.1235687882 0.5691305399 4293249346
-0.2936334014 -0.1231475770 0.5701079965 4293315139
-0.2945865095 -0.1229118109 0.5719584823 4293249607
-0.2955396771 -0.1226719618 0.5738090873 4293118021
-0.2964929342 -0.1224280372 0.5756599307 4293053525
-0.2974462509 -0.1221800297 0.5775108337 4293448283
-0.3284245729 -0.1969675422 0.6390352845 4290750840
-0.3276253045 -0.1957799047 0.6374800801 4289961324
-0.3272664249 -0.1948579401 0.6367818117 4290091056
-0.3264659047 -0.1936755329 0.6352242231 4289696298
-0.3238996267 -0.1914528459 0.6302307844 4289432097
-0.3169178665 -0.1866408736 0.6166459918 4289168925
-0.2997778952 -0.1758986413 0.5832957029 4289103645
-0.2998518944 -0.1752938181 0.5834397078 4289366817
-0.2915330827 -0.1698003709 0.5672532916 4290155820
-0.2898373008 -0.1681860834 0.5639536977 4290484785
-0.2890242934 -0.1670894921 0.5623717904 4290025012
-0.2886526883 -0.1662506312 0.5616487861 4288445980
-0.2882806659 -0.1654131263 0.5609248877 4284367616
-0.2883504927 -0.1648298055 0.5610607266 4285222913
-0.2875353396 -0.1637422293 0.5594746470 4286933016
-0.2876045108 -0.1631598473 0.5596092343 4285946121
-0.2872308791 -0.1623269320 0.5588822365 4286802435
-0.2868568301 -0.1614953876 0.5581544638 4287657744
-0.2864823639 -0.1606652290 0.5574257970 4288579333
-0.2856645584 -0.1595890224 0.5558345914 4289303056
-0.2848461568 -0.1585160047 0.5542421341 4290157084
-0.2840270996 -0.1574461758 0.5526484251 4290354463
-0.2832074165 -0.1563795358 0.5510535240 4290484509
-0.2828303874 -0.1555599123 0.5503199697 4290352923
-0.2824529707 -0.1547416896 0.5495855808 4290418455
-0.2825186253 -0.1541668922 0.5497133732 4290550041
-0.2825841010 -0.1535917073 0.5498407483 4290418716
-0.2826493382 -0.1530161053 0.5499676466 4290352923
-0.2827143669 -0.1524401158 0.5500941873 4290418716
-0.2827791572 -0.1518637240 0.5502202511 4290418716
-0.2828437388 -0.1512869447 0.5503459573 4290090268
-0.2829081416 -0.1507097632 0.5504711866 4289892889
-0.2834165096 -0.1503678709 0.5514603853 4289892373
-0.2834805548 -0.1497890055 0.5515850186 4289958166
-0.2835443616 -0.1492097378 0.5517091751 4289958165
-0.2836079895 -0.1486300826 0.5518329740 4290023958
-0.2836713493 -0.1480500400 0.5519562960 4290155544
-0.2832897902 -0.1472384632 0.5512138605 4290287130
-0.2833526433 -0.1466585398 0.5513361692 4290418714
-0.2834152877 -0.1460782439 0.5514580011 4290550300
-0.2830326557 -0.1452691555 0.5507135391 4290682140
-0.2835398614 -0.1449165046 0.5517004132 4290813726
-0.2831566036 -0.1441084743 0.5509546995 4291011103
-0.2832182646 -0.1435275674 0.5510746241 4291076896
-0.2828342617 -0.1427215189 0.5503274798 4291076894
-0.2828953564 -0.1421407610 0.5504463911 4291274273
-0.2829562426 -0.1415596306 0.5505648255 4291471654
-0.2825711966 -0.1407561153 0.5498156548 4291537447
-0.2826315463 -0.1401751637 0.5499330163 4291406629
-0.2826916575 -0.1395938247 0.5500500202 4291472422
-0.2831975222 -0.1392313838 0.5510342717 4291669031
-0.2832572758 -0.1386484057 0.5511505604 4291734824
-0.2833167911 -0.1380650401 0.5512663722 4291604010
-0.2833760977 -0.1374813169 0.5513817668 4291735596
-0.2834351659 -0.1368972212 0.5514967442 4291801389
-0.2839404643 -0.1365274340 0.5524799228 4291867182
-0.2839992046 -0.1359416991 0.5525941849 4291867182
-0.2840576768 -0.1353555918 0.5527079701 4292130354
-0.2841159403 -0.1347691268 0.5528213382 4292196147
-0.2841739655 -0.1341823041 0.5529342294 4292130354
-0.2846786678 -0.1338051856 0.5539162755 4292130867
-0.2847363353 -0.1332167089 0.5540284514 4292394039
-0.2847937644 -0.1326278895 0.5541402102 4292459578
-0.2848509550 -0.1320387125 0.5542514920 4292459578
-0.2853551805 -0.1316555440 0.5552325845 4292460091
-0.2854120135 -0.1310647279 0.5553431511 4292525884
-0.2859160304 -0.1306780726 0.5563238859 4292591677
-0.2859724760 -0.1300856322 0.5564336777 4292657470
-0.2860286832 -0.1294928491 0.5565430522 4292723263
-0.2865323722 -0.1291014254 0.5575231314 4292789056
-0.2865881920 -0.1285070032 0.5576317310 4292657470
-0.2870916724 -0.1281121075 0.5586113930 4292591677
-0.2875950634 -0.1277150065 0.5595908761 4292723263
-0.2880984247 -0.1273157001 0.5605702400 4292723263
-0.2881535590 -0.1267171055 0.5606775284 4292789056
-0.2886566818 -0.1263143122 0.5616564751 4292789056
-0.2891597152 -0.1259093285 0.5626353025 4292854849
-0.2896626890 -0.1255021244 0.5636140108 4292920642
-0.2901656032 -0.1250927150 0.5645925403 4292986437
-0.2906684577 -0.1246811002 0.5655709505 4293052230
-0.2911711931 -0.1242672801 0.5665491819 4292986183
-0.2921226025 -0.1240417957 0.5684003830 4293183562
-0.2926253080 -0.1236226261 0.5693784952 4293183555
-0.2931278944 -0.1232012510 0.5703564286 4293183555
-0.2940793931 -0.1229653955 0.5722078681 4293249607
-0.2950309813 -0.1227254644 0.5740593672 4293249607
-0.2959826291 -0.1224814504 0.5759111047 4293119577
-0.2969343662 -0.1222333536 0.5777629018 4293448542
-0.3269722462 -0.1965212375 0.6375873089 4290948732
-0.3261742294 -0.1953349262 0.6360311508 4289830251
-0.3258158267 -0.1944143772 0.6353322864 4290026028
-0.3250165582 -0.1932332963 0.6337737441 4289762856
-0.3220140636 -0.1907505393 0.6279189587 4289563936
-0.3141629398 -0.1854191571 0.6126095057 4289234971
-0.2992559969 -0.1759727001 0.5835413337 4289038620
-0.2935990095 -0.1720101088 0.5725103617 4289301792
-0.2910256684 -0.1698719263 0.5674923658 4289958952
-0.2893328965 -0.1682569981 0.5641915202 4290222124
-0.2889625132 -0.1674155742 0.5634693503 4290091060
-0.2881504595 -0.1663208008 0.5618858337 4289301544
-0.2877791524 -0.1654829830 0.5611617565 4285486083
-0.2878488898 -0.1648994386 0.5612977743 4285683462
-0.2874768376 -0.1640634686 0.5605722666 4286406674
-0.2871043384 -0.1632288545 0.5598459244 4285748744
-0.2871732116 -0.1626458466 0.5599802136 4286144256
-0.2863580883 -0.1615637541 0.5583907366 4287196942
-0.2859843075 -0.1607332826 0.5576618910 4288184322
-0.2856101096 -0.1599041820 0.5569322109 4288908045
-0.2843510509 -0.1585832089 0.5544770956 4289762327
-0.2835334837 -0.1575129479 0.5528828502 4290091292
-0.2827152908 -0.1564458907 0.5512873530 4290419233
-0.2823389769 -0.1556259543 0.5505536199 4290419233
-0.2819622755 -0.1548074186 0.5498189926 4290418203
-0.2815851271 -0.1539902836 0.5490835905 4290549789
-0.2820932567 -0.1536569893 0.5500744581 4290550302
-0.2821584642 -0.1530811936 0.5502015352 4290418716
-0.2822234035 -0.1525049806 0.5503282547 4290484507
-0.2822881639 -0.1519283801 0.5504544973 4290484507
-0.2827959657 -0.1515889764 0.5514446497 4290286877
-0.2828603685 -0.1510106623 0.5515702963 4289957912
-0.2829245627 -0.1504319757 0.5516954660 4289826580
-0.2829885483 -0.1498528868 0.5518202782 4289958166
-0.2830523252 -0.1492733955 0.5519446135 4290023959
-0.2831158638 -0.1486935169 0.5520685315 4290089752
-0.2831791937 -0.1481132507 0.5521919727 4290155544
-0.2832423151 -0.1475325972 0.5523150563 4290287130
-0.2833051980 -0.1469515562 0.5524376631 4290352921
-0.2829237282 -0.1461407095 0.5516937971 4290418714
-0.2825418115 -0.1453313082 0.5509490967 4290616347
-0.2830481827 -0.1449785382 0.5519365668 4290813726
-0.2826656699 -0.1441701800 0.5511906147 4291011103
-0.2827272415 -0.1435890496 0.5513107181 4291011103
-0.2823439837 -0.1427826881 0.5505633354 4291076894
-0.2824050188 -0.1422017068 0.5506823659 4291274273
-0.2824658453 -0.1416203529 0.5508009791 4291471652
-0.2820815146 -0.1408165246 0.5500515699 4291603238
-0.2821418047 -0.1402353346 0.5501691103 4291537700
-0.2822018564 -0.1396537870 0.5502862334 4291603493
-0.2827069163 -0.1392912120 0.5512710214 4291669031
-0.2827666104 -0.1387079954 0.5513874888 4291669031
-0.2828260958 -0.1381244063 0.5515034199 4291604010
-0.2828853428 -0.1375404596 0.5516189933 4291735596
-0.2829443812 -0.1369561404 0.5517340899 4291801389
-0.2834488451 -0.1365862191 0.5527178049 4291801389
-0.2835074961 -0.1360002458 0.5528321862 4291801387
-0.2835659385 -0.1354139149 0.5529461503 4292064559
-0.2836241424 -0.1348272264 0.5530596375 4292130352
-0.2841281593 -0.1344512403 0.5540424585 4292064559
-0.2841860056 -0.1338629127 0.5541552305 4292130867
-0.2842436135 -0.1332742125 0.5542675853 4292394039
-0.2843009830 -0.1326851547 0.5543794632 4292525371
-0.2843581438 -0.1320957541 0.5544909239 4292525371
-0.2848615348 -0.1317124367 0.5554725528 4292262710
-0.2849183083 -0.1311213970 0.5555832386 4292460089
-0.2854215205 -0.1307345927 0.5565644503 4292591675
-0.2854779363 -0.1301419139 0.5566744208 4292657468
-0.2859809399 -0.1297516227 0.5576552749 4292723261
-0.2860369384 -0.1291573197 0.5577645302 4292723261
-0.2865397334 -0.1287635565 0.5587449670 4292723261
-0.2870424688 -0.1283675730 0.5597252846 4292657468
-0.2875451446 -0.1279693842 0.5607054830 4292657468
-0.2876004577 -0.1273709089 0.5608133674 4292723261
-0.2881029248 -0.1269692332 0.5617931485 4292723261
-0.2881578505 -0.1263691336 0.5619002581 4292789054
-0.2886600792 -0.1259639859 0.5628795624 4292854847
-0.2891622484 -0.1255566329 0.5638588071 4292986433
-0.2896643281 -0.1251470596 0.5648378134 4293052228
-0.2901663482 -0.1247352883 0.5658167601 4293052228
-0.2911161482 -0.1245128661 0.5676688552 4292986183
-0.2916181087 -0.1240957454 0.5686476231 4293183562
-0.2921199799 -0.1236764193 0.5696262717 4293183301
-0.2930698693 -0.1234436259 0.5714785457 4293183301
-0.2935716510 -0.1230189428 0.5724570155 4293183816
-0.2945216298 -0.1227789298 0.5743094683 4293315402
-0.2954716980 -0.1225348264 0.5761620402 4293250914
-0.2968702614 -0.1224716455 0.5788892508 4293448293
-0.3255222738 -0.1960744113 0.6361376047 4290686337
-0.3251649141 -0.1951531321 0.6354392171 4289567856
-0.3243675530 -0.1939703077 0.6338810921 4290025774
-0.3231299222 -0.1925285906 0.6314624548 4289762602
-0.3201324046 -0.1900475025 0.6256046891 4289630240
-0.3122947514 -0.1847165823 0.6102882624 4289498654
-0.3114922941 -0.1835656315 0.6087201238 4289170718
-0.2935264707 -0.1723408550 0.5736111999 4288973339
-0.2909577787 -0.1702009290 0.5685914159 4289629987
-0.2888278365 -0.1683278531 0.5644291043 4289958952
-0.2884581685 -0.1674861163 0.5637067556 4290156083
-0.2880881131 -0.1666457206 0.5629835129 4290090290
-0.2877176106 -0.1658066958 0.5622594953 4287130395
-0.2873466611 -0.1649690270 0.5615345836 4286209293
-0.2874161303 -0.1643848419 0.5616703629 4285485572
-0.2874853909 -0.1638002545 0.5618056655 4285025024
-0.2866723537 -0.1627145708 0.5602168441 4285486080
-0.2862998247 -0.1618814915 0.5594888926 4286670349
-0.2859268785 -0.1610497981 0.5587600470 4287789568
-0.2851121426 -0.1599718481 0.5571678877 4288644877
-0.2842967808 -0.1588970721 0.5555745363 4289630489
-0.2834807932 -0.1578254998 0.5539799333 4289959454
-0.2826641798 -0.1567571163 0.5523840785 4290287649
-0.2818469405 -0.1556919217 0.5507870317 4290156063
-0.2814709246 -0.1548730731 0.5500522256 4290352924
-0.2815364897 -0.1542978585 0.5501803160 4290550303
-0.2816018164 -0.1537222266 0.5503079891 4290681375
-0.2816669345 -0.1531462073 0.5504352450 4290549789
-0.2817318439 -0.1525697857 0.5505620837 4290484761
-0.2817965448 -0.1519929618 0.5506885052 4290550554
-0.2823035121 -0.1516534537 0.5516791940 4290221854
-0.2823678553 -0.1510749310 0.5518050194 4289827096
-0.2824320197 -0.1504960060 0.5519303679 4289694994
-0.2824959457 -0.1499167085 0.5520552993 4289892373
-0.2825596333 -0.1493370086 0.5521797538 4290023959
-0.2826231420 -0.1487569064 0.5523038507 4290089752
-0.2826864123 -0.1481764317 0.5524274707 4290089751
-0.2827494740 -0.1475955546 0.5525507331 4290221337
-0.2828122973 -0.1470142901 0.5526735187 4290352921
-0.2828749120 -0.1464326382 0.5527958870 4290418714
-0.2824938297 -0.1456220001 0.5520511270 4290550554
-0.2825559080 -0.1450404972 0.5521724820 4290747933
-0.2821740806 -0.1442318261 0.5514262915 4290945312
-0.2822356224 -0.1436504722 0.5515465736 4291076898
-0.2822969258 -0.1430687457 0.5516663790 4291142689
-0.2819140553 -0.1422625929 0.5509181619 4291208482
-0.2815307677 -0.1414579004 0.5501691699 4291405859
-0.2815912366 -0.1408768594 0.5502873063 4291537445
-0.2816514671 -0.1402954608 0.5504049659 4291537445
-0.2817114592 -0.1397136748 0.5505222678 4291603238
-0.2822156847 -0.1393509805 0.5515075922 4291603238
-0.2822753191 -0.1387675405 0.5516241789 4291669031
-0.2823347449 -0.1381837279 0.5517402887 4291669803
-0.2823939621 -0.1375995576 0.5518559813 4291801389
-0.2824529111 -0.1370150149 0.5519711971 4291801389
-0.2829565704 -0.1366449445 0.5529554486 4291735596
-0.2830151916 -0.1360587478 0.5530700088 4291801389
-0.2830735743 -0.1354721934 0.5531840920 4292064561
-0.2831317186 -0.1348852664 0.5532977581 4292196147
-0.2836349308 -0.1345091462 0.5542810559 4292196147
-0.2836927176 -0.1339205801 0.5543940067 4292130867
-0.2837502658 -0.1333316565 0.5545064807 4292394039
-0.2838076055 -0.1327423751 0.5546185374 4292525114
-0.2838646770 -0.1321527362 0.5547301173 4292525114
-0.2843672633 -0.1317692846 0.5557122827 4292394039
-0.2844240069 -0.1311780065 0.5558230877 4292459832
-0.2849263847 -0.1307910532 0.5568048358 4292657211
-0.2849827111 -0.1301981509 0.5569149852 4292657211
-0.2854849100 -0.1298077106 0.5578963161 4292657211
-0.2859870195 -0.1294150651 0.5588775873 4292723004
-0.2860428393 -0.1288192570 0.5589866638 4292788797
-0.2865447402 -0.1284231246 0.5599675179 4292723004
-0.2870466113 -0.1280247867 0.5609481931 4292657211
-0.2871018946 -0.1274260730 0.5610562563 4292723004
-0.2876034975 -0.1270242482 0.5620365143 4292788797
-0.2881050706 -0.1266202182 0.5630167127 4292854590
-0.2881598175 -0.1260185987 0.5631236434 4292920383
-0.2886611521 -0.1256110817 0.5641033649 4293051969
-0.2896093428 -0.1253948808 0.5659562945 4293051969
-0.2901106179 -0.1249820143 0.5669358969 4293051969
-0.2906118035 -0.1245669350 0.5679153800 4293117769
-0.2911129296 -0.1241496578 0.5688946247 4293183562
-0.2916139662 -0.1237301603 0.5698738098 4293249096
-0.2925622761 -0.1234972924 0.5717269778 4293314889
-0.2930632234 -0.1230724454 0.5727059841 4293315149
-0.2940116227 -0.1228323430 0.5745592713 4293578321
-0.2949600816 -0.1225881502 0.5764127970 4293513836
-0.2963562906 -0.1225249618 0.5791412592 4293448043
-0.3236361444 -0.1953623444 0.6338274479 4290555278
-0.3232791424 -0.1944433898 0.6331282258 4289831555
-0.3224829137 -0.1932627708 0.6315689087 4290223673
-0.3216860294 -0.1920852065 0.6300082207 4289631536
-0.3186936080 -0.1896049082 0.6241477132 4289761826
-0.3170166910 -0.1879173964 0.6208634973 4289893412
-0.2933791280 -0.1732674241 0.5745703578 4289433891
-0.2991626263 -0.1760321409 0.5858970881 4288907547
-0.2904482782 -0.1702724695 0.5688304305 4289234977
-0.2887616456 -0.1686553508 0.5655272603 4289761321
-0.2879531980 -0.1675565839 0.5639439225 4290221363
-0.2875838280 -0.1667158753 0.5632205009 4290550328
-0.2872140408 -0.1658765227 0.5624963045 4288906290
-0.2868438065 -0.1650385410 0.5617712140 4287590430
-0.2869132161 -0.1644541472 0.5619071722 4286077193
-0.2869823873 -0.1638693362 0.5620426536 4285550849
-0.2870513797 -0.1632841080 0.5621777177 4285617664
-0.2857990265 -0.1619498432 0.5597251058 4286604554
-0.2854267955 -0.1611178219 0.5589960814 4287789057
-0.2850541174 -0.1602871865 0.5582662225 4288775952
-0.2842403650 -0.1592110991 0.5566724539 4289761564
-0.2829851806 -0.1578922570 0.5542142391 4290222115
-0.2821700275 -0.1568234563 0.5526178479 4290221856
-0.2817952633 -0.1560019851 0.5518838763 4290090270
-0.2814200819 -0.1551819146 0.5511490703 4290352923
-0.2814856768 -0.1546055675 0.5512775183 4290484509
-0.2815510631 -0.1540288329 0.5514056087 4290681376
-0.2816162109 -0.1534516960 0.5515332222 4290615583
-0.2816811800 -0.1528741419 0.5516604185 4290550300
-0.2817459106 -0.1522962004 0.5517871976 4290550300
-0.2818104327 -0.1517178714 0.5519135594 4290221852
-0.2823165357 -0.1513760239 0.5529047847 4289827094
-0.2823807299 -0.1507959813 0.5530304909 4289629201
-0.2824446857 -0.1502155513 0.5531557202 4289760787
-0.2825084329 -0.1496347189 0.5532805920 4289958166
-0.2825719714 -0.1490534991 0.5534050465 4290023959
-0.2826353014 -0.1484718919 0.5535290241 4290023958
-0.2826983929 -0.1478898823 0.5536525846 4290155544
-0.2827612758 -0.1473074853 0.5537757277 4290352921
-0.2823813260 -0.1464950889 0.5530316234 4290418714
-0.2824436426 -0.1459128410 0.5531536937 4290484761
-0.2820629776 -0.1451024115 0.5524081588 4290682140
-0.2821247578 -0.1445202976 0.5525291562 4290879519
-0.2817433476 -0.1437118500 0.5517821908 4291011105
-0.2818045914 -0.1431299001 0.5519021749 4291142689
-0.2814224660 -0.1423234195 0.5511537194 4291208482
-0.2810398936 -0.1415184140 0.5504044890 4291274275
-0.2811003029 -0.1409371644 0.5505228043 4291405861
-0.2811604738 -0.1403555274 0.5506406426 4291405859
-0.2812204063 -0.1397735178 0.5507580638 4291537445
-0.2817237973 -0.1394106895 0.5517439246 4291603238
-0.2817834020 -0.1388270259 0.5518606305 4291669031
-0.2818427682 -0.1382429898 0.5519769192 4291669803
-0.2819019258 -0.1376585960 0.5520927906 4291735596
-0.2819608450 -0.1370738149 0.5522081852 4291866412
-0.2824636698 -0.1367036253 0.5531929135 4291932205
-0.2825222313 -0.1361172050 0.5533075929 4291801389
-0.2825805545 -0.1355304122 0.5534218550 4291998768
-0.2826386690 -0.1349432617 0.5535356402 4292196147
-0.2831410468 -0.1345670074 0.5545194745 4292196147
-0.2831987739 -0.1339782178 0.5546326041 4292130867
-0.2832562923 -0.1333890557 0.5547451973 4292262453
-0.2833135426 -0.1327995509 0.5548573732 4292459321
-0.2838154435 -0.1324172169 0.5558403134 4292459321
-0.2838723660 -0.1318260729 0.5559517741 4292459832
-0.2843740582 -0.1314402670 0.5569343567 4292459832
-0.2844305933 -0.1308474690 0.5570450425 4292525371
-0.2844868898 -0.1302543283 0.5571553111 4292591164
-0.2849882543 -0.1298637539 0.5581371784 4292656957
-0.2850441635 -0.1292689741 0.5582466722 4292656957
-0.2859907746 -0.1290759593 0.5601006150 4292723004
-0.2860463858 -0.1284786314 0.5602095127 4292657211
-0.2865474224 -0.1280801445 0.5611907244 4292656957
-0.2866026461 -0.1274811924 0.5612989068 4292722750
-0.2871034443 -0.1270792037 0.5622797012 4292854336
-0.2871582806 -0.1264786273 0.5623871088 4292920129
-0.2876588702 -0.1260731667 0.5633674860 4292985922
-0.2881593704 -0.1256655008 0.5643477440 4293051715
-0.2891059816 -0.1254492104 0.5662015676 4293051715
-0.2896064222 -0.1250361949 0.5671817064 4293051715
-0.2901068032 -0.1246209592 0.5681616664 4292921160
-0.2906070948 -0.1242035180 0.5691414475 4292921160
-0.2911073267 -0.1237838566 0.5701211095 4293248843
-0.2920540273 -0.1235509068 0.5719751716 4293380429
-0.2925541699 -0.1231258959 0.5729547143 4293446737
-0.2935009301 -0.1228857115 0.5748089552 4293775702
-0.2944478095 -0.1226414368 0.5766633153 4293645430
-0.2958416343 -0.1225782335 0.5793930292 4293513844
-0.3221916854 -0.1949143708 0.6323740482 4290621597
-0.3218351305 -0.1939968467 0.6316742301 4290029460
-0.3210401833 -0.1928175539 0.6301139593 4290289985
-0.3202445507 -0.1916413158 0.6285523176 4289697848
-0.3172572255 -0.1891617924 0.6226890683 4289762853
-0.3098850548 -0.1840904355 0.6082195044 4289565474
-0.2933021486 -0.1735995710 0.5756717920 4289040159
-0.2990756631 -0.1763646007 0.5870036483 4288974366
-0.2903768122 -0.1706016511 0.5699301362 4289498919
-0.2886933088 -0.1689830124 0.5666258931 4289696298
-0.2878864408 -0.1678829044 0.5650422573 4290287156
-0.2870789170 -0.1667859554 0.5634573102 4290418742
-0.2867098153 -0.1659462899 0.5627328753 4289432374
-0.2867794931 -0.1653612256 0.5628696084 4288116514
-0.2864096463 -0.1645233929 0.5621437430 4286471687
-0.2864787877 -0.1639383584 0.5622794032 4285945344
-0.2865476906 -0.1633529216 0.5624146461 4286407680
-0.2857371867 -0.1622677594 0.5608238578 4287065610
-0.2853657603 -0.1614345312 0.5600948930 4288118020
-0.2849939167 -0.1606026739 0.5593650341 4288841743
-0.2841817439 -0.1595252603 0.5577709675 4289827611
-0.2829289138 -0.1582050025 0.5553119779 4290353955
-0.2821153700 -0.1571348757 0.5537152290 4290485024
-0.2817414105 -0.1563121825 0.5529812574 4290485024
-0.2813670635 -0.1554908901 0.5522464514 4290550300
-0.2809922695 -0.1546709985 0.5515108705 4290550300
-0.2810575664 -0.1540940553 0.5516390800 4290616096
-0.2811226845 -0.1535166949 0.5517668724 4290550303
-0.2816283107 -0.1531786472 0.5527592301 4290484509
-0.2816931009 -0.1525995880 0.5528864264 4290484509
-0.2817576528 -0.1520201266 0.5530131459 4290156061
-0.2818219960 -0.1514402628 0.5531393886 4289827096
-0.2823272645 -0.1510960907 0.5541310906 4289629201
-0.2819500268 -0.1502793580 0.5533907413 4289760787
-0.2824550569 -0.1499325782 0.5543819666 4289892373
-0.2820772231 -0.1491168737 0.5536403060 4290023959
-0.2821404636 -0.1485350430 0.5537644625 4290023958
-0.2822034955 -0.1479528248 0.5538882017 4290155544
-0.2822663188 -0.1473702043 0.5540115237 4290287128
-0.2818870842 -0.1465574950 0.5532671809 4290352921
-0.2815074325 -0.1457462162 0.5525220633 4290353175
-0.2820114195 -0.1453921497 0.5535112023 4290484761
-0.2816311419 -0.1445819438 0.5527648330 4290747933
-0.2812504470 -0.1437731683 0.5520176291 4291076898
-0.2813116610 -0.1431909949 0.5521377325 4291208484
-0.2809302211 -0.1423842013 0.5513890982 4291208484
-0.2809908986 -0.1418021917 0.5515081882 4291208482
-0.2806087136 -0.1409973949 0.5507580638 4291340068
-0.2806688547 -0.1404155493 0.5508760810 4291340066
-0.2807287574 -0.1398333162 0.5509936810 4291340066
-0.2812313139 -0.1394703537 0.5519800186 4291537445
-0.2812908590 -0.1388864666 0.5520969033 4291734824
-0.2813501656 -0.1383022070 0.5522133708 4291669801
-0.2814092636 -0.1377175748 0.5523293614 4291735594
-0.2814681232 -0.1371325850 0.5524448752 4291932203
-0.2819701135 -0.1367622614 0.5534301400 4291932203
-0.2820286453 -0.1361756027 0.5535449982 4291734826
-0.2820869088 -0.1355885863 0.5536593795 4291932205
-0.2821449637 -0.1350012124 0.5537733436 4292064561
-0.2826465070 -0.1346248090 0.5547577143 4292130354
-0.2827042043 -0.1340357959 0.5548709035 4292130867
-0.2827616632 -0.1334464103 0.5549836755 4292262453
-0.2828188837 -0.1328566670 0.5550960302 4292525112
-0.2833199501 -0.1324741989 0.5560795069 4292525112
-0.2833768129 -0.1318828166 0.5561910868 4292394039
-0.2838776708 -0.1314968616 0.5571741462 4292459832
-0.2839341462 -0.1309038401 0.5572850108 4292459578
-0.2839904130 -0.1303104609 0.5573953986 4292525371
-0.2844909430 -0.1299197376 0.5583778024 4292656957
-0.2845467925 -0.1293247342 0.5584874749 4292656957
-0.2850471139 -0.1289305091 0.5594694614 4292657211
-0.2855473757 -0.1285340786 0.5604513288 4292657211
-0.2860475779 -0.1281354427 0.5614330769 4292723004
-0.2861027718 -0.1275362521 0.5615413785 4292788797
-0.2866027355 -0.1271341294 0.5625227094 4292788543
-0.2871026397 -0.1267297864 0.5635038614 4292854336
-0.2871572971 -0.1261276901 0.5636111498 4292920129
-0.2881022692 -0.1259144843 0.5654658675 4292985922
-0.2886019647 -0.1255035102 0.5664466023 4293051715
-0.2895470560 -0.1252830774 0.5683015585 4293051715
-0.2900466621 -0.1248667389 0.5692821741 4292855625
-0.2905462384 -0.1244482026 0.5702626705 4292855625
-0.2910456955 -0.1240274459 0.5712430477 4293183313
-0.2915450931 -0.1236044765 0.5722231865 4293446485
-0.2924902737 -0.1233673617 0.5740783215 4293447000
-0.2934355438 -0.1231261492 0.5759336352 4293775965
-0.2943808734 -0.1228808537 0.5777890682 4293711488
-0.2953262925 -0.1226314604 0.5796446204 4293579902
-0.3207495809 -0.1944658756 0.6309189796 4290687652
-0.3203935325 -0.1935497820 0.6302185655 4289963929
-0.3195998073 -0.1923718154 0.6286573410 4290159169
-0.3188054264 -0.1911969185 0.6270947456 4289698618
-0.2987635136 -0.1785242558 0.5876720548 4289697828
-0.3093389571 -0.1841674894 0.6084741354 4288908312
-0.3094159067 -0.1835370660 0.6086254716 4288514069
-0.2932956815 -0.1733340025 0.5769167542 4289106206
-0.2903031409 -0.1709309965 0.5710303783 4290091310
-0.2881847918 -0.1690538824 0.5668635964 4289893931
-0.2873794138 -0.1679533571 0.5652793646 4290550326
-0.2865733802 -0.1668559909 0.5636938810 4290747705
-0.2862049937 -0.1660159975 0.5629692674 4290024762
-0.2862745821 -0.1654307097 0.5631061792 4288840488
-0.2863439620 -0.1648450047 0.5632426143 4287656212
-0.2859745324 -0.1640073210 0.5625159144 4287458833
-0.2860433757 -0.1634216607 0.5626513362 4287394824
-0.2856731713 -0.1625858396 0.5619232059 4287789582
-0.2853025794 -0.1617513895 0.5611941814 4288578822
-0.2849315405 -0.1609183103 0.5604643822 4288973580
-0.2836818099 -0.1595925242 0.5580061674 4289696023
-0.2828705013 -0.1585178822 0.5564102530 4290156574
-0.2820585370 -0.1574464291 0.5548131466 4290353693
-0.2816854119 -0.1566225290 0.5540791750 4290551072
-0.2813118398 -0.1558000147 0.5533443689 4290813724
-0.2809378803 -0.1549789160 0.5526087880 4290682138
-0.2810032368 -0.1544008404 0.5527373552 4290615842
-0.2810683846 -0.1538223624 0.5528655052 4290484256
-0.2811333239 -0.1532434821 0.5529932380 4290352670
-0.2816380858 -0.1529031247 0.5539861321 4290352670
-0.2817026973 -0.1523225307 0.5541132092 4290024990
-0.2817671001 -0.1517415494 0.5542398691 4289761818
-0.2818312645 -0.1511601657 0.5543660522 4289760786
-0.2818952203 -0.1505783945 0.5544918776 4289826579
-0.2823995054 -0.1502305865 0.5554838181 4289892373
-0.2820224762 -0.1494136453 0.5547421575 4289958166
-0.2820857763 -0.1488306820 0.5548666716 4290089751
-0.2821488380 -0.1482473314 0.5549907684 4290089751
-0.2822117209 -0.1476635933 0.5551144481 4290155542
-0.2818332911 -0.1468496472 0.5543700457 4290287128
-0.2810133100 -0.1458082348 0.5527571440 4290221589
-0.2815164626 -0.1454540491 0.5537468791 4290287382
-0.2811369002 -0.1446435153 0.5530002713 4290616093
-0.2807569206 -0.1438344270 0.5522528291 4291010851
-0.2808180749 -0.1432520300 0.5523731112 4291208484
-0.2808789909 -0.1426692456 0.5524929762 4291208484
-0.2804979682 -0.1418626904 0.5517435074 4291274275
-0.2805583477 -0.1412800699 0.5518622398 4291340068
-0.2806185186 -0.1406970769 0.5519806147 4291340066
-0.2806784511 -0.1401137114 0.5520985126 4291274273
-0.2807381749 -0.1395299584 0.5522159338 4291471907
-0.2807976604 -0.1389458477 0.5523329973 4291735079
-0.2808569372 -0.1383613646 0.5524495840 4291670056
-0.2809159756 -0.1377765089 0.5525656939 4291735849
-0.2809748054 -0.1371912956 0.5526813865 4291997996
-0.2810333669 -0.1366056949 0.5527966619 4291932203
-0.2815344036 -0.1362339556 0.5537821651 4291734826
-0.2815926373 -0.1356467158 0.5538967252 4291932205
-0.2816506326 -0.1350591034 0.5540108085 4292064561
-0.2821513414 -0.1346825659 0.5549957156 4292196147
-0.2822089791 -0.1340933144 0.5551090837 4292130867
-0.2822663784 -0.1335037053 0.5552219748 4292196660
-0.2823235691 -0.1329137236 0.5553344488 4292327731
-0.2828238010 -0.1325311214 0.5563184023 4292327731
-0.2828806043 -0.1319395006 0.5564301610 4292197171
-0.2833806574 -0.1315534115 0.5574137568 4292328757
-0.2834370732 -0.1309601516 0.5575247407 4292328503
-0.2839369476 -0.1305705607 0.5585079789 4292460089
-0.2839929760 -0.1299756765 0.5586181879 4292591675
-0.2840487957 -0.1293804348 0.5587279797 4292591675
-0.2845482826 -0.1289860606 0.5597105026 4292591929
-0.2850477397 -0.1285894960 0.5606929064 4292723515
-0.2855471075 -0.1281906962 0.5616751909 4292723261
-0.2856022120 -0.1275912672 0.5617836118 4292723261
-0.2865456343 -0.1273864955 0.5636393428 4292723261
-0.2870447934 -0.1269810647 0.5646212101 4292789054
-0.2875438929 -0.1265734285 0.5656028986 4292854847
-0.2880429327 -0.1261635721 0.5665845275 4292854847
-0.2885418832 -0.1257515103 0.5675659776 4292920640
-0.2890407741 -0.1253372431 0.5685473084 4292986433
-0.2895395756 -0.1249207482 0.5695284605 4292856143
-0.2900382876 -0.1245020479 0.5705094337 4292987729
-0.2905369401 -0.1240811348 0.5714902878 4293380439
-0.2914805412 -0.1238470823 0.5733463168 4293643611
-0.2919791043 -0.1234207973 0.5743269920 4293709922
-0.2929227352 -0.1231795028 0.5761831999 4294038887
-0.2938664854 -0.1229341179 0.5780395269 4293908616
-0.2952556312 -0.1228699610 0.5807719827 4293908616
-0.3193098605 -0.1940168738 0.6294621825 4290428078
-0.3189542890 -0.1931022108 0.6287612319 4289243804
-0.3181618154 -0.1919255704 0.6271990538 4289697597
-0.3173686862 -0.1907519996 0.6256355047 4289302839
-0.3148282468 -0.1885355413 0.6206275225 4289564699
-0.2991833687 -0.1785112768 0.5897864103 4289301527
-0.3093059361 -0.1838735491 0.6097412109 4288973339
-0.2932143807 -0.1736653596 0.5780196190 4289170718
-0.2897901833 -0.1710025519 0.5712694526 4290285864
-0.2881128490 -0.1693817228 0.5679628849 4290614829
-0.2868717313 -0.1680237502 0.5655162334 4290944057
-0.2860671878 -0.1669259518 0.5639302135 4291338815
-0.2856995165 -0.1660856456 0.5632054210 4290552888
-0.2857690454 -0.1655001491 0.5633425117 4289565993
-0.2858383656 -0.1649142206 0.5634791255 4289169436
-0.2854696214 -0.1640762240 0.5627522469 4288840471
-0.2855384052 -0.1634903550 0.5628878474 4288643337
-0.2856069803 -0.1629040539 0.5630230308 4288906509
-0.2847990394 -0.1618194282 0.5614302754 4289038095
-0.2853052318 -0.1614821404 0.5624281764 4289301267
-0.2840579748 -0.1601540297 0.5599694252 4289827611
-0.2832483351 -0.1590771675 0.5583733916 4290090783
-0.2824380994 -0.1580034941 0.5567761064 4290287647
-0.2816272080 -0.1569330245 0.5551775694 4290616612
-0.2812544703 -0.1561092883 0.5544428229 4290616612
-0.2808813155 -0.1552869678 0.5537071824 4290616612
-0.2809467018 -0.1547077745 0.5538361073 4290550817
-0.2810119092 -0.1541281790 0.5539646149 4290353438
-0.2810768783 -0.1535481811 0.5540927052 4290221338
-0.2811416388 -0.1529677808 0.5542203784 4290023959
-0.2816455662 -0.1526250839 0.5552138090 4289958166
-0.2817099988 -0.1520429701 0.5553408265 4290023959
-0.2817742229 -0.1514604688 0.5554673672 4289958166
-0.2818382084 -0.1508775651 0.5555935502 4290155545
-0.2819019854 -0.1502942592 0.5557192564 4290221338
-0.2819655538 -0.1497105658 0.5558445454 4290221338
-0.2815889120 -0.1488938183 0.5551021099 4290155545
-0.2816519141 -0.1483102441 0.5552263260 4290155545
-0.2817147374 -0.1477262825 0.5553501248 4290287128
-0.2813370228 -0.1469120234 0.5546055436 4290484507
-0.2809589207 -0.1460991949 0.5538601875 4290287128
-0.2810208797 -0.1455159038 0.5539823174 4290352921
-0.2806420326 -0.1447050422 0.5532354712 4290550554
-0.2807034254 -0.1441218853 0.5533565283 4290813726
-0.2803238630 -0.1433130205 0.5526083112 4291076898
-0.2803847194 -0.1427300125 0.5527282953 4291208484
-0.2804453671 -0.1421466321 0.5528478026 4291208482
-0.2800647616 -0.1413403004 0.5520974994 4291208482
-0.2801248729 -0.1407570690 0.5522159934 4291340066
-0.2801847458 -0.1401734799 0.5523340702 4291471652
-0.2802444100 -0.1395895183 0.5524516702 4291471652
-0.2803038359 -0.1390051842 0.5525688529 4291603238
-0.2803630531 -0.1384204775 0.5526855588 4291866410
-0.2804220617 -0.1378353983 0.5528018475 4291932203
-0.2804808021 -0.1372499466 0.5529176593 4291735594
-0.2805393636 -0.1366641372 0.5530330539 4291669801
-0.2810395360 -0.1362922490 0.5540191531 4291801387
-0.2810977101 -0.1357047707 0.5541338325 4291801387
-0.2811556756 -0.1351169497 0.5542480350 4291933486
-0.2816555500 -0.1347402781 0.5552334785 4292065072
-0.2817131281 -0.1341507882 0.5553469658 4292130865
-0.2817704976 -0.1335609406 0.5554600358 4292130865
-0.2818275988 -0.1329707354 0.5555726886 4292131378
-0.2823270261 -0.1325879991 0.5565571785 4292131378
-0.2823837698 -0.1319961548 0.5566690564 4292196658
-0.2828829885 -0.1316099018 0.5576531291 4292262451
-0.2829393744 -0.1310164183 0.5577642918 4292394296
-0.2834383845 -0.1306266785 0.5587480068 4292525882
-0.2834943831 -0.1300315559 0.5588583946 4292525882
-0.2839932144 -0.1296383291 0.5598417521 4292591675
-0.2840488255 -0.1290415674 0.5599513650 4292723002
-0.2845474184 -0.1286448538 0.5609343052 4292788795
-0.2850459516 -0.1282459050 0.5619170666 4292788795
-0.2859878242 -0.1280432791 0.5637738109 4292788795
-0.2860428393 -0.1274413913 0.5638822317 4292789056
-0.2865411937 -0.1270358115 0.5648646355 4292789056
-0.2870394588 -0.1266280264 0.5658468604 4292854849
-0.2875376642 -0.1262180209 0.5668289661 4292920642
-0.2880357802 -0.1258057952 0.5678109527 4292986174
-0.2885338366 -0.1253913641 0.5687927604 4292986174
-0.2890318036 -0.1249747127 0.5697744489 4293051204
-0.2895297110 -0.1245558485 0.5707559586 4293314376
-0.2904716730 -0.1243248731 0.5726128817 4292921947
-0.2909694910 -0.1239006370 0.5735942721 4293250912
-0.2919115424 -0.1236624122 0.5754513741 4292989802
-0.2928536832 -0.1234200969 0.5773085952 4293450353
-0.2933514118 -0.1229873374 0.5782897472 4293253533
-0.2951827049 -0.1231085807 0.5818998814 4293385119
-0.3175174296 -0.1926541179 0.6273022294 4289573023
-0.3167262077 -0.1914788187 0.6257390380 4290289736
-0.3159343302 -0.1903065741 0.6241745949 4289631806
-0.3138341308 -0.1883526146 0.6200253367 4290025249
-0.2995249331 -0.1791072190 0.5917553902 4289893663
-0.3087576032 -0.1839503497 0.6099959016 4289499422
-0.2931308448 -0.1739968508 0.5791229606 4289302043
-0.2897129059 -0.1713320762 0.5723702908 4290351912
-0.2880387008 -0.1697097123 0.5690626502 4290680877
-0.2854903638 -0.1675815880 0.5640280843 4290944309
-0.2868702710 -0.1677618772 0.5667542815 4291404860
-0.2851934135 -0.1661552191 0.5634413362 4290881336
-0.2852628529 -0.1655695140 0.5635786057 4290091820
-0.2853321135 -0.1649833769 0.5637153983 4289695520
-0.2849640846 -0.1641450673 0.5629883409 4289498141
-0.2850328088 -0.1635589749 0.5631241202 4289300754
-0.2851013243 -0.1629724652 0.5632594228 4289629719
-0.2842948735 -0.1618874222 0.5616661906 4289695512
-0.2848002315 -0.1615500301 0.5626645684 4289761305
-0.2839928269 -0.1604686379 0.5610694289 4290090270
-0.2831847668 -0.1593904495 0.5594730377 4290156063
-0.2823761106 -0.1583154500 0.5578753948 4290221854
-0.2815668285 -0.1572436541 0.5562765002 4290485026
-0.2811948955 -0.1564187109 0.5555417538 4290616612
-0.2808225751 -0.1555951536 0.5548061132 4290550819
-0.2808880210 -0.1550148427 0.5549353957 4290550049
-0.2809532285 -0.1544341296 0.5550643206 4290352670
-0.2810182571 -0.1538530141 0.5551927686 4290089498
-0.2810830474 -0.1532714963 0.5553207994 4289892119
-0.2811476588 -0.1526895612 0.5554483533 4289892373
-0.2816507220 -0.1523445398 0.5564422607 4289958166
-0.2817149758 -0.1517609060 0.5565692186 4290089752
-0.2817790210 -0.1511768699 0.5566957593 4290221338
-0.2818428278 -0.1505924463 0.5568218231 4290287131
-0.2819064260 -0.1500076205 0.5569474697 4290221338
-0.2815306187 -0.1491896510 0.5562049747 4290287131
-0.2815936804 -0.1486049443 0.5563295484 4290352924
-0.2812170982 -0.1477889270 0.5555856228 4290484507
-0.2808401287 -0.1469743401 0.5548408628 4290616093
-0.2809023559 -0.1463903040 0.5549637675 4290616093
-0.2805246413 -0.1455776840 0.5542175174 4290550300
-0.2801465094 -0.1447665095 0.5534704924 4290681886
-0.2802078724 -0.1441831440 0.5535917282 4290813472
-0.2802689970 -0.1435993761 0.5537124872 4290945312
-0.2798898220 -0.1427907199 0.5529633760 4291076898
-0.2799504101 -0.1422071159 0.5530830622 4291208482
-0.2800107896 -0.1416231394 0.5532023311 4291274275
-0.2800709307 -0.1410387754 0.5533211827 4291471652
-0.2801308632 -0.1404540539 0.5534395576 4291537445
-0.2801905572 -0.1398689449 0.5535575151 4291537445
-0.2802500427 -0.1392834634 0.5536749959 4291537445
-0.2803092897 -0.1386976093 0.5537920594 4291669031
-0.2803683281 -0.1381113827 0.5539087057 4291734824
-0.2804271281 -0.1375247836 0.5540248752 4291669801
-0.2804856896 -0.1369378269 0.5541406274 4291735594
-0.2805440426 -0.1363504827 0.5542559028 4291801387
-0.2806021869 -0.1357627958 0.5543707013 4291867180
-0.2806600630 -0.1351747364 0.5544850826 4291867693
-0.2811591029 -0.1347979158 0.5554710627 4291999279
-0.2812166512 -0.1342082024 0.5555846691 4292065072
-0.2812739611 -0.1336181313 0.5556979179 4292196658
-0.2813310325 -0.1330277026 0.5558106303 4292131378
-0.2818295956 -0.1326448172 0.5567956567 4292197171
-0.2818863094 -0.1320527345 0.5569077134 4292131378
-0.2823846936 -0.1316663623 0.5578923225 4292197171
-0.2824410200 -0.1310726404 0.5580036044 4292328505
-0.2829391956 -0.1306827515 0.5589878559 4292460091
-0.2829951644 -0.1300874054 0.5590983629 4292460091
-0.2834931314 -0.1296940148 0.5600822568 4292525884
-0.2839910686 -0.1292984337 0.5610659719 4292723261
-0.2844889164 -0.1289006174 0.5620495677 4292723261
-0.2845441997 -0.1283010691 0.5621587634 4292723261
-0.2854844332 -0.1280983686 0.5640163422 4292723261
-0.2859821022 -0.1276939064 0.5649995804 4292658240
-0.2860369086 -0.1270905137 0.5651078224 4292724033
-0.2865343690 -0.1266825646 0.5660906434 4292724033
-0.2870317400 -0.1262724102 0.5670732260 4292789826
-0.2875290215 -0.1258600205 0.5680557489 4292855617
-0.2880262434 -0.1254454404 0.5690380931 4292921410
-0.2885234058 -0.1250286251 0.5700202584 4293051719
-0.2890204787 -0.1246096045 0.5710023046 4293380684
-0.2899608314 -0.1243785471 0.5728601217 4293053794
-0.2904578149 -0.1239541471 0.5738419890 4293316966
-0.2913982570 -0.1237158403 0.5756999850 4293120881
-0.2923387885 -0.1234734431 0.5775581002 4293449846
-0.2932793796 -0.1232269406 0.5794163942 4293188003
-0.2946638167 -0.1231618226 0.5821515322 4293582761
-0.3160829842 -0.1922055185 0.6258414984 4289835684
-0.3152930140 -0.1910315454 0.6242774129 4290685011
-0.3145023882 -0.1898606271 0.6227119565 4289698116
-0.3128408790 -0.1881693900 0.6194221973 4290090529
-0.2998627126 -0.1797035187 0.5937255025 4289958943
-0.2934076488 -0.1751896143 0.5809445381 4289433112
-0.2939159870 -0.1748465598 0.5819510818 4288972561
-0.2896334231 -0.1716617495 0.5734716654 4290154529
-0.2875267267 -0.1697806120 0.5693004131 4290286115
-0.2854187489 -0.1679079682 0.5651265979 4290615341
-0.2863605022 -0.1678320318 0.5669912696 4291075892
-0.2851226330 -0.1664792895 0.5645402670 4291012661
-0.2847560644 -0.1656388044 0.5638144612 4290683696
-0.2848252356 -0.1650524586 0.5639514923 4290353702
-0.2848942280 -0.1644656956 0.5640880466 4290222116
-0.2845265865 -0.1636275351 0.5633601546 4290155293
-0.2845950425 -0.1630408168 0.5634956360 4290352672
-0.2842266560 -0.1622045040 0.5627663136 4290352672
-0.2838578820 -0.1613695771 0.5620360970 4290286879
-0.2834886611 -0.1605360359 0.5613050461 4290418465
-0.2831190228 -0.1597038805 0.5605731606 4290418465
-0.2823119462 -0.1586275548 0.5589751601 4290352672
-0.2819413841 -0.1577990800 0.5582414269 4290484258
-0.2811331451 -0.1567282677 0.5566411614 4290615844
-0.2811989486 -0.1561463475 0.5567714572 4290352672
-0.2808271348 -0.1553220749 0.5560352206 4290286877
-0.2808924019 -0.1547402292 0.5561645031 4290221084
-0.2809574604 -0.1541579962 0.5562933087 4290023705
-0.2810223103 -0.1535753459 0.5564216971 4289892119
-0.2810869217 -0.1529922932 0.5565496087 4289892119
-0.2811513245 -0.1524088532 0.5566771626 4289957912
-0.2812155187 -0.1518249959 0.5568042994 4290089752
-0.2812795043 -0.1512407511 0.5569309592 4290287131
-0.2813432515 -0.1506561041 0.5570572019 4290352924
-0.2814067900 -0.1500710547 0.5571829677 4290287131
-0.2814701200 -0.1494856179 0.5573083758 4290418717
-0.2810947001 -0.1486678421 0.5565650463 4290550303
-0.2811574936 -0.1480825245 0.5566893220 4290681888
-0.2803426087 -0.1470366120 0.5550758839 4290747681
-0.2804047465 -0.1464523375 0.5551989675 4290813472
-0.2800277770 -0.1456394196 0.5544525385 4290747679
-0.2796503603 -0.1448279321 0.5537052751 4290813472
-0.2797116637 -0.1442443281 0.5538266301 4290879265
-0.2797727585 -0.1436603516 0.5539475679 4290945312
-0.2793942988 -0.1428513825 0.5531982780 4291011105
-0.2794548273 -0.1422675550 0.5533181429 4291142691
-0.2795151472 -0.1416833550 0.5534375310 4291340070
-0.2795752287 -0.1410987675 0.5535565019 4291537445
-0.2796351016 -0.1405138075 0.5536750555 4291537445
-0.2796947658 -0.1399284750 0.5537931323 4291537445
-0.2797541916 -0.1393427700 0.5539107919 4291537445
-0.2798133790 -0.1387566924 0.5540280342 4291472422
-0.2798723578 -0.1381702423 0.5541447997 4291538215
-0.2799310982 -0.1375834197 0.5542610884 4291604008
-0.2799896300 -0.1369962394 0.5543769598 4291735594
-0.2800479233 -0.1364086717 0.5544924140 4291801900
-0.2805463970 -0.1360343099 0.5554794073 4291867693
-0.2801638246 -0.1352324635 0.5547218919 4291867693
-0.2806620598 -0.1348555237 0.5557084084 4291933486
-0.2807195187 -0.1342655718 0.5558221936 4292065072
-0.2807767689 -0.1336752772 0.5559355617 4292196658
-0.2812746763 -0.1332935393 0.5569213629 4292197171
-0.2813315392 -0.1327015907 0.5570339561 4292262964
-0.2813881934 -0.1321092844 0.5571461320 4292262710
-0.2818857431 -0.1317227483 0.5581312776 4292196917
-0.2819420099 -0.1311288029 0.5582427382 4292328505
-0.2824393809 -0.1307387799 0.5592274666 4292460091
-0.2824952602 -0.1301431805 0.5593381524 4292263482
-0.2829924226 -0.1297496557 0.5603225231 4292395068
-0.2839310765 -0.1295554042 0.5621810555 4292592445
-0.2844282091 -0.1291565150 0.5631653070 4292658238
-0.2844834924 -0.1285557896 0.5632748604 4292658240
-0.2849804163 -0.1281533986 0.5642586946 4292658240
-0.2854772508 -0.1277488023 0.5652424097 4292658499
-0.2859739959 -0.1273419857 0.5662260056 4292658499
-0.2860286236 -0.1267370582 0.5663341284 4292724292
-0.2865251601 -0.1263267398 0.5673172474 4292790085
-0.2870216072 -0.1259142160 0.5683002472 4292855876
-0.2875179946 -0.1254994571 0.5692831278 4292921669
-0.2880143225 -0.1250824928 0.5702658296 4293117518
-0.2889530659 -0.1248545125 0.5721245408 4293380690
-0.2894493043 -0.1244321689 0.5731070638 4293054312
-0.2903881371 -0.1241969392 0.5749659538 4293251691
-0.2908842862 -0.1237692237 0.5759483576 4293186938
-0.2922660410 -0.1237141788 0.5786841512 4293515903
-0.2932050824 -0.1234666482 0.5805435181 4293188012
-0.2945872247 -0.1234005913 0.5832800865 4294043321
-0.3142169118 -0.1914919019 0.6235179305 4290163626
-0.3138622046 -0.1905837506 0.6228140593 4291014502
-0.3130728304 -0.1894141734 0.6212476492 4289896021
-0.3114141524 -0.1877240539 0.6179562211 4290288422
-0.3075821698 -0.1847359389 0.6103522182 4290025250
-0.2998370826 -0.1794231236 0.5949832201 4289761564
-0.2899146378 -0.1728463173 0.5752935410 4289301013
-0.2891169786 -0.1717333347 0.5737107396 4290088736
-0.2874489725 -0.1701087803 0.5704008341 4290088736
-0.2862148583 -0.1687474102 0.5679519176 4290352423
-0.2849799097 -0.1673909873 0.5655012727 4290812974
-0.2846144736 -0.1665488333 0.5647761226 4291011891
-0.2842486203 -0.1657080501 0.5640501380 4291077684
-0.2843177319 -0.1651214957 0.5641872883 4290682153
-0.2839511335 -0.1642825305 0.5634598732 4290550567
-0.2840197086 -0.1636960208 0.5635959506 4290484258
-0.2840881050 -0.1631090939 0.5637316704 4290550051
-0.2832846344 -0.1620232016 0.5621372461 4290418465
-0.2837882936 -0.1616855860 0.5631367564 4290352672
-0.2829838693 -0.1606033593 0.5615404844 4290550051
-0.2830510736 -0.1600174457 0.5616738200 4290615844
-0.2818093598 -0.1586941481 0.5592098236 4290418463
-0.2823121846 -0.1583548635 0.5602076054 4290418463
-0.2815056741 -0.1572818160 0.5586071610 4290418463
-0.2815716267 -0.1566978693 0.5587380528 4290023705
-0.2812007070 -0.1558714658 0.5580019951 4289826326
-0.2808293700 -0.1550464779 0.5572651625 4289892119
-0.2808944583 -0.1544631124 0.5573943257 4290023705
-0.2809593379 -0.1538793445 0.5575230718 4289957912
-0.2810240090 -0.1532951742 0.5576514006 4289957912
-0.2810884714 -0.1527105868 0.5577793121 4290023705
-0.2811526954 -0.1521256119 0.5579067469 4289958166
-0.2812167108 -0.1515402347 0.5580338240 4290155545
-0.2812805176 -0.1509544551 0.5581604242 4290221338
-0.2813440859 -0.1503682882 0.5582865477 4290221338
-0.2809697986 -0.1495487690 0.5575438142 4290352924
-0.2810328603 -0.1489627212 0.5576689243 4290616096
-0.2806578279 -0.1481451541 0.5569247603 4290747681
-0.2802823782 -0.1473290175 0.5561797619 4290813474
-0.2799065411 -0.1465143263 0.5554339290 4290747681
-0.2795302868 -0.1457010806 0.5546873212 4290747681
-0.2795918286 -0.1451167315 0.5548094511 4290813472
-0.2792148292 -0.1443054676 0.5540613532 4290945058
-0.2792758644 -0.1437212676 0.5541824698 4290945058
-0.2793366611 -0.1431366801 0.5543031096 4291010851
-0.2789586186 -0.1423279345 0.5535529256 4291142437
-0.2790188789 -0.1417435110 0.5536724925 4291339816
-0.2790789008 -0.1411587000 0.5537916422 4291537447
-0.2791387141 -0.1405735165 0.5539103150 4291537447
-0.2791983187 -0.1399879605 0.5540285707 4291537447
-0.2792576849 -0.1394020319 0.5541464090 4291537447
-0.2793168128 -0.1388157308 0.5542637706 4291472424
-0.2793757319 -0.1382290572 0.5543806553 4291538217
-0.2794344425 -0.1376420110 0.5544971228 4291669803
-0.2794929147 -0.1370545924 0.5546131730 4291867182
-0.2799907029 -0.1366813779 0.5556009412 4291933488
-0.2800488174 -0.1360923052 0.5557162762 4291999281
-0.2801066935 -0.1355028749 0.5558311343 4291999281
-0.2801643312 -0.1349130571 0.5559455156 4291933488
-0.2806616724 -0.1345337629 0.5569323897 4291999538
-0.2807189524 -0.1339423060 0.5570460558 4292131124
-0.2807760239 -0.1333504915 0.5571593046 4292196917
-0.2812730074 -0.1329663843 0.5581455231 4292262710
-0.2813296914 -0.1323729157 0.5582579970 4292262712
-0.2813861668 -0.1317790896 0.5583700538 4292262712
-0.2818828225 -0.1313902140 0.5593556166 4292394298
-0.2819389105 -0.1307947487 0.5594668984 4292460091
-0.2824353576 -0.1304023564 0.5604520440 4292394298
-0.2824910581 -0.1298052520 0.5605625510 4292525884
-0.2834281027 -0.1296109259 0.5624219775 4292658240
-0.2839244008 -0.1292118877 0.5634068251 4292724033
-0.2844206095 -0.1288106441 0.5643914938 4292657986
-0.2849167585 -0.1284071654 0.5653760433 4292657986
-0.2854128480 -0.1280014813 0.5663604140 4292592708
-0.2854676545 -0.1273966730 0.5664691329 4292658501
-0.2859635055 -0.1269874722 0.5674531460 4292724294
-0.2864592969 -0.1265760660 0.5684369802 4292855880
-0.2869550288 -0.1261624396 0.5694206357 4292855880
-0.2874506712 -0.1257465929 0.5704041719 4292855880
-0.2879462242 -0.1253285259 0.5713875294 4293052244
-0.2888834476 -0.1250995249 0.5732473135 4293381209
-0.2893789411 -0.1246760935 0.5742305517 4292988777
-0.2903162241 -0.1244398355 0.5760904551 4293186156
-0.2908116281 -0.1240110174 0.5770735145 4293186944
-0.2917490005 -0.1237675026 0.5789335966 4293515909
-0.2931285799 -0.1237064749 0.5816711783 4293188278
-0.3127880394 -0.1910421550 0.6220535040 4290361524
-0.3124338090 -0.1901354492 0.6213490367 4291146613
-0.3116457164 -0.1889672130 0.6197816730 4290225511
-0.3099898398 -0.1872782111 0.6164885759 4290486065
-0.3065982163 -0.1845517159 0.6097435355 4290157100
-0.3001682460 -0.1800180525 0.5969560742 4290155809
-0.2946025729 -0.1760292202 0.5858873725 4289892637
-0.2938077152 -0.1749050766 0.5843065977 4290549541
-0.2873690128 -0.1704371125 0.5715017319 4290352162
-0.2857030928 -0.1688177437 0.5681886077 4290550053
-0.2844703794 -0.1674607992 0.5657371283 4290813225
-0.2841056585 -0.1666183174 0.5650117993 4290945326
-0.2837405205 -0.1657772213 0.5642855763 4291011119
-0.2838095725 -0.1651904434 0.5644229054 4290616360
-0.2834436893 -0.1643511802 0.5636952519 4290418981
-0.2835122049 -0.1637644619 0.5638315678 4290550049
-0.2835805416 -0.1631773114 0.5639674067 4290550049
-0.2832135856 -0.1623403579 0.5632376671 4290221854
-0.2832813859 -0.1617532670 0.5633724928 4290221854
-0.2829136848 -0.1609181911 0.5626412630 4290419233
-0.2825455964 -0.1600845009 0.5619091988 4290485026
-0.2817416191 -0.1590064317 0.5603103042 4290353440
-0.2822436988 -0.1586661339 0.5613088012 4290287647
-0.2814387679 -0.1575917751 0.5597079992 4290221854
-0.2815047503 -0.1570066959 0.5598392487 4289761303
-0.2811346650 -0.1561790705 0.5591031909 4289498131
-0.2807641327 -0.1553528607 0.5583663583 4289563924
-0.2808292806 -0.1547683626 0.5584958792 4289761303
