VERSION 0.7
FIELDS x y z rgba
SIZE 4 4 4 4
TYPE F F F U
COUNT 1 1 1 1
WIDTH 920
HEIGHT 1
VIEWPOINT 0.0 0.0 0.0 1.0 0.0 0.0 0.0
POINTS 920
DATA ascii
-0.3120467663 -0.1508298814 0.5943241119 4287927957
-0.3107513487 -0.1495461464 0.5918568373 4287796371
-0.3099088669 -0.1484848857 0.5902522802 4287862164
-0.3090657592 -0.1474269032 0.5886464715 4288059543
-0.3082220256 -0.1463721991 0.5870394707 4287927957
-0.3073776662 -0.1453207582 0.5854313374 4287862164
-0.3069868088 -0.1444863528 0.5846869349 4288059543
-0.3061413169 -0.1434405595 0.5830765963 4287927957
-0.3052951992 -0.1423980743 0.5814650655 4287927957
-0.3049028814 -0.1415698677 0.5807178617 4287927957
-0.3045101166 -0.1407431066 0.5799698234 4287927957
-0.3041169345 -0.1399178356 0.5792209506 4287993750
-0.3037233055 -0.1390940100 0.5784712434 4287993750
-0.3033292890 -0.1382716745 0.5777207613 4287993750
-0.3029348254 -0.1374507993 0.5769695044 4287993750
-0.3020849824 -0.1364259422 0.5753508806 4287862162
-0.3016895652 -0.1356089562 0.5745977759 4287862162
-0.3008386195 -0.1345898360 0.5729770660 4287730574
-0.2999870479 -0.1335740387 0.5713551641 4287335816
-0.2986795902 -0.1323598325 0.5688650012 4287138437
-0.2982821465 -0.1315524876 0.5681080222 4287598988
-0.2974287868 -0.1305467337 0.5664827228 4288980641
-0.2970304191 -0.1297433078 0.5657239556 4290296501
-0.2961759567 -0.1287433356 0.5640965700 4290691261
-0.2957766652 -0.1279438585 0.5633360744 4290691261
-0.2953769565 -0.1271459013 0.5625748038 4290690748
-0.2949768305 -0.1263494492 0.5618126988 4290559162
-0.2945762575 -0.1255545020 0.5610498190 4290888127
-0.2941752970 -0.1247610897 0.5602861643 4291151299
-0.2937739491 -0.1239691973 0.5595216751 4290888381
-0.2938283980 -0.1233704016 0.5596254468 4291019967
-0.2934262753 -0.1225806326 0.5588595271 4290888129
-0.2934801877 -0.1219820976 0.5589622259 4290822336
-0.2935338318 -0.1213832423 0.5590643883 4290888129
-0.2935872376 -0.1207840517 0.5591661334 4290888129
-0.2936404049 -0.1201845333 0.5592673421 4290888129
-0.2936933339 -0.1195846945 0.5593681335 4290888129
-0.2937459946 -0.1189845353 0.5594684482 4290953922
-0.2933415174 -0.1181999370 0.5586980581 4290888129
-0.2933936119 -0.1176000684 0.5587972999 4290888129
-0.2939025462 -0.1171821207 0.5597665906 4290888129
-0.2939542234 -0.1165806726 0.5598650575 4290822336
-0.2944628894 -0.1161592826 0.5608338714 4290822336
-0.2945141494 -0.1155562773 0.5609315038 4290822336
-0.2931929827 -0.1144174561 0.5584151745 4290822336
-0.2946159542 -0.1143493131 0.5611253977 4290822336
-0.2932938039 -0.1132154912 0.5586072206 4290822336
-0.2933438122 -0.1126140431 0.5587024689 4290757056
-0.2933936119 -0.1120122969 0.5587972999 4290757056
-0.2961898744 -0.1124530807 0.5641230941 4290494402
-0.2980710864 -0.1125365496 0.5677060485 4290625988
-0.2949152887 -0.1107209921 0.5616955161 4291547348
-0.3459324837 -0.1807679534 0.6602595448 4292073694
-0.3451080918 -0.1796053201 0.6586860418 4290230710
-0.3447342515 -0.1786797047 0.6579725146 4289243815
-0.3439086080 -0.1775224656 0.6563966870 4289835952
-0.3426308930 -0.1761363298 0.6539580226 4289704366
-0.3413523138 -0.1747551560 0.6515176296 4289638573
-0.3396212459 -0.1731487215 0.6482136250 4290033331
-0.3378891051 -0.1715490967 0.6449076533 4290296503
-0.3361559212 -0.1699562818 0.6415995955 4289638573
-0.3339697719 -0.1681427509 0.6374270320 4288585885
-0.3313303292 -0.1661112607 0.6323893070 4288191127
-0.3286894858 -0.1640902460 0.6273488998 4287993748
-0.3260471821 -0.1620797217 0.6223056912 4287927955
-0.3234034777 -0.1600797027 0.6172598004 4287993748
-0.3207583427 -0.1580901891 0.6122112274 4288125334
-0.3176592886 -0.1558891386 0.6062962413 4288059541
-0.3154638410 -0.1541427523 0.6021059752 4287730576
-0.3137198985 -0.1526253372 0.5987773538 4287796371
-0.3119749129 -0.1511148214 0.5954468846 4287862164
-0.3106818199 -0.1498296261 0.5929788351 4287862164
-0.3098409176 -0.1487670243 0.5913738012 4287927957
-0.3089993596 -0.1477077007 0.5897676349 4288059543
-0.3081572056 -0.1466516405 0.5881602168 4287927957
-0.3068611324 -0.1453841031 0.5856865048 4287862164
-0.3064709902 -0.1445493549 0.5849418640 4287993750
-0.3056269884 -0.1435031444 0.5833309293 4287993750
-0.3052358925 -0.1426722109 0.5825845003 4287993750
-0.3043907285 -0.1416316777 0.5809713602 4287993750
-0.3039986789 -0.1408045888 0.5802231431 4287993750
-0.3040600419 -0.1401882023 0.5803402066 4287993750
-0.3032133281 -0.1391548216 0.5787241459 4287993750
-0.3028199971 -0.1383321434 0.5779734254 4288059543
-0.3024262488 -0.1375109255 0.5772218704 4288059543
-0.3020320535 -0.1366911978 0.5764695406 4287927955
-0.3011831939 -0.1356683224 0.5748493671 4287993748
-0.3003337085 -0.1346487850 0.5732280016 4287993748
-0.2994836271 -0.1336325705 0.5716055632 4287796369
-0.2986329496 -0.1326197088 0.5699818730 4287270023
-0.2982363105 -0.1318111122 0.5692248344 4286875265
-0.2973845303 -0.1308040023 0.5675991178 4287401609
-0.2965321541 -0.1298002601 0.5659722090 4288322711
-0.2956791818 -0.1287998557 0.5643442273 4289835952
-0.2961905599 -0.1283944994 0.5653202534 4290428089
-0.2948816121 -0.1272017658 0.5628219247 4290953920
-0.2944822013 -0.1264049709 0.5620596409 4290756541
-0.2940823734 -0.1256097108 0.5612965226 4290625209
-0.2936821282 -0.1248159707 0.5605325699 4290888381
-0.2928260863 -0.1238311678 0.5588986874 4291019967
-0.2928804159 -0.1232330501 0.5590023994 4290954174
-0.2924789488 -0.1224438846 0.5582361221 4290888127
-0.2925327122 -0.1218460426 0.5583387613 4290756541
-0.2921305001 -0.1210590079 0.5575710535 4290756541
-0.2921836972 -0.1204614416 0.5576726198 4290822334
-0.2922366560 -0.1198635474 0.5577736497 4290756541
-0.2922893763 -0.1192653254 0.5578742623 4290756541
-0.2923418283 -0.1186667904 0.5579743981 4290822334
-0.2923940420 -0.1180679277 0.5580740571 4290822334
-0.2929022610 -0.1176519990 0.5590440631 4290822334
-0.2929540575 -0.1170515642 0.5591429472 4290822334
-0.2930056155 -0.1164508089 0.5592413545 4290822334
-0.2930569351 -0.1158497334 0.5593392849 4290888127
-0.2935645580 -0.1154278666 0.5603081584 4290822334
-0.2936154604 -0.1148252264 0.5604053140 4290822334
-0.2936661243 -0.1142222732 0.5605019927 4290822334
-0.2937165201 -0.1136190146 0.5605981946 4290756541
-0.2928529382 -0.1126639172 0.5589498878 4290691263
-0.2942734957 -0.1125863865 0.5616613030 4290822849
-0.2947802544 -0.1121551469 0.5626285076 4290691777
-0.2952869236 -0.1117217168 0.5635955334 4290625984
-0.2944219410 -0.1107700914 0.5619446039 4290691779
-0.2962999046 -0.1108483002 0.5655289888 4291218123
-0.3418995738 -0.1775869131 0.6539484262 4290888642
-0.3415254653 -0.1766668111 0.6532328725 4289375403
-0.3402495682 -0.1752837300 0.6507924795 4289046438
-0.3385220468 -0.1736743599 0.6474882364 4290230712
-0.3376951814 -0.1725325137 0.6459067464 4289375403
-0.3359657228 -0.1709349453 0.6425988674 4289506987
-0.3337841928 -0.1691156626 0.6384261847 4289572780
-0.3325037062 -0.1677602679 0.6359770298 4289178022
-0.3307711184 -0.1661831886 0.6326631308 4289046436
-0.3281347752 -0.1641613245 0.6276206374 4288585885
-0.3268513680 -0.1628246456 0.6251658201 4288191127
-0.3246639967 -0.1610450298 0.6209821105 4287993748
-0.3220237792 -0.1590510458 0.6159321666 4287927955
-0.3193821311 -0.1570675820 0.6108795404 4287862162
-0.3167391121 -0.1550946534 0.6058242321 4287993748
-0.3145465851 -0.1533526182 0.6016306281 4287927957
-0.3128049076 -0.1518387347 0.5982993245 4287927957
-0.3110622168 -0.1503317654 0.5949661136 4287927957
-0.3102229536 -0.1492668986 0.5933608413 4287927957
-0.3089307547 -0.1479886174 0.5908892751 4287927957
-0.3080901802 -0.1469312161 0.5892814994 4287927957
-0.3067964613 -0.1456622332 0.5868070126 4287862164
-0.3059545159 -0.1446123123 0.5851966143 4287862164
-0.3051119745 -0.1435656697 0.5835850835 4287993750
-0.3047215939 -0.1427344084 0.5828384161 4287993750
-0.3043307960 -0.1419046074 0.5820909142 4287993750
-0.3034865856 -0.1408660114 0.5804762244 4287993750
-0.3035478890 -0.1402493864 0.5805934668 4287993750
-0.3031557798 -0.1394239813 0.5798435211 4287993750
-0.3023100197 -0.1383925527 0.5782258511 4288059543
-0.3019169867 -0.1375710219 0.5774741173 4288059543
-0.3015235364 -0.1367509514 0.5767215490 4288059541
-0.3006761372 -0.1357276589 0.5751007199 4287993748
-0.2998281419 -0.1347076893 0.5734787583 4287730576
-0.2989795506 -0.1336910576 0.5718556643 4287664783
-0.2981303632 -0.1326777637 0.5702314377 4287927955
-0.2977344394 -0.1318688393 0.5694741607 4287993748
-0.2973380983 -0.1310614049 0.5687160492 4287401611
-0.2969413400 -0.1302554756 0.5679571629 4286875267
-0.2960900068 -0.1292528212 0.5663288832 4288059539
-0.2952381074 -0.1282535195 0.5646994710 4289375399
-0.2948399186 -0.1274539679 0.5639378428 4290230451
-0.2944413126 -0.1266559213 0.5631754398 4290559416
-0.2940423191 -0.1258593947 0.5624122620 4290954174
-0.2931883037 -0.1248707995 0.5607788563 4290954174
-0.2923337519 -0.1238855869 0.5591443181 4290888381
-0.2919333279 -0.1230954900 0.5583783984 4290954174
-0.2915324867 -0.1223069280 0.5576117039 4290822588
-0.2915861309 -0.1217097715 0.5577143431 4290756795
-0.2911845446 -0.1209233478 0.5569462180 4290756795
-0.2912376225 -0.1203264669 0.5570477247 4290822588
-0.2912904620 -0.1197292656 0.5571488142 4290756795
-0.2913430333 -0.1191317365 0.5572493672 4290756795
-0.2909400761 -0.1183486730 0.5564786196 4290822588
-0.2909920812 -0.1177514344 0.5565780997 4290888381
-0.2914993167 -0.1173372120 0.5575482845 4290756795
-0.2915509343 -0.1167384014 0.5576470494 4290756795
-0.2916022837 -0.1161392704 0.5577452779 4290756794
-0.2916533947 -0.1155398265 0.5578430295 4290822587
-0.2917042673 -0.1149400622 0.5579403043 4290822587
-0.2912990153 -0.1141613349 0.5571652055 4290822587
-0.2919052839 -0.1125379056 0.5583247542 4290888127
-0.2928672433 -0.1122863963 0.5601647496 4290888127
-0.2933730483 -0.1118568629 0.5611321330 4290822847
-0.2920534015 -0.1107330546 0.5586081147 4290888640
-0.2925586998 -0.1103029102 0.5595745444 4290691261
-0.2930638790 -0.1098705828 0.5605407953 4290493882
-0.2949386537 -0.1099466532 0.5641266704 4291020228
-0.2959004939 -0.1096763834 0.5659664273 4292072916
-0.3407172263 -0.1788007617 0.6530743241 4292138974
-0.3398948312 -0.1776453406 0.6514980197 4291809231
-0.3390717804 -0.1764930636 0.6499204040 4290953922
-0.3386978507 -0.1755771190 0.6492037177 4288914852
-0.3374236822 -0.1741980016 0.6467614174 4286677890
-0.3356986642 -0.1725925058 0.6434549093 4287993750
-0.3348727524 -0.1714547276 0.6418718696 4289506989
-0.3335960209 -0.1700905859 0.6394246817 4289441194
-0.3318681121 -0.1685028225 0.6361126900 4289178022
-0.3305895627 -0.1671496034 0.6336619854 4289506987
-0.3293101788 -0.1658014059 0.6312097311 4289112229
-0.3275793493 -0.1642323434 0.6278921366 4289441194
-0.3267488480 -0.1631201059 0.6263002753 4289309608
-0.3250161409 -0.1615629196 0.6229791045 4288322713
-0.3228315115 -0.1597894430 0.6187916994 4287993748
-0.3206456900 -0.1580246687 0.6146019697 4288191125
-0.3184586167 -0.1562686116 0.6104098558 4287927953
-0.3158192039 -0.1543008536 0.6053507328 4287993750
-0.3136296272 -0.1525631547 0.6011538506 4287993750
-0.3118902445 -0.1510528177 0.5978198051 4287862164
-0.3101498187 -0.1495493948 0.5944838524 4287862164
-0.3093115091 -0.1484864503 0.5928770304 4287862164
-0.3080209494 -0.1472109258 0.5904033184 4287862164
-0.3067295551 -0.1459405124 0.5879279971 4287862164
-0.3058891892 -0.1448892355 0.5863172412 4287862164
-0.3050482273 -0.1438412368 0.5847052932 4287927957
-0.3042066395 -0.1427965462 0.5830921531 4287993750
-0.3038165271 -0.1419664025 0.5823444724 4287993750
-0.3034259975 -0.1411377192 0.5815958977 4287993750
-0.3030350506 -0.1403105110 0.5808465481 4287993750
-0.3026436865 -0.1394847780 0.5800963640 4287993750
-0.3022518754 -0.1386605054 0.5793454051 4288059543
-0.3014070988 -0.1376310438 0.5777261257 4288059543
-0.3010143340 -0.1368106604 0.5769733191 4287731092
-0.3001684248 -0.1357869357 0.5753518939 4287862678
-0.2997747660 -0.1349704266 0.5745972991 4288059543
-0.2989277244 -0.1339524537 0.5729737878 4288125336
-0.2980801165 -0.1329378039 0.5713490844 4288125336
-0.2976849973 -0.1321276277 0.5705917478 4287927957
-0.2968362868 -0.1311187595 0.5689649582 4287730576
-0.2964402139 -0.1303125024 0.5682058334 4287664783
-0.2960437536 -0.1295077503 0.5674458742 4286875265
-0.2951934338 -0.1285070926 0.5658159852 4287598988
-0.2943425179 -0.1275098175 0.5641850233 4288980383
-0.2939446270 -0.1267114580 0.5634223819 4290230450
-0.2935463488 -0.1259146035 0.5626589060 4290559415
-0.2926938534 -0.1249255911 0.5610249043 4290559415
-0.2918407619 -0.1239399612 0.5593897104 4290888381
-0.2914410532 -0.1231495440 0.5586235523 4290756795
-0.2910409272 -0.1223606542 0.5578566790 4290625209
-0.2906404138 -0.1215732992 0.5570889115 4290691002
-0.2906937003 -0.1209765002 0.5571910739 4290822588
-0.2902924120 -0.1201912835 0.5564219356 4290888381
-0.2903451324 -0.1195947751 0.5565229654 4290888380
-0.2903975844 -0.1189979315 0.5566235185 4290756794
-0.2899952829 -0.1182154790 0.5558523536 4290822587
-0.2905017734 -0.1178032905 0.5568231940 4290888380
-0.2905535102 -0.1172054857 0.5569223762 4290691001
-0.2901502252 -0.1164248809 0.5561493635 4290691001
-0.2902013659 -0.1158273742 0.5562474132 4290691001
-0.2902522981 -0.1152295545 0.5563449860 4290756794
-0.2907579839 -0.1148111001 0.5573142767 4290756792
-0.2908084691 -0.1142117158 0.5574110746 4290822585
-0.2908587456 -0.1136120185 0.5575073957 4290888378
-0.2904534936 -0.1128351614 0.5567306280 4290888378
-0.2914138436 -0.1125876233 0.5585713983 4290756794
-0.2919188440 -0.1121610403 0.5595393777 4290756794
-0.2915127575 -0.1113841981 0.5587610006 4290756794
-0.2906507254 -0.1104358286 0.5571087003 4290888380
-0.2916106880 -0.1101795509 0.5589486957 4290954431
-0.2930264175 -0.1100904122 0.5616623759 4290954431
-0.2935307920 -0.1096547768 0.5626291037 4290822847
-0.2912998497 -0.1082009897 0.5583528876 4290822847
-0.2913475931 -0.1075982600 0.5584444404 4291086537
-0.3387759328 -0.1824994087 0.6507386565 4291875804
-0.3388540149 -0.1818182915 0.6508886814 4291546837
-0.3389318287 -0.1811366975 0.6510381699 4291481044
-0.3381125629 -0.1799772531 0.6494644880 4291415251
-0.3372926116 -0.1788209379 0.6478894949 4291415251
-0.3373692632 -0.1781415641 0.6480367184 4291546837
-0.3369969428 -0.1772257388 0.6473214626 4291546837
-0.3357264698 -0.1758410931 0.6448811293 4291217094
-0.3353530169 -0.1749297827 0.6441637278 4289243304
-0.3349790871 -0.1740198135 0.6434454918 4286348412
-0.3337064385 -0.1726464778 0.6410009265 4285953654
-0.3319837153 -0.1710466892 0.6376917958 4285098345
-0.3311585784 -0.1699147969 0.6361068487 4285756275
-0.3298833668 -0.1685564667 0.6336573958 4288256920
-0.3290568292 -0.1674318612 0.6320697665 4289375401
-0.3282296658 -0.1663104743 0.6304808855 4289441194
-0.3278515637 -0.1654191911 0.6297546029 4288980643
-0.3265733719 -0.1640772969 0.6272993684 4289506987
-0.3261941671 -0.1631906182 0.6265709996 4290099124
-0.3249144852 -0.1618569642 0.6241129041 4289441194
-0.3231838346 -0.1603051126 0.6207885742 4288520092
-0.3214521706 -0.1587601304 0.6174623370 4288191125
-0.3192691803 -0.1570005864 0.6132690907 4287993746
-0.3166345656 -0.1550292671 0.6082084179 4288059543
-0.3144490719 -0.1532881111 0.6040104032 4287927957
-0.3127129674 -0.1517743915 0.6006755829 4287862164
-0.3109758496 -0.1502676010 0.5973387957 4287862164
-0.3096885085 -0.1489846110 0.5948660374 4287862164
-0.3079494834 -0.1474907696 0.5915256143 4287862164
-0.3071114123 -0.1464339346 0.5899158120 4287862164
-0.3058216572 -0.1451662779 0.5874384046 4287993750
-0.3049822450 -0.1441169530 0.5858260393 4287927957
-0.3041422367 -0.1430709064 0.5842124820 4287927957
-0.3037529588 -0.1422395110 0.5834646821 4287993750
-0.3029118180 -0.1411991417 0.5818489790 4287993750
-0.3025215566 -0.1403715909 0.5810993910 4287993750
-0.3021309078 -0.1395455152 0.5803490281 4287993750
-0.3017398119 -0.1387209147 0.5795977712 4288059543
-0.3008965254 -0.1376910359 0.5779778957 4288059543
-0.3000526130 -0.1366644800 0.5763568878 4287862678
-0.2996600568 -0.1358461678 0.5756028891 4287796885
-0.2992671132 -0.1350293159 0.5748480558 4287731092
-0.2984215617 -0.1340109259 0.5732238889 4287796885
-0.2975754440 -0.1329958588 0.5715985894 4287993750
-0.2971810400 -0.1321853548 0.5708410144 4288059543
-0.2967862189 -0.1313763410 0.5700826049 4287862162
-0.2959384620 -0.1303694695 0.5684542656 4287598990
-0.2955427170 -0.1295643896 0.5676940680 4287335816
-0.2946938872 -0.1285633296 0.5660635829 4286875265
-0.2938444614 -0.1275656372 0.5644319654 4287270278
-0.2934473157 -0.1267669350 0.5636690855 4288586138
-0.2930497229 -0.1259697527 0.5629053712 4289506727
-0.2921987176 -0.1249803379 0.5612707138 4290230450
-0.2913471162 -0.1239942908 0.5596349239 4290822588
-0.2909481525 -0.1232035458 0.5588685274 4290427830
-0.2905487418 -0.1224143356 0.5581013560 4290625209
-0.2901489437 -0.1216266528 0.5573334098 4290691002
-0.2897487283 -0.1208405048 0.5565646887 4290756795
-0.2893481255 -0.1200558990 0.5557951331 4290822588
-0.2894006968 -0.1194600761 0.5558961630 4290822587
-0.2889993489 -0.1186776161 0.5551252365 4290756794
-0.2890513539 -0.1180820838 0.5552251339 4290691001
-0.2895569801 -0.1176706627 0.5561963320 4290691001
-0.2896085978 -0.1170735508 0.5562954545 4290625208
-0.2892059386 -0.1162935570 0.5555220246 4290691001
-0.2892569900 -0.1156967431 0.5556200743 4290690999
-0.2893077731 -0.1150996163 0.5557176471 4290756792
-0.2893583179 -0.1145021766 0.5558147430 4290756792
-0.2894086242 -0.1139044240 0.5559113622 4290822585
-0.2899130881 -0.1134842411 0.5568803549 4290822585
-0.2890540063 -0.1125310510 0.5552302003 4290822585
-0.2900125980 -0.1122853011 0.5570715070 4290756792
-0.2905166447 -0.1118604317 0.5580397248 4290822585
-0.2905658782 -0.1112592593 0.5581342578 4290888380
-0.2901600599 -0.1104846075 0.5573547482 4290822587
-0.2911184430 -0.1102282256 0.5591956377 4290691261
-0.2911669910 -0.1096251979 0.5592889190 4290888640
-0.2903052568 -0.1086811796 0.5576336384 4291086021
-0.2917184234 -0.1085876450 0.5603481531 4290954435
-0.2917663157 -0.1079827771 0.5604401231 4290625984
-0.2927244306 -0.1077126414 0.5622805357 4290954949
-0.2936825752 -0.1074384376 0.5641210079 4291942359
-0.3349649608 -0.1858471185 0.6447939873 4291546839
-0.3350441158 -0.1851744503 0.6449463964 4290888909
-0.3351230323 -0.1845013201 0.6450982690 4290888907
-0.3352017105 -0.1838276982 0.6452497244 4290428356
-0.3357271552 -0.1833978295 0.6462611556 4290428356
-0.3358054161 -0.1827223599 0.6464118361 4290099391
-0.3358834088 -0.1820464432 0.6465619802 4289902010
-0.3350664675 -0.1808870286 0.6449894309 4290230975
-0.3351437747 -0.1802119613 0.6451382041 4291677907
-0.3352208138 -0.1795364320 0.6452865005 4293256939
-0.3339546323 -0.1781440377 0.6428491473 4293849075
-0.3335830867 -0.1772323847 0.6421339512 4293651696
-0.3336589634 -0.1765590757 0.6422799826 4293520110
-0.3328386545 -0.1754131317 0.6407009363 4293585903
-0.3320176601 -0.1742703617 0.6391205788 4293190884
-0.3316442072 -0.1733650267 0.6384016871 4290493371
-0.3308220208 -0.1722276807 0.6368190050 4286743170
-0.3295508027 -0.1708610356 0.6343719363 4286611584
-0.3287271857 -0.1697309613 0.6327865720 4286545791
-0.3279029429 -0.1686040759 0.6311998963 4285624689
-0.3266293705 -0.1672506332 0.6287483573 4284769378
-0.3262524903 -0.1663598716 0.6280228496 4286611582
-0.3258751631 -0.1654704958 0.6272965074 4288651678
-0.3254973888 -0.1645824909 0.6265692711 4288980643
-0.3251191378 -0.1636959016 0.6258412004 4288914850
-0.3247404695 -0.1628106833 0.6251122355 4289309608
-0.3243613243 -0.1619268656 0.6243824363 4290164917
-0.3226336837 -0.1603743732 0.6210567951 4289835952
-0.3218039274 -0.1592736542 0.6194595695 4288783264
-0.3200744390 -0.1577330977 0.6161303520 4288388506
-0.3178943098 -0.1559788138 0.6119336486 4287993750
-0.3157129586 -0.1542332768 0.6077346802 4287862164
-0.3135304153 -0.1524964720 0.6035333276 4287927957
-0.3117965758 -0.1509863138 0.6001958251 4288059543
-0.3100617528 -0.1494830847 0.5968563557 4288059543
-0.3083259463 -0.1479867846 0.5935149789 4287927957
-0.3070393205 -0.1467125714 0.5910382867 4287862164
-0.3062022030 -0.1456576735 0.5894268751 4287993750
-0.3049140871 -0.1443927884 0.5869472623 4287927957
-0.3040756583 -0.1433453858 0.5853333473 4287927957
-0.3032366037 -0.1423012912 0.5837181807 4287993750
-0.3028475940 -0.1414710283 0.5829693675 4287993750
-0.3020074069 -0.1404326260 0.5813520551 4287993750
-0.3016174734 -0.1396062076 0.5806013942 4287993750
-0.3012270927 -0.1387812644 0.5798499584 4288059543
-0.3003852665 -0.1377509683 0.5782294869 4288059543
-0.2995428443 -0.1367239952 0.5766078830 4287731092
-0.2991510332 -0.1359053403 0.5758536458 4287862678
-0.2987587750 -0.1350881755 0.5750985742 4287862678
-0.2979147434 -0.1340693533 0.5734738111 4287665299
-0.2970700860 -0.1330538690 0.5718479156 4287665299
-0.2966763973 -0.1322430223 0.5710901022 4287928471
-0.2962823212 -0.1314336807 0.5703314543 4288059541
-0.2954360545 -0.1304264069 0.5687024593 4287664783
-0.2950410247 -0.1296209842 0.5679420829 4287796369
-0.2941936851 -0.1286195070 0.5663109422 4287270025
-0.2937977612 -0.1278180480 0.5655487776 4286809472
-0.2929493189 -0.1268223822 0.5639156103 4287006851
-0.2925524712 -0.1260248721 0.5631516576 4287993746
-0.2917029560 -0.1250350326 0.5615163445 4289243813
-0.2908528447 -0.1240485832 0.5598799586 4290296244
-0.2904545963 -0.1232575104 0.5591133237 4290625209
-0.2900559306 -0.1224679723 0.5583459139 4290822588
-0.2892042696 -0.1214898378 0.5567064881 4290822588
-0.2892573476 -0.1208934933 0.5568087101 4290756795
-0.2888574600 -0.1201085597 0.5560389161 4290691002
-0.2884571552 -0.1193251684 0.5552683473 4290756795
-0.2885093689 -0.1187297106 0.5553689003 4290756795
-0.2881083488 -0.1179484800 0.5545969009 4290756794
-0.2881599963 -0.1173533127 0.5546963215 4290756794
-0.2882114053 -0.1167578325 0.5547952652 4290691001
-0.2882625461 -0.1161620319 0.5548937321 4290691001
-0.2878601551 -0.1153842062 0.5541191101 4290691001
-0.2879107296 -0.1147887111 0.5542165041 4290756794
-0.2879610956 -0.1141929030 0.5543134212 4290756794
-0.2884647548 -0.1137756705 0.5552829504 4290756794
-0.2885146737 -0.1131783053 0.5553790927 4290756794
-0.2885643840 -0.1125806272 0.5554747581 4290756794
-0.2890676260 -0.1121587083 0.5564434528 4290954425
-0.2891168892 -0.1115594730 0.5565383434 4290822839
-0.2887119651 -0.1107857451 0.5557588935 4290822587
-0.2887606621 -0.1101868376 0.5558525920 4290822587
-0.2897173464 -0.1099322513 0.5576941371 4290625468
-0.2894073427 -0.1079576984 0.5570974350 4290757824
-0.2908180952 -0.1078619510 0.5598130226 4290692031
-0.2917745411 -0.1075926572 0.5616542101 4290231480
-0.2904582918 -0.1064860672 0.5591204762 4290231480
-0.2923237383 -0.1065447479 0.5627113581 4291349961
-0.3348827660 -0.1897884458 0.6460169554 4290625994
-0.3327361643 -0.1878587306 0.6418759823 4289310136
-0.3319248557 -0.1866892427 0.6403108835 4287467932
-0.3315584958 -0.1857725531 0.6396042109 4286546569
-0.3311917186 -0.1848571897 0.6388965845 4285822846
-0.3308244646 -0.1839431226 0.6381881237 4285428086
-0.3309026957 -0.1832773983 0.6383391023 4287401876
-0.3309807181 -0.1826111823 0.6384895444 4291217355
-0.3310584724 -0.1819445193 0.6386395693 4292138457
-0.3311359584 -0.1812773645 0.6387890577 4292270044
-0.3312132359 -0.1806097627 0.6389381289 4291480528
-0.3312902451 -0.1799416840 0.6390866637 4290756804
-0.3309203982 -0.1790315211 0.6383732557 4290033081
-0.3305501342 -0.1781227142 0.6376589537 4290493630
-0.3301793933 -0.1772152483 0.6369437575 4291217353
-0.3298081756 -0.1763091236 0.6362276673 4290953924
-0.3294365406 -0.1754043400 0.6355107427 4289901236
-0.3295115232 -0.1747380197 0.6356554031 4288782755
-0.3286918700 -0.1735988557 0.6340742111 4288124825
-0.3278715611 -0.1724628508 0.6324917674 4287664270
-0.3279453814 -0.1717987955 0.6326341629 4286479996
-0.3266764581 -0.1704338640 0.6301863194 4285690480
-0.3254066706 -0.1690739393 0.6277368069 4286611582
-0.3250314593 -0.1681823283 0.6270129681 4286677375
-0.3246558011 -0.1672920883 0.6262882352 4286677375
-0.3238317668 -0.1661733836 0.6246986389 4286479996
-0.3239030838 -0.1655157506 0.6248362660 4285953652
-0.3235260546 -0.1646296680 0.6241089106 4285822579
-0.3231486082 -0.1637449563 0.6233807802 4287270025
-0.3232189715 -0.1630878448 0.6235165000 4288651678
-0.3237374723 -0.1626555920 0.6245167851 4289178022
-0.3229104877 -0.1615479738 0.6229214072 4289704366
-0.3220828176 -0.1604435742 0.6213247776 4290296503
-0.3212545514 -0.1593424082 0.6197269559 4289967538
-0.3199768364 -0.1580228508 0.6172621846 4288980643
-0.3186983168 -0.1567083597 0.6147958040 4288454301
-0.3169699907 -0.1551791430 0.6114617586 4287927957
-0.3147916198 -0.1534379572 0.6072594523 4287862164
-0.3130611777 -0.1519234926 0.6039212942 4288125336
-0.3113297522 -0.1504159719 0.6005812287 4288125336
-0.3091479838 -0.1486992687 0.5963724256 4287993750
-0.3074144721 -0.1472065449 0.5930283070 4287993750
-0.3065790236 -0.1461493820 0.5914166570 4287993750
-0.3052933216 -0.1448821276 0.5889364481 4287993750
-0.3044565618 -0.1438324749 0.5873222351 4287927957
-0.3031693697 -0.1425745785 0.5848391652 4287927957
-0.3023312688 -0.1415324360 0.5832223892 4287927957
-0.3014925718 -0.1404936016 0.5816044807 4287927957
-0.3011033535 -0.1396668553 0.5808536410 4287927957
-0.3007136881 -0.1388415843 0.5801019669 4287927957
-0.3003236353 -0.1380177885 0.5793494582 4287927957
-0.2994827628 -0.1369894594 0.5777273774 4287994264
-0.2986413240 -0.1359644681 0.5761041641 4287862678
-0.2977992594 -0.1349428147 0.5744798183 4287928725
-0.2974072397 -0.1341277212 0.5737235546 4287994518
-0.2965640724 -0.1331118345 0.5720970035 4287862932
-0.2961711287 -0.1323006600 0.5713389516 4287665553
-0.2957777381 -0.1314909756 0.5705801249 4287862162
-0.2953839600 -0.1306827962 0.5698204041 4287993748
-0.2945386767 -0.1296775341 0.5681898594 4287467404
-0.2936928272 -0.1286756396 0.5665581226 4287533197
-0.2932976186 -0.1278738528 0.5657957196 4287730576
-0.2929019928 -0.1270735711 0.5650324821 4287335818
-0.2920545340 -0.1260799319 0.5633977056 4286875267
-0.2912065089 -0.1250896901 0.5617617965 4287467404
-0.2908094823 -0.1242958307 0.5609958768 4288914850
-0.2899603844 -0.1233114302 0.5593578815 4290033331
-0.2895624340 -0.1225215644 0.5585902333 4290493622
-0.2887122631 -0.1215430200 0.5569502115 4290756794
-0.2887653410 -0.1209464297 0.5570525527 4290888380
-0.2883661687 -0.1201611757 0.5562825203 4290756794
-0.2879665792 -0.1193774641 0.5555117130 4290691001
-0.2875666022 -0.1185952947 0.5547401309 4290691001
-0.2876184583 -0.1180002093 0.5548401475 4290756794
-0.2872177362 -0.1172202006 0.5540671349 4290888380
-0.2868166268 -0.1164417490 0.5532933474 4290756794
-0.2868675888 -0.1158475801 0.5533916354 4290756794
-0.2869183123 -0.1152530909 0.5534895062 4290691001
-0.2869687676 -0.1146582887 0.5535868406 4290691001
-0.2870190144 -0.1140631810 0.5536837578 4290691001
-0.2870689929 -0.1134677529 0.5537801385 4290756794
-0.2871187329 -0.1128720194 0.5538761020 4290756794
-0.2871682048 -0.1122759730 0.5539715886 4290822587
-0.2876704931 -0.1118557677 0.5549405217 4290822585
-0.2877195776 -0.1112581715 0.5550351739 4290625206
-0.2864088714 -0.1101374626 0.5525067449 4290690999
-0.2882702351 -0.1102353781 0.5560975075 4290822585
-0.2883186638 -0.1096359268 0.5561909080 4290954173
-0.2870066166 -0.1085218489 0.5536598563 4290954173
-0.2884147465 -0.1084361225 0.5563762784 4290822845
-0.2884624302 -0.1078357697 0.5564682484 4290691259
-0.2894171178 -0.1075723320 0.5583099127 4290297273
-0.2881033123 -0.1064665094 0.5557754636 4290560445
-0.2872425914 -0.1055327728 0.5541150570 4290428859
-0.2900121808 -0.1059287190 0.5594578385 4290363066
-0.2877891958 -0.1044999212 0.5551694632 4291086535
-0.2887431979 -0.1042274609 0.5570098758 4292468188
-0.3370092213 -0.1950230747 0.6515150070 4290955213
-0.3362034261 -0.1938346326 0.6499572396 4289441974
-0.3353969753 -0.1926492602 0.6483981609 4288322978
-0.3345898092 -0.1914669573 0.6468377113 4287270290
-0.3315597475 -0.1890208423 0.6409799457 4285428086
-0.3329735100 -0.1891116053 0.6437129974 4283849054
-0.3299410045 -0.1866806000 0.6378505230 4283322710
-0.3282410800 -0.1850137413 0.6345641613 4283191124
-0.3278746903 -0.1841029674 0.6338558793 4283190609
-0.3270628750 -0.1829446107 0.6322864294 4282993230
-0.3271405697 -0.1822853833 0.6324366331 4282927437
-0.3267728090 -0.1813785732 0.6317256689 4284901227
-0.3268499076 -0.1807193160 0.6318747401 4288256668
-0.3269267380 -0.1800595820 0.6320232749 4287335566
-0.3270033598 -0.1793993860 0.6321713924 4286217085
-0.3270797133 -0.1787387282 0.6323190331 4284967018
-0.3267101049 -0.1778349876 0.6316044927 4283979866
-0.3267858624 -0.1771743000 0.6317509413 4284045659
-0.3264154792 -0.1762723625 0.6310348511 4284045657
-0.3260446191 -0.1753717512 0.6303179264 4284637794
-0.3256732821 -0.1744724959 0.6296000481 4285624687
-0.3257477582 -0.1738127023 0.6297440529 4285427308
-0.3253756464 -0.1729152650 0.6290246248 4284966759
-0.3245566487 -0.1717828810 0.6274413466 4286085240
-0.3246300519 -0.1711244583 0.6275832653 4287006340
-0.3242565989 -0.1702310890 0.6268612742 4286479996
-0.3229891956 -0.1688719690 0.6244111061 4286743168
-0.3221677840 -0.1677504927 0.6228231788 4286085238
-0.3217926919 -0.1668639779 0.6220979691 4285953652
-0.3218641579 -0.1662096977 0.6222361326 4286216824
-0.3214882314 -0.1653250307 0.6215094328 4286282617
-0.3215591013 -0.1646707803 0.6216464043 4286479996
-0.3211824000 -0.1637879908 0.6209181547 4286216824
-0.3212526739 -0.1631337851 0.6210539937 4285295722
-0.3213226795 -0.1624791622 0.6211893559 4286019958
-0.3213924766 -0.1618241072 0.6213242412 4287993748
-0.3214619756 -0.1611686200 0.6214586496 4289243815
-0.3210834265 -0.1602891684 0.6207268238 4289835952
-0.3202565312 -0.1591884643 0.6191282272 4290230710
-0.3194289804 -0.1580910087 0.6175284386 4290164917
-0.3181527257 -0.1567759812 0.6150611043 4289112231
-0.3168756068 -0.1554660201 0.6125921607 4288125336
-0.3155976832 -0.1541611552 0.6101216674 4287730578
-0.3138705492 -0.1526433229 0.6067827344 4287927957
-0.3121424317 -0.1511324197 0.6034418941 4287993750
-0.3104133010 -0.1496284604 0.6000990868 4287993750
-0.3082345128 -0.1479161531 0.5958870053 4288059543
-0.3069520593 -0.1466414034 0.5934077501 4288059543
-0.3052199781 -0.1451583356 0.5900591612 4287993750
-0.3043847680 -0.1441073120 0.5884445310 4287993750
-0.3030999303 -0.1428479850 0.5859606266 4287927957
-0.3018142879 -0.1415937841 0.5834752321 4287927957
-0.3009770811 -0.1405545324 0.5818567276 4287927957
-0.3005885780 -0.1397274435 0.5811056495 4287927957
-0.3001996279 -0.1389018446 0.5803537369 4287862164
-0.2998102903 -0.1380777061 0.5796010494 4287862164
-0.2989709079 -0.1370489597 0.5779783726 4287731346
-0.2981309593 -0.1360235512 0.5763545036 4287797139
-0.2977401614 -0.1352057159 0.5755990148 4287797139
-0.2968990803 -0.1341860592 0.5739730000 4287731346
-0.2965073586 -0.1333721280 0.5732157230 4287797137
-0.2961151898 -0.1325596869 0.5724576116 4287862930
-0.2957226336 -0.1317487508 0.5716986656 4287927955
-0.2948794663 -0.1307397187 0.5700685978 4287730576
-0.2944859564 -0.1299327165 0.5693079233 4287598992
-0.2936416864 -0.1289294809 0.5676757693 4287927957
-0.2932472825 -0.1281264275 0.5669132471 4287927957
-0.2924019098 -0.1271290034 0.5652790070 4287664785
-0.2915559709 -0.1261349618 0.5636435747 4287467404
-0.2911601663 -0.1253383160 0.5628783703 4286941060
-0.2907639146 -0.1245432049 0.5621123910 4286941060
-0.2899163961 -0.1235574558 0.5604739189 4288191127
-0.2890683115 -0.1225751042 0.5588343740 4289704106
-0.2886706889 -0.1217864528 0.5580656528 4290362036
-0.2882726490 -0.1209993288 0.5572961569 4290888380
-0.2878742218 -0.1202137470 0.5565258861 4290888380
-0.2879266739 -0.1196172014 0.5566273332 4290756794
-0.2875275016 -0.1188337728 0.5558556318 4290559415
-0.2871279120 -0.1180518940 0.5550831556 4290625208
-0.2867279351 -0.1172715649 0.5543099046 4290756794
-0.2863275409 -0.1164927855 0.5535358787 4290625208
-0.2863784730 -0.1158983782 0.5536342859 4290691001
-0.2859773636 -0.1151217818 0.5528588891 4290691001
-0.2860276997 -0.1145276725 0.5529562235 4290756794
-0.2860778272 -0.1139332578 0.5530530810 4290822587
-0.2861276865 -0.1133385226 0.5531494617 4290822587
-0.2857252061 -0.1125653759 0.5523713827 4290822587
-0.2857744992 -0.1119709685 0.5524666905 4290822587
-0.2862758040 -0.1115524769 0.5534358025 4290691001
-0.2863246799 -0.1109565124 0.5535303354 4290888380
-0.2863733172 -0.1103602499 0.5536243320 4290954425
-0.2868742049 -0.1099370793 0.5545926690 4290757046
-0.2869224250 -0.1093392670 0.5546858907 4290757046
-0.2860651314 -0.1083981171 0.5530285835 4290888632
-0.2865654230 -0.1079721600 0.5539957285 4290757307
-0.2866128385 -0.1073743924 0.5540874004 4290691514
-0.2871128619 -0.1069450080 0.5550540090 4290757054
-0.2867068946 -0.1061779708 0.5542692542 4290691261
-0.2881125808 -0.1060796902 0.5569867492 4290625468
-0.2881592214 -0.1054779142 0.5570768714 4290625468
-0.2891119123 -0.1052056327 0.5589186549 4290559675
-0.2914243340 -0.1054211408 0.5633890629 4290757054
-0.2892042100 -0.1039968282 0.5590971112 4291810512
-0.3350158334 -0.1950078458 0.6490549445 4288981169
-0.3346548975 -0.1940773726 0.6483556628 4286941840
-0.3338501155 -0.1928920299 0.6467965245 4286349703
-0.3326012194 -0.1914544851 0.6443769336 4286349443
-0.3313514292 -0.1900218129 0.6419555545 4286941580
-0.3296570480 -0.1883405149 0.6386728883 4287598738
-0.3284053504 -0.1869184822 0.6362479329 4285624948
-0.3262649775 -0.1849979460 0.6321011782 4283190609
-0.3250113130 -0.1835874766 0.6296723485 4283453781
-0.3242008984 -0.1824318171 0.6281022429 4283716954
-0.3238340020 -0.1815283000 0.6273914576 4283782747
-0.3234666586 -0.1806260943 0.6266797781 4283059024
-0.3235433102 -0.1799724400 0.6268282533 4282993231
-0.3231751621 -0.1790720075 0.6261150241 4283255890
-0.3232512176 -0.1784183234 0.6262623668 4282926925
-0.3233270347 -0.1777641773 0.6264092326 4282861131
-0.3234025836 -0.1771095842 0.6265556216 4282861131
-0.3230329752 -0.1762118042 0.6258395314 4283190096
-0.3231079280 -0.1755571812 0.6259847879 4283584854
-0.3231826723 -0.1749021113 0.6261295676 4283781974
-0.3223666251 -0.1737665683 0.6245485544 4284308318
-0.3219953179 -0.1728732884 0.6238291860 4284900455
-0.3220689893 -0.1722195745 0.6239719391 4284374111
-0.3216968775 -0.1713281125 0.6232509613 4284045144
-0.3213243186 -0.1704380214 0.6225291491 4284834660
-0.3209512830 -0.1695492864 0.6218065023 4286282617
-0.3205778301 -0.1686619222 0.6210829616 4286940547
-0.3197579384 -0.1675422639 0.6194944978 4286875008
-0.3193834722 -0.1666585654 0.6187690496 4286348664
-0.3194547296 -0.1660080999 0.6189070940 4285953652
-0.3190794885 -0.1651262492 0.6181800961 4285953652
-0.3191501498 -0.1644758284 0.6183170080 4286282619
-0.3196670115 -0.1640540957 0.6193183661 4286282619
-0.3192907274 -0.1631736904 0.6185893416 4287137928
-0.3193606436 -0.1625219733 0.6187248230 4289243304
-0.3194303215 -0.1618698239 0.6188597679 4290098613
-0.3194997311 -0.1612172574 0.6189942956 4289506476
-0.3191219568 -0.1603396982 0.6182623506 4288716960
-0.3191907704 -0.1596871912 0.6183956861 4288585374
-0.3188121915 -0.1588115394 0.6176622510 4289243563
-0.3179859519 -0.1577154547 0.6160615087 4289769907
-0.3171590567 -0.1566226333 0.6144595146 4289638573
-0.3163315356 -0.1555330455 0.6128562689 4289046436
-0.3155033886 -0.1544467211 0.6112518311 4288125334
-0.3146746159 -0.1533636600 0.6096462011 4287796369
-0.3129498065 -0.1518493742 0.6063045263 4288191127
-0.3112239838 -0.1503420472 0.6029609442 4288059541
-0.3090492487 -0.1486262530 0.5987476707 4287664785
-0.3073213696 -0.1471337527 0.5954000950 4287862164
-0.3055924773 -0.1456482112 0.5920505524 4287862678
-0.3043107688 -0.1443822980 0.5895673633 4287862678
-0.3030282855 -0.1431215107 0.5870826840 4287928471
-0.3017449975 -0.1418658793 0.5845964551 4287796885
-0.3004609048 -0.1406154037 0.5821087360 4287665299
-0.3000731170 -0.1397879869 0.5813574195 4287796885
-0.2996849120 -0.1389620453 0.5806052685 4287928471
-0.2992962599 -0.1381375790 0.5798523426 4287731092
-0.2984583974 -0.1371084154 0.5782290697 4287927955
-0.2976199090 -0.1360825896 0.5766046643 4287862162
-0.2972298563 -0.1352644116 0.5758488774 4287927955
-0.2968393266 -0.1344477385 0.5750923753 4287993748
-0.2964484096 -0.1336325556 0.5743349791 4287993748
-0.2956078351 -0.1326173097 0.5727064610 4287993748
-0.2952159941 -0.1318060458 0.5719472766 4287927953
-0.2948237062 -0.1309962869 0.5711873174 4287927953
-0.2939815223 -0.1299892664 0.5695556402 4287927953
-0.2931387424 -0.1289856136 0.5679228902 4287993746
-0.2927450538 -0.1281822175 0.5671601295 4288059541
-0.2923509777 -0.1273803562 0.5663966537 4287993748
-0.2915065885 -0.1263849735 0.5647608042 4287796369
-0.2906616628 -0.1253929585 0.5631238222 4287401611
-0.2902661562 -0.1245975271 0.5623575449 4286876035
-0.2894201279 -0.1236113682 0.5607184768 4286810242
-0.2890237272 -0.1228199154 0.5599504709 4288059282
-0.2886269093 -0.1220300049 0.5591816902 4289440935
-0.2882297039 -0.1212416217 0.5584121346 4290493622
-0.2878320515 -0.1204547808 0.5576418042 4290756794
-0.2874340117 -0.1196694896 0.5568706393 4290822587
-0.2870355844 -0.1188857332 0.5560986996 4290822587
-0.2866367400 -0.1181035340 0.5553259850 4290822588
-0.2862374783 -0.1173228770 0.5545524955 4290954174
-0.2858378291 -0.1165437847 0.5537781715 4290822588
-0.2854377627 -0.1157662421 0.5530031323 4290756795
-0.2850373089 -0.1149902642 0.5522272587 4290691001
-0.2850875556 -0.1143968552 0.5523245931 4290822587
-0.2851375341 -0.1138031334 0.5524214506 4290888380
-0.2851872742 -0.1132090986 0.5525177717 4290888380
-0.2847854495 -0.1124365628 0.5517393351 4290888380
-0.2848346233 -0.1118428558 0.5518345833 4291019966
-0.2848835588 -0.1112488359 0.5519294143 4290888380
-0.2853838205 -0.1108298749 0.5528985858 4290888380
-0.2849806845 -0.1100598872 0.5521175861 4290888380
-0.2850289047 -0.1094649509 0.5522109866 4290822587
-0.2846250534 -0.1086971834 0.5514286160 4290822587
-0.2855764329 -0.1084457785 0.5532717109 4290822587
-0.2851720154 -0.1076783612 0.5524882674 4290822587
-0.2856712639 -0.1072519347 0.5534554720 4290822587
-0.2848141193 -0.1063170582 0.5517948866 4290954174
-0.2853129506 -0.1058890969 0.5527612567 4290888381
-0.2867161334 -0.1057926863 0.5554797649 4290888381
-0.2873071730 -0.1041554213 0.5566248894 4290756795
-0.2900680900 -0.1045319214 0.5619738102 4291019967
-0.2896614373 -0.1037618667 0.5611860156 4291414725
-0.3334691226 -0.1952454746 0.6474515796 4289244595
-0.3331090212 -0.1943160444 0.6467524171 4286218117
-0.3327484429 -0.1933878958 0.6460523009 4286217602
-0.3315022290 -0.1919484884 0.6436327100 4286349188
-0.3302551210 -0.1905139536 0.6412113309 4285757306
-0.3285642862 -0.1888297945 0.6379285455 4285099376
-0.3268723786 -0.1871522963 0.6346435547 4286282878
-0.3256224096 -0.1857341677 0.6322166324 4287664531
-0.3243715167 -0.1843209267 0.6297879815 4286743429
-0.3231197596 -0.1829125881 0.6273576021 4284440674
-0.3218671381 -0.1815091670 0.6249255538 4282597959
-0.3215005398 -0.1806088835 0.6242137551 4282992717
-0.3211334646 -0.1797099262 0.6235011220 4283453268
-0.3212096393 -0.1790596247 0.6236489415 4283124303
-0.3208417594 -0.1781624407 0.6229347587 4283058510
-0.3204734623 -0.1772665828 0.6222196817 4283321682
-0.3205486834 -0.1766166985 0.6223657131 4283058764
-0.3201795816 -0.1757226437 0.6216490865 4283124557
-0.3202542365 -0.1750727445 0.6217939854 4283321936
-0.3203286231 -0.1744223833 0.6219384074 4283716694
-0.3199583888 -0.1735305786 0.6212195754 4283781972
-0.3195877075 -0.1726401150 0.6204998493 4283847765
-0.3196611404 -0.1719902158 0.6206424832 4284110937
-0.3192896843 -0.1711015701 0.6199212670 4283913558
-0.3189177513 -0.1702142805 0.6191991568 4284045144
-0.3185453713 -0.1693283617 0.6184761524 4284834660
-0.3186175525 -0.1686794013 0.6186162829 4285164390
-0.3182443976 -0.1677953303 0.6178917885 4285624941
-0.3174255788 -0.1666788608 0.6163020134 4286348664
-0.3174967170 -0.1660313010 0.6164401174 4286743422
-0.3175676167 -0.1653833091 0.6165778041 4286414457
-0.3176382780 -0.1647349000 0.6167149544 4285953906
-0.3177086711 -0.1640860438 0.6168516278 4285954165
-0.3177788258 -0.1634367555 0.6169878840 4286085751
-0.3178487420 -0.1627870500 0.6171236038 4287072648
-0.3174725175 -0.1619095057 0.6163931489 4288980645
-0.3175418377 -0.1612598449 0.6165277362 4290690748
-0.3176109195 -0.1606097668 0.6166618466 4290822334
-0.3176797330 -0.1599592716 0.6167954206 4289440683
-0.3177483082 -0.1593083441 0.6169285774 4287993237
-0.3173702359 -0.1584341675 0.6161945462 4287598992
-0.3169917464 -0.1575613916 0.6154596806 4287730578
-0.3166128099 -0.1566900462 0.6147239804 4288717471
-0.3162334263 -0.1558201015 0.6139873862 4289046436
-0.3154068589 -0.1547324210 0.6123825312 4288651678
-0.3145796657 -0.1536480039 0.6107764840 4287927955
-0.3137518466 -0.1525668502 0.6091692448 4287796369
-0.3120293319 -0.1510561258 0.6058248281 4287862162
-0.3103058338 -0.1495523602 0.6024785638 4287862162
-0.3085813224 -0.1480555534 0.5991302729 4287862162
-0.3064085245 -0.1463520676 0.5949116945 4287928471
-0.3046819568 -0.1448701322 0.5915594101 4287862678
-0.3034018874 -0.1436069906 0.5890741348 4287796885
-0.3021210432 -0.1423490047 0.5865872502 4287796885
-0.3003917336 -0.1408861876 0.5832297206 4287731092
-0.3000047505 -0.1400575191 0.5824783444 4287665299
-0.2991694808 -0.1390222013 0.5808566213 4287665299
-0.2983336151 -0.1379902214 0.5792337656 4287665299
-0.2979452014 -0.1371678263 0.5784795880 4287796369
-0.2975563407 -0.1363469064 0.5777246356 4287862162
-0.2967188656 -0.1353230625 0.5760985613 4287927955
-0.2963290811 -0.1345060617 0.5753418207 4287993748
-0.2959388793 -0.1336905360 0.5745841861 4287993748
-0.2950997949 -0.1326748878 0.5729550719 4287927955
-0.2947086692 -0.1318632811 0.5721956491 4287927955
-0.2943171263 -0.1310531944 0.5714354515 4287993748
-0.2934764326 -0.1300457567 0.5698031783 4287797139
-0.2926351428 -0.1290416867 0.5681697726 4287797139
-0.2926911116 -0.1284349561 0.5682784319 4287797139
-0.2918488085 -0.1274357885 0.5666430593 4287731346
-0.2910059392 -0.1264399886 0.5650066137 4287665553
-0.2906116843 -0.1256417632 0.5642411113 4287533967
-0.2902169824 -0.1248450577 0.5634747744 4287336588
-0.2898218930 -0.1240498871 0.5627076626 4287205002
-0.2889769375 -0.1230648533 0.5610671639 4287204230
-0.2885809541 -0.1222736761 0.5602983236 4287862160
-0.2881845236 -0.1214840338 0.5595286489 4288849055
-0.2877877057 -0.1206959412 0.5587581992 4289901743
-0.2873905003 -0.1199093834 0.5579869747 4290494135
-0.2865430415 -0.1189376563 0.5563415289 4290559928
-0.2861449122 -0.1181551293 0.5555685759 4290559673
-0.2857463956 -0.1173741519 0.5547948480 4290625466
-0.2853474617 -0.1165947393 0.5540202856 4290559416
-0.2849481404 -0.1158168763 0.5532450080 4290691002
-0.2845484018 -0.1150405705 0.5524688959 4290822587
-0.2841482759 -0.1142658368 0.5516920090 4290756794
-0.2841981351 -0.1136728078 0.5517888069 4290756794
-0.2837972939 -0.1129002646 0.5510105491 4290822587
-0.2838465869 -0.1123075634 0.5511062741 4290888380
-0.2838956714 -0.1117145494 0.5512015224 4290888380
-0.2839444876 -0.1111212298 0.5512962937 4290756794
-0.2839930356 -0.1105276048 0.5513905883 4290822587
-0.2844922245 -0.1101081669 0.5523598194 4290822587
-0.2840894759 -0.1093394384 0.5515778065 4290822587
-0.2832352817 -0.1083996817 0.5499193668 4290822587
-0.2841849029 -0.1081500724 0.5517631173 4290822587
-0.2842322588 -0.1075549424 0.5518550277 4290888380
-0.2842793465 -0.1069595143 0.5519464612 4290888380
-0.2829722762 -0.1058572978 0.5494087338 4290888381
-0.2843728065 -0.1057677791 0.5521279573 4290888381
-0.2848706543 -0.1053384021 0.5530945063 4290888381
-0.2840137780 -0.1044088751 0.5514308214 4290888381
-0.2854143679 -0.1043080688 0.5541502237 4290822588
-0.2863635123 -0.1040371880 0.5559930205 4290691002
-0.2873126566 -0.1037622243 0.5578358769 4290756795
-0.2860027552 -0.1026721820 0.5552926064 4290954174
-0.2851440609 -0.1017488018 0.5536253452 4290889156
-0.2860926688 -0.1014701426 0.5554671884 4292073430
-0.3315658271 -0.1945506334 0.6451473832 4287072913
-0.3316476941 -0.1938816756 0.6453067064 4285691260
-0.3308458626 -0.1926976889 0.6437465549 4286414981
-0.3296015561 -0.1912603974 0.6413254142 4286349188
-0.3279144168 -0.1895724684 0.6380426288 4286217085
-0.3266682029 -0.1881458163 0.6356178522 4285888120
-0.3245368302 -0.1862166226 0.6314706802 4284901479
-0.3232886493 -0.1848015189 0.6290420294 4285098858
-0.3220395744 -0.1833913028 0.6266116500 4286940547
-0.3207896352 -0.1819859892 0.6241795421 4287532684
-0.3199813962 -0.1808357090 0.6226068735 4285756277
-0.3191725016 -0.1796885431 0.6210329533 4283914073
-0.3192484975 -0.1790411621 0.6211808324 4282861385
-0.3188813925 -0.1781458855 0.6204665303 4283190350
-0.3185138106 -0.1772519499 0.6197513342 4283190350
-0.3185888827 -0.1766049862 0.6198974252 4283124557
-0.3182205260 -0.1757128388 0.6191806793 4283519313
-0.3178517222 -0.1748220325 0.6184630394 4283585106
-0.3174824715 -0.1739325821 0.6177445650 4284177243
-0.3175562620 -0.1732864976 0.6178881526 4284308829
-0.3171862364 -0.1723988503 0.6171681285 4284308827
-0.3168157339 -0.1715125591 0.6164472699 4284111448
-0.3168886304 -0.1708669364 0.6165890694 4283979862
-0.3169612586 -0.1702208817 0.6167304516 4283979862
-0.3165896237 -0.1693368703 0.6160073280 4284045655
-0.3166616857 -0.1686908305 0.6161475182 4284177241
-0.3162892759 -0.1678086668 0.6154229045 4284374874
-0.3163607419 -0.1671626419 0.6155619621 4284572253
-0.3159875274 -0.1662823260 0.6148357987 4284901217
-0.3156138957 -0.1654033810 0.6141088009 4285559147
-0.3156844378 -0.1647578776 0.6142460108 4286019699
-0.3157547116 -0.1641119421 0.6143828034 4285822320
-0.3158247769 -0.1634655744 0.6145191193 4286283130
-0.3163394928 -0.1630480886 0.6155205965 4288059541
-0.3164091408 -0.1623999625 0.6156561375 4288980643
-0.3160334527 -0.1615238935 0.6149250865 4289638573
-0.3161025047 -0.1608758122 0.6150594950 4290691261
-0.3161713183 -0.1602273136 0.6151933670 4291480777
-0.3162398934 -0.1595783979 0.6153268218 4291941328
-0.3163082004 -0.1589290500 0.6154597402 4291743949
-0.3163762689 -0.1582792848 0.6155921817 4289836468
-0.3159984052 -0.1574070752 0.6148568988 4287336334
-0.3156200647 -0.1565362960 0.6141207814 4287006853
-0.3152413070 -0.1556669325 0.6133838296 4288125334
-0.3153080940 -0.1550182551 0.6135137677 4288651678
-0.3144824803 -0.1539324820 0.6119073033 4288388506
-0.3141024113 -0.1530673802 0.6111677885 4287993748
-0.3128293753 -0.1517707109 0.6086907387 4287862162
-0.3111091554 -0.1502635628 0.6053436399 4287927955
-0.3093879819 -0.1487633884 0.6019946337 4287730576
-0.3076657951 -0.1472701728 0.5986436605 4287796885
-0.3050493598 -0.1453582942 0.5935527682 4287796885
-0.3037717640 -0.1440927833 0.5910668373 4287731092
-0.3020465374 -0.1426214427 0.5877099633 4287731092
-0.3007672727 -0.1413671672 0.5852208138 4287731092
-0.2999341786 -0.1403271854 0.5835998058 4287796885
-0.2991005182 -0.1392905265 0.5819776654 4287862678
-0.2982662320 -0.1382571757 0.5803543925 4287862678
-0.2974313498 -0.1372271776 0.5787299275 4287730576
-0.2970432043 -0.1364059299 0.5779746771 4287796369
-0.2962072194 -0.1353816688 0.5763480663 4287731346
-0.2958181798 -0.1345643252 0.5755910277 4287797139
-0.2954286933 -0.1337484717 0.5748332143 4287862678
-0.2950387895 -0.1329341233 0.5740745664 4287796885
-0.2942006886 -0.1319204718 0.5724438429 4287797139
-0.2938098907 -0.1311100572 0.5716834068 4287862932
-0.2929706872 -0.1301022023 0.5700505376 4287797139
-0.2921308875 -0.1290977150 0.5684164762 4287731346
-0.2921867967 -0.1284907460 0.5685253143 4287731092
-0.2917942405 -0.1276873052 0.5677614808 4287731092
-0.2909529507 -0.1266901493 0.5661244988 4287665299
-0.2905595005 -0.1258906722 0.5653589368 4287665299
-0.2897171378 -0.1248993725 0.5637199283 4287665553
