VERSION 0.7
FIELDS x y z rgba
SIZE 4 4 4 4
TYPE F F F U
COUNT 1 1 1 1
WIDTH 920
HEIGHT 1
VIEWPOINT 0.0 0.0 0.0 1.0 0.0 0.0 0.0
POINTS 920
DATA ascii
-0.3583285809 -0.2307164222 0.6711151600 4289573049
-0.3575243056 -0.2294545919 0.6696088314 4286217606
-0.3576212525 -0.2287726253 0.6697903872 4284375402
-0.3581690490 -0.2283777297 0.6708163023 4283914851
-0.3582656384 -0.2276937813 0.6709972024 4284901746
-0.3583619893 -0.2270092964 0.6711776853 4285428090
-0.3548464179 -0.2240439057 0.6645933986 4285295734
-0.3576507866 -0.2250702977 0.6698457003 4285822078
-0.3559393883 -0.2232526094 0.6666404009 4285887871
-0.3533231318 -0.2208764106 0.6617404222 4285624699
-0.3520610332 -0.2193547934 0.6593766212 4285624697
-0.3507979810 -0.2178378403 0.6570110321 4285361525
-0.3499861360 -0.2166054100 0.6554905176 4284440423
-0.3496258855 -0.2156549096 0.6548157930 4283650907
-0.3492651284 -0.2147056013 0.6541401744 4283848286
-0.3493564725 -0.2140347660 0.6543112397 4284703595
-0.3489949107 -0.2130870223 0.6536340714 4285953402
-0.3490856588 -0.2124159932 0.6538040042 4286742918
-0.3487232625 -0.2114698142 0.6531252861 4287269262
-0.3488133848 -0.2107986212 0.6532940865 4286874504
-0.3489032984 -0.2101269066 0.6534624696 4285953402
-0.3489929438 -0.2094546705 0.6536303759 4285229679
-0.3490823507 -0.2087819129 0.6537978649 4284440163
-0.3491715491 -0.2081086487 0.6539648771 4283519061
-0.3497140408 -0.2077042609 0.6549809575 4283321682
-0.3502565622 -0.2072976083 0.6559969783 4283190096
-0.3507990539 -0.2068886906 0.6570129991 4283256143
-0.3517954350 -0.2067442685 0.6588791609 4283256143
-0.3527920544 -0.2065958232 0.6607457399 4283058764
-0.3533347249 -0.2061783373 0.6617621183 4282992971
-0.3538773656 -0.2057585865 0.6627784371 4282992971
-0.3544199765 -0.2053365707 0.6637946963 4282861385
-0.3554170728 -0.2051746398 0.6656621099 4282795592
-0.3555051386 -0.2044856995 0.6658270955 4282598213
-0.3555929363 -0.2037962526 0.6659915447 4282532420
-0.3561353385 -0.2033660114 0.6670073867 4282466627
-0.3562227786 -0.2026746571 0.6671711206 4282137662
-0.3558548689 -0.2017248273 0.6664820910 4281808697
-0.3559416831 -0.2010333538 0.6666446924 4281743161
-0.3560282290 -0.2003413588 0.6668067575 4281874747
-0.3565698862 -0.1999041587 0.6678212881 4281875001
-0.3566560149 -0.1992102861 0.6679825783 4281677622
-0.3571975231 -0.1987694204 0.6689967513 4281743415
-0.3577389717 -0.1983262897 0.6700108051 4281809208
-0.3578245342 -0.1976291388 0.6701711416 4281743415
-0.3579098582 -0.1969314665 0.6703308821 4281546036
-0.3579949141 -0.1962333024 0.6704902053 4281282864
-0.3580797315 -0.1955346465 0.6706490517 4281085485
-0.3581642509 -0.1948354989 0.6708073616 4281216810
-0.3582485318 -0.1941358447 0.6709651947 4280953638
-0.3578760624 -0.1931892931 0.6702675819 4281543983
-0.3584162593 -0.1927350760 0.6712793708 4282004534
-0.3584997356 -0.1920339465 0.6714357138 4282202175
-0.3581261635 -0.1910886019 0.6707360148 4281741624
-0.3582090139 -0.1903873831 0.6708911657 4280625702
-0.3578345776 -0.1894437522 0.6701899171 4280691495
-0.3565454483 -0.1880193204 0.6677754521 4281611065
-0.3552554250 -0.1865997761 0.6653593779 4282992718
-0.3535071909 -0.1849458814 0.6620851159 4283715414
-0.3526726961 -0.1837754101 0.6605221629 4283978586
-0.3518375158 -0.1826080680 0.6589580178 4286870272
-0.3505440652 -0.1812072843 0.6565354466 4289699370
-0.3492496908 -0.1798114181 0.6541112065 4291606327
-0.3484122753 -0.1786552519 0.6525428295 4292066878
-0.3475742042 -0.1775022447 0.6509732008 4292263741
-0.3467354476 -0.1763523668 0.6494023204 4292132155
-0.3454378843 -0.1749735773 0.6469721198 4292132153
-0.3441394567 -0.1735997647 0.6445402503 4292132153
-0.3428401649 -0.1722309142 0.6421067715 4292263991
-0.3419984281 -0.1710963845 0.6405303478 4292329784
-0.3406974971 -0.1697365791 0.6380938292 4292592956
-0.3393957019 -0.1683817655 0.6356557012 4293185093
-0.3380930722 -0.1670319438 0.6332159042 4293645646
-0.3372483850 -0.1659128517 0.6316339374 4294171990
-0.3368619978 -0.1650217772 0.6309102774 4294500450
-0.3364751637 -0.1641320884 0.6301857829 4294500450
-0.3360878825 -0.1632437855 0.6294603944 4294434408
-0.3357001245 -0.1623568833 0.6287341714 4294434408
-0.3353119195 -0.1614713669 0.6280071139 4294499949
-0.3353826702 -0.1608075351 0.6281396151 4294368363
-0.3354531825 -0.1601432860 0.6282716990 4294303843
-0.3355233967 -0.1594786197 0.6284032464 4294303843
-0.3355933726 -0.1588135362 0.6285342574 4294369133
-0.3356631100 -0.1581480205 0.6286648512 4294434926
-0.3357325494 -0.1574821174 0.6287949085 4294500970
-0.3358017206 -0.1568157822 0.6289244890 4294566763
-0.3358706534 -0.1561490446 0.6290535331 4294501228
-0.3363994956 -0.1556948870 0.6300440431 4294567021
-0.3369282484 -0.1552384794 0.6310343742 4294567284
-0.3374569416 -0.1547798514 0.6320245266 4294501491
-0.3379855454 -0.1543189734 0.6330145597 4294501994
-0.3389746249 -0.1540651917 0.6348670125 4294567787
-0.3404244483 -0.1540157497 0.6375824213 4294830708
-0.3423353136 -0.1541678905 0.6411612630 4294896501
-0.3447074890 -0.1545188576 0.6456041336 4294171792
-0.3475412130 -0.1550659090 0.6509113908 4290421591
-0.3503757417 -0.1556015164 0.6562202573 4287073162
-0.3532111049 -0.1561256796 0.6615305543 4287204748
-0.3560472429 -0.1566383988 0.6668424010 4286349439
-0.3593454659 -0.1573416293 0.6730196476 4285559923
-0.3617219031 -0.1576294452 0.6774704456 4283914847
-0.3640989065 -0.1579076350 0.6819223762 4282072643
-0.3660149574 -0.1579769552 0.6855109930 4282072129
-0.3674697876 -0.1578402072 0.6882357597 4284703849
-0.3684630990 -0.1575001180 0.6900961399 4287664280
-0.3689946532 -0.1569594741 0.6910916567 4289506484
-0.3695260584 -0.1564165652 0.6920869350 4290428107
-0.3708004355 -0.1476966739 0.6944736838 4288059036
-0.3708661497 -0.1469510943 0.6945967674 4285822843
-0.3709315360 -0.1462051272 0.6947192550 4283388503
-0.3705334663 -0.1452771723 0.6939737201 4282204229
-0.3705981672 -0.1445313394 0.6940948963 4281414713
-0.3701992333 -0.1436053962 0.6933476925 4281348920
-0.3702632189 -0.1428597420 0.6934675574 4281808957
-0.3703269064 -0.1421136856 0.6935868263 4282203715
-0.3699267209 -0.1411903203 0.6928372979 4283059024
-0.3699896932 -0.1404444277 0.6929552555 4284374884
-0.3700523674 -0.1396981627 0.6930726171 4285690744
-0.3705785275 -0.1391256452 0.6940580606 4285888123
-0.3706406355 -0.1383776963 0.6941744089 4286085502
-0.3707024455 -0.1376293600 0.6942901611 4286019709
-0.3707639277 -0.1368806511 0.6944053769 4285953916
-0.3708251119 -0.1361315846 0.6945199370 4286019709
-0.3708859682 -0.1353821307 0.6946339011 4286217088
-0.3709465265 -0.1346323192 0.6947473288 4286480260
-0.3714710772 -0.1340496987 0.6957297921 4286151809
-0.3710666597 -0.1331315935 0.6949723363 4286546567
-0.3711262345 -0.1323806942 0.6950839162 4286875532
-0.3716500700 -0.1317941695 0.6960650086 4287336083
-0.3717091084 -0.1310416013 0.6961755753 4287796634
-0.3717678189 -0.1302886754 0.6962855458 4288783529
-0.3722909987 -0.1296973079 0.6972653866 4289507252
-0.3723491430 -0.1289427280 0.6973742843 4289836217
-0.3728718758 -0.1283478290 0.6983533502 4290888905
-0.3565416038 -0.2322748303 0.6691603065 4291744475
-0.3557399511 -0.2310107648 0.6676557064 4289244341
-0.3553873897 -0.2300407439 0.6669940352 4286744207
-0.3550343812 -0.2290719002 0.6663314700 4284966769
-0.3546808958 -0.2281042188 0.6656680107 4284703597
-0.3538766801 -0.2268490791 0.6641587019 4285822078
-0.3539724648 -0.2261723429 0.6643384695 4285558906
-0.3540679812 -0.2254950553 0.6645177603 4285295734
-0.3541632891 -0.2248172313 0.6646966338 4285953664
-0.3533569276 -0.2235685289 0.6631832123 4285953662
-0.3498448730 -0.2206169218 0.6565917730 4285229939
-0.3517420590 -0.2210798413 0.6601524353 4285361525
-0.3464228213 -0.2170141786 0.6501692533 4285295732
-0.3487707376 -0.2177577317 0.6545758247 4285493111
-0.3493143916 -0.2173687369 0.6555961370 4285558904
-0.3485037088 -0.2161375582 0.6540746689 4285822076
-0.3485954404 -0.2154675424 0.6542468667 4286085248
-0.3486869335 -0.2147969902 0.6544185877 4286019455
-0.3487782180 -0.2141259015 0.6545898318 4285887869
-0.3488692343 -0.2134542912 0.6547606587 4285427058
-0.3485079706 -0.2125065476 0.6540826559 4285361265
-0.3485983908 -0.2118347585 0.6542524099 4285032300
-0.3482363224 -0.2108885646 0.6535728574 4284242784
-0.3483261466 -0.2102166116 0.6537414193 4283584854
-0.3484157324 -0.2095441371 0.6539095640 4283716440
-0.3489576876 -0.2091424018 0.6549267173 4283913819
-0.3490469158 -0.2084680200 0.6550941467 4283519061
-0.3500415385 -0.2083321363 0.6569609046 4283716440
-0.3496775627 -0.2073863298 0.6562777758 4283387475
-0.3506723046 -0.2072450370 0.6581447124 4283321682
-0.3512140512 -0.2068328410 0.6591615081 4283321682
-0.3522090912 -0.2066843808 0.6610289812 4283124557
-0.3527509570 -0.2062667757 0.6620458961 4283124557
-0.3532927632 -0.2058468759 0.6630628109 4283190350
-0.3542881906 -0.2056880891 0.6649310589 4282992971
-0.3548300862 -0.2052627653 0.6659480333 4282597959
-0.3553719521 -0.2048351765 0.6669650078 4282597959
-0.3554598093 -0.2041445971 0.6671299338 4282597959
-0.3555473983 -0.2034534961 0.6672943234 4282532166
-0.3560889363 -0.2030208409 0.6683107018 4282268994
-0.3561761677 -0.2023278326 0.6684743762 4282005822
-0.3558086753 -0.2013771385 0.6677846909 4281874747
-0.3558952808 -0.2006840110 0.6679472327 4281940540
-0.3559815884 -0.1999903619 0.6681092381 4281874747
-0.3565224111 -0.1995507479 0.6691242456 4281808954
-0.3570632041 -0.1991088688 0.6701391935 4281940540
-0.3576039374 -0.1986646950 0.6711540818 4282203712
-0.3576895595 -0.1979663819 0.6713147759 4282137919
-0.3577749133 -0.1972675622 0.6714749336 4281940540
-0.3578600287 -0.1965682507 0.6716346741 4281677368
-0.3579448462 -0.1958684474 0.6717938781 4281414196
-0.3580294251 -0.1951681376 0.6719526052 4281085485
-0.3576581180 -0.1942199171 0.6712557673 4280953899
-0.3577420712 -0.1935195178 0.6714133024 4281412397
-0.3578257561 -0.1928186119 0.6715703607 4281675569
-0.3583650887 -0.1923619658 0.6725825667 4281610807
-0.3584483266 -0.1916591823 0.6727388501 4281216049
-0.3580751717 -0.1907129735 0.6720384955 4280428834
-0.3577015400 -0.1897680759 0.6713372469 4280692006
-0.3568710685 -0.1885833144 0.6697785854 4281479732
-0.3551269770 -0.1869211495 0.6665052772 4282992971
-0.3533818126 -0.1852656752 0.6632299423 4283453007
-0.3520922065 -0.1838553697 0.6608095765 4283518800
-0.3512584567 -0.1826875508 0.6592448354 4286409984
-0.3499671817 -0.1812861860 0.6568213701 4289107493
-0.3486750424 -0.1798897535 0.6543962359 4290816812
-0.3478390574 -0.1787331253 0.6528272629 4291737914
-0.3470024467 -0.1775796413 0.6512570977 4292197948
-0.3461651504 -0.1764293015 0.6496856213 4292263741
-0.3448697627 -0.1750499457 0.6472544670 4292197946
-0.3435735404 -0.1736755669 0.6448217034 4292132153
-0.3422764540 -0.1723061502 0.6423872709 4292198198
-0.3409784734 -0.1709416956 0.6399512291 4292263991
-0.3396796584 -0.1695822328 0.6375135779 4292461370
-0.3379220665 -0.1680001318 0.6342149973 4292987714
-0.3370794058 -0.1668782979 0.6326334476 4293513806
-0.3362361193 -0.1657596529 0.6310507059 4294040150
-0.3353921473 -0.1646441966 0.6294667721 4294368864
-0.3350057900 -0.1637559682 0.6287416816 4294368864
-0.3346190155 -0.1628691256 0.6280157566 4294302822
-0.3342317641 -0.1619836837 0.6272889376 4294434408
-0.3338440359 -0.1610996276 0.6265612841 4294434156
-0.3339145780 -0.1604373604 0.6266936660 4294434156
-0.3339848220 -0.1597746611 0.6268255115 4294237796
-0.3340547979 -0.1591115445 0.6269568801 4294303589
-0.3336655796 -0.1582303792 0.6262263656 4294303340
-0.3337349594 -0.1575673521 0.6263565421 4294369133
-0.3338040709 -0.1569039077 0.6264862418 4294435177
-0.3338729143 -0.1562400460 0.6266154647 4294500970
-0.3339414895 -0.1555757821 0.6267441511 4294501483
-0.3340097964 -0.1549111158 0.6268724203 4294501483
-0.3345373869 -0.1544582099 0.6278625727 4294567284
-0.3350648880 -0.1540030539 0.6288526058 4294435698
-0.3355923295 -0.1535456777 0.6298424602 4294567274
-0.3365794718 -0.1532954723 0.6316951513 4294633067
-0.3380266130 -0.1532496959 0.6344111562 4294699122
-0.3399340510 -0.1534056067 0.6379910707 4294830708
-0.3423019946 -0.1537604332 0.6424352527 4294631825
-0.3446706235 -0.1541056633 0.6468806863 4291473761
-0.3475001156 -0.1546461284 0.6521911025 4286480509
-0.3503304124 -0.1551751643 0.6575030684 4286151544
-0.3540824056 -0.1560987085 0.6645448208 4284836202
-0.3573750257 -0.1568050534 0.6707244515 4282730826
-0.3602079749 -0.1572969258 0.6760413647 4282138440
-0.3625809848 -0.1575770974 0.6804950237 4284309609
-0.3644937873 -0.1576483399 0.6840850115 4287203731
-0.3659461141 -0.1575133950 0.6868107319 4289045935
-0.3669376969 -0.1571750343 0.6886717081 4289638074
-0.3679293096 -0.1568325460 0.6905328035 4290361797
-0.3684598505 -0.1562903523 0.6915284991 4290164935
-0.3699276447 -0.1453419775 0.6942832470 4283586141
-0.3695297837 -0.1444150954 0.6935365796 4282664780
-0.3695940375 -0.1436695009 0.6936572194 4282006850
-0.3691953421 -0.1427446455 0.6929088831 4281480506
-0.3692589104 -0.1419992149 0.6930282116 4281217334
-0.3693221509 -0.1412534118 0.6931468844 4281414713
-0.3693850935 -0.1405072063 0.6932650208 4282006850
-0.3694477081 -0.1397606283 0.6933825612 4283190610
-0.3695100248 -0.1390136778 0.6934995055 4283387989
-0.3695720136 -0.1382663399 0.6936158538 4283387989
-0.3696337044 -0.1375186294 0.6937316060 4283322196
-0.3701583445 -0.1369419396 0.6947162747 4283387989
-0.3702194691 -0.1361925602 0.6948310137 4283453782
-0.3702802956 -0.1354427934 0.6949451566 4283388503
-0.3703407943 -0.1346926689 0.6950587034 4283585882
-0.3708645701 -0.1341098100 0.6960417032 4283585882
-0.3704608381 -0.1331913024 0.6952840090 4283980640
-0.3705203831 -0.1324400753 0.6953957677 4284506986
-0.3710434139 -0.1318533123 0.6963773966 4285230709
-0.3711024225 -0.1311004162 0.6964880824 4285691260
-0.3711610734 -0.1303471774 0.6965982318 4287007120
-0.3716834486 -0.1297555715 0.6975786090 4288651945
-0.3717415631 -0.1290006638 0.6976876259 4290099391
-0.3717993200 -0.1282454133 0.6977961063 4292205020
-0.3540553749 -0.2318767756 0.6658821106 4290230979
-0.3532550931 -0.2306144983 0.6643769741 4287401880
-0.3520050943 -0.2290629148 0.6620261073 4285428090
-0.3516523838 -0.2280985564 0.6613627076 4285362297
-0.3512991667 -0.2271353602 0.6606984138 4285822078
-0.3509454727 -0.2261733413 0.6600332260 4286019457
-0.3505913317 -0.2252124846 0.6593671441 4286414215
-0.3502366841 -0.2242528200 0.6587001681 4285822078
-0.3498815596 -0.2232943177 0.6580322981 4285098355
-0.3495259881 -0.2223370075 0.6573635340 4284374632
-0.3496198654 -0.2216661572 0.6575401425 4284703595
-0.3492634594 -0.2207103521 0.6568698287 4286085248
-0.3475559652 -0.2189050764 0.6536585093 4287335058
-0.3467479050 -0.2176715583 0.6521387696 4287598230
-0.3472904861 -0.2172864527 0.6531592011 4287598230
-0.3469319344 -0.2163371593 0.6524848342 4286940300
-0.3470235765 -0.2156691551 0.6526572108 4286150782
-0.3471150100 -0.2150006443 0.6528291702 4285558645
-0.3476570845 -0.2146099359 0.6538487077 4284769129
-0.3486502171 -0.2144944519 0.6557165384 4284111199
-0.3487412930 -0.2138217390 0.6558877826 4284176991
-0.3483808339 -0.2128727585 0.6552098989 4284176991
-0.3484713137 -0.2121998519 0.6553800106 4284374370
-0.3481100202 -0.2112524360 0.6547005773 4284045405
-0.3481999040 -0.2105793655 0.6548695564 4283716440
-0.3482895195 -0.2099057883 0.6550381184 4283979612
-0.3488307893 -0.2095030546 0.6560560465 4284045405
-0.3493719995 -0.2090980560 0.6570739746 4283716440
-0.3494611382 -0.2084211558 0.6572415829 4283913819
-0.3500022292 -0.2080124915 0.6582592726 4283584854
-0.3505432904 -0.2076015621 0.6592768431 4283519061
-0.3510843515 -0.2071883529 0.6602944732 4283519061
-0.3516254127 -0.2067728788 0.6613119841 4283321682
-0.3526190817 -0.2066203654 0.6631808281 4283321682
-0.3531601727 -0.2061994672 0.6641985178 4283256143
-0.3537012637 -0.2057762891 0.6652161479 4282927178
-0.3542423248 -0.2053508312 0.6662337184 4282795338
-0.3543302715 -0.2046613842 0.6663991213 4282861131
-0.3544179499 -0.2039714307 0.6665639877 4282795338
-0.3549586833 -0.2035409063 0.6675810218 4282597959
-0.3550459743 -0.2028490454 0.6677451730 4282466373
-0.3551329970 -0.2021566629 0.6679088473 4282268994
-0.3552197814 -0.2014637887 0.6680720448 4282137408
-0.3553062975 -0.2007703930 0.6682347655 4282137408
-0.3558464348 -0.2003320307 0.6692506075 4282137408
-0.3559325337 -0.1996367425 0.6694125533 4282071615
-0.3564724922 -0.1991946995 0.6704280972 4282268994
-0.3570124209 -0.1987503767 0.6714435220 4282400580
-0.3570979834 -0.1980518103 0.6716044545 4282268994
-0.3571832776 -0.1973527372 0.6717648506 4282071615
-0.3572683036 -0.1966531575 0.6719247699 4281808443
-0.3573530614 -0.1959530860 0.6720842123 4281479478
-0.3569828272 -0.1950041056 0.6713878512 4281348405
-0.3570669591 -0.1943039298 0.6715461016 4281282612
-0.3571508229 -0.1936032623 0.6717038751 4281478703
-0.3576895297 -0.1931478381 0.6727169752 4281478703
-0.3577729762 -0.1924452782 0.6728739142 4281281840
-0.3578561544 -0.1917422414 0.6730303764 4280952875
-0.3579390943 -0.1910387129 0.6731863022 4280362787
-0.3575662374 -0.1900925487 0.6724851131 4280560166
-0.3567373157 -0.1889064163 0.6709260941 4281348144
-0.3554520011 -0.1874830276 0.6685087681 4283058762
-0.3537099659 -0.1858250797 0.6652325392 4283387465
-0.3519668579 -0.1841738373 0.6619541645 4283519051
-0.3502226472 -0.1825293005 0.6586737633 4286541318
-0.3493895829 -0.1813650429 0.6571070552 4288975659
-0.3480996192 -0.1799680293 0.6546809673 4290158630
-0.3472650945 -0.1788109392 0.6531114578 4291211318
-0.3464299142 -0.1776569784 0.6515406966 4292000571
-0.3455940783 -0.1765061766 0.6499686837 4292329536
-0.3438442647 -0.1748939902 0.6466777921 4292197948
-0.3425501585 -0.1735199392 0.6442438960 4292066362
-0.3412551582 -0.1721508652 0.6418083906 4292263993
-0.3399592936 -0.1707867682 0.6393712163 4292198200
-0.3386625648 -0.1694276482 0.6369324327 4292329784
-0.3369078636 -0.1678457856 0.6336323023 4292658749
-0.3356093168 -0.1664975584 0.6311901212 4293184841
-0.3347672522 -0.1653802693 0.6296064258 4293842771
-0.3339245617 -0.1642661840 0.6280214787 4294303071
-0.3335387111 -0.1633794010 0.6272958517 4294303071
-0.3331524432 -0.1624940187 0.6265693307 4294302822
-0.3327656984 -0.1616100371 0.6258419752 4294368615
-0.3323784769 -0.1607274413 0.6251137853 4294368363
-0.3319908381 -0.1598462462 0.6243847013 4294434156
-0.3320607543 -0.1591860354 0.6245161891 4294237798
-0.3321304023 -0.1585253924 0.6246472001 4294237798
-0.3321997821 -0.1578643471 0.6247776747 4294303338
-0.3318106234 -0.1569860429 0.6240457296 4294303338
-0.3318793774 -0.1563250721 0.6241750717 4294369382
-0.3319478929 -0.1556636989 0.6243039370 4294435175
-0.3320161402 -0.1550019085 0.6244322658 4294500970
-0.3325428069 -0.1545528919 0.6254228354 4294500970
-0.3326106071 -0.1538893878 0.6255503297 4294632818
-0.3331370354 -0.1534368098 0.6265403628 4294369646
-0.3336633742 -0.1529819965 0.6275302768 4294567274
-0.3346486688 -0.1527344584 0.6293833852 4294698860
-0.3356340826 -0.1524828672 0.6312366724 4294698607
-0.3375380635 -0.1526425332 0.6348175406 4294830193
-0.3394424915 -0.1527944654 0.6383993030 4294961037
-0.3422662318 -0.1533503085 0.6437099576 4292592489
-0.3450907767 -0.1538947225 0.6490221620 4286019698
-0.3479161263 -0.1544276774 0.6543358564 4283387978
-0.3516616821 -0.1553553492 0.6613802314 4282927437
-0.3549485803 -0.1560657173 0.6675620079 4282861644
-0.3582364321 -0.1567627639 0.6737455726 4284112230
-0.3606053591 -0.1570458561 0.6782008410 4285888641
-0.3629748523 -0.1573193073 0.6826572418 4286743181
-0.3644246757 -0.1571861804 0.6853839755 4286151045
-0.3658747375 -0.1570470780 0.6881111264 4286019447
-0.3688593507 -0.1452249736 0.6937243938 4283520347
-0.3689238727 -0.1444794685 0.6938456893 4283191126
-0.3685262501 -0.1435536742 0.6930979490 4282730575
-0.3685900867 -0.1428083181 0.6932179332 4282204231
-0.3686535954 -0.1420625746 0.6933373809 4281743680
-0.3687167764 -0.1413164586 0.6934562922 4281546301
-0.3687796891 -0.1405699402 0.6935745478 4281414715
-0.3688422441 -0.1398230493 0.6936922073 4281677371
-0.3689045012 -0.1390757859 0.6938093305 4281677371
-0.3689664602 -0.1383281350 0.6939258575 4281480506
-0.3690280914 -0.1375801116 0.6940417886 4281414713
-0.3690894246 -0.1368317157 0.6941571236 4281546299
-0.3696130216 -0.1362534761 0.6951418519 4281546299
-0.3696737885 -0.1355034113 0.6952561736 4281546301
-0.3697342575 -0.1347529590 0.6953698397 4281612094
-0.3697943985 -0.1340021491 0.6954829693 4281677887
-0.3698542118 -0.1332509667 0.6955954432 4281809473
-0.3699137270 -0.1324994266 0.6957073808 4282204231
-0.3704359531 -0.1319124103 0.6966895461 4282862161
-0.3704949021 -0.1311592013 0.6968004107 4283322712
-0.3705535233 -0.1304056495 0.6969106793 4285033330
-0.3706118166 -0.1296517253 0.6970202923 4288125601
-0.3706698120 -0.1288974434 0.6971293688 4291020493
-0.3711908758 -0.1283029914 0.6981093287 4293652723
-0.3537166417 -0.2336212248 0.6666375995 4292336355
-0.3520231247 -0.2317655534 0.6634458899 4289112498
-0.3512243927 -0.2305042148 0.6619405150 4288059810
-0.3499768078 -0.2289525867 0.6595892310 4287665052
-0.3487282395 -0.2274055630 0.6572360992 4286480778
-0.3479270935 -0.2261545658 0.6557261944 4286283399
-0.3475736976 -0.2251970321 0.6550601721 4286151043
-0.3467712104 -0.2239509672 0.6535477638 4285164148
-0.3464167416 -0.2229966521 0.6528797150 4285164148
-0.3465106487 -0.2223315090 0.6530566812 4285493113
-0.3461553752 -0.2213786989 0.6523870826 4286282627
-0.3466977775 -0.2209995985 0.6534093618 4287730073
-0.3458925784 -0.2197620273 0.6518918276 4288848554
-0.3459853232 -0.2190964669 0.6520666480 4288388003
-0.3451789320 -0.2178630084 0.6505468488 4287598741
-0.3457205594 -0.2174809128 0.6515676379 4286677639
-0.3458124697 -0.2168146223 0.6517408490 4285690231
-0.3459041715 -0.2161477804 0.6519137025 4284900715
-0.3464455605 -0.2157606333 0.6529340148 4284769129
-0.3456368148 -0.2145331800 0.6514098048 4284834922
-0.3470781744 -0.2147010565 0.6541262865 4284703336
-0.3476194441 -0.2143079638 0.6551464200 4284571750
-0.3481607139 -0.2139126062 0.6561664939 4284769128
-0.3478009403 -0.2129632682 0.6554884911 4284703335
-0.3478913307 -0.2122901380 0.6556588411 4284900714
-0.3479815125 -0.2116164714 0.6558287740 4284440163
-0.3480714262 -0.2109422982 0.6559982300 4283979612
-0.3481610715 -0.2102675885 0.6561672091 4284176991
-0.3487016261 -0.2098638564 0.6571859121 4284111198
-0.3492421508 -0.2094578594 0.6582046151 4283979612
-0.3493313193 -0.2087798417 0.6583727002 4283979612
-0.3498716950 -0.2083701640 0.6593911648 4283716440
-0.3504120708 -0.2079582214 0.6604095697 4283782233
-0.3509524167 -0.2075440139 0.6614279151 4283848026
-0.3514927328 -0.2071275264 0.6624462605 4283650647
-0.3520330489 -0.2067087591 0.6634645462 4283584854
-0.3525733352 -0.2062877268 0.6644828320 4283387475
-0.3531135917 -0.2058644146 0.6655010581 4283058510
-0.3536538482 -0.2054388225 0.6665192246 4282926924
-0.3537417054 -0.2047491223 0.6666848063 4282992717
-0.3538292944 -0.2040589005 0.6668499112 4282926924
-0.3543692231 -0.2036282420 0.6678674817 4282795338
-0.3549091220 -0.2031953037 0.6688850522 4282663752
-0.3549962044 -0.2025017887 0.6690491438 4282597959
-0.3550830185 -0.2018077672 0.6692127585 4282466373
-0.3551695645 -0.2011132389 0.6693758368 4282334787
-0.3552558720 -0.2004182041 0.6695384979 4282334787
-0.3557951450 -0.1999773979 0.6705548763 4282334787
-0.3558810651 -0.1992804706 0.6707167625 4282400580
-0.3564201593 -0.1988359988 0.6717327833 4282334787
-0.3565056324 -0.1981371641 0.6718938947 4282268994
-0.3565908670 -0.1974378377 0.6720545292 4282203201
-0.3566758335 -0.1967379898 0.6722146273 4282071615
-0.3567605317 -0.1960376650 0.6723742485 4281940029
-0.3568449616 -0.1953368336 0.6725333929 4281677885
-0.3564750254 -0.1943878680 0.6718361974 4281677885
-0.3565588295 -0.1936869323 0.6719941497 4281808182
-0.3570967019 -0.1932313591 0.6730078459 4281808182
-0.3571800888 -0.1925285459 0.6731650233 4281742650
-0.3572632074 -0.1918252409 0.6733216643 4281545271
-0.3573460579 -0.1911214441 0.6734778285 4281218100
-0.3574286699 -0.1904171556 0.6736334562 4281283893
-0.3566012681 -0.1892296523 0.6720741391 4281282353
-0.3553182781 -0.1878047884 0.6696560979 4282927178
-0.3540343642 -0.1863848269 0.6672363877 4283059265
-0.3522944152 -0.1847311109 0.6639571190 4283322437
-0.3505533636 -0.1830841005 0.6606758237 4286803988
-0.3479004800 -0.1809700876 0.6556760669 4289172536
-0.3470679820 -0.1798102707 0.6541070938 4289828897
-0.3457792401 -0.1784185469 0.6516782641 4290947378
-0.3449453115 -0.1772659272 0.6501065493 4291671606
-0.3436549306 -0.1758831888 0.6476746202 4292329536
-0.3400842845 -0.1733435988 0.6409451365 4292132155
-0.3419834971 -0.1735955328 0.6445245147 4292000569
-0.3402346373 -0.1719953269 0.6412284970 4292263993
-0.3389408886 -0.1706315726 0.6387901902 4292132407
-0.3376462758 -0.1692727953 0.6363503337 4292198198
-0.3358944356 -0.1676911712 0.6330486536 4292395577
-0.3345980048 -0.1663433015 0.6306053400 4292921923
-0.3337573111 -0.1652264744 0.6290208697 4293579853
-0.3329159319 -0.1641128361 0.6274352074 4294105947
-0.3325307071 -0.1632266045 0.6267091632 4294237533
-0.3316881657 -0.1621184796 0.6251212358 4294302821
-0.3313019276 -0.1612359434 0.6243932843 4294368614
-0.3309152126 -0.1603548229 0.6236645579 4294368617
-0.3309852481 -0.1596956700 0.6237964630 4294302824
-0.3305977583 -0.1588164270 0.6230661869 4294302822
-0.3306671381 -0.1581573635 0.6231969595 4294368615
-0.3307362795 -0.1574978679 0.6233273149 4294368617
-0.3303476274 -0.1566210389 0.6225948334 4294434410
-0.3304161727 -0.1559616327 0.6227239370 4294500454
-0.3304844201 -0.1553018242 0.6228526235 4294500454
-0.3305524290 -0.1546416134 0.6229807734 4294435177
-0.3306201696 -0.1539809853 0.6231084466 4294435177
-0.3311456740 -0.1535323113 0.6240988374 4294632305
-0.3312129974 -0.1528699547 0.6242257357 4294434926
-0.3317382336 -0.1524177194 0.6252156496 4294566761
-0.3322634101 -0.1519632488 0.6262053847 4294764140
-0.3337052763 -0.1519239247 0.6289228201 4294698349
-0.3351474106 -0.1518786848 0.6316407919 4294764142
-0.3370484114 -0.1520343721 0.6352235079 4294961284
-0.3398671746 -0.1525941789 0.6405359507 4293579374
-0.3426867723 -0.1531425267 0.6458499432 4286544751
-0.3459660113 -0.1538835317 0.6520302296 4283518273
-0.3497051597 -0.1548143923 0.6590772271 4283387988
-0.3529864252 -0.1555278599 0.6652613282 4283585367
-0.3558095396 -0.1560266912 0.6705819964 4283981153
-0.3586334586 -0.1565140188 0.6759041548 4283454809
-0.3673951626 -0.1441819668 0.6924170256 4283717471
-0.3674591780 -0.1434376240 0.6925376654 4283520091
-0.3675228655 -0.1426928937 0.6926577091 4283059540
-0.3675862551 -0.1419477761 0.6927771568 4282467403
-0.3676493168 -0.1412022859 0.6928960085 4282006852
-0.3677120805 -0.1404563934 0.6930143237 4281546301
-0.3677745461 -0.1397101283 0.6931319833 4281217334
-0.3682982028 -0.1391378492 0.6941189170 4281217334
-0.3678984940 -0.1382164657 0.6933656335 4281151541
-0.3679600060 -0.1374690682 0.6934815645 4281085748
-0.3684829772 -0.1368928403 0.6944671869 4281151541
-0.3685439229 -0.1361437589 0.6945820451 4281217334
-0.3686045706 -0.1353943050 0.6946963668 4281151543
-0.3686649203 -0.1346444786 0.6948100924 4281217336
-0.3691869974 -0.1340620816 0.6957940459 4280822578
-0.3692467809 -0.1333105862 0.6959066987 4280954164
-0.3693062365 -0.1325587332 0.6960187554 4281348922
-0.3693653643 -0.1318065077 0.6961302161 4282072645
-0.3694241941 -0.1310539246 0.6962410808 4282796370
-0.3694826961 -0.1303009838 0.6963513494 4285230711
-0.3695409000 -0.1295476854 0.6964610219 4289375670
-0.3695987761 -0.1287940294 0.6965700388 4293125871
-0.3508893251 -0.2322399765 0.6626962423 4290691276
-0.3496452272 -0.2306828648 0.6603465676 4287730591
-0.3470584452 -0.2282479405 0.6554611325 4288454314
-0.3458120525 -0.2267025709 0.6531071663 4288980658
-0.3450121582 -0.2254542261 0.6515964866 4287796384
-0.3446591794 -0.2245003432 0.6509298086 4287401626
-0.3438579738 -0.2232569158 0.6494166851 4288848554
-0.3426082134 -0.2217265517 0.6470563412 4289440691
-0.3427014351 -0.2210677564 0.6472324133 4289901242
-0.3427944183 -0.2204084247 0.6474080086 4289769656
-0.3428871632 -0.2197485417 0.6475831866 4289177519
-0.3429796994 -0.2190881371 0.6477579474 4287466901
-0.3430719972 -0.2184271961 0.6479322314 4286085248
-0.3431640565 -0.2177657187 0.6481060982 4285098353
-0.3432558775 -0.2171037048 0.6482795477 4284638056
-0.3437963128 -0.2167240977 0.6493002176 4284572263
-0.3447856903 -0.2166242898 0.6511687636 4284638056
-0.3448771834 -0.2159580886 0.6513415575 4284769642
-0.3454176188 -0.2155716866 0.6523622274 4284835434
-0.3464073539 -0.2154624760 0.6542314887 4284703848
-0.3469479382 -0.2150706798 0.6552523971 4284637542
-0.3470389545 -0.2143988758 0.6554243565 4284769128
-0.3466801047 -0.2134497166 0.6547465920 4284703335
-0.3472203314 -0.2130537182 0.6557668447 4284703335
-0.3473106325 -0.2123803347 0.6559374332 4284966507
-0.3474007249 -0.2117064446 0.6561075449 4284571749
-0.3479406834 -0.2113053799 0.6571273208 4284308577
-0.3480303884 -0.2106295526 0.6572967768 4284440163
-0.3485701978 -0.2102248222 0.6583163142 4284308577
-0.3486595452 -0.2095470876 0.6584850550 4284308577
-0.3491992354 -0.2091386765 0.6595042944 4284111198
-0.3497389257 -0.2087280005 0.6605235338 4283913819
-0.3502785563 -0.2083150595 0.6615427136 4283782233
-0.3503672779 -0.2076326013 0.6617102623 4283716440
-0.3509067893 -0.2072159797 0.6627292037 4283584854
-0.3514462709 -0.2067970932 0.6637480855 4283584854
-0.3519857228 -0.2063759118 0.6647669077 4283453268
-0.3525251746 -0.2059524655 0.6657856703 4283190096
-0.3530645967 -0.2055267245 0.6668044329 4283190350
-0.3531523645 -0.2048367858 0.6669702530 4283256143
-0.3532398939 -0.2041463256 0.6671355367 4283190350
-0.3537790179 -0.2037155181 0.6681537032 4283058764
-0.3543180823 -0.2032824308 0.6691718102 4282861131
-0.3544050753 -0.2025886625 0.6693361402 4282795338
-0.3544918299 -0.2018943876 0.6694999337 4282729545
-0.3545783162 -0.2011996061 0.6696633101 4282466373
-0.3551169336 -0.2007600516 0.6706805229 4282466373
-0.3552030027 -0.2000633627 0.6708431244 4282532166
-0.3557414412 -0.1996201426 0.6718599796 4282466373
-0.3558270931 -0.1989215463 0.6720218062 4282334787
-0.3559125066 -0.1982224584 0.6721830964 4282334787
-0.3559976816 -0.1975228637 0.6723439097 4282334787
-0.3560825884 -0.1968227625 0.6725042462 4282334530
-0.3561671972 -0.1961221695 0.6726641059 4282334530
-0.3562515676 -0.1954210699 0.6728234887 4282137919
-0.3563356996 -0.1947194785 0.6729823351 4282072126
-0.3559660912 -0.1937705427 0.6722842455 4282071867
-0.3565031290 -0.1933148056 0.6732985377 4282071867
-0.3565864265 -0.1926117241 0.6734558940 4282071615
-0.3566694856 -0.1919081658 0.6736127734 4282071615
-0.3567522764 -0.1912041008 0.6737691164 4281875777
-0.3568347991 -0.1904995441 0.6739249825 4281678398
-0.3560088873 -0.1893115789 0.6723650694 4281479478
-0.3551822603 -0.1881266981 0.6708039045 4282795338
-0.3539006710 -0.1867052615 0.6683834791 4282927425
-0.3526181579 -0.1852887422 0.6659613252 4283124804
-0.3508802950 -0.1836392581 0.6626791358 4286672417
-0.3495959342 -0.1822334677 0.6602534652 4288975172
-0.3483106792 -0.1808326244 0.6578261256 4289565979
-0.3470245600 -0.1794367135 0.6553971171 4290552874
-0.3457375765 -0.1780457497 0.6529664993 4291276593
-0.3449047208 -0.1768931150 0.6513935328 4292066109
-0.3431609571 -0.1752786934 0.6481002569 4292000569
-0.3418713510 -0.1739026159 0.6456646919 4291934776
-0.3401255310 -0.1723008454 0.6423675418 4292132407
-0.3379232585 -0.1704761088 0.6382082701 4292066614
-0.3361752331 -0.1688888371 0.6349068880 4292132405
-0.3348817825 -0.1675363183 0.6324640512 4292395577
-0.3335874677 -0.1661887914 0.6300196052 4292790337
-0.3322923183 -0.1648462862 0.6275735497 4293316681
-0.3319081366 -0.1639592201 0.6268479824 4293908566
-0.3310674727 -0.1628492475 0.6252602935 4294171738
-0.3306823075 -0.1619658768 0.6245328188 4294237282
-0.3298404515 -0.1608614177 0.6229429245 4294303075
-0.3294542730 -0.1599817574 0.6222135425 4294368615
-0.3290676475 -0.1591034979 0.6214833856 4294237029
-0.3291370571 -0.1584464014 0.6216144562 4294368104
-0.3292062283 -0.1577888876 0.6217450500 4294368104
-0.3292751014 -0.1571309566 0.6218752265 4294368617
-0.3288869560 -0.1562556028 0.6211421490 4294368617
-0.3289552629 -0.1555977613 0.6212710738 4294434407
-0.3290232718 -0.1549395174 0.6213995814 4294500200
-0.3290910423 -0.1542808712 0.6215275526 4294500201
-0.3291585445 -0.1536218226 0.6216550469 4294565994
-0.3292257786 -0.1529623568 0.6217820644 4294697582
-0.3297501206 -0.1525140256 0.6227722764 4294631789
-0.3302743733 -0.1520634443 0.6237624288 4294500971
-0.3307985365 -0.1516106427 0.6247524023 4294698350
-0.3317802548 -0.1513643861 0.6266064644 4294698350
-0.3332197964 -0.1513219029 0.6293252110 4294698350
-0.3346596360 -0.1512735039 0.6320444942 4294961276
-0.3374734521 -0.1518372595 0.6373587251 4294500468
-0.3402880728 -0.1523895711 0.6426744461 4288912262
-0.3435615599 -0.1531345993 0.6488568783 4284767303
-0.3472942412 -0.1540695876 0.6559064388 4283453269
-0.3510280550 -0.1549894214 0.6629582047 4283453269
-0.3538463116 -0.1554912627 0.6682808399 4283785058
-0.3664563596 -0.1425772756 0.6920964122 4283586140
-0.3665196300 -0.1418327838 0.6922158599 4283125333
-0.3665825725 -0.1410879046 0.6923347712 4282664782
-0.3666452169 -0.1403426528 0.6924530864 4282204231
-0.3667075336 -0.1395970136 0.6925707459 4282270022
-0.3672302961 -0.1390254200 0.6935580969 4282270022
-0.3672920763 -0.1382780969 0.6936748028 4282335815
-0.3668926358 -0.1373578161 0.6929203868 4282335815
-0.3674147129 -0.1367823035 0.6939063668 4282335817
-0.3674755394 -0.1360338330 0.6940212846 4282401610
-0.3675360680 -0.1352850050 0.6941355467 4282467403
-0.3675962985 -0.1345358193 0.6942492723 4282533196
-0.3681174815 -0.1339541078 0.6952336431 4282204231
-0.3681771457 -0.1332032382 0.6953462958 4282467403
-0.3686979413 -0.1326179802 0.6963298917 4282862420
-0.3687570393 -0.1318654418 0.6964414716 4283651936
-0.3683542013 -0.1309484541 0.6956807375 4284507245
-0.3684126139 -0.1301961392 0.6957910061 4286810000
-0.3684706688 -0.1294434667 0.6959006786 4290362822
-0.3685284257 -0.1286904365 0.6960097551 4293520886
-0.3502999842 -0.2323372662 0.6629738212 4290296518
-0.3486116827 -0.2304844558 0.6597785950 4287006868
-0.3473686874 -0.2289321870 0.6574260592 4287599005
-0.3461247087 -0.2273845077 0.6550717354 4288651693
-0.3448797464 -0.2258414328 0.6527155638 4289309623
-0.3431869745 -0.2240112871 0.6495118737 4289770174
-0.3419399858 -0.2224782854 0.6471518278 4289769656
-0.3411391377 -0.2212398797 0.6456361413 4288388003
-0.3407847881 -0.2202934772 0.6449655294 4286808971
-0.3413246870 -0.2199247330 0.6459872723 4285690490
-0.3409696519 -0.2189789861 0.6453153491 4285098607
-0.3415093124 -0.2186074555 0.6463367343 4284506470
-0.3416013122 -0.2179480046 0.6465107799 4284703849
-0.3416930437 -0.2172880322 0.6466844678 4284769642
-0.3417845666 -0.2166275233 0.6468576789 4284703849
-0.3427719772 -0.2165325880 0.6487264633 4284835435
-0.3437596560 -0.2164336592 0.6505957246 4284901227
-0.3442992866 -0.2160494030 0.6516169906 4284703848
-0.3443904519 -0.2153824419 0.6517895460 4284703848
-0.3449299634 -0.2149945199 0.6528105736 4284769641
-0.3454694748 -0.2146043479 0.6538316607 4284703848
-0.3464577496 -0.2144897282 0.6557020545 4284703848
-0.3460995555 -0.2135401964 0.6550241709 4284834922
-0.3470879495 -0.2134201676 0.6568948030 4284834922
-0.3471783102 -0.2127456963 0.6570658088 4284900714
-0.3472684324 -0.2120706737 0.6572363973 4284637542
-0.3473583162 -0.2113951445 0.6574065089 4284505956
-0.3474479616 -0.2107190788 0.6575761437 4284637542
-0.3479869664 -0.2103142142 0.6585962176 4284374370
-0.3480762243 -0.2096362412 0.6587651968 4284242784
-0.3486150801 -0.2092277110 0.6597850323 4284308577
-0.3491539359 -0.2088169008 0.6608048081 4284045405
-0.3496927619 -0.2084038258 0.6618246436 4283848026
-0.3502315581 -0.2079884708 0.6628443599 4283782233
-0.3503200710 -0.2073043734 0.6630118489 4283848026
-0.3508587480 -0.2068853378 0.6640313268 4283913819
-0.3509468734 -0.2061993331 0.6641981006 4283979612
-0.3514853716 -0.2057766318 0.6652172804 4283848026
-0.3524745703 -0.2056145817 0.6670894623 4283848539
-0.3525622785 -0.2049243748 0.6672554612 4283651160
-0.3526497483 -0.2042336613 0.6674209833 4283453781
-0.3531880379 -0.2038027197 0.6684397459 4283124816
-0.3537262678 -0.2033694983 0.6694583893 4282861644
-0.3538132012 -0.2026754618 0.6696229577 4282927437
-0.3538998663 -0.2019809335 0.6697869897 4283058510
-0.3544377983 -0.2015426308 0.6708050370 4282992717
-0.3540724516 -0.2005903423 0.6701135635 4282598213
-0.3546100855 -0.2001492530 0.6711311340 4282729799
-0.3546958566 -0.1994518042 0.6712933779 4282664006
-0.3552333117 -0.1990070343 0.6723105907 4282598213
-0.3548665941 -0.1980553716 0.6716165543 4282598213
-0.3549515605 -0.1973564178 0.6717773676 4282400834
-0.3554885685 -0.1969074607 0.6727936864 4282071869
-0.3555731177 -0.1962066144 0.6729537249 4282006076
-0.3556574285 -0.1955052465 0.6731132865 4282335550
-0.3557414711 -0.1948034018 0.6732723117 4282138171
-0.3553725481 -0.1938540936 0.6725741029 4282203451
-0.3559087813 -0.1933981925 0.6735889316 4282269244
-0.3559920192 -0.1926948577 0.6737465262 4282072128
-0.3560750186 -0.1919910163 0.6739035845 4282137921
-0.3561577201 -0.1912866980 0.6740601659 4281875776
-0.3557869494 -0.1903394014 0.6733584404 4281612604
-0.3558690250 -0.1896349937 0.6735137701 4281874236
-0.3550439775 -0.1884487569 0.6719522476 4282861131
-0.3542182148 -0.1872656196 0.6703894734 4283125319
-0.3524844944 -0.1856078357 0.6671082377 4283125319
-0.3512034416 -0.1841947585 0.6646836996 4286934835
-0.3499214947 -0.1827865988 0.6622574925 4289171797
-0.3486386538 -0.1813833714 0.6598296165 4289697565
-0.3473549485 -0.1799850911 0.6574001312 4290552874
-0.3460703790 -0.1785917580 0.6549689174 4290816044
-0.3447849154 -0.1772033721 0.6525360942 4291605560
-0.3434985876 -0.1758199483 0.6501016021 4292000571
-0.3413024545 -0.1739781648 0.6459451914 4292000571
-0.3400141895 -0.1726064980 0.6435070634 4292066614
-0.3373610675 -0.1705502570 0.6384857893 4292000821
-0.3351612687 -0.1687333733 0.6343224645 4292066612
-0.3338699043 -0.1673811972 0.6318784952 4292329784
-0.3321227729 -0.1658069044 0.6285718083 4292527163
-0.3312846720 -0.1646918803 0.6269856691 4292987714
-0.3304459453 -0.1635800600 0.6253982782 4293645392
-0.3296065629 -0.1624714434 0.6238096952 4294105943
-0.3292218745 -0.1615895331 0.6230816841 4294237278
-0.3283813000 -0.1604864448 0.6214907765 4294368864
-0.3279956281 -0.1596082449 0.6207608581 4294368868
-0.3276095092 -0.1587314457 0.6200301051 4294171489
-0.3272229433 -0.1578560621 0.6192984581 4294499174
-0.3272917569 -0.1572010368 0.6194286942 4294499174
-0.3273603022 -0.1565455943 0.6195584536 4294434150
-0.3274286091 -0.1558897346 0.6196877360 4294434150
-0.3270405233 -0.1550172567 0.6189532876 4294499943
-0.3271082342 -0.1543615013 0.6190813780 4294499943
-0.3271756470 -0.1537053436 0.6192089915 4294565481
-0.3272428215 -0.1530487686 0.6193361282 4294565481
-0.3277662396 -0.1526043266 0.6203266978 4294631276
-0.3278329670 -0.1519460380 0.6204530001 4294697069
-0.3283561468 -0.1514980495 0.6214431524 4294697580
-0.3284224570 -0.1508380324 0.6215686202 4294829166
-0.3298591077 -0.1508042365 0.6242876649 4294894959
-0.3308390677 -0.1505565792 0.6261423230 4294763373
-0.3327332437 -0.1507188976 0.6297272444 4294960500
-0.3346278965 -0.1508734524 0.6333130002 4294960757
-0.3374374509 -0.1514306366 0.6386303306 4291937180
-0.3407051563 -0.1521806270 0.6448147297 4287989600
-0.3444312215 -0.1531206667 0.6518666744 4286676613
-0.3477009535 -0.1538431197 0.6580549479 4287400592
-0.3653905690 -0.1424614340 0.6915341616 4284442471
-0.3654537201 -0.1417175680 0.6916536093 4284112997
-0.3655165136 -0.1409733295 0.6917725205 4284244327
-0.3655790389 -0.1402286887 0.6918907762 4284244327
-0.3656412363 -0.1394836754 0.6920084953 4284243814
-0.3657031357 -0.1387382895 0.6921256781 4284243814
-0.3662247956 -0.1381660998 0.6931129098 4284375400
-0.3662861288 -0.1374190152 0.6932290196 4284441193
-0.3663471639 -0.1366715580 0.6933445334 4284375400
-0.3664078712 -0.1359237134 0.6934594512 4284506986
-0.3664682806 -0.1351755112 0.6935737729 4284639085
-0.3665283620 -0.1344269514 0.6936874986 4284770671
-0.3665881455 -0.1336780041 0.6938006282 4284704624
-0.3671082258 -0.1330956966 0.6947849393 4285230968
-0.3676281273 -0.1325111389 0.6957688928 4285823105
-0.3672263622 -0.1315941215 0.6950085163 4286810000
-0.3672849238 -0.1308427900 0.6951193810 4287796895
-0.3673432171 -0.1300911009 0.6952296495 4289639099
-0.3674011528 -0.1293390393 0.6953393221 4291876061
-0.3465914726 -0.2303618193 0.6573368907 4289967553
-0.3453508615 -0.2288095057 0.6549839973 4287138454
-0.3441092670 -0.2272617966 0.6526291966 4287335833
-0.3428667188 -0.2257186770 0.6502726078 4287467419
-0.3420692086 -0.2244728208 0.6487600803 4287993763
-0.3412709534 -0.2232298553 0.6472461224 4287467419
-0.3404720128 -0.2219897956 0.6457308531 4285690744
-0.3396723270 -0.2207526416 0.6442142129 4284638056
-0.3393184245 -0.2198076099 0.6435430050 4284243298
-0.3394106328 -0.2191521376 0.6437179446 4284967021
-0.3399493396 -0.2187836170 0.6447396278 4285559158
-0.3400412500 -0.2181262076 0.6449138522 4285098607
-0.3405798376 -0.2177540362 0.6459354162 4285098607
-0.3406713903 -0.2170946896 0.6461090446 4285098607
-0.3407627344 -0.2164348215 0.6462822556 4285163887
-0.3417484462 -0.2163407654 0.6481517553 4285098094
-0.3427344263 -0.2162427008 0.6500217319 4284900714
-0.3432730734 -0.2158592045 0.6510432959 4284637542
-0.3438117504 -0.2154734433 0.6520649195 4284769128
-0.3443504274 -0.2150854170 0.6530865431 4285032300
-0.3444411755 -0.2144162804 0.6532586813 4284966507
-0.3449797332 -0.2140245885 0.6542801261 4284900714
-0.3465051055 -0.2135105878 0.6571730971 4284834922
-0.3465953767 -0.2128358632 0.6573442817 4284703336
-0.3466854393 -0.2121606171 0.6575151086 4284571750
-0.3467752337 -0.2114848346 0.6576853991 4284505957
-0.3468647897 -0.2108085304 0.6578552723 4284703336
-0.3474029601 -0.2104035467 0.6588759422 4284769128
-0.3474921584 -0.2097253203 0.6590451598 4284505956
-0.3480301797 -0.2093166709 0.6600655317 4284571749
-0.3485682011 -0.2089057267 0.6610859036 4284440163
-0.3491061926 -0.2084925175 0.6621062756 4284374370
-0.3496441841 -0.2080770284 0.6631265879 4284374370
-0.3497326076 -0.2073926926 0.6632943153 4284308577
-0.3498208225 -0.2067078352 0.6634615660 4284374370
-0.3503585160 -0.2062872648 0.6644813418 4284374370
-0.3508961797 -0.2058644295 0.6655011177 4284242784
-0.3514338136 -0.2054392993 0.6665207744 4283848540
-0.3515213430 -0.2047497332 0.6666867733 4283519575
-0.3520588279 -0.2043209225 0.6677061915 4283124817
-0.3525962830 -0.2038898468 0.6687254906 4282861645
-0.3526832759 -0.2031969726 0.6688904762 4282795852
-0.3532205820 -0.2027622014 0.6699094772 4282861645
-0.3533071578 -0.2020674199 0.6700737476 4282862414
-0.3538442850 -0.2016289681 0.6710923910 4282862414
-0.3534795940 -0.2006763071 0.6704007387 4282928207
-0.3535654545 -0.1999799907 0.6705635786 4283059793
-0.3536510170 -0.1992831677 0.6707258821 4283191379
-0.3541875184 -0.1988391429 0.6717433929 4283388758
-0.3538213968 -0.1978880167 0.6710489988 4283586137
-0.3539061844 -0.1971896738 0.6712098122 4283388758
-0.3544422686 -0.1967414767 0.6722264886 4283059793
-0.3545266390 -0.1960412413 0.6723865867 4282862414
-0.3546107709 -0.1953405142 0.6725460887 4282927687
-0.3546946347 -0.1946392953 0.6727051735 4282664515
-0.3547782600 -0.1939375699 0.6728637218 4282795590
-0.3548615873 -0.1932353526 0.6730217934 4282729797
-0.3553968370 -0.1927779019 0.6740369201 4282532679
-0.3554797471 -0.1920738071 0.6741941571 4282598472
-0.3555623889 -0.1913692206 0.6743509769 4282270788
-0.3551923037 -0.1904215515 0.6736490726 4282139202
-0.3548217714 -0.1894752085 0.6729462743 4282203201
-0.3544507325 -0.1885301620 0.6722425818 4282663752
-0.3536264300 -0.1873465478 0.6706792116 4282796871
-0.3528014421 -0.1861660630 0.6691145897 4282665285
-0.3510698080 -0.1845125258 0.6658303738 4287066183
-0.3502432704 -0.1833400726 0.6642628312 4289434731
-0.3489628434 -0.1819344759 0.6618344188 4289961000
-0.3476815522 -0.1805338115 0.6594043374 4290487344
-0.3463993967 -0.1791381091 0.6569725871 4290421288
-0.3446628451 -0.1775137782 0.6536791325 4291013425
-0.3433788419 -0.1761288792 0.6512438655 4291802937
-0.3411865234 -0.1742854416 0.6470860243 4292197695
-0.3371777534 -0.1715271473 0.6394830942 4292066360
-0.3349825442 -0.1697045267 0.6353196502 4291934774
-0.3327860534 -0.1678905189 0.6311538815 4292000819
-0.3315687776 -0.1658790112 0.6288452148 4292329784
-0.3302778602 -0.1645372063 0.6263968945 4292658749
-0.3289860785 -0.1632004231 0.6239469647 4293250634
-0.3281479478 -0.1620931774 0.6223573685 4293842771
-0.3277637959 -0.1612127423 0.6216287613 4294171485
-0.3273791671 -0.1603337079 0.6208993196 4294303071
-0.3265393078 -0.1592342854 0.6193065047 4294303075
-0.3261536956 -0.1583589613 0.6185751557 4294171489
-0.3262226284 -0.1577050090 0.6187058687 4294499173
-0.3258362114 -0.1568315923 0.6179729700 4294499173
-0.3259045184 -0.1561777145 0.6181025505 4294499171
-0.3255173266 -0.1553062201 0.6173681617 4294564964
-0.3255850077 -0.1546524316 0.6174965501 4294434150
-0.3251970112 -0.1537828594 0.6167606711 4294499943
-0.3252640963 -0.1531291902 0.6168879271 4294630760
-0.3253309429 -0.1524751037 0.6170147061 4294696553
-0.3253975213 -0.1518206149 0.6171409488 4294565481
-0.3259196579 -0.1513774544 0.6181312203 4294631274
-0.3264417350 -0.1509320438 0.6191213727 4294697580
-0.3265077174 -0.1502745301 0.6192465425 4294829166
-0.3274856508 -0.1500345320 0.6211012602 4294829166
-0.3289198875 -0.1499985009 0.6238214374 4294763373
-0.3303544223 -0.1499565542 0.6265420914 4294829166
-0.3327019811 -0.1503210962 0.6309944391 4294961266
-0.3350501657 -0.1506760418 0.6354479790 4293647513
-0.3383121192 -0.1514300704 0.6416345239 4291739516
-0.3415750563 -0.1521708071 0.6478229165 4290886848
-0.3643885255 -0.1416021585 0.6910903454 4289376692
-0.3644511998 -0.1408585310 0.6912091970 4289507767
-0.3645135760 -0.1401145309 0.6913275123 4289639353
-0.3641164899 -0.1391946226 0.6905744076 4289507254
-0.3641781807 -0.1384507865 0.6906914115 4289573047
-0.3646988869 -0.1378802359 0.6916789412 4289639353
-0.3647600114 -0.1371347159 0.6917949319 4289705146
-0.3648208380 -0.1363888383 0.6919102669 4289639099
-0.3648813665 -0.1356425732 0.6920250654 4289704892
-0.3649415672 -0.1348959357 0.6921392679 4289902271
-0.3650014699 -0.1341489255 0.6922528148 4290033857
-0.3650610447 -0.1334015578 0.6923658252 4289902271
-0.3660400212 -0.1329879612 0.6942225099 4290099650
-0.3660991192 -0.1322379857 0.6943346262 4290297029
-0.3661578894 -0.1314876378 0.6944460869 4290823373
-0.3657563031 -0.1305726916 0.6936844587 4291218131
-0.3658143878 -0.1298225671 0.6937946081 4292139233
-0.3658721447 -0.1290720850 0.6939041615 4293060592
-0.3446716964 -0.2295694202 0.6550757885 4289441722
-0.3434328735 -0.2280190885 0.6527213454 4287336346
-0.3421930969 -0.2264733464 0.6503650546 4287599005
-0.3409523666 -0.2249322087 0.6480069160 4287664798
-0.3401558995 -0.2236884683 0.6464931965 4288520361
-0.3393587172 -0.2224476188 0.6449780464 4287467673
-0.3385608196 -0.2212096751 0.6434615850 4285756024
-0.3377622366 -0.2199746370 0.6419438124 4285492852
-0.3378543556 -0.2193211913 0.6421188712 4285427059
-0.3379462361 -0.2186672091 0.6422935128 4285427059
-0.3384838700 -0.2183003128 0.6433153749 4285361266
-0.3394676149 -0.2182179093 0.6451849937 4284900715
-0.3400053978 -0.2178456336 0.6462070942 4285098094
-0.3400968611 -0.2171860635 0.6463809609 4285229680
-0.3406345546 -0.2168101221 0.6474028826 4285229679
-0.3411722481 -0.2164319158 0.6484248042 4285163886
