VERSION 0.7
FIELDS x y z rgba
SIZE 4 4 4 4
TYPE F F F U
COUNT 1 1 1 1
WIDTH 920
HEIGHT 1
VIEWPOINT 0.0 0.0 0.0 1.0 0.0 0.0 0.0
POINTS 920
DATA ascii
-0.2629788816 -0.1594218612 0.5509880185 4294830454
-0.2626263797 -0.1585967988 0.5502494574 4294764661
-0.2631073892 -0.1582747996 0.5512572527 4294633075
-0.2635884285 -0.1579505652 0.5522651076 4294632818
-0.2636522949 -0.1573750824 0.5523989201 4294501232
-0.2637159526 -0.1567991674 0.5525322556 4294369644
-0.2641967833 -0.1564700305 0.5535396934 4294238058
-0.2646775842 -0.1561386585 0.5545471311 4294106470
-0.2651584148 -0.1558050364 0.5555545092 4293909091
-0.2652215362 -0.1552247405 0.5556867719 4293777245
-0.2657022476 -0.1548875421 0.5566939712 4293579866
-0.2661829591 -0.1545481235 0.5577011108 4293514327
-0.2662456632 -0.1539647430 0.5578324795 4293448534
-0.2663081884 -0.1533809453 0.5579634905 4293382738
-0.2667886317 -0.1530366242 0.5589701533 4293316945
-0.2672691047 -0.1526900530 0.5599767566 4293251665
-0.2673311830 -0.1521031857 0.5601068139 4293317458
-0.2678115070 -0.1517530382 0.5611131787 4293317458
-0.2678732574 -0.1511644572 0.5612425804 4293251665
-0.2683534324 -0.1508107334 0.5622486472 4293185872
-0.2684148550 -0.1502204090 0.5623773336 4293185872
-0.2688949108 -0.1498631239 0.5633831620 4293251152
-0.2693749368 -0.1495035738 0.5643888712 4293251152
-0.2698549330 -0.1491417885 0.5653945804 4293185359
-0.2699157894 -0.1485470831 0.5655220747 4293251152
-0.2703956664 -0.1481817067 0.5665274858 4293251152
-0.2704561651 -0.1475852877 0.5666542649 4293185359
-0.2709358633 -0.1472163349 0.5676593184 4293250383
-0.2714155316 -0.1468451470 0.5686643124 4293250383
-0.2718951702 -0.1464717090 0.5696692467 4293250383
-0.2719551027 -0.1458709091 0.5697947741 4293250383
-0.2720147967 -0.1452697068 0.5699198842 4293054286
-0.2724941373 -0.1448913664 0.5709241629 4293054286
-0.2725535035 -0.1442884505 0.5710485578 4293054286
-0.2726126313 -0.1436851323 0.5711724162 4292988493
-0.2730916739 -0.1433018893 0.5721760988 4292988493
-0.2735706866 -0.1429164112 0.5731797218 4293054286
-0.2736293077 -0.1423100531 0.5733025670 4293185360
-0.2736877203 -0.1417033225 0.5734249949 4293119567
-0.2741664350 -0.1413129419 0.5744279027 4293185360
-0.2746450603 -0.1409202963 0.5754307508 4293053774
-0.2747029960 -0.1403105408 0.5755521059 4292987981
-0.2747606635 -0.1397003829 0.5756729841 4293119567
-0.2752389908 -0.1393028647 0.5766751170 4293119567
-0.2761381865 -0.1391151398 0.5785591602 4293119567
-0.2761954665 -0.1385010332 0.5786791444 4293053776
-0.2766736150 -0.1380967498 0.5796809196 4293053776
-0.2767305076 -0.1374809444 0.5798001289 4293316431
-0.2767871916 -0.1368647665 0.5799188614 4293119052
-0.2772649825 -0.1364555806 0.5809199810 4292922698
-0.2773212790 -0.1358377188 0.5810378790 4292988491
-0.2777988613 -0.1354249716 0.5820385218 4292791879
-0.2778547704 -0.1348053962 0.5821556449 4292857672
-0.2783321738 -0.1343890876 0.5831558704 4292792393
-0.2783876956 -0.1337678283 0.5832722187 4292726600
-0.2788648605 -0.1333479434 0.5842719674 4292594246
-0.2789199948 -0.1327250153 0.5843874812 4292857418
-0.2793969214 -0.1323015690 0.5853867531 4292987981
-0.2794516683 -0.1316769570 0.5855014324 4292593223
-0.2799283862 -0.1312499344 0.5865002871 4292724039
-0.2804050148 -0.1308206618 0.5874989033 4292789832
-0.2808815837 -0.1303891391 0.5884974003 4292921418
-0.2809356153 -0.1297602355 0.5886105895 4292263488
-0.2814119458 -0.1293251514 0.5896086097 4291673687
-0.2814655900 -0.1286945790 0.5897209644 4290292034
-0.2819416821 -0.1282559186 0.5907184482 4288318013
-0.2824176848 -0.1278150231 0.5917158127 4286410016
-0.2824707329 -0.1271814704 0.5918269753 4283977496
-0.2829464972 -0.1267370135 0.5928237438 4282924808
-0.2829991579 -0.1261018068 0.5929340720 4282268456
-0.2834746540 -0.1256537884 0.5939303637 4282334249
-0.2839500606 -0.1252035201 0.5949264169 4282401091
-0.2844254076 -0.1247509867 0.5959222913 4282401091
-0.2849006355 -0.1242962107 0.5969179869 4282467138
-0.2853757739 -0.1238391772 0.5979135036 4282467138
-0.2858507931 -0.1233798862 0.5989087820 4282597959
-0.2863257527 -0.1229183525 0.5999038815 4282663752
-0.2863769531 -0.1222736761 0.6000111699 4282795582
-0.2868516147 -0.1218085885 0.6010056734 4282927168
-0.2877499759 -0.1215202063 0.6028878689 4283058501
-0.2878006399 -0.1208716407 0.6029940844 4283124294
-0.2882750034 -0.1203997880 0.6039879322 4283190087
-0.2883252501 -0.1197495833 0.6040931940 4283321673
-0.2887993157 -0.1192741841 0.6050864458 4283453259
-0.2888491154 -0.1186223477 0.6051908135 4283650638
-0.2893229127 -0.1181434020 0.6061834693 4283651151
-0.2893722653 -0.1174899340 0.6062868834 4283585358
-0.2898457646 -0.1170074418 0.6072789431 4283651151
-0.2898946702 -0.1163523495 0.6073814631 4283585358
-0.2903678715 -0.1158663183 0.6083728075 4283782737
-0.2904163301 -0.1152096018 0.6084743738 4283782737
-0.2904645503 -0.1145525575 0.6085754037 4283650897
-0.2909372449 -0.1140617058 0.6095657945 4283585104
-0.2909850180 -0.1134030521 0.6096658707 4283650897
-0.2914573848 -0.1129086614 0.6106555462 4283848276
-0.2915046811 -0.1122483984 0.6107547283 4283716690
-0.2915517390 -0.1115878150 0.6108533144 4284374620
-0.2915985286 -0.1109269112 0.6109513044 4285230442
-0.2924953401 -0.1105871648 0.6128302813 4286085751
-0.2925417423 -0.1099237055 0.6129274964 4286875269
-0.2925878763 -0.1092599258 0.6130241752 4287796371
-0.2926337421 -0.1085958332 0.6131202579 4288652198
-0.2926793396 -0.1079314277 0.6132158041 4289178542
-0.2927246690 -0.1072667167 0.6133107543 4289704631
-0.2923442125 -0.1064467505 0.6125136614 4290494147
-0.2923889458 -0.1057823896 0.6126073599 4290692041
-0.2924334109 -0.1051177233 0.6127005219 4290889420
-0.2924776375 -0.1044527590 0.6127931476 4291021522
-0.2925215662 -0.1037874892 0.6128852367 4291087315
-0.2925652266 -0.1031219214 0.6129767299 4291153110
-0.2921827137 -0.1023069248 0.6121752858 4291153110
-0.2922257781 -0.1016417295 0.6122655272 4291153623
-0.2922685742 -0.1009762511 0.6123551726 4291153623
-0.2918850183 -0.1001642495 0.6115515232 4291153368
-0.2923533916 -0.0996444076 0.6125328541 4291219161
-0.2923953831 -0.0989780575 0.6126208305 4291285209
-0.2928633988 -0.0984547287 0.6136014462 4291351002
-0.2924785614 -0.0976444930 0.6127951145 4291548381
-0.2925197482 -0.0969772860 0.6128814220 4291614174
-0.2925606370 -0.0963098034 0.6129671335 4291548381
-0.2926012874 -0.0956420377 0.6130522490 4291679967
-0.3354448676 -0.3447124660 0.7044565678 4292008417
-0.2800999582 -0.2871849239 0.5882285237 4287073942
-0.2711520791 -0.2773780525 0.5694374442 4284376429
-0.2720396221 -0.2776512206 0.5713013411 4285032811
-0.2729276419 -0.2779207528 0.5731662512 4284440674
-0.2714522481 -0.2757849693 0.5700678229 4284374881
-0.2707638443 -0.2744537592 0.5686221123 4284177502
-0.2704689801 -0.2735238075 0.5680028796 4283782744
-0.2701737285 -0.2725948095 0.5673828125 4283519572
-0.2702726126 -0.2720639408 0.5675904751 4283519572
-0.2683978379 -0.2695505023 0.5636533499 4283716951
-0.2684957683 -0.2690223753 0.5638589859 4284243295
-0.2678036094 -0.2677039504 0.5624054074 4284440674
-0.2655301988 -0.2648118138 0.5576310754 4284572262
-0.2600927055 -0.2587821782 0.5462120175 4284572262
-0.2641412020 -0.2621939480 0.5547141433 4284638055
-0.2527654469 -0.2503122687 0.5308242440 4285032813
-0.2477125823 -0.2447304428 0.5202129483 4285756023
-0.2481977940 -0.2446306944 0.5212318897 4286348160
-0.2474951893 -0.2433606982 0.5197563767 4287071884
-0.2456035018 -0.2409275472 0.5157837272 4287335056
-0.2452953905 -0.2400529385 0.5151366591 4287006091
-0.2453832775 -0.2395664006 0.5153212547 4286611333
-0.2454710752 -0.2390793413 0.5155056119 4286413956
-0.2455587387 -0.2385917604 0.5156897306 4286216577
-0.2464399785 -0.2388729751 0.5175403953 4286348163
-0.2461307198 -0.2379989028 0.5168908834 4286348163
-0.2458210438 -0.2371258885 0.5162405968 4286282370
-0.2455109805 -0.2362539321 0.5155894160 4285821819
-0.2452005148 -0.2353830338 0.5149374008 4285624440
-0.2448896468 -0.2345132083 0.5142845511 4285492854
-0.2449760735 -0.2340243608 0.5144660473 4285295475
-0.2446645349 -0.2331558764 0.5138118267 4284966510
-0.2447505891 -0.2326667905 0.5139925480 4284769131
-0.2448365092 -0.2321771830 0.5141729712 4285032303
-0.2449223101 -0.2316870689 0.5143531561 4285295475
-0.2446095943 -0.2308205068 0.5136964321 4285492854
-0.2442964911 -0.2299550176 0.5130388737 4285690233
-0.2447803169 -0.2298392951 0.5140549541 4285953405
-0.2740824223 -0.2394461781 0.5755913258 4290560203
-0.2747561038 -0.2381114513 0.5770061016 4290559944
-0.2752491832 -0.2378965318 0.5780416131 4290428358
-0.2761455178 -0.2380269021 0.5799239874 4290296518
-0.2762356997 -0.2374600768 0.5801134109 4290230725
-0.2759223282 -0.2365468889 0.5794553161 4290033859
-0.2756085396 -0.2356347889 0.5787963271 4290099652
-0.2756980062 -0.2350679785 0.5789841413 4290165445
-0.2757872939 -0.2345006019 0.5791716576 4290231238
-0.2758764327 -0.2339326888 0.5793588758 4290231238
-0.2759653926 -0.2333642095 0.5795457363 4290099652
-0.2756500244 -0.2324543595 0.5788834095 4289902273
-0.2761428654 -0.2322256267 0.5799184442 4289836480
-0.2766357958 -0.2319946885 0.5809535980 4289836480
-0.2763197124 -0.2310848534 0.5802897811 4289902273
-0.2755984664 -0.2298386246 0.5787751675 4289770685
-0.2760910392 -0.2296052128 0.5798096061 4289639099
-0.2765837312 -0.2293695807 0.5808442235 4289507513
-0.2766714096 -0.2287967205 0.5810284019 4289441720
-0.2767589390 -0.2282233387 0.5812121630 4289244341
-0.2768462896 -0.2276493907 0.5813956261 4289112755
-0.2769334614 -0.2270749211 0.5815787315 4289112755
-0.2770204842 -0.2264999002 0.5817614794 4289112755
-0.2767016292 -0.2255935520 0.5810918808 4288981169
-0.2767882049 -0.2250182927 0.5812736750 4289112755
-0.2768746018 -0.2244424820 0.5814551115 4289310134
-0.2773669362 -0.2241943926 0.5824890137 4289375927
-0.2774531245 -0.2236166745 0.5826700330 4289573308
-0.2775391340 -0.2230384052 0.5828506947 4289836480
-0.2776249945 -0.2224596143 0.5830309391 4290033859
-0.2777106464 -0.2218802720 0.5832108855 4290165445
-0.2782028913 -0.2216244191 0.5842446089 4290165694
-0.2782883644 -0.2210431546 0.5844240785 4290297280
-0.2779666781 -0.2201390564 0.5837485194 4290494408
-0.2772374451 -0.2189146578 0.5822170973 4290625994
-0.2769148052 -0.2180137485 0.5815395117 4290297031
-0.2761843503 -0.2167942524 0.5800055861 4289836480
-0.2762682140 -0.2162154615 0.5801816583 4289310386
-0.2763518989 -0.2156361192 0.5803573728 4288915628
-0.2760276794 -0.2147390842 0.5796765089 4290754474
-0.2761108875 -0.2141595483 0.5798512697 4291215025
-0.2761939168 -0.2135795057 0.5800256133 4292464470
-0.2762767673 -0.2129989415 0.5801995993 4292464470
-0.2763594389 -0.2124178410 0.5803732276 4293053020
-0.2752169669 -0.2108975202 0.5779739618 4293184606
-0.2736651003 -0.2090697885 0.5747148991 4293316705
-0.2721120715 -0.2072484195 0.5714535117 4293382498
-0.2693318427 -0.2045024633 0.5656148195 4293579869
-0.2665497363 -0.2017680705 0.5597721934 4293579869
-0.2637657523 -0.1990452558 0.5539256334 4293645408
-0.2609799206 -0.1963340342 0.5480751991 4293579615
-0.2577830553 -0.1933275461 0.5413615704 4293513824
-0.2566305995 -0.1918644458 0.5389413238 4293513824
-0.2550678253 -0.1901009381 0.5356594324 4293514337
-0.2543230355 -0.1889524162 0.5340952873 4293580130
-0.2539872229 -0.1881102920 0.5333901048 4293711714
-0.2536510229 -0.1872694492 0.5326840878 4293711714
-0.2533144355 -0.1864298582 0.5319771767 4293711967
-0.2529774010 -0.1855915636 0.5312694311 4293711967
-0.2526400089 -0.1847545356 0.5305608511 4293777758
-0.2523021698 -0.1839187890 0.5298513770 4293843551
-0.2523743212 -0.1833824962 0.5300028920 4293909344
-0.2524462938 -0.1828457564 0.5301540494 4293909344
-0.2525180876 -0.1823085546 0.5303048491 4293909346
-0.2525897324 -0.1817708910 0.5304552317 4293909346
-0.2526611984 -0.1812327802 0.5306053162 4293909346
-0.2527324855 -0.1806942075 0.5307550430 4293975139
-0.2523925304 -0.1798622459 0.5300410986 4294172265
-0.2524633408 -0.1793236434 0.5301898718 4294303851
-0.2529453039 -0.1790757626 0.5312019587 4294435439
-0.2534272969 -0.1788256764 0.5322142243 4294435439
-0.2530863285 -0.1779945344 0.5314981341 4294632564
-0.2535682023 -0.1777417809 0.5325101018 4294698357
-0.2536383867 -0.1771991551 0.5326575041 4294895737
-0.2537083924 -0.1766560823 0.5328045487 4294961530
-0.2541902065 -0.1763984561 0.5338163972 4294962044
-0.2542599738 -0.1758536100 0.5339629054 4294962301
-0.2543295622 -0.1753083020 0.5341090560 4294962557
-0.2543989718 -0.1747625619 0.5342547894 4294962814
-0.2544682324 -0.1742163599 0.5344002247 4294962303
-0.2545372844 -0.1736697257 0.5345452428 4294962303
-0.2546061575 -0.1731226295 0.5346899033 4294962303
-0.2550876141 -0.1728548110 0.5357009768 4294962046
-0.2551562190 -0.1723059416 0.5358451009 4294962046
-0.2552246749 -0.1717566401 0.5359888077 4294962046
-0.2552929521 -0.1712069064 0.5361321568 4294961789
-0.2557742298 -0.1709328592 0.5371429324 4294895996
-0.2554289103 -0.1701060981 0.5364177227 4294896766
-0.2559100389 -0.1698293984 0.5374281406 4294830973
-0.2559776902 -0.1692769974 0.5375701785 4294830973
-0.2560451329 -0.1687241644 0.5377118587 4294896766
-0.2565261722 -0.1684425920 0.5387220383 4294896766
-0.2565933466 -0.1678879857 0.5388631225 4294962559
-0.2570743263 -0.1676028520 0.5398731828 4294962559
-0.2571412623 -0.1670464873 0.5400137305 4294896766
-0.2572079897 -0.1664896905 0.5401539207 4294961789
-0.2576888204 -0.1661996692 0.5411636829 4294961789
-0.2581696808 -0.1659074128 0.5421735644 4294961789
-0.2578215599 -0.1650821120 0.5414424539 4294961789
-0.2583022714 -0.1647872031 0.5424519777 4294961789
-0.2587829828 -0.1644900590 0.5434615016 4294961789
-0.2592637241 -0.1641906798 0.5444710851 4294961789
-0.2593295574 -0.1636272669 0.5446093082 4294962046
-0.2593951821 -0.1630634218 0.5447471738 4294962043
-0.2594606280 -0.1624991596 0.5448845625 4294962043
-0.2599411011 -0.1621935666 0.5458936691 4294962300
-0.2604216039 -0.1618857235 0.5469027162 4294962043
-0.2604866624 -0.1613183767 0.5470393896 4294896249
-0.2609671056 -0.1610069722 0.5480483174 4294830456
-0.2614475191 -0.1606933475 0.5490572453 4294764663
-0.2615122199 -0.1601229012 0.5491930842 4294633077
-0.2619925439 -0.1598057002 0.5502018332 4294632818
-0.2620569468 -0.1592335105 0.5503370166 4294435439
-0.2625371814 -0.1589127481 0.5513455868 4294238056
-0.2630174458 -0.1585897356 0.5523541570 4294106470
-0.2630814314 -0.1580144614 0.5524885654 4294040932
-0.2631452084 -0.1574387699 0.5526224971 4293909346
-0.2632088065 -0.1568626612 0.5527560115 4293843292
-0.2636887729 -0.1565334350 0.5537639856 4293711706
-0.2641687095 -0.1562019438 0.5547719002 4293580118
-0.2646486461 -0.1558682323 0.5557798147 4293514325
-0.2651285827 -0.1555322558 0.5567877293 4293448531
-0.2651915550 -0.1549504250 0.5569199324 4293448531
-0.2656713724 -0.1546108872 0.5579276085 4293513808
-0.2661511898 -0.1542690992 0.5589352250 4293513808
-0.2666309774 -0.1539250761 0.5599428415 4293382224
-0.2666934133 -0.1533388197 0.5600739717 4293316431
-0.2671730816 -0.1529912204 0.5610812902 4293120079
-0.2672351897 -0.1524032354 0.5612117052 4293185872
-0.2677147388 -0.1520520598 0.5622187853 4293185872
-0.2677765191 -0.1514623314 0.5623485446 4293120079
-0.2678380907 -0.1508722156 0.5624778271 4293119566
-0.2678994536 -0.1502816677 0.5626066923 4293185359
-0.2683786452 -0.1499242634 0.5636129975 4293119566
-0.2688577771 -0.1495645940 0.5646192431 4293119566
-0.2693369091 -0.1492026895 0.5656254888 4293185359
-0.2698160410 -0.1488385201 0.5666316152 4293251152
-0.2698766887 -0.1482422799 0.5667590499 4293382224
-0.2699371278 -0.1476456374 0.5668859482 4293316431
-0.2708345652 -0.1475045532 0.5687706470 4293250638
-0.2713134587 -0.1471323073 0.5697763562 4293250638
-0.2717923224 -0.1467578113 0.5707820058 4293250638
-0.2718522847 -0.1461558640 0.5709078908 4293184845
-0.2719120085 -0.1455535144 0.5710332990 4293053773
-0.2723905742 -0.1451741159 0.5720383525 4293119566
-0.2724499404 -0.1445700526 0.5721630454 4293119566
-0.2729283273 -0.1441870630 0.5731676817 4293119566
-0.2729873657 -0.1435812861 0.5732916594 4293119566
-0.2734656036 -0.1431947201 0.5742959380 4293119566
-0.2739437819 -0.1428059191 0.5753001571 4293053774
-0.2735826969 -0.1419793367 0.5745418668 4293053774
-0.2740606070 -0.1415878832 0.5755455494 4293053774
-0.2745384574 -0.1411941648 0.5765490532 4292987981
-0.2745964229 -0.1405832469 0.5766707659 4293118797
-0.2750740945 -0.1401859671 0.5776739120 4293118797
-0.2751316726 -0.1395733356 0.5777947903 4293250383
-0.2756091356 -0.1391724795 0.5787975788 4293250383
-0.2760865688 -0.1387693584 0.5798001885 4293184590
-0.2761436403 -0.1381537020 0.5799200535 4293250383
-0.2766208649 -0.1377470195 0.5809222460 4293513559
-0.2766775489 -0.1371296644 0.5810412765 4293316180
-0.2767340243 -0.1365119368 0.5811598301 4293119318
-0.2772108912 -0.1361003518 0.5821613073 4293053525
-0.2772669792 -0.1354809403 0.5822790861 4292790353
-0.2777436376 -0.1350657791 0.5832801461 4292724560
-0.2777993381 -0.1344446689 0.5833970904 4292659016
-0.2782757878 -0.1340259463 0.5843976736 4292461637
-0.2783310711 -0.1334031522 0.5845138431 4292461890
-0.2788073123 -0.1329808533 0.5855139494 4292659269
-0.2788622379 -0.1323563755 0.5856292844 4292791376
-0.2793382406 -0.1319305152 0.5866289139 4292659790
-0.2798141837 -0.1315024048 0.5876284242 4291805275
-0.2802900374 -0.1310720295 0.5886277556 4290555208
-0.2803442478 -0.1304432452 0.5887416005 4289041735
-0.2808198631 -0.1300093085 0.5897404552 4287396910
-0.2812954187 -0.1295731217 0.5907391310 4284964906
-0.2813490629 -0.1289413571 0.5908517838 4283517460
-0.2818243802 -0.1285015941 0.5918499231 4282069788
-0.2818776071 -0.1278681606 0.5919618011 4282069788
-0.2823526859 -0.1274248362 0.5929594040 4282201895
-0.2824055254 -0.1267897338 0.5930703878 4282399274
-0.2828803062 -0.1263428628 0.5940675139 4282531379
-0.2829327583 -0.1257061064 0.5941776037 4282728758
-0.2834073007 -0.1252556592 0.5951741934 4282597431
-0.2838817537 -0.1248029619 0.5961706042 4282531638
-0.2843561172 -0.1243480146 0.5971667767 4282466617
-0.2848303914 -0.1238908097 0.5981627703 4282466617
-0.2853045762 -0.1234313548 0.5991585851 4282466627
-0.2857786417 -0.1229696348 0.6001541615 4282598213
-0.2862526178 -0.1225056648 0.6011495590 4282730811
-0.2867265046 -0.1220394447 0.6021447182 4282928190
-0.2867772877 -0.1213919222 0.6022514105 4283190346
-0.2868278325 -0.1207440570 0.6023575664 4283387725
-0.2873012722 -0.1202729866 0.6033517718 4283585104
-0.2877745926 -0.1197996587 0.6043457985 4283782483
-0.2878245115 -0.1191488579 0.6044506431 4283914069
-0.2878741920 -0.1184977219 0.6045550108 4283979862
-0.2879236341 -0.1178462431 0.6046587825 4283914069
-0.2883962691 -0.1173667833 0.6056513786 4283848276
-0.2884452641 -0.1167136803 0.6057542562 4283716690
-0.2889176309 -0.1162306741 0.6067462564 4283716690
-0.2889661789 -0.1155759469 0.6068482399 4283979862
-0.2890144587 -0.1149208993 0.6069496274 4284243034
-0.2890624702 -0.1142655164 0.6070504785 4284769378
-0.2895341516 -0.1137763932 0.6080410480 4285427308
-0.2895817459 -0.1131194010 0.6081409454 4286216824
-0.2900531292 -0.1126267463 0.6091308594 4286940547
-0.2901002467 -0.1119681448 0.6092298031 4287927705
-0.2901470959 -0.1113092303 0.6093282700 4288651428
-0.2901937068 -0.1106499881 0.6094261408 4289441714
-0.2906643748 -0.1101512387 0.6104145646 4290165437
-0.2907105088 -0.1094904095 0.6105114818 4290691526
-0.2911808789 -0.1089881361 0.6114991903 4291020491
-0.2912265658 -0.1083257049 0.6115951538 4291152592
-0.2912719846 -0.1076629683 0.6116905212 4291284178
-0.2908924818 -0.1068439484 0.6108935475 4291218901
-0.2909373045 -0.1061815619 0.6109877229 4291350487
-0.2909818590 -0.1055188701 0.6110813022 4291153110
-0.2910261452 -0.1048558727 0.6111742854 4291087317
-0.2910701931 -0.1041925773 0.6112667918 4291087575
-0.2911139429 -0.1035289764 0.6113586426 4291087575
-0.2911574244 -0.1028650850 0.6114500165 4291350747
-0.2907755673 -0.1020516902 0.6106480360 4291416540
-0.2908184528 -0.1013881713 0.6107381582 4291219161
-0.2908611000 -0.1007243618 0.6108276844 4291284954
-0.2909034491 -0.1000602618 0.6109166145 4291416540
-0.2909455597 -0.0993958712 0.6110050082 4291613919
-0.2909873724 -0.0987311900 0.6110928655 4291745505
-0.2708092928 -0.2789418101 0.5700471997 4291942624
-0.2740507126 -0.2816396058 0.5768703222 4287139735
-0.2682606578 -0.2750618160 0.5646823645 4284968566
-0.2695385814 -0.2757417560 0.5673723817 4285756534
-0.2704242170 -0.2760153115 0.5692365766 4285295983
-0.2689510882 -0.2738826871 0.5661356449 4284967018
-0.2686567008 -0.2729545832 0.5655159950 4284638053
-0.2687554061 -0.2724263072 0.5657238364 4284111709
-0.2692476511 -0.2722955644 0.5667599440 4283651158
-0.2693462670 -0.2717653513 0.5669675469 4283453779
-0.2690508366 -0.2708380222 0.5663456917 4283519572
-0.2687549889 -0.2699116468 0.5657229424 4283848537
-0.2680645585 -0.2685912848 0.5642695427 4283914330
-0.2677677572 -0.2676676512 0.5636447668 4284045916
-0.2662870586 -0.2655647397 0.5605279803 4284111709
-0.2577015162 -0.2563997805 0.5424556136 4284243295
-0.2487147897 -0.2468767464 0.5235387683 4284572260
-0.2527540028 -0.2502949834 0.5320411921 4285032811
-0.2492896020 -0.2462812513 0.5247487426 4285493362
-0.2466129512 -0.2430601418 0.5191144347 4286084991
-0.2459109724 -0.2417931408 0.5176368356 4286479749
-0.2456038147 -0.2409166992 0.5169902444 4286413956
-0.2480657250 -0.2427514642 0.5221725106 4286348163
-0.2457798570 -0.2399397343 0.5173608065 4286348163
-0.2470554560 -0.2406072319 0.5200459361 4286216577
-0.2467475533 -0.2397302687 0.5193977952 4286282370
-0.2448544204 -0.2373183072 0.5154128075 4286216577
-0.2457341850 -0.2375962734 0.5172646642 4286216577
-0.2442354709 -0.2355759889 0.5141099095 4285887612
-0.2443220168 -0.2350880504 0.5142921209 4285624440
-0.2444084585 -0.2345996052 0.5144740343 4285427061
-0.2444947660 -0.2341106385 0.5146557093 4285361014
-0.2445809692 -0.2336211503 0.5148371458 4285426807
-0.2442698628 -0.2327526808 0.5141822696 4285558393
-0.2443556786 -0.2322629541 0.5143629313 4285953151
-0.2436464429 -0.2310189903 0.5128700137 4285953405
-0.2441293299 -0.2309058905 0.5138865113 4285887612
-0.2442146540 -0.2304154187 0.5140661001 4286019198
-0.2442998439 -0.2299244404 0.5142453909 4286282370
-0.2443849146 -0.2294329405 0.5144245028 4286282370
-0.2721125782 -0.2312805504 0.5727905631 4289836478
-0.2722004056 -0.2307185829 0.5729754567 4289639099
-0.2735321224 -0.2280089557 0.5757786632 4289310136
-0.2733016312 -0.2265384346 0.5752934813 4289178550
-0.2729837298 -0.2256364822 0.5746243000 4289112755
-0.2723172605 -0.2117109299 0.5732214451 4289898922
-0.2719920576 -0.2108219564 0.5725368261 4291149147
-0.2724809945 -0.2105636746 0.5735660791 4291807077
-0.2697106898 -0.2077920735 0.5677345991 4292791140
-0.2657158673 -0.2040929198 0.5593256354 4292922726
-0.2678333521 -0.2050929368 0.5637829304 4293251674
-0.2630195916 -0.2007916570 0.5536500812 4293514846
-0.2614659965 -0.1989941150 0.5503797531 4293382749
-0.2590951920 -0.1965838075 0.5453892946 4293514335
-0.2571309507 -0.1944920868 0.5412545800 4293645410
-0.2555735707 -0.1927163750 0.5379763246 4293645410
-0.2548318505 -0.1915610731 0.5364150405 4293645410
-0.2536809742 -0.1901026368 0.5339924693 4293645410
-0.2525292039 -0.1886489242 0.5315680504 4293776480
-0.2517853081 -0.1875043362 0.5300021768 4293776480
-0.2522673607 -0.1872733235 0.5310168266 4293710684
-0.2515225410 -0.1861321330 0.5294489861 4293908063
-0.2515952587 -0.1855975240 0.5296021104 4293908831
-0.2512586117 -0.1847615540 0.5288934708 4293843038
-0.2517402172 -0.1845269352 0.5299072266 4293777758
-0.2514030039 -0.1836917698 0.5291973948 4293777758
-0.2514749467 -0.1831561923 0.5293487906 4293843298
-0.2515467107 -0.1826201528 0.5294998884 4293909091
-0.2516182959 -0.1820836514 0.5296506286 4294041706
-0.2516897321 -0.1815467030 0.5298009515 4294107499
-0.2517609894 -0.1810092777 0.5299509764 4294239085
-0.2518320978 -0.1804714203 0.5301006436 4294436464
-0.2514927387 -0.1796400398 0.5293862820 4294633847
-0.2515633702 -0.1791021377 0.5295349956 4294897019
-0.2516338229 -0.1785637885 0.5296832919 4294963073
-0.2521147430 -0.1783154011 0.5306955576 4294963330
-0.2521849573 -0.1777752638 0.5308433771 4294963075
-0.2526658475 -0.1775233299 0.5318556428 4294963075
-0.2527358532 -0.1769814193 0.5320029855 4294963075
-0.2528056502 -0.1764390469 0.5321499705 4294963075
-0.2532864809 -0.1761822402 0.5331620574 4294963073
-0.2533560395 -0.1756380945 0.5333085060 4294962816
-0.2534254491 -0.1750935018 0.5334545970 4294896766
-0.2534946799 -0.1745484620 0.5336003304 4294830973
-0.2535637021 -0.1740029752 0.5337456465 4294962300
-0.2536325753 -0.1734570414 0.5338906050 4294962300
-0.2537012696 -0.1729106605 0.5340352058 4294962043
-0.2541817427 -0.1726436466 0.5350465775 4294962043
-0.2542501688 -0.1720954925 0.5351906419 4294962300
-0.2543184161 -0.1715469062 0.5353342891 4294962300
-0.2547987998 -0.1712750047 0.5363454819 4294896764
-0.2544544041 -0.1704483926 0.5356205106 4294896764
-0.2549346089 -0.1701738387 0.5366313457 4294962559
-0.2550022602 -0.1696225852 0.5367737412 4294896766
-0.2550697029 -0.1690708995 0.5369157195 4294896766
-0.2555498183 -0.1687914729 0.5379263163 4294896766
-0.2556169927 -0.1682380140 0.5380677581 4294896766
-0.2560970783 -0.1679550260 0.5390782952 4294896766
-0.2561639845 -0.1673998088 0.5392191410 4294831486
-0.2566440105 -0.1671132594 0.5402296185 4294831486
-0.2567106783 -0.1665562689 0.5403699279 4294962048
-0.2571906447 -0.1662661582 0.5413802266 4294962048
-0.2572570145 -0.1657074094 0.5415199399 4294961791
-0.2577369213 -0.1654137522 0.5425301790 4294962048
-0.2578030527 -0.1648532301 0.5426693559 4294962046
-0.2578689754 -0.1642922908 0.5428081155 4294962046
-0.2583487332 -0.1639937311 0.5438179970 4294962300
-0.2588284910 -0.1636929363 0.5448278785 4294962043
-0.2588940561 -0.1631289124 0.5449659228 4294896249
-0.2589594424 -0.1625644416 0.5451034904 4294764663
-0.2594390512 -0.1622587591 0.5461130738 4294830197
-0.2599186599 -0.1619508266 0.5471226573 4294698611
-0.2595690191 -0.1611258984 0.5463866591 4294567025
-0.2604632080 -0.1610717922 0.5482689142 4294435439
-0.2609427571 -0.1607580632 0.5492783785 4294303853
-0.2610073686 -0.1601874232 0.5494143367 4294106474
-0.2614868283 -0.1598701328 0.5504236221 4293909091
-0.2619663179 -0.1595505923 0.5514329076 4293843298
-0.2616152763 -0.1587249339 0.5506939888 4293843038
-0.2620945573 -0.1584027410 0.5517028570 4293711452
-0.2625738382 -0.1580782980 0.5527117252 4293645911
-0.2630531192 -0.1577516198 0.5537205935 4293514325
-0.2631167173 -0.1571743935 0.5538544655 4293448531
-0.2631801367 -0.1565967500 0.5539879799 4293382738
-0.2636592090 -0.1562651694 0.5549964309 4293317199
-0.2641382813 -0.1559313387 0.5560048223 4293251406
-0.2646173537 -0.1555952728 0.5570132732 4293382220
-0.2650963962 -0.1552569568 0.5580216646 4293382220
-0.2651591897 -0.1546735764 0.5581538081 4293448015
-0.2656381130 -0.1543316841 0.5591619611 4293382222
-0.2661170363 -0.1539875418 0.5601701140 4293250638
-0.2665959597 -0.1536411494 0.5611782074 4293184845
-0.2666582167 -0.1530533731 0.5613092184 4293053773
-0.2671369910 -0.1527034044 0.5623170733 4293119566
-0.2671989202 -0.1521138847 0.5624474287 4293185359
-0.2676775753 -0.1517603397 0.5634549856 4293185359
-0.2677391768 -0.1511690766 0.5635846257 4293185359
-0.2682176828 -0.1508119553 0.5645918846 4293185359
-0.2682789564 -0.1502189636 0.5647208691 4293119566
-0.2687573433 -0.1498582512 0.5657278299 4293053773
-0.2692357004 -0.1494953036 0.5667347908 4293250638
-0.2697139978 -0.1491300911 0.5677416325 4293316431
-0.2701923251 -0.1487626284 0.5687484741 4293316431
-0.2702528834 -0.1481639147 0.5688759685 4293250638
-0.2703132331 -0.1475647986 0.5690029860 4293250638
-0.2707912624 -0.1471924335 0.5700091720 4293250638
-0.2712692320 -0.1468178183 0.5710153580 4293250636
-0.2713291049 -0.1462156475 0.5711414218 4293250636
-0.2718069553 -0.1458374411 0.5721471906 4293250638
-0.2718664706 -0.1452335417 0.5722725391 4293316431
-0.2723441422 -0.1448517591 0.5732779503 4293250638
-0.2724032998 -0.1442461461 0.5734025240 4293184845
-0.2728807926 -0.1438607872 0.5744076371 4293184845
-0.2729396224 -0.1432534456 0.5745314956 4293184845
-0.2738356292 -0.1430832893 0.5764175653 4293119052
-0.2734754086 -0.1422554553 0.5756592751 4293119052
-0.2739525139 -0.1418629289 0.5766636133 4293118797
-0.2744296193 -0.1414681524 0.5776678324 4293118797
-0.2744875848 -0.1408560723 0.5777899027 4293184590
-0.2749644816 -0.1404577047 0.5787937045 4293250383
-0.2750220597 -0.1398439258 0.5789149404 4293316176
-0.2754987776 -0.1394419819 0.5799183846 4293381969
-0.2755559981 -0.1388264894 0.5800389051 4293316176
-0.2760325074 -0.1384209692 0.5810419321 4293316176
-0.2760893703 -0.1378037632 0.5811615586 4293249859
-0.2765656710 -0.1373946816 0.5821641684 4293184066
-0.2766221464 -0.1367757767 0.5822830796 4293184332
-0.2770982385 -0.1363631040 0.5832852125 4293184332
-0.2771543264 -0.1357425153 0.5834033489 4292986702
-0.2776302099 -0.1353262663 0.5844050646 4292920909
-0.2776859403 -0.1347039789 0.5845223069 4292724560
-0.2781615853 -0.1342841685 0.5855236053 4292527181
-0.2782169282 -0.1336601973 0.5856400728 4291673162
-0.2782720327 -0.1330358386 0.5857560635 4290686267
-0.2787473202 -0.1326111406 0.5867565274 4288911933
-0.2788020074 -0.1319851130 0.5868716836 4287201315
-0.2792770863 -0.1315568388 0.5878716707 4284767786
-0.2797520757 -0.1311263144 0.5888715386 4282991375
-0.2802269757 -0.1306935251 0.5898712277 4281938723
-0.2802809775 -0.1300631911 0.5899848342 4281478172
-0.2807556689 -0.1296268404 0.5909840465 4281676847
-0.2812302709 -0.1291882247 0.5919830799 4281874226
-0.2812836766 -0.1285549104 0.5920955539 4282006074
-0.2817580402 -0.1281127334 0.5930940509 4282203453
-0.2818110585 -0.1274777502 0.5932056308 4282006326
-0.2822851837 -0.1270320117 0.5942036510 4281677361
-0.2823377848 -0.1263953596 0.5943143964 4281873710
-0.2828116417 -0.1259460598 0.5953118205 4282005296
-0.2832854092 -0.1254944950 0.5963090658 4282662713
-0.2837590575 -0.1250406802 0.5973061323 4282596920
-0.2838109136 -0.1243997663 0.5974153280 4282597180
-0.2842843235 -0.1239423901 0.5984117985 4282597180
-0.2847576439 -0.1234827563 0.5994081497 4282401091
-0.2848089039 -0.1228388846 0.5995160341 4282664263
-0.2857039571 -0.1225567237 0.6014001369 4282862921
-0.2857548892 -0.1219102517 0.6015073061 4283323472
-0.2858055532 -0.1212634370 0.6016139388 4283650897
-0.2858559787 -0.1206162721 0.6017200947 4283782483
-0.2859061360 -0.1199687719 0.6018257141 4283848276
-0.2863784432 -0.1194971725 0.6028198600 4283848276
-0.2864281833 -0.1188480332 0.6029245853 4283980375
-0.2864776552 -0.1181985587 0.6030287147 4284243547
-0.2869494855 -0.1177221239 0.6040219069 4284572512
-0.2869985402 -0.1170710176 0.6041251421 4284967270
-0.2870473266 -0.1164195761 0.6042278409 4285756786
-0.2870958745 -0.1157678068 0.6043300033 4286283130
-0.2875670195 -0.1152852476 0.6053218246 4287072648
-0.2876151204 -0.1146318540 0.6054230332 4287927957
-0.2876629531 -0.1139781401 0.6055237651 4288849059
-0.2877105474 -0.1133240983 0.6056239009 4289638575
-0.2881810367 -0.1128354222 0.6066142917 4290230712
-0.2882281542 -0.1121797785 0.6067134738 4290822849
-0.2882750332 -0.1115238070 0.6068121195 4291086545
-0.2883216441 -0.1108675152 0.6069102287 4291349717
-0.2887914181 -0.1103727445 0.6078991294 4291547096
-0.2888375819 -0.1097148582 0.6079962850 4291612889
-0.2888834774 -0.1090566590 0.6080929041 4291482075
-0.2893527448 -0.1085570827 0.6090807319 4291482075
-0.2893981934 -0.1078972891 0.6091763973 4291547868
-0.2894433737 -0.1072371900 0.6092714667 4291679454
-0.2894882858 -0.1065767780 0.6093659997 4291219416
-0.2895329297 -0.1059160605 0.6094599962 4291219416
-0.2895773053 -0.1052550450 0.6095533967 4291284954
-0.2896214426 -0.1045937166 0.6096462607 4291416540
-0.2896652818 -0.1039320901 0.6097385883 4291482846
-0.2897088826 -0.1032701656 0.6098303199 4291417053
-0.2893279493 -0.1024577096 0.6090285182 4291548639
-0.2893709540 -0.1017961651 0.6091190577 4291746018
-0.2894136906 -0.1011343151 0.6092090011 4291810785
-0.2894561291 -0.1004721820 0.6092983484 4291876578
-0.2730153203 -0.2818730474 0.5760375261 4292074210
-0.2688063383 -0.2768973708 0.5671569705 4287402137
-0.2681219578 -0.2755638361 0.5657129884 4284704624
-0.2693975568 -0.2762433290 0.5684044361 4285559155
-0.2675356865 -0.2737069428 0.5644760132 4285427569
-0.2672419250 -0.2727799416 0.5638562441 4284967020
-0.2677329183 -0.2726534605 0.5648921728 4284835434
-0.2674386501 -0.2717268467 0.5642712712 4284638055
-0.2679297030 -0.2715976536 0.5653073192 4284045918
-0.2672418952 -0.2702739537 0.5638561249 4283519572
-0.2673397064 -0.2697461545 0.5640624762 4283453779
-0.2670440972 -0.2688218653 0.5634387732 4283387986
-0.2675349414 -0.2686888278 0.5644744039 4283322193
-0.2672387958 -0.2677649260 0.5638496280 4283387986
-0.2649736404 -0.2648741603 0.5590703487 4283453779
-0.2658575773 -0.2651344836 0.5609353185 4283519572
-0.2584678233 -0.2571589351 0.5453436375 4283782744
-0.2494959235 -0.2476475835 0.5264137387 4284177756
-0.2484031916 -0.2459806204 0.5241081715 4284440928
-0.2477039099 -0.2447074801 0.5226327777 4284966508
-0.2509497106 -0.2473257184 0.5294811130 4285427059
-0.2466980219 -0.2425571233 0.5205104351 4285821817
-0.2507351339 -0.2459386885 0.5290284157 4286019196
-0.2460849732 -0.2408005893 0.5192169547 4286150784
-0.2493341267 -0.2433954626 0.5260723829 4286216577
-0.2486325949 -0.2421277761 0.5245922208 4286150784
-0.2475349456 -0.2404785603 0.5222762823 4286216577
-0.2456452101 -0.2380668372 0.5182890892 4286084991
-0.2449410707 -0.2368102223 0.5168034434 4285953405
-0.2446320951 -0.2359380126 0.5161515474 4285558393
-0.2443227172 -0.2350668758 0.5154987574 4285492600
-0.2440129369 -0.2341968119 0.5148451328 4285689979
-0.2437027693 -0.2333278060 0.5141907334 4285887358
-0.2441850007 -0.2332170755 0.5152081847 4286084737
-0.2430812269 -0.2315930277 0.5128793120 4286084737
-0.2439599037 -0.2318582684 0.5147332549 4286084991
-0.2436485440 -0.2309911847 0.5140762925 4285953405
-0.2429398298 -0.2297497839 0.5125809908 4285953405
-0.2434217334 -0.2296348810 0.5135977864 4286019198
-0.2435065657 -0.2291440517 0.5137767792 4285953405
-0.2669910789 -0.2074306607 0.5633269548 4289637500
-0.2613802850 -0.2024587691 0.5514886975 4290098051
-0.2643049955 -0.2041045874 0.5576595664 4291543402
-0.2623502910 -0.2019800842 0.5535353422 4292201332
-0.2603942156 -0.1998637021 0.5494081974 4292989533
-0.2568088174 -0.1965097189 0.5418432951 4293121119
-0.2585134804 -0.1972080916 0.5454399586 4293250652
-0.2573683262 -0.1957311779 0.5430238247 4293448031
-0.2554076016 -0.1936412752 0.5388868451 4293579617
-0.2542604208 -0.1921754777 0.5364664197 4293645410
-0.2535199523 -0.1910215020 0.5349041224 4293842021
-0.2515557408 -0.1889517903 0.5307597518 4293776228
-0.2512214482 -0.1881117821 0.5300544500 4293776226
-0.2508867681 -0.1872730255 0.5293483138 4293776226
-0.2501436174 -0.1861318946 0.5277803540 4293842271
-0.2502161860 -0.1855993271 0.5279334784 4293908064
-0.2502886057 -0.1850662977 0.5280862451 4293843040
-0.2503608465 -0.1845328063 0.5282386541 4293843040
-0.2504329085 -0.1839988530 0.5283907652 4293843302
-0.2500961721 -0.1831651479 0.5276802182 4294172267
-0.2501677871 -0.1826311499 0.5278313756 4294369654
-0.2502392530 -0.1820966750 0.5279821157 4294501240
-0.2503105402 -0.1815617681 0.5281324983 4294635138
-0.2507907748 -0.1813221872 0.5291457772 4294766724
-0.2508618534 -0.1807854772 0.5292956829 4294898310
-0.2509327233 -0.1802483052 0.5294452906 4294964360
-0.2505939901 -0.1794175208 0.5287305713 4294964617
-0.2506644130 -0.1788803339 0.5288791656 4294964874
-0.2507346869 -0.1783426851 0.5290274024 4294964874
-0.2512145936 -0.1780951172 0.5300399661 4294964874
-0.2512845993 -0.1775556952 0.5301877260 4294963847
-0.2517645061 -0.1773045808 0.5312002897 4294963590
-0.2518343031 -0.1767633706 0.5313475132 4294832002
-0.2519039214 -0.1762217134 0.5314944386 4294766209
-0.2523837388 -0.1759657264 0.5325068235 4294766209
-0.2524531484 -0.1754222810 0.5326532125 4294766209
-0.2525223494 -0.1748783886 0.5327992439 4294766209
-0.2525913715 -0.1743340492 0.5329448581 4294700416
-0.2526602149 -0.1737892777 0.5330901146 4294896764
-0.2527289093 -0.1732440442 0.5332350135 4294896764
-0.2527973950 -0.1726983786 0.5333795547 4294962300
-0.2532768846 -0.1724321842 0.5343912244 4294962557
-0.2533451319 -0.1718847454 0.5345352292 4294962557
-0.2538245618 -0.1716150045 0.5355467796 4294962557
-0.2538925707 -0.1710657775 0.5356902480 4294962557
-0.2539603710 -0.1705161333 0.5358333588 4294962557
-0.2544397116 -0.1702415049 0.5368447304 4294962559
-0.2549191117 -0.1699646562 0.5378561616 4294896766
-0.2545746565 -0.1691382080 0.5371294022 4294962046
-0.2550538778 -0.1688586920 0.5381405354 4294961789
-0.2555331588 -0.1685769558 0.5391517878 4294895996
-0.2551879287 -0.1677509844 0.5384233594 4294895996
-0.2556670308 -0.1674665809 0.5394342542 4294830973
-0.2561461627 -0.1671799421 0.5404452085 4294830973
-0.2562127709 -0.1666227728 0.5405856967 4294961789
-0.2562791705 -0.1660651714 0.5407257676 4294961789
-0.2567581534 -0.1657736450 0.5417364240 4294962043
-0.2568242848 -0.1652142853 0.5418759584 4294962043
-0.2573032379 -0.1649191976 0.5428864360 4294961529
-0.2573690712 -0.1643580645 0.5430253744 4294829943
-0.2578479648 -0.1640594155 0.5440357924 4294633075
-0.2583268583 -0.1637585312 0.5450462103 4294567282
-0.2583923340 -0.1631943136 0.5451843739 4294501228
-0.2584576309 -0.1626296490 0.5453221202 4294303849
-0.2589363754 -0.1623238772 0.5463322401 4294237796
-0.2590013742 -0.1617574692 0.5464693904 4294106210
-0.2594800293 -0.1614481211 0.5474793315 4293909085
-0.2599587142 -0.1611365378 0.5484892726 4293777499
-0.2604373991 -0.1608227193 0.5494992733 4293646170
-0.2605019212 -0.1602518857 0.5496354103 4293580377
-0.2609805167 -0.1599344909 0.5506451726 4293448534
-0.2614591122 -0.1596148461 0.5516549945 4293448534
-0.2611087859 -0.1587888896 0.5509158373 4293514325
-0.2615872025 -0.1584665924 0.5519252419 4293448532
-0.2620655894 -0.1581420451 0.5529346466 4293316946
-0.2621292472 -0.1575659513 0.5530689359 4293251153
-0.2626075447 -0.1572378427 0.5540781021 4293316176
-0.2630858421 -0.1569074839 0.5550872684 4293316176
-0.2631490827 -0.1563283205 0.5552206635 4293316431
-0.2636272907 -0.1559943855 0.5562296510 4293250638
-0.2641054690 -0.1556582004 0.5572385788 4293184843
-0.2641682923 -0.1550759524 0.5573711395 4293184843
-0.2650618255 -0.1549791098 0.5592563748 4293250636
-0.2651244402 -0.1543941945 0.5593884587 4293250636
-0.2656024694 -0.1540499479 0.5603971481 4293119052
-0.2660805285 -0.1537034512 0.5614057183 4293053259
-0.2661426961 -0.1531154513 0.5615369081 4293053774
-0.2666206062 -0.1527653784 0.5625452995 4293119567
-0.2666824460 -0.1521756500 0.5626757741 4293185360
-0.2671602368 -0.1518219858 0.5636838675 4293251153
-0.2676379979 -0.1514660716 0.5646919012 4293381969
-0.2676994205 -0.1508732736 0.5648214817 4293381969
-0.2681770325 -0.1505137831 0.5658292174 4293250638
-0.2682380974 -0.1499192417 0.5659580827 4293184845
-0.2687155902 -0.1495561600 0.5669655204 4293250638
-0.2691930532 -0.1491908431 0.5679728985 4293250638
-0.2696704566 -0.1488232613 0.5689802170 4293250636
-0.2697309554 -0.1482243240 0.5691078305 4293250636
-0.2697912455 -0.1476249844 0.5692350268 4293250636
-0.2702684104 -0.1472525001 0.5702418089 4293316429
-0.2707455158 -0.1468777508 0.5712484717 4293250636
-0.2712225914 -0.1465007514 0.5722550750 4293250636
-0.2712822855 -0.1458970308 0.5723809600 4293316431
-0.2717591822 -0.1455164403 0.5733872056 4293316431
-0.2718185186 -0.1449110061 0.5735124350 4293250638
-0.2722952664 -0.1445268244 0.5745183229 4293184845
-0.2723542452 -0.1439196616 0.5746427774 4293250383
-0.2728308141 -0.1435319185 0.5756482482 4293184590
-0.2728894353 -0.1429230273 0.5757719874 4293184590
-0.2733658254 -0.1425316930 0.5767771006 4293184590
-0.2738421857 -0.1421381086 0.5777821541 4293316176
-0.2739003003 -0.1415261775 0.5779048204 4293381969
-0.2743764818 -0.1411290020 0.5789094567 4293250383
-0.2744342387 -0.1405153722 0.5790313482 4293184590
-0.2749102116 -0.1401146203 0.5800355673 4293184592
-0.2749676108 -0.1394992769 0.5801566839 4293184592
-0.2754433751 -0.1390949339 0.5811605453 4293053006
-0.2759190798 -0.1386883408 0.5821642280 4292921420
-0.2759759724 -0.1380699724 0.5822842717 4293052754
-0.2760326266 -0.1374512166 0.5824037790 4292526410
-0.2765079737 -0.1370397210 0.5834067464 4292330312
-0.2765642703 -0.1364192814 0.5835254788 4292527691
-0.2770394087 -0.1360041946 0.5845280290 4292067920
-0.2775145173 -0.1355868727 0.5855304599 4291278404
-0.2775702477 -0.1349634081 0.5856480598 4289371203
-0.2776257694 -0.1343395710 0.5857651830 4287726378
-0.2776810229 -0.1337153614 0.5858817697 4285227048
-0.2781555951 -0.1332918108 0.5868830681 4284108567
-0.2782104909 -0.1326659173 0.5869988799 4282794276
-0.2786848247 -0.1322388053 0.5879997015 4282070553
-0.2791590989 -0.1318094283 0.5890004039 4281742376
-0.2796333134 -0.1313778013 0.5900009274 4281808169
-0.2796874940 -0.1307475865 0.5901152492 4281874227
-0.2801614702 -0.1303123832 0.5911152363 4281874227
-0.2802152336 -0.1296804994 0.5912287235 4282335300
-0.2806889713 -0.1292417347 0.5922282338 4282137921
-0.2807423472 -0.1286081672 0.5923408270 4281678136
-0.2807954550 -0.1279742569 0.5924529433 4281546550
-0.2812687755 -0.1275306046 0.5934516191 4281808954
-0.2813214958 -0.1268950254 0.5935628414 4282006333
-0.2817945778 -0.1264478117 0.5945609808 4282268987
-0.2818468809 -0.1258105636 0.5946713686 4282137401
-0.2823196948 -0.1253597885 0.5956689715 4283058251
-0.2827924192 -0.1249067485 0.5966663361 4282860872
-0.2832650542 -0.1244514585 0.5976635814 4282729805
-0.2833166122 -0.1238099486 0.5977723598 4282992977
-0.2842100263 -0.1235341057 0.5996573567 4283191379
-0.2842612565 -0.1228899881 0.5997654200 4283257172
-0.2843122184 -0.1222455204 0.5998730063 4283125586
-0.2847842276 -0.1217808574 0.6008688211 4283322965
-0.2848347425 -0.1211347431 0.6009755135 4283717205
-0.2848850489 -0.1204882860 0.6010816097 4284111963
-0.2849350870 -0.1198414862 0.6011871696 4284704100
-0.2849848866 -0.1191943437 0.6012921929 4285362030
-0.2850344181 -0.1185468659 0.6013967395 4286020474
-0.2850836813 -0.1178990528 0.6015006900 4286875783
-0.2851327062 -0.1172509044 0.6016041636 4287862680
-0.2856033444 -0.1167749092 0.6025971770 4288717989
-0.2860738933 -0.1162966639 0.6035899520 4289704886
-0.2861222923 -0.1156456023 0.6036920547 4290099644
-0.2861704528 -0.1149942055 0.6037936807 4290626245
-0.2862183452 -0.1143424809 0.6038947105 4291021003
-0.2862659991 -0.1136904359 0.6039952636 4291349968
-0.2863133848 -0.1130380556 0.6040952206 4291613140
-0.2863605022 -0.1123853624 0.6041946411 4291547348
-0.2864073813 -0.1117323413 0.6042935848 4291613141
-0.2864539921 -0.1110789999 0.6043918729 4291284441
-0.2869229019 -0.1105882153 0.6053813100 4291481820
-0.2869690657 -0.1099332795 0.6054787040 4291679201
-0.2870149612 -0.1092780232 0.6055755019 4291744994
-0.2874833643 -0.1087824330 0.6065638661 4291744992
-0.2875288427 -0.1081255898 0.6066597104 4291744992
-0.2875740230 -0.1074684337 0.6067550778 4291679967
-0.2876189351 -0.1068109646 0.6068498492 4291745760
-0.2876636088 -0.1061531976 0.6069440842 4291811553
-0.2877080142 -0.1054951176 0.6070377827 4291811553
-0.2881753147 -0.1049909070 0.6080237627 4291811553
-0.2882192433 -0.1043312550 0.6081164479 4291745760
-0.2701278627 -0.2795470059 0.5712839961 4292403177
-0.2663174868 -0.2749780118 0.5632256269 4287731104
-0.2656338215 -0.2736479342 0.5617797375 4284244075
-0.2665148973 -0.2739293277 0.5636430979 4284769641
-0.2658304274 -0.2726011574 0.5621955395 4285032813
-0.2659285367 -0.2720769048 0.5624030232 4284703848
-0.2668101192 -0.2723519504 0.5642674565 4284769641
-0.2661244273 -0.2710266709 0.5628173351 4284967020
-0.2662222087 -0.2705006897 0.5630241036 4284309090
-0.2663198411 -0.2699741125 0.5632305741 4283585365
-0.2664173841 -0.2694469690 0.5634368658 4283453779
-0.2661222816 -0.2685231864 0.5628128052 4283388240
-0.2658267915 -0.2676003873 0.5621878505 4283256654
-0.2659236789 -0.2670730650 0.5623927116 4283388240
-0.2660204470 -0.2665451765 0.5625973940 4283519826
-0.2614000738 -0.2613014877 0.5528259277 4283519826
-0.2536303997 -0.2529387474 0.5363941193 4283585619
-0.2521487474 -0.2508686483 0.5332606435 4283782996
-0.2593230903 -0.2573972344 0.5484334230 4283848789
-0.2558738291 -0.2533723116 0.5411386490 4283979613
-0.2512404919 -0.2481939346 0.5313398242 4284505957
-0.2497551441 -0.2461397201 0.5281984806 4285098094
-0.2541796863 -0.2499029487 0.5375557542 4285361266
-0.2475690991 -0.2428218722 0.5235753059 4285624438
-0.2523900270 -0.2469573021 0.5337709188 4285756024
-0.2512966990 -0.2452970296 0.5314586759 4285887612
-0.2502024472 -0.2436409593 0.5291444063 4286084991
-0.2459489405 -0.2389210761 0.5201488733 4286150784
-0.2468262166 -0.2391933203 0.5220041871 4286084991
-0.2457286268 -0.2375522703 0.5196829438 4285624186
-0.2450252920 -0.2362965643 0.5181954503 4285689979
-0.2443212718 -0.2350435257 0.5167065263 4286150530
-0.2432210892 -0.2334136069 0.5143797994 4286479495
-0.2440980524 -0.2336816341 0.5162344575 4286413702
-0.2437881678 -0.2328121364 0.5155791044 4286018944
-0.2430820018 -0.2315665781 0.5140856504 4285887869
-0.2423751503 -0.2303236872 0.5125907660 4285822076
-0.2424599677 -0.2298345715 0.5127701759 4285756026
-0.2543773949 -0.1974973232 0.5379739404 4289309359
-0.2593236268 -0.2007282078 0.5484345555 4289702514
-0.2577774227 -0.1989256591 0.5451645255 4290360444
-0.2537936866 -0.1952550560 0.5367394686 4292199538
-0.2550878227 -0.1956513077 0.5394763947 4292791675
-0.2539446652 -0.1941777915 0.5370587707 4293447513
-0.2528006136 -0.1927089840 0.5346392393 4293710685
-0.2520622313 -0.1915538162 0.5330776572 4293842273
-0.2521365285 -0.1910178363 0.5332347751 4293842273
-0.2513971031 -0.1898669153 0.5316709876 4293711203
-0.2506570220 -0.1887189895 0.5301058292 4293711203
-0.2503233254 -0.1878795624 0.5294001102 4293645921
-0.2499892563 -0.1870413870 0.5286935568 4293777507
-0.2496547550 -0.1862044930 0.5279861689 4293975139
-0.2493198663 -0.1853688657 0.5272778869 4293909346
-0.2489845604 -0.1845345199 0.5265687704 4293712478
-0.2494641095 -0.1843037456 0.5275829434 4293778271
-0.2495359778 -0.1837704927 0.5277349949 4294041708
-0.2491998374 -0.1829373837 0.5270240307 4294699638
-0.2492712587 -0.1824040860 0.5271751285 4294963334
-0.2493425012 -0.1818703264 0.5273258090 4294964105
-0.2494135946 -0.1813361049 0.5274761319 4294833555
-0.2494845092 -0.1808014363 0.5276260972 4294899348
-0.2495552599 -0.1802663207 0.5277757645 4294965141
-0.2500343919 -0.1800248921 0.5287890434 4294965141
-0.2501049042 -0.1794879735 0.5289381742 4294965393
-0.2501752675 -0.1789506078 0.5290869474 4294965136
-0.2502454519 -0.1784127951 0.5292353630 4294964877
-0.2503154576 -0.1778745204 0.5293834209 4294833291
-0.2503852844 -0.1773357987 0.5295311213 4294964360
-0.2504549325 -0.1767966300 0.5296784639 4294964360
-0.2509337962 -0.1765450090 0.5306911469 4294964614
-0.2510032058 -0.1760040522 0.5308379531 4294898821
-0.2510724664 -0.1754626483 0.5309844613 4294898308
-0.2515512407 -0.1752061546 0.5319969654 4294832515
-0.2516202629 -0.1746629775 0.5321429372 4294832517
-0.2516890764 -0.1741193533 0.5322884917 4294832517
-0.2521677911 -0.1738579720 0.5333008766 4294962812
-0.2522363663 -0.1733125746 0.5334459543 4294962812
-0.2523047924 -0.1727667153 0.5335906148 4294962300
-0.2523730099 -0.1722204238 0.5337349176 4294962300
-0.2528515458 -0.1719528288 0.5347469449 4294962300
-0.2529195547 -0.1714047641 0.5348907709 4294962043
-0.2533980310 -0.1711336225 0.5359027386 4294896764
-0.2534657717 -0.1705837846 0.5360459685 4294962557
-0.2539442480 -0.1703090817 0.5370578766 4294830973
