VERSION 0.7
FIELDS x y z rgba
SIZE 4 4 4 4
TYPE F F F U
COUNT 1 1 1 1
WIDTH 920
HEIGHT 1
VIEWPOINT 0.0 0.0 0.0 1.0 0.0 0.0 0.0
POINTS 920
DATA ascii
-0.3571589291 -0.1771761626 0.6773788333 4289769389
-0.3563268781 -0.1760125458 0.6758008003 4284111191
-0.3559487462 -0.1750756949 0.6750836968 4283519054
-0.3551154733 -0.1739175320 0.6735032797 4282926917
-0.3538267314 -0.1725407839 0.6710591316 4282532159
-0.3516273499 -0.1707273126 0.6668878198 4282400573
-0.3489717543 -0.1687025577 0.6618512869 4282335291
-0.3444944322 -0.1658121645 0.6533597112 4282269498
-0.3363735378 -0.1611945927 0.6379578114 4282334528
-0.3323463500 -0.1585643888 0.6303199530 4282400321
-0.3301386535 -0.1568154097 0.6261329055 4282531389
-0.3283852041 -0.1552905440 0.6228073835 4282531389
-0.3275418580 -0.1542015225 0.6212078929 4282596671
-0.3262422383 -0.1529022008 0.6187430024 4282136120
-0.3253975213 -0.1518206149 0.6171409488 4289176162
-0.3245521784 -0.1507423073 0.6155377030 4291939468
-0.3246180415 -0.1500888467 0.6156626344 4292728920
-0.3246836364 -0.1494349986 0.6157870889 4292663127
-0.3242928982 -0.1485718042 0.6150459647 4292728150
-0.3243578970 -0.1479180753 0.6151692271 4292859736
-0.3239663541 -0.1470568478 0.6144266129 4291939179
-0.3240307271 -0.1464032680 0.6145487428 4286807325
-0.3245513439 -0.1459545791 0.6155360937 4283453007
-0.3250718415 -0.1455036551 0.6165233254 4283781972
-0.3255922794 -0.1450505108 0.6175103188 4283782487
-0.3270260990 -0.1450001597 0.6202297211 4283650901
-0.3284601867 -0.1449438781 0.6229496002 4283256400
-0.3422973156 -0.1496073604 0.6491926908 4283387986
-0.3441914022 -0.1497099102 0.6527850032 4283322193
-0.3479146063 -0.1505962312 0.6598463655 4287138957
-0.3557774723 -0.1843762994 0.6761832237 4291808969
-0.3558571339 -0.1836661249 0.6763345599 4291216832
-0.3559364974 -0.1829554588 0.6764854193 4290493369
-0.3560155630 -0.1822443157 0.6766357422 4290032818
-0.3560943902 -0.1815327108 0.6767855287 4289769646
-0.3566260934 -0.1810506731 0.6777960658 4288980130
-0.3567044437 -0.1803372204 0.6779450178 4288519320
-0.3567825556 -0.1796232909 0.6780934334 4287992976
-0.3568603694 -0.1789088994 0.6782413125 4287795596
-0.3564843535 -0.1779676080 0.6775267124 4287795596
-0.3556542397 -0.1768021584 0.6759489775 4287203973
-0.3552772105 -0.1758644879 0.6752324104 4284769632
-0.3548996747 -0.1749281883 0.6745148897 4283387979
-0.3545216918 -0.1739932448 0.6737964749 4283124807
-0.3532351851 -0.1726159155 0.6713513732 4282663743
-0.3514936864 -0.1710226536 0.6680415273 4282268985
-0.3488426805 -0.1689961404 0.6630030870 4282269498
-0.3448273242 -0.1663227379 0.6553715467 4282203705
-0.3399011195 -0.1632288992 0.6460089684 4282334528
-0.3308820128 -0.1581989825 0.6288673878 4282400321
-0.3282232583 -0.1562346965 0.6238142252 4282531389
-0.3264725208 -0.1547119468 0.6204868555 4282597182
-0.3251755536 -0.1534106582 0.6180218458 4282530880
-0.3238777816 -0.1521144658 0.6155553460 4282070329
-0.3234891593 -0.1512488276 0.6148166656 4289768299
-0.3226449788 -0.1501728296 0.6132122874 4292071054
-0.3227105439 -0.1495218724 0.6133368611 4292728404
-0.3227758110 -0.1488705128 0.6134609580 4293057369
-0.3228408396 -0.1482187659 0.6135845184 4292793684
-0.3224501610 -0.1473585069 0.6128420234 4292925270
-0.3225145936 -0.1467068940 0.6129644513 4292465258
-0.3225787580 -0.1460548937 0.6130864024 4288780850
-0.3226426244 -0.1454025060 0.6132078171 4283453259
-0.3231620789 -0.1449541748 0.6141950488 4283848017
-0.3241373003 -0.1447071433 0.6160485744 4283979862
-0.3251126409 -0.1444560438 0.6179022789 4283716690
-0.3256320059 -0.1439991742 0.6188893318 4283256654
-0.3284320533 -0.1445438564 0.6242110729 4283190861
-0.3459652960 -0.1500685662 0.6575343609 4286809990
-0.3496831954 -0.1509428620 0.6646005511 4293455083
-0.3537447751 -0.1844592541 0.6737421155 4291283924
-0.3538243175 -0.1837519854 0.6738935709 4290954183
-0.3543555439 -0.1832780093 0.6749054193 4289572530
-0.3544346690 -0.1825688928 0.6750560403 4288716960
-0.3545134664 -0.1818592846 0.6752061844 4287664272
-0.3545920253 -0.1811492145 0.6753557920 4287137150
-0.3546703160 -0.1804386675 0.6755048633 4286939771
-0.3552007973 -0.1799568981 0.6765152812 4287071098
-0.3552786410 -0.1792445183 0.6766635180 4286807926
-0.3553561866 -0.1785316616 0.6768112183 4287530877
-0.3549807072 -0.1775918156 0.6760960221 4287530877
-0.3546047211 -0.1766533256 0.6753799915 4287268475
-0.3537752926 -0.1754914969 0.6738002300 4286084201
-0.3533982933 -0.1745566279 0.6730821729 4284308053
-0.3530208170 -0.1736231297 0.6723632216 4283255365
-0.3521895707 -0.1724690348 0.6707800627 4282663745
-0.3509043455 -0.1710970849 0.6683322191 4282334780
-0.3482578397 -0.1690697223 0.6632916927 4282203705
-0.3447028399 -0.1666144133 0.6565208435 4282203705
-0.3393314183 -0.1633000225 0.6462904215 4282203192
-0.3307811916 -0.1584853381 0.6300057173 4282466364
-0.3276732266 -0.1563028246 0.6240862608 4282400573
-0.3250176311 -0.1543482989 0.6190283895 4282532159
-0.3237227201 -0.1530483067 0.6165621281 4282400319
-0.3224269748 -0.1517534107 0.6140942574 4282005561
-0.3215846419 -0.1506764442 0.6124899387 4289571177
-0.3211959898 -0.1498146355 0.6117497087 4291873932
-0.3212612867 -0.1491652727 0.6118741035 4292728404
-0.3213263452 -0.1485154927 0.6119979620 4292925783
-0.3213911355 -0.1478653252 0.6121214032 4293186910
-0.3214556575 -0.1472147703 0.6122443080 4293055324
-0.3210651577 -0.1463565230 0.6115005612 4292990560
-0.3211290836 -0.1457061023 0.6116222739 4290687805
-0.3216477036 -0.1452607512 0.6126100421 4284243008
-0.3217111826 -0.1446086466 0.6127309799 4284045629
-0.3222295642 -0.1441597641 0.6137182117 4283258184
-0.3232030571 -0.1439113319 0.6155723333 4283389770
-0.3209894896 -0.1422464550 0.6113564372 4283649107
-0.3292488456 -0.1452098489 0.6270871758 4283451728
-0.3315898180 -0.1455406100 0.6315458417 4283517781
-0.3468197882 -0.1500235349 0.6605527997 4292732643
-0.3512654006 -0.1842995882 0.6704381108 4291283924
-0.3513447344 -0.1835961342 0.6705895662 4290625994
-0.3518749177 -0.1831269860 0.6716014743 4289836472
-0.3519538343 -0.1824216843 0.6717520356 4288389026
-0.3524837792 -0.1819488853 0.6727635264 4287533199
-0.3525622189 -0.1812417209 0.6729133129 4286941062
-0.3526404202 -0.1805340946 0.6730625629 4286808701
-0.3527183235 -0.1798260063 0.6732112765 4286545529
-0.3532477021 -0.1793467849 0.6742216349 4286807926
-0.3537769914 -0.1788652688 0.6752318740 4286676340
-0.3534023762 -0.1779264361 0.6745167971 4287202682
-0.3534792960 -0.1772155613 0.6746636629 4287202682
-0.3526517153 -0.1760528088 0.6730840802 4287334270
-0.3522756696 -0.1751180291 0.6723663807 4286544754
-0.3523514867 -0.1744085103 0.6725110412 4284768604
-0.3515221775 -0.1732525826 0.6709282398 4283452744
-0.3511447310 -0.1723219007 0.6702078581 4282532159
-0.3494090140 -0.1707291305 0.6668949723 4282137401
-0.3472195566 -0.1689229906 0.6627160907 4282137912
-0.3441232741 -0.1666868925 0.6568064094 4282203705
-0.3378551602 -0.1629342586 0.6448428631 4282203192
-0.3306781650 -0.1587718278 0.6311445832 4282400571
-0.3271225095 -0.1563709080 0.6243580580 4282400573
-0.3244714141 -0.1544155478 0.6192981005 4282597952
-0.3222721815 -0.1526855230 0.6151006222 4282597184
-0.3209785223 -0.1513919234 0.6126314402 4282531391
-0.3201374710 -0.1503163427 0.6110261679 4289965935
-0.3197493255 -0.1494560391 0.6102854013 4291939725
-0.3198144138 -0.1488082409 0.6104095578 4292793682
-0.3203329444 -0.1483702064 0.6113992929 4292859475
-0.3203975856 -0.1477207094 0.6115226746 4293055578
-0.3200080693 -0.1468624920 0.6107792258 4293187164
-0.3200721145 -0.1462131292 0.6109014153 4293056605
-0.3201358914 -0.1455633789 0.6110231876 4291806538
-0.3201994002 -0.1449132264 0.6111444235 4285690181
-0.3202626705 -0.1442627013 0.6112651825 4284176942
-0.3207800388 -0.1438154876 0.6122526526 4283323212
-0.3217517734 -0.1435688287 0.6141073108 4283389005
-0.3231781423 -0.1435199529 0.6168297529 4283649361
-0.3259686530 -0.1440679282 0.6221558452 4283517775
-0.3223939240 -0.1418043375 0.6153329611 4283451988
-0.3493213058 -0.1836689264 0.6681439281 4291020754
-0.3494002819 -0.1829679310 0.6682949662 4290231238
-0.3499293327 -0.1825013310 0.6693068743 4289639093
-0.3500078619 -0.1817984581 0.6694570780 4288060061
-0.3505366743 -0.1813282073 0.6704685688 4286941062
-0.3506147861 -0.1806235015 0.6706179380 4286414718
-0.3506926000 -0.1799183190 0.6707667708 4286413943
-0.3512210250 -0.1794430166 0.6717774868 4286019185
-0.3512983918 -0.1787360013 0.6719254851 4286281839
-0.3518265784 -0.1782570481 0.6729357243 4286281839
-0.3519034982 -0.1775481850 0.6730828881 4286742131
-0.3515289128 -0.1766121387 0.6723663807 4286544752
-0.3511538506 -0.1756774485 0.6716490388 4286676597
-0.3507783115 -0.1747441292 0.6709307432 4286281839
-0.3504023254 -0.1738121659 0.6702115536 4284703325
-0.3500258625 -0.1728815734 0.6694914699 4283321672
-0.3491971791 -0.1717301905 0.6679064631 4282532159
-0.3483678401 -0.1705819964 0.6663202047 4282268987
-0.3466339707 -0.1689963490 0.6630038619 4282268987
-0.3435429633 -0.1667592973 0.6570917368 4282334780
-0.3386418521 -0.1636606008 0.6477174759 4282334008
-0.3287639916 -0.1581880897 0.6288241148 4282465594
-0.3252140880 -0.1557888985 0.6220342517 4282597180
-0.3221148252 -0.1536197066 0.6161063313 4282794559
-0.3203715086 -0.1521074772 0.6127719283 4282728768
-0.3190797865 -0.1508160979 0.6103012562 4282991940
-0.3182399273 -0.1497428268 0.6086948514 4290360434
-0.3183050156 -0.1490970105 0.6088193655 4291939466
-0.3183698654 -0.1484507918 0.6089433432 4292859475
-0.3184344172 -0.1478041857 0.6090668440 4292859475
-0.3184987605 -0.1471571922 0.6091898680 4293186650
-0.3185628057 -0.1465097964 0.6093124151 4293449822
-0.3181733787 -0.1456545293 0.6085675359 4292990552
-0.3182368279 -0.1450072825 0.6086889505 4292858966
-0.3187534511 -0.1445652992 0.6096770763 4287597387
-0.3192699850 -0.1441210657 0.6106650233 4284044565
-0.3193328679 -0.1434708238 0.6107852459 4283322447
-0.3189417720 -0.1426173151 0.6100372672 4283322447
-0.3212729096 -0.1429769546 0.6144959927 4283649618
-0.3231507838 -0.1431259364 0.6180878282 4283452239
-0.3374798894 -0.1466036290 0.6454949379 4290625735
-0.3473810554 -0.1830375940 0.6658473015 4291218133
-0.3479091227 -0.1825749278 0.6668595076 4290560203
-0.3479875624 -0.1818749905 0.6670098305 4289902265
-0.3480657339 -0.1811745763 0.6671596766 4288520612
-0.3481436074 -0.1804736853 0.6673089862 4287335820
-0.3486711383 -0.1800045967 0.6683201194 4286546304
-0.3487485945 -0.1793018728 0.6684685946 4286084978
-0.3492758870 -0.1788291335 0.6694792509 4285492841
-0.3493528962 -0.1781245619 0.6696268916 4285887081
-0.3498799503 -0.1776481569 0.6706371307 4285887081
-0.3499565423 -0.1769417524 0.6707838774 4286413166
-0.3500328362 -0.1762348861 0.6709301472 4286084201
-0.3492076993 -0.1750757396 0.6693485379 4286084460
-0.3492832482 -0.1743697673 0.6694933772 4285623909
-0.3489077687 -0.1734392643 0.6687736511 4284308567
-0.3480809033 -0.1722869426 0.6671887636 4283124293
-0.3477043808 -0.1713600904 0.6664670706 4282400830
-0.3468763232 -0.1702132672 0.6648798585 4282137658
-0.3451452553 -0.1686287820 0.6615618467 4282268733
-0.3429619074 -0.1668316573 0.6573768854 4282400319
-0.3389718831 -0.1641688347 0.6497288942 4282399803
-0.3268536627 -0.1576037407 0.6265012026 4282465596
-0.3233095407 -0.1552062780 0.6197079420 4282662975
-0.3197636604 -0.1528230757 0.6129113436 4282860354
-0.3184747100 -0.1515288055 0.6104407310 4282662973
-0.3176367879 -0.1504536569 0.6088346243 4283189317
-0.3167982399 -0.1493817866 0.6072272658 4290426227
-0.3168630600 -0.1487375647 0.6073516011 4292005259
-0.3169276714 -0.1480929255 0.6074754000 4292793682
-0.3169920146 -0.1474479139 0.6075987220 4292991061
-0.3170560896 -0.1468024999 0.6077215075 4293318490
-0.3171199262 -0.1461566836 0.6078438759 4293581662
-0.3167310059 -0.1453029215 0.6070984602 4292925011
-0.3167942464 -0.1446572542 0.6072196364 4293056597
-0.3168572187 -0.1440112144 0.6073403358 4289439055
-0.3173726499 -0.1435695887 0.6083283424 4284307201
-0.3178880513 -0.1431257427 0.6093161702 4283256403
-0.3193091750 -0.1430855691 0.6120401621 4283256403
-0.3455228209 -0.1817094833 0.6636984348 4291021524
-0.3460496068 -0.1812479645 0.6647103429 4290823367
-0.3456784785 -0.1803158373 0.6639974117 4289902265
-0.3462049365 -0.1798515767 0.6650086641 4288914852
-0.3462821841 -0.1791526824 0.6651570797 4287664785
-0.3468084037 -0.1786847711 0.6661679149 4286677115
-0.3473345637 -0.1782145798 0.6671785712 4285690220
-0.3474112451 -0.1775124669 0.6673258543 4285952874
-0.3479371369 -0.1770386100 0.6683360338 4285952874
-0.3480133712 -0.1763346642 0.6684824228 4286084201
-0.3480893075 -0.1756302565 0.6686283350 4285886822
-0.3477151692 -0.1746993810 0.6679096222 4285689702
-0.3473405540 -0.1737698615 0.6671900749 4285163358
-0.3474154770 -0.1730659008 0.6673340201 4284176982
-0.3465899229 -0.1719149500 0.6657482386 4283255880
-0.3457636833 -0.1707671881 0.6641611457 4282597952
-0.3449368179 -0.1696226448 0.6625728011 4282268987
-0.3432084620 -0.1680402458 0.6592529416 4282334526
-0.3410285711 -0.1662451178 0.6550657153 4282334526
-0.3370451033 -0.1635839194 0.6474140286 4282399805
-0.3258486092 -0.1574543118 0.6259071827 4282465598
-0.3214088976 -0.1546230316 0.6173791885 4282728770
-0.3178687990 -0.1522415727 0.6105791926 4282926149
-0.3170327842 -0.1511645466 0.6089733243 4282531387
-0.3161961436 -0.1500907987 0.6073662639 4283255110
-0.3153588772 -0.1490203291 0.6057579517 4290557811
-0.3154234886 -0.1483776867 0.6058820486 4292136843
-0.3154878318 -0.1477346420 0.6060056686 4292662351
-0.3155519366 -0.1470912099 0.6061288118 4292991316
-0.3156158030 -0.1464473754 0.6062514782 4293318488
-0.3156793714 -0.1458031684 0.6063736081 4293515867
-0.3152910173 -0.1449508965 0.6056275964 4292990801
-0.3153540194 -0.1443068236 0.6057485938 4292990801
-0.3154167533 -0.1436623633 0.6058691144 4291214426
-0.3159312010 -0.1432224214 0.6068572998 4285424642
-0.3159935176 -0.1425762773 0.6069770455 4283387476
-0.3165077269 -0.1421328038 0.6079647541 4283387476
-0.3170218468 -0.1416870803 0.6089522839 4283585106
-0.3184405565 -0.1416415274 0.6116774082 4283453520
-0.3221216202 -0.1425913870 0.6187481880 4283387725
-0.3436674178 -0.1803850979 0.6615458727 4291152077
-0.3437447250 -0.1796904951 0.6616947055 4290494147
-0.3438217938 -0.1789954305 0.6618430614 4289704116
-0.3443469703 -0.1785323471 0.6628539562 4288256670
-0.3448720574 -0.1780669987 0.6638647318 4287006081
-0.3453970850 -0.1775993556 0.6648753881 4285887600
-0.3454733789 -0.1768997014 0.6650222540 4285887083
-0.3455494046 -0.1761995852 0.6651686430 4285755497
-0.3460740447 -0.1757269204 0.6661785245 4285755238
-0.3461496234 -0.1750249714 0.6663240194 4285623652
-0.3457758725 -0.1740964651 0.6656045914 4285360739
-0.3458508253 -0.1733945012 0.6657488346 4284900188
-0.3459255099 -0.1726920903 0.6658926010 4284045398
-0.3451012075 -0.1715424955 0.6643058658 4283321675
-0.3447257280 -0.1706185639 0.6635830402 4282532418
-0.3434506655 -0.1692529172 0.6611286402 4282203453
-0.3417251408 -0.1676717103 0.6578070521 4282268733
-0.3386493623 -0.1654382497 0.6518863440 4282202940
-0.3342225254 -0.1625608057 0.6433648467 4282465344
-0.3239445090 -0.1568688899 0.6235800982 4282465344
-0.3195121288 -0.1540391743 0.6150479317 4282728770
-0.3159778416 -0.1516594589 0.6082445383 4282926149
-0.3151430190 -0.1505847424 0.6066375375 4282399801
-0.3147578537 -0.1497275233 0.6058961749 4283320903
-0.3143722713 -0.1488717347 0.6051539183 4290689651
-0.3139862716 -0.1480173916 0.6044108272 4292137097
-0.3145009577 -0.1475873739 0.6054016352 4292728144
-0.3145649135 -0.1469446123 0.6055247188 4292925523
-0.3141778708 -0.1460918486 0.6047796607 4293318488
-0.3142412305 -0.1454492211 0.6049016118 4293384281
-0.3143043220 -0.1448062062 0.6050230861 4293253973
-0.3143671751 -0.1441628039 0.6051440835 4293056594
-0.3144297600 -0.1435190141 0.6052646041 4292463454
-0.3144921064 -0.1428748518 0.6053845882 4287331600
-0.3145541847 -0.1422302872 0.6055040956 4283715663
-0.3150674105 -0.1417884976 0.6064919829 4283649870
-0.3155805469 -0.1413444579 0.6074797511 4283782485
-0.3165451586 -0.1410994828 0.6093366146 4283585106
-0.3188647926 -0.1414514929 0.6138018370 4283453518
-0.3198298514 -0.1411955506 0.6156595349 4283256139
-0.3421851695 -0.1799919307 0.6601039171 4291349717
-0.3422622383 -0.1792988777 0.6602525711 4290625994
-0.3423390388 -0.1786053479 0.6604007483 4289902010
-0.3424155712 -0.1779113561 0.6605483294 4288651943
-0.3429395258 -0.1774485707 0.6615591049 4287730065
-0.3434634209 -0.1769834906 0.6625697613 4286545791
-0.3435393572 -0.1762862951 0.6627162695 4286216050
-0.3436150253 -0.1755886376 0.6628622413 4286018671
-0.3441385329 -0.1751185358 0.6638721228 4285755497
-0.3442137539 -0.1744190454 0.6640172601 4285492325
-0.3438404202 -0.1734928936 0.6632970572 4285228900
-0.3439150155 -0.1727934033 0.6634409428 4284768349
-0.3439893425 -0.1720934659 0.6635843515 4283847765
-0.3431662321 -0.1709461510 0.6619964838 4283058249
-0.3427911699 -0.1700245738 0.6612728834 4282269248
-0.3419668376 -0.1688827574 0.6596827507 4282006076
-0.3402441144 -0.1673027277 0.6563594341 4282334780
-0.3371734619 -0.1650701612 0.6504359245 4282334780
-0.3309578001 -0.1613177955 0.6384453773 4282465344
-0.3211459816 -0.1558469236 0.6195175648 4282399551
-0.3167207539 -0.1530205756 0.6109809279 4282794309
-0.3145401180 -0.1512928605 0.6067742705 4282860102
-0.3137065768 -0.1502195448 0.6051663160 4282333751
-0.3133219481 -0.1493638158 0.6044243574 4283518025
-0.3133865297 -0.1487229019 0.6045489311 4290952821
-0.3130011261 -0.1478691250 0.6038054228 4292005509
-0.3130651116 -0.1472283453 0.6039288640 4292925008
-0.3131288290 -0.1465871632 0.6040517688 4293056594
-0.3131922781 -0.1459455937 0.6041741967 4293384279
-0.3128054142 -0.1450948715 0.6034278870 4293450072
-0.3128682971 -0.1444534361 0.6035491824 4293254227
-0.3129309118 -0.1438116282 0.6036700010 4293122641
-0.3129932880 -0.1431694329 0.6037902832 4293383260
-0.3130553961 -0.1425268650 0.6039100885 4289633059
-0.3131172359 -0.1418838948 0.6040294170 4284110410
-0.3136294484 -0.1414437890 0.6050175428 4283913031
-0.3145923018 -0.1412037313 0.6068749428 4283979351
-0.3155552447 -0.1409596056 0.6087325215 4283716179
-0.3169691563 -0.1409118176 0.6114600897 4283453522
-0.3174813688 -0.1404590756 0.6124482155 4283321936
-0.3216019571 -0.1415927857 0.6203971505 4283388756
-0.3330056071 -0.1451860070 0.6423957348 4289901495
-0.3403354287 -0.1786722988 0.6579452753 4290691789
-0.3404118419 -0.1779812425 0.6580930352 4290099391
-0.3404880166 -0.1772897094 0.6582402587 4289112496
-0.3414577842 -0.1770612299 0.6601150632 4288453790
-0.3415336311 -0.1763669550 0.6602616906 4287072137
-0.3416092098 -0.1756722182 0.6604077816 4286019186
-0.3421317339 -0.1752060503 0.6614179611 4285690221
-0.3422068655 -0.1745094806 0.6615632176 4285755499
-0.3422817588 -0.1738124639 0.6617079973 4285360741
-0.3419088125 -0.1728886962 0.6609870195 4285032293
-0.3419830799 -0.1721916646 0.6611305475 4284637535
-0.3420570493 -0.1714941859 0.6612735391 4283782487
-0.3412351012 -0.1703491509 0.6596845984 4282861385
-0.3404125273 -0.1692073196 0.6580943465 4282268994
-0.3400373161 -0.1682904214 0.6573689580 4282203201
-0.3378692269 -0.1664916724 0.6531775594 4282531389
-0.3348035216 -0.1642618328 0.6472508311 4282597182
-0.3285981715 -0.1605115533 0.6352545023 4282662466
-0.3192512095 -0.1552600712 0.6171846986 4282465087
-0.3152818084 -0.1526524425 0.6095109582 4282859845
-0.3131047487 -0.1509258300 0.6053022742 4282925638
-0.3122725189 -0.1498539150 0.6036933661 4282267957
-0.3118884265 -0.1489996761 0.6029508114 4283649610
-0.3119527698 -0.1483603567 0.6030752063 4291281271
-0.3120168447 -0.1477206200 0.6031990647 4291873408
-0.3116316199 -0.1468688846 0.6024543643 4292991055
-0.3116950989 -0.1462292969 0.6025770903 4293056848
-0.3117583394 -0.1455893219 0.6026993394 4293646936
-0.3113720119 -0.1447400898 0.6019524932 4293646936
-0.3114346564 -0.1441002637 0.6020735502 4293319250
-0.3114970326 -0.1434600502 0.6021941900 4293253457
-0.3115591705 -0.1428194493 0.6023142934 4293909342
-0.3116210401 -0.1421784610 0.6024339199 4291211829
-0.3121324182 -0.1417413354 0.6034225225 4284636487
-0.3121939003 -0.1410986781 0.6035413146 4284175936
-0.3127050102 -0.1406580061 0.6045295000 4284176732
-0.3136661053 -0.1404165775 0.6063874960 4283847767
-0.3150773942 -0.1403715760 0.6091157794 4283650647
-0.3182897270 -0.1411190629 0.6153259873 4283716440
-0.3197018802 -0.1410584599 0.6180559993 4283125584
-0.3233661652 -0.1419806182 0.6251398325 4282993998
-0.3384124637 -0.1780450642 0.6556355357 4291283924
-0.3384885192 -0.1773564667 0.6557828784 4290428869
-0.3390103877 -0.1769001484 0.6567939520 4289639353
-0.3395321965 -0.1764415652 0.6578049064 4288586662
-0.3396076560 -0.1757497638 0.6579511166 4286941837
-0.3396828771 -0.1750574857 0.6580967903 4285822581
-0.3402042985 -0.1745938808 0.6591069698 4285427823
-0.3402790725 -0.1738997847 0.6592518687 4285493103
-0.3403535783 -0.1732052267 0.6593962312 4285164138
-0.3399810791 -0.1722838283 0.6586745381 4284966759
-0.3400549591 -0.1715892851 0.6588177085 4284637794
-0.3396816254 -0.1706697047 0.6580944061 4283848280
-0.3388607800 -0.1695278585 0.6565040946 4282861385
-0.3380393088 -0.1683892310 0.6549125910 4282334528
-0.3372171819 -0.1672538072 0.6533197761 4282137149
-0.3354997039 -0.1656797975 0.6499924064 4282466627
-0.3319915235 -0.1632327139 0.6431956887 4282400834
-0.3253488839 -0.1592663378 0.6303263903 4282333761
-0.3173603415 -0.1546725929 0.6148494482 4282596933
-0.3138452172 -0.1522838622 0.6080393195 4282401091
-0.3121195734 -0.1507746875 0.6046960950 4282466884
-0.3112887442 -0.1497032642 0.6030864120 4282137909
-0.3109052777 -0.1488496065 0.6023434997 4283651148
-0.3105213940 -0.1479973793 0.6015997529 4291347295
-0.3105852306 -0.1473592520 0.6017234325 4292136811
-0.3102005422 -0.1465090066 0.6009781361 4293252176
-0.3102637827 -0.1458710134 0.6011006832 4293581141
-0.3103267848 -0.1452326328 0.6012227535 4293581143
-0.3099409938 -0.1443849057 0.6004753113 4293646936
-0.3100033998 -0.1437466741 0.6005961895 4293384281
-0.3100655377 -0.1431080550 0.6007165909 4293450074
-0.3101274371 -0.1424690485 0.6008365154 4293843800
-0.3101890981 -0.1418296695 0.6009559631 4292856905
-0.3106994629 -0.1413942277 0.6019447446 4286476361
-0.3107607067 -0.1407531500 0.6020634174 4284699950
-0.3108216822 -0.1401116997 0.6021815538 4284045146
-0.3117808998 -0.1398729682 0.6040399075 4283453009
-0.3131895661 -0.1398307681 0.6067690253 4283256917
-0.3154973388 -0.1401819885 0.6112400889 4283059538
-0.3124115467 -0.1381384283 0.6052617431 4283388507
-0.3370142579 -0.1769647896 0.6543346643 4290889420
-0.3375350833 -0.1765101403 0.6553459167 4290099904
-0.3380558491 -0.1760532111 0.6563569903 4289047213
-0.3381310701 -0.1753629595 0.6565030217 4287336595
-0.3382060230 -0.1746722460 0.6566485167 4286085499
-0.3382807076 -0.1739810705 0.6567935348 4285559155
-0.3383551240 -0.1732894331 0.6569380164 4285427823
-0.3384292722 -0.1725973487 0.6570820212 4284967272
-0.3380571902 -0.1716783196 0.6563595533 4284835173
-0.3381307125 -0.1709862500 0.6565023661 4284572001
-0.3373116255 -0.1698443890 0.6549119949 4283848280
-0.3364918828 -0.1687057465 0.6533204317 4282927178
-0.3361178637 -0.1677931398 0.6525942683 4282400321
-0.3348504305 -0.1664380878 0.6501334906 4282268735
-0.3331356347 -0.1648671031 0.6468040347 4282466625
-0.3300798237 -0.1626427323 0.6408709884 4282400832
-0.3225549161 -0.1582391113 0.6262608767 4282333761
-0.3150265217 -0.1538662463 0.6116440892 4282596933
-0.3119640946 -0.1516975164 0.6056981683 4282532677
-0.3102411926 -0.1501904726 0.6023530960 4282598470
-0.3098587096 -0.1493368745 0.6016104221 4282072370
-0.3094757497 -0.1484847069 0.6008669138 4283980367
-0.3090924025 -0.1476339847 0.6001225710 4291478363
-0.3087085783 -0.1467847228 0.5993773937 4292333672
-0.3087718487 -0.1461487114 0.5995002389 4293318221
-0.3088348508 -0.1455123127 0.5996225476 4293581393
-0.3088976145 -0.1448755264 0.5997443795 4293581141
-0.3085123599 -0.1440293044 0.5989964008 4293581141
-0.3085745275 -0.1433926672 0.5991171002 4293384279
-0.3086364567 -0.1427556425 0.5992373228 4293515865
-0.3086981177 -0.1421182454 0.5993570685 4293778009
-0.3087595403 -0.1414804459 0.5994762778 4293383251
-0.3092689216 -0.1410467029 0.6004652977 4288055894
-0.3093298972 -0.1404072344 0.6005837321 4284963623
-0.3093906641 -0.1397673786 0.6007016897 4284176732
-0.3103480935 -0.1395304203 0.6025606394 4283584595
-0.3117542267 -0.1394900829 0.6052907109 4283322965
-0.3136092424 -0.1396435648 0.6088923812 4283125586
-0.3154647350 -0.1397892386 0.6124948859 4283256919
-0.3355423212 -0.1765726507 0.6528847218 4291218131
-0.3360621333 -0.1761196554 0.6538960934 4290362822
-0.3365818560 -0.1756643802 0.6549074054 4289441972
-0.3366568089 -0.1749756783 0.6550531983 4287797147
-0.3362866640 -0.1740562916 0.6543329954 4286217855
-0.3363609910 -0.1733675897 0.6544776559 4285428339
-0.3364350498 -0.1726784408 0.6546217203 4285493616
-0.3365088403 -0.1719888300 0.6547653079 4284967272
-0.3361371756 -0.1710721701 0.6540421247 4284703587
-0.3362103403 -0.1703825742 0.6541845202 4284572001
-0.3353924453 -0.1692429930 0.6525930762 4283782487
-0.3345738947 -0.1681066453 0.6510003805 4282861385
-0.3337546885 -0.1669734865 0.6494063735 4282400321
-0.3329348266 -0.1658435613 0.6478111744 4282400321
-0.3307769597 -0.1640535742 0.6436125040 4282532418
-0.3277261257 -0.1618319601 0.6376762390 4282400832
-0.3197678924 -0.1572108716 0.6221914887 4282267968
-0.3131442666 -0.1532774419 0.6093034744 4282531140
-0.3100868762 -0.1511105597 0.6033545732 4282664265
-0.3088130057 -0.1498221606 0.6008759141 4282664265
-0.3084310293 -0.1489700526 0.6001326442 4282072370
-0.3080486357 -0.1481193900 0.5993885994 4284572504
-0.3076657951 -0.1472701728 0.5986436605 4291544156
-0.3072825074 -0.1464224011 0.5978979468 4292333672
-0.3073455393 -0.1457879841 0.5980205536 4293317706
-0.3074083030 -0.1451531947 0.5981426835 4293580878
-0.3070239425 -0.1443079412 0.5973947644 4293646934
-0.3070861101 -0.1436732858 0.5975157619 4293646934
-0.3071480691 -0.1430382431 0.5976362824 4293580888
-0.3072097301 -0.1424028277 0.5977563262 4293778267
-0.3072711825 -0.1417670250 0.5978758335 4293843549
-0.3073323667 -0.1411308348 0.5979949236 4293909342
-0.3073932827 -0.1404942721 0.5981134772 4290030432
-0.3079015017 -0.1400609016 0.5991023183 4285161750
-0.3079620302 -0.1394226551 0.5992200971 4283913562
-0.3089177012 -0.1391874701 0.6010795832 4283584597
-0.3098734915 -0.1389482021 0.6029393077 4283454549
-0.3112772405 -0.1389047056 0.6056706905 4283191377
-0.3135771751 -0.1392531246 0.6101458073 4283191124
-0.3245146275 -0.1420055330 0.6314274669 4289507252
-0.3340727389 -0.1761800498 0.6514330506 4291283926
-0.3341477215 -0.1754956394 0.6515793204 4290560203
-0.3346663415 -0.1750429422 0.6525905728 4289705146
-0.3347409070 -0.1743567139 0.6527360082 4288257700
-0.3348152339 -0.1736700237 0.6528809071 4286612615
-0.3344451487 -0.1727534682 0.6521592736 4285494134
-0.3345188498 -0.1720667779 0.6523029804 4285493616
-0.3345922828 -0.1713796407 0.6524461508 4284901479
-0.3342210352 -0.1704653800 0.6517222524 4284704100
-0.3342938423 -0.1697782427 0.6518642306 4284506721
-0.3334771395 -0.1686409563 0.6502716541 4283650901
-0.3326597810 -0.1675068885 0.6486778259 4282598213
-0.3318417668 -0.1663760394 0.6470827460 4282334528
-0.3305781782 -0.1650263071 0.6446188092 4282466114
-0.3288687766 -0.1634604335 0.6412854195 4282401091
-0.3258229792 -0.1612406373 0.6353462338 4282269505
-0.3174331188 -0.1564009935 0.6189862490 4282201921
-0.3112659156 -0.1526880115 0.6069603562 4282465093
-0.3091044128 -0.1509580165 0.6027454734 4282664266
-0.3078327179 -0.1496700197 0.6002656817 4282795852
-0.3074513674 -0.1488184929 0.5995220542 4282006325
-0.3070695698 -0.1479683965 0.5987775922 4285295975
-0.3066873550 -0.1471197754 0.5980322957 4291609949
-0.3058588505 -0.1460596621 0.5964167118 4292267879
-0.3059216440 -0.1454268545 0.5965391397 4293251915
-0.3055381477 -0.1445825845 0.5957913399 4293646673
-0.3056003451 -0.1439499110 0.5959126353 4293778009
-0.3052160740 -0.1431076378 0.5951632857 4293843802
-0.3052776754 -0.1424751133 0.5952834487 4293712476
-0.3053390384 -0.1418422163 0.5954030752 4293909855
-0.3054001629 -0.1412089467 0.5955222845 4293975396
-0.3054610193 -0.1405752897 0.5956409574 4293975396
-0.3055216372 -0.1399412453 0.5957591534 4291478628
-0.3060287535 -0.1395104975 0.5967480540 4285491465
-0.3065358102 -0.1390775293 0.5977367759 4283846997
-0.3074897230 -0.1388441175 0.5995968580 4283781204
-0.3084437251 -0.1386066377 0.6014571190 4283586133
-0.3089506924 -0.1381651014 0.6024457216 4283322961
-0.3067744374 -0.1365272105 0.5982021093 4283191379
-0.3081752956 -0.1364829838 0.6009337306 4283520344
-0.3149448037 -0.1387986690 0.6141340733 4283716954
-0.3322372437 -0.1748709679 0.6492599845 4290626766
-0.3327547014 -0.1744208336 0.6502712369 4289902525
-0.3328289092 -0.1737370789 0.6504162550 4288586665
-0.3329028785 -0.1730528772 0.6505607963 4287007373
-0.3325332105 -0.1721386909 0.6498383880 4285691513
-0.3326065540 -0.1714544743 0.6499817371 4285362546
-0.3326796293 -0.1707698256 0.6501245499 4284770409
-0.3323087692 -0.1698579341 0.6493998170 4284703846
-0.3323812485 -0.1691732854 0.6495414376 4284440674
-0.3315657377 -0.1680382937 0.6479477882 4283519315
-0.3307495713 -0.1669065058 0.6463528275 4282466627
-0.3299327493 -0.1657779515 0.6447565556 4282203201
-0.3286711574 -0.1644304097 0.6422911286 4282334787
-0.3269644678 -0.1628666520 0.6389559507 4282269505
-0.3239237368 -0.1606486887 0.6330137253 4282203712
-0.3159926534 -0.1560292095 0.6175147891 4282267716
-0.3098360598 -0.1523164958 0.6054835320 4282530888
-0.3076781929 -0.1505876184 0.6012665629 4282598219
-0.3068532646 -0.1495176256 0.5996545553 4282729805
-0.3064725399 -0.1486666799 0.5989105105 4281940532
-0.3060913980 -0.1478171796 0.5981656313 4285624940
-0.3057098091 -0.1469691247 0.5974199772 4291741281
-0.3048827052 -0.1459095180 0.5958036184 4292267625
-0.3045001626 -0.1450652927 0.5950560570 4293317710
-0.3041172028 -0.1442225277 0.5943076611 4293712468
-0.3041791618 -0.1435914636 0.5944287777 4293778009
-0.3037954271 -0.1427506953 0.5936788321 4293909595
-0.3038567901 -0.1421197802 0.5937988162 4293844062
-0.3039179146 -0.1414884925 0.5939182639 4293909855
-0.3039788008 -0.1408568174 0.5940372348 4294172776
-0.3040394485 -0.1402247548 0.5941557288 4293975397
-0.3040998280 -0.1395923346 0.5942737460 4292597095
-0.3046059608 -0.1391632706 0.5952628255 4286741518
-0.3051120043 -0.1387319863 0.5962517262 4283912782
-0.3056179583 -0.1382984817 0.5972405076 4283978575
-0.3065701127 -0.1380636990 0.5991011262 4283586135
-0.3075223267 -0.1378248185 0.6009619832 4283322963
-0.3084746599 -0.1375818551 0.6028230190 4283257172
-0.3112130761 -0.1381274760 0.6081745028 4283520344
-0.3112727404 -0.1374781132 0.6082910895 4283848027
-0.3308469355 -0.1737980843 0.6479494572 4289968318
-0.3309208155 -0.1731168032 0.6480941176 4288784044
-0.3309943974 -0.1724350601 0.6482382417 4287205009
-0.3310677409 -0.1717528701 0.6483818889 4285757563
-0.3306981325 -0.1708415300 0.6476580501 4285296753
-0.3307708502 -0.1701593399 0.6478004456 4284770409
-0.3304004371 -0.1692498326 0.6470749974 4284638053
-0.3304725289 -0.1685676724 0.6472162008 4284374881
-0.3296582103 -0.1674349755 0.6456214190 4283453268
-0.3288432360 -0.1663054824 0.6440253258 4282466373
-0.3284709156 -0.1654024422 0.6432961226 4282203201
-0.3272113800 -0.1640561819 0.6408293843 4282334787
-0.3255075514 -0.1624936163 0.6374924779 4282335041
-0.3229155540 -0.1604970396 0.6324161887 4282269248
-0.3154419363 -0.1560960710 0.6177794337 4282333509
-0.3092961013 -0.1523817927 0.6057431102 4282596681
-0.3062543571 -0.1502168030 0.5997859240 4282466887
-0.3054307401 -0.1491482109 0.5981729627 4282664266
-0.3050505519 -0.1482987702 0.5974283814 4281808944
-0.3046699166 -0.1474507749 0.5966829062 4285559145
-0.3042888641 -0.1466042250 0.5959366560 4291675742
-0.3039073944 -0.1457591355 0.5951895118 4292333672
-0.3035254776 -0.1449154913 0.5944415927 4293449296
-0.3031431437 -0.1440733075 0.5936927795 4293778261
-0.3032049537 -0.1434429288 0.5938138366 4293712729
-0.3028218746 -0.1426027417 0.5930635333 4293844315
-0.3028830886 -0.1419725120 0.5931834579 4293844062
-0.3029440939 -0.1413418949 0.5933029056 4293909855
-0.3030048311 -0.1407109052 0.5934218764 4294435690
-0.3030653000 -0.1400795281 0.5935403705 4293975139
-0.3031255603 -0.1394477785 0.5936583281 4292991590
-0.3036307693 -0.1390194893 0.5946477652 4288057115
-0.3041358888 -0.1385889649 0.5956370234 4283846722
-0.3041955531 -0.1379542351 0.5957539082 4284044101
-0.3047004640 -0.1375201792 0.5967426896 4283454551
-0.3078785837 -0.1382846236 0.6029669642 4283388758
-0.3123946190 -0.1396332532 0.6118113995 4283191377
-0.3097804487 -0.1377907097 0.6066916585 4283257170
-0.3093940914 -0.1369456053 0.6059349775 4284045406
-0.3174793422 -0.1398335248 0.6217696071 4285690231
-0.3206616044 -0.1405373812 0.6280019283 4291677907
-0.3293846548 -0.1734071076 0.6464918852 4290165697
-0.3294582367 -0.1727273911 0.6466363072 4289047216
-0.3295315802 -0.1720472276 0.6467802525 4287402388
-0.3291628361 -0.1711368859 0.6460564733 4285823356
-0.3287936151 -0.1702279150 0.6453318596 4285230962
-0.3288660049 -0.1695482135 0.6454738975 4284770411
-0.3284959793 -0.1686411053 0.6447476745 4284703848
-0.3285677433 -0.1679614186 0.6448885202 4284374883
-0.3277546167 -0.1668310165 0.6432925463 4283387475
-0.3273832500 -0.1659280509 0.6425637007 4282532166
-0.3265689313 -0.1648031622 0.6409654021 4282203715
-0.3253113925 -0.1634591222 0.6384971738 4282203715
-0.3240529895 -0.1621201485 0.6360272765 4282335039
-0.3214654028 -0.1601245850 0.6309486032 4282203453
-0.3148904741 -0.1561628729 0.6180437803 4282333507
-0.3091984391 -0.1526657492 0.6068719029 4282662472
-0.3057190776 -0.1502811313 0.6000428200 4282335300
-0.3048969805 -0.1492121220 0.5984292626 4282532679
-0.3040742278 -0.1481463760 0.5968144536 4281677358
-0.3032508790 -0.1470839381 0.5951984525 4285164387
-0.3028703630 -0.1462388933 0.5944516063 4291543902
-0.3024894297 -0.1453953087 0.5937039256 4292333418
-0.3021080494 -0.1445531845 0.5929554105 4293384016
-0.3017262518 -0.1437125206 0.5922060013 4293778774
-0.3017878532 -0.1430837363 0.5923268795 4293712474
-0.3014052808 -0.1422450691 0.5915760398 4293844060
-0.3014662862 -0.1416164339 0.5916957259 4293713244
-0.3015270233 -0.1409874260 0.5918149948 4293779037
-0.3015875518 -0.1403580457 0.5919337869 4294435686
-0.3016478121 -0.1397282779 0.5920520425 4294106721
-0.3017078042 -0.1390981376 0.5921698213 4293254247
-0.3017675877 -0.1384676099 0.5922871232 4289504046
-0.3022716045 -0.1380397230 0.5932764411 4283715639
-0.3027755916 -0.1376096010 0.5942655802 4284110397
-0.3032794595 -0.1371772438 0.5952545404 4283388505
-0.3042280376 -0.1369428486 0.5971163511 4283388505
-0.3056215942 -0.1369036585 0.5998514891 4283125582
-0.3065704405 -0.1366601586 0.6017138362 4283059789
-0.3133048713 -0.1389789134 0.6149316430 4284176734
-0.3120293915 -0.1377326846 0.6124282479 4284900457
-0.3209928870 -0.1409892440 0.6300210953 4290493630
-0.3274839520 -0.1727831215 0.6441655755 4290494662
-0.3275571764 -0.1721058935 0.6443095803 4289376181
-0.3276301622 -0.1714282036 0.6444531679 4287599768
-0.3272618055 -0.1705202460 0.6437286139 4285889150
-0.3268930316 -0.1696136594 0.6430032253 4285230962
-0.3269650638 -0.1689364463 0.6431449056 4284836204
-0.3270367980 -0.1682587862 0.6432860494 4284835434
-0.3266668618 -0.1673545241 0.6425583363 4284374883
-0.3258549273 -0.1662264168 0.6409612894 4283387476
-0.3254840076 -0.1653258502 0.6402316093 4282532167
-0.3246708810 -0.1642032713 0.6386322379 4282269508
-0.3238571286 -0.1630839258 0.6370315552 4282203715
-0.3221589029 -0.1615246683 0.6336911321 4282203455
-0.3195756376 -0.1595310420 0.6286097765 4282137662
-0.3138962388 -0.1560098827 0.6174383163 4282333507
-0.3086563349 -0.1527310312 0.6071313620 4282728265
-0.3056254089 -0.1505633146 0.6011695266 4282269507
-0.3043625057 -0.1492759734 0.5986853242 4282532679
-0.3035412729 -0.1482098103 0.5970699787 4281545772
-0.3022768497 -0.1469317973 0.5945828557 4284769629
-0.3014543056 -0.1458731443 0.5929648876 4291281500
-0.3010738790 -0.1450310796 0.5922166109 4292136809
-0.3006930649 -0.1441904604 0.5914674997 4293317969
-0.3003118038 -0.1433513016 0.5907175541 4293712727
-0.3003731370 -0.1427241266 0.5908381939 4293778267
-0.3004342318 -0.1420965642 0.5909584165 4293909853
-0.3000518978 -0.1412599534 0.5902063251 4293779039
-0.3001123965 -0.1406325549 0.5903253555 4293844832
-0.3001726866 -0.1400047690 0.5904439092 4294370146
-0.3002327085 -0.1393766105 0.5905619860 4294238560
-0.3002924919 -0.1387480795 0.5906795859 4293451371
-0.3003520370 -0.1381191760 0.5907967091 4290622272
-0.3004113138 -0.1374898851 0.5909133554 4283978547
-0.3009141982 -0.1370624006 0.5919024944 4284439098
-0.3014169931 -0.1366326660 0.5928914547 4283454300
-0.3028077185 -0.1366012990 0.5956270695 4283322714
-0.3041986823 -0.1365639716 0.5983631611 4283125836
-0.3047015965 -0.1361238062 0.5993523598 4282994250
-0.3056486845 -0.1358789206 0.6012152433 4283979353
-0.3177043796 -0.1405440569 0.6249290109 4284176732
-0.3146539032 -0.1385069340 0.6189287305 4289375403
-0.3129355311 -0.1370666027 0.6155486107 4293849327
-0.3255871534 -0.1721584797 0.6418367624 4290494662
-0.3256600201 -0.1714837253 0.6419804096 4289376181
-0.3257326484 -0.1708085239 0.6421235800 4287665560
-0.3253647387 -0.1699029505 0.6413983107 4286086528
-0.3254367411 -0.1692277491 0.6415402293 4285296755
-0.3250680268 -0.1683240384 0.6408134103 4284836204
-0.3251394331 -0.1676488519 0.6409541368 4284704618
-0.3247699142 -0.1667469889 0.6402257085 4284112481
-0.3243999481 -0.1658465117 0.6394963861 4283387989
-0.3235886693 -0.1647230089 0.6378970742 4282466887
-0.3232177198 -0.1638262272 0.6371658444 4282400840
-0.3219642043 -0.1624856889 0.6346947551 4282335047
-0.3207098842 -0.1611502320 0.6322221160 4282465863
-0.3181310296 -0.1591576040 0.6271383166 4282136898
-0.3133441508 -0.1560764760 0.6177018285 4282531140
-0.3085549474 -0.1530151516 0.6082608104 4282662726
-0.3055295050 -0.1508456171 0.6022967100 4282466887
-0.3038273454 -0.1493397653 0.5989412069 4282401094
-0.3025659025 -0.1480570287 0.5964545012 4281479471
-0.3013036847 -0.1467794329 0.5939662457 4284505949
-0.3000406623 -0.1455069780 0.5914763808 4291347028
-0.2996607721 -0.1446664184 0.5907275677 4292268130
-0.2992804945 -0.1438273191 0.5899778605 4293384016
-0.2988997698 -0.1429896802 0.5892273784 4293647188
-0.2989608645 -0.1423640996 0.5893478394 4293975648
-0.2990217507 -0.1417381465 0.5894678235 4293778269
-0.2986399233 -0.1409030557 0.5887151361 4293975901
-0.2987002134 -0.1402772665 0.5888339877 4294041694
-0.2987602651 -0.1396511048 0.5889523625 4294174559
-0.2988200784 -0.1390245557 0.5890702605 4293714008
-0.2988796234 -0.1383976340 0.5891876221 4293844844
-0.2989389300 -0.1377703249 0.5893045664 4292002640
-0.2989979982 -0.1371426582 0.5894209743 4285095740
-0.2990567982 -0.1365146190 0.5895369053 4284240431
-0.2995585203 -0.1360875219 0.5905259252 4283781982
-0.3009465635 -0.1360589564 0.5932622552 4283255638
-0.3023349047 -0.1360244304 0.5959991217 4283518800
-0.3028367162 -0.1355869025 0.5969883800 4283518800
-0.3064427972 -0.1365302354 0.6040970683 4283913558
-0.3091628551 -0.1370649636 0.6094592214 4283979351
-0.3136582673 -0.1383709610 0.6183210611 4287862429
-0.3154927194 -0.1384892166 0.6219373941 4293454834
-0.3236943185 -0.1715331823 0.6395055652 4290494662
-0.3237668276 -0.1708609164 0.6396487951 4289376181
-0.3238390684 -0.1701881886 0.6397915483 4287731353
-0.3239110708 -0.1695150137 0.6399338245 4286218114
-0.3235432208 -0.1686123013 0.6392070651 4285296755
-0.3236146271 -0.1679391414 0.6393480897 4284901997
-0.3232459724 -0.1670382917 0.6386197805 4284770411
-0.3228768706 -0.1661388129 0.6378905773 4284178274
-0.3225073516 -0.1652407348 0.6371605396 4283387989
-0.3221373558 -0.1643440425 0.6364295483 4282401094
-0.3213267326 -0.1632251590 0.6348280907 4282335301
-0.3200752437 -0.1618868262 0.6323555112 4282269508
-0.3192632496 -0.1607753485 0.6307513714 4282466374
-0.3171292841 -0.1590045840 0.6265353560 4282203202
-0.3127913475 -0.1561429948 0.6179651618 4282465347
-0.3084512949 -0.1532994062 0.6093907356 4282596933
-0.3054313660 -0.1511280537 0.6034243703 4282335301
-0.3032915294 -0.1494034976 0.5991968513 4282335301
-0.3020323515 -0.1481202394 0.5967091918 4281479728
-0.3003313839 -0.1466268152 0.5933486819 4284243034
-0.2990705371 -0.1453547627 0.5908576846 4291215189
-0.2982501090 -0.1443013400 0.5892367959 4292267877
-0.2978703678 -0.1434637457 0.5884865522 4293449807
-0.2974901795 -0.1426276267 0.5877354741 4293647186
-0.2975510657 -0.1420036554 0.5878556967 4293909855
-0.2976116836 -0.1413793117 0.5879755020 4293975648
-0.2972304225 -0.1405457556 0.5872222781 4293910623
-0.2972904742 -0.1399215758 0.5873408914 4293844830
-0.2969084680 -0.1390900314 0.5865861773 4294174307
-0.2969679236 -0.1384660304 0.5867036581 4293911135
-0.2970271707 -0.1378416419 0.5868207216 4293910633
-0.2970861495 -0.1372168958 0.5869372487 4292594773
-0.2975870967 -0.1367950290 0.5879269242 4285951552
-0.2980879545 -0.1363709420 0.5889164209 4284240934
-0.2985887229 -0.1359446049 0.5899057984 4283782234
-0.2990894318 -0.1355160475 0.5908949971 4283453269
-0.3004751205 -0.1354843229 0.5936326385 4283387729
-0.2987627983 -0.1340564340 0.5902496576 4283387729
-0.3059034646 -0.1365890056 0.6043571234 4283650388
-0.3072904348 -0.1365337670 0.6070972681 4283781974
-0.3104491234 -0.1372557580 0.6133377552 4286876047
-0.3153805435 -0.1387437582 0.6230804920 4292929003
-0.3222438395 -0.1711400747 0.6380399466 4290494662
-0.3223160803 -0.1704693735 0.6381829977 4289441974
-0.3223880827 -0.1697982252 0.6383255124 4287797146
-0.3224598169 -0.1691266149 0.6384676099 4286218114
-0.3220924735 -0.1682253778 0.6377402544 4285362546
-0.3221636117 -0.1675538123 0.6378811002 4284901995
-0.3217954934 -0.1666544229 0.6371522546 4284770411
-0.3214268982 -0.1657564342 0.6364224553 4284178274
-0.3210578859 -0.1648598313 0.6356918216 4283387989
-0.3206884265 -0.1639646292 0.6349602342 4282401094
-0.3198791146 -0.1628471315 0.6333578229 4282269508
-0.3186296821 -0.1615101099 0.6308839917 4282203715
-0.3178190291 -0.1604000181 0.6292788982 4282401094
-0.3161283731 -0.1588513106 0.6259313822 4282269508
-0.3117980957 -0.1559894532 0.6173574924 4282268482
-0.3079055548 -0.1533646882 0.6096502542 4282465861
-0.3044510186 -0.1509742588 0.6028103828 4282204231
-0.3018749058 -0.1490326822 0.5977096558 4282204231
-0.3006178439 -0.1477507502 0.5952206850 4281742900
-0.2998002172 -0.1466893703 0.5936017632 4283848276
-0.2981013060 -0.1452023238 0.5902379751 4290886742
-0.2972823083 -0.1441493928 0.5886163116 4292005223
-0.2964626551 -0.1430997699 0.5869934559 4293449809
-0.2965236306 -0.1424768716 0.5871142149 4293647188
-0.2965843678 -0.1418535858 0.5872344375 4293844060
-0.2957632840 -0.1408102214 0.5856087208 4294107232
-0.2958233654 -0.1401880234 0.5857276320 4294042209
-0.2958831787 -0.1395654678 0.5858460665 4293910623
-0.2955017090 -0.1387354434 0.5850907564 4294240103
-0.2955609560 -0.1381130517 0.5852081180 4293976931
-0.2956199646 -0.1374902874 0.5853249431 4293845091
-0.2961200178 -0.1370714307 0.5863150358 4293055575
-0.2966200411 -0.1366503388 0.5873050690 4286872902
-0.2966784835 -0.1360246092 0.5874207616 4284175389
-0.2976198196 -0.1358014643 0.5892846584 4283782233
-0.2981196046 -0.1353736818 0.5902742147 4283519061
-0.2990610898 -0.1351432800 0.5921382904 4283453271
-0.3004444540 -0.1351074725 0.5948773623 4283453271
-0.3031538427 -0.1356589496 0.6002419591 4283519061
-0.3071900010 -0.1367893070 0.6082335114 4283782233
-0.3085749149 -0.1367271543 0.6109756231 4285889150
-0.3117287457 -0.1374388188 0.6172201633 4292336864
-0.3203580976 -0.1705135554 0.6357042193 4290494662
-0.3204299808 -0.1698453426 0.6358468533 4289507767
-0.3205015957 -0.1691766828 0.6359889507 4287797146
-0.3205729723 -0.1685075760 0.6361306310 4286152321
-0.3206441104 -0.1678380221 0.6362717748 4285362546
-0.3202768564 -0.1669396460 0.6355429888 4284901995
-0.3203473687 -0.1662701219 0.6356829405 4284704618
-0.3199793398 -0.1653736085 0.6349526048 4284112481
-0.3196108341 -0.1644784957 0.6342213750 4283453782
-0.3192418814 -0.1635847837 0.6334892511 4282532680
-0.3184338808 -0.1624686718 0.6318858862 4282335301
-0.3171865642 -0.1611329466 0.6294107437 4282203715
-0.3163771927 -0.1600242555 0.6278046966 4282269508
-0.3142505288 -0.1582557261 0.6235845685 4282335301
-0.3108056784 -0.1558356583 0.6167488098 4282334530
-0.3073590994 -0.1534299105 0.6099095345 4282531909
-0.3034715950 -0.1508202404 0.6021953821 4282204231
-0.3008999825 -0.1488787830 0.5970923901 4282204231
-0.2992057502 -0.1473808289 0.5937304497 4282006583
-0.2983894348 -0.1463208646 0.5921105742 4283322443
-0.2971329689 -0.1450496316 0.5896173120 4290754907
-0.2958757281 -0.1437835544 0.5871224999 4291939181
-0.2950574458 -0.1427353621 0.5854986906 4293318223
-0.2951181531 -0.1421140730 0.5856192112 4293647188
-0.2951786518 -0.1414924115 0.5857392550 4293844060
-0.2947989106 -0.1406604201 0.5849856734 4294107232
-0.2944187224 -0.1398299038 0.5842313170 4294108004
-0.2944783270 -0.1392089427 0.5843495131 4294042211
-0.2940973938 -0.1383804530 0.5835936666 4294305385
-0.2945967615 -0.1379659027 0.5845845938 4294108006
-0.2946556509 -0.1373438239 0.5847014189 4293779550
-0.2951547801 -0.1369257420 0.5856918693 4293253206
-0.2952132523 -0.1363019943 0.5858079195 4287728463
-0.2952714860 -0.1356778741 0.5859234333 4284109848
-0.2957702279 -0.1352549493 0.5869131684 4283848026
-0.2967098057 -0.1350304484 0.5887776017 4283584854
-0.2989723682 -0.1354009509 0.5932673216 4283453017
-0.2999123931 -0.1351654381 0.5951326489 4283584603
-0.3012936115 -0.1351236701 0.5978735089 4283453269
-0.3035575747 -0.1354697198 0.6023659706 4283979613
-0.3022916615 -0.1342383027 0.5998539925 4285033840
-0.3098527491 -0.1369127929 0.6148578525 4291744726
-0.3193500340 -0.1703524590 0.6351035833 4290494660
-0.3194217682 -0.1696849018 0.6352462173 4289507765
-0.3194932342 -0.1690169126 0.6353883743 4287797146
-0.3195644319 -0.1683484614 0.6355299950 4286086528
-0.3191981614 -0.1674501896 0.6348015070 4285362546
-0.3192687631 -0.1667817682 0.6349419355 4284901995
-0.3193391263 -0.1661128998 0.6350818872 4284638825
-0.3185341358 -0.1649903357 0.6334810257 4284112481
-0.3181661665 -0.1640966982 0.6327491999 4283519574
-0.3173600137 -0.1629796773 0.6311459541 4282598472
-0.3169910610 -0.1620897651 0.6304122210 4282401094
-0.3157458305 -0.1607553363 0.6279357672 4282269508
-0.3149377704 -0.1596480459 0.6263287663 4282335300
-0.3132528663 -0.1581017524 0.6229779124 4282401093
-0.3098141253 -0.1556816101 0.6161391735 4282334528
-0.3068119287 -0.1534950733 0.6101685762 4282531907
-0.3024930060 -0.1506659687 0.6015793681 4282138436
-0.2999259531 -0.1487246305 0.5964741707 4282138436
-0.2982346714 -0.1472269893 0.5931106806 4282138169
-0.2974197865 -0.1461675316 0.5914900899 4282664513
-0.2961655259 -0.1448967010 0.5889956951 4290557025
-0.2953493297 -0.1438447684 0.5873724818 4291938678
-0.2940936089 -0.1425833553 0.5848751664 4293186383
-0.2941541672 -0.1419627517 0.5849956274 4293712727
-0.2942145169 -0.1413417608 0.5851156712 4293909853
-0.2942746282 -0.1407203972 0.5852351785 4294107232
-0.2938951850 -0.1398895532 0.5844805837 4294108006
-0.2935153246 -0.1390601844 0.5837250948 4294108006
-0.2935745418 -0.1384395510 0.5838428736 4294239849
-0.2931939065 -0.1376122087 0.5830859542 4294174056
-0.2932525575 -0.1369917542 0.5832025409 4293911136
-0.2933109403 -0.1363709271 0.5833186507 4293450585
-0.2933690846 -0.1357497275 0.5834342837 4288517979
-0.2938669324 -0.1353307366 0.5844243765 4284175641
