VERSION 0.7
FIELDS x y z rgba
SIZE 4 4 4 4
TYPE F F F U
COUNT 1 1 1 1
WIDTH 920
HEIGHT 1
VIEWPOINT 0.0 0.0 0.0 1.0 0.0 0.0 0.0
POINTS 920
DATA ascii
-0.3007602990 -0.1185071990 0.6186301708 4281414717
-0.3016723692 -0.1181771532 0.6205062270 4288257187
-0.3030154705 -0.1180108115 0.6232688427 4292928490
-0.3015370965 -0.1139894649 0.6202279925 4293256428
-0.3015854657 -0.1133185104 0.6203274131 4292203740
-0.3012019992 -0.1124860793 0.6195387244 4291414735
-0.3012497425 -0.1118154451 0.6196368933 4291677907
-0.3008655310 -0.1109852567 0.6188466549 4291151563
-0.3004809320 -0.1101566851 0.6180555820 4290296254
-0.3005277216 -0.1094870195 0.6181518435 4291152332
-0.3005742431 -0.1088170558 0.6182475090 4290954953
-0.3010524213 -0.1083021536 0.6192310452 4290165437
-0.3010984659 -0.1076306030 0.6193257570 4291218125
-0.2924757600 -0.1684320122 0.6029673219 4291744727
-0.2925447524 -0.1678016484 0.6031095982 4290757832
-0.2921900749 -0.1669289172 0.6023783684 4290428354
-0.2922585309 -0.1662985831 0.6025195122 4290625733
-0.2919031084 -0.1654277146 0.6017867327 4288257440
-0.2923947573 -0.1650365889 0.6028003097 4281414968
-0.2916148007 -0.1639283895 0.6011923552 4282665035
-0.2908342481 -0.1628234237 0.5995831490 4282401863
-0.2904770970 -0.1619581282 0.5988469124 4281809726
-0.2901195586 -0.1610942185 0.5981097817 4281480761
-0.2897615731 -0.1602317244 0.5973717570 4281875264
-0.2889788449 -0.1591369510 0.5957580805 4283191124
-0.2877710462 -0.1578126699 0.5932680368 4282927952
-0.2874115109 -0.1569571644 0.5925268531 4281875264
-0.2866269350 -0.1558721662 0.5909093618 4281940543
-0.2862664461 -0.1550204158 0.5901662111 4281743164
-0.2854807675 -0.1539410204 0.5885464549 4281216566
-0.2834825218 -0.1515648216 0.5844268799 4280690222
-0.2809944749 -0.1495909542 0.5792975426 4280690222
-0.2883434296 -0.1171771660 0.5944481492 4280821559
-0.2883928716 -0.1165366694 0.5945500731 4280887352
-0.2905913889 -0.1167594492 0.5990825295 4281348670
-0.2932203412 -0.1171441078 0.6045023203 4281217084
-0.2954198718 -0.1173461601 0.6090369225 4281085752
-0.2971898019 -0.1173684672 0.6126857996 4279901478
-0.2985298634 -0.1172138900 0.6154484749 4285033330
-0.2994398773 -0.1168853045 0.6173245311 4291612630
-0.3003499210 -0.1165525541 0.6192006469 4292796904
-0.3003992140 -0.1158835962 0.6193022728 4292138974
-0.3000178039 -0.1150492430 0.6185159683 4292204765
-0.3000665009 -0.1143805906 0.6186163425 4292928488
-0.2996843457 -0.1135484651 0.6178284883 4292466910
-0.2993017733 -0.1127179414 0.6170397997 4291216843
-0.2993495166 -0.1120502353 0.6171382666 4290953671
-0.2989661992 -0.1112219542 0.6163480282 4291611601
-0.2990133464 -0.1105545759 0.6164451838 4291612114
-0.2977674603 -0.1094118729 0.6138767004 4290954184
-0.2986758351 -0.1090615094 0.6157494187 4290954183
-0.2991531789 -0.1085505635 0.6167334318 4290822597
-0.2991992235 -0.1078819409 0.6168284416 4291152332
-0.3001074195 -0.1075219810 0.6187006831 4292862950
-0.2906582952 -0.1677695066 0.6005956531 4292468450
-0.2907269299 -0.1671416610 0.6007374525 4291021004
-0.2907953262 -0.1665133685 0.6008788347 4290297281
-0.2908635139 -0.1658846438 0.6010197401 4290494660
-0.2905085981 -0.1650152653 0.6002863646 4288323233
-0.2909992039 -0.1646258533 0.6013000607 4281678140
-0.2902205884 -0.1635190696 0.5996912122 4282401094
-0.2898645103 -0.1626529545 0.5989553928 4281940543
-0.2895079851 -0.1617882401 0.5982187390 4281282613
-0.2887277305 -0.1606893241 0.5966064334 4281085234
-0.2883702815 -0.1598283350 0.5958678722 4281414199
-0.2875888646 -0.1587349772 0.5942531824 4283387989
-0.2868068218 -0.1576448828 0.5926372409 4283453782
-0.2856004536 -0.1563261002 0.5901445150 4281940543
-0.2860886157 -0.1559364796 0.5911532044 4282006336
-0.2857289016 -0.1550844163 0.5904098749 4281808957
-0.2845206857 -0.1537754387 0.5879133344 4281545272
-0.2820393443 -0.1517868191 0.5827860236 4281150514
-0.2821018994 -0.1511728317 0.5829153657 4280821551
-0.2813156247 -0.1501056254 0.5812906623 4280689965
-0.2904776931 -0.1169816181 0.6002224684 4282005831
-0.2926726937 -0.1171936691 0.6047580838 4282137417
-0.2940097451 -0.1170540601 0.6075208783 4281546303
-0.2957762778 -0.1170783043 0.6111710668 4280427822
-0.2971137464 -0.1169255972 0.6139346957 4282862163
-0.2980219424 -0.1165987998 0.6158113480 4290559944
-0.2950646877 -0.1147643775 0.6097007394 4292467939
-0.2976905704 -0.1151022539 0.6151266694 4291810009
-0.2977392077 -0.1144374907 0.6152271628 4291152077
-0.2977875769 -0.1137724072 0.6153270602 4291678421
-0.2978356779 -0.1131070033 0.6154264808 4291808980
-0.2974536419 -0.1122790202 0.6146370769 4291019464
-0.2975011468 -0.1116139367 0.6147352457 4290954184
-0.2975483835 -0.1109485328 0.6148328185 4291019977
-0.2975953221 -0.1102828085 0.6149298549 4290888390
-0.2972119153 -0.1094583720 0.6141375899 4290625218
-0.2972582579 -0.1087929830 0.6142333746 4290822597
-0.2981648445 -0.1084402502 0.6161066890 4291743699
-0.2973501682 -0.1074612811 0.6144232750 4292928741
-0.2894031107 -0.1660973579 0.5993775725 4291481557
-0.2894710302 -0.1654702276 0.5995182395 4290692041
-0.2891166508 -0.1646023542 0.5987842679 4287928220
-0.2891840041 -0.1639752686 0.5989238024 4282796366
-0.2884066105 -0.1628708094 0.5973137617 4283585368
-0.2884733081 -0.1622446626 0.5974519253 4282335301
-0.2881173491 -0.1613814682 0.5967146754 4281084721
-0.2877609432 -0.1605196744 0.5959765911 4280755756
-0.2869814932 -0.1594244838 0.5943621993 4280887342
-0.2862014174 -0.1583325565 0.5927466154 4283124304
-0.2854207158 -0.1572438627 0.5911297202 4283585368
-0.2846394181 -0.1561584473 0.5895116329 4282006336
-0.2825883925 -0.1543829441 0.5852637887 4281808703
-0.2818056047 -0.1533068269 0.5836425424 4281545531
-0.2831383348 -0.1533803195 0.5864027143 4281545274
-0.2806615233 -0.1513927579 0.5812730193 4281413688
-0.2815706730 -0.1512352228 0.5831559300 4281018930
-0.2799389064 -0.1497146189 0.5797764659 4280821551
-0.2757645845 -0.1468475610 0.5711310506 4280689965
-0.2899827063 -0.1163836196 0.6005779505 4281940038
-0.2896032929 -0.1155649349 0.5997921824 4281480256
-0.2913658917 -0.1155978218 0.6034426689 4281019705
-0.2927002609 -0.1154536828 0.6062062383 4282401612
-0.2953206301 -0.1158077121 0.6116333008 4288849326
-0.2953694761 -0.1151471809 0.6117344499 4292270562
-0.2954180241 -0.1144863218 0.6118350029 4292204769
-0.2954663336 -0.1138251349 0.6119350195 4291612630
-0.2955143750 -0.1131636277 0.6120344996 4291941595
-0.2959911227 -0.1126650795 0.6130219102 4291941079
-0.2960386872 -0.1120019630 0.6131204367 4291480528
-0.2960859835 -0.1113385335 0.6132184267 4291151563
-0.2961330414 -0.1106747836 0.6133158207 4291085770
-0.2961798012 -0.1100107208 0.6134127378 4291414734
-0.2962263227 -0.1093463451 0.6135090590 4292138457
-0.2962725759 -0.1086816564 0.6136047840 4292927973
-0.2880810499 -0.1650553495 0.5980150700 4289903039
-0.2877271771 -0.1641889811 0.5972805619 4285231222
-0.2877942920 -0.1635634899 0.5974197984 4282665295
-0.2874396741 -0.1626990139 0.5966837406 4283848286
-0.2870846689 -0.1618359238 0.5959467292 4282927184
-0.2867292166 -0.1609742343 0.5952088833 4281874239
-0.2863733768 -0.1601139456 0.5944702029 4281413688
-0.2860170901 -0.1592550725 0.5937306285 4280755758
-0.2852384448 -0.1581636369 0.5921142697 4282729548
-0.2848812342 -0.1573085040 0.5913727283 4283979872
-0.2836793065 -0.1559905410 0.5888777375 4283058770
-0.2841655612 -0.1556024998 0.5898870826 4281545531
-0.2829624414 -0.1542910635 0.5873895884 4281216566
-0.2817585170 -0.1529847533 0.5848904252 4281479481
-0.2806161344 -0.1510700434 0.5825190544 4281084723
-0.2785647213 -0.1493231803 0.5782605410 4280887344
-0.2756665349 -0.1471338123 0.5722443461 4280690222
-0.2753644288 -0.1457023472 0.5716172457 4280361259
-0.2685587108 -0.1284742355 0.5574895144 4286546571
-0.2686652839 -0.1272858977 0.5577107668 4287401626
-0.2873486280 -0.1149295941 0.5964947343 4281282363
-0.2903907001 -0.1154765487 0.6028096080 4281084984
-0.2917225063 -0.1153333262 0.6055742502 4283454046
-0.2930544913 -0.1151840240 0.6083393097 4287599005
-0.2931030095 -0.1145270616 0.6084399819 4291678425
-0.2918673456 -0.1133710742 0.6058749557 4291546839
-0.2936272323 -0.1133774370 0.6095281839 4291481044
-0.2936750054 -0.1127185449 0.6096273661 4291875802
-0.2941506803 -0.1122226864 0.6106148362 4291809493
-0.2941980064 -0.1115621924 0.6107130051 4292335837
-0.2946733534 -0.1110628098 0.6116998196 4292664802
-0.2947202325 -0.1104007214 0.6117970943 4293059560
-0.2866935730 -0.1646399945 0.5965102315 4290889420
-0.2867607176 -0.1640156358 0.5966499448 4285165429
-0.2864070833 -0.1631512642 0.5959141254 4282665295
-0.2860530317 -0.1622882932 0.5951774120 4284244067
-0.2861192822 -0.1616644561 0.5953153372 4282994000
-0.2857644856 -0.1608033627 0.5945771337 4281874750
-0.2854092717 -0.1599436700 0.5938379765 4281414199
-0.2850536108 -0.1590853930 0.5930980444 4281216820
-0.2842763960 -0.1579944640 0.5914809108 4281808957
-0.2839198411 -0.1571399271 0.5907390118 4282072643
-0.2827201486 -0.1558223665 0.5882428885 4282796366
-0.2836268544 -0.1556664258 0.5901294351 4282795852
-0.2832691371 -0.1548152417 0.5893851519 4281677371
-0.2816461027 -0.1532771140 0.5860081911 4281216566
-0.2787569463 -0.1510603577 0.5799968243 4280953394
-0.2788189352 -0.1504493952 0.5801258087 4280887601
-0.2776149809 -0.1491579711 0.5776208043 4280953394
-0.2776762545 -0.1485489756 0.5777482986 4281084980
-0.2743605673 -0.1461409032 0.5708494782 4281216566
-0.2723097205 -0.1444189847 0.5665823817 4280822062
-0.2732136548 -0.1442667991 0.5684632063 4280756269
-0.2720059156 -0.1430002451 0.5659502745 4280690476
-0.2829178572 -0.1140729710 0.5886542797 4281677638
-0.2855265439 -0.1144647226 0.5940819979 4281019706
-0.2881358266 -0.1148446575 0.5995110273 4281611843
-0.2894648910 -0.1147052273 0.6022763252 4285362043
-0.2903670967 -0.1143914908 0.6041535735 4287467419
-0.2882798016 -0.1129027456 0.5998106003 4292007388
-0.2917444706 -0.1135852262 0.6070194244 4293060076
-0.2922194898 -0.1130946204 0.6080077291 4293257453
-0.2860805094 -0.1653313488 0.5966133475 4292468452
-0.2857282162 -0.1644656956 0.5958787203 4292139487
-0.2857952118 -0.1638420224 0.5960183740 4288586411
-0.2854421735 -0.1629782468 0.5952821374 4284112487
-0.2855086029 -0.1623546183 0.5954207182 4283191379
-0.2847349048 -0.1612548828 0.5938071012 4282862414
-0.2843806148 -0.1603952944 0.5930683017 4281874750
-0.2836057842 -0.1593011320 0.5914523602 4280953648
-0.2840910852 -0.1589154452 0.5924644470 4280756269
-0.2833153009 -0.1578250229 0.5908465981 4281677371
-0.2829593718 -0.1569710970 0.5901042819 4281808957
-0.2821824551 -0.1558862627 0.5884841084 4281611578
-0.2822462320 -0.1552674919 0.5886170864 4282598473
-0.2802061141 -0.1534959376 0.5843625069 4281940543
-0.2802689672 -0.1528809518 0.5844935775 4281742653
-0.2782270014 -0.1511224210 0.5802350640 4281282102
-0.2795519531 -0.1511943340 0.5829982758 4280755758
-0.2737184763 -0.1474050879 0.5708326697 4280887344
-0.2746213377 -0.1472549587 0.5727155209 4281216566
-0.2729965746 -0.1457511932 0.5693271756 4281348152
-0.2738991976 -0.1455984265 0.5712095499 4281085234
-0.2710086405 -0.1434339434 0.5651813745 4281151027
-0.2698613107 -0.1415760964 0.5627886653 4280822062
-0.2694977820 -0.1407609284 0.5620304942 4280558890
-0.2691338360 -0.1399472207 0.5612715483 4280558890
-0.2691914439 -0.1393534243 0.5613916516 4280690222
-0.2688267827 -0.1385417581 0.5606312156 4280821808
-0.2684617341 -0.1377315670 0.5598698854 4280624429
-0.2788321674 -0.1146242693 0.5814971328 4283716449
-0.2810571492 -0.1142364591 0.5861372948 4281677636
-0.2836605310 -0.1146373302 0.5915665627 4281217085
-0.2862645090 -0.1150263920 0.5969971418 4280953913
-0.2837564051 -0.1133610904 0.5917664766 4283651426
-0.2842300832 -0.1128917336 0.5927543640 4285033332
-0.2868346870 -0.1132616103 0.5981861353 4287401880
-0.2844943702 -0.1667786092 0.5946829915 4292271591
-0.2845620811 -0.1661573946 0.5948244929 4292073440
-0.2846295238 -0.1655357480 0.5949655175 4292139233
-0.2846967876 -0.1649136543 0.5951060653 4291481303
-0.2847638130 -0.1642911136 0.5952461958 4291152338
-0.2844117582 -0.1634274423 0.5945102572 4290560201
-0.2840592563 -0.1625651866 0.5937734246 4288389032
-0.2841254175 -0.1619431674 0.5939117670 4284572262
-0.2833530307 -0.1608448476 0.5922971964 4282072128
-0.2829993069 -0.1599867791 0.5915578008 4280558890
-0.2826451361 -0.1591301262 0.5908175111 4280624683
-0.2822905779 -0.1582748890 0.5900763273 4280493097
-0.2823551297 -0.1576553285 0.5902112722 4281282613
-0.2819998264 -0.1568019986 0.5894685984 4281940543
-0.2812243700 -0.1557176709 0.5878476501 4281479992
-0.2812879682 -0.1550996006 0.5879806280 4281677371
-0.2805114985 -0.1540199816 0.5863575339 4281479992
-0.2797344327 -0.1529436260 0.5847331882 4281808446
-0.2793768644 -0.1520992815 0.5839857459 4281874239
-0.2790189087 -0.1512563676 0.5832374692 4281545274
-0.2765589952 -0.1492805481 0.5780955553 4281611067
-0.2740977705 -0.1473154426 0.5729507804 4281611324
-0.2745786011 -0.1469361633 0.5739558935 4281216566
-0.2695918679 -0.1436414719 0.5635320544 4280821808
-0.2709127963 -0.1437160820 0.5662931800 4280887601
-0.2705509663 -0.1428958029 0.5655368567 4280887601
-0.2706096172 -0.1422982812 0.5656594634 4280887601
-0.2689842582 -0.1408188939 0.5622619390 4280887601
-0.2686210871 -0.1400048733 0.5615027547 4280887601
-0.2690997422 -0.1396293789 0.5625033379 4280690222
-0.2687359154 -0.1388164610 0.5617428422 4280558636
-0.2683717012 -0.1380050331 0.5609815121 4280558636
-0.2689065337 -0.1370309889 0.5620994568 4280427050
-0.2774532437 -0.1143222153 0.5799647570 4285624446
-0.2792009115 -0.1143938825 0.5836179256 4284045414
-0.2792487442 -0.1137649417 0.5837179422 4281282878
-0.2805716991 -0.1136522740 0.5864832997 4281611843
-0.2823676169 -0.1130681634 0.5902373195 4284506734
-0.2849669158 -0.1134471670 0.5956707001 4283520093
-0.2871414125 -0.1136459708 0.6002161503 4287599259
-0.2824249864 -0.1685805768 0.5917311311 4292271591
-0.2829104662 -0.1682117730 0.5927482247 4291811040
-0.2829785347 -0.1675934941 0.5928908587 4291482075
-0.2830463946 -0.1669747829 0.5930330157 4291482075
-0.2831140161 -0.1663556248 0.5931747556 4291350489
-0.2831814289 -0.1657360196 0.5933159590 4291020752
-0.2832486331 -0.1651159674 0.5934567451 4291086545
-0.2828977406 -0.1642528623 0.5927215815 4291152338
-0.2829643786 -0.1636328548 0.5928612351 4290691787
-0.2830308378 -0.1630124152 0.5930004120 4290954959
-0.2830970287 -0.1623915285 0.5931391716 4290428615
-0.2827447653 -0.1615312546 0.5924010873 4288914601
-0.2828104496 -0.1609104127 0.5925386548 4284901228
-0.2824574411 -0.1600520462 0.5917990804 4281085234
-0.2816854715 -0.1589588672 0.5901816487 4279900960
-0.2821688354 -0.1585747749 0.5911943913 4279835167
-0.2818146646 -0.1577197164 0.5904523730 4280493097
-0.2814601064 -0.1568660736 0.5897094607 4281085234
-0.2811051011 -0.1560138464 0.5889657140 4280822062
-0.2807497084 -0.1551630348 0.5882210732 4281348406
-0.2803938985 -0.1543136537 0.5874755979 4281085234
-0.2796184421 -0.1532359719 0.5858508945 4281084980
-0.2775844634 -0.1514751315 0.5815893412 4281216566
-0.2768075466 -0.1504067928 0.5799615383 4280690222
-0.2764495313 -0.1495687068 0.5792114139 4281084980
-0.2723147571 -0.1466977447 0.5705483556 4281742910
-0.2740535140 -0.1469964534 0.5741913319 4281808703
-0.2715950310 -0.1450455189 0.5690403581 4281677117
-0.2695550621 -0.1433285922 0.5647662878 4281348152
-0.2696137726 -0.1427321732 0.5648893118 4281019187
-0.2692522109 -0.1419139802 0.5641317964 4280690222
-0.2684701085 -0.1408767849 0.5624931455 4280492843
-0.2689481378 -0.1405015290 0.5634946227 4280427050
-0.2685854435 -0.1396868378 0.5627347827 4280361257
-0.2690632045 -0.1393089443 0.5637357831 4280098085
-0.2692341506 -0.1375172138 0.5640939474 4280427050
-0.2680284083 -0.1362774074 0.5615676641 4280427050
-0.2751330435 -0.1149109751 0.5764532089 4280624433
-0.2774445415 -0.1132929400 0.5812961459 4282072394
-0.2791890800 -0.1133553907 0.5849512815 4283388254
-0.2805095911 -0.1132385358 0.5877179503 4283585632
-0.2809813619 -0.1127748936 0.5887064338 4282927702
-0.2835756242 -0.1131559908 0.5941419005 4282138951
-0.2844721377 -0.1128515154 0.5960202217 4288455079
-0.2815334797 -0.1677834839 0.5912390351 4292074212
-0.2816012800 -0.1671668291 0.5913814306 4291745247
-0.2816688418 -0.1665497124 0.5915233493 4291613661
-0.2813194394 -0.1656866968 0.5907895565 4291153110
-0.2818033397 -0.1653141677 0.5918058157 4291086545
-0.2814533114 -0.1644520909 0.5910706520 4290691787
-0.2819369733 -0.1640768498 0.5920864344 4290428615
-0.2815862894 -0.1632157415 0.5913499594 4289902271
-0.2816524506 -0.1625969112 0.5914888978 4289507513
-0.2813010514 -0.1617376655 0.5907509327 4288389032
-0.2817841172 -0.1613579243 0.5917654037 4288388771
-0.2814320624 -0.1604996622 0.5910261273 4286283395
-0.2814972699 -0.1598800123 0.5911629796 4283651675
-0.2807267308 -0.1587873548 0.5895448327 4281677885
-0.2807912529 -0.1581686735 0.5896803737 4280296232
-0.2804376483 -0.1573151350 0.5889377594 4279638302
-0.2805016637 -0.1566965431 0.5890721679 4280163878
-0.2797291875 -0.1556123197 0.5874499083 4280427050
-0.2789560854 -0.1545313597 0.5858263969 4280821808
-0.2786007226 -0.1536844373 0.5850800872 4280756015
-0.2782449722 -0.1528389454 0.5843329430 4280821808
-0.2774702609 -0.1517659724 0.5827060342 4280624429
-0.2783693671 -0.1516082287 0.5845942497 4279374362
-0.2767564952 -0.1500840336 0.5812070370 4279440155
-0.2722111046 -0.1469839364 0.5716614723 4280690222
-0.2705956399 -0.1454802603 0.5682688355 4281742910
-0.2710740566 -0.1451049745 0.5692735910 4281413945
-0.2690380812 -0.1433873624 0.5649978518 4281413945
-0.2690967023 -0.1427907199 0.5651209950 4281611324
-0.2683746815 -0.1411551833 0.5636047125 4281216566
-0.2688519061 -0.1407788694 0.5646069050 4281019187
-0.2685474455 -0.1393662095 0.5639674664 4280558636
-0.2677651942 -0.1383354813 0.5623247027 4280229671
-0.2686614990 -0.1381716579 0.5642070174 4280361257
-0.2682983279 -0.1373588592 0.5634443760 4280427052
-0.2683547139 -0.1367615759 0.5635628104 4280427052
-0.2675707936 -0.1357377321 0.5619164705 4280427052
-0.2684668303 -0.1355658621 0.5637982488 4280492845
-0.2676821053 -0.1345450282 0.5621502399 4280492845
-0.2631200552 -0.1267265081 0.5525696874 4281479740
-0.2733381689 -0.1144276112 0.5740283728 4281413949
-0.2763482332 -0.1150429025 0.5803496838 4281611328
-0.2755496502 -0.1140675098 0.5786725879 4282071624
-0.2755972147 -0.1134441420 0.5787724853 4282532175
-0.2769147754 -0.1133403555 0.5815394521 4282664531
-0.2782325447 -0.1132305041 0.5843068361 4283125082
-0.2795504928 -0.1131145805 0.5870746374 4282203979
-0.2804449797 -0.1128221452 0.5889531374 4282072393
-0.2821868956 -0.1128644869 0.5926113129 4282599248
-0.2843529284 -0.1130673364 0.5971601009 4289507513
-0.2797433734 -0.1671064198 0.5888531804 4292271591
-0.2798107862 -0.1664922833 0.5889950991 4292008419
-0.2798779905 -0.1658776999 0.5891366005 4291811038
-0.2799449861 -0.1652626693 0.5892775655 4290889936
-0.2804278135 -0.1648918390 0.5902939439 4290625996
-0.2800782919 -0.1640312821 0.5895581841 4289375929
-0.2801446319 -0.1634149402 0.5896978378 4287928481
-0.2802107334 -0.1627981514 0.5898370147 4286415242
-0.2802766263 -0.1621809304 0.5899757147 4285296761
-0.2799257636 -0.1613232195 0.5892371535 4284507245
-0.2799911201 -0.1607060432 0.5893747211 4284638570
-0.2800562680 -0.1600884348 0.5895118117 4283849054
-0.2797043324 -0.1592331082 0.5887709856 4283651675
-0.2797689140 -0.1586155593 0.5889070034 4283322710
-0.2794162631 -0.1577621251 0.5881646276 4281809471
-0.2790631950 -0.1569101065 0.5874214172 4279704095
-0.2791269422 -0.1562931389 0.5875556469 4279243546
-0.2787731290 -0.1554430425 0.5868108869 4279638304
-0.2780014873 -0.1543625891 0.5851866007 4279704097
-0.2780642807 -0.1537471265 0.5853188038 4279901476
-0.2777092457 -0.1529013216 0.5845714211 4280230441
-0.2769361138 -0.1518279463 0.5829439759 4280427820
-0.2778335214 -0.1516701579 0.5848330259 4279309339
-0.2716270387 -0.1476467401 0.5717684627 4278914581
-0.2733591497 -0.1479489207 0.5754145384 4279571743
-0.2721652687 -0.1466662288 0.5729014874 4280756017
-0.2709706128 -0.1453887075 0.5703867674 4281413945
-0.2681021690 -0.1432226151 0.5643487573 4280821808
-0.2685790062 -0.1428492069 0.5653524995 4280690222
-0.2690558136 -0.1424735337 0.5663561225 4280887601
-0.2682769895 -0.1414336860 0.5647166967 4281150773
-0.2679162025 -0.1406168789 0.5639572740 4281545531
-0.2683924139 -0.1402391195 0.5649597049 4281677119
-0.2684498131 -0.1396412700 0.5650805235 4281282361
-0.2680881023 -0.1388261169 0.5643191338 4281150775
-0.2681449652 -0.1382284313 0.5644388199 4281084982
-0.2682015896 -0.1376303583 0.5645580292 4281019189
-0.2678388655 -0.1368177980 0.5637944937 4280887603
-0.2674757242 -0.1360067427 0.5630301237 4280756017
-0.2671121955 -0.1351971775 0.5622648597 4280690224
-0.2667482793 -0.1343891025 0.5614988208 4280558638
-0.2672229409 -0.1340032816 0.5624980330 4280492845
-0.2669131458 -0.1325994134 0.5618458390 4280492845
-0.2669676542 -0.1320021152 0.5619605780 4280558638
-0.2641364634 -0.1293667257 0.5560010672 4280558638
-0.2646097243 -0.1289796531 0.5569972396 4280887603
-0.2642427385 -0.1281827688 0.5562247634 4281150775
-0.2638753653 -0.1273874044 0.5554513931 4281150775
-0.2635075748 -0.1265935600 0.5546772480 4281479742
-0.2635597587 -0.1260022223 0.5547870994 4281808707
-0.2692743838 -0.1205472201 0.5668162704 4284243046
-0.2686293721 -0.1177453920 0.5654584765 4280492586
-0.2691487074 -0.1167140752 0.5665516853 4280689965
-0.2696191072 -0.1162874773 0.5675418377 4281282102
-0.2700894177 -0.1158586442 0.5685318708 4281611067
-0.2709817290 -0.1156076565 0.5704101920 4281216309
-0.2718741298 -0.1153525114 0.5722886324 4281282361
-0.2740813792 -0.1150069907 0.5769348145 4282006086
-0.2758187652 -0.1150909364 0.5805920362 4282203465
-0.2750217617 -0.1141151488 0.5789142847 4281940808
-0.2754918039 -0.1136658713 0.5799037218 4282072394
-0.2763843536 -0.1133877262 0.5817825198 4282006601
-0.2772769332 -0.1131054312 0.5836614370 4281611843
-0.2794850767 -0.1126988530 0.5883094668 4282467151
-0.2808007598 -0.1125726476 0.5910789371 4283191385
-0.2821165919 -0.1124403626 0.5938487649 4289902271
-0.2783049345 -0.1672891676 0.5871981978 4292073957
-0.2783722878 -0.1666770875 0.5873402953 4291679454
-0.2784394324 -0.1660645455 0.5874819756 4291350489
-0.2785063684 -0.1654515713 0.5876231790 4291153110
-0.2785730660 -0.1648381650 0.5877639055 4290560973
-0.2790548205 -0.1644690484 0.5887804031 4290033859
-0.2787058651 -0.1636100113 0.5880440474 4288717999
-0.2787719071 -0.1629952788 0.5881834626 4287665311
-0.2788377702 -0.1623800993 0.5883223414 4286481037
-0.2789033949 -0.1617645025 0.5884608030 4285230968
-0.2785530388 -0.1609082967 0.5877216458 4284507245
-0.2786181271 -0.1602927446 0.5878589749 4284638570
-0.2786830068 -0.1596767604 0.5879958272 4284309605
-0.2783316076 -0.1588229388 0.5872544646 4283914847
-0.2783959508 -0.1582070291 0.5873901844 4283388503
-0.2780438364 -0.1573551148 0.5866472721 4282664780
-0.2781076431 -0.1567392647 0.5867818594 4280493611
-0.2777547836 -0.1558892727 0.5860373974 4279374362
-0.2778180540 -0.1552734971 0.5861708522 4279571741
-0.2770478427 -0.1541935652 0.5845458508 4279637534
-0.2766937912 -0.1533478647 0.5837987661 4279637534
-0.2767560780 -0.1527336091 0.5839302540 4279506718
-0.2764012814 -0.1518898457 0.5831816196 4279901476
-0.2760460675 -0.1510475129 0.5824321508 4279572511
-0.2752733529 -0.1499793977 0.5808018446 4279506718
-0.2728313804 -0.1480093151 0.5756494403 4279703329
-0.2728916407 -0.1474022865 0.5757766366 4280821810
-0.2688370347 -0.1439517438 0.5672217607 4281150775
-0.2680606544 -0.1429076195 0.5655836463 4280887603
-0.2689542174 -0.1427534968 0.5674690008 4280558638
-0.2681770325 -0.1417123079 0.5658292174 4280098087
-0.2678170800 -0.1408942640 0.5650697351 4280229673
-0.2691283226 -0.1409531832 0.5678363442 4280756017
-0.2679319680 -0.1396984905 0.5653121471 4280953396
-0.2684071362 -0.1393170357 0.5663146973 4281216568
-0.2676277757 -0.1382851303 0.5646703243 4281084982
-0.2676843703 -0.1376868337 0.5647897124 4281084982
-0.2681590617 -0.1373023689 0.5657913089 4281084982
-0.2677968442 -0.1364891231 0.5650270581 4281150775
-0.2674342394 -0.1356773823 0.5642619729 4281084982
-0.2662340105 -0.1344443411 0.5617296100 4281019189
-0.2658704519 -0.1336374730 0.5609624982 4280887603
-0.2655609846 -0.1322368383 0.5603095293 4280558379
-0.2656152546 -0.1316411942 0.5604240894 4280492586
-0.2644121945 -0.1304250956 0.5578857064 4280689965
-0.2644657791 -0.1298315525 0.5579987764 4280689711
-0.2640999258 -0.1290328205 0.5572268367 4280492332
-0.2641529739 -0.1284395009 0.5573387742 4280426539
-0.2633670270 -0.1274399459 0.5556805134 4280492332
-0.2634194791 -0.1268478036 0.5557911396 4280821812
-0.2631040215 -0.1254623383 0.5551256537 4287335319
-0.2627359927 -0.1246709153 0.5543491244 4289638074
-0.2632071674 -0.1242774650 0.5553432107 4289638074
-0.2687563300 -0.1205972359 0.5670514703 4283781982
-0.2688062191 -0.1199894771 0.5671567321 4282531915
-0.2684844732 -0.1185870618 0.5664778948 4280887090
-0.2690034509 -0.1175550595 0.5675728321 4280887344
-0.2695217729 -0.1165179163 0.5686665177 4280624172
-0.2708337009 -0.1164501756 0.5714345574 4280953137
-0.2713032961 -0.1160160825 0.5724253654 4281282102
-0.2717728019 -0.1155797467 0.5734159350 4281677887
-0.2722422183 -0.1151411682 0.5744063854 4282006852
-0.2727115452 -0.1147003546 0.5753965974 4282072647
-0.2731807530 -0.1142572984 0.5763866305 4281743682
-0.2749148309 -0.1143381074 0.5800453424 4281414463
-0.2758532465 -0.1134350449 0.5820253491 4281743428
-0.2767441571 -0.1131526455 0.5839051008 4281809221
-0.2780570686 -0.1130376160 0.5866751671 4281940807
-0.2797921598 -0.1130870730 0.5903360844 4282203979
-0.2806833982 -0.1127893031 0.5922164917 4283783776
-0.2815746963 -0.1124873683 0.5940970182 4290692041
-0.2768694162 -0.1674677879 0.5855414867 4292337129
-0.2769367099 -0.1668577492 0.5856838226 4291876578
-0.2770037949 -0.1662472636 0.5858256817 4291416027
-0.2770706713 -0.1656363457 0.5859671235 4291087062
-0.2771373093 -0.1650249809 0.5861080885 4290889938
-0.2776181102 -0.1646589488 0.5871248841 4290692559
-0.2776844203 -0.1640457809 0.5872651339 4290625997
-0.2777505219 -0.1634321809 0.5874049664 4290033860
-0.2774017751 -0.1625751406 0.5866673589 4289112758
-0.2774673402 -0.1619615853 0.5868060589 4288191656
-0.2775326967 -0.1613475978 0.5869442225 4287073174
-0.2771828771 -0.1604929268 0.5862044692 4286152072
-0.2772477269 -0.1598789841 0.5863415599 4285887869
-0.2773123085 -0.1592646241 0.5864781737 4284900974
-0.2769614756 -0.1584123373 0.5857361555 4284112226
-0.2770255506 -0.1577980369 0.5858716965 4283520089
-0.2770893872 -0.1571833044 0.5860067010 4283256917
-0.2771530151 -0.1565681547 0.5861412883 4281941057
-0.2768008113 -0.1557187736 0.5853964090 4280427050
-0.2764481902 -0.1548708081 0.5846506953 4279374362
-0.2756793797 -0.1537923217 0.5830246806 4279374362
-0.2757417262 -0.1531791836 0.5831565857 4279571741
-0.2745558918 -0.1518752873 0.5806487203 4279440155
-0.2750336230 -0.1514932960 0.5816590786 4279769120
-0.2755113244 -0.1511090249 0.5826693177 4279769120
-0.2747401893 -0.1500405073 0.5810384750 4279900706
-0.2710538805 -0.1473904252 0.5732424259 4279834915
-0.2731961012 -0.1479133517 0.5777729154 4281216568
-0.2703404129 -0.1457320005 0.5717335343 4282006084
-0.2695664465 -0.1446813643 0.5700966716 4281545533
-0.2687918842 -0.1436340362 0.5684586167 4281545533
-0.2684335709 -0.1428118050 0.5677008033 4281677119
-0.2680748403 -0.1419910491 0.5669421554 4281413947
-0.2685497403 -0.1416115463 0.5679464936 4280953396
-0.2686074674 -0.1410108358 0.5680686235 4280361259
-0.2674134672 -0.1397556663 0.5655434728 4279703329
-0.2683050632 -0.1395911723 0.5674290061 4279374364
-0.2675273418 -0.1385579109 0.5657842755 4279374364
-0.2659701705 -0.1365014911 0.5624910593 4280098087
-0.2660259902 -0.1359050423 0.5626090765 4280690224
-0.2669169903 -0.1357330382 0.5644934773 4281084982
-0.2657191455 -0.1344995201 0.5619601607 4281216568
-0.2657741904 -0.1339028776 0.5620765686 4281216568
-0.2654110491 -0.1330962777 0.5613086224 4281281589
-0.2658836246 -0.1327084899 0.5623080730 4281281589
-0.2659380138 -0.1321107447 0.5624230504 4281215796
-0.2655739486 -0.1313058585 0.5616531372 4281018417
-0.2643728852 -0.1300908029 0.5591130257 4280821551
-0.2640078664 -0.1292908341 0.5583410263 4280755758
-0.2624395192 -0.1272894293 0.5550242066 4280426539
-0.2634851336 -0.1253200620 0.5572355390 4285295223
-0.2640582919 -0.1237312406 0.5584476590 4282663761
-0.2662053406 -0.1241117865 0.5629884601 4282532175
-0.2658371925 -0.1233154833 0.5622098446 4283124565
-0.2676164508 -0.1228831708 0.5659727454 4282137670
-0.2676671445 -0.1222774908 0.5660799742 4281545533
-0.2677175999 -0.1216714680 0.5661866665 4281873985
-0.2681875229 -0.1212548614 0.5671805143 4281676606
-0.2678178251 -0.1204583943 0.5663986206 4280821297
-0.2682874501 -0.1200392097 0.5673918128 4280360746
-0.2679171264 -0.1192439720 0.5666086078 4280887090
-0.2679664195 -0.1186362505 0.5667128563 4280952883
-0.2675953805 -0.1178431958 0.5659281611 4281281848
-0.2680642903 -0.1174198091 0.5669198632 4281479227
-0.2703113258 -0.1164985597 0.5716720223 4282202950
-0.2707800269 -0.1160643026 0.5726633072 4282268743
-0.2716692090 -0.1158070713 0.5745437741 4281941059
-0.2717172205 -0.1151890680 0.5746452808 4281546301
-0.2726063728 -0.1149254367 0.5765257478 4281151543
-0.2730748057 -0.1144812554 0.5775163770 4281283129
-0.2739639878 -0.1142102778 0.5793969035 4281283131
-0.2748531997 -0.1139351353 0.5812774897 4281217338
-0.2762107253 -0.1131998152 0.5841484666 4282006600
-0.2775211334 -0.1130847484 0.5869197845 4282335819
-0.2784105241 -0.1127929613 0.5888007283 4281941061
-0.2788786888 -0.1123273298 0.5897908211 4285362295
-0.2797680795 -0.1120281667 0.5916717649 4292270560
-0.2755710483 -0.1664258391 0.5841678381 4292271336
-0.2756378651 -0.1658169776 0.5843093991 4291744992
-0.2757044435 -0.1652076691 0.5844506025 4291284441
-0.2757708132 -0.1645979285 0.5845912695 4291087317
-0.2758370042 -0.1639877260 0.5847315192 4290758352
-0.2759029269 -0.1633771062 0.5848713517 4290495180
-0.2759686708 -0.1627660394 0.5850107074 4290100422
-0.2760341763 -0.1621545404 0.5851495862 4289442237
-0.2760995030 -0.1615426093 0.5852879882 4288850100
-0.2761645913 -0.1609302312 0.5854259729 4288060586
-0.2758153081 -0.1600770801 0.5846855640 4286942105
-0.2758798599 -0.1594647616 0.5848224163 4286020225
-0.2759442031 -0.1588520259 0.5849588513 4284638572
-0.2760083377 -0.1582388580 0.5850947499 4284243812
-0.2756577134 -0.1573885828 0.5843514800 4283849054
-0.2757212818 -0.1567754894 0.5844863057 4283716954
-0.2757846713 -0.1561619639 0.5846205950 4282927438
-0.2754330039 -0.1553141028 0.5838751793 4281611324
-0.2754958272 -0.1547006667 0.5840083361 4280295464
-0.2747284472 -0.1536226869 0.5823816061 4279900706
-0.2747906446 -0.1530102491 0.5825135112 4279308569
-0.2744374573 -0.1521672010 0.5817647576 4279374362
-0.2740838528 -0.1513255835 0.5810151696 4279505948
-0.2737298310 -0.1504854113 0.5802646875 4279637277
-0.2729599476 -0.1494192630 0.5786326528 4279637277
-0.2713583410 -0.1479034126 0.5752375126 4279965988
-0.2714183927 -0.1472968608 0.5753648281 4280952883
-0.2706467509 -0.1462406367 0.5737290382 4281874239
-0.2698745131 -0.1451877356 0.5720919967 4281611067
-0.2691016793 -0.1441381574 0.5704537630 4281742653
-0.2687442899 -0.1433137506 0.5696961284 4281874239
-0.2679703832 -0.1422699094 0.5680555701 4281676860
-0.2692768872 -0.1423293203 0.5708251595 4281545274
-0.2685022652 -0.1412874758 0.5691830516 4281348152
-0.2673107088 -0.1400308758 0.5666571856 4280887601
-0.2673677802 -0.1394310445 0.5667781234 4280887603
-0.2670080662 -0.1386145800 0.5660156012 4281282361
-0.2670646012 -0.1380149126 0.5661354661 4281019189
-0.2667042017 -0.1372004896 0.5653714538 4280229673
-0.2663434148 -0.1363875568 0.5646066070 4279966501
-0.2651484013 -0.1351511329 0.5620734096 4280098087
-0.2652036250 -0.1345546395 0.5621904135 4280427052
-0.2652586102 -0.1339577734 0.5623070002 4280690224
-0.2648962140 -0.1331508607 0.5615388155 4280952883
-0.2653679252 -0.1327629387 0.5625387430 4281084469
-0.2645875812 -0.1317493618 0.5608845949 4281150775
-0.2650589347 -0.1313597709 0.5618837476 4281282361
-0.2635489702 -0.1287492514 0.5586828589 4281150775
-0.2627662718 -0.1277479827 0.5570236444 4281216568
-0.2624008358 -0.1269522905 0.5562489629 4281150777
-0.2624529302 -0.1263593286 0.5563594103 4280953398
-0.2625047863 -0.1257660240 0.5564693809 4280822326
-0.2625564337 -0.1251723766 0.5565788150 4281940807
-0.2626078427 -0.1245783642 0.5566878319 4282269772
-0.2634955347 -0.1243788674 0.5585696101 4283388253
-0.2661080360 -0.1243585199 0.5641076565 4283979876
-0.2657407224 -0.1235609651 0.5633289814 4285229169
-0.2666287124 -0.1233458593 0.5652114153 4284373860
-0.2662608325 -0.1225485578 0.5644316077 4281939778
-0.2671487629 -0.1223280206 0.5663138628 4280492332
-0.2671991587 -0.1217217669 0.5664207339 4281084469
-0.2676682174 -0.1213050038 0.5674150586 4281347641
-0.2672992647 -0.1205082312 0.5666329265 4281150262
-0.2677680254 -0.1200888827 0.5676265955 4281479227
-0.2673984468 -0.1192933321 0.5668431520 4281610813
-0.2678668797 -0.1188714057 0.5678361654 4281808192
-0.2674967051 -0.1180770919 0.5670514107 4281874498
-0.2683841586 -0.1178367138 0.5689327121 4281874498
-0.2692717016 -0.1175921783 0.5708141923 4281611326
-0.2693203092 -0.1169790775 0.5709171891 4281479740
-0.2697882652 -0.1165468991 0.5719091892 4281413947
-0.2715150714 -0.1166533753 0.5755697489 4281348154
-0.2711436152 -0.1158551574 0.5747823119 4280821812
-0.2716113627 -0.1154152900 0.5757738948 4280887605
-0.2720790207 -0.1149731874 0.5767652392 4281018936
-0.2729665637 -0.1147053093 0.5786466599 4281084729
-0.2738541067 -0.1144332737 0.5805281401 4281413694
-0.2739015520 -0.1138079688 0.5806286931 4281742659
-0.2747890651 -0.1135295257 0.5825101137 4281875015
-0.2765170932 -0.1135921925 0.5861732960 4282269773
-0.2774048448 -0.1133035049 0.5880551338 4282467405
-0.2778722346 -0.1128399372 0.5890460014 4282533198
-0.2787599862 -0.1125438735 0.5909278393 4288586152
-0.2746869624 -0.1656349152 0.5836678743 4292271591
-0.2743408084 -0.1647785157 0.5829323530 4291942626
-0.2744069099 -0.1641703844 0.5830728412 4291679454
-0.2744728029 -0.1635618061 0.5832128525 4291284696
-0.2745384872 -0.1629527956 0.5833523870 4290758097
-0.2746039331 -0.1623433530 0.5834915042 4290231753
-0.2746692002 -0.1617334783 0.5836301446 4289508030
-0.2747342288 -0.1611231565 0.5837683082 4288915893
-0.2747990489 -0.1605124176 0.5839060545 4288060584
-0.2748636305 -0.1599012315 0.5840433240 4286810517
-0.2749280334 -0.1592896283 0.5841801167 4285888639
-0.2745786607 -0.1584389657 0.5834378004 4284704365
-0.2746425271 -0.1578274220 0.5835734606 4284309605
-0.2747061551 -0.1572154462 0.5837087035 4284046433
-0.2747695744 -0.1566030532 0.5838434100 4283717470
-0.2744188905 -0.1557553113 0.5830982327 4283125333
-0.2740677595 -0.1549089849 0.5823521614 4282467403
-0.2737162411 -0.1540640891 0.5816052556 4281677887
-0.2733643055 -0.1532206386 0.5808574557 4281216566
-0.2730119824 -0.1523786038 0.5801088214 4280163878
-0.2730736136 -0.1517683268 0.5802397728 4279703327
-0.2727205455 -0.1509282440 0.5794895887 4279374362
-0.2723670900 -0.1500896066 0.5787385106 4279440155
-0.2711839080 -0.1487973928 0.5762244463 4279440155
-0.2716589570 -0.1484166980 0.5772338510 4279571743
-0.2717191279 -0.1478080750 0.5773616433 4281019189
-0.2709492147 -0.1467495859 0.5757257342 4281874496
-0.2697636783 -0.1454706192 0.5732066631 4281545531
-0.2694076002 -0.1446425766 0.5724500418 4281545531
-0.2690511346 -0.1438159943 0.5716925859 4281677117
-0.2695248425 -0.1434329003 0.5726991892 4281677117
-0.2675062418 -0.1417271048 0.5684099197 4281808703
-0.2683947980 -0.1415642351 0.5702980161 4281940291
-0.2672056854 -0.1403062046 0.5677713156 4281808705
-0.2668471336 -0.1394879520 0.5670094490 4282006084
-0.2664881945 -0.1386711746 0.5662467480 4282269256
-0.2665446699 -0.1380712837 0.5663667321 4281940291
-0.2661849856 -0.1372565478 0.5656024814 4281282361
-0.2666569352 -0.1368703693 0.5666053295 4280821810
-0.2642162144 -0.1349938214 0.5614191294 4280624431
-0.2642712891 -0.1343980432 0.5615361333 4280361259
-0.2643807530 -0.1332053840 0.5617687702 4280229160
-0.2640187144 -0.1323996633 0.5609995127 4280229160
-0.2640728056 -0.1318033636 0.5611144304 4280229673
-0.2641266882 -0.1312066764 0.5612289310 4280295466
-0.2633469701 -0.1301976144 0.5595721006 4280427052
-0.2634002268 -0.1296021044 0.5596852899 4280624431
-0.2626195550 -0.1285979748 0.5580264926 4280887603
-0.2635060847 -0.1284099817 0.5599101782 4281084982
-0.2623075843 -0.1272066832 0.5573636293 4281150775
-0.2627768219 -0.1268138438 0.5583606362 4281216568
-0.2624115944 -0.1260180771 0.5575845838 4280888373
-0.2624632716 -0.1254232526 0.5576943755 4280954166
-0.2629320621 -0.1250265390 0.5586904883 4280559154
-0.2646531165 -0.1252200902 0.5623474717 4280953912
-0.2638694644 -0.1242263615 0.5606823564 4280756019
-0.2643380761 -0.1238229126 0.5616780519 4281216570
-0.2660596371 -0.1240012124 0.5653361678 4282334536
-0.2665791512 -0.1229846328 0.5664400458 4281545020
-0.2670476437 -0.1225703061 0.5674355030 4281084469
-0.2666800916 -0.1217720062 0.5666545033 4281413947
-0.2671482861 -0.1213550866 0.5676493049 4281545533
-0.2671982348 -0.1207469627 0.5677554607 4281479227
-0.2672479749 -0.1201385036 0.5678611398 4281610813
-0.2672974467 -0.1195297018 0.5679662824 4281545020
-0.2673467100 -0.1189205647 0.5680709481 4281545020
-0.2682326734 -0.1186813861 0.5699535012 4281611326
-0.2682816088 -0.1180696711 0.5700574517 4281545533
-0.2691675425 -0.1178241000 0.5719399452 4281413947
-0.2687974870 -0.1170275211 0.5711536407 4281348154
-0.2696833313 -0.1167765111 0.5730358958 4281348154
-0.2701503932 -0.1163409650 0.5740283728 4281282361
-0.2706173658 -0.1159031838 0.5750206113 4281150775
-0.2723891735 -0.1153758839 0.5787854195 4281282108
-0.2728559971 -0.1149294525 0.5797773600 4281676866
-0.2737419605 -0.1146563590 0.5816599131 4281808452
-0.2746279836 -0.1143791080 0.5835425258 4282005831
-0.2742559612 -0.1135766953 0.5827521086 4282269773
-0.2751418352 -0.1132939905 0.5846344233 4282598738
-0.2756082714 -0.1128353700 0.5856255293 4281940807
-0.2764941752 -0.1125452965 0.5875079036 4285362043
-0.2769604623 -0.1120812297 0.5884987116 4291086286
-0.2731112242 -0.1631354243 0.5816924572 4291877091
-0.2731766105 -0.1625280231 0.5818317533 4291416027
-0.2728296816 -0.1616759747 0.5810927749 4290758097
-0.2733067870 -0.1613119394 0.5821089745 4289968581
-0.2733715475 -0.1607032418 0.5822468996 4289376444
-0.2734360993 -0.1600941271 0.5823844075 4288389549
-0.2735004127 -0.1594845653 0.5825214386 4286942103
-0.2735645473 -0.1588745713 0.5826579928 4286283910
-0.2736284435 -0.1582641602 0.5827940702 4285099636
-0.2732793093 -0.1574155390 0.5820505023 4284573292
-0.2733426988 -0.1568051875 0.5821854472 4284310120
-0.2734058499 -0.1561944187 0.5823199749 4283915362
-0.2730556726 -0.1553482115 0.5815742016 4283389018
-0.2727051079 -0.1545034200 0.5808275342 4282993749
-0.2727674246 -0.1538932323 0.5809602141 4282335819
-0.2728295326 -0.1532826275 0.5810924768 4281875268
-0.2724779248 -0.1524402946 0.5803436637 4280954166
-0.2721259296 -0.1515993923 0.5795938969 4280756015
-0.2717735171 -0.1507599354 0.5788433552 4280098085
-0.2714207172 -0.1499219090 0.5780918598 4279834915
-0.2718951702 -0.1495405734 0.5791024566 4279308571
-0.2715417445 -0.1487035900 0.5783496499 4278979606
-0.2711879015 -0.1478680670 0.5775960088 4280821810
-0.2700054049 -0.1465843469 0.5750774741 4281808705
-0.2692363560 -0.1455297172 0.5734395385 4281611326
-0.2692953348 -0.1449243128 0.5735651255 4281545533
-0.2677547038 -0.1428279579 0.5702837706 4281545533
-0.2682272494 -0.1424452662 0.5712901950 4281677119
-0.2686997354 -0.1420603245 0.5722965598 4281808705
-0.2675131559 -0.1407999545 0.5697693229 4281742912
-0.2671555281 -0.1399795115 0.5690076351 4281677119
-0.2667975128 -0.1391605586 0.5682450533 4281742912
-0.2672691047 -0.1387740672 0.5692495108 4281677119
-0.2656651437 -0.1373125613 0.5658332705 4281413947
-0.2644754648 -0.1360717863 0.5632993579 4281216568
-0.2661919594 -0.1363249868 0.5669553280 4281150775
-0.2641706765 -0.1346646845 0.5626502037 4281084982
-0.2638100982 -0.1338565797 0.5618822575 4280953396
-0.2642802000 -0.1334697008 0.5628834963 4281084469
-0.2639189959 -0.1326627433 0.5621141791 4280952883
-0.2635574043 -0.1318572909 0.5613440275 4280756017
-0.2631954253 -0.1310533583 0.5605731010 4280492845
-0.2632489502 -0.1304570287 0.5606870651 4280229673
-0.2628862560 -0.1296551973 0.5599145889 4280163880
-0.2633552849 -0.1292632967 0.5609135628 4280229673
-0.2629919946 -0.1284626275 0.5601397753 4280163880
-0.2622120976 -0.1274611801 0.5584787130 4280295466
-0.2622642517 -0.1268658936 0.5585897565 4281084982
-0.2627325356 -0.1264706701 0.5595871806 4281413947
-0.2632007599 -0.1260732114 0.5605844259 4281413947
-0.2632523775 -0.1254749745 0.5606943965 4281282361
-0.2641370296 -0.1252715588 0.5625785589 4281677119
-0.2637716830 -0.1244740859 0.5618004203 4281677119
-0.2646562755 -0.1242652312 0.5636845231 4281808705
-0.2651241124 -0.1238574907 0.5646809340 4281281850
-0.2660087943 -0.1236413047 0.5665652156 4281413436
-0.2665271759 -0.1226207986 0.5676692724 4281348156
-0.2675122619 -0.1211748421 0.5697673559 4281216570
-0.2667766809 -0.1195790321 0.5682007074 4281348156
-0.2676610351 -0.1193420216 0.5700842738 4281282363
-0.2681277990 -0.1189156324 0.5710784197 4281348156
-0.2685945034 -0.1184870005 0.5720723867 4281348156
-0.2690610886 -0.1180561185 0.5730662346 4281282363
-0.2691097558 -0.1174406335 0.5731698275 4281282363
-0.2704119980 -0.1173690259 0.5759434700 4281348154
-0.2700423598 -0.1165695563 0.5751562119 4281282361
-0.2709266543 -0.1163101420 0.5770395994 4281084982
-0.2709746361 -0.1156894937 0.5771418214 4281282361
-0.2710224092 -0.1150685251 0.5772435069 4281282363
-0.2714882195 -0.1146238446 0.5782356858 4281479742
-0.2732091248 -0.1147038862 0.5819010139 4282203210
-0.2728380561 -0.1139024422 0.5811106563 4282400589
-0.2741407454 -0.1137975380 0.5838852525 4281809222
-0.2750250101 -0.1135137752 0.5857685804 4281743429
-0.2746532857 -0.1127103940 0.5849768519 4283388253
-0.2759561539 -0.1125920266 0.5877518654 4289309623
-0.2718173265 -0.1621027887 0.5803093910 4292271336
-0.2714709342 -0.1612522602 0.5795698762 4291679199
-0.2719469666 -0.1608899385 0.5805861354 4291021269
-0.2720114589 -0.1602828652 0.5807238221 4290429132
-0.2720757127 -0.1596753746 0.5808610916 4289442237
-0.2721397877 -0.1590674371 0.5809978247 4288060584
-0.2722036541 -0.1584590673 0.5811341405 4287665309
-0.2722672820 -0.1578502804 0.5812699795 4286152070
-0.2719186842 -0.1570031941 0.5805258155 4285165175
-0.2719818056 -0.1563944668 0.5806605220 4284770417
-0.2720446885 -0.1557853222 0.5807948112 4284507245
-0.2721073627 -0.1551757604 0.5809286237 4283849315
-0.2717574537 -0.1543315947 0.5801815391 4283388507
-0.2714071274 -0.1534888446 0.5794336200 4282533198
-0.2714689672 -0.1528798789 0.5795656443 4281941061
-0.2711179256 -0.1520390809 0.5788161755 4281546303
-0.2711792290 -0.1514302045 0.5789470673 4281413947
-0.2708274424 -0.1505913585 0.5781961083 4281084982
-0.2708882391 -0.1499825865 0.5783258677 4281019189
-0.2705357671 -0.1491457075 0.5775733590 4280295466
-0.2697697580 -0.1480835080 0.5759379864 4279637536
-0.2698296010 -0.1474763006 0.5760657191 4280756017
-0.2694759071 -0.1466437876 0.5753106475 4281216568
-0.2691218257 -0.1458127201 0.5745546818 4281216568
-0.2691808045 -0.1452061832 0.5746806264 4281413947
-0.2692396045 -0.1445992440 0.5748061538 4281545533
-0.2692981660 -0.1439919025 0.5749311447 4281545533
-0.2685289681 -0.1429436654 0.5732890368 4281611326
-0.2685869038 -0.1423373967 0.5734127164 4281808705
-0.2669888735 -0.1408572048 0.5700010657 4281742912
-0.2662179768 -0.1398190111 0.5683552027 4281874498
-0.2671029270 -0.1396502256 0.5702445507 4281808705
-0.2659170330 -0.1383994222 0.5677127242 4281676606
-0.2655589581 -0.1375831366 0.5669482350 4281413434
-0.2643717229 -0.1363409460 0.5644136071 4281216055
-0.2656705379 -0.1363805681 0.5671864748 4281216055
-0.2640677989 -0.1349314302 0.5637647510 4281281848
-0.2641226947 -0.1343329698 0.5638819337 4281281848
-0.2645920813 -0.1339440793 0.5648840666 4281216055
-0.2638170123 -0.1329259276 0.5632293224 4281216055
-0.2634562552 -0.1321192235 0.5624591708 4281150775
-0.2643400431 -0.1319354028 0.5643459558 4281150775
-0.2639787793 -0.1311289072 0.5635746717 4281150775
-0.2627868056 -0.1299134642 0.5610299110 4281150775
-0.2624245882 -0.1291119158 0.5602566004 4281019189
-0.2620619535 -0.1283118725 0.5594824553 4280821810
-0.2621143460 -0.1277157813 0.5595942736 4280821810
-0.2625819743 -0.1273207814 0.5605926514 4281545533
-0.2630495727 -0.1269235313 0.5615909100 4281940291
-0.2635170817 -0.1265240461 0.5625890493 4281808705
-0.2639845610 -0.1261222959 0.5635870099 4281677119
-0.2644519508 -0.1257183105 0.5645848513 4281742912
-0.2640874982 -0.1249186248 0.5638068318 4281677119
-0.2645546198 -0.1245120391 0.5648040175 4281479740
-0.2650216520 -0.1241032034 0.5658011436 4281348156
-0.2667369843 -0.1242737398 0.5694632530 4281216570
-0.2659555078 -0.1232787892 0.5677948594 4281216570
-0.2664223313 -0.1228632107 0.5687915087 4281282363
-0.2660563588 -0.1220633313 0.5680101514 4281150777
-0.2665228844 -0.1216451600 0.5690061450 4281282363
-0.2661562860 -0.1208465025 0.5682235360 4281413949
-0.2670390904 -0.1206139103 0.5701082349 4281413949
-0.2675053179 -0.1201899499 0.5711035728 4281216570
-0.2671379447 -0.1193912178 0.5703192353 4281282363
-0.2684375048 -0.1193352789 0.5730937123 4281348154
-0.2685353756 -0.1181048378 0.5733026862 4281282361
-0.2690010369 -0.1176715493 0.5742968321 4281282361
-0.2698837221 -0.1174174994 0.5761812925 4281348154
-0.2690976560 -0.1164371893 0.5745031238 4281348154
-0.2703974545 -0.1163582057 0.5772780776 4281216568
-0.2704454064 -0.1157373264 0.5773804188 4281479740
-0.2709105313 -0.1152937636 0.5783734322 4281677121
-0.2713755667 -0.1148479581 0.5793662667 4281742914
-0.2718404830 -0.1143999025 0.5803588629 4281611843
-0.2727229893 -0.1141243652 0.5822429061 4281611843
-0.2731877863 -0.1136708632 0.5832352638 4282401359
-0.2736525238 -0.1132151037 0.5842273831 4283980391
-0.2741171420 -0.1127571017 0.5852193236 4286875795
-0.2741636932 -0.1121259332 0.5853187442 4291547098
-0.2705897391 -0.1604674757 0.5790616274 4292073957
-0.2706539631 -0.1598620266 0.5791990757 4291613406
-0.2707179487 -0.1592561454 0.5793360472 4290692304
-0.2707817554 -0.1586498469 0.5794726014 4289508030
-0.2708453238 -0.1580431163 0.5796086192 4288783790
-0.2709087133 -0.1574359536 0.5797442794 4287073172
-0.2705606818 -0.1565903872 0.5789994597 4285757312
-0.2706235051 -0.1559832990 0.5791339278 4285033589
-0.2706861496 -0.1553757787 0.5792679787 4284836210
-0.2707485557 -0.1547678560 0.5794015527 4284441452
-0.2703991830 -0.1539252102 0.5786538720 4284178023
-0.2704610825 -0.1533173770 0.5787863135 4283388507
-0.2701109946 -0.1524766833 0.5780371428 4282730323
-0.2697604895 -0.1516374201 0.5772870779 4282072393
-0.2698215544 -0.1510301828 0.5774177313 4281282363
-0.2698823810 -0.1504225284 0.5775479078 4281150777
-0.2695308626 -0.1495857537 0.5767956376 4281545535
-0.2695911527 -0.1489782184 0.5769246817 4281282363
-0.2692389190 -0.1481433958 0.5761709213 4280887092
-0.2688862979 -0.1473100483 0.5754162669 4280887092
-0.2689457536 -0.1467031538 0.5755435228 4280624431
-0.2685924172 -0.1458717734 0.5747873783 4280624431
-0.2686513364 -0.1452650130 0.5749135017 4280953396
-0.2682972848 -0.1444356441 0.5741558075 4281216568
-0.2683556974 -0.1438290179 0.5742807984 4281282361
-0.2671750486 -0.1425609738 0.5717542171 4281545533
-0.2668196857 -0.1417369545 0.5709937811 4281808705
