VERSION 0.7
FIELDS x y z rgba
SIZE 4 4 4 4
TYPE F F F U
COUNT 1 1 1 1
WIDTH 920
HEIGHT 1
VIEWPOINT 0.0 0.0 0.0 1.0 0.0 0.0 0.0
POINTS 920
DATA ascii
-0.2896880805 -0.1847425997 0.5972202420 4289638324
-0.2897627652 -0.1841265112 0.5973742008 4289968058
-0.2898372710 -0.1835099459 0.5975278020 4290494402
-0.2899115384 -0.1828929037 0.5976809263 4291152332
-0.2904064953 -0.1825399399 0.5987012982 4291612883
-0.2909014225 -0.1821847111 0.5997216702 4292006871
-0.2909752727 -0.1815644652 0.5998739004 4292204250
-0.2910489142 -0.1809437424 0.6000257134 4292401627
-0.2907010317 -0.1800615937 0.5993085504 4292533213
-0.2899312973 -0.1789207160 0.5977216959 4292664801
-0.2891609371 -0.1777829677 0.5961335301 4292335836
-0.2888115644 -0.1769066155 0.5954132676 4292401629
-0.2880400419 -0.1757742465 0.5938226581 4291348941
-0.2881115377 -0.1751579344 0.5939700603 4289637811
-0.2881828249 -0.1745411605 0.5941170454 4286216575
-0.2882539034 -0.1739239395 0.5942635536 4284571752
-0.2883247435 -0.1733062565 0.5944095850 4284045408
-0.2883953750 -0.1726881266 0.5945551991 4282400840
-0.2880434394 -0.1718176007 0.5938296914 4281545531
-0.2881135345 -0.1711994559 0.5939741731 4281282359
-0.2886059880 -0.1708309948 0.5949893594 4281150773
-0.2895210385 -0.1707094759 0.5968759060 4281084980
-0.2891680300 -0.1698389649 0.5961481333 4280953394
-0.2888146043 -0.1689698100 0.5954194665 4280953394
-0.2880377471 -0.1678555608 0.5938179493 4280887601
-0.2881064415 -0.1672356427 0.5939595103 4280756015
-0.2877517343 -0.1663706303 0.5932282805 4280690222
-0.2878198624 -0.1657507420 0.5933687091 4280821808
-0.2874643803 -0.1648875773 0.5926358700 4281019187
-0.2871085107 -0.1640258133 0.5919021964 4281216566
-0.2863286436 -0.1629244089 0.5902944803 4281348152
-0.2851245105 -0.1615861356 0.5878120065 4281479738
-0.2843433022 -0.1604921073 0.5862014890 4281545531
-0.2835614979 -0.1594012976 0.5845896602 4281611578
-0.2832030356 -0.1585510969 0.5838506818 4281545785
-0.2811479270 -0.1567565501 0.5796138644 4281479992
-0.2808523476 -0.1553051323 0.5790045261 4281151541
-0.2800675929 -0.1542296559 0.5773866773 4281019955
-0.2797066569 -0.1533901989 0.5766425729 4281085750
-0.2797698379 -0.1527840048 0.5767728090 4281151543
-0.2794081569 -0.1519464999 0.5760272145 4281217336
-0.2790460885 -0.1511104107 0.5752807260 4281348922
-0.2786836028 -0.1502757668 0.5745334029 4281414715
-0.2791705132 -0.1498988718 0.5755372643 4281151543
-0.2738147080 -0.1313432157 0.5644957423 4281019187
-0.2738695145 -0.1307421774 0.5646086931 4281413945
-0.2739240527 -0.1301407814 0.5647211671 4281085234
-0.2739783823 -0.1295390129 0.5648331642 4281019441
-0.2744599879 -0.1291380525 0.5658259988 4281216819
-0.2740863264 -0.1283344179 0.5650557280 4281414198
-0.2732846141 -0.1273330599 0.5634028912 4281151026
-0.2848838270 -0.1216441989 0.5873158574 4281414463
-0.2871829569 -0.1206524670 0.5920556784 4283783011
-0.2880924642 -0.1203746647 0.5939307213 4283783011
-0.2885725796 -0.1199142784 0.5949205160 4281546563
-0.2894820869 -0.1196291447 0.5967956185 4280691254
-0.2899620831 -0.1191633195 0.5977851748 4280822840
-0.2917309403 -0.1192220077 0.6014317870 4282533458
-0.2935000956 -0.1192727312 0.6050791144 4284309868
-0.2939802110 -0.1187944561 0.6060689092 4291678684
-0.2886483073 -0.1924542636 0.5964424014 4293127413
-0.2887255251 -0.1918428838 0.5966019630 4291745245
-0.2888025641 -0.1912310123 0.5967611074 4289508283
-0.2888793647 -0.1906186491 0.5969197750 4287928481
-0.2889559567 -0.1900057942 0.5970780849 4287599516
-0.2886134684 -0.1891179830 0.5963703990 4288388773
-0.2891085744 -0.1887786388 0.5973933935 4288322980
-0.2887654305 -0.1878916323 0.5966843963 4288520357
-0.2888410985 -0.1872777343 0.5968407393 4288783529
-0.2884972394 -0.1863924414 0.5961301923 4289309873
-0.2885723710 -0.1857784688 0.5962854624 4289441459
-0.2886472940 -0.1851640195 0.5964403152 4289375152
-0.2887220383 -0.1845490932 0.5965946913 4288848808
-0.2883767784 -0.1836663485 0.5958812833 4287664534
-0.2884509861 -0.1830513626 0.5960345864 4287335569
-0.2885249555 -0.1824359000 0.5961874723 4287072396
-0.2885987163 -0.1818199754 0.5963398814 4286940810
-0.2890924811 -0.1814673245 0.5973601341 4286940808
-0.2891659141 -0.1808495522 0.5975119472 4287072394
-0.2892391682 -0.1802313179 0.5976632833 4287138441
-0.2888916731 -0.1793515384 0.5969452262 4287072648
-0.2885437608 -0.1784731001 0.5962263346 4287138187
-0.2877747118 -0.1773367226 0.5946372151 4286809222
-0.2874258459 -0.1764618605 0.5939162970 4286742918
-0.2870765328 -0.1755883247 0.5931945443 4286150781
-0.2871478498 -0.1749726981 0.5933419466 4286874505
-0.2872189581 -0.1743566245 0.5934888721 4286742919
-0.2872898579 -0.1737400889 0.5936353207 4284637545
-0.2873605192 -0.1731230915 0.5937813520 4282203204
-0.2874309719 -0.1725056469 0.5939269662 4281808703
-0.2875012159 -0.1718877405 0.5940721035 4281282359
-0.2875712514 -0.1712693870 0.5942167640 4281150773
-0.2880628109 -0.1709008068 0.5952324867 4281282359
-0.2881324887 -0.1702806354 0.5953764915 4281348152
-0.2877799869 -0.1694116145 0.5946481228 4281216566
-0.2878491282 -0.1687914729 0.5947909951 4281019187
-0.2870737016 -0.1676777005 0.5931887031 4280953394
-0.2871422172 -0.1670584828 0.5933302641 4280953394
-0.2867881358 -0.1661940515 0.5925986171 4280887601
-0.2868560851 -0.1655748487 0.5927390456 4280887601
-0.2869238257 -0.1649552137 0.5928789973 4280887601
-0.2865686715 -0.1640931219 0.5921451449 4280887601
-0.2857903242 -0.1629913002 0.5905368328 4280887601
-0.2850113511 -0.1618927121 0.5889272094 4280953394
-0.2842317820 -0.1607973427 0.5873163342 4280953394
-0.2834515870 -0.1597052068 0.5857042074 4281348152
-0.2818893790 -0.1575306505 0.5824761391 4281545531
-0.2806839943 -0.1562126428 0.5799854398 4281808703
-0.2807481587 -0.1556037962 0.5801180601 4281743680
-0.2799650133 -0.1545269787 0.5784997940 4281612094
-0.2796048820 -0.1536862999 0.5777556896 4281348922
-0.2792443633 -0.1528470218 0.5770106912 4281085750
-0.2789460123 -0.1514028907 0.5763942003 4280954164
-0.2785843313 -0.1505670100 0.5756468773 4281283131
-0.2782222629 -0.1497325599 0.5748987198 4281151545
-0.2733565569 -0.1307968050 0.5648445487 4280690224
-0.2739999592 -0.1285884082 0.5661740303 4281216820
-0.2754413486 -0.1273677647 0.5691524744 4281151545
-0.2834948003 -0.1213288978 0.5857934952 4281348670
-0.2852590084 -0.1214290336 0.5894389749 4283059288
-0.2844532430 -0.1204329729 0.5877739787 4283388253
-0.2857892811 -0.1203425005 0.5905346274 4282270285
-0.2862684131 -0.1198870391 0.5915247202 4281151804
-0.2880333364 -0.1199648902 0.5951715708 4280559668
-0.2889411747 -0.1196796447 0.5970475674 4281217598
-0.2881839871 -0.1180427670 0.5954828858 4282138700
-0.2903783023 -0.1182749122 0.6000170708 4284442224
-0.2917150855 -0.1181496829 0.6027793288 4291153110
-0.2873432934 -0.1913636327 0.5951115489 4292600554
-0.2874200046 -0.1907533407 0.5952704549 4291153108
-0.2874965072 -0.1901425421 0.5954288840 4289507513
-0.2879908085 -0.1898067445 0.5964525938 4288257446
-0.2876489162 -0.1889194995 0.5957444906 4287336085
-0.2873066068 -0.1880335510 0.5950355530 4287336085
-0.2873821557 -0.1874217093 0.5951920748 4288322978
-0.2874575257 -0.1868093908 0.5953481793 4288783529
-0.2871141434 -0.1859255582 0.5946369767 4288980908
-0.2871890068 -0.1853131652 0.5947920084 4288783529
-0.2872636318 -0.1847002953 0.5949465632 4289111980
-0.2873380482 -0.1840869486 0.5951007009 4289243566
-0.2874122560 -0.1834731251 0.5952544212 4289243565
-0.2870672047 -0.1825922579 0.5945397019 4289177772
-0.2871408761 -0.1819783896 0.5946923494 4289308845
-0.2876336575 -0.1816288084 0.5957129002 4289308845
-0.2877070308 -0.1810130924 0.5958648324 4289243052
-0.2877801955 -0.1803968996 0.5960164070 4288979880
-0.2878531218 -0.1797802448 0.5961674452 4288651428
-0.2875061333 -0.1789019406 0.5954488516 4288388256
-0.2871587276 -0.1780249774 0.5947293043 4288322463
-0.2868109047 -0.1771493554 0.5940089226 4288388256
-0.2860426009 -0.1760165989 0.5924177170 4288256158
-0.2861139774 -0.1754021198 0.5925655365 4287269263
-0.2861851156 -0.1747871935 0.5927128792 4286413954
-0.2862560153 -0.1741717905 0.5928597450 4285361266
-0.2863267362 -0.1735559404 0.5930061936 4283387989
-0.2863972187 -0.1729396433 0.5931521654 4281677371
-0.2864674926 -0.1723228842 0.5932977200 4281479738
-0.2865375578 -0.1717056632 0.5934427977 4281348152
-0.2866074145 -0.1710879952 0.5935874581 4281282359
-0.2875189483 -0.1709705293 0.5954753757 4281216566
-0.2875885665 -0.1703501493 0.5956195593 4281282359
-0.2872367799 -0.1694808155 0.5948909521 4281282359
-0.2873058617 -0.1688604355 0.5950340033 4281019187
-0.2869533300 -0.1679929346 0.5943039060 4280887601
-0.2861789167 -0.1668810248 0.5927000642 4281150773
-0.2858254611 -0.1660171896 0.5919679999 4281084980
-0.2858932316 -0.1653986871 0.5921083689 4281019189
-0.2859607935 -0.1647797525 0.5922483206 4280887603
-0.2860281467 -0.1641603708 0.5923877954 4280756017
-0.2852513194 -0.1630581319 0.5907788873 4280690224
-0.2840518355 -0.1617188156 0.5882946253 4280756017
-0.2836958468 -0.1608633250 0.5875573754 4280756017
-0.2829171717 -0.1597707719 0.5859447122 4280690222
-0.2821379006 -0.1586814672 0.5843307376 4280690222
-0.2817804515 -0.1578320265 0.5835904479 4280887601
-0.2810000479 -0.1567482799 0.5819742084 4281150773
-0.2810643315 -0.1561373770 0.5821073651 4281414715
-0.2807056606 -0.1552921981 0.5813645124 4281677887
-0.2799237370 -0.1542154700 0.5797450542 4281809475
-0.2795641124 -0.1533740461 0.5790002346 4281941061
-0.2776363790 -0.1503998339 0.5750077367 4281283131
-0.2772749662 -0.1495659947 0.5742591619 4280954166
-0.2777599394 -0.1491884291 0.5752636194 4281085752
-0.2769743502 -0.1481291354 0.5736365914 4281217338
-0.2757645845 -0.1468475610 0.5711310506 4280954166
-0.2758250833 -0.1462450922 0.5712563992 4280822580
-0.2746140361 -0.1449710578 0.5687482357 4280559404
-0.2746738493 -0.1443705708 0.5688720345 4280493611
-0.2738854587 -0.1433259547 0.5672392845 4280625197
-0.2726782858 -0.1326547712 0.5647391081 4281545280
-0.2732686400 -0.1310555041 0.5659617782 4280164650
-0.2733231485 -0.1304526925 0.5660746694 4280558636
-0.2733774483 -0.1298495382 0.5661871433 4280295464
-0.2730056047 -0.1290446967 0.5654169917 4280821808
-0.2730593681 -0.1284417659 0.5655283332 4281084980
-0.2722607255 -0.1274396032 0.5638743043 4283520093
-0.2740184665 -0.1276318133 0.5675147772 4285757055
-0.2792367935 -0.1236368269 0.5783223510 4282729809
-0.2797155976 -0.1232051626 0.5793139935 4282335051
-0.2806729376 -0.1223351061 0.5812966824 4281875014
-0.2825357020 -0.1211965829 0.5851546526 4283190874
-0.2830647230 -0.1201207712 0.5862502456 4283125335
-0.2843981385 -0.1200321764 0.5890118480 4281875268
-0.2853040099 -0.1197579950 0.5908880234 4281677889
-0.2857821286 -0.1193010658 0.5918782353 4281546563
-0.2866880298 -0.1190195382 0.5937544107 4281809735
-0.2863100767 -0.1182037964 0.5929716825 4281678149
-0.2889280319 -0.1186197624 0.5983936191 4281612356
-0.2903121114 -0.1178519130 0.6012601852 4291481305
-0.2859635949 -0.1908838600 0.5936195850 4293258484
-0.2860399783 -0.1902751327 0.5937781334 4292666347
-0.2861161828 -0.1896659136 0.5939363241 4291876061
-0.2866093814 -0.1893317997 0.5949600935 4290625994
-0.2866852582 -0.1887207180 0.5951176882 4289573047
-0.2859261334 -0.1875615418 0.5935418606 4288125601
-0.2860014141 -0.1869512647 0.5936980844 4288059806
-0.2860764861 -0.1863405257 0.5938538909 4288257185
-0.2861513197 -0.1857292950 0.5940092802 4288915115
-0.2858081460 -0.1848473400 0.5932968855 4289112494
-0.2858824730 -0.1842360497 0.5934511423 4289177773
-0.2859565914 -0.1836242825 0.5936050415 4289177773
-0.2860305011 -0.1830120385 0.5937584639 4288190875
-0.2861042321 -0.1823993176 0.5939114690 4287861910
-0.2861777246 -0.1817861348 0.5940640569 4287861399
-0.2862510085 -0.1811724752 0.5942162275 4287927192
-0.2867426872 -0.1808223128 0.5952368379 4287861400
-0.2868156731 -0.1802068055 0.5953883529 4287664021
-0.2864696085 -0.1793286651 0.5946699977 4287335315
-0.2865420580 -0.1787131280 0.5948203802 4287006350
-0.2861952484 -0.1778367460 0.5941004753 4286808971
-0.2854289114 -0.1767022312 0.5925096273 4286743178
-0.2850811481 -0.1758294255 0.5917877555 4286282370
-0.2847329974 -0.1749579608 0.5910649896 4286150784
-0.2848038375 -0.1743446290 0.5912120938 4285756024
-0.2848744690 -0.1737308204 0.5913587213 4284966508
-0.2849448919 -0.1731165648 0.5915049314 4283453782
-0.2854348719 -0.1727559119 0.5925220251 4282203715
-0.2855049670 -0.1721398383 0.5926675200 4282532426
-0.2855748534 -0.1715233177 0.5928125978 4282532426
-0.2856445014 -0.1709063351 0.5929571986 4282137668
-0.2861341238 -0.1705393344 0.5939735770 4281545531
-0.2866237164 -0.1701700687 0.5949898958 4281348152
-0.2862725556 -0.1693013161 0.5942609310 4281479738
-0.2859209776 -0.1684339345 0.5935311317 4281282359
-0.2859895527 -0.1678147167 0.5936734676 4281216566
-0.2856372297 -0.1669491827 0.5929421186 4281084982
-0.2852844894 -0.1660850197 0.5922098756 4281084982
-0.2849313319 -0.1652222574 0.5914767385 4281084982
-0.2849987149 -0.1646039933 0.5916166306 4281019189
-0.2850658894 -0.1639853120 0.5917561054 4280953396
-0.2842904925 -0.1628835648 0.5901464820 4280953396
-0.2835144997 -0.1617850512 0.5885356069 4280887603
-0.2831592262 -0.1609292328 0.5877981186 4280756017
-0.2828035653 -0.1600748301 0.5870597959 4280821808
-0.2820259035 -0.1589841843 0.5854454637 4280887601
-0.2816692889 -0.1581335068 0.5847052336 4280821808
-0.2813122869 -0.1572842449 0.5839641094 4280690222
-0.2817985415 -0.1569061726 0.5849735141 4280690992
-0.2805970013 -0.1555899680 0.5824792385 4280822578
-0.2802387178 -0.1547449678 0.5817355514 4281085752
-0.2781914771 -0.1529728621 0.5774857402 4281414717
-0.2778944373 -0.1515276432 0.5768691897 4282072647
-0.2775342464 -0.1506911367 0.5761214495 4282138440
-0.2775961459 -0.1500844955 0.5762499571 4281875268
-0.2768126130 -0.1490224153 0.5746234655 4281348924
-0.2764511704 -0.1481902152 0.5738731623 4280888373
-0.2760893404 -0.1473594755 0.5731220245 4280888373
-0.2733090520 -0.1439844370 0.5673505664 4280559404
-0.2720988691 -0.1427193135 0.5648384094 4280559404
-0.2721576989 -0.1421224624 0.5649605393 4280296232
-0.2699062526 -0.1378341466 0.5602868795 4280361776
-0.2717396319 -0.1325029284 0.5640926957 4283519325
-0.2722193003 -0.1321089566 0.5650883913 4281019191
-0.2726989090 -0.1317127496 0.5660839677 4279901476
-0.2727535963 -0.1311100870 0.5661975145 4280230441
-0.2728080750 -0.1305070519 0.5663105845 4280032292
-0.2728623152 -0.1299036741 0.5664231777 4280295464
-0.2729163170 -0.1292999238 0.5665352941 4280756017
-0.2729700804 -0.1286958158 0.5666469336 4280953396
-0.2725983560 -0.1278918236 0.5658752918 4282993749
-0.2726515830 -0.1272879541 0.5659857392 4285559676
-0.2748317719 -0.1276718974 0.5705115199 4286875795
-0.2748849690 -0.1270626038 0.5706219077 4287402139
-0.2745122910 -0.1262571961 0.5698482990 4287270040
-0.2754162848 -0.1260377467 0.5717248917 4287401626
-0.2758946121 -0.1256203055 0.5727178454 4287137940
-0.2755211890 -0.1248148084 0.5719426274 4285953666
-0.2777028978 -0.1251626462 0.5764715075 4282664016
-0.2790331542 -0.1251186430 0.5792329907 4281348156
-0.2787112594 -0.1236886457 0.5785647631 4282992981
-0.2791891694 -0.1232568175 0.5795568824 4282598223
-0.2796670198 -0.1228227466 0.5805488229 4281216570
-0.2797183990 -0.1222001612 0.5806554556 4281084982
-0.2797695100 -0.1215772256 0.5807615519 4282203463
-0.2806735039 -0.1213227138 0.5826381445 4282862163
-0.2815775573 -0.1210640594 0.5845147967 4283914851
-0.2820549905 -0.1206187829 0.5855058432 4283059542
-0.2821055055 -0.1199897379 0.5856107473 4282335819
-0.2838632464 -0.1200826541 0.5892595649 4282138440
-0.2847674489 -0.1198083684 0.5911365747 4282335819
-0.2852447033 -0.1193512678 0.5921272635 4281677636
-0.2844406068 -0.1183587760 0.5904580951 4281348671
-0.2857717574 -0.1182535663 0.5932213664 4281480256
-0.2871031165 -0.1181423068 0.5959850550 4281480256
-0.2880073488 -0.1178501248 0.5978621244 4285033589
-0.2910485566 -0.1184232756 0.6041752100 4292270819
-0.2847383618 -0.1891887635 0.5924420953 4293126896
-0.2852304578 -0.1888563335 0.5934659839 4292732138
-0.2848895490 -0.1879720092 0.5927566886 4292073694
-0.2849648297 -0.1873629093 0.5929133296 4291284178
-0.2850399017 -0.1867533326 0.5930694938 4290297283
-0.2846979499 -0.1858711392 0.5923579931 4289573560
-0.2847725153 -0.1852614880 0.5925131440 4289113009
-0.2844297886 -0.1843810081 0.5918000937 4289047216
-0.2845038176 -0.1837712973 0.5919541121 4289244080
-0.2845776677 -0.1831611097 0.5921077132 4289309873
-0.2846512794 -0.1825504452 0.5922608972 4289572531
-0.2847246826 -0.1819393188 0.5924136639 4289769910
-0.2847979069 -0.1813277006 0.5925659537 4289769910
-0.2852886021 -0.1809806079 0.5935869217 4289704117
-0.2853614688 -0.1803671569 0.5937386155 4289638324
-0.2854341567 -0.1797532439 0.5938898325 4289506738
-0.2855066359 -0.1791388690 0.5940405726 4289309105
-0.2851607502 -0.1782626361 0.5933209658 4289111726
-0.2848144770 -0.1773877293 0.5926004648 4289177519
-0.2844677567 -0.1765141785 0.5918790698 4288914347
-0.2841206193 -0.1756419539 0.5911567807 4288716968
-0.2837730646 -0.1747710854 0.5904336572 4288388003
-0.2838437557 -0.1741584390 0.5905807018 4287532694
-0.2839142084 -0.1735453308 0.5907273293 4286480006
-0.2839844525 -0.1729317605 0.5908734798 4285558904
-0.2844734490 -0.1725718975 0.5918908715 4284703595
-0.2845433652 -0.1719565094 0.5920363665 4284243816
-0.2846130431 -0.1713406891 0.5921813846 4284178023
-0.2851018012 -0.1709758341 0.5931982994 4283059542
-0.2855905592 -0.1706087142 0.5942152143 4281809475
-0.2856597900 -0.1699897051 0.5943592787 4281413947
-0.2853092551 -0.1691215485 0.5936299562 4281216568
-0.2853779793 -0.1685025543 0.5937729478 4281084980
-0.2850266993 -0.1676362306 0.5930420756 4281019187
-0.2850948870 -0.1670172662 0.5931838751 4281084980
-0.2847428620 -0.1661527902 0.5924514532 4281019187
-0.2843904197 -0.1652896851 0.5917181969 4281019187
-0.2836174071 -0.1641847491 0.5901097655 4281084980
-0.2841045856 -0.1638099849 0.5911234021 4280953394
-0.2833306193 -0.1627087444 0.5895130634 4280887601
-0.2829765081 -0.1618512124 0.5887762904 4280821808
-0.2826219797 -0.1609950811 0.5880386233 4280756015
-0.2822670341 -0.1601403505 0.5873000622 4280888373
-0.2819116712 -0.1592870355 0.5865607262 4280822580
-0.2815558910 -0.1584351212 0.5858204365 4280756787
-0.2807787359 -0.1573487222 0.5842034817 4280625201
-0.2812641263 -0.1569705158 0.5852134228 4280559408
-0.2788648605 -0.1543421894 0.5802214146 4280625201
-0.2793494165 -0.1539645791 0.5812295675 4280756787
-0.2794125080 -0.1533534080 0.5813608170 4280954166
-0.2777892351 -0.1518203020 0.5779833198 4281283131
-0.2774298489 -0.1509825438 0.5772355795 4281612096
-0.2770700753 -0.1501462311 0.5764870048 4282006854
-0.2775534987 -0.1497665644 0.5774928927 4282138440
-0.2767711878 -0.1487046033 0.5758651495 4282006854
-0.2764102519 -0.1478717029 0.5751141906 4281743682
-0.2735762596 -0.1450907141 0.5692176223 4281217336
-0.2732136548 -0.1442667991 0.5684632063 4280756785
-0.2728506625 -0.1434443593 0.5677078962 4280756787
-0.2724872530 -0.1426233649 0.5669517517 4280559408
-0.2712783217 -0.1413634717 0.5644363761 4280559408
-0.2711443007 -0.1381595433 0.5641575456 4280558640
-0.2752949297 -0.1364559829 0.5727935433 4288453547
-0.2720733285 -0.1329722255 0.5660905242 4284243562
-0.2725523114 -0.1325762421 0.5670871139 4281348670
-0.2726619840 -0.1313689351 0.5673152804 4279967017
-0.2731406093 -0.1309680939 0.5683111548 4280098603
-0.2723465264 -0.1299577355 0.5666589737 4279769638
-0.2724004686 -0.1293537617 0.5667712092 4280361775
-0.2728785574 -0.1289499700 0.5677659512 4280230189
-0.2729321420 -0.1283443272 0.5678774118 4280163880
-0.2729854882 -0.1277383417 0.5679883957 4280032294
-0.2743124962 -0.1277251393 0.5707494617 4280032294
-0.2743656039 -0.1271156073 0.5708599687 4280361259
-0.2744185030 -0.1265057325 0.5709700584 4280229673
-0.2744711637 -0.1258955002 0.5710796118 4279966501
-0.2753734887 -0.1256727874 0.5729570389 4279900706
-0.2758508921 -0.1252529472 0.5739503503 4279966499
-0.2763282061 -0.1248308793 0.5749434829 4280098085
-0.2755298316 -0.1238332614 0.5732823610 4280624429
-0.2786621153 -0.1233084202 0.5797995329 4281875268
-0.2791904211 -0.1222513542 0.5808987021 4281940807
-0.2792414725 -0.1216281801 0.5810049772 4282861909
-0.2801437974 -0.1213735789 0.5828824043 4282006600
-0.2806203663 -0.1209313273 0.5838739872 4281743428
-0.2810968459 -0.1204868332 0.5848653316 4282401358
-0.2819992006 -0.1202217042 0.5867428780 4282269772
-0.2824755609 -0.1197717711 0.5877340436 4282138700
-0.2829518318 -0.1193195954 0.5887249708 4282138700
-0.2847066522 -0.1194014177 0.5923761129 4281283391
-0.2847566605 -0.1187641025 0.5924801826 4281414977
-0.2856591344 -0.1184801310 0.5943579078 4281480770
-0.2865616679 -0.1181920022 0.5962357521 4281217598
-0.2878907323 -0.1180746406 0.5990011096 4285823359
-0.2835136652 -0.1874974817 0.5912602544 4293390068
-0.2831728160 -0.1866159290 0.5905494690 4293061103
-0.2832474709 -0.1860088110 0.5907051563 4292731624
-0.2833219469 -0.1854012311 0.5908604264 4292139487
-0.2829800546 -0.1845218092 0.5901474357 4291481557
-0.2834702432 -0.1841846108 0.5911697149 4291021006
-0.2835440934 -0.1835755855 0.5913237333 4290823627
-0.2836177349 -0.1829660982 0.5914772749 4290757834
-0.2836911678 -0.1823561192 0.5916304588 4290691012
-0.2837643921 -0.1817456782 0.5917831659 4290625219
-0.2838374078 -0.1811347604 0.5919353962 4290559426
-0.2839102149 -0.1805233657 0.5920872688 4290493633
-0.2843998075 -0.1801756918 0.5931082964 4290493633
-0.2844723165 -0.1795624644 0.5932595134 4290559426
-0.2845445871 -0.1789487749 0.5934102535 4290493379
-0.2841993272 -0.1780731231 0.5926902294 4290361793
-0.2842710912 -0.1774594039 0.5928398967 4290559172
-0.2835075557 -0.1763258427 0.5912475586 4290230207
-0.2835786939 -0.1757129878 0.5913958549 4289967035
-0.2832318544 -0.1748418063 0.5906725526 4289703863
-0.2833024263 -0.1742289364 0.5908197761 4288980140
-0.2833728194 -0.1736156046 0.5909665227 4287795866
-0.2834429741 -0.1730018258 0.5911128521 4286545801
-0.2839311063 -0.1726418585 0.5921308398 4285361527
-0.2835826874 -0.1717729121 0.5914041996 4285033332
-0.2840705812 -0.1714102179 0.5924217105 4284770160
-0.2841399908 -0.1707937121 0.5925664306 4283717472
-0.2842091620 -0.1701767594 0.5927107334 4282664784
-0.2842781544 -0.1695593596 0.5928545594 4282138440
-0.2843469083 -0.1689414978 0.5929979682 4281677889
-0.2844154537 -0.1683232039 0.5931409001 4281348154
-0.2836458087 -0.1672104895 0.5915358663 4280953396
-0.2841328084 -0.1668391973 0.5925514698 4281216566
-0.2837814093 -0.1659753025 0.5918186307 4281150773
-0.2834295928 -0.1651128083 0.5910849571 4281084980
-0.2830773592 -0.1642517000 0.5903503895 4280953394
-0.2835636735 -0.1638768166 0.5913645625 4280821808
-0.2823716700 -0.1625336409 0.5888786316 4280821808
-0.2820181847 -0.1616767049 0.5881415009 4280887601
-0.2816642821 -0.1608211845 0.5874034166 4281019187
-0.2813099623 -0.1599670500 0.5866644979 4280756787
-0.2813751996 -0.1593521684 0.5868005753 4280822580
-0.2814401984 -0.1587368548 0.5869361162 4280888373
-0.2802445292 -0.1574131101 0.5844425559 4280888373
-0.2807290554 -0.1570347995 0.5854530334 4280822580
-0.2799524963 -0.1559517235 0.5838335752 4280690994
-0.2795957923 -0.1551051736 0.5830897093 4280690994
-0.2792386711 -0.1542600244 0.5823448896 4280690994
-0.2793017924 -0.1536477208 0.5824764967 4280362029
-0.2785232067 -0.1525740325 0.5808528066 4280559408
-0.2773232162 -0.1512740850 0.5783502460 4280756787
-0.2765433192 -0.1502079070 0.5767238140 4281085752
-0.2770259082 -0.1498281211 0.5777301788 4281414717
-0.2749817967 -0.1480854154 0.5734672546 4281743682
-0.2746213377 -0.1472549587 0.5727155209 4282072647
-0.2738391757 -0.1462010443 0.5710843801 4282138440
-0.2734777927 -0.1453744322 0.5703307390 4281677885
-0.2726945579 -0.1443262100 0.5686973333 4281348920
-0.2727538347 -0.1437256038 0.5688209534 4281019957
-0.2703412771 -0.1412014961 0.5637896061 4280625199
-0.2699775398 -0.1403859258 0.5630310178 4280756785
-0.2700352967 -0.1397902668 0.5631514788 4280559406
-0.2696708441 -0.1389767379 0.5623914003 4280493613
-0.2701501846 -0.1385978162 0.5633910894 4280362029
-0.2718960941 -0.1388635188 0.5670321584 4280362029
-0.2724327147 -0.1378750801 0.5681512952 4287467419
-0.2729120851 -0.1374852955 0.5691509247 4289835968
-0.2742364705 -0.1375170648 0.5719129443 4290428105
-0.2738706172 -0.1366990060 0.5711499453 4289967554
-0.2743498087 -0.1363024861 0.5721492767 4286414732
-0.2744061351 -0.1356946379 0.5722667575 4281085498
-0.2757309377 -0.1357108653 0.5750295520 4282861909
-0.2749410868 -0.1346850395 0.5733823776 4283519839
-0.2733045220 -0.1332500577 0.5699693561 4281217084
-0.2726226151 -0.1310225129 0.5685473084 4280295982
-0.2722534835 -0.1302142739 0.5677775145 4280098603
-0.2723074853 -0.1296091229 0.5678900480 4280493361
-0.2723612189 -0.1290036142 0.5680021644 4280493361
-0.2715674043 -0.1279983670 0.5663467050 4280821810
-0.2737392485 -0.1283877492 0.5708760023 4280690224
-0.2737925649 -0.1277783364 0.5709871650 4280756017
-0.2742695212 -0.1273654252 0.5719819069 4280887603
-0.2738984525 -0.1265584528 0.5712080002 4280887603
-0.2739510536 -0.1259479821 0.5713177323 4280756017
-0.2748517394 -0.1257252097 0.5731960535 4280756017
-0.2749040127 -0.1251121461 0.5733050704 4280821810
-0.2762290239 -0.1250751168 0.5760683417 4280756017
-0.2758566737 -0.1242673323 0.5752918720 4280953396
-0.2771818638 -0.1242220327 0.5780554414 4281480510
-0.2772336006 -0.1236028373 0.5781633854 4282138440
-0.2772850990 -0.1229832992 0.5782707930 4282072647
-0.2777610719 -0.1225508004 0.5792633891 4281612096
-0.2782369554 -0.1221160665 0.5802558661 4280756533
-0.2791376412 -0.1218645722 0.5821341872 4279967017
-0.2796134353 -0.1214243919 0.5831264257 4279309087
-0.2796641290 -0.1207983941 0.5832321644 4280888119
-0.2801396549 -0.1203546822 0.5842238665 4282401871
-0.2810402811 -0.1200904101 0.5861020684 4282336078
-0.2819409668 -0.1198219880 0.5879804492 4282270285
-0.2824163735 -0.1193696409 0.5889719129 4282336078
-0.2833170891 -0.1190938726 0.5908502936 4281151551
-0.2833668888 -0.1184582189 0.5909541845 4281217344
-0.2859697640 -0.1188836917 0.5963823795 4281414977
-0.2872963846 -0.1187695041 0.5991490483 4281283391
-0.2864947319 -0.1177742556 0.5974771976 4286349449
-0.2815332413 -0.1846584380 0.5884932280 4293390582
-0.2816070914 -0.1840528548 0.5886476040 4293126128
-0.2816807330 -0.1834467798 0.5888015628 4292731370
-0.2821697295 -0.1831099093 0.5898237228 4292533991
-0.2822430730 -0.1825020015 0.5899770260 4292402405
-0.2823162079 -0.1818936020 0.5901299119 4292073179
-0.2828050256 -0.1815517396 0.5911516547 4291875800
-0.2828778327 -0.1809415072 0.5913038850 4291678423
-0.2829504609 -0.1803308129 0.5914556980 4291546837
-0.2830228806 -0.1797196418 0.5916070342 4291349458
-0.2835114002 -0.1793714017 0.5926281810 4291152079
-0.2835834920 -0.1787583977 0.5927789211 4290888907
-0.2832388282 -0.1778833270 0.5920585394 4290625735
-0.2828937769 -0.1770095974 0.5913372040 4290493379
-0.2829650342 -0.1763969958 0.5914861560 4290230207
-0.2826192379 -0.1755250543 0.5907633305 4289638072
-0.2826899588 -0.1749124378 0.5909112096 4288651177
-0.2827604711 -0.1742993593 0.5910585523 4287203731
-0.2828307748 -0.1736858189 0.5912055373 4285887871
-0.2829008698 -0.1730718315 0.5913520455 4284966769
-0.2829707563 -0.1724573821 0.5914980769 4284308839
-0.2830404043 -0.1718424708 0.5916436911 4284375402
-0.2831098437 -0.1712271273 0.5917888880 4284178023
-0.2831790745 -0.1706113070 0.5919336081 4283585886
-0.2832480967 -0.1699950546 0.5920778513 4282993749
-0.2833169103 -0.1693783402 0.5922216773 4282467405
-0.2829675078 -0.1685122699 0.5914913416 4281941061
-0.2830357850 -0.1678955704 0.5916340351 4281612096
-0.2831038237 -0.1672784388 0.5917762518 4281348924
-0.2827533782 -0.1664146781 0.5910437107 4281414715
-0.2824025154 -0.1655522883 0.5903103352 4281414715
-0.2824696898 -0.1649356484 0.5904507637 4281413945
-0.2821181118 -0.1640751362 0.5897157788 4281216566
-0.2821847498 -0.1634585261 0.5898551345 4281150773
-0.2818324268 -0.1625998765 0.5891186595 4281084980
-0.2814796567 -0.1617426276 0.5883812904 4281019187
-0.2811264992 -0.1608867794 0.5876430273 4281084980
-0.2811919749 -0.1602711827 0.5877798796 4281151545
-0.2808380723 -0.1594172269 0.5870401263 4281019959
-0.2809030116 -0.1588017046 0.5871759057 4280822580
-0.2805483639 -0.1579496413 0.5864346027 4280690994
-0.2806127667 -0.1573341787 0.5865691900 4280690994
-0.2798378468 -0.1562497765 0.5849493742 4280756787
-0.2794819772 -0.1554019749 0.5842055082 4280756787
-0.2791256905 -0.1545556039 0.5834607482 4280756787
-0.2783491611 -0.1534791589 0.5818375349 4280690994
-0.2775720060 -0.1524059922 0.5802130699 4280625201
-0.2784743607 -0.1522546858 0.5820992589 4280625201
-0.2760159373 -0.1502695084 0.5769603848 4280625201
-0.2760774195 -0.1496618092 0.5770888925 4280756787
-0.2761386931 -0.1490536779 0.5772169828 4281019959
-0.2753589451 -0.1479932815 0.5755870342 4281283131
-0.2749990821 -0.1471611857 0.5748348236 4281546303
-0.2725359201 -0.1452101022 0.5696860552 4282270022
-0.2700714469 -0.1432697624 0.5645344853 4281941057
-0.2705509663 -0.1428958029 0.5655368567 4281480506
-0.2697679102 -0.1418556720 0.5639000535 4280954162
-0.2702471018 -0.1414800137 0.5649017096 4280690992
-0.2698841691 -0.1406632066 0.5641430616 4280625199
-0.2699419856 -0.1400664002 0.5642638803 4280559406
-0.2704207897 -0.1396867782 0.5652647018 4280625199
-0.2704782188 -0.1390882730 0.5653848052 4280493615
-0.2709568441 -0.1387051046 0.5663852692 4280690994
-0.2722783983 -0.1387492418 0.5691477060 4280427822
-0.2745578587 -0.1379978508 0.5739125013 4282927702
-0.2741929293 -0.1371776164 0.5731496811 4282335565
-0.2746714056 -0.1367790848 0.5741499066 4281151291
-0.2747278512 -0.1361691356 0.5742678642 4281480256
-0.2756282389 -0.1359752864 0.5761500001 4282467151
-0.2752622068 -0.1351554096 0.5753848553 4282862163
-0.2719399035 -0.1328925639 0.5684401989 4281414717
-0.2720495164 -0.1316824704 0.5686693192 4280888373
-0.2721039951 -0.1310768723 0.5687831640 4280559408
-0.2721582353 -0.1304709017 0.5688965321 4280888373
-0.2722122371 -0.1298645884 0.5690094233 4280954166
-0.2718432248 -0.1290571988 0.5682380795 4280690994
-0.2714738250 -0.1282513291 0.5674659014 4281085752
-0.2715269625 -0.1276458204 0.5675770044 4280822580
-0.2728489339 -0.1276335865 0.5703403354 4280954166
-0.2737480700 -0.1274184138 0.5722198486 4280954166
-0.2738009393 -0.1268071234 0.5723302960 4281085752
-0.2739059627 -0.1255834699 0.5725498199 4281216568
-0.2752284110 -0.1255505830 0.5753141642 4281479740
-0.2748570442 -0.1247428283 0.5745379329 4281742912
-0.2761796713 -0.1247016639 0.5773025751 4281874498
-0.2762314975 -0.1240835339 0.5774109960 4281809475
-0.2767068744 -0.1236544102 0.5784046054 4281809475
-0.2767583132 -0.1230346337 0.5785121322 4281085752
-0.2772334218 -0.1226019785 0.5795052648 4280033064
-0.2777084410 -0.1221670806 0.5804982781 4279309087
-0.2777593434 -0.1215443686 0.5806046128 4279177501
-0.2786582410 -0.1212905422 0.5824836493 4279045915
-0.2804056704 -0.1213998944 0.5861362815 4280756533
-0.2808805704 -0.1209531575 0.5871289968 4282401871
-0.2809310257 -0.1203224212 0.5872344375 4282270285
-0.2818301022 -0.1200529560 0.5891138315 4282007113
-0.2835782766 -0.1201390326 0.5927680731 4282401871
-0.2827792466 -0.1191437691 0.5910978317 4281480516
-0.2849523723 -0.1193975657 0.5956403017 4280822586
-0.2841527462 -0.1184025779 0.5939688683 4280822840
-0.2863263190 -0.1186432838 0.5985123515 4281480770
-0.2872257233 -0.1183488816 0.6003923416 4287007379
-0.2820767760 -0.1755958200 0.5910015106 4291810011
-0.2817312777 -0.1747249067 0.5902776718 4291415253
-0.2818016112 -0.1741125137 0.5904250145 4290691530
-0.2818717360 -0.1734996736 0.5905719399 4289309877
-0.2819416523 -0.1728863716 0.5907183886 4287599259
-0.2820113301 -0.1722726226 0.5908644199 4286020227
-0.2820808291 -0.1716584116 0.5910099745 4284967285
-0.2821500897 -0.1710437387 0.5911551118 4284638320
-0.2818022668 -0.1701768935 0.5904263854 4284112230
-0.2818709910 -0.1695622355 0.5905703902 4283717472
-0.2819395363 -0.1689471304 0.5907139778 4283322714
-0.2820078135 -0.1683315635 0.5908570886 4282730577
-0.2816586494 -0.1674674749 0.5901254416 4282204233
-0.2817264199 -0.1668519378 0.5902674198 4281743682
-0.2813764811 -0.1659896821 0.5895342827 4281480510
-0.2814437151 -0.1653741747 0.5896751881 4281348924
-0.2815107405 -0.1647582203 0.5898156166 4281217336
-0.2811597884 -0.1638983041 0.5890802145 4281151543
-0.2812262475 -0.1632823944 0.5892195106 4281217336
-0.2804565728 -0.1621826440 0.5876069069 4281217336
-0.2805224359 -0.1615676880 0.5877448916 4281085750
-0.2805880606 -0.1609523147 0.5878823996 4280954164
-0.2802352011 -0.1600975394 0.5871430635 4280888373
-0.2798819244 -0.1592441946 0.5864029527 4280822580
-0.2799467146 -0.1586293578 0.5865386128 4280822580
-0.2800112665 -0.1580140889 0.5866738558 4280822580
-0.2792382836 -0.1569278687 0.5850543976 4280954166
-0.2788834572 -0.1560792476 0.5843109488 4280954166
-0.2785282135 -0.1552320421 0.5835666656 4280822580
-0.2781725526 -0.1543862671 0.5828214884 4280625201
-0.2790735960 -0.1542366892 0.5847092867 4280888373
-0.2770408988 -0.1524683535 0.5804504752 4280756787
-0.2754262686 -0.1509385854 0.5770674944 4280822580
-0.2759072185 -0.1505598724 0.5780751705 4280690994
-0.2751299143 -0.1494952291 0.5764465928 4280690994
-0.2751910388 -0.1488878131 0.5765746236 4280756787
-0.2735735476 -0.1473758519 0.5731857419 4280690994
-0.2744731903 -0.1472215652 0.5750706792 4280888373
-0.2707554698 -0.1445971578 0.5672813654 4280888371
-0.2708146870 -0.1439983547 0.5674054027 4281283129
-0.2704536915 -0.1431768239 0.5666490793 4281941059
-0.2705123723 -0.1425781548 0.5667720437 4282335817
-0.2697305381 -0.1415381730 0.5651339293 4281809473
-0.2693683505 -0.1407210678 0.5643751025 4281085750
-0.2694261074 -0.1401240379 0.5644960999 4280822580
-0.2699040174 -0.1397442967 0.5654974580 4280690994
-0.2703819275 -0.1393623054 0.5664986968 4280954166
-0.2708597481 -0.1389780641 0.5674998760 4280493615
-0.2713375688 -0.1385915726 0.5685009360 4282861909
-0.2722360790 -0.1384167671 0.5703834891 4284111976
-0.2727138698 -0.1380248517 0.5713845491 4284374634
-0.2749891579 -0.1372559816 0.5761516690 4282532430
-0.2750456929 -0.1366439313 0.5762701631 4281677889
-0.2751020193 -0.1360314935 0.5763881803 4281809475
-0.2713657320 -0.1335522830 0.5685599446 4281941061
-0.2722637355 -0.1333604306 0.5704414248 4281480510
-0.2723187804 -0.1327534616 0.5705567598 4281480510
-0.2711086869 -0.1315324306 0.5680214167 4281019959
-0.2711629868 -0.1309275478 0.5681352019 4280296236
-0.2712170780 -0.1303222924 0.5682485104 4280954166
-0.2712709606 -0.1297166944 0.5683614016 4281217338
-0.2713245749 -0.1291107237 0.5684737563 4280756787
-0.2713779807 -0.1285043955 0.5685856342 4281217338
-0.2718532979 -0.1280966103 0.5695814490 4280822580
-0.2723285258 -0.1276865900 0.5705771446 4281217338
-0.2728036940 -0.1272743195 0.5715727210 4281217338
-0.2732787728 -0.1268598139 0.5725681782 4281348924
-0.2737538218 -0.1264430583 0.5735633969 4281283131
-0.2733836770 -0.1256356984 0.5727879405 4281742912
-0.2738583982 -0.1252163351 0.5737825632 4281742912
-0.2747557461 -0.1249870360 0.5756626725 4281677889
-0.2743848562 -0.1241795644 0.5748855472 4281546303
-0.2765507102 -0.1245159954 0.5794234276 4281151291
-0.2770253420 -0.1240848228 0.5804178715 4280559154
-0.2762308717 -0.1230859160 0.5787532926 4279835431
-0.2767051160 -0.1226530969 0.5797469020 4279243294
-0.2776024640 -0.1224046275 0.5816270113 4279243294
-0.2776533663 -0.1217807233 0.5817336440 4279243294
-0.2781273425 -0.1213411689 0.5827267766 4279441186
-0.2790246606 -0.1210831106 0.5846068263 4280888632
-0.2790750861 -0.1204553321 0.5847124457 4282467664
-0.2808194757 -0.1205545366 0.5883672833 4282599250
-0.2817169726 -0.1202840135 0.5902476907 4282138699
-0.2826145291 -0.1200093478 0.5921282172 4282007113
-0.2826645374 -0.1193725765 0.5922330022 4281348930
-0.2831381857 -0.1189134866 0.5932253599 4281546309
-0.2840356529 -0.1186292022 0.5951057673 4282994009
-0.2845091820 -0.1181646660 0.5960978270 4285230971
-0.2854066789 -0.1178730205 0.5979782343 4289573560
-0.2808436751 -0.1739253998 0.5897904634 4291876063
-0.2809136212 -0.1733132452 0.5899373293 4290691789
-0.2809833586 -0.1727006435 0.5900837779 4289310136
-0.2810528576 -0.1720875800 0.5902297497 4287994276
-0.2811221778 -0.1714740545 0.5903753042 4286875795
-0.2811912596 -0.1708600968 0.5905203819 4285888900
-0.2808440626 -0.1699938327 0.5897912383 4284573040
-0.2804964483 -0.1691289246 0.5890612602 4283980903
-0.2805646956 -0.1685154289 0.5892045498 4283849317
-0.2806327343 -0.1679014862 0.5893474221 4283520352
-0.2807005346 -0.1672870815 0.5894898176 4282862420
-0.2803515494 -0.1664249599 0.5887569189 4282204490
-0.2804188430 -0.1658105850 0.5888982415 4282138440
-0.2800691128 -0.1649503112 0.5881637931 4281875268
-0.2801358700 -0.1643359810 0.5883039832 4281612096
-0.2802023888 -0.1637212038 0.5884436965 4281414717
-0.2798516452 -0.1628632694 0.5877071023 4281348924
-0.2795004547 -0.1620067358 0.5869696140 4281348924
-0.2791488767 -0.1611516029 0.5862312317 4281283129
-0.2792142332 -0.1605378389 0.5863685012 4281217336
-0.2792793810 -0.1599236429 0.5865052938 4280888373
-0.2793442905 -0.1593090147 0.5866416097 4280888373
-0.2789913416 -0.1584567428 0.5859004259 4280756787
-0.2790557146 -0.1578421891 0.5860356092 4280690994
-0.2791198790 -0.1572272032 0.5861703753 4280756787
-0.2787658870 -0.1563773453 0.5854269266 4280954166
-0.2788295150 -0.1557624340 0.5855605602 4281019959
-0.2776385248 -0.1544492841 0.5830594301 4280954166
-0.2772831917 -0.1536046267 0.5823131800 4280954166
-0.2773457766 -0.1529921591 0.5824446082 4280822580
-0.2769897282 -0.1521494389 0.5816968679 4280888373
-0.2757962346 -0.1508503407 0.5791904926 4280756787
-0.2758577764 -0.1502403319 0.5793197155 4280756787
-0.2750816941 -0.1491758078 0.5776898861 4280756787
-0.2726298869 -0.1472100765 0.5725409389 4280690994
-0.2726900280 -0.1466062665 0.5726672411 4280888373
-0.2719120085 -0.1455535144 0.5710332990 4280822580
-0.2694571316 -0.1436107010 0.5658779144 4280427822
-0.2716116309 -0.1441252083 0.5704025030 4280625201
-0.2708321214 -0.1430796385 0.5687654614 4281217338
-0.2700520158 -0.1420373917 0.5671272278 4281545533
-0.2701681256 -0.1408376843 0.5673710704 4281611326
-0.2702258527 -0.1402372569 0.5674923062 4281019189
-0.2711227536 -0.1400700957 0.5693758130 4280953396
-0.2715999782 -0.1396829188 0.5703780651 4280756017
-0.2716573179 -0.1390785277 0.5704984665 4281611326
-0.2725543380 -0.1389018148 0.5723822117 4282335049
-0.2726113796 -0.1382948011 0.5725020170 4283256151
-0.2739286125 -0.1383238584 0.5752683282 4283190358
-0.2731450200 -0.1372908354 0.5736227036 4282335049
-0.2748827040 -0.1375228614 0.5772719979 4280756017
-0.2745188773 -0.1367003024 0.5765079260 4281480510
-0.2745751441 -0.1360876411 0.5766260624 4281546303
-0.2721077502 -0.1342298239 0.5714443922 4281941061
-0.2734250128 -0.1342416257 0.5742107034 4281743682
-0.2739010453 -0.1338362545 0.5752104521 4281612096
-0.2714312673 -0.1319961101 0.5700237751 4281019959
-0.2714857161 -0.1313891113 0.5701380372 4280033064
-0.2715398967 -0.1307817549 0.5702518821 4280756787
-0.2715938687 -0.1301740259 0.5703652501 4281283131
-0.2716476023 -0.1295659393 0.5704780817 4280690994
-0.2729648352 -0.1295572966 0.5732443333 4281151291
-0.2721757293 -0.1285476834 0.5715871453 4280822326
-0.2722288370 -0.1279375702 0.5716987252 4281151291
-0.2727032304 -0.1275242120 0.5726949573 4281019705
-0.2727559805 -0.1269124448 0.5728057027 4281019959
-0.2732301354 -0.1264955401 0.5738015175 4280888373
-0.2728607655 -0.1256878674 0.5730258226 4281151291
-0.2733346224 -0.1252683550 0.5740209222 4280888119
-0.2738084197 -0.1248466074 0.5750159025 4280559154
-0.2738601267 -0.1242311895 0.5751245618 4280361775
-0.2751778066 -0.1241868362 0.5778917074 4280295982
-0.2769178152 -0.1243259609 0.5815458298 4280164396
-0.2765471637 -0.1235142872 0.5807675123 4279901224
-0.2770207226 -0.1230794042 0.5817619562 4279769638
-0.2770718038 -0.1224556118 0.5818692446 4279440673
-0.2775450945 -0.1220171824 0.5828632116 4279440673
-0.2775957882 -0.1213917509 0.5829696655 4279572772
-0.2797592282 -0.1216850430 0.5875130296 4281020218
-0.2789644599 -0.1206884310 0.5858439207 4282730836
-0.2802828848 -0.1206048355 0.5886127353 4282665043
-0.2807558775 -0.1201532707 0.5896060467 4282336078
-0.2816517055 -0.1198794544 0.5914872885 4283191387
-0.2825475335 -0.1196014807 0.5933686495 4284243822
-0.2839162648 -0.1188559234 0.5962430835 4290099653
-0.2843889892 -0.1183902472 0.5972358584 4291415513
-0.2794720829 -0.1734806001 0.5882821083 4291482075
-0.2795417309 -0.1728700399 0.5884287357 4290955731
-0.2796111703 -0.1722590327 0.5885748863 4290495180
-0.2796804011 -0.1716475785 0.5887206197 4289837250
-0.2797494233 -0.1710356623 0.5888659358 4289573308
-0.2798182070 -0.1704232991 0.5890107751 4288389034
-0.2794715464 -0.1695585400 0.5882810354 4286678416
-0.2795398235 -0.1689461768 0.5884247422 4285428349
-0.2796078920 -0.1683333814 0.5885680318 4284704626
-0.2796757221 -0.1677201241 0.5887108445 4284244075
-0.2797433734 -0.1671064198 0.5888531804 4283849317
-0.2793950140 -0.1662448943 0.5881199241 4283322973
-0.2794621289 -0.1656312197 0.5882611871 4282994006
-0.2791130543 -0.1647715420 0.5875263810 4282730834
-0.2791796029 -0.1641578972 0.5876665115 4282467662
-0.2788298130 -0.1633000970 0.5869301558 4282138697
-0.2784795761 -0.1624436826 0.5861929655 4281678146
-0.2785452902 -0.1618305594 0.5863313079 4281414974
-0.2781943381 -0.1609760225 0.5855925679 4281348924
-0.2782595456 -0.1603629589 0.5857297778 4281217338
-0.2783245146 -0.1597494632 0.5858665109 4281480510
-0.2779725194 -0.1588973105 0.5851255655 4281348924
-0.2780369520 -0.1582838744 0.5852612257 4281085752
-0.2781011462 -0.1576700062 0.5853963494 4280822580
-0.2781651616 -0.1570557207 0.5855310559 4280690994
-0.2778117955 -0.1562064737 0.5847872496 4280690994
-0.2774580121 -0.1553586423 0.5840426087 4280888373
-0.2771038413 -0.1545122415 0.5832970142 4280954166
-0.2763318121 -0.1534354836 0.5816719532 4281019959
-0.2759767175 -0.1525928676 0.5809245110 4280888373
-0.2747859955 -0.1512918323 0.5784180760 4280888373
-0.2756829858 -0.1511409432 0.5803062320 4280822580
-0.2740733922 -0.1496174783 0.5769180059 4280756787
-0.2728807032 -0.1483281851 0.5744073987 4280756787
-0.2737771273 -0.1481751502 0.5762943625 4280690994
-0.2734194696 -0.1473421156 0.5755415559 4280756787
-0.2718069553 -0.1458374411 0.5721471906 4280887603
-0.2697751820 -0.1441163719 0.5678704381 4280756017
-0.2715074420 -0.1444067508 0.5715167522 4280690224
-0.2711479962 -0.1435814202 0.5707601309 4280492845
-0.2691140473 -0.1418749690 0.5664787292 4280361257
-0.2691720426 -0.1412760317 0.5666007996 4280821808
-0.2700672746 -0.1411142498 0.5684852004 4281413945
-0.2710203230 -0.1403445303 0.5704913735 4281282359
-0.2710777819 -0.1397403032 0.5706123710 4280163878
-0.2719731927 -0.1395657808 0.5724971294 4280558890
-0.2720303833 -0.1389589310 0.5726175904 4282730059
-0.2725066245 -0.1385648549 0.5736200213 4285098607
-0.2729828060 -0.1381685436 0.5746223330 4285953916
-0.2734589279 -0.1377699673 0.5756245852 4284045919
-0.2739349902 -0.1373691410 0.5766267180 4281479992
-0.2744109929 -0.1369660497 0.5776286721 4282072647
-0.2740476131 -0.1361437440 0.5768637657 4282401612
-0.2745233476 -0.1357380301 0.5778651237 4282796116
-0.2745791674 -0.1351234466 0.5779826641 4281940807
-0.2737948895 -0.1340971440 0.5763317943 4281414463
-0.2738500834 -0.1334837079 0.5764479637 4281151291
-0.2730648220 -0.1324623078 0.5747950077 4279967271
-0.2722790241 -0.1314443201 0.5731409192 4280822580
-0.2723331749 -0.1308335364 0.5732549429 4281283131
-0.2723871171 -0.1302223951 0.5733684301 4280756787
-0.2724408209 -0.1296108961 0.5734815001 4281019959
-0.2729147971 -0.1291980892 0.5744792223 4280756787
-0.2729681134 -0.1285849214 0.5745914578 4280756787
-0.2734418809 -0.1281685680 0.5755887032 4280625201
-0.2730740607 -0.1273574978 0.5748144388 4280625201
-0.2727058232 -0.1265479773 0.5740393400 4280559408
-0.2727581263 -0.1259343177 0.5741494298 4280427822
-0.2728101909 -0.1253203154 0.5742590427 4280296236
-0.2737042010 -0.1250908524 0.5761408806 4279769638
-0.2737559378 -0.1244742572 0.5762498379 4279506466
-0.2742286921 -0.1240478605 0.5772449374 4279901224
-0.2747013867 -0.1236192137 0.5782399774 4280427568
-0.2751739919 -0.1231883168 0.5792347789 4280493361
-0.2752250433 -0.1225674748 0.5793421865 4280230189
-0.2774345577 -0.1222537458 0.5839931965 4279178014
-0.2791721225 -0.1223664880 0.5876507163 4279375393
-0.2783793211 -0.1213679165 0.5859819055 4281151804
-0.2801171541 -0.1214704439 0.5896399617 4282730836
-0.2797456384 -0.1206550822 0.5888580084 4282072906
-0.2810617983 -0.1205654070 0.5916284919 4282730836
-0.2811118960 -0.1199294329 0.5917339325 4286086279
-0.2815839052 -0.1194722429 0.5927274823 4288388781
-0.2812113464 -0.1186564788 0.5919432640 4290230985
-0.2825276256 -0.1185511202 0.5947140455 4291941856
-0.2781029940 -0.1730353087 0.5867720842 4291877346
-0.2781723738 -0.1724263579 0.5869184732 4291548381
-0.2782415450 -0.1718169451 0.5870643854 4291219416
-0.2783104777 -0.1712071002 0.5872098207 4290693072
-0.2783792019 -0.1705967784 0.5873548985 4290889168
-0.2784477472 -0.1699860245 0.5874994397 4290428617
-0.2781015933 -0.1691227704 0.5867691040 4289704894
-0.2781696022 -0.1685120165 0.5869125724 4288717999
-0.2782373726 -0.1679008156 0.5870556235 4287402139
-0.2783049345 -0.1672891676 0.5871981978 4286217865
-0.2783722878 -0.1666770875 0.5873402953 4285033591
-0.2784394324 -0.1660645455 0.5874819756 4283849317
-0.2780913115 -0.1652050018 0.5867474079 4283849315
-0.2781579196 -0.1645925045 0.5868879557 4283586143
-0.2778090537 -0.1637348086 0.5861518979 4283257178
-0.2778751254 -0.1631223410 0.5862913132 4282928213
-0.2775255442 -0.1622665375 0.5855537057 4282533455
-0.2771755457 -0.1614121199 0.5848152041 4282072904
-0.2772407830 -0.1608001739 0.5849528909 4281678146
-0.2773057818 -0.1601878107 0.5850900412 4281349181
-0.2773706019 -0.1595750153 0.5852267742 4281414717
-0.2770192325 -0.1587234735 0.5844854116 4281414717
-0.2770834863 -0.1581107378 0.5846210122 4281480510
-0.2771475315 -0.1574975699 0.5847561359 4281546303
-0.2767951190 -0.1566484272 0.5840126276 4281480510
-0.2768586576 -0.1560353488 0.5841466188 4281217338
-0.2765055001 -0.1551881284 0.5834015608 4280756787
-0.2761519551 -0.1543423235 0.5826556087 4280493615
-0.2757980227 -0.1534979492 0.5819087625 4280756787
-0.2754436433 -0.1526550204 0.5811611414 4280822580
-0.2738384902 -0.1511234641 0.5777743459 4280756787
-0.2747336924 -0.1509734690 0.5796631575 4280822580
-0.2739611268 -0.1499066800 0.5780331492 4280888373
-0.2736050487 -0.1490704268 0.5772818327 4280888373
-0.2732485533 -0.1482356340 0.5765296221 4280954166
-0.2733089030 -0.1476276815 0.5766569972 4280888373
-0.2721169889 -0.1463459432 0.5741421580 4280887605
-0.2700893879 -0.1446223259 0.5698640943 4281019191
-0.2709834576 -0.1444658041 0.5717504621 4281150775
-0.2698479295 -0.1425952464 0.5693546534 4280756015
-0.2694883347 -0.1417734772 0.5685959458 4280756015
-0.2703820467 -0.1416098028 0.5704815388 4281019187
-0.2696039379 -0.1405702531 0.5688397884 4281874496
-0.2700794637 -0.1401850581 0.5698431730 4282730059
-0.2709731460 -0.1400136948 0.5717287064 4285427572
-0.2710304260 -0.1394079179 0.5718495846 4287927705
-0.2719241679 -0.1392301768 0.5737352967 4289572530
-0.2723996043 -0.1388350278 0.5747384429 4290559423
-0.2728750110 -0.1384376287 0.5757414699 4290493630
-0.2725131214 -0.1376152039 0.5749779344 4285690741
-0.2729882300 -0.1372151673 0.5759804249 4282006333
-0.2738820612 -0.1370224059 0.5778663158 4282533198
-0.2739382982 -0.1364083439 0.5779849291 4282664784
