VERSION 0.7
FIELDS x y z rgba
SIZE 4 4 4 4
TYPE F F F U
COUNT 1 1 1 1
WIDTH 920
HEIGHT 1
VIEWPOINT 0.0 0.0 0.0 1.0 0.0 0.0 0.0
POINTS 920
DATA ascii
-0.3099250197 -0.1324468851 0.6260393858 4293257968
-0.3037950695 -0.1752202660 0.6150369048 4292205796
-0.3038675189 -0.1745785475 0.6151835918 4288389032
-0.3039397299 -0.1739363521 0.6153298020 4283125592
-0.3040117323 -0.1732937098 0.6154755354 4280295982
-0.3045129776 -0.1728944778 0.6164903641 4280098603
-0.3045845926 -0.1722500175 0.6166353226 4280953912
-0.3046559989 -0.1716050953 0.6167798638 4281875014
-0.3051569462 -0.1712008566 0.6177940369 4284374634
-0.3052279651 -0.1705541313 0.6179378629 4286874768
-0.3052987456 -0.1699069589 0.6180811524 4288651179
-0.3053692877 -0.1692593247 0.6182239652 4286545803
-0.3054395914 -0.1686112434 0.6183663011 4283321431
-0.3046490848 -0.1674895883 0.6167659163 4285229428
-0.3038579524 -0.1663711369 0.6151642203 4287598489
-0.3034966588 -0.1654906422 0.6144327521 4289703865
-0.3018431664 -0.1639100760 0.6110852361 4289638072
-0.3001886606 -0.1623363793 0.6077356935 4289572279
-0.2976715565 -0.1603056192 0.6026397943 4289637813
-0.2964457273 -0.1589786410 0.6001580954 4288716711
-0.2956500351 -0.1578869075 0.5985472202 4288321953
-0.2914698124 -0.1543432772 0.5900843143 4287795866
-0.2889466584 -0.1523572206 0.5849761367 4286808971
-0.2920297980 -0.1533260345 0.5912179947 4285953916
-0.2916623950 -0.1524770707 0.5904741883 4285690744
-0.2912945747 -0.1516295522 0.5897295475 4285953403
-0.2909263372 -0.1507834643 0.5889840722 4285427059
-0.2909894288 -0.1501616091 0.5891117454 4284308839
-0.2906204462 -0.1493174881 0.5883647203 4283453530
-0.2902510464 -0.1484748125 0.5876168609 4283716702
-0.2903132141 -0.1478535980 0.5877427459 4285624699
-0.2903751731 -0.1472319812 0.5878681540 4285098355
-0.2904368937 -0.1466099769 0.5879931450 4286545801
-0.2909306586 -0.1462048143 0.5889927745 4286084991
-0.2918567657 -0.1460137218 0.5908676982 4284571752
-0.2914855778 -0.1451723576 0.5901162028 4286677128
-0.2915465236 -0.1445469260 0.5902396441 4286282370
-0.2916072607 -0.1439210922 0.5903625488 4285887612
-0.2921004891 -0.1435074657 0.5913610458 4286019198
-0.2925936282 -0.1430916041 0.5923594832 4285756024
-0.2926538289 -0.1424627453 0.5924813151 4286019196
-0.2927137613 -0.1418334991 0.5926026702 4284900202
-0.2927734554 -0.1412038654 0.5927235484 4284242272
-0.2919665277 -0.1401579529 0.5910899043 4283912793
-0.2924588621 -0.1397364289 0.5920866132 4283649621
-0.2929511070 -0.1393126696 0.5930831432 4283386963
-0.2934432626 -0.1388866603 0.5940795541 4282860619
-0.2935018539 -0.1382541806 0.5941981673 4282268484
-0.2935601771 -0.1376213282 0.5943162441 4281610554
-0.2940519452 -0.1371904463 0.5953118801 4281742142
-0.2941098809 -0.1365559101 0.5954291224 4283518553
-0.2941675484 -0.1359210014 0.5955458879 4287795357
-0.2980400622 -0.1330174655 0.6033858657 4280361257
-0.2994000316 -0.1329509616 0.6061391234 4280492845
-0.3035937250 -0.1313987225 0.6146293283 4280756787
-0.3101749420 -0.1335494369 0.6279530525 4283389018
-0.3102316558 -0.1328760386 0.6280679107 4289376181
-0.3107233047 -0.1323876828 0.6290631890 4293061103
-0.3023083806 -0.1754372716 0.6134064198 4292468198
-0.3023808002 -0.1747975945 0.6135532856 4287665309
-0.3024529517 -0.1741574556 0.6136997342 4281414717
-0.3025248945 -0.1735168546 0.6138457060 4279704099
-0.3030252159 -0.1731206626 0.6148608923 4280822326
-0.3026680946 -0.1722342819 0.6141362786 4280756533
-0.3031681478 -0.1718353629 0.6151509285 4281151291
-0.3032392859 -0.1711920351 0.6152952313 4283519839
-0.3033101559 -0.1705482602 0.6154390574 4287532698
-0.3033808172 -0.1699040234 0.6155824065 4289045937
-0.3034512103 -0.1692593396 0.6157252789 4285361529
-0.3030920923 -0.1683757156 0.6149966121 4281348156
-0.3023031056 -0.1672558933 0.6133956909 4285098357
-0.3010840118 -0.1659026295 0.6109220386 4288388007
-0.2994344532 -0.1643186361 0.6075749993 4287466905
-0.2982136011 -0.1629763693 0.6050977707 4285558908
-0.2965621352 -0.1614052355 0.6017468572 4285032564
-0.2949096560 -0.1598410159 0.5983937979 4286216838
-0.2932561636 -0.1582836807 0.5950387120 4286216836
-0.2924618423 -0.1571956128 0.5934270024 4284045667
-0.2899461389 -0.1551897824 0.5883225203 4285953405
-0.2840498984 -0.1507531404 0.5763585567 4285427318
-0.2841127217 -0.1501459777 0.5764860511 4286019455
-0.2880504429 -0.1515775621 0.5844759941 4285493111
-0.2872523665 -0.1505099982 0.5828565955 4285229939
-0.2864536643 -0.1494457126 0.5812360048 4285821819
-0.2869469225 -0.1490561366 0.5822368264 4286084991
-0.2870091796 -0.1484414339 0.5823631883 4286479749
-0.2862091362 -0.1473824084 0.5807398558 4285361268
-0.2862707675 -0.1467687637 0.5808648467 4285361014
-0.2867633700 -0.1463748217 0.5818644166 4285624186
-0.2846680582 -0.1446635276 0.5776128173 4284900717
-0.2864542305 -0.1449254304 0.5812371373 4283716443
-0.2865149081 -0.1443102062 0.5813602805 4283519064
-0.2870069742 -0.1439110041 0.5823586583 4283387478
-0.2874989510 -0.1435095370 0.5833569765 4282860621
-0.2875591516 -0.1428912878 0.5834790468 4283058000
-0.2880509496 -0.1424862742 0.5844769478 4284373860
-0.2885426879 -0.1420790106 0.5854747295 4285097583
-0.2890343666 -0.1416695118 0.5864723921 4283321172
-0.2890938520 -0.1410469264 0.5865931511 4283189586
-0.2891531289 -0.1404239535 0.5867133737 4283584342
-0.2896444499 -0.1400095820 0.5877103209 4283518549
-0.2892709374 -0.1391768754 0.5869523883 4284767840
-0.2884645164 -0.1381385624 0.5853161216 4285162598
-0.2889552116 -0.1377221048 0.5863118172 4285359979
-0.2898784876 -0.1375086457 0.5881851912 4285162600
-0.2903691530 -0.1370867640 0.5891807675 4286018169
-0.2904268801 -0.1364592910 0.5892979503 4285820790
-0.2913502157 -0.1362362951 0.5911715031 4282925644
-0.2922736704 -0.1360091716 0.5930451751 4280820268
-0.2914648652 -0.1349757016 0.5914040804 4282334025
-0.3052106500 -0.1323962510 0.6192952991 4280954164
-0.3074942231 -0.1320003718 0.6239288449 4284178534
-0.3075502217 -0.1313310564 0.6240424514 4290692555
-0.3008244932 -0.1756501794 0.6117741466 4293060335
-0.3008968532 -0.1750125438 0.6119213104 4288257446
-0.3009689748 -0.1743744314 0.6120679975 4281678146
-0.3010408580 -0.1737358719 0.6122142076 4279243548
-0.3011125326 -0.1730968654 0.6123599410 4280822580
-0.3011839688 -0.1724573970 0.6125052571 4280690740
-0.3016830981 -0.1720615178 0.6135202646 4280690740
-0.3017541766 -0.1714202315 0.6136648059 4281019705
-0.3018250167 -0.1707784981 0.6138089299 4284901492
-0.3018956184 -0.1701363027 0.6139525175 4288716972
-0.3011093736 -0.1690128297 0.6123535037 4287401112
-0.3011793196 -0.1683715582 0.6124957204 4281019191
-0.3003919721 -0.1672526598 0.6108946204 4283058774
-0.2987467945 -0.1656616181 0.6075488329 4287861148
-0.2971005738 -0.1640774459 0.6042010188 4289177008
-0.2945957184 -0.1620284617 0.5991069674 4287598489
-0.2938050926 -0.1609297544 0.5974991322 4285098355
-0.2921558321 -0.1593662351 0.5941450596 4285164148
-0.2900764644 -0.1575765312 0.5899163485 4286611594
-0.2901419103 -0.1569564939 0.5900494456 4285690233
-0.2848167419 -0.1515015662 0.5792198777 4284045408
-0.2857391834 -0.1513465941 0.5810958147 4284374373
-0.2862319648 -0.1509608626 0.5820980072 4284045406
-0.2854351103 -0.1498956382 0.5804774761 4284308578
-0.2846376598 -0.1488337070 0.5788556933 4284110686
-0.2842696607 -0.1479989588 0.5781072974 4283518549
-0.2843314111 -0.1473886520 0.5782328844 4281873724
-0.2848231494 -0.1469999850 0.5792329311 4281873724
-0.2844541967 -0.1461668164 0.5784825683 4283058513
-0.2840847969 -0.1453351080 0.5777313709 4283584857
-0.2846366465 -0.1443311274 0.5788536072 4283650650
-0.2842662930 -0.1435010284 0.5781004429 4284110686
-0.2847571075 -0.1431053877 0.5790986419 4284242272
-0.2852478921 -0.1427074969 0.5800967216 4283386449
-0.2857386172 -0.1423073709 0.5810946822 4282333761
-0.2857982516 -0.1416912824 0.5812159181 4283123793
-0.2862887681 -0.1412875950 0.5822135210 4284965997
-0.2867792547 -0.1408816725 0.5832109451 4284373860
-0.2864069939 -0.1400516480 0.5824539065 4284439653
-0.2864657640 -0.1394331008 0.5825734138 4285162860
-0.2869557738 -0.1390232295 0.5835700035 4284504930
-0.2870141566 -0.1384029835 0.5836886764 4285162598
-0.2862089276 -0.1373679936 0.5820510983 4285096805
-0.2989891768 -0.1749737710 0.6094182730 4290494408
-0.2990611494 -0.1743386090 0.6095649600 4283059799
-0.2991328835 -0.1737029999 0.6097112298 4279572770
-0.2992044091 -0.1730669439 0.6098570228 4280690994
-0.2997026443 -0.1726763994 0.6108725071 4280362029
-0.2997737825 -0.1720385104 0.6110175252 4280492847
-0.2998447120 -0.1714001745 0.6111621261 4280361261
-0.2999154329 -0.1707613915 0.6113061905 4281414463
-0.3004132211 -0.1703644842 0.6123208404 4285559422
-0.3000561297 -0.1694824547 0.6115930080 4288980144
-0.2984160185 -0.1678802520 0.6082500219 4286019459
-0.2972024977 -0.1665244997 0.6057765484 4279505952
-0.2918453217 -0.1615400463 0.5948572159 4285492339
-0.2902001143 -0.1599721909 0.5915038586 4285163887
-0.2898382246 -0.1591163278 0.5907662511 4284176992
-0.2881912887 -0.1575595438 0.5874093771 4283255377
-0.2869716585 -0.1562428474 0.5849234462 4283518549
-0.2870364785 -0.1556280851 0.5850555301 4282991690
-0.2866725326 -0.1547815502 0.5843137503 4283123276
-0.2831306458 -0.1496632397 0.5770944357 4284307550
-0.2827638090 -0.1488289684 0.5763467550 4285228652
-0.2823965847 -0.1479961425 0.5755982399 4285359979
-0.2824581861 -0.1473887712 0.5757238269 4285228393
-0.2825195789 -0.1467809975 0.5758489370 4284571237
-0.2830102146 -0.1463949829 0.5768489838 4285426546
-0.2826417089 -0.1455642581 0.5760978460 4286281855
-0.2818431258 -0.1445147097 0.5744701624 4285492339
-0.2823331654 -0.1441265941 0.5754689574 4284308065
-0.2823933065 -0.1435177773 0.5755915642 4283715928
-0.2828831673 -0.1431260854 0.5765900016 4283715414
-0.2833729684 -0.1427321732 0.5775883198 4282860105
-0.2838627100 -0.1423359960 0.5785865784 4283254863
-0.2843523920 -0.1419375837 0.5795847178 4281807417
-0.2844117880 -0.1413231194 0.5797057152 4281478452
-0.2844709158 -0.1407082826 0.5798262358 4282596933
-0.2845298052 -0.1400930583 0.5799463391 4281939003
-0.2845884860 -0.1394774467 0.5800659060 4281412659
-0.2846469283 -0.1388614476 0.5801849961 4281872697
-0.2847051024 -0.1382450908 0.5803036094 4281609525
-0.2843322754 -0.1374201328 0.5795436502 4281939002
-0.2818045616 -0.1355602741 0.5743914843 4282333760
-0.2975117266 -0.1751794815 0.6077827811 4293257714
-0.2975836694 -0.1745463759 0.6079297066 4287402137
-0.2976553440 -0.1739128083 0.6080761552 4281086009
-0.2977268100 -0.1732787788 0.6082221866 4280822837
-0.2977980673 -0.1726443022 0.6083676815 4280362029
-0.2978690565 -0.1720093787 0.6085127592 4280296236
-0.2979398370 -0.1713739783 0.6086573601 4280690994
-0.2980104089 -0.1707381457 0.6088014841 4280756787
-0.2980807424 -0.1701018512 0.6089451909 4281742914
-0.2981508374 -0.1694651246 0.6090883613 4284637806
-0.2977940440 -0.1685864031 0.6083595157 4289111730
-0.2931694686 -0.1653029025 0.5989120007 4287993249
-0.2813227177 -0.1490449756 0.5747104883 4284242274
-0.2818129361 -0.1486650407 0.5757119060 4284110688
-0.2810179591 -0.1476078033 0.5740878582 4283584346
-0.2810793221 -0.1470020413 0.5742132068 4283255381
-0.2815690339 -0.1466190666 0.5752136707 4282005574
-0.2812013924 -0.1457893550 0.5744625926 4282597711
-0.2812620699 -0.1451824009 0.5745865703 4284176742
-0.2800360024 -0.1439139098 0.5720818639 4284571500
-0.2813827693 -0.1439673454 0.5748331547 4285097844
-0.2810137570 -0.1431407034 0.5740792751 4285097844
-0.2815025449 -0.1427507401 0.5750778317 4284571500
-0.2819913328 -0.1423585266 0.5760763288 4281742401
-0.2820507288 -0.1417483240 0.5761976838 4280557868
-0.2825393081 -0.1413525492 0.5771958232 4282005314
-0.2830278277 -0.1409545392 0.5781937838 4284176481
-0.2830867171 -0.1403413266 0.5783141255 4283781723
-0.2831453979 -0.1397277266 0.5784339905 4282136896
-0.2832038105 -0.1391137540 0.5785533190 4282992205
-0.2828321755 -0.1382892281 0.5777941346 4283386965
-0.2828900516 -0.1376754194 0.5779123306 4282136898
-0.2825177014 -0.1368529350 0.5771516562 4281019191
-0.2830051184 -0.1364466846 0.5781474113 4280821812
-0.2956841290 -0.1744992882 0.6054229140 4292007901
-0.2957556844 -0.1738686860 0.6055693626 4285231222
-0.2958269715 -0.1732376069 0.6057153940 4281743682
-0.2958980799 -0.1726060808 0.6058609486 4281348924
-0.2959689200 -0.1719741076 0.6060060263 4280625201
-0.2960395515 -0.1713416725 0.6061506271 4280164650
-0.2961099744 -0.1707087755 0.6062948108 4280821810
-0.2961801589 -0.1700754464 0.6064385176 4281084982
-0.2962501049 -0.1694416553 0.6065817475 4281413947
-0.2958940864 -0.1685648859 0.6058527827 4282992979
-0.2955376208 -0.1676894873 0.6051229239 4286414215
-0.2943288684 -0.1663340330 0.6026479006 4289177521
-0.2795805037 -0.1478227675 0.5724501610 4287070607
-0.2796418369 -0.1472190171 0.5725757480 4286872721
-0.2801306248 -0.1468390673 0.5735765696 4285293689
-0.2801916301 -0.1462336183 0.5737015009 4281611075
-0.2798245251 -0.1454054415 0.5729498267 4287071894
-0.2790290415 -0.1443573087 0.5713210702 4289111475
-0.2799451947 -0.1441944093 0.5731968880 4289374647
-0.2800051868 -0.1435883045 0.5733197331 4287664284
-0.2804931700 -0.1432004571 0.5743188858 4289243316
-0.2801244855 -0.1423749477 0.5735639930 4290296004
-0.2806122005 -0.1419844627 0.5745626092 4288059042
-0.2806713879 -0.1413758844 0.5746837854 4282795089
-0.2811589241 -0.1409818381 0.5756820440 4282597710
-0.2816464007 -0.1405855417 0.5766801834 4285953151
-0.2817050517 -0.1399739534 0.5768002868 4286018944
-0.2817634940 -0.1393619925 0.5769199133 4283716443
-0.2813927233 -0.1385384500 0.5761607885 4284571752
-0.2814505994 -0.1379266530 0.5762792826 4286282116
-0.2975875735 -0.1275557280 0.6093202233 4291480793
-0.2938606143 -0.1738184094 0.6030606031 4290165443
-0.2939317524 -0.1731902957 0.6032066345 4283586143
-0.2940026820 -0.1725617200 0.6033521891 4281875268
-0.2940734029 -0.1719326973 0.6034972668 4281743682
-0.2941438854 -0.1713032126 0.6036419272 4280954166
-0.2942141294 -0.1706732810 0.6037861109 4280296236
-0.2942841649 -0.1700429022 0.6039298177 4280887603
-0.2943539619 -0.1694120616 0.6040731072 4280953396
-0.2939986885 -0.1685372293 0.6033439636 4281019189
-0.2940679491 -0.1679064035 0.6034861207 4281611326
-0.2924367487 -0.1663082391 0.6001386046 4282860880
-0.2786338627 -0.1476580352 0.5718122721 4288517798
-0.2778414786 -0.1466046125 0.5701861382 4290426316
-0.2792437375 -0.1460710913 0.5730638504 4284440174
-0.2788772583 -0.1452435106 0.5723118186 4287006101
-0.2785103917 -0.1444174051 0.5715588927 4289966784
-0.2777158618 -0.1433721781 0.5699283481 4289243061
-0.2786301076 -0.1432088464 0.5718045831 4286677134
-0.2786896229 -0.1426039934 0.5719267130 4287795615
-0.2791764438 -0.1422165334 0.5729258060 4290164163
-0.2788079977 -0.1413931102 0.5721696615 4289374647
-0.2792945504 -0.1410030276 0.5731681585 4283585118
-0.2797810435 -0.1406106949 0.5741665363 4281084984
-0.2798396051 -0.1400020570 0.5742866993 4283453530
-0.2803259194 -0.1396061629 0.5752847195 4285164148
-0.2799560428 -0.1387836188 0.5745256543 4282992979
-0.2800139189 -0.1381738484 0.5746443868 4282071877
-0.2800715566 -0.1375636756 0.5747627020 4283979874
-0.2928164601 -0.1742656678 0.6022906303 4293323507
-0.2924644053 -0.1733877659 0.6015664935 4288454825
-0.2925352752 -0.1727612466 0.6017122865 4284112487
-0.2926059365 -0.1721342653 0.6018576026 4281809732
-0.2926763594 -0.1715068221 0.6020024419 4281875525
-0.2927465737 -0.1708789319 0.6021468639 4281151545
-0.2928165495 -0.1702505946 0.6022908092 4280625201
-0.2928863168 -0.1696218103 0.6024342775 4280887603
-0.2925318778 -0.1687480062 0.6017052531 4280821810
-0.2921770215 -0.1678755730 0.6009753346 4280690224
-0.2901251018 -0.1660335660 0.5967547894 4280624431
-0.2897689939 -0.1651675552 0.5960223079 4281084469
-0.2774444222 -0.1454614252 0.5706720352 4287926690
-0.2770784199 -0.1446363181 0.5699192286 4282926422
-0.2771980762 -0.1434317976 0.5701653361 4287466393
-0.2778615654 -0.1412350535 0.5715300441 4286084740
-0.2779202461 -0.1406297386 0.5716508031 4283058262
-0.2784057260 -0.1402391344 0.5726493001 4283124055
-0.2914222479 -0.1738330573 0.6007954478 4292995312
-0.2910707295 -0.1729566455 0.6000707150 4287270551
-0.2907187641 -0.1720815897 0.5993450880 4285099382
-0.2907890379 -0.1714570969 0.5994899273 4282665041
-0.2908590734 -0.1708321720 0.5996343493 4281941318
-0.2909289002 -0.1702067852 0.5997782946 4281151545
-0.2905755341 -0.1693344712 0.5990498066 4280888373
-0.2906448245 -0.1687090844 0.5991926789 4280756787
-0.2907138765 -0.1680832654 0.5993350148 4280690994
-0.2895129025 -0.1667257547 0.5968590975 4280953396
-0.2904279530 -0.1665874571 0.5987455249 4280492845
-0.2752836943 -0.1440284997 0.5675241947 4279703080
-0.2757688761 -0.1436506659 0.5685244203 4279637287
-0.2896089852 -0.1731479168 0.5984274745 4292797933
-0.2896795273 -0.1725250185 0.5985732079 4286283656
-0.2893280983 -0.1716514677 0.5978469849 4284573038
-0.2889762223 -0.1707792580 0.5971199274 4283849315
-0.2890458703 -0.1701568365 0.5972638726 4282007111
-0.2891153395 -0.1695339531 0.5974074006 4281283131
-0.2891845405 -0.1689106226 0.5975503922 4281151545
-0.2888312936 -0.1680411696 0.5968204737 4281283131
-0.2880552411 -0.1669283360 0.5952168703 4280690994
-0.2868560851 -0.1655748487 0.5927390456 4280624431
-0.2848109901 -0.1637405306 0.5885131955 4280690224
-0.2872448862 -0.1242527813 0.5935424566 4288915379
-0.2890096903 -0.1243526638 0.5971890688 4289639099
-0.2912031114 -0.1246278659 0.6017214060 4292533991
-0.2876589000 -0.1737014949 0.5957651734 4293061107
-0.2877998352 -0.1724620759 0.5960571170 4292402405
-0.2878699899 -0.1718416959 0.5962023735 4285362554
-0.2879399359 -0.1712208539 0.5963472128 4282994006
-0.2880096436 -0.1705995649 0.5964916348 4283914851
-0.2880791426 -0.1699778140 0.5966355205 4282335819
-0.2877271175 -0.1691080332 0.5959064960 4281480510
-0.2873747051 -0.1682396233 0.5951766372 4281414717
-0.2870218754 -0.1673725843 0.5944458246 4281414717
-0.2866685987 -0.1665069163 0.5937141776 4281019959
-0.2858932316 -0.1653986871 0.5921083689 4280953396
-0.2842737138 -0.1638076007 0.5887542367 4280953396
-0.2805438340 -0.1610127538 0.5810292959 4280821812
-0.2793437541 -0.1596811861 0.5785438418 4280492847
-0.2788098454 -0.1234477833 0.5774380565 4287203220
-0.2814237773 -0.1239575595 0.5828517675 4287335833
-0.2789129317 -0.1222098023 0.5776515603 4287664798
-0.2845177650 -0.1240109280 0.5892596245 4287664798
-0.2828606069 -0.1226377338 0.5858275294 4288125349
-0.2846214175 -0.1227462217 0.5894743204 4287270551
-0.2902295589 -0.1244969368 0.6010892391 4289310134
-0.2894267440 -0.1234865561 0.5994265676 4293257966
-0.2865526676 -0.1747542769 0.5948424339 4293126900
-0.2862038612 -0.1738814414 0.5941183567 4292929521
-0.2862743735 -0.1732640117 0.5942647457 4292600556
-0.2863446772 -0.1726461351 0.5944106579 4293191662
-0.2859947979 -0.1717755497 0.5936843753 4291941595
-0.2864846289 -0.1714090109 0.5947011709 4284835951
-0.2865542769 -0.1707897633 0.5948457718 4282006852
-0.2866237164 -0.1701700687 0.5949898958 4283191126
-0.2866929471 -0.1695499271 0.5951336026 4282533196
-0.2863414586 -0.1686816365 0.5944039822 4281612096
-0.2864101231 -0.1680615097 0.5945464969 4281612096
-0.2852165699 -0.1667033136 0.5920688510 4281940291
-0.2848637104 -0.1658400595 0.5913363695 4281545533
-0.2819852233 -0.1635138988 0.5853610635 4281479740
-0.2820519209 -0.1629020423 0.5854994655 4280953396
-0.2708904445 -0.1320888549 0.5623298883 4286677387
-0.2713699341 -0.1316967607 0.5633252263 4287335317
-0.2736579478 -0.1309136301 0.5680747628 4288519593
-0.2737665176 -0.1297027171 0.5683001876 4288519593
-0.2742456496 -0.1292971969 0.5692948103 4288651179
-0.2742994428 -0.1286899000 0.5694064498 4288388005
-0.2739276588 -0.1278836876 0.5686346889 4288585384
-0.2739809155 -0.1272766292 0.5687451959 4288585384
-0.2744594514 -0.1268659085 0.5697385669 4288124833
-0.2736611068 -0.1258657128 0.5680813789 4287993249
-0.2741392553 -0.1254533380 0.5690739155 4287795870
-0.2741915584 -0.1248448789 0.5691825151 4287664021
-0.2733919621 -0.1238502413 0.5675226450 4287927193
-0.2734436393 -0.1232429817 0.5676299334 4287926682
-0.2743470967 -0.1230174154 0.5695053935 4287400338
-0.2752506435 -0.1227877140 0.5713810325 4287400599
-0.2774327695 -0.1231212690 0.5759107471 4287532185
-0.2791891694 -0.1232568175 0.5795568824 4287137940
-0.2800933421 -0.1230099797 0.5814337730 4287203733
-0.2797183990 -0.1222001612 0.5806554556 4286086020
-0.2806224823 -0.1219478846 0.5825321674 4285296504
-0.2840859592 -0.1227977574 0.5897218585 4283454300
-0.2862705290 -0.1230817884 0.5942566991 4284375402
-0.2876022160 -0.1229910105 0.5970211029 4289639351
-0.2846810520 -0.1746721715 0.5923228264 4293126900
-0.2847517133 -0.1740572602 0.5924698710 4292863728
-0.2848221660 -0.1734418869 0.5926164389 4292600554
-0.2844734490 -0.1725718975 0.5918908715 4291811038
-0.2845433652 -0.1719565094 0.5920363665 4292073181
-0.2846130431 -0.1713406891 0.5921813846 4290823114
-0.2846825421 -0.1707243919 0.5923259258 4284046435
-0.2847518027 -0.1701076627 0.5924700499 4282664782
-0.2848208547 -0.1694904715 0.5926137567 4281941059
-0.2848896980 -0.1688728482 0.5927569866 4282862161
-0.2849583030 -0.1682547629 0.5928997397 4282335819
-0.2846069336 -0.1673893481 0.5921686292 4282072647
-0.2838352621 -0.1662793308 0.5905630589 4282270026
-0.2830629647 -0.1651725322 0.5889561772 4282270026
-0.2818699777 -0.1638247818 0.5864740014 4282006854
-0.2756341100 -0.1595632434 0.5734992623 4281283131
-0.2765396535 -0.1594481766 0.5753834248 4280822580
-0.2688865662 -0.1339011341 0.5594599843 4286611596
-0.2694757879 -0.1323256642 0.5606859326 4286808973
-0.2708019614 -0.1323508471 0.5634452701 4286216836
-0.2700090408 -0.1313391328 0.5617954731 4285361527
-0.2726619840 -0.1313689351 0.5673152804 4283321944
-0.2735647261 -0.1311714649 0.5691936016 4282598221
-0.2736191750 -0.1305650175 0.5693069100 4282006084
-0.2728247643 -0.1295552552 0.5676540136 4281150775
-0.2737273276 -0.1293510646 0.5695319772 4280887603
-0.2737810612 -0.1287435442 0.5696437955 4280558638
-0.2730385959 -0.1271319985 0.5680989027 4280229673
-0.2739408910 -0.1269188374 0.5699763298 4280163880
-0.2744185030 -0.1265057325 0.5709700584 4280229673
-0.2731965184 -0.1253108382 0.5684275031 4280295466
-0.2740986347 -0.1250909716 0.5703044534 4280229163
-0.2741507292 -0.1244809777 0.5704128742 4280426542
-0.2733523548 -0.1234865487 0.5687517524 4280492335
-0.2751046419 -0.1236421615 0.5723976493 4280294956
-0.2760067582 -0.1234095469 0.5742746592 4280163882
-0.2781850398 -0.1237404123 0.5788068771 4280229675
-0.2756840289 -0.1219906211 0.5736031532 4280361261
-0.2770115137 -0.1219376475 0.5763651729 4280624433
-0.2787648141 -0.1220650002 0.5800132155 4280295468
-0.2805185020 -0.1221844032 0.5836620331 4281150777
-0.2814210653 -0.1219269559 0.5855399370 4280756533
-0.2853044868 -0.1229499057 0.5936200023 4280822326
-0.2857818007 -0.1224949509 0.5946131349 4284112230
-0.2862590253 -0.1220377386 0.5956060290 4289902014
-0.2819786072 -0.1740681678 0.5880589485 4293192693
-0.2820488811 -0.1734580100 0.5882055163 4292797935
-0.2821189463 -0.1728474051 0.5883516669 4292271591
-0.2821888030 -0.1722363383 0.5884973407 4291745245
-0.2826766074 -0.1718790829 0.5895146132 4291153108
-0.2827461660 -0.1712661982 0.5896596313 4291349460
-0.2832338214 -0.1709053218 0.5906767249 4290559944
-0.2833030522 -0.1702906340 0.5908210278 4284112228
-0.2837905884 -0.1699261367 0.5918378234 4283388505
-0.2834407985 -0.1690599173 0.5911083221 4282401610
-0.2839281261 -0.1686926931 0.5921246409 4282072645
-0.2835777104 -0.1678274125 0.5913938284 4281875268
-0.2823888958 -0.1664695293 0.5889145732 4282204233
-0.2832946479 -0.1663470417 0.5908035040 4282138440
-0.2783321440 -0.1627881974 0.5804543495 4282072647
-0.2796561122 -0.1629145592 0.5832154751 4282072647
-0.2776255012 -0.1610883325 0.5789806843 4281809475
-0.2764326334 -0.1597556472 0.5764929652 4281151545
-0.2672670782 -0.1538394243 0.5573784709 4280296236
-0.2677493989 -0.1534966379 0.5583842993 4279835431
-0.2665526271 -0.1521929204 0.5558884740 4279901224
-0.2666146755 -0.1516105682 0.5560178757 4280427054
-0.2681527436 -0.1363303661 0.5592254996 4282203979
-0.2682089508 -0.1357374787 0.5593427420 4282598737
-0.2683762908 -0.1339565963 0.5596916676 4282072393
-0.2688543499 -0.1335722357 0.5606886744 4281217084
-0.2689095438 -0.1329765767 0.5608037710 4280295468
-0.2689645290 -0.1323805302 0.5609184504 4280032296
-0.2694422603 -0.1319913417 0.5619147420 4279703331
-0.2703430057 -0.1318061799 0.5637932420 4279440159
-0.2703975439 -0.1312062293 0.5639069676 4279505952
-0.2712983787 -0.1310147047 0.5657855868 4279966503
-0.2717759609 -0.1306156069 0.5667815804 4280558640
-0.2727847993 -0.1292042434 0.5688855052 4281084984
-0.2725210786 -0.1271849424 0.5683355331 4281413949
-0.2723067999 -0.1245610863 0.5678886771 4281808452
-0.2742105424 -0.1228903979 0.5718588233 4281808707
-0.2759599388 -0.1230349839 0.5755071640 4281742914
-0.2764358222 -0.1226066276 0.5764996409 4281742914
-0.2756375074 -0.1216138676 0.5748347640 4281874500
-0.2773873806 -0.1217431948 0.5784840584 4281348670
-0.2765884399 -0.1207516491 0.5768178701 4281480256
-0.2800383866 -0.1216089278 0.5840126276 4281743682
-0.2813642025 -0.1215327308 0.5867776275 4281546303
-0.2831153274 -0.1216331050 0.5904296041 4281019959
-0.2831661403 -0.1209988073 0.5905355215 4283914851
-0.2836419642 -0.1205448955 0.5915278196 4290823373
-0.2792845070 -0.1734539568 0.5837926865 4293126130
-0.2793543935 -0.1728485674 0.5839387774 4292731372
-0.2794240713 -0.1722427309 0.5840844512 4292533993
-0.2794935405 -0.1716364324 0.5842296481 4292073442
-0.2799800634 -0.1712849438 0.5852466226 4291349719
-0.2804665864 -0.1709312052 0.5862635970 4290757582
-0.2809530795 -0.1705752015 0.5872805715 4290493381
-0.2814396024 -0.1702169329 0.5882974863 4289901244
-0.2819260955 -0.1698563993 0.5893144011 4283979874
-0.2824125588 -0.1694935858 0.5903313160 4283256151
-0.2824811637 -0.1688787043 0.5904747248 4282664014
-0.2825495303 -0.1682633609 0.5906176567 4282269256
-0.2821996212 -0.1673995703 0.5898862481 4281941061
-0.2814311087 -0.1662900895 0.5882797837 4282006854
-0.2810802758 -0.1654299647 0.5875464082 4282072647
-0.2798922658 -0.1640807241 0.5850630999 4282335819
-0.2782849669 -0.1624921560 0.5817033648 4282401612
-0.2741652131 -0.1594498754 0.5730917454 4281875268
-0.2738113105 -0.1586081237 0.5723519921 4281151545
-0.2692693174 -0.1553517431 0.5628577471 4280625201
-0.2680758834 -0.1540406048 0.5603631139 4280296236
-0.2664626539 -0.1524947733 0.5569910407 4280296236
-0.2665247321 -0.1519112885 0.5571207404 4280821557
-0.2665865719 -0.1513274014 0.5572500229 4280887350
-0.2676420808 -0.1363866478 0.5594563484 4280427568
-0.2681198120 -0.1360073835 0.5604549646 4280164396
-0.2677541673 -0.1352000535 0.5596906543 4280098857
-0.2678653896 -0.1340119839 0.5599231124 4280493615
-0.2687644958 -0.1338376105 0.5618025661 4280625201
-0.2688197196 -0.1332407743 0.5619180202 4280888119
-0.2688747346 -0.1326435804 0.5620329976 4281019705
-0.2701960504 -0.1326678842 0.5647949576 4281282877
-0.2698285878 -0.1318607926 0.5640268326 4281480256
-0.2703054249 -0.1314660311 0.5650236011 4281611842
-0.2707822025 -0.1310690343 0.5660202503 4281611842
-0.2716814578 -0.1308733374 0.5678999424 4281546049
-0.2721582353 -0.1304709017 0.5688965321 4281611842
-0.2717895210 -0.1296629310 0.5681258440 4281677635
-0.2718432248 -0.1290571988 0.5682380795 4281677635
-0.2723195255 -0.1286508590 0.5692337155 4281743682
-0.2723728418 -0.1280434728 0.5693451762 4281743682
-0.2715798914 -0.1270399541 0.5676876307 4281677889
-0.2720556557 -0.1266306639 0.5686821342 4281677889
-0.2725313902 -0.1262191385 0.5696765780 4281677889
-0.2717372477 -0.1252202392 0.5680165291 4281677889
-0.2717892230 -0.1246129647 0.5681251884 4281808707
-0.2718409598 -0.1240053400 0.5682333708 4281808707
-0.2727394998 -0.1237817928 0.5701115727 4281742914
-0.2723673582 -0.1229803264 0.5693336725 4281677121
-0.2728421688 -0.1225610375 0.5703261495 4281677121
-0.2745881379 -0.1227075979 0.5739758015 4281611328
-0.2742153704 -0.1219041497 0.5731965899 4281480256
-0.2755885422 -0.1212345064 0.5760669708 4281414463
-0.2764871418 -0.1209876761 0.5779453516 4281546049
-0.2778099775 -0.1209213138 0.5807104707 4281677889
-0.2808298767 -0.1215835512 0.5870230198 4281612096
-0.2808805704 -0.1209531575 0.5871289968 4280757044
-0.2792335451 -0.1195954010 0.5836861730 4280493872
-0.2809812129 -0.1196913496 0.5873393416 4287665309
-0.2774305940 -0.1733493507 0.5812669396 4293192693
-0.2770842612 -0.1724879295 0.5805413127 4293126131
-0.2771536708 -0.1718859524 0.5806867480 4292665580
-0.2776390910 -0.1715406924 0.5817037821 4292270822
-0.2777082026 -0.1709368974 0.5818485618 4291547099
-0.2781935334 -0.1705880314 0.5828654170 4290428105
-0.2786788642 -0.1702369004 0.5838822722 4289441210
-0.2795808315 -0.1701370627 0.5857720971 4289374900
-0.2792327404 -0.1692751944 0.5850427151 4288124833
-0.2801347971 -0.1691699177 0.5869327188 4283585116
-0.2806200981 -0.1688097417 0.5879495144 4282927186
-0.2806883156 -0.1681973636 0.5880924463 4282598221
-0.2807563245 -0.1675845385 0.5882349014 4282335049
-0.2799895406 -0.1664750725 0.5866284370 4282071877
-0.2796395421 -0.1656159908 0.5858951211 4282269256
-0.2792891264 -0.1647583097 0.5851609111 4282993749
-0.2735098600 -0.1607122868 0.5730522871 4282927956
-0.2756633461 -0.1613359451 0.5775642395 4282467405
-0.2719688118 -0.1585405618 0.5698235035 4282138440
-0.2686901689 -0.1560038328 0.5629541874 4281743682
-0.2695894241 -0.1558983624 0.5648382306 4280888373
-0.2664325833 -0.1522121429 0.5582240820 4281611842
-0.2665561140 -0.1510417014 0.5584830046 4282269772
-0.2666175961 -0.1504558772 0.5586117506 4282269772
-0.2666788399 -0.1498696357 0.5587400794 4281940807
-0.2661436796 -0.1464711130 0.5576187968 4280822327
-0.2657842636 -0.1456545889 0.5568657517 4280888120
-0.2666823566 -0.1455259472 0.5587474704 4281019706
-0.2667418122 -0.1449374557 0.5588720441 4281151292
-0.2659620643 -0.1438946277 0.5572382808 4281085499
-0.2664404809 -0.1435332298 0.5582407117 4281085499
-0.2664992213 -0.1429444849 0.5583637357 4281019706
-0.2669774890 -0.1425795257 0.5593658090 4281413949
-0.2661961317 -0.1415425688 0.5577287078 4281282363
-0.2662540972 -0.1409535855 0.5578501821 4281019705
-0.2658918202 -0.1401428133 0.5570911169 4280822326
-0.2659492791 -0.1395539939 0.5572115183 4280690740
-0.2672671974 -0.1396234035 0.5599728227 4280624947
-0.2673245072 -0.1390310228 0.5600928664 4280559154
-0.2673815489 -0.1384382695 0.5602124333 4280559154
-0.2665974200 -0.1374116540 0.5585694909 4280756533
-0.2680284083 -0.1362774074 0.5615676641 4280888119
-0.2686169446 -0.1347007006 0.5628007054 4281348670
-0.2687826753 -0.1329067349 0.5631480217 4281414463
-0.2701016068 -0.1329301447 0.5659114122 4281480256
-0.2697349787 -0.1321217865 0.5651432276 4281611842
-0.2706870437 -0.1313278675 0.5671380162 4281611842
-0.2711629868 -0.1309275478 0.5681352019 4281480510
-0.2716389000 -0.1305249780 0.5691322684 4281414717
-0.2712709606 -0.1297166944 0.5683614016 4281217338
-0.2717465460 -0.1293115169 0.5693578124 4281283131
-0.2718000412 -0.1287042350 0.5694698691 4281348924
-0.2722754180 -0.1282955259 0.5704659224 4281348924
-0.2714840770 -0.1272906661 0.5688079596 4281414715
-0.2715367973 -0.1266832650 0.5689183474 4281480508
-0.2720116377 -0.1262715906 0.5699132681 4281480508
-0.2724864483 -0.1258576810 0.5709080100 4281414715
-0.2716935277 -0.1248589680 0.5692467690 4281479742
-0.2717452943 -0.1242501661 0.5693552494 4281413949
-0.2722195387 -0.1238333061 0.5703488588 4281348156
-0.2722709477 -0.1232228652 0.5704565644 4281348156
-0.2727449536 -0.1228024736 0.5714496970 4281413949
-0.2732189000 -0.1223798394 0.5724426508 4281348156
-0.2732697427 -0.1217664704 0.5725491643 4281282877
-0.2741665244 -0.1215278432 0.5744281411 4281348670
-0.2763329446 -0.1218448505 0.5789671540 4280888373
-0.2768068612 -0.1214094460 0.5799601078 4281217338
-0.2781273425 -0.1213411689 0.5827267766 4281941061
-0.2790246606 -0.1210831106 0.5846068263 4281875268
-0.2782281041 -0.1200897619 0.5829378963 4281414974
-0.2795487940 -0.1200090423 0.5857049823 4279770149
-0.2817169726 -0.1202840135 0.5902476907 4285954691
-0.2830382288 -0.1201892719 0.5930159092 4293191921
-0.2752358317 -0.1723791063 0.5780135393 4293061107
-0.2757202685 -0.1720391810 0.5790309310 4292928751
-0.2753740549 -0.1711806059 0.5783038139 4292336614
-0.2758582830 -0.1708379686 0.5793207884 4291678172
-0.2763425410 -0.1704930663 0.5803377628 4291020242
-0.2759954929 -0.1696349531 0.5796089172 4289835968
-0.2768952847 -0.1695418954 0.5814985633 4288520108
-0.2773794234 -0.1691911221 0.5825152397 4287992734
-0.2778635621 -0.1688380837 0.5835319757 4286742667
-0.2783476710 -0.1684827656 0.5845486522 4284505707
-0.2788317800 -0.1681251973 0.5855653286 4283189847
-0.2793158889 -0.1677653641 0.5865820050 4282071879
-0.2789672315 -0.1669050306 0.5858498216 4282269258
-0.2782017291 -0.1657978892 0.5842421055 4282006084
-0.2774355710 -0.1646939367 0.5826331973 4282071877
-0.2750021219 -0.1626077145 0.5775227547 4283256151
-0.2771517336 -0.1632320881 0.5820370913 4284045667
-0.2705478966 -0.1587113887 0.5681685805 4282993749
-0.2714460790 -0.1586049050 0.5700548291 4281809475
-0.2698420286 -0.1570380479 0.5666862726 4281414717
-0.2665683627 -0.1545109004 0.5598112941 4280888373
-0.2666309774 -0.1539250761 0.5599428415 4280296236
-0.2658587098 -0.1528588980 0.5583209991 4281348924
-0.2659207284 -0.1522740722 0.5584512353 4282401612
-0.2659825385 -0.1516888440 0.5585810542 4282730577
-0.2664617896 -0.1513404250 0.5595875382 4282598991
-0.2661055326 -0.1505171806 0.5588393807 4282796370
-0.2657488883 -0.1496953517 0.5580903292 4282796370
-0.2662276924 -0.1493438780 0.5590959191 4282993749
-0.2667064965 -0.1489901543 0.5601013899 4283519839
-0.2660511434 -0.1467617154 0.5587251186 4286151559
-0.2656925619 -0.1459439546 0.5579720736 4286348938
-0.2653335631 -0.1451276541 0.5572181344 4285296250
-0.2662299573 -0.1449967474 0.5591006875 4283256667
-0.2658704519 -0.1441805810 0.5583456755 4281611842
-0.2659293115 -0.1435920000 0.5584692955 4281151291
-0.2659879625 -0.1430030465 0.5585924387 4281151291
-0.2660464048 -0.1424136907 0.5587151647 4281150522
-0.2656855583 -0.1416005939 0.5579574108 4281018936
-0.2657434940 -0.1410114020 0.5580790043 4280821557
-0.2662204206 -0.1406432986 0.5590806007 4280624178
-0.2662779987 -0.1400524080 0.5592015386 4280624178
-0.2659159303 -0.1392415017 0.5584411621 4280755764
-0.2668119967 -0.1390881538 0.5603230000 4280756534
-0.2664493918 -0.1382774115 0.5595614910 4280888120
-0.2673454881 -0.1381186545 0.5614433289 4280953912
-0.2686614990 -0.1381716579 0.5642070174 4281019705
-0.2670387030 -0.1367139816 0.5607990623 4281151291
-0.2675147951 -0.1363335252 0.5617988706 4281282877
-0.2679908276 -0.1359508187 0.5627986193 4281348670
-0.2684668303 -0.1355658621 0.5637982488 4281282877
-0.2676821053 -0.1345450282 0.5621502399 4281414463
-0.2681577504 -0.1341583878 0.5631491542 4281546049
-0.2690537274 -0.1339788586 0.5650307536 4281545535
-0.2682678998 -0.1329615861 0.5633804798 4281479742
-0.2687432170 -0.1325701028 0.5643786192 4281479742
-0.2700597644 -0.1325894147 0.5671434999 4281479742
-0.2710104585 -0.1317914575 0.5691400170 4281282363
-0.2710647881 -0.1311854124 0.5692541599 4281216570
-0.2706979215 -0.1303762197 0.5684836507 4281150777
-0.2711727917 -0.1299722046 0.5694809556 4281150775
-0.2716476023 -0.1295659393 0.5704780817 4281150775
-0.2712798715 -0.1287575662 0.5697058439 4281216568
-0.2713330686 -0.1281497031 0.5698175430 4281216568
-0.2713860273 -0.1275414824 0.5699287653 4281216568
-0.2718602717 -0.1271300167 0.5709246397 4281216568
-0.2719128430 -0.1265201420 0.5710350871 4281150775
-0.2719651759 -0.1259099096 0.5711449981 4281084982
-0.2715955675 -0.1251050830 0.5703687668 4281282363
-0.2724910080 -0.1248817295 0.5722492337 4281216570
-0.2721208334 -0.1240771338 0.5714718699 4281150777
-0.2725942135 -0.1236569285 0.5724660158 4281216570
-0.2722234428 -0.1228535473 0.5716873407 4281216570
-0.2731186450 -0.1226202697 0.5735673308 4281216570
-0.2731694877 -0.1220057160 0.5736741424 4281216568
-0.2736424208 -0.1215784401 0.5746672750 4281282361
-0.2741152644 -0.1211489141 0.5756602883 4280954166
-0.2745880187 -0.1207171530 0.5766531229 4281085752
-0.2771732807 -0.1212069839 0.5820823312 4281875268
-0.2772737741 -0.1199569851 0.5822933912 4281085752
-0.2777464092 -0.1195133924 0.5832859278 4279440927
-0.2790645957 -0.1194294542 0.5860542059 4285954945
-0.2808058858 -0.1195194572 0.5897110701 4293323761
-0.2742898166 -0.1721882671 0.5773736238 4293257716
-0.2743588686 -0.1715899259 0.5775189400 4292467687
-0.2744276822 -0.1709911525 0.5776637793 4291612378
-0.2744963169 -0.1703919172 0.5778082609 4291086034
-0.2753942311 -0.1703052074 0.5796983242 4290362311
-0.2750477791 -0.1694476902 0.5789690614 4288717486
-0.2759457827 -0.1693555564 0.5808593631 4286941075
-0.2764289379 -0.1690055728 0.5818763971 4286347909
-0.2769120932 -0.1686533242 0.5828934312 4285492600
-0.2769799829 -0.1680468768 0.5830363035 4284703084
-0.2774630189 -0.1676910073 0.5840530992 4282926673
-0.2779460251 -0.1673328727 0.5850698352 4281545535
-0.2771823406 -0.1662248522 0.5834622979 4282269258
-0.2755866945 -0.1646234095 0.5801035166 4281808705
-0.2748215795 -0.1635236293 0.5784929991 4280492845
-0.2736400068 -0.1621805727 0.5760057569 4282006084
-0.2716256678 -0.1603514403 0.5717656016 4283650909
-0.2683619261 -0.1577970833 0.5648955107 4283453532
-0.2680095434 -0.1569630802 0.5641537905 4282400844
-0.2676567435 -0.1561304629 0.5634111762 4281282363
-0.2673035562 -0.1552992761 0.5626677275 4280361261
-0.2657005787 -0.1537465602 0.5592934489 4280558638
-0.2657628357 -0.1531610340 0.5594245195 4282927186
-0.2658249140 -0.1525750756 0.5595551729 4286809743
-0.2658867538 -0.1519887298 0.5596853495 4288454568
-0.2663652301 -0.1516392678 0.5606924891 4288915119
-0.2664267421 -0.1510511786 0.5608220100 4288717740
-0.2660710216 -0.1502272189 0.5600731969 4288586154
-0.2665491402 -0.1498737782 0.5610796809 4288915119
-0.2670272589 -0.1495180875 0.5620861053 4288783533
-0.2670880258 -0.1489274651 0.5622140169 4288520361
-0.2675659955 -0.1485681981 0.5632201433 4288125603
-0.2672089338 -0.1477449834 0.5624684691 4287336087
-0.2664338350 -0.1466932893 0.5608369708 4285757055
-0.2664935589 -0.1461029053 0.5609626770 4283717472
-0.2669708729 -0.1457401961 0.5619673729 4281677889
-0.2670302689 -0.1451480985 0.5620924234 4280625201
-0.2670894265 -0.1445555985 0.5622169375 4280625201
-0.2667303085 -0.1437374204 0.5614610314 4280756787
-0.2667889595 -0.1431450546 0.5615844727 4280756534
-0.2655926347 -0.1418820024 0.5590662360 4280822327
-0.2673239708 -0.1421816796 0.5627106428 4280953143
-0.2673820555 -0.1415872276 0.5628328919 4280953143
-0.2670213878 -0.1407717466 0.5620737672 4281150522
-0.2666603327 -0.1399577409 0.5613137484 4281216315
-0.2667175829 -0.1393640041 0.5614342093 4281151292
-0.2671934366 -0.1389877200 0.5624358654 4281282878
-0.2676692009 -0.1386092007 0.5634374022 4281282878
-0.2673070133 -0.1377964616 0.5626749396 4281217085
-0.2677825391 -0.1374153048 0.5636759400 4281282108
-0.2674197257 -0.1366036832 0.5629121661 4281216315
-0.2674757242 -0.1360067427 0.5630301237 4281019706
-0.2675315142 -0.1354094148 0.5631475449 4280953913
-0.2680065036 -0.1350230128 0.5641474128 4281019705
-0.2684814632 -0.1346343756 0.5651471615 4281217084
-0.2685367465 -0.1340340525 0.5652635694 4281018936
-0.2681721747 -0.1332248896 0.5644960999 4281018936
-0.2686466873 -0.1328323185 0.5654949546 4281150522
-0.2691211700 -0.1324374974 0.5664936900 4281150522
-0.2691756487 -0.1318347752 0.5666083694 4281084729
-0.2700699270 -0.1316411346 0.5684908628 4280953143
-0.2709643245 -0.1314433664 0.5703735352 4280887350
-0.2705982924 -0.1306329370 0.5696030259 4280821557
-0.2710723877 -0.1302278340 0.5706009865 4280953143
-0.2711260617 -0.1296195090 0.5707139969 4281018936
-0.2711795270 -0.1290108413 0.5708264709 4281084984
-0.2712327242 -0.1284018010 0.5709385276 4281150777
-0.2717591524 -0.1273798496 0.5720466375 4281216570
-0.2718117535 -0.1267687976 0.5721573830 4281216570
-0.2718641460 -0.1261573881 0.5722675920 4281282363
-0.2714953423 -0.1253512949 0.5714913011 4281282363
-0.2715471685 -0.1247401312 0.5716004372 4281150777
-0.2720198631 -0.1243210658 0.5725953579 4281084982
-0.2720713019 -0.1237082630 0.5727036595 4281084982
-0.2725437284 -0.1232856587 0.5736981630 4281084982
-0.2725947797 -0.1226712093 0.5738055706 4281084982
-0.2730669975 -0.1222450659 0.5747995973 4281150775
-0.2735391259 -0.1218166798 0.5757933855 4281084982
-0.2748542726 -0.1217595413 0.5785617828 4280625201
-0.2740615010 -0.1207673773 0.5768929720 4280822580
-0.2762201428 -0.1210725829 0.5814368725 4280822578
-0.2762703896 -0.1204484627 0.5815426111 4280690992
-0.2780578732 -0.1199271530 0.5853052735 4279046167
-0.2793737352 -0.1198412925 0.5880751610 4285954945
-0.2806898057 -0.1197493598 0.5908454061 4293323761
-0.2765008509 -0.1791685373 0.5833917260 4293060078
-0.2761594951 -0.1782999486 0.5826714635 4292731111
-0.2754048109 -0.1771670878 0.5810791850 4292665318
-0.2746495008 -0.1760373414 0.5794855356 4292533732
-0.2743066847 -0.1751745641 0.5787622333 4292336353
-0.2735502422 -0.1740502119 0.5771661997 4292204769
-0.2736198008 -0.1734530330 0.5773129463 4292204769
-0.2732757330 -0.1725943089 0.5765870214 4292796136
-0.2729312479 -0.1717369109 0.5758602023 4293717238
-0.2730000019 -0.1711401939 0.5760052204 4293125099
-0.2730685472 -0.1705430150 0.5761498213 4292006618
-0.2731368840 -0.1699453890 0.5762940049 4291414481
-0.2736189663 -0.1696038991 0.5773111582 4290164414
-0.2741010189 -0.1692601591 0.5783283114 4288124833
-0.2745831013 -0.1689141393 0.5793454051 4286545801
-0.2750651836 -0.1685658693 0.5803625584 4285821565
-0.2751328945 -0.1679623872 0.5805054307 4285361014
-0.2756148279 -0.1676104963 0.5815222859 4285032562
-0.2756822407 -0.1670051962 0.5816645026 4283585116
-0.2757494152 -0.1663994640 0.5818062425 4281808707
-0.2745720744 -0.1650453508 0.5793221593 4281677121
-0.2729790807 -0.1634478718 0.5759611130 4281742912
-0.2722150087 -0.1623522341 0.5743489861 4279703329
-0.2710352540 -0.1610132307 0.5718597770 4280756017
-0.2694395483 -0.1594336331 0.5684929490 4282400842
-0.2682580650 -0.1581056565 0.5660001636 4282598223
-0.2674911618 -0.1570265889 0.5643820763 4282071879
-0.2667236626 -0.1559507698 0.5627626777 4281216570
-0.2663711011 -0.1551201940 0.5620188117 4280624433
-0.2668494284 -0.1547731906 0.5630280972 4279834917
-0.2656647563 -0.1534632891 0.5605285168 4280361261
-0.2657268345 -0.1528762132 0.5606595278 4281348924
-0.2657887042 -0.1522887349 0.5607900620 4282072647
-0.2654343247 -0.1514634341 0.5600423813 4282138440
-0.2663279772 -0.1513490230 0.5619278550 4281875268
-0.2659730613 -0.1505238265 0.5611790419 4281348924
-0.2660340965 -0.1499347091 0.5613077879 4281019959
-0.2669277489 -0.1498126239 0.5631933212 4280559154
-0.2669885457 -0.1492208540 0.5633215904 4280427568
-0.2674657404 -0.1488605589 0.5643284321 4280164396
-0.2671095133 -0.1480361074 0.5635768175 4280230189
-0.2671696544 -0.1474431306 0.5637037158 4280295982
-0.2668127120 -0.1466206610 0.5629506111 4280493361
-0.2668723464 -0.1460278183 0.5630763769 4280624947
-0.2673488259 -0.1456618011 0.5640817881 4280690740
-0.2674081326 -0.1450672448 0.5642068982 4280888119
-0.2674672008 -0.1444722712 0.5643315315 4280822326
-0.2675260603 -0.1438769102 0.5644556880 4280888120
-0.2663323581 -0.1426105797 0.5619370937 4280953913
-0.2676431239 -0.1426850259 0.5647026896 4281150522
-0.2677013278 -0.1420884877 0.5648255348 4281150522
-0.2673415840 -0.1412708312 0.5640665293 4281150522
-0.2669814527 -0.1404546648 0.5633066297 4281084729
-0.2666209340 -0.1396399587 0.5625459552 4280888120
-0.2670959830 -0.1392626166 0.5635482669 4280822327
-0.2675710022 -0.1388830245 0.5645505190 4280756534
-0.2672096193 -0.1380690485 0.5637880564 4280690741
-0.2672660947 -0.1374717057 0.5639072061 4280821812
-0.2669040263 -0.1366597712 0.5631432533 4280953398
-0.2673784196 -0.1362758577 0.5641441941 4281150777
-0.2674342394 -0.1356773823 0.5642619729 4281084984
-0.2683270574 -0.1355012953 0.5661457181 4280756533
-0.2683826089 -0.1349001974 0.5662629604 4280690740
-0.2680191398 -0.1340892017 0.5654960871 4280822327
-0.2680741549 -0.1334882826 0.5656121373 4280953913
-0.2689668536 -0.1333022714 0.5674956441 4281019706
-0.2686025500 -0.1324920505 0.5667270422 4281019706
-0.2690761089 -0.1320948452 0.5677261949 4281019706
-0.2695496082 -0.1316954046 0.5687251687 4281019706
-0.2700230181 -0.1312936991 0.5697240829 4281019706
-0.2704963982 -0.1308897585 0.5707228780 4281019706
-0.2709697187 -0.1304835677 0.5717214942 4280888119
-0.2706038654 -0.1296730340 0.5709496140 4280888119
-0.2706572711 -0.1290641278 0.5710622668 4280953912
-0.2711301148 -0.1286540180 0.5720599890 4281019705
-0.2707633376 -0.1278452426 0.5712860823 4281019705
-0.2708160579 -0.1272352487 0.5713973045 4281019705
-0.2712884545 -0.1268212348 0.5723940730 4281085498
-0.2713407874 -0.1262096018 0.5725044012 4281151291
-0.2713928521 -0.1255976111 0.5726143122 4281282361
-0.2714447081 -0.1249852702 0.5727236867 4281150775
-0.2719165981 -0.1245651022 0.5737193823 4281084982
-0.2715477049 -0.1237595379 0.5729410052 4281084982
-0.2724397182 -0.1235274076 0.5748230815 4281150775
-0.2729113102 -0.1231014505 0.5758180618 4281282361
-0.2729622126 -0.1224845201 0.5759254694 4281217338
-0.2734335661 -0.1220550239 0.5769199729 4281085752
-0.2739048004 -0.1216232777 0.5779142976 4281085752
-0.2747968137 -0.1213751584 0.5797963142 4281414717
-0.2756888866 -0.1211228892 0.5816785097 4281546814
-0.2761600316 -0.1206825003 0.5826725960 4281546814
-0.2766311169 -0.1202398688 0.5836665034 4280691505
-0.2771020830 -0.1197949797 0.5846602321 4279704610
-0.2775729597 -0.1193478480 0.5856537819 4286283910
-0.2755306065 -0.1828437895 0.5827100873 4293256685
-0.2756031454 -0.1822443455 0.5828635097 4292664548
-0.2752640545 -0.1813732982 0.5821464062 4292532962
-0.2753361166 -0.1807738096 0.5822987556 4292401376
-0.2749962807 -0.1799045205 0.5815801024 4292006618
-0.2750678360 -0.1793049723 0.5817313790 4291151309
-0.2747272849 -0.1784374416 0.5810111761 4289901242
-0.2747983038 -0.1778378636 0.5811613798 4288848808
-0.2740449607 -0.1767063737 0.5795681477 4288519843
-0.2732909620 -0.1755780280 0.5779735446 4288322464
-0.2729486525 -0.1747167408 0.5772495866 4287993499
-0.2721934915 -0.1735937744 0.5756525993 4288058781
-0.2722627819 -0.1729982048 0.5757991076 4288387746
-0.2723318636 -0.1724021733 0.5759451985 4290558915
-0.2719880044 -0.1715453863 0.5752179623 4293782772
-0.2720565498 -0.1709493548 0.5753629804 4294638079
-0.2721249163 -0.1703528911 0.5755075216 4293256426
-0.2721930742 -0.1697559655 0.5756516457 4291480015
-0.2722610235 -0.1691585779 0.5757953525 4288519330
-0.2727420032 -0.1688165516 0.5768125653 4285887612
-0.2732229829 -0.1684722453 0.5778298378 4284703338
-0.2737039924 -0.1681256890 0.5788470507 4285361525
-0.2733578682 -0.1672707498 0.5781150460 4285032560
-0.2738386095 -0.1669214815 0.5791317821 4284506218
-0.2734918892 -0.1660674810 0.5783984661 4284111460
-0.2739724219 -0.1657155007 0.5794147849 4283914083
-0.2719692290 -0.1638647765 0.5751782656 4284506220
-0.2707929313 -0.1625197530 0.5726906061 4284900976
-0.2700299919 -0.1614273489 0.5710770488 4281282361
-0.2692664564 -0.1603381783 0.5694622397 4280953396
-0.2680879235 -0.1590064764 0.5669698715 4281611326
-0.2677375078 -0.1581695229 0.5662287474 4281545022
-0.2665576041 -0.1568461210 0.5637333989 4281281850
-0.2657915354 -0.1557708085 0.5621132851 4280689714
-0.2666838467 -0.1556671113 0.5640004277 4280821300
-0.2663318217 -0.1548358202 0.5632559061 4280558127
-0.2656884491 -0.1525888592 0.5618952513 4280822326
-0.2658116221 -0.1514104009 0.5621557236 4281019705
