VERSION 0.7
FIELDS x y z rgba
SIZE 4 4 4 4
TYPE F F F U
COUNT 1 1 1 1
WIDTH 920
HEIGHT 1
VIEWPOINT 0.0 0.0 0.0 1.0 0.0 0.0 0.0
POINTS 920
DATA ascii
-0.2757594585 -0.1351249218 0.5672062635 4282925109
-0.2749605477 -0.1341050714 0.5655630231 4282070576
-0.2762995958 -0.1341267228 0.5683172941 4282202162
-0.2763555646 -0.1335223168 0.5684323907 4285361519
-0.2759834230 -0.1327117831 0.5676669478 4289638064
-0.2747549117 -0.1314931363 0.5651400685 4290098623
-0.2769501209 -0.1319107860 0.5696552992 4288914349
-0.2770052254 -0.1313039809 0.5697686672 4288387233
-0.2766318917 -0.1304948181 0.5690007806 4288913577
-0.2771147788 -0.1300892979 0.5699940324 4290624197
-0.2775976062 -0.1296815425 0.5709871054 4290624197
-0.2780803442 -0.1292715520 0.5719800591 4288059559
-0.2781344652 -0.1286610812 0.5720914006 4282598740
-0.2786169946 -0.1282475591 0.5730838776 4282138448
-0.2786707282 -0.1276354343 0.5731943846 4282598999
-0.2791530192 -0.1272183657 0.5741864443 4283782497
-0.2783485949 -0.1262156367 0.5725318193 4282400844
-0.2916343510 -0.1719555259 0.6012326479 4291218131
-0.2921273410 -0.1715770811 0.6022490263 4284704624
-0.2921974957 -0.1709489673 0.6023936272 4280625201
-0.2922673821 -0.1703204066 0.6025377512 4281546303
-0.2923370600 -0.1696913838 0.6026813984 4281546301
-0.2919833660 -0.1688172519 0.6019521952 4280954164
-0.2924757600 -0.1684320122 0.6029673219 4281150773
-0.2925447524 -0.1678016484 0.6031095982 4280953394
-0.2926135361 -0.1671708524 0.6032513976 4280821551
-0.2922585309 -0.1662985831 0.6025195122 4281084723
-0.2910557687 -0.1649475098 0.6000398993 4281018930
-0.2915472388 -0.1645582169 0.6010530591 4281018930
-0.2856808007 -0.1605926454 0.5889587998 4280887344
-0.2747611701 -0.1355733871 0.5664469600 4287596412
-0.2752443254 -0.1351813227 0.5674430132 4285030485
-0.2757274210 -0.1347870082 0.5684389472 4282530611
-0.2740758955 -0.1333518922 0.5650342107 4282004267
-0.2754124403 -0.1333713233 0.5677896142 4283190089
-0.2754680216 -0.1327672601 0.5679042339 4285887602
-0.2746690512 -0.1317530274 0.5662570596 4287795607
-0.2760057747 -0.1317620128 0.5690128207 4289374639
-0.2760607600 -0.1311559081 0.5691261888 4290097849
-0.2765429020 -0.1307515502 0.5701202154 4290163642
-0.2757425010 -0.1297414899 0.5684700608 4290295232
-0.2762242854 -0.1293354779 0.5694633126 4289439923
-0.2767060101 -0.1289272159 0.5704564452 4289046452
-0.2767599225 -0.1283183843 0.5705675483 4287862178
-0.2772414088 -0.1279065907 0.5715602636 4286349198
-0.2772949338 -0.1272961050 0.5716705322 4282138446
-0.2898199260 -0.1712778807 0.5988633037 4288323239
-0.2907337248 -0.1711504459 0.6007515192 4282270283
-0.2908035815 -0.1705239266 0.6008958817 4281151545
-0.2904510498 -0.1696503758 0.6001673937 4281217338
-0.2905203700 -0.1690238714 0.6003106236 4281677117
-0.2905894518 -0.1683969200 0.6004533768 4281611324
-0.2902358174 -0.1675256640 0.5997226834 4281479738
-0.2907269299 -0.1671416610 0.6007374525 4281216566
-0.2903726697 -0.1662713438 0.6000054479 4281150516
-0.2900179923 -0.1654024124 0.5992725492 4281018930
-0.2888171375 -0.1640544832 0.5967912674 4280624170
-0.2876155078 -0.1627115905 0.5943081975 4280558377
-0.2864130139 -0.1613737643 0.5918235183 4280229414
-0.2731916904 -0.1325995326 0.5645039082 4281806890
-0.2723942995 -0.1315871328 0.5628562570 4281543718
-0.2745809257 -0.1320130378 0.5673745275 4282662462
-0.2746359110 -0.1314089596 0.5674881339 4286544249
-0.2746906579 -0.1308045089 0.5676012635 4290097334
-0.2747994661 -0.1295945346 0.5678260922 4290887369
-0.2752803266 -0.1291892976 0.5688197017 4290032060
-0.2757611275 -0.1287818253 0.5698131919 4288585384
-0.2745339870 -0.1275784671 0.5672775507 4287072145
-0.2758683860 -0.1275652349 0.5700348616 4285033078
-0.2767759264 -0.1273494512 0.5719101429 4281611842
-0.2888517678 -0.1710983962 0.5982357264 4287138965
-0.2893426418 -0.1707233340 0.5992523432 4281941318
-0.2889909446 -0.1698508263 0.5985239744 4281743682
-0.2890602052 -0.1692263633 0.5986673832 4280888373
-0.2891292274 -0.1686014533 0.5988103747 4282006082
-0.2887764573 -0.1677312404 0.5980797410 4282006082
-0.2888449430 -0.1671063453 0.5982216001 4281611578
-0.2884914279 -0.1662379801 0.5974894166 4281348406
-0.2881374955 -0.1653709859 0.5967563987 4281150514
-0.2869392037 -0.1640229672 0.5942746401 4280821549
-0.2857401073 -0.1626800001 0.5917912126 4280755756
-0.2820071578 -0.1599058062 0.5840600133 4280360998
-0.2812281251 -0.1588169187 0.5824465156 4280098085
-0.2718274891 -0.1322408766 0.5629770756 4283515704
-0.2723079324 -0.1318479925 0.5639720559 4282199844
-0.2732686400 -0.1310555041 0.5659617782 4283845445
-0.2733231485 -0.1304526925 0.5660746694 4287136390
-0.2733774483 -0.1298495382 0.5661871433 4289110180
-0.2734315097 -0.1292460114 0.5662990808 4288781991
-0.2739113271 -0.1288425177 0.5672928691 4285558134
-0.2743910849 -0.1284367740 0.5682864785 4282071103
-0.2744446397 -0.1278303117 0.5683973432 4281281587
-0.2874642611 -0.1706691086 0.5967347622 4287073172
-0.2875336707 -0.1700471342 0.5968788266 4282072904
-0.2880233526 -0.1696724296 0.5978953242 4280954677
-0.2880924344 -0.1690486521 0.5980387330 4280691505
-0.2877406180 -0.1681785583 0.5973083973 4281612094
-0.2873883545 -0.1673098356 0.5965771675 4281348922
-0.2870357037 -0.1664424986 0.5958451033 4282072129
-0.2871035933 -0.1658196896 0.5959860682 4281743164
-0.2859080434 -0.1644697636 0.5935042500 4281347892
-0.2847116590 -0.1631248742 0.5910207629 4281216306
-0.2830932140 -0.1615446508 0.5876610875 4280755755
-0.2818951309 -0.1602108032 0.5851740241 4280821548
-0.2709998488 -0.1308921129 0.5625569820 4285422931
-0.2719039023 -0.1307016462 0.5644336343 4283317555
-0.2719582021 -0.1301004887 0.5645463467 4282201143
-0.2724372745 -0.1297013313 0.5655409098 4282135350
-0.2724912167 -0.1290985197 0.5656528473 4282926414
-0.2733952701 -0.1288962662 0.5675295591 4282597449
-0.2734489143 -0.1282908618 0.5676408410 4281939002
-0.2739276588 -0.1278836876 0.5686346889 4282267967
-0.2896162271 -0.1198444217 0.6012019515 4292731364
-0.2860792875 -0.1702393293 0.5952320695 4286875793
-0.2861483991 -0.1696189642 0.5953758955 4281743939
-0.2862173319 -0.1689981520 0.5955193043 4281546814
-0.2862860262 -0.1683768928 0.5956622362 4280757298
-0.2863545120 -0.1677551866 0.5958047509 4281677887
-0.2855828106 -0.1666429043 0.5941991210 4281677887
-0.2856506705 -0.1660221368 0.5943402648 4281743680
-0.2848779261 -0.1649144590 0.5927324891 4281809473
-0.2836843133 -0.1635676622 0.5902489424 4281742910
-0.2824898660 -0.1622259170 0.5877637267 4281413945
-0.2812946141 -0.1608892381 0.5852768421 4281019441
-0.2788368464 -0.1588388979 0.5801631212 4280756269
-0.2780603468 -0.1577537656 0.5785474777 4280493615
-0.2772832513 -0.1566718668 0.5769305825 4280559408
-0.2760846913 -0.1553564072 0.5744367838 4280822580
-0.2676162422 -0.1332685351 0.5568168759 4281545264
-0.2709657848 -0.1305516958 0.5637861490 4283976255
-0.2710199356 -0.1299512684 0.5638988018 4281741364
-0.2714980841 -0.1295528859 0.5648936629 4282399294
-0.2719761729 -0.1291522831 0.5658884048 4282136900
-0.2724541724 -0.1287494302 0.5668829679 4281676349
-0.2861352265 -0.1180161163 0.5953484774 4292270821
-0.2846968174 -0.1698090732 0.5937277079 4286744207
-0.2847656906 -0.1691903174 0.5938712955 4281546560
-0.2848343253 -0.1685710996 0.5940144658 4281546814
-0.2849027514 -0.1679514498 0.5941571593 4281086263
-0.2845518589 -0.1670852751 0.5934254527 4282006852
-0.2842005789 -0.1662204713 0.5926928520 4282533196
-0.2838488817 -0.1653570533 0.5919593573 4282335817
-0.2830773592 -0.1642517000 0.5903503895 4281612094
-0.2818857729 -0.1629071236 0.5878653526 4281677117
-0.2781759501 -0.1601185799 0.5801286101 4281742910
-0.2795001566 -0.1602331698 0.5828902125 4281414199
-0.2783061266 -0.1589037925 0.5804001093 4281085234
-0.2775311768 -0.1578182429 0.5787839293 4280625201
-0.2767556012 -0.1567359418 0.5771664977 4280559408
-0.2666305304 -0.1337030232 0.5560509562 4285953913
-0.2666857243 -0.1331127733 0.5561660528 4283321421
-0.2671634555 -0.1327321678 0.5571623445 4281808182
-0.2708751261 -0.1308103204 0.5649029613 4286082661
-0.2705059946 -0.1300052553 0.5641331077 4283255114
-0.2701364458 -0.1292017102 0.5633624196 4282202426
-0.2710369825 -0.1290044188 0.5652405024 4281676347
-0.2710904777 -0.1284017265 0.5653520823 4281807933
-0.2829909027 -0.1176453233 0.5901700854 4281940807
-0.2872963846 -0.1187695041 0.5991490483 4286348938
-0.2826634347 -0.1161992624 0.5894871354 4290362822
-0.2882471383 -0.1178267449 0.6011317968 4292862956
-0.2837347686 -0.1696281582 0.5930951834 4286283656
-0.2833854854 -0.1687611789 0.5923650265 4281151802
-0.2834538519 -0.1681435704 0.5925079584 4281744193
-0.2835219800 -0.1675255299 0.5926504135 4281217849
-0.2831716537 -0.1666608453 0.5919180512 4281612094
-0.2824025154 -0.1655522883 0.5903103352 4282730575
-0.2820512354 -0.1646912992 0.5895760059 4283520091
-0.2812809646 -0.1635882705 0.5879659057 4282664782
-0.2800914049 -0.1622459292 0.5854793787 4281414715
-0.2793197930 -0.1611502469 0.5838664770 4281348922
-0.2789664567 -0.1602984965 0.5831278563 4281612092
-0.2781937420 -0.1592083722 0.5815126300 4281348920
-0.2774204016 -0.1581214964 0.5798961520 4280888373
-0.2753889859 -0.1563240588 0.5756497979 4280756787
-0.2750333846 -0.1554834545 0.5749065280 4280625201
-0.2734193504 -0.1539359689 0.5715326667 4280756787
-0.2739015520 -0.1535713226 0.5725406408 4281085752
-0.2659561336 -0.1355275214 0.5559322238 4283849058
-0.2651688159 -0.1345104426 0.5542864203 4285362297
-0.2673325241 -0.1349871457 0.5588092804 4286940810
-0.2657011449 -0.1335463077 0.5553991795 4287532947
-0.2674435377 -0.1338009387 0.5590413809 4286348414
-0.2666548789 -0.1327870786 0.5573928356 4283848280
-0.2667096853 -0.1321949214 0.5575073361 4282465336
-0.2773083448 -0.1161946505 0.5796619058 4282071879
-0.2833526134 -0.1174110845 0.5922963023 4286875282
-0.2846763730 -0.1172984466 0.5950633883 4288454568
-0.2855753601 -0.1170056164 0.5969425440 4289967807
-0.2864743769 -0.1167086288 0.5988217592 4291875800
-0.2819395363 -0.1689471304 0.5907139778 4286481035
-0.2820078135 -0.1683315635 0.5908570886 4281020216
-0.2816586494 -0.1674674749 0.5901254416 4282138438
-0.2817264199 -0.1668519378 0.5902674198 4281414715
-0.2813764811 -0.1659896821 0.5895342827 4281546301
-0.2810261548 -0.1651288122 0.5888003111 4281677887
-0.2806754112 -0.1642693281 0.5880653858 4282862161
-0.2799064517 -0.1631677002 0.5864543319 4283783263
-0.2791368961 -0.1620692909 0.5848419666 4282796368
-0.2767598331 -0.1594006121 0.5798615813 4281151543
-0.2752160728 -0.1572301239 0.5766270757 4280954166
-0.2761166990 -0.1571018845 0.5785140991 4281085752
-0.2745067775 -0.1555468738 0.5751410127 4280756787
-0.2745700777 -0.1549435705 0.5752736330 4280362029
-0.2696093917 -0.1515165567 0.5648800731 4280493615
-0.2705085874 -0.1513921767 0.5667640567 4280690994
-0.2648591101 -0.1371322423 0.5549274087 4283585892
-0.2640744150 -0.1361112297 0.5532833338 4283980391
-0.2653920949 -0.1361726075 0.5560441017 4283848805
-0.2658687532 -0.1357982606 0.5570427775 4284770160
-0.2659245729 -0.1352077276 0.5571597815 4285625469
-0.2664010525 -0.1348298341 0.5581580400 4285624951
-0.2660355866 -0.1340255588 0.5573923588 4285559158
-0.2669328153 -0.1338561922 0.5592722297 4285361778
-0.2669879496 -0.1332623065 0.5593876839 4284177504
-0.2745640278 -0.1165907905 0.5752609968 4282269258
-0.2771553397 -0.1170459762 0.5806902647 4281742914
-0.2784757316 -0.1169553250 0.5834566951 4282006086
-0.2797963321 -0.1168586165 0.5862236023 4285032564
-0.2777250707 -0.1153470278 0.5818839073 4288782765
-0.2803176939 -0.1157712713 0.5873159170 4290099393
-0.2786694169 -0.1144418195 0.5838624835 4289573049
-0.2829594910 -0.1155449376 0.5928509831 4288257187
-0.2834320664 -0.1150781140 0.5938411355 4290823114
-0.2805646956 -0.1685154289 0.5892045498 4287928224
-0.2802163661 -0.1676523685 0.5884730220 4281677889
-0.2802840769 -0.1670388877 0.5886151791 4281941061
-0.2799349725 -0.1661776751 0.5878821015 4281480510
-0.2800021768 -0.1655642092 0.5880231857 4281875268
-0.2796523571 -0.1647048593 0.5872885585 4281283131
-0.2788852751 -0.1636023372 0.5856776237 4281283129
-0.2785345316 -0.1627466679 0.5849410295 4282730575
-0.2777663171 -0.1616496891 0.5833277702 4283914849
-0.2774146497 -0.1607977301 0.5825892091 4282993747
-0.2770625651 -0.1599471718 0.5818498135 4281546301
-0.2762927115 -0.1588580608 0.5802330971 4281217336
-0.2746873498 -0.1572940946 0.5768617392 4281217338
-0.2755863070 -0.1571658403 0.5787495971 4281217338
-0.2756501436 -0.1565590650 0.5788836479 4281085752
-0.2740427554 -0.1550066918 0.5755080581 4280756787
-0.2711808383 -0.1527551711 0.5694978237 4280559408
-0.2704070807 -0.1516883671 0.5678728819 4280427822
-0.2667064965 -0.1489901543 0.5601013899 4280361775
-0.2676033974 -0.1488667876 0.5619849563 4280493361
-0.2635121644 -0.1367530972 0.5533931255 4286019976
-0.2645194829 -0.1354242265 0.5555085540 4285164664
-0.2663106620 -0.1350984573 0.5592700839 4285032562
-0.2727707922 -0.1160994694 0.5728368163 4283125084
-0.2749339938 -0.1163786873 0.5773797035 4285295481
-0.2741844058 -0.1147818789 0.5758055449 4287598236
-0.2759250402 -0.1148667261 0.5794609785 4288124580
-0.2780892849 -0.1151188239 0.5840060115 4288256935
-0.2789839506 -0.1148382276 0.5858849287 4287138454
-0.2798787057 -0.1145534813 0.5877639055 4284506988
-0.2744211257 -0.1116794050 0.5763026476 4286020227
-0.2803975940 -0.1134573519 0.5888536572 4291086799
-0.2795398235 -0.1689461768 0.5884247422 4291086545
-0.2791924179 -0.1680832505 0.5876934528 4289178548
-0.2788445950 -0.1672216952 0.5869613290 4282862420
-0.2789120376 -0.1666098237 0.5871032476 4281348924
-0.2785634995 -0.1657501161 0.5863695741 4281414717
-0.2786304057 -0.1651382744 0.5865104198 4281875268
-0.2782811224 -0.1642804146 0.5857751966 4281875268
-0.2775153518 -0.1631793231 0.5841633081 4281348922
-0.2771651447 -0.1623251736 0.5834261179 4281283129
-0.2763982713 -0.1612295955 0.5818118453 4282532426
-0.2768798470 -0.1608629674 0.5828256011 4283321942
-0.2761120498 -0.1597711146 0.5812093616 4282729805
-0.2757602036 -0.1589225680 0.5804687142 4281808703
-0.2741579711 -0.1573580056 0.5770960450 4281216568
-0.2750552595 -0.1572297215 0.5789847970 4280821810
-0.2722010911 -0.1549615711 0.5729768872 4280756017
-0.2726808786 -0.1545969844 0.5739868283 4280953396
-0.2714925110 -0.1532882750 0.5714853406 4280887603
-0.2715547681 -0.1526883096 0.5716164112 4280492845
-0.2682789564 -0.1502189636 0.5647208691 4280361261
-0.2666707039 -0.1486947536 0.5613355637 4280624433
-0.2655388713 -0.1468215734 0.5589530468 4280295982
-0.2630054355 -0.1368092299 0.5536202192 4282006603
-0.2634803355 -0.1364400387 0.5546199083 4282730326
-0.2639552057 -0.1360686123 0.5556194782 4283914600
-0.2635918856 -0.1352648437 0.5548546910 4284111977
-0.2636473477 -0.1346766800 0.5549713969 4283848805
-0.2641218007 -0.1343013197 0.5559701920 4283914851
-0.2641769052 -0.1337114871 0.5560861230 4283717472
-0.2638123631 -0.1329099834 0.5553188324 4283454298
-0.2647059262 -0.1327410787 0.5571997762 4283717470
-0.2643408775 -0.1319397837 0.5564312935 4283650907
-0.2736110389 -0.1154495478 0.5759447813 4288256168
-0.2749260068 -0.1153613999 0.5787127614 4286413962
-0.2753963768 -0.1149146855 0.5797029138 4284703344
-0.2754442096 -0.1142904386 0.5798035860 4283058774
-0.2738016546 -0.1129685342 0.5763460398 4281874500
-0.2759617269 -0.1132143512 0.5808929801 4281217084
-0.2768542767 -0.1129330099 0.5827717185 4282401358
-0.2773240805 -0.1124760583 0.5837606192 4287665563
-0.2786394358 -0.1123578548 0.5865294337 4292994796
-0.2780333757 -0.1697330624 0.5866252184 4291415512
-0.2781015933 -0.1691227704 0.5867691040 4290757580
-0.2781696022 -0.1685120165 0.5869125724 4289770685
-0.2778227031 -0.1676505953 0.5861806870 4289046962
-0.2778901756 -0.1670398563 0.5863230824 4284441452
-0.2775425613 -0.1661802828 0.5855896473 4281612096
-0.2771945596 -0.1653220952 0.5848553777 4281283131
-0.2772611976 -0.1647118479 0.5849959254 4281875268
-0.2769124210 -0.1638555229 0.5842601061 4281809475
-0.2765632868 -0.1630005687 0.5835233927 4281874496
-0.2762137055 -0.1621470302 0.5827858448 4281545531
-0.2758637071 -0.1612948775 0.5820474029 4281216566
-0.2755133212 -0.1604441255 0.5813080668 4281677117
-0.2747468650 -0.1593537033 0.5796909332 4282269254
-0.2743955255 -0.1585066766 0.5789496899 4282269254
-0.2744596601 -0.1579003185 0.5790849328 4281742910
-0.2736916542 -0.1568168849 0.5774645805 4281150773
-0.2729230821 -0.1557366997 0.5758429170 4280953394
-0.2729861736 -0.1551327407 0.5759760141 4280953394
-0.2718003392 -0.1538216919 0.5734740496 4280953396
-0.2676994205 -0.1508732736 0.5648214817 4280690224
-0.2677606046 -0.1502800584 0.5649505854 4280492845
-0.2665720284 -0.1489880681 0.5624427795 4280756017
-0.2645494640 -0.1472374648 0.5581753254 4280164396
-0.2632211745 -0.1384764314 0.5553727746 4280426799
-0.2641135156 -0.1383267343 0.5572555661 4280230192
-0.2637520432 -0.1375191063 0.5564929247 4280559157
-0.2633901834 -0.1367129833 0.5557293892 4280427571
-0.2638642788 -0.1363404840 0.5567296743 4280427571
-0.2630835474 -0.1353203356 0.5550823808 4280559155
-0.2635572553 -0.1349461675 0.5560818911 4280756534
-0.2644493878 -0.1347830147 0.5579642057 4280756533
-0.2640860677 -0.1339787543 0.5571976900 4280888119
-0.2637223899 -0.1331759989 0.5564302802 4280888630
-0.2633582950 -0.1323747635 0.5556620955 4280559665
-0.2634125650 -0.1317845434 0.5557765961 4280821549
-0.2643043697 -0.1316111088 0.5576582551 4280953135
-0.2643584013 -0.1310182810 0.5577722192 4280822837
-0.2656693161 -0.1310451776 0.5605381131 4280757044
-0.2653039992 -0.1302430630 0.5597673655 4280954425
-0.2645191252 -0.1292376369 0.5581113696 4280954425
-0.2674945593 -0.1200310513 0.5643892288 4283914851
-0.2684844732 -0.1185870618 0.5664778948 4289835453
-0.2699429095 -0.1166999713 0.5695550442 4289177270
-0.2712549269 -0.1166312769 0.5723232627 4287400859
-0.2721458673 -0.1163763776 0.5742030740 4285558655
-0.2713514566 -0.1154005527 0.5725269318 4282269005
-0.2722422183 -0.1151411682 0.5744063854 4280624180
-0.2731330395 -0.1148776338 0.5762858987 4279308061
-0.2719160318 -0.1137283295 0.5737181902 4279571233
-0.2715416551 -0.1129351854 0.5729282498 4279900710
-0.2715885937 -0.1123180315 0.5730273128 4280427054
-0.2737442851 -0.1125678048 0.5775755644 4280953912
-0.2746348381 -0.1122902036 0.5794546008 4280888119
-0.2755254507 -0.1120084375 0.5813336968 4285230711
-0.2726179957 -0.1101874039 0.5751992464 4292270562
-0.2765297890 -0.1705112457 0.5848231912 4291745247
-0.2765981257 -0.1699034572 0.5849677920 4291678684
-0.2766662836 -0.1692952067 0.5851118565 4290691789
-0.2767342031 -0.1686865091 0.5852555633 4289968064
-0.2768019140 -0.1680773646 0.5853987336 4288783790
-0.2764555514 -0.1672174633 0.5846662521 4288060067
-0.2765227556 -0.1666083336 0.5848083496 4285757312
-0.2761756778 -0.1657502651 0.5840743184 4282401612
-0.2762423456 -0.1651411802 0.5842153430 4281283131
-0.2758945525 -0.1642849594 0.5834797621 4281809475
-0.2755463123 -0.1634301394 0.5827433467 4281612096
-0.2756121457 -0.1628215611 0.5828825831 4281677117
-0.2748486698 -0.1617246866 0.5812678933 4281808703
-0.2749138474 -0.1611170620 0.5814057589 4281545531
-0.2745640874 -0.1602669209 0.5806660652 4281019187
-0.2742139101 -0.1594181806 0.5799254775 4281018676
-0.2742782831 -0.1588111073 0.5800616145 4281347641
-0.2730973065 -0.1574855894 0.5775640011 4282005823
-0.2735760808 -0.1571188420 0.5785765052 4281808444
-0.2736395895 -0.1565123349 0.5787108541 4281479481
-0.2724569142 -0.1551956683 0.5762096047 4281084723
-0.2687808573 -0.1524701715 0.5684353113 4280953394
-0.2700891495 -0.1525776684 0.5712021589 4280953394
-0.2676572502 -0.1505749077 0.5660589933 4280756017
-0.2636210024 -0.1470653564 0.5575228930 4280296236
-0.2645124197 -0.1469411254 0.5594081283 4280164650
-0.2633240819 -0.1456622183 0.5568948984 4280098603
-0.2625510097 -0.1446176469 0.5552600026 4280032810
-0.2611763179 -0.1407919377 0.5523527265 4279966499
-0.2627117038 -0.1385330409 0.5555998087 4280492592
-0.2636588216 -0.1377934068 0.5576028824 4280230192
-0.2641323507 -0.1374202371 0.5586043000 4280493621
-0.2641884685 -0.1368286461 0.5587229729 4280691000
-0.2629920244 -0.1355910152 0.5561926365 4280690741
-0.2634649575 -0.1352157742 0.5571928620 4280756534
-0.2639378607 -0.1348382831 0.5581930280 4281020218
-0.2639930248 -0.1342461258 0.5583096743 4280954425
-0.2640479505 -0.1336536109 0.5584258437 4280822837
-0.2641026676 -0.1330607235 0.5585415363 4280691251
-0.2637391686 -0.1322578788 0.5577728152 4281018928
-0.2654655874 -0.1324998289 0.5614238977 4280821549
-0.2651017308 -0.1316953003 0.5606544614 4281020470
-0.2655739486 -0.1313058585 0.5616531372 4280625712
-0.2647911906 -0.1302966475 0.5599976778 4280428081
-0.2640078664 -0.1292908341 0.5583410263 4280625460
-0.2655694485 -0.1213192046 0.5616436005 4281020470
-0.2664587498 -0.1210993454 0.5635243654 4282138440
-0.2660890520 -0.1203060746 0.5627424717 4283849058
-0.2669782639 -0.1200807840 0.5646230578 4285296250
-0.2674477398 -0.1196634993 0.5656158924 4286546317
-0.2674971819 -0.1190570667 0.5657204986 4288191143
-0.2675463855 -0.1184502989 0.5658245683 4288520108
-0.2680154741 -0.1180281937 0.5668165684 4288125352
-0.2689046264 -0.1177878976 0.5686970353 4285756804
-0.2681128979 -0.1168110892 0.5670226216 4282926935
-0.2706831396 -0.1172948480 0.5724583268 4281150524
-0.2719928920 -0.1172232851 0.5752282739 4280163631
-0.2716209590 -0.1164247543 0.5744417310 4279505701
-0.2712486684 -0.1156278029 0.5736544132 4279242014
-0.2717172205 -0.1151890680 0.5746452808 4280228909
-0.2709236145 -0.1142160222 0.5729669333 4280887092
-0.2709710002 -0.1135992780 0.5730671287 4280821299
-0.2705972791 -0.1128067672 0.5722768307 4281150264
-0.2710650265 -0.1123648211 0.5732659698 4281347643
-0.2715326548 -0.1119206324 0.5742549896 4281085498
-0.2711580992 -0.1111290827 0.5734628439 4281217084
-0.2720465064 -0.1108539402 0.5753417015 4284309609
-0.2729349732 -0.1105746403 0.5772206783 4292073183
-0.2751657963 -0.1700696796 0.5833087564 4291350489
-0.2752338648 -0.1694635004 0.5834530592 4290889166
-0.2753017247 -0.1688568592 0.5835968852 4289770685
-0.2753693759 -0.1682497710 0.5837402940 4288981169
-0.2754368186 -0.1676422358 0.5838832259 4287928481
-0.2755040526 -0.1670342684 0.5840257406 4286217863
-0.2751578987 -0.1661763340 0.5832920074 4285033589
-0.2748113573 -0.1653197706 0.5825573802 4283980644
-0.2748777568 -0.1647122949 0.5826981068 4282533198
-0.2745304704 -0.1638575941 0.5819619298 4282335049
-0.2745963335 -0.1632501632 0.5821015835 4281808705
-0.2742483616 -0.1623973399 0.5813638568 4281677889
-0.2738999426 -0.1615459025 0.5806252956 4281546303
-0.2739649713 -0.1609389931 0.5807631612 4281479740
-0.2736158371 -0.1600894481 0.5800230503 4281150775
-0.2728522718 -0.1590000391 0.5784043670 4280887601
-0.2720880806 -0.1579138786 0.5767844319 4280624429
-0.2725659907 -0.1575492769 0.5777975321 4281019191
-0.2726295590 -0.1569438875 0.5779322982 4281150777
-0.2710351944 -0.1553876996 0.5745524764 4281348156
-0.2690253258 -0.1536017954 0.5702918768 4281348156
-0.2686727643 -0.1527676880 0.5695445538 4281216570
-0.2699786723 -0.1528743356 0.5723128319 4281019191
-0.2679664493 -0.1511037797 0.5680472255 4280887605
-0.2659530640 -0.1493420601 0.5637791157 4280887605
-0.2643535137 -0.1478212178 0.5603883266 4280821812
-0.2648284435 -0.1474630535 0.5613951683 4280690226
-0.2632274628 -0.1459515989 0.5580012798 4280624433
-0.2645324469 -0.1460521221 0.5607676506 4280558640
-0.2609114945 -0.1428238899 0.5530918241 4280492847
-0.2622161210 -0.1429204494 0.5558574200 4280361261
-0.2602532506 -0.1406246424 0.5516964197 4280163882
-0.2598945498 -0.1398186982 0.5509360433 4280163882
-0.2607832253 -0.1396825761 0.5528199077 4280164396
-0.2600080073 -0.1386549473 0.5511766076 4280164396
-0.2608966529 -0.1385143399 0.5530603528 4280098603
-0.2613691986 -0.1381496340 0.5540621281 4280098603
-0.2618417442 -0.1377826780 0.5550637841 4280295468
-0.2623142600 -0.1374134868 0.5560654402 4280361261
-0.2623702586 -0.1368248612 0.5561841726 4280295468
-0.2624260485 -0.1362358630 0.5563024282 4280361261
-0.2628982365 -0.1358617991 0.5573034286 4280493361
-0.2634257078 -0.1348934919 0.5584215522 4280756533
-0.2630639076 -0.1340886205 0.5576545596 4280822326
-0.2627016902 -0.1332852542 0.5568867326 4281084984
-0.2627561688 -0.1326940209 0.5570022464 4281150777
-0.2632275820 -0.1323121190 0.5580015779 4281348670
-0.2645334303 -0.1323454529 0.5607697964 4281809221
-0.2645875812 -0.1317493618 0.5608845949 4283059799
-0.2630252242 -0.1297323853 0.5575726032 4286151813
-0.2634959817 -0.1293439567 0.5585705042 4286612364
-0.2625564337 -0.1251723766 0.5565788150 4287795866
-0.2634441853 -0.1249751151 0.5584607124 4286414213
-0.2630772889 -0.1241814345 0.5576829910 4285164146
-0.2639650106 -0.1239787489 0.5595647693 4283716189
-0.2654235363 -0.1221631840 0.5626566410 4281348156
-0.2654738426 -0.1215610728 0.5627633333 4281413949
-0.2664115727 -0.1207354963 0.5647510886 4281611328
-0.2668803036 -0.1203193441 0.5657447577 4281216570
-0.2673489749 -0.1199009493 0.5667383075 4280690226
-0.2673984468 -0.1192933321 0.5668431520 4280427054
-0.2674476802 -0.1186853796 0.5669475198 4280690226
-0.2679159641 -0.1182621717 0.5679402351 4280558640
-0.2683841586 -0.1178367138 0.5689327121 4279637538
-0.2688522935 -0.1174090132 0.5699250698 4279769124
-0.2689008117 -0.1167968661 0.5700279474 4280690226
-0.2697882652 -0.1165468991 0.5719091892 4280821812
-0.2702561319 -0.1161124781 0.5729009509 4280690226
-0.2703041732 -0.1154964715 0.5730028152 4280426288
-0.2703519762 -0.1148801371 0.5731041431 4280492081
-0.2699796557 -0.1140860468 0.5723149180 4281084729
-0.2696069479 -0.1132935509 0.5715248585 4280887350
-0.2700739205 -0.1128536686 0.5725147128 4280888119
-0.2705408037 -0.1124115512 0.5735044479 4281019705
-0.2701672316 -0.1116200089 0.5727125406 4281151291
-0.2697932720 -0.1108300686 0.5719197989 4281480256
-0.2719407976 -0.1110717654 0.5764722228 4284572779
-0.2715665102 -0.1102792695 0.5756788254 4292204767
-0.2742161453 -0.1698827147 0.5826674700 4291218903
-0.2738721967 -0.1690230519 0.5819365978 4290494408
-0.2739397585 -0.1684180349 0.5820801854 4289046962
-0.2740071416 -0.1678125560 0.5822233558 4287402907
-0.2740742862 -0.1672066301 0.5823660493 4286087047
-0.2741412520 -0.1666002721 0.5825083256 4284902003
-0.2737956345 -0.1657438427 0.5817739367 4284309866
-0.2738620639 -0.1651375145 0.5819150805 4283980644
-0.2735157311 -0.1642829478 0.5811792016 4283322714
-0.2735816240 -0.1636766344 0.5813192129 4283059542
-0.2736473382 -0.1630699039 0.5814588070 4282335819
-0.2732999623 -0.1622176766 0.5807207227 4282072647
-0.2729521990 -0.1613668501 0.5799817443 4281612096
-0.2730170488 -0.1607606411 0.5801195502 4281348924
-0.2730816901 -0.1601539999 0.5802569389 4281085752
-0.2714931965 -0.1585814357 0.5768815875 4281150775
-0.2715570033 -0.1579776108 0.5770171881 4280953396
-0.2712071836 -0.1571338177 0.5762739182 4281019189
-0.2712704837 -0.1565300673 0.5764083862 4280953396
-0.2713335752 -0.1559258848 0.5765424371 4280821810
-0.2705690265 -0.1548477411 0.5749179125 4280821810
-0.2702176869 -0.1540087312 0.5741713047 4280887603
-0.2698659301 -0.1531711370 0.5734239221 4281084982
-0.2695137560 -0.1523349732 0.5726756454 4281216568
-0.2662625611 -0.1498686969 0.5657672882 4281282361
-0.2654947340 -0.1488097310 0.5641357899 4281150775
-0.2651406229 -0.1479852945 0.5633833408 4281019189
-0.2614710927 -0.1453198940 0.5555861592 4280887603
-0.2619443536 -0.1449645162 0.5565918088 4280756017
-0.2612322271 -0.1433369368 0.5550786257 4280690224
-0.2608755529 -0.1425253451 0.5543207526 4280492845
-0.2630075216 -0.1430691928 0.5588508248 4280361259
-0.2609908879 -0.1413560361 0.5545657873 4280492845
-0.2606332004 -0.1405469924 0.5538058281 4280427052
-0.2611053586 -0.1401851773 0.5548090935 4280230443
-0.2607471049 -0.1393772215 0.5540477633 4280230443
-0.2620495856 -0.1394547969 0.5568153858 4280164650
-0.2612755001 -0.1384260058 0.5551705360 4280098857
-0.2621627152 -0.1382771432 0.5570557714 4280163880
-0.2626345158 -0.1379059553 0.5580582619 4280098087
-0.2631062865 -0.1375325173 0.5590606928 4280229675
-0.2619150579 -0.1362914741 0.5565295219 4280295468
-0.2619705796 -0.1357018948 0.5566474795 4280295982
-0.2624417841 -0.1353263855 0.5576487184 4280361775
-0.2629129291 -0.1349486411 0.5586498380 4280361775
-0.2625518739 -0.1341434568 0.5578826666 4280427568
-0.2630227506 -0.1337630898 0.5588832498 4280690226
-0.2626610994 -0.1329590529 0.5581147075 4280756019
-0.2622990310 -0.1321565211 0.5573453903 4281150522
-0.2627694309 -0.1317731738 0.5583449006 4281742659
-0.2628232539 -0.1311796755 0.5584593415 4283388253
-0.2641266882 -0.1312066764 0.5612289310 4285230457
-0.2637636662 -0.1304036230 0.5604575276 4285756801
-0.2629834414 -0.1293970346 0.5587996840 4285230457
-0.2634532750 -0.1290062219 0.5597980022 4284769392
-0.2635060847 -0.1284099817 0.5599101782 4284111462
-0.2631416321 -0.1276111454 0.5591358542 4282335051
-0.2627768219 -0.1268138438 0.5583606362 4281677121
-0.2632459700 -0.1264187694 0.5593575239 4281019189
-0.2624632716 -0.1254232526 0.5576943755 4280098087
-0.2625147104 -0.1248280779 0.5578036904 4279637536
-0.2634007931 -0.1246275678 0.5596864820 4280098087
-0.2630344331 -0.1238332391 0.5589080453 4280623920
-0.2635028958 -0.1234316900 0.5599034429 4280426541
-0.2639712691 -0.1230278909 0.5608986616 4280492847
-0.2636040747 -0.1222344190 0.5601184368 4280624433
-0.2644899786 -0.1220208034 0.5620008707 4280690226
-0.2649580836 -0.1216112226 0.5629954934 4280756019
-0.2650081217 -0.1210085452 0.5631017685 4280887605
-0.2667301893 -0.1211651713 0.5667609572 4281150777
-0.2663619220 -0.1203690395 0.5659784675 4281216315
-0.2664115131 -0.1197624803 0.5660837889 4280953143
-0.2668791413 -0.1193426475 0.5670774579 4280821557
-0.2665099502 -0.1185483560 0.5662930012 4280755764
-0.2682326734 -0.1186813861 0.5699535012 4281018936
-0.2682816088 -0.1180696711 0.5700574517 4280887350
-0.2679117024 -0.1172743812 0.5692715049 4280755507
-0.2687974870 -0.1170275211 0.5711536407 4280755507
-0.2696833313 -0.1167765111 0.5730358958 4280887093
-0.2697315514 -0.1161605939 0.5731383562 4281018679
-0.2693606317 -0.1153649315 0.5723502040 4280754994
-0.2694083154 -0.1147493199 0.5724515319 4280426029
-0.2694557309 -0.1141333729 0.5725523233 4280097576
-0.2690837979 -0.1133405641 0.5717620254 4279702818
-0.2695499063 -0.1129005179 0.5727524161 4280295466
-0.2695966363 -0.1122836098 0.5728516579 4280690224
-0.2692237496 -0.1114927158 0.5720593929 4281545533
-0.2696893513 -0.1110488325 0.5730487108 4281019189
-0.2705743313 -0.1107744500 0.5749291778 4284704365
-0.2718789279 -0.1106666923 0.5777012706 4292204767
-0.2724455893 -0.1691851020 0.5802747607 4291152855
-0.2725130916 -0.1685821265 0.5804185271 4290363592
-0.2725803852 -0.1679787189 0.5805618763 4288652974
-0.2726474702 -0.1673748493 0.5807047486 4286679184
-0.2727143466 -0.1667705476 0.5808472037 4285429117
-0.2723695934 -0.1659151614 0.5801128745 4284902773
-0.2724359632 -0.1653108895 0.5802541971 4284508015
-0.2725020945 -0.1647061706 0.5803951025 4284178280
-0.2721562982 -0.1638531089 0.5796586275 4283651936
-0.2722219229 -0.1632484347 0.5797984004 4283586143
-0.2722873390 -0.1626433134 0.5799376965 4282730834
-0.2719405293 -0.1617926061 0.5791990161 4282270283
-0.2720054090 -0.1611875296 0.5793372393 4281678146
-0.2716578841 -0.1603387147 0.5785970092 4281348924
-0.2717222273 -0.1597336978 0.5787340999 4281085752
-0.2717863917 -0.1591282487 0.5788707733 4281085752
-0.2710253000 -0.1580412686 0.5772497058 4280756787
-0.2710888386 -0.1574368030 0.5773850679 4281084982
-0.2703267336 -0.1563544869 0.5757618546 4280887603
-0.2703896463 -0.1557510197 0.5758958459 4280624431
-0.2679749429 -0.1537259370 0.5707527995 4280558638
-0.2692758441 -0.1538349837 0.5735235810 4280690224
-0.2676854432 -0.1522929519 0.5701362491 4280953396
-0.2669204772 -0.1512260735 0.5685069561 4281150775
-0.2657416165 -0.1499293149 0.5659961104 4281216568
-0.2641485929 -0.1484054625 0.5626031756 4281348154
-0.2650354505 -0.1482765228 0.5644920468 4281216568
-0.2622003555 -0.1460699290 0.5584537387 4281084982
-0.2626730502 -0.1457116604 0.5594604611 4281019189
-0.2631456852 -0.1453511268 0.5604671240 4281019189
-0.2619629204 -0.1440778971 0.5579479933 4280953396
-0.2616072893 -0.1432632208 0.5571905375 4280756017
-0.2620792985 -0.1429015100 0.5581958294 4280756017
-0.2613089085 -0.1418630779 0.5565550327 4280558638
-0.2613663971 -0.1412757635 0.5566774607 4280492845
-0.2605950236 -0.1402421445 0.5550345778 4280296236
-0.2606518865 -0.1396559328 0.5551556945 4280296236
-0.2615374923 -0.1395115256 0.5570418835 4280230443
-0.2611795366 -0.1387025118 0.5562794805 4280230443
-0.2616505027 -0.1383334398 0.5572825670 4280295466
-0.2625361681 -0.1381804198 0.5591689348 4280229673
-0.2625923157 -0.1375885606 0.5592885613 4280229673
-0.2626482546 -0.1369963139 0.5594076514 4280229673
-0.2614589036 -0.1357572377 0.5568745136 4280164650
-0.2619292438 -0.1353815943 0.5578762293 4280098857
-0.2619843185 -0.1347901076 0.5579935908 4280033064
-0.2624544799 -0.1344109178 0.5589949489 4280098857
-0.2625092268 -0.1338177323 0.5591115355 4280361259
-0.2621482909 -0.1330133975 0.5583428144 4280427052
-0.2622025311 -0.1324204206 0.5584583282 4280624178
-0.2635033727 -0.1324538291 0.5612289906 4280624178
-0.2635574043 -0.1318572909 0.5613440275 4280229675
-0.2631954253 -0.1310533583 0.5605731010 4280032296
-0.2632489502 -0.1304570287 0.5606870651 4279834917
-0.2628862560 -0.1296551973 0.5599145889 4279176987
-0.2625232041 -0.1288548857 0.5591412783 4278979608
-0.2629919946 -0.1284626275 0.5601397753 4279242780
-0.2630445063 -0.1278658062 0.5602516532 4279834917
-0.2630968094 -0.1272686422 0.5603630543 4279900710
-0.2631489038 -0.1266711056 0.5604739785 4280361261
-0.2627843022 -0.1258737296 0.5596974492 4280492847
-0.2624193132 -0.1250779033 0.5589200258 4280558640
-0.2620539367 -0.1242836118 0.5581418276 4280953398
-0.2633549869 -0.1242774427 0.5609129071 4280953398
-0.2634059191 -0.1236781478 0.5610214472 4280558640
-0.2638735175 -0.1232732609 0.5620173216 4280887605
-0.2635071576 -0.1224785298 0.5612370372 4280887605
-0.2639744580 -0.1220710501 0.5622323155 4280887605
-0.2644416690 -0.1216613203 0.5632274151 4280821812
-0.2640744746 -0.1208674684 0.5624453425 4280756019
-0.2649586499 -0.1206451505 0.5643284917 4280953398
-0.2658429146 -0.1204186827 0.5662118793 4281216057
-0.2654750049 -0.1196238026 0.5654283166 4281150264
-0.2659417093 -0.1192047670 0.5664222836 4280952885
-0.2672434747 -0.1191558465 0.5691949129 4281084471
-0.2672924995 -0.1185451820 0.5692993402 4280689713
-0.2673413157 -0.1179341823 0.5694033504 4280294955
-0.2682254910 -0.1176894829 0.5712864995 4280558128
-0.2686918676 -0.1172582656 0.5722798109 4280821300
-0.2687402070 -0.1166434065 0.5723827481 4280821300
-0.2687883079 -0.1160282120 0.5724852085 4281018679
-0.2684180737 -0.1152331904 0.5716966391 4280886065
-0.2684656084 -0.1146183014 0.5717979074 4280886065
-0.2685129344 -0.1140030771 0.5718986988 4279702305
-0.2685599923 -0.1133875325 0.5719989538 4279570719
-0.2686068416 -0.1127716601 0.5720986724 4283913568
-0.2682349682 -0.1119807735 0.5713066459 4285624186
-0.2691645026 -0.1110949069 0.5732864738 4281018676
-0.2687917948 -0.1103049889 0.5724925995 4285033330
-0.2700936794 -0.1102000847 0.5752654672 4292336353
-0.2706792653 -0.1684867889 0.5778796673 4291152855
-0.2707463801 -0.1678863466 0.5780230165 4290363594
-0.2708132863 -0.1672854573 0.5781658292 4289310906
-0.2712904215 -0.1669366658 0.5791844726 4287731874
-0.2713569999 -0.1663339734 0.5793266892 4286350221
-0.2710127831 -0.1654801071 0.5785917640 4285429119
-0.2710788548 -0.1648774445 0.5787328482 4284573810
-0.2711447179 -0.1642743498 0.5788734555 4284244073
-0.2712104023 -0.1636707932 0.5790136456 4284244073
-0.2708648145 -0.1628197432 0.5782758594 4283915108
-0.2709299624 -0.1622162461 0.5784149170 4283125592
-0.2709949017 -0.1616123021 0.5785535574 4282665041
-0.2706483006 -0.1607636213 0.5778136253 4282007111
-0.2707127035 -0.1601597369 0.5779511333 4281612096
-0.2707768977 -0.1595554203 0.5780881643 4281217338
-0.2708408833 -0.1589506716 0.5782247782 4281085752
-0.2700812519 -0.1578641981 0.5766029954 4280756787
-0.2701446116 -0.1572604477 0.5767382979 4280887603
-0.2693839669 -0.1561786532 0.5751143694 4280821810
-0.2686226964 -0.1551001221 0.5734891295 4280756017
-0.2674487829 -0.1537878960 0.5709828734 4280756017
-0.2675106227 -0.1531888992 0.5711148977 4280756017
-0.2683968246 -0.1530597359 0.5730068684 4280887603
-0.2668088973 -0.1515213102 0.5696167946 4281019189
-0.2656325102 -0.1502231210 0.5671052933 4281150775
-0.2652804554 -0.1493947804 0.5663536787 4281084982
-0.2637496591 -0.1472814381 0.5630854964 4281084982
-0.2629833817 -0.1462297142 0.5614495873 4281150775
-0.2634553313 -0.1458672136 0.5624571443 4281216568
-0.2622751296 -0.1445916444 0.5599375367 4281150775
-0.2627466619 -0.1442283541 0.5609441996 4281150775
-0.2628049254 -0.1436369568 0.5610685945 4281216568
-0.2620363832 -0.1425953358 0.5594278574 4280888373
-0.2616806626 -0.1417810321 0.5586683750 4280822580
-0.2604975700 -0.1405221075 0.5561425686 4280822580
-0.2617951930 -0.1406010985 0.5589128733 4280756787
-0.2610247731 -0.1395681798 0.5572681427 4280690994
-0.2614950836 -0.1391993761 0.5582721829 4280625201
-0.2619653642 -0.1388283074 0.5592761636 4280559408
-0.2607798278 -0.1375814676 0.5567451715 4280559408
-0.2616637051 -0.1374270916 0.5586321950 4280362029
-0.2617194653 -0.1368355602 0.5587512255 4280427822
-0.2609466314 -0.1358125210 0.5571012497 4280427822
-0.2614710927 -0.1348450333 0.5582209826 4280296236
-0.2611659467 -0.1334486753 0.5575695634 4280493615
-0.2608056068 -0.1326459050 0.5568002462 4280559408
-0.2616890371 -0.1324744672 0.5586862564 4280690224
-0.2625725865 -0.1322989166 0.5605725646 4280558638
-0.2634562552 -0.1321192235 0.5624591708 4280624431
-0.2630951107 -0.1313140392 0.5616881251 4280953396
-0.2627335787 -0.1305103749 0.5609163046 4281150775
-0.2623716593 -0.1297082305 0.5601436496 4281348154
-0.2624772787 -0.1285152286 0.5603690743 4281348154
-0.2621143460 -0.1277157813 0.5595942736 4281150775
-0.2614388764 -0.1255262196 0.5581521988 4281216568
-0.2623729110 -0.1247299537 0.5601463318 4281216568
-0.2628398538 -0.1243284568 0.5611431599 4281150775
-0.2633067071 -0.1239247173 0.5621398687 4281019189
-0.2629414201 -0.1231290773 0.5613600016 4281019187
-0.2634079754 -0.1227227449 0.5623560548 4281084980
-0.2634582818 -0.1221212372 0.5624634624 4281150773
-0.2643409073 -0.1219033375 0.5643478036 4281019187
-0.2643909156 -0.1212992445 0.5644545555 4280887601
-0.2648571134 -0.1208848804 0.5654498935 4281019187
-0.2653232515 -0.1204682663 0.5664450526 4281150262
-0.2662059069 -0.1202375814 0.5683294535 4281084469
-0.2662552893 -0.1196283102 0.5684348345 4280952883
-0.2654709220 -0.1186461896 0.5667603016 4280952883
-0.2663533390 -0.1184087619 0.5686442256 4280360746
-0.2668189406 -0.1179828346 0.5696382523 4279768609
-0.2668674588 -0.1173712686 0.5697418451 4279768609
-0.2673328221 -0.1169418022 0.5707352757 4279900195
-0.2677980661 -0.1165100932 0.5717285872 4280492334
-0.2674288452 -0.1157151014 0.5709403157 4281216057
-0.2674764991 -0.1151012480 0.5710420609 4280622893
-0.2675239146 -0.1144870743 0.5711432695 4280820272
-0.2675710917 -0.1138725802 0.5712440014 4282663244
-0.2676180601 -0.1132577509 0.5713442564 4284571241
-0.2676647604 -0.1126426011 0.5714439750 4286282116
-0.2677112222 -0.1120271385 0.5715432167 4288979629
-0.2677574456 -0.1114113480 0.5716419220 4288124574
-0.2678034604 -0.1107952371 0.5717400908 4282861134
-0.2691027820 -0.1106944755 0.5745140910 4285493879
-0.2699843943 -0.1104166955 0.5763962269 4292533730
-0.2693264186 -0.1680431813 0.5763581991 4291416027
-0.2693932652 -0.1674443483 0.5765011907 4290824145
-0.2694599032 -0.1668450683 0.5766438246 4290232008
-0.2699359357 -0.1664980054 0.5776625276 4289113527
-0.2700022459 -0.1658969223 0.5778044462 4287995046
-0.2696585655 -0.1650445759 0.5770689249 4286875795
-0.2697243690 -0.1644435376 0.5772097707 4285559935
-0.2697899640 -0.1638420522 0.5773501396 4284573040
-0.2698553503 -0.1632401198 0.5774900317 4284178282
-0.2699205279 -0.1626377702 0.5776295066 4284309868
-0.2699854970 -0.1620349735 0.5777685642 4283651938
-0.2700502276 -0.1614317298 0.5779071450 4283256921
-0.2697042823 -0.1605836451 0.5771667957 4282598991
-0.2697685063 -0.1599804759 0.5773042440 4282138440
-0.2698325515 -0.1593768597 0.5774412751 4281546303
-0.2686639428 -0.1580478400 0.5749405026 4281283131
-0.2691381574 -0.1576868743 0.5759552717 4281019959
-0.2687903643 -0.1568440050 0.5752109885 4280887603
-0.2684421539 -0.1560025364 0.5744658709 4280887603
-0.2685047388 -0.1554004848 0.5745997429 4280887603
-0.2681558132 -0.1545609534 0.5738530755 4280821810
-0.2678065002 -0.1537228525 0.5731055140 4280756017
-0.2678682506 -0.1531213820 0.5732376575 4280821810
-0.2658719420 -0.1513480842 0.5689656138 4280887603
-0.2651094794 -0.1502836943 0.5673339367 4281019189
-0.2664051950 -0.1503847688 0.5701067448 4281084982
-0.2648183107 -0.1488593221 0.5667108297 4281084982
-0.2644663155 -0.1480326355 0.5659575462 4281150775
-0.2637018561 -0.1469777375 0.5643215775 4281216568
-0.2637610734 -0.1463836133 0.5644483566 4281150775
-0.2617589831 -0.1446501017 0.5601638556 4281150775
-0.2630542517 -0.1447404176 0.5629357696 4281216568
-0.2627002597 -0.1439210027 0.5621781945 4281282361
-0.2627583444 -0.1433280706 0.5623025298 4281085752
-0.2624036372 -0.1425106823 0.5615434647 4281085752
-0.2612231970 -0.1412484646 0.5590173006 4281085752
-0.2609243095 -0.1398460567 0.5583776236 4280954166
-0.2609808743 -0.1392558515 0.5584986806 4280888373
-0.2614502609 -0.1388846487 0.5595031977 4280888373
-0.2606802285 -0.1378557980 0.5578553677 4280888373
-0.2599096596 -0.1368303001 0.5562062860 4280888373
-0.2603783906 -0.1364579797 0.5572093725 4280954166
-0.2600203156 -0.1356520653 0.5564430952 4281019705
-0.2604888082 -0.1352771074 0.5574457049 4280953912
-0.2613708079 -0.1351137012 0.5593331456 4280888119
-0.2605983615 -0.1340947598 0.5576801300 4280953912
-0.2606527805 -0.1335030198 0.5577965975 4281019705
-0.2607070208 -0.1329109073 0.5579126477 4281085498
-0.2611749470 -0.1325284690 0.5589140058 4281216566
-0.2612287998 -0.1319346875 0.5590292811 4281282359
-0.2608684003 -0.1311323941 0.5582579970 4281413947
-0.2621642351 -0.1311604232 0.5610310435 4281479740
-0.2622176111 -0.1305636615 0.5611453056 4281282361
-0.2614420950 -0.1295558959 0.5594857335 4281216568
-0.2623237073 -0.1293690354 0.5613723397 4281282361
-0.2615474164 -0.1283643246 0.5597110987 4281216568
-0.2611851692 -0.1275655180 0.5589358807 4281282361
-0.2616518438 -0.1271713227 0.5599346161 4281084982
-0.2617037296 -0.1265742928 0.5600455999 4281150775
-0.2613405585 -0.1257772595 0.5592684150 4281150775
-0.2609770000 -0.1249817610 0.5584904552 4281019189
-0.2618580163 -0.1247810647 0.5603758097 4281150775
-0.2614939511 -0.1239858121 0.5595966578 4280954166
-0.2627900839 -0.1239755303 0.5623703599 4280822580
-0.2632559836 -0.1235693991 0.5633674264 4281151027
-0.2642378807 -0.1221454516 0.5654686689 4280953648
-0.2642878890 -0.1215401813 0.5655757189 4280887601
-0.2647533119 -0.1211247072 0.5665717125 4280887601
-0.2652186453 -0.1207069978 0.5675675273 4280756015
-0.2656839192 -0.1202870309 0.5685631633 4280690222
-0.2653173804 -0.1194902435 0.5677788258 4280887344
-0.2657823265 -0.1190676913 0.5687738061 4280492586
-0.2662471831 -0.1186428964 0.5697686076 4279900449
-0.2662959099 -0.1180314347 0.5698728561 4279768863
-0.2659282088 -0.1172361597 0.5690860152 4280097574
-0.2668088377 -0.1169900075 0.5709705353 4280229160
-0.2676895559 -0.1167396978 0.5728552341 4280229160
-0.2669047713 -0.1157628298 0.5711758137 4280097574
-0.2673688233 -0.1153283864 0.5721689463 4279964963
-0.2669997215 -0.1145343333 0.5713790655 4281675581
-0.2670468688 -0.1139196008 0.5714799166 4285294196
-0.2666770816 -0.1131277755 0.5706885457 4286741642
-0.2671404183 -0.1126891524 0.5716801286 4286610824
-0.2671868205 -0.1120734438 0.5717794299 4287071375
-0.2668161094 -0.1112835333 0.5709860921 4287927195
-0.2672789693 -0.1108410731 0.5719766021 4284242787
-0.2677417099 -0.1103963628 0.5729668736 4287007118
-0.2682043612 -0.1099494174 0.5739569068 4292862695
-0.2680427730 -0.1670018733 0.5749777555 4291811040
-0.2685178220 -0.1666578650 0.5759968162 4291021524
-0.2685840726 -0.1660588533 0.5761389136 4289968836
-0.2686501145 -0.1654593945 0.5762805939 4289113527
-0.2683069408 -0.1646085680 0.5755444169 4288323241
-0.2683724761 -0.1640091389 0.5756850243 4287073174
-0.2684377730 -0.1634092778 0.5758250952 4285625728
-0.2685028911 -0.1628089696 0.5759648085 4284507247
-0.2685678005 -0.1622082293 0.5761039853 4284507247
-0.2686325014 -0.1616070569 0.5762428045 4283980903
-0.2686969638 -0.1610054523 0.5763810873 4283717218
-0.2687612474 -0.1604034156 0.5765189528 4283190874
-0.2688253224 -0.1598009467 0.5766564012 4282664530
-0.2688891590 -0.1591980457 0.5767933726 4281875014
-0.2685428262 -0.1583529562 0.5760504007 4281282877
-0.2681960762 -0.1575092673 0.5753065944 4280953912
-0.2682590783 -0.1569069326 0.5754418373 4281084984
-0.2679116130 -0.1560651660 0.5746964812 4280953398
-0.2671533823 -0.1549867541 0.5730699301 4280887605
-0.2663945556 -0.1539116055 0.5714421868 4280756019
-0.2668668032 -0.1535484195 0.5724552274 4280756019
-0.2661070824 -0.1524770558 0.5708255172 4280821812
-0.2669897676 -0.1523464918 0.5727189779 4280821812
-0.2649966776 -0.1505776495 0.5684435964 4280887605
-0.2654680908 -0.1502128094 0.5694548488 4281019191
-0.2647063732 -0.1491509080 0.5678208470 4281019191
-0.2647663355 -0.1485536546 0.5679494739 4281019191
-0.2640036047 -0.1474965066 0.5663133860 4281084984
-0.2644742727 -0.1471291184 0.5673229694 4281019191
-0.2620650530 -0.1451642662 0.5621550083 4281084984
-0.2633579969 -0.1452527791 0.5649284720 4281216570
-0.2634164989 -0.1446572393 0.5650539994 4281282363
-0.2630631328 -0.1438362002 0.5642959476 4281019959
-0.2614740431 -0.1423441470 0.5608872175 4281019959
-0.2615314722 -0.1417520791 0.5610103607 4281019959
-0.2624125481 -0.1416042149 0.5629004240 4281019959
-0.2612335980 -0.1403454095 0.5603714585 4281085752
-0.2608781457 -0.1395326853 0.5596089959 4281085752
-0.2609345317 -0.1389409453 0.5597299337 4281085752
-0.2609907091 -0.1383488029 0.5598503947 4281085752
-0.2610466480 -0.1377563030 0.5599703789 4281085752
-0.2611023784 -0.1371634007 0.5600899458 4281151545
-0.2611579001 -0.1365701407 0.5602090359 4281217084
-0.2603878677 -0.1355468631 0.5585572720 4281151291
-0.2604427636 -0.1349547207 0.5586750507 4281151291
-0.2604974508 -0.1343621910 0.5587923527 4281085498
-0.2605519295 -0.1337693036 0.5589091778 4281085498
-0.2606061697 -0.1331760436 0.5590255260 4281151291
-0.2614863813 -0.1330026388 0.5609136820 4281217338
-0.2619535327 -0.1326159239 0.5619158149 4281283131
-0.2615941167 -0.1318104863 0.5611448288 4281085752
-0.2616476715 -0.1312138736 0.5612596869 4281019959
-0.2617009878 -0.1306168884 0.5613740683 4281413947
-0.2617540956 -0.1300195307 0.5614879727 4281348154
-0.2613933682 -0.1292173564 0.5607141852 4281085752
-0.2614459395 -0.1286202222 0.5608269572 4281019959
-0.2614983022 -0.1280227453 0.5609392524 4280822580
-0.2615504265 -0.1274248958 0.5610510707 4280690994
-0.2620162368 -0.1270273626 0.5620502830 4281019189
-0.2612399757 -0.1260283887 0.5603851676 4281150775
-0.2612913549 -0.1254304349 0.5604953170 4281282361
-0.2621708512 -0.1252277792 0.5623819232 4281348154
-0.2618076801 -0.1244303212 0.5616028905 4281085752
-0.2622728050 -0.1240262911 0.5626006126 4280888373
-0.2623234391 -0.1234250218 0.5627092123 4281084980
-0.2636173069 -0.1234055087 0.5654847622 4281216566
-0.2628385723 -0.1224145293 0.5638142824 4281019187
-0.2633032799 -0.1220034063 0.5648111105 4280690222
-0.2645973265 -0.1219723895 0.5675869584 4280558636
