VERSION 0.7
FIELDS x y z rgba
SIZE 4 4 4 4
TYPE F F F U
COUNT 1 1 1 1
WIDTH 920
HEIGHT 1
VIEWPOINT 0.0 0.0 0.0 1.0 0.0 0.0 0.0
POINTS 920
DATA ascii
-0.3358586729 -0.1087220460 0.6549156308 4290428617
-0.3354550600 -0.1078645959 0.6541285515 4292270821
-0.3380234241 -0.0793965310 0.6591368318 4292797933
-0.3376049101 -0.0785667822 0.6583207250 4287928483
-0.3367321789 -0.0776341259 0.6566188931 4286217865
-0.3349512219 -0.0764978305 0.6531460285 4282072906
-0.3318078220 -0.0750610456 0.6470165253 4282007113
-0.3291174471 -0.0737393796 0.6417703629 4281546562
-0.3273342252 -0.0726306587 0.6382930875 4281546562
-0.3246422112 -0.0713299885 0.6330438256 4284968050
-0.3233116567 -0.0703371614 0.6304492354 4290494662
-0.3233429193 -0.0696434230 0.6305102110 4293390068
-0.3247282505 -0.2266192287 0.6345859170 4292534508
-0.3248208761 -0.2259785980 0.6347669363 4288192170
-0.3244789243 -0.2250361741 0.6340987086 4286086796
-0.3245710135 -0.2243953049 0.6342786551 4285626245
-0.3246628940 -0.2237538993 0.6344581842 4284178031
-0.3247545660 -0.2231119424 0.6346373558 4282862171
-0.3244111538 -0.2221716344 0.6339662075 4282533206
-0.3245022595 -0.2215294540 0.6341443062 4282335827
-0.3245931566 -0.2208867371 0.6343219280 4281611593
-0.3242486119 -0.2199482471 0.6336486340 4282730074
-0.3239036202 -0.2190109491 0.6329744458 4286282896
-0.3235581815 -0.2180748433 0.6322993636 4290493648
-0.3232122660 -0.2171399146 0.6316233873 4292337133
-0.3378309906 -0.1184001043 0.6601913571 4290824145
-0.3383327723 -0.1178413555 0.6611719728 4287271323
-0.3383844197 -0.1171246246 0.6612728834 4284178797
-0.3384357393 -0.1164075583 0.6613731980 4281810249
-0.3380366862 -0.1155363321 0.6605933309 4282336595
-0.3380873501 -0.1148195714 0.6606923938 4282073423
-0.3376874924 -0.1139505580 0.6599109173 4281218116
-0.3372871578 -0.1130831391 0.6591286659 4281810253
-0.3368864357 -0.1122173145 0.6583455205 4284573559
-0.3355843425 -0.1110549495 0.6558009982 4287929002
-0.3342815936 -0.1098980084 0.6532551050 4290692308
-0.3329781294 -0.1087465063 0.6507079005 4292666098
-0.3378946185 -0.0795385316 0.6603156924 4292469481
-0.3370239139 -0.0786018074 0.6586141586 4287534495
-0.3361527026 -0.0776687413 0.6569116712 4285823877
-0.3343748152 -0.0765319467 0.6534373164 4281941835
-0.3316900134 -0.0751972571 0.6481906176 4282007628
-0.3285511732 -0.0737722814 0.6420567036 4281152319
-0.3263178170 -0.0725622848 0.6376922727 4282731351
-0.3240836859 -0.0713618249 0.6333263516 4289047216
-0.3232087493 -0.0704673901 0.6316165328 4293521140
-0.3228558302 -0.2258026153 0.6322991848 4292402922
-0.3229480088 -0.2251643538 0.6324797273 4287665826
-0.3230399489 -0.2245255411 0.6326598525 4285954440
-0.3231317103 -0.2238861769 0.6328395605 4286546577
-0.3232232630 -0.2232462764 0.6330187917 4286480784
-0.3233146071 -0.2226058394 0.6331976652 4285164924
-0.3234057128 -0.2219648510 0.6333761215 4283256416
-0.3226281703 -0.2207291573 0.6318534017 4282269521
-0.3227186501 -0.2200888097 0.6320305467 4282269521
-0.3223744035 -0.2191525847 0.6313563585 4281743177
-0.3215951324 -0.2179230452 0.6298302412 4281480007
-0.3199457526 -0.2161091715 0.6265999675 4283585383
-0.3191648722 -0.2148872018 0.6250706315 4287073439
-0.3175133765 -0.2130843848 0.6218362451 4290428882
-0.3353454769 -0.1192440689 0.6567596793 4291284696
-0.3353976309 -0.1185327917 0.6568617821 4288192425
-0.3358985484 -0.1179789081 0.6578428149 4284705141
-0.3359501660 -0.1172660142 0.6579439044 4282139214
-0.3364506960 -0.1167086139 0.6589241624 4281218114
-0.3365017772 -0.1159941182 0.6590242386 4280823356
-0.3361032307 -0.1151253805 0.6582437158 4281876046
-0.3361536562 -0.1144111902 0.6583424807 4281744460
-0.3357543349 -0.1135446802 0.6575603485 4283784041
-0.3344554901 -0.1123776659 0.6550166607 4287994793
-0.3331559300 -0.1112160757 0.6524715424 4291218134
-0.3318557143 -0.1100599095 0.6499250531 4292862959
-0.3368591368 -0.0794672668 0.6597241163 4292074723
-0.3359899223 -0.0785311013 0.6580217481 4287403422
-0.3346679509 -0.0774938837 0.6554327607 4285890183
-0.3333453834 -0.0764622837 0.6528425217 4281876810
-0.3306651711 -0.0751279816 0.6475934982 4281876810
-0.3279841244 -0.0738051459 0.6423427463 4281416004
-0.3253022134 -0.0724937990 0.6370903254 4285692549
-0.3235244155 -0.0713936314 0.6336086392 4292139485
-0.3209873140 -0.2249851674 0.6300101876 4292337129
-0.3210790157 -0.2243492603 0.6301901937 4287205275
-0.3211705089 -0.2237128168 0.6303697824 4284770166
-0.3212618232 -0.2230758220 0.6305489540 4286612370
-0.3213528991 -0.2224382907 0.6307277679 4287336093
-0.3214437962 -0.2218002230 0.6309061646 4287730851
-0.3211011291 -0.2208635360 0.6302335858 4286546577
-0.3203245401 -0.2196308523 0.6287093759 4283980650
-0.3199808598 -0.2186973989 0.6280347705 4281940556
-0.3192029893 -0.2174696624 0.6265081167 4281940556
-0.3184244633 -0.2162448615 0.6249800324 4282335314
-0.3172112703 -0.2147292197 0.6225988865 4282466900
-0.3164312243 -0.2135111392 0.6210678220 4282270553
-0.3156504929 -0.2122959793 0.6195354462 4285362824
-0.3153033555 -0.2113749236 0.6188541651 4288849853
-0.3153901994 -0.2107453495 0.6190245748 4291547366
-0.3341566622 -0.1212664843 0.6558580399 4292929517
-0.3337615728 -0.1203952581 0.6550825834 4291613661
-0.3338141143 -0.1196862534 0.6551856995 4288784562
-0.3334182501 -0.1188172176 0.6544086933 4285692036
-0.3334701359 -0.1181085035 0.6545105577 4282928730
-0.3335217237 -0.1173994541 0.6546118259 4281547079
-0.3344697356 -0.1170037612 0.6564725041 4281415493
-0.3345208764 -0.1162921563 0.6565728784 4280823358
-0.3336747289 -0.1152703539 0.6549121141 4280494393
-0.3337251544 -0.1145600080 0.6550111175 4281547079
-0.3333266377 -0.1136963144 0.6542289257 4285955210
-0.3315816522 -0.1123780087 0.6508039832 4290297032
-0.3307333291 -0.1113692597 0.6491389275 4292533994
-0.3349216878 -0.0791824460 0.6573595405 4291482586
-0.3340538740 -0.0782487988 0.6556562781 4287008664
-0.3327340782 -0.0772140399 0.6530658603 4285692804
-0.3314136863 -0.0761849135 0.6504743099 4281613638
-0.3287380040 -0.0748529434 0.6452227235 4281482052
-0.3265131116 -0.0736343041 0.6408558488 4282008396
-0.3242874444 -0.0724251866 0.6364874244 4288521903
-0.3195545077 -0.2244702280 0.6285682321 4292073957
-0.3196458817 -0.2238358408 0.6287479997 4286810517
-0.3197370470 -0.2232009023 0.6289272904 4284112236
-0.3198280334 -0.2225654125 0.6291062236 4286546577
-0.3199187815 -0.2219293863 0.6292847395 4287533472
-0.3200093210 -0.2212928236 0.6294628978 4289836227
-0.3196671009 -0.2203575373 0.6287897229 4290230985
-0.3184590340 -0.2188287973 0.6264134645 4289046711
-0.3176828623 -0.2176011503 0.6248866916 4286217612
-0.3169059753 -0.2163764089 0.6233585477 4283191134
-0.3161284029 -0.2151546031 0.6218290329 4281941069
-0.3153501153 -0.2139357179 0.6202981472 4282204241
-0.3145711720 -0.2127197832 0.6187659502 4283257194
-0.3137915134 -0.2115067691 0.6172323227 4283322987
-0.3134447038 -0.2105879784 0.6165501475 4284112503
-0.3139647543 -0.2102512121 0.6175731421 4286810016
-0.3144848347 -0.2099121809 0.6185961366 4290165459
-0.3137032688 -0.2087049037 0.6170587540 4292336628
-0.3316793442 -0.1220801920 0.6524180174 4292732392
-0.3317325115 -0.1213747635 0.6525225639 4290692555
-0.3317854106 -0.1206689924 0.6526265740 4288389800
-0.3313907683 -0.1198012158 0.6518503428 4285494657
-0.3314429820 -0.1190957278 0.6519530416 4282994523
-0.3314948976 -0.1183899045 0.6520552039 4282533974
-0.3315465450 -0.1176837534 0.6521567702 4281941837
-0.3315978944 -0.1169772744 0.6522577405 4281218116
-0.3320965171 -0.1164273769 0.6532385349 4280823358
-0.3321473300 -0.1157192886 0.6533384919 4280297014
-0.3317501545 -0.1148558706 0.6525572538 4281283909
-0.3309047818 -0.1138399988 0.6508943439 4287468449
-0.3300588429 -0.1128276363 0.6492303610 4291876580
-0.3329881728 -0.0788973123 0.6549924612 4291285207
-0.3325723708 -0.0780719668 0.6541745663 4286877076
-0.3312548101 -0.0770387053 0.6515828967 4285758595
-0.3294859231 -0.0759072378 0.6481034756 4281811015
-0.3268148005 -0.0745776072 0.6428493261 4281942601
-0.3250444531 -0.0734632462 0.6393670440 4283324254
-0.3232734799 -0.0723564699 0.6358835101 4290627277
-0.3181240857 -0.2239547074 0.6271246672 4292271849
-0.3182151318 -0.2233218253 0.6273041368 4286745237
-0.3183059692 -0.2226883918 0.6274831891 4283784041
-0.3183965981 -0.2220544219 0.6276618838 4286613140
-0.3184870183 -0.2214199156 0.6278401613 4287533472
-0.3185772598 -0.2207848579 0.6280179620 4291481052
-0.3166864216 -0.2173935771 0.6242905855 4291679201
-0.3154787123 -0.2158735394 0.6219097972 4288915895
-0.3151346445 -0.2149478644 0.6212314963 4286283407
-0.3139252961 -0.2134354115 0.6188474894 4283717480
-0.3131475449 -0.2122207433 0.6173143387 4282929268
-0.3123691082 -0.2110090256 0.6157797575 4283521405
-0.3124555349 -0.2103830278 0.6159501076 4283652727
-0.3121088445 -0.2094659805 0.6152666807 4283257969
-0.3126277030 -0.2091294676 0.6162895560 4284770946
-0.3131465912 -0.2087907046 0.6173124313 4288126389
-0.3127990365 -0.2078738511 0.6166272759 4290232016
-0.3115843236 -0.2063841373 0.6142326593 4292140013
-0.3280407786 -0.1425603330 0.6466736197 4292600301
-0.3281021714 -0.1418683827 0.6467946768 4292008164
-0.3281632960 -0.1411760300 0.6469151378 4291350234
-0.3286682665 -0.1406733990 0.6479105949 4290560718
-0.3287289143 -0.1399793476 0.6480301619 4289836995
-0.3283449709 -0.1390966922 0.6472733021 4289113272
-0.3284049630 -0.1384028047 0.6473915577 4288323756
-0.3280202150 -0.1375222057 0.6466330886 4287797667
-0.3280795813 -0.1368285120 0.6467501521 4287534495
-0.3276940286 -0.1359499693 0.6459901333 4287138967
-0.3277527690 -0.1352564692 0.6461058855 4287336346
-0.3278112113 -0.1345625967 0.6462211013 4287336346
-0.3274245262 -0.1336867064 0.6454588175 4287402139
-0.3274823129 -0.1329930276 0.6455727816 4288323241
-0.3275398612 -0.1322989911 0.6456861496 4289441722
-0.3275971115 -0.1316045821 0.6457990408 4290362822
-0.3267637193 -0.1305540800 0.6441560984 4291481303
-0.3296537995 -0.1230443791 0.6498534083 4292140005
-0.3292611241 -0.1221766397 0.6490793228 4290100422
-0.3293142319 -0.1214750633 0.6491840482 4287337116
-0.3293670714 -0.1207731441 0.6492881775 4284639601
-0.3294196129 -0.1200708896 0.6493917704 4282928983
-0.3290254474 -0.1192065552 0.6486147046 4282335827
-0.3286308348 -0.1183437929 0.6478368044 4282335827
-0.3286823630 -0.1176424399 0.6479383707 4282598997
-0.3282869458 -0.1167818755 0.6471589208 4281809481
-0.3287845552 -0.1162387580 0.6481398344 4281414977
-0.3288352191 -0.1155364290 0.6482397318 4281414977
-0.3279918730 -0.1145217270 0.6465772390 4281809735
-0.3275948763 -0.1136655957 0.6457946301 4287007382
-0.3267504871 -0.1126569360 0.6441300511 4292007649
-0.3310585916 -0.0786118656 0.6526226997 4290232519
-0.3306434155 -0.0777890831 0.6518042684 4286548113
-0.3293280303 -0.0767582953 0.6492112279 4285561218
-0.3280120492 -0.0757331401 0.6466170549 4281416259
-0.3253455162 -0.0744048804 0.6413604021 4281745224
-0.3240282536 -0.0733939111 0.6387636662 4285693062
-0.3227103949 -0.0723885894 0.6361657977 4292403948
-0.3162657619 -0.2231350243 0.6248293519 4292337897
-0.3163563609 -0.2225045115 0.6250083447 4286745492
-0.3164467216 -0.2218734473 0.6251868606 4283718246
-0.3165369034 -0.2212418467 0.6253650188 4286613138
-0.3166268766 -0.2206097096 0.6255427599 4287205277
-0.3162857294 -0.2196777463 0.6248688102 4291350236
-0.3119841814 -0.2132659256 0.6163704395 4291416029
-0.3112079799 -0.2120521963 0.6148369312 4288915895
-0.3108628392 -0.2111346573 0.6141550541 4285560470
-0.3109491169 -0.2105107009 0.6143255830 4284507782
-0.3110352159 -0.2098862380 0.6144956350 4283718519
-0.3115531802 -0.2095518857 0.6155189872 4282665831
-0.3125034273 -0.2095050514 0.6173963547 4282665570
-0.3117245436 -0.2082986087 0.6158575416 4284639360
-0.3122423887 -0.2079592347 0.6168805957 4286218901
-0.3110298812 -0.2064689547 0.6144851446 4288126898
-0.3089510798 -0.2044108212 0.6103781462 4291153118
-0.3258872628 -0.1447966248 0.6438380480 4292600301
-0.3259494305 -0.1441087574 0.6439608932 4292008164
-0.3260113597 -0.1434205025 0.6440832019 4290889683
-0.3265160024 -0.1429257989 0.6450802088 4289376444
-0.3261343539 -0.1420428306 0.6443261504 4288126377
-0.3261954188 -0.1413534135 0.6444468498 4286218380
-0.3262562454 -0.1406635940 0.6445670128 4284968313
-0.3267601430 -0.1401635855 0.6455625296 4283652453
-0.3268204629 -0.1394720674 0.6456817389 4282797144
-0.3264370263 -0.1385918707 0.6449241638 4282270800
-0.3264967203 -0.1379005313 0.6450421214 4282007628
-0.3256687820 -0.1368359625 0.6434063911 4281744711
-0.3252840042 -0.1359602660 0.6426461935 4281415746
-0.3248987794 -0.1350860745 0.6418851614 4281086011
-0.3245131373 -0.1342134029 0.6411232352 4281283390
-0.3245710433 -0.1335248947 0.6412376761 4281283390
-0.3246286809 -0.1328360140 0.6413515210 4281151804
-0.3242418766 -0.1319660097 0.6405873895 4281546562
-0.3242988884 -0.1312773377 0.6406999826 4282138699
-0.3243556321 -0.1305883229 0.6408120990 4283191385
-0.3239676952 -0.1297209859 0.6400456429 4284441452
-0.3235793114 -0.1288551986 0.6392783523 4286546828
-0.3240796030 -0.1283430457 0.6402667165 4288389032
-0.3245797455 -0.1278286427 0.6412549019 4289639869
-0.3250797987 -0.1273119897 0.6422427893 4290495178
-0.3246901333 -0.1264466643 0.6414729357 4290824143
-0.3247449100 -0.1257551461 0.6415811777 4290955729
-0.3247993886 -0.1250632852 0.6416888237 4290955729
-0.3252986073 -0.1245414466 0.6426750422 4290758350
-0.3257976770 -0.1240173653 0.6436610818 4290429387
-0.3262966275 -0.1234910414 0.6446467638 4289574078
-0.3263501823 -0.1227949560 0.6447526217 4288060839
-0.3264034688 -0.1220985204 0.6448578835 4286087049
-0.3260111213 -0.1212361231 0.6440827250 4284047466
-0.3265092075 -0.1207046360 0.6450667381 4282731606
-0.3265616298 -0.1200071871 0.6451703310 4282665811
-0.3266137838 -0.1193094030 0.6452733874 4283126362
-0.3262199759 -0.1184494719 0.6444953680 4282598997
-0.3258257508 -0.1175911129 0.6437165141 4282335825
-0.3249852955 -0.1165744215 0.6420560479 4282072653
-0.3250359893 -0.1158791259 0.6421562433 4281809481
-0.3246404827 -0.1150255129 0.6413748264 4281743942
-0.3251365423 -0.1144875735 0.6423549056 4281414977
-0.3238481879 -0.1133230403 0.6398095489 4284836213
-0.3225591183 -0.1121639162 0.6372628212 4291218134
-0.3295819759 -0.0784329623 0.6511374712 4289771968
-0.3291674554 -0.0776117668 0.6503185630 4286942871
-0.3278543055 -0.0765824839 0.6477242112 4285429632
-0.3265405893 -0.0755588263 0.6451287866 4281350466
-0.3243278563 -0.0743348971 0.6407572031 4282074189
-0.3225636184 -0.0732224807 0.6372717023 4287140508
-0.3216972947 -0.0723196790 0.6355601549 4292996085
-0.3144113719 -0.2223145068 0.6225317121 4292403690
-0.3145014942 -0.2216863632 0.6227101684 4286811285
-0.3150211871 -0.2213596702 0.6237391829 4283455074
-0.3151110113 -0.2207295895 0.6239170432 4286021001
-0.3147706389 -0.2197986841 0.6232430935 4286613138
-0.3144298196 -0.2188689709 0.6225682497 4291021269
-0.3094455600 -0.2106342465 0.6126995087 4290758368
-0.3095315397 -0.2100118250 0.6128696799 4288521406
-0.3100485206 -0.2096805125 0.6138933301 4287073960
-0.3105655313 -0.2093469352 0.6149169803 4284705412
-0.3115140200 -0.2093010098 0.6167950034 4283323502
-0.3111680448 -0.2083840072 0.6161100268 4284968327
-0.3116850257 -0.2080445439 0.6171336174 4285560975
-0.3109065890 -0.2068409771 0.6155923009 4285429389
-0.3092636168 -0.2050675750 0.6123391986 4286876833
-0.3067553639 -0.2027295679 0.6073729396 4288850623
-0.3042455018 -0.2004015297 0.6024034619 4291218911
-0.3237987757 -0.1463220417 0.6411187053 4292337129
-0.3238614500 -0.1456378996 0.6412428021 4291087062
-0.3234819472 -0.1447556019 0.6404914260 4289968067
-0.3235439956 -0.1440716088 0.6406142712 4288520621
-0.3236057758 -0.1433872133 0.6407365799 4286612624
-0.3236672878 -0.1427024305 0.6408584118 4285165178
-0.3237285316 -0.1420172602 0.6409796476 4284112236
-0.3233471811 -0.1411386281 0.6402245760 4283125341
-0.3234077990 -0.1404536068 0.6403445601 4281547077
-0.3234681189 -0.1397682130 0.6404640675 4281415491
-0.3230856061 -0.1388921738 0.6397066712 4281612870
-0.3231453300 -0.1382069588 0.6398249269 4281678663
-0.3227620423 -0.1373329759 0.6390659809 4281415491
-0.3223782778 -0.1364604831 0.6383062005 4281349698
-0.3224370182 -0.1357760131 0.6384224892 4281415491
-0.3216094971 -0.1347200423 0.6367839575 4281283905
-0.3212244511 -0.1338520795 0.6360216141 4281020218
-0.3208389878 -0.1329856366 0.6352583766 4281414976
-0.3208962977 -0.1323034465 0.6353718638 4281678148
-0.3205100298 -0.1314391047 0.6346070170 4281743941
-0.3205667138 -0.1307571381 0.6347192526 4281743941
-0.3206231296 -0.1300747991 0.6348309517 4281678148
-0.3206792474 -0.1293921024 0.6349421144 4281678148
-0.3207351267 -0.1287090629 0.6350527406 4281612355
-0.3212344050 -0.1282027215 0.6360412836 4282007111
-0.3212897778 -0.1275180280 0.6361509562 4282599248
-0.3213448822 -0.1268329620 0.6362600327 4282862420
-0.3213997185 -0.1261475533 0.6363686323 4283125592
-0.3210102618 -0.1252885014 0.6355975270 4283586145
-0.3206203878 -0.1244309992 0.6348255873 4283520352
-0.3206742406 -0.1237464398 0.6349321604 4283455329
-0.3207277954 -0.1230615377 0.6350381970 4283323743
-0.3207810819 -0.1223762855 0.6351436973 4284047466
-0.3212784529 -0.1218592525 0.6361284852 4283652708
-0.3213312328 -0.1211723760 0.6362330317 4283389536
-0.3213837743 -0.1204851568 0.6363370419 4283455329
-0.3214359879 -0.1197976097 0.6364404559 4283455329
-0.3219326138 -0.1192744747 0.6374236941 4282928985
-0.3219843507 -0.1185853034 0.6375261545 4282336848
-0.3215909898 -0.1177329645 0.6367473602 4282139469
-0.3216421008 -0.1170440912 0.6368485093 4282335825
-0.3212479651 -0.1161939502 0.6360681653 4282533204
-0.3195183873 -0.1148654521 0.6326435804 4282138700
-0.3191232085 -0.1140213460 0.6318611503 4281546563
-0.3196178973 -0.1134949699 0.6328406334 4281283391
-0.3192220330 -0.1126521304 0.6320567727 4282204493
-0.3174898624 -0.1113424078 0.6286271214 4288323756
-0.3281077147 -0.0782538354 0.6496503949 4289311417
-0.3276938796 -0.0774342418 0.6488310099 4287074457
-0.3263829648 -0.0764064565 0.6462354064 4284574323
-0.3250714839 -0.0753843039 0.6436386704 4281284673
-0.3237594068 -0.0743677914 0.6410408020 4282600533
-0.3215498328 -0.0731528699 0.6366658211 4288851125
-0.3135083020 -0.2214733362 0.6221117973 4287073689
-0.3135980368 -0.2208453119 0.6222898364 4283257695
-0.3132584095 -0.2199154794 0.6216158867 4285034106
-0.3129183650 -0.2189868391 0.6209411025 4285428864
-0.3134365678 -0.2186584473 0.6219694614 4289771202
-0.3090626597 -0.2094744593 0.6132900715 4291942892
-0.3095787168 -0.2091416717 0.6143140793 4290298067
-0.3105254769 -0.2090966403 0.6161927581 4288192695
-0.3097492754 -0.2078910470 0.6146525145 4286745249
-0.3102651536 -0.2075532228 0.6156762242 4285758100
-0.3090569079 -0.2060635686 0.6132786274 4285823893
-0.3078477085 -0.2045786232 0.6108791828 4285627284
-0.3057750762 -0.2025270909 0.6067663431 4285890456
-0.3037010729 -0.2004837990 0.6026507616 4286680224
-0.3016256690 -0.1984487474 0.5985324383 4288456635
-0.2999805212 -0.1967049688 0.5952678919 4290825436
-0.3212729990 -0.1476256251 0.6375196576 4292074470
-0.3217768669 -0.1471477151 0.6385195255 4290692304
-0.3218397498 -0.1464668959 0.6386443377 4288850100
-0.3219023943 -0.1457856894 0.6387686729 4287073689
-0.3215237260 -0.1449052989 0.6380171776 4285560450
-0.3215857148 -0.1442242265 0.6381402612 4284507248
-0.3212062418 -0.1433458626 0.6373872757 4283849318
-0.3212676346 -0.1426649392 0.6375090480 4282993755
-0.3208873868 -0.1417886019 0.6367545128 4282533204
-0.3209481537 -0.1411078423 0.6368750930 4282335825
-0.3205671012 -0.1402335316 0.6361189485 4282072653
-0.3201856017 -0.1393607110 0.6353619099 4281349698
-0.3202453852 -0.1386806667 0.6354805827 4281349698
-0.3198631108 -0.1378099024 0.6347219944 4281349700
-0.3194804192 -0.1369406432 0.6339625716 4281349700
-0.3190972507 -0.1360728741 0.6332022548 4281349698
-0.3187136948 -0.1352066249 0.6324411035 4281810249
-0.3187718093 -0.1345284581 0.6325564384 4282468179
-0.3183874488 -0.1336642802 0.6317937374 4282797144
-0.3180026412 -0.1328016222 0.6310301423 4283520353
-0.3176174164 -0.1319404691 0.6302657127 4284309869
-0.3176742196 -0.1312636733 0.6303784251 4284836213
-0.3168456852 -0.1302227527 0.6287343502 4284836213
-0.3173443675 -0.1297280490 0.6297239065 4284573040
-0.3174002767 -0.1290511042 0.6298348308 4284441454
-0.3178986311 -0.1285528392 0.6308237910 4283651938
-0.3179540634 -0.1278742403 0.6309337616 4282138699
-0.3180092275 -0.1271952838 0.6310431957 4282467662
-0.3185070753 -0.1266921908 0.6320311427 4282533455
-0.3181186914 -0.1258363277 0.6312603951 4282928215
-0.3177298903 -0.1249820068 0.6304888725 4282401871
-0.3173406422 -0.1241292357 0.6297165155 4281743942
-0.3165076673 -0.1231056005 0.6280636191 4281480770
-0.3165608644 -0.1224283502 0.6281691790 4281612355
-0.3157269359 -0.1214097217 0.6265143156 4281414976
-0.3153358996 -0.1205641180 0.6257383823 4281481539
-0.3158316314 -0.1200573221 0.6267220974 4281481539
-0.3158835769 -0.1193806231 0.6268252134 4281349953
-0.3154915273 -0.1185368672 0.6260471940 4281613125
-0.3164304495 -0.1181919873 0.6279103756 4281942090
-0.3169255257 -0.1176781580 0.6288927197 4281744711
-0.3169764876 -0.1169982255 0.6289938688 4281547077
-0.3161391616 -0.1159921512 0.6273323298 4281876042
-0.3161894381 -0.1153134778 0.6274321079 4282138700
-0.3162394464 -0.1146344766 0.6275312901 4282665044
-0.3136237860 -0.1129948646 0.6223409772 4282401872
-0.3141171038 -0.1124800518 0.6233198643 4281546563
-0.3141659200 -0.1118048653 0.6234167218 4281086012
-0.3137700260 -0.1109721884 0.6226311326 4284836213
-0.3124847114 -0.1098286510 0.6200805902 4291613661
-0.3266358674 -0.0780745000 0.6481615305 4289179831
-0.3262226880 -0.0772564933 0.6473416090 4287008662
-0.3249140382 -0.0762302130 0.6447447538 4283455840
-0.3236047626 -0.0752095729 0.6421467662 4281482052
-0.3222949505 -0.0741945729 0.6395475864 4283390049
-0.3209845424 -0.0731852129 0.6369472742 4290232778
-0.3116597831 -0.2206537873 0.6198096871 4287271068
-0.3117490411 -0.2200281322 0.6199871898 4283455074
-0.3118380904 -0.2194019407 0.6201643348 4284310383
-0.3114984930 -0.2184747010 0.6194888949 4284376176
-0.3115870059 -0.2178482860 0.6196649671 4288521135
-0.3092778325 -0.2073497474 0.6150726080 4289048004
-0.3067808747 -0.2049978524 0.6101068258 4286679456
-0.3081558049 -0.2052356750 0.6128411889 4285693331
-0.3039346635 -0.2017527670 0.6044464707 4285298573
-0.3061702847 -0.2025602609 0.6088925004 4285364623
-0.3062531650 -0.2019383907 0.6090573668 4285430416
-0.3020273447 -0.1984845698 0.6006532907 4286417563
-0.3008157313 -0.1970236599 0.5982437134 4288325560
-0.2987410724 -0.1950047165 0.5941177607 4290365142
-0.3191924393 -0.1491094679 0.6347901821 4291811298
-0.3188162446 -0.1482292563 0.6340420246 4290232266
-0.3188794553 -0.1475540400 0.6341677308 4288061097
-0.3193823099 -0.1470810175 0.6351677775 4286350479
-0.3194450736 -0.1464040577 0.6352925897 4285099899
-0.3195075691 -0.1457267106 0.6354169250 4283652453
-0.3191296160 -0.1448491812 0.6346652508 4283849832
-0.3187512457 -0.1439731121 0.6339127421 4282665558
-0.3188127875 -0.1432964355 0.6340351105 4282006860
-0.3179931641 -0.1422254145 0.6324051619 4281875274
-0.3176134825 -0.1413537860 0.6316500306 4281612102
-0.3172333539 -0.1404836327 0.6308940649 4281348930
-0.3168528080 -0.1396149844 0.6301372647 4281414723
-0.3169125915 -0.1389410645 0.6302561164 4281743688
-0.3169721067 -0.1382667720 0.6303744912 4282402388
-0.3165903986 -0.1374007165 0.6296154261 4283455076
-0.3162082732 -0.1365361810 0.6288554668 4284770936
-0.3158257306 -0.1356731355 0.6280946732 4285955210
-0.3154427409 -0.1348115951 0.6273329854 4287205275
-0.3155005872 -0.1341391802 0.6274480820 4288389549
-0.3151168227 -0.1332797259 0.6266848445 4289442237
-0.3147326410 -0.1324217916 0.6259207726 4290231753
-0.3143480122 -0.1315653771 0.6251558661 4291152341
-0.3144045472 -0.1308943182 0.6252683401 4291415513
-0.3144608140 -0.1302228868 0.6253802180 4291612892
-0.3140750527 -0.1293691546 0.6246130466 4291744478
-0.3150143325 -0.1290599853 0.6264810562 4291744477
-0.3155117631 -0.1285666227 0.6274702549 4291612891
-0.3155671060 -0.1278918833 0.6275803447 4290428618
-0.3156221807 -0.1272167861 0.6276898384 4288323242
-0.3165612221 -0.1268958002 0.6295573711 4285230970
-0.3161736727 -0.1260418296 0.6287866831 4282928215
-0.3157857358 -0.1251894087 0.6280151010 4282336079
-0.3149549961 -0.1241641343 0.6263629794 4282401872
-0.3141236901 -0.1231423169 0.6247097850 4281941321
-0.3128493130 -0.1219514534 0.6221753359 4281941321
-0.3120167851 -0.1209374815 0.6205196381 4281743942
-0.3107410371 -0.1197563857 0.6179825664 4281349184
-0.3099072874 -0.1187502891 0.6163244843 4281612356
-0.3095158041 -0.1179163530 0.6155458689 4281678149
-0.3086810112 -0.1169162542 0.6138857007 4281415746
-0.3096174300 -0.1165867969 0.6157479882 4281415746
-0.3105538487 -0.1162532046 0.6176103354 4281612870
-0.3110472262 -0.1157505885 0.6185914874 4281415491
-0.3106541336 -0.1149178818 0.6178097725 4281481286
-0.3102606535 -0.1140867546 0.6170271635 4282007630
-0.3103100359 -0.1134192422 0.6171253920 4282467665
-0.3094724119 -0.1124292687 0.6154595613 4282599251
-0.3090776503 -0.1116029173 0.6146745086 4282270286
-0.3091260195 -0.1109373197 0.6147707105 4281612356
-0.3096176684 -0.1104296222 0.6157484651 4281414977
-0.3087782562 -0.1094479486 0.6140791178 4287731105
-0.3251664042 -0.0778949335 0.6466708183 4289376695
-0.3243072033 -0.0769725069 0.6449620724 4286942869
-0.3234474659 -0.0760537609 0.6432523131 4282929496
-0.3221404850 -0.0750346258 0.6406530142 4281679431
-0.3208328784 -0.0740211308 0.6380525827 4284574323
-0.3195247352 -0.0730132908 0.6354510188 4291614174
-0.3102425635 -0.2201366276 0.6183570623 4287863205
-0.3103314638 -0.2195124924 0.6185342669 4284573555
-0.3099926114 -0.2185863256 0.6178588867 4284705141
-0.3100810051 -0.2179619670 0.6180350780 4284573555
-0.3097413778 -0.2170373052 0.6173581481 4288192170
-0.3092348278 -0.2070950568 0.6163485050 4291351010
-0.3084600866 -0.2058931291 0.6148043275 4287930289
-0.3076846898 -0.2046941817 0.6132588387 4285430155
-0.3069086075 -0.2034982145 0.6117120385 4284904326
-0.3039820492 -0.2008845657 0.6058789492 4285496463
-0.3023438752 -0.1991324425 0.6026138663 4285102219
-0.3058668673 -0.2007754445 0.6096357107 4284773254
-0.3012156487 -0.1970552653 0.6003651619 4285891735
-0.2991442382 -0.1950376928 0.5962365270 4288062904
-0.2970714569 -0.1930283904 0.5921052098 4290692567
-0.2945666909 -0.1907485425 0.5871128440 4292468978
-0.3175540268 -0.1507821679 0.6329298615 4291876578
-0.3171794415 -0.1499019116 0.6321831942 4290034887
-0.3172431886 -0.1492294967 0.6323102713 4288126890
-0.3168678284 -0.1483512074 0.6315621138 4286021514
-0.3164919913 -0.1474743783 0.6308130622 4284705654
-0.3165547848 -0.1468026340 0.6309382319 4283521380
-0.3166173398 -0.1461304724 0.6310628653 4282337106
-0.3171188235 -0.1456596702 0.6320624352 4281481284
-0.3167416155 -0.1447849721 0.6313105822 4280757561
-0.3163639605 -0.1439117491 0.6305578947 4281020733
-0.3159858882 -0.1430400014 0.6298043132 4280625975
-0.3156073689 -0.1421697438 0.6290498972 4280494391
-0.3147887886 -0.1411038786 0.6274182796 4281086528
-0.3144093156 -0.1402375251 0.6266619563 4282270032
-0.3140294254 -0.1393726468 0.6259047985 4283454306
-0.3136490881 -0.1385092735 0.6251467466 4285164924
-0.3137083054 -0.1378407180 0.6252647638 4286809749
-0.3137672544 -0.1371717751 0.6253823042 4288981688
-0.3133858144 -0.1363110095 0.6246219873 4290297548
-0.3130039275 -0.1354517490 0.6238608360 4291547615
-0.3146742880 -0.1264186502 0.6271901131 4289573309
-0.3142872751 -0.1255671680 0.6264187098 4284967799
-0.3138998151 -0.1247172356 0.6256464720 4281941321
-0.3126288056 -0.1235199273 0.6231132150 4282204493
-0.3113570809 -0.1223279610 0.6205784678 4282072907
-0.3096429408 -0.1209687740 0.6171619296 4281612356
-0.3079279065 -0.1196168512 0.6137436032 4281349184
-0.3066538870 -0.1184428558 0.6112043262 4281414977
-0.3053791225 -0.1172742248 0.6086635590 4281414977
-0.3041037023 -0.1161109731 0.6061214209 4281546563
-0.3037117124 -0.1152887344 0.6053401828 4281414977
-0.3042036295 -0.1148018017 0.6063206196 4281283391
-0.3055799007 -0.1146444678 0.6090636849 4281086528
-0.3065139949 -0.1143161356 0.6109254956 4281152321
-0.3065634072 -0.1136556640 0.6110239625 4281481286
-0.3066125214 -0.1129948795 0.6111218333 4282007630
-0.3062188625 -0.1121716723 0.6103372574 4282533458
-0.3058247864 -0.1113500595 0.6095517874 4283059802
-0.3058729470 -0.1106902361 0.6096478105 4282270286
-0.3059208393 -0.1100300997 0.6097432375 4281283391
-0.3059684634 -0.1093696579 0.6098381877 4281744456
-0.3060158193 -0.1087089032 0.6099325418 4289573823
-0.3236993551 -0.0777151510 0.6451783180 4289771453
-0.3228415847 -0.0767942742 0.6434686780 4286811283
-0.3215373755 -0.0757719949 0.6408692002 4282403152
-0.3206785619 -0.0748594627 0.6391574740 4281745222
-0.3193732500 -0.0738474876 0.6365557909 4286021767
-0.3185134232 -0.0729433224 0.6348420978 4292798448
-0.3088277280 -0.2196189016 0.6169027090 4288060584
-0.3089163005 -0.2189962715 0.6170796752 4285166205
-0.3090046942 -0.2183731198 0.6172562242 4284639861
-0.3086659610 -0.2174486667 0.6165795922 4284113004
-0.3083267808 -0.2165254056 0.6159020662 4287863205
-0.3079029322 -0.2059772164 0.6150554419 4291811559
-0.3075579405 -0.2050638199 0.6143662930 4289706183
-0.3072125316 -0.2041516602 0.6136762500 4286746528
-0.3060082793 -0.2026722431 0.6112707257 4284970117
-0.3039445281 -0.2006308138 0.6071482301 4284510084
-0.3061735630 -0.2014226615 0.6116008759 4284839049
-0.3028196394 -0.1985441148 0.6049012542 4284904842
-0.3011822701 -0.1968021095 0.6016304493 4284773256
-0.2991139889 -0.1947867572 0.5974988937 4286022292
-0.2966144681 -0.1925007254 0.5925059915 4288259254
-0.2941133678 -0.1902247667 0.5875098705 4290562009
-0.2916106880 -0.1879588962 0.5825106502 4292206834
-0.3155440986 -0.1515608877 0.6303191185 4290890196
-0.3151706755 -0.1506820172 0.6295731664 4288587183
-0.3152346313 -0.1500129551 0.6297008991 4286350221
-0.3152983189 -0.1493434757 0.6298281550 4284113004
-0.3149237335 -0.1484671086 0.6290799379 4283323488
-0.3145487309 -0.1475922018 0.6283308268 4282665558
-0.3141733110 -0.1467187405 0.6275808811 4282468179
-0.3142356873 -0.1460504532 0.6277055144 4281876042
-0.3142978251 -0.1453817636 0.6278296113 4280691768
-0.3143596947 -0.1447126865 0.6279531717 4280231217
-0.3135442734 -0.1436414123 0.6263242960 4280757561
-0.3131668270 -0.1427734494 0.6255703568 4281876042
-0.3127889633 -0.1419069618 0.6248155832 4283126109
-0.3119718730 -0.1408438683 0.6231833696 4284901752
-0.3115930855 -0.1399812996 0.6224266887 4286809749
-0.3116527796 -0.1393164247 0.6225459576 4288849332
-0.3112731874 -0.1384558827 0.6217877269 4290296778
-0.3104540706 -0.1374025047 0.6201514602 4291217880
-0.3105127513 -0.1367393136 0.6202686429 4292073189
-0.3132319152 -0.1261183769 0.6257003546 4291744224
-0.3128454685 -0.1252684444 0.6249284148 4287928230
-0.3124586046 -0.1244200543 0.6241556406 4282533458
-0.3107489944 -0.1230496019 0.6207405925 4281546563
-0.3090384901 -0.1216863915 0.6173237562 4281546563
-0.3064452708 -0.1199851558 0.6121436357 4281349184
-0.3042919040 -0.1184666753 0.6078421474 4281151805
-0.3025785983 -0.1171280965 0.6044197083 4281086012
-0.3008644283 -0.1157967970 0.6009956002 4281283137
-0.2995906472 -0.1146416217 0.5984511375 4281217344
-0.2991987765 -0.1138276085 0.5976682901 4281348930
-0.2996892035 -0.1133490503 0.5986479521 4281217344
-0.3010624051 -0.1132002324 0.6013910174 4281085758
-0.3024357557 -0.1130453870 0.6041343808 4281348930
-0.3033677042 -0.1127204224 0.6059960127 4281678665
-0.3038580120 -0.1122282073 0.6069753766 4281876044
-0.3034647405 -0.1114094332 0.6061898470 4282533972
-0.3030710518 -0.1105922610 0.6054034233 4283191902
-0.3031188250 -0.1099369377 0.6054988503 4282270802
-0.3031663299 -0.1092813089 0.6055937409 4281283907
-0.3036555648 -0.1087837219 0.6065710187 4282468179
-0.3037025928 -0.1081265211 0.6066649556 4290692304
-0.3217896223 -0.0774280578 0.6427949667 4290757834
-0.3213783801 -0.0766158327 0.6419734955 4286416012
-0.3200764358 -0.0755950585 0.6393727064 4281810502
-0.3187738657 -0.0745799243 0.6367707849 4282205260
-0.3179160058 -0.0736736283 0.6350571513 4287995044
-0.3175029755 -0.0728732347 0.6342321038 4293587449
-0.3069895208 -0.2187971175 0.6145943999 4288324269
-0.3070776463 -0.2181768864 0.6147708297 4285692804
-0.3071655929 -0.2175561041 0.6149468422 4284705909
-0.3072533309 -0.2169348001 0.6151224971 4285034619
-0.3073408604 -0.2163129598 0.6152977347 4287995304
-0.3070843518 -0.2045202553 0.6147842407 4291088608
-0.3067393005 -0.2036081403 0.6140934229 4288720060
-0.3068223000 -0.2029807568 0.6142596006 4285825174
-0.3051905632 -0.2012224048 0.6109928489 4284575107
-0.3035576940 -0.1994705647 0.6077238321 4285167246
-0.3040679991 -0.1991295516 0.6087455153 4285233039
-0.3028624356 -0.1976663470 0.6063318849 4284706947
-0.3012268245 -0.1959288269 0.6030574441 4284772740
-0.2991609275 -0.1939196289 0.5989214778 4285890969
-0.2962349951 -0.1913640797 0.5930637717 4287798966
-0.2937366962 -0.1890968382 0.5880621672 4290101721
-0.2908073068 -0.1865641326 0.5821974874 4292009718
-0.3134737313 -0.1529930830 0.6275757551 4292206311
-0.3135384619 -0.1523272544 0.6277053952 4290100935
-0.3136029541 -0.1516610235 0.6278344989 4287271836
-0.3136671782 -0.1509943604 0.6279630661 4284903288
-0.3132942021 -0.1501179338 0.6272163391 4283521120
-0.3129207790 -0.1492429674 0.6264687777 4282928983
-0.3125469387 -0.1483694315 0.6257203221 4282270800
-0.3121726513 -0.1474973708 0.6249710321 4281744456
-0.3117979169 -0.1466267705 0.6242208481 4281020733
-0.3114227951 -0.1457576305 0.6234697700 4280494389
-0.3114846945 -0.1450937539 0.6235936880 4280625975
-0.3111087680 -0.1442266107 0.6228411198 4281086526
-0.3111700416 -0.1435628682 0.6229637861 4282796630
-0.3103556037 -0.1424967796 0.6213333011 4285165178
-0.3104162216 -0.1418341249 0.6214546561 4288125863
-0.3096007407 -0.1407728493 0.6198220849 4289902274
-0.3092226684 -0.1399131268 0.6190651655 4291349466
-0.3088441789 -0.1390548795 0.6183074117 4291875810
-0.3089033961 -0.1383944303 0.6184259653 4292270568
-0.3089623749 -0.1377336085 0.6185440421 4292336361
-0.3085827529 -0.1368779689 0.6177840233 4292204775
-0.3122317195 -0.1259951890 0.6250892282 4292336361
-0.3118459284 -0.1251458675 0.6243169308 4289770434
-0.3114597499 -0.1242980808 0.6235437393 4282928216
-0.3097531497 -0.1229280010 0.6201271415 4281283391
-0.3076056242 -0.1213915125 0.6158277988 4281546563
-0.3050169349 -0.1196914613 0.6106452346 4281217598
-0.3028673232 -0.1181742400 0.6063416600 4280954426
-0.3002763987 -0.1164953709 0.6011546254 4281020219
-0.2994457781 -0.1155070439 0.5994917750 4281283137
-0.2986145914 -0.1145222038 0.5978277326 4281085758
-0.2986638844 -0.1138767675 0.5979263783 4281151553
-0.2987129092 -0.1132310107 0.5980245471 4280954174
-0.3005242646 -0.1132491529 0.6016508937 4280625207
-0.3018952012 -0.1130942479 0.6043955684 4281085758
-0.3028255403 -0.1127691641 0.6062580347 4281809481
-0.3037558794 -0.1124399453 0.6081205606 4281809481
-0.3038043380 -0.1117821187 0.6082175970 4282863450
-0.3034115434 -0.1109626889 0.6074312329 4282666071
-0.3034594059 -0.1103051901 0.6075270772 4281744971
-0.3039481640 -0.1098067537 0.6085055470 4281416006
-0.3031131327 -0.1088308468 0.6068338156 4282863450
-0.3031601310 -0.1081733778 0.6069278717 4290495438
-0.3203281760 -0.0772477984 0.6412984133 4291744729
-0.3199176192 -0.0764371753 0.6404764652 4286152840
-0.3186178803 -0.0754179135 0.6378744245 4281284158
-0.3173176050 -0.0744042918 0.6352712512 4282928983
-0.3164612055 -0.0734995604 0.6335567236 4289639869
-0.3055803180 -0.2182781100 0.6131364703 4288784309
-0.3056681156 -0.2176593840 0.6133126616 4285691789
-0.3057557046 -0.2170401365 0.6134884357 4285494410
-0.3058431149 -0.2164203525 0.6136637926 4286678682
-0.3055048287 -0.2154998928 0.6129850149 4288455093
-0.3049817681 -0.2022127658 0.6119355559 4290824405
-0.3042084277 -0.2010218352 0.6103838682 4287797927
-0.3047183454 -0.2006794661 0.6114069819 4285429638
-0.3018035591 -0.1980870515 0.6055585146 4285232259
-0.3005997539 -0.1966268122 0.6031431556 4284839308
-0.3028216362 -0.1974050701 0.6076012850 4284444550
-0.2986179292 -0.1939990222 0.5991666913 4284575879
-0.2875549793 -0.1861708611 0.5769692659 4284510086
-0.2962043285 -0.1911103427 0.5943238735 4285168273
-0.2932810783 -0.1885704547 0.5884584785 4287010477
-0.2899271846 -0.1857676506 0.5817289948 4289050571
-0.2870002687 -0.1832524538 0.5758562088 4291221740
-0.3114722073 -0.1537437439 0.6249583364 4291547613
-0.3115371168 -0.1530812681 0.6250885725 4289113272
-0.3116017878 -0.1524183750 0.6252183318 4285889419
-0.3116661906 -0.1517550796 0.6253475547 4283718250
-0.3117303550 -0.1510913670 0.6254763007 4282665562
-0.3113581538 -0.1502168626 0.6247295141 4282007632
-0.3109855652 -0.1493438035 0.6239818931 4282270804
-0.3106124997 -0.1484722048 0.6232333779 4281612874
-0.3102390468 -0.1476020515 0.6224840283 4280626743
-0.3098651171 -0.1467333734 0.6217337847 4280297778
-0.3090542555 -0.1456604153 0.6201068759 4281020988
-0.3086794019 -0.1447955966 0.6193547249 4282994778
-0.3083041310 -0.1439322382 0.6186017394 4285494912
-0.3083651960 -0.1432733089 0.6187242270 4287929253
-0.3075522780 -0.1422099620 0.6170931458 4290100422
-0.3071756959 -0.1413510442 0.6163375378 4291547868
-0.3108472526 -0.1250230819 0.6237044334 4290890962
-0.3104617298 -0.1241758987 0.6229308844 4283848804
-0.3087581694 -0.1228062063 0.6195127368 4281414463
-0.3066144586 -0.1212700158 0.6152114868 4281876044
-0.3035910428 -0.1193974167 0.6091451049 4281349700
-0.3014451861 -0.1178814545 0.6048394442 4281676355
-0.2988587916 -0.1162037849 0.5996499658 4282005320
-0.2975899875 -0.1150470152 0.5971041918 4281873734
-0.2971997857 -0.1142336056 0.5963212252 4281215804
-0.2981283069 -0.1139258742 0.5981842875 4280035384
-0.2986170650 -0.1134469360 0.5991649628 4280693314
-0.2999854386 -0.1132980213 0.6019105315 4282338397
-0.3013539612 -0.1131430715 0.6046564579 4283127913
-0.3022826612 -0.1128178611 0.6065198183 4282800480
-0.3032113612 -0.1124885157 0.6083832383 4281747792
-0.3036999404 -0.1119927317 0.6093635559 4282731604
-0.3037481904 -0.1113333628 0.6094603539 4282534225
-0.3037961423 -0.1106736809 0.6095566154 4281415241
-0.3038438261 -0.1100136861 0.6096522808 4281612620
-0.3030104041 -0.1090364158 0.6079800725 4282533974
-0.3026169240 -0.1082201973 0.6071905494 4290692306
-0.3188691437 -0.0770673081 0.6398000717 4291415762
-0.3180156946 -0.0761520863 0.6380876899 4285099634
-0.3171617985 -0.0752405450 0.6363742948 4281349433
-0.3163073957 -0.0743327066 0.6346600056 4284573290
-0.3154524863 -0.0734285563 0.6329447031 4291481555
-0.3041735291 -0.2177585065 0.6116769314 4289310651
-0.3042609990 -0.2171413153 0.6118528247 4285428617
-0.3043482602 -0.2165235877 0.6120283008 4285757582
-0.3044353426 -0.2159053236 0.6122034192 4287073440
-0.3045221865 -0.2152865380 0.6123781204 4288849851
-0.3040813506 -0.2013866603 0.6114915609 4292008677
-0.3045905232 -0.2010433078 0.6125154495 4289113787
-0.3033904433 -0.1995733529 0.6101022363 4286482067
-0.3013346493 -0.1975477487 0.6059680581 4284773517
-0.2997050285 -0.1958097667 0.6026909947 4284444552
-0.2955083549 -0.1924076527 0.5942517519 4284839308
-0.2981534600 -0.1934637427 0.5995709300 4284905101
-0.2960930467 -0.1914652437 0.5954275727 4284510343
-0.2931753099 -0.1889234781 0.5895601511 4284115585
-0.2898277044 -0.1861186773 0.5828282237 4284773769
-0.2860498428 -0.1830535382 0.5752311349 4286615973
-0.2835547626 -0.1808232963 0.5702136755 4289971155
-0.2814865708 -0.1788754761 0.5660546422 4291944945
-0.3099096715 -0.1546990126 0.6232120395 4291942626
-0.3099748492 -0.1540389657 0.6233430505 4289903043
-0.3096049428 -0.1531633884 0.6225991845 4285626243
-0.3096695244 -0.1525034308 0.6227290630 4283389281
-0.3092988133 -0.1516298056 0.6219836473 4281810251
-0.3093627989 -0.1509699672 0.6221123338 4281941837
-0.3094265461 -0.1503097117 0.6222404838 4282007632
-0.3090547323 -0.1494385898 0.6214928031 4280954944
-0.3082471192 -0.1483593583 0.6198686957 4280428600
-0.3074388802 -0.1472834349 0.6182433963 4280691772
-0.3070656061 -0.1464185417 0.6174927950 4281876297
-0.3066919148 -0.1455550939 0.6167412400 4284573810
-0.3063177764 -0.1446931213 0.6159889102 4287797412
-0.3059432209 -0.1438326240 0.6152356863 4290165960
-0.3060041070 -0.1431775540 0.6153581738 4291744992
-0.3094111979 -0.1247234419 0.6222096086 4290824915
-0.3085879087 -0.1237021014 0.6205540299 4284638321
-0.3064488173 -0.1221599132 0.6162524223 4281875015
-0.3043087125 -0.1206268892 0.6119487882 4281678663
-0.3017290533 -0.1189301610 0.6067612171 4281678663
-0.2995868623 -0.1174164191 0.6024534106 4281809224
-0.2978823781 -0.1160828248 0.5990257859 4280888122
-0.2966158092 -0.1149265245 0.5964788198 4280691000
-0.2962262630 -0.1141137332 0.5956954360 4282204239
-0.2975920141 -0.1139749438 0.5984418988 4284838271
-0.2985189557 -0.1136629656 0.6003059149 4288193714
-0.2998849750 -0.1135130525 0.6030529141 4290495440
-0.3016903102 -0.1135223359 0.6066833138 4291087577
-0.3026175201 -0.1131950915 0.6085478663 4290036167
-0.3031054437 -0.1127003804 0.6095290780 4286088587
-0.3035932481 -0.1122034341 0.6105100513 4283257950
-0.3036415279 -0.1115428433 0.6106070876 4282139469
-0.3036895096 -0.1108819321 0.6107035875 4281088583
-0.3032976687 -0.1100612059 0.6099156141 4281285962
-0.3024657667 -0.1090835333 0.6082427502 4282403930
-0.3016333580 -0.1081093773 0.6065687537 4290167504
-0.3174125254 -0.0768866092 0.6382998824 4291349968
-0.3165605664 -0.0759729445 0.6365866065 4284441704
-0.3157081008 -0.0750629678 0.6348723769 4281481019
-0.3148551881 -0.0741566941 0.6331571937 4286152322
-0.3148875237 -0.0734607577 0.6332222223 4292665829
-0.3023457229 -0.2169345021 0.6093623638 4290297546
-0.3024327457 -0.2163196951 0.6095377207 4285297029
-0.3025195599 -0.2157043517 0.6097126603 4284310134
-0.3026061654 -0.2150884867 0.6098872423 4286415510
-0.3026925921 -0.2144720852 0.6100614071 4288784058
-0.3027788103 -0.2138551623 0.6102351546 4292666094
-0.3028362095 -0.1996546984 0.6103509068 4290890196
-0.3024908006 -0.1987496018 0.6096547246 4287799482
-0.3017182052 -0.1975663304 0.6080976129 4285365141
-0.3005180359 -0.1961075068 0.6056787372 4284576138
-0.2988900244 -0.1943758130 0.6023975611 4285168275
-0.2976879776 -0.1929274797 0.5999748707 4285102480
-0.2973394692 -0.1920357794 0.5992724895 4284773515
-0.2927172780 -0.1883950680 0.5899567008 4284378498
-0.2893747091 -0.1855957657 0.5832199454 4284049533
-0.2851750553 -0.1822636425 0.5747557282 4284970894
-0.2796899676 -0.1781316549 0.5637008548 4287010477
-0.2848961055 -0.1808094084 0.5741934776 4289511122
-0.2785518467 -0.1761592627 0.5614069700 4291748084
-0.3087832332 -0.1558646709 0.6223368049 4292271591
-0.3084149957 -0.1549881548 0.6215946078 4289574078
-0.3080463111 -0.1541130692 0.6208515167 4285889670
-0.3081111312 -0.1534555554 0.6209822297 4283389536
-0.3077416718 -0.1525824070 0.6202375889 4281876042
-0.3073717654 -0.1517107189 0.6194921136 4281876042
-0.3074356914 -0.1510538161 0.6196208596 4281678663
-0.3070650101 -0.1501840800 0.6188738346 4280823354
-0.3071283400 -0.1495272964 0.6190014482 4280560184
-0.3063223958 -0.1484489590 0.6173771024 4281218114
-0.3055158556 -0.1473739594 0.6157515645 4282994525
-0.3047086895 -0.1463022679 0.6141247749 4286021003
-0.3043357134 -0.1454416811 0.6133730412 4288850100
-0.3039622903 -0.1445825547 0.6126204729 4290889683
-0.3079775572 -0.1244234443 0.6207129955 4290758612
-0.3067181110 -0.1232277900 0.6181746721 4284242795
-0.3041450977 -0.1215129793 0.6129888892 4281282110
-0.3020085990 -0.1199831069 0.6086828709 4282007628
-0.2998711169 -0.1184624135 0.6043748856 4281744456
-0.2981704473 -0.1171228811 0.6009472609 4281020219
-0.2964689434 -0.1157906279 0.5975179672 4281546563
-0.2960805297 -0.1149759218 0.5967351794 4284903035
-0.2956917286 -0.1141627952 0.5959515572 4288587443
-0.2970550656 -0.1140239611 0.5986992717 4291417569
-0.2984185815 -0.1138790920 0.6014473438 4292799222
-0.3015844226 -0.1137365252 0.6078279614 4293258231
-0.3029485047 -0.1135725603 0.6105771661 4291681252
-0.3034357429 -0.1130757406 0.6115592122 4286680984
-0.3034842908 -0.1124142334 0.6116570234 4284114550
-0.3035325706 -0.1117524132 0.6117543578 4281614416
-0.3031418622 -0.1109297499 0.6109669209 4280826951
-0.3027507663 -0.1101086810 0.6101787090 4281024330
-0.3019204438 -0.1091305986 0.6085051894 4282075992
-0.3010895550 -0.1081560403 0.6068305969 4289576394
-0.3159583509 -0.0767056867 0.6367979050 4290560452
-0.3151078522 -0.0757935867 0.6350837350 4283520602
-0.3142568767 -0.0748851746 0.6333686113 4281875777
-0.3134053946 -0.0739804655 0.6316525340 4287797147
-0.3134376407 -0.0732861906 0.6317175031 4293652724
-0.3006834090 -0.2182503045 0.6073716283 4292074210
-0.3007706702 -0.2176386118 0.6075478792 4291745245
-0.3008577526 -0.2170263827 0.6077237725 4291613661
-0.3009445965 -0.2164136320 0.6078992486 4290692559
-0.3010312915 -0.2158003449 0.6080743074 4287139232
-0.3011177778 -0.2151865363 0.6082490087 4283915375
-0.3012040555 -0.2145721912 0.6084232926 4285560201
-0.3012901247 -0.2139573246 0.6085971594 4288981437
-0.3010848761 -0.1982696652 0.6081825495 4292141043
-0.3011654615 -0.1976468265 0.6083453894 4289377737
-0.3003936708 -0.1964661330 0.6067863703 4286484133
-0.2991950214 -0.1950106919 0.6043651104 4285168273
-0.2984217703 -0.1938369423 0.6028031707 4284774030
-0.2946628630 -0.1907340586 0.5952103138 4284839823
-0.2883424759 -0.1859957576 0.5824432969 4284905101
-0.2922582030 -0.1878656894 0.5903529525 4284773515
-0.2919080853 -0.1869854927 0.5896457434 4284774028
-0.2843006253 -0.1814743578 0.5742788911 4284510856
-0.2805318236 -0.1784390658 0.5666660070 4284511886
-0.2784692347 -0.1765021384 0.5624996424 4286156711
-0.2772597671 -0.1751132756 0.5600565672 4289116366
-0.2786133587 -0.1753428727 0.5627908111 4291353328
-0.3067919016 -0.1565840095 0.6197105646 4291547613
-0.3068575561 -0.1559288502 0.6198432446 4288915893
-0.3064900935 -0.1550542563 0.6191009879 4285955210
-0.3061222136 -0.1541810930 0.6183578372 4283455076
-0.3057538569 -0.1533093750 0.6176137924 4282468179
-0.3058182895 -0.1526553035 0.6177439094 4283389281
-0.3050159216 -0.1515702307 0.6161231399 4282205007
-0.3046463132 -0.1507028341 0.6153765321 4281020733
-0.3042762578 -0.1498368829 0.6146290302 4280757561
-0.3039057851 -0.1489723772 0.6138806939 4281810249
-0.3035348654 -0.1481093317 0.6131314635 4283849832
-0.3031635284 -0.1472477466 0.6123813987 4287139482
-0.3027917743 -0.1463876069 0.6116304398 4289705411
-0.3024195731 -0.1455289423 0.6108786464 4291547615
-0.3020469844 -0.1446717381 0.6101259589 4292205543
-0.3056730330 -0.1237694696 0.6174504757 4290494927
-0.3044156134 -0.1225771233 0.6149105430 4283584867
-0.3022838235 -0.1210402995 0.6106044054 4281347905
-0.3001510203 -0.1195126474 0.6062961817 4282599765
-0.2984541953 -0.1181671843 0.6028686762 4281612870
-0.2967565060 -0.1168289930 0.5994393826 4282336848
-0.2954950929 -0.1156692058 0.5968913436 4287073944
-0.2955445647 -0.1150252745 0.5969913006 4290956501
-0.2960310280 -0.1145502180 0.5979739428 4293127670
-0.3019137979 -0.1141161919 0.6098569632 4293325052
-0.3032755852 -0.1139502674 0.6126077771 4290501871
-0.3037621379 -0.1134513319 0.6135905385 4285567396
-0.3038107753 -0.1127876490 0.6136888266 4284317076
-0.3029834926 -0.1118005216 0.6120176911 4281093219
-0.3025935292 -0.1109775156 0.6112300158 4280760386
-0.3022031784 -0.1101561114 0.6104415059 4281155144
-0.3013743758 -0.1091776192 0.6087673903 4281680716
-0.3005450368 -0.1082026511 0.6070921421 4289312704
-0.3145066202 -0.0765245408 0.6352940798 4288981420
-0.3132164478 -0.0755076632 0.6326879859 4282665292
-0.3123668730 -0.0746017992 0.6309718490 4283060050
