VERSION 0.7
FIELDS x y z rgba
SIZE 4 4 4 4
TYPE F F F U
COUNT 1 1 1 1
WIDTH 920
HEIGHT 1
VIEWPOINT 0.0 0.0 0.0 1.0 0.0 0.0 0.0
POINTS 920
DATA ascii
-0.3049028218 -0.1636318117 0.6050354242 4281743688
-0.3058468401 -0.1634641290 0.6069087386 4283454306
-0.3072286546 -0.1635252982 0.6096507311 4287467679
-0.3081730902 -0.1633485258 0.6115248203 4291217880
-0.3273022175 -0.1128716767 0.6494837999 4290955476
-0.3269065320 -0.1120144650 0.6486986279 4290955476
-0.3269552290 -0.1113102958 0.6487952471 4290626511
-0.3270036578 -0.1106058136 0.6488913298 4289902790
-0.3270517588 -0.1099010259 0.6489868164 4289508032
-0.3270995915 -0.1091959178 0.6490817666 4289902790
-0.3271471262 -0.1084905043 0.6491760612 4290823892
-0.3271943629 -0.1077847853 0.6492698193 4292337634
-0.3091086149 -0.2120174170 0.6147360802 4287534240
-0.3083359897 -0.2108061612 0.6131995320 4286547345
-0.3075626791 -0.2095978558 0.6116616130 4290626511
-0.3072183430 -0.2086843699 0.6109768748 4291547613
-0.3064437807 -0.2074811012 0.6094364524 4291810785
-0.3081004620 -0.1874983460 0.6127311587 4286545548
-0.3077447116 -0.1866018325 0.6120236516 4282137417
-0.3073885143 -0.1857066453 0.6113152504 4281349710
-0.3070318699 -0.1848127544 0.6106060147 4281678675
-0.3075423241 -0.1844404489 0.6116211414 4280776618
-0.3071850240 -0.1835474074 0.6109105349 4281829306
-0.3068272769 -0.1826556772 0.6101990938 4283013064
-0.3064690828 -0.1817652583 0.6094867587 4282684099
-0.3065446615 -0.1811327189 0.6096370220 4280575112
-0.3061856925 -0.1802440584 0.6089231372 4278205536
-0.3062607050 -0.1796114892 0.6090723276 4279975767
-0.3054664433 -0.1784707159 0.6074927449 4281028455
-0.3042369187 -0.1770801097 0.6050475240 4281351493
-0.3030065298 -0.1756944358 0.6026006341 4284312178
-0.3013404310 -0.1740625203 0.5992872119 4290824403
-0.2996495664 -0.1644783318 0.5959244967 4289836227
-0.3010273874 -0.1645694822 0.5986647010 4286480784
-0.3002237678 -0.1634667516 0.5970664024 4283191134
-0.3020383120 -0.1637873501 0.6006751060 4281875528
-0.3029802740 -0.1636286825 0.6025484204 4281875528
-0.3039224148 -0.1634659320 0.6044220924 4281743688
-0.3044279218 -0.1630651504 0.6054274440 4281151551
-0.3058071434 -0.1631282121 0.6081703305 4282270032
-0.3067497611 -0.1629532278 0.6100449562 4285888647
-0.3076925278 -0.1627741456 0.6119198203 4289771202
-0.3086354136 -0.1625909954 0.6137950420 4292600301
-0.3081228137 -0.2118090987 0.6141321063 4288652721
-0.3069228530 -0.2103045434 0.6117404103 4285758342
-0.3061507642 -0.2090975344 0.6102015376 4289903301
-0.3058069050 -0.2081854492 0.6095161438 4291548126
-0.3050335646 -0.2069834918 0.6079748273 4291679712
-0.3066822588 -0.1870484352 0.6112608910 4285625477
-0.3063269854 -0.1861533821 0.6105527878 4281941069
-0.3059712648 -0.1852596402 0.6098437905 4281414222
-0.3060480058 -0.1846283376 0.6099967360 4281940566
-0.3056915104 -0.1837363243 0.6092861891 4279797182
-0.3057676852 -0.1831049770 0.6094380021 4280652491
-0.3054104447 -0.1822147071 0.6087259650 4281377754
-0.3050527275 -0.1813257486 0.6080129743 4281838305
-0.3051280081 -0.1806947738 0.6081630588 4282491858
-0.3047695458 -0.1798075736 0.6074485779 4279136415
-0.3044106364 -0.1789216995 0.6067332029 4279193710
-0.3036175370 -0.1777831912 0.6051524878 4280312191
-0.3028238118 -0.1766478121 0.6035704613 4280563005
-0.3011615276 -0.1750112027 0.6002572775 4284707964
-0.2999322414 -0.1736326367 0.5978071094 4290758610
-0.2991362512 -0.1725093871 0.5962206125 4291416540
-0.3001221418 -0.1637731642 0.5981856585 4289310137
-0.3010622263 -0.1636194438 0.6000593305 4284573041
-0.3015666604 -0.1632257849 0.6010648012 4282007114
-0.3033787608 -0.1635347456 0.6046765447 4281217598
-0.3025754690 -0.1624316871 0.6030755043 4281678149
-0.3048241735 -0.1629638076 0.6075574160 4281612356
-0.3057650328 -0.1627896875 0.6094327569 4281743942
-0.3067060709 -0.1626114845 0.6113083363 4284179052
-0.3072108626 -0.1621988118 0.6123144627 4288258218
-0.3081521094 -0.1620133370 0.6141904593 4291547868
-0.3079934120 -0.2121898830 0.6152361631 4289837508
-0.3072237074 -0.2109777331 0.6136986017 4285757829
-0.3060253263 -0.2094755620 0.6113047600 4288718514
-0.3052541316 -0.2082701921 0.6097642779 4291152855
-0.3044822514 -0.2070677727 0.6082224250 4291876578
-0.3048347235 -0.1863340884 0.6089264154 4284640894
-0.3049117029 -0.1857044101 0.6090802550 4281417037
-0.3045564592 -0.1848121136 0.6083706617 4281413961
-0.3042007983 -0.1839211434 0.6076601744 4282466649
-0.3038446903 -0.1830314696 0.6069488525 4280062407
-0.3043527901 -0.1826620400 0.6079638004 4280720337
-0.3039960265 -0.1817732304 0.6072511077 4281183710
-0.3036388159 -0.1808857322 0.6065375805 4281446882
-0.3032811582 -0.1799995601 0.6058231592 4282166492
-0.3029230833 -0.1791147143 0.6051078439 4281179597
-0.3025645614 -0.1782312095 0.6043916941 4279857042
-0.3017726541 -0.1770949513 0.6028097868 4279199112
-0.3009800911 -0.1759618223 0.6012265682 4280825928
-0.2997537255 -0.1745795608 0.5987768173 4285299852
-0.2989597619 -0.1734536290 0.5971908569 4290692817
-0.2981651425 -0.1723308563 0.5956035852 4291350747
-0.3000870049 -0.1634512842 0.5994426012 4289967813
-0.3005905151 -0.1630584002 0.6004484296 4286020233
-0.3015291095 -0.1628983170 0.6023232937 4282138446
-0.3024678528 -0.1627341509 0.6041984558 4281151551
-0.3038420379 -0.1627991349 0.6069435477 4281809735
-0.3047811985 -0.1626258940 0.6088195443 4281020219
-0.3065915108 -0.1629113853 0.6124357581 4280889147
-0.3057887554 -0.1618061662 0.6108322144 4283652453
-0.3071638644 -0.1618520617 0.6135790944 4287337116
-0.3076677322 -0.1614347100 0.6145855784 4290824145
-0.3057268262 -0.2110966742 0.6120664477 4290758610
-0.3045309782 -0.2095935941 0.6096723676 4285889415
-0.3041886985 -0.2086813897 0.6089870930 4287534240
-0.3034186363 -0.2074781805 0.6074454188 4290363339
-0.3026478589 -0.2062779367 0.6059023738 4291744992
-0.3033452332 -0.1865106672 0.6072984934 4291745253
-0.3034221530 -0.1858830452 0.6074524522 4284050297
-0.3030677438 -0.1849917918 0.6067429185 4281089612
-0.3031440973 -0.1843640953 0.6068958044 4281479237
-0.3027889132 -0.1834745705 0.6061847210 4282795097
-0.3028647304 -0.1828468293 0.6063365340 4280324804
-0.3025088012 -0.1819590479 0.6056239009 4280719562
-0.3021523952 -0.1810725778 0.6049104333 4281314004
-0.3022273481 -0.1804452240 0.6050604582 4281708762
-0.3018701971 -0.1795605123 0.6043454409 4281904090
-0.3015125990 -0.1786771268 0.6036295295 4282496227
-0.3011545837 -0.1777950823 0.6029127836 4281372854
-0.3003639281 -0.1766601950 0.6013299227 4279333271
-0.2995726466 -0.1755284369 0.5997457504 4280429637
-0.2983483374 -0.1741474271 0.5972946882 4285364112
-0.2979881465 -0.1732743531 0.5965735912 4290758612
-0.2976275384 -0.1724026352 0.5958516598 4291416542
-0.2991810441 -0.1626546681 0.5989617109 4290625743
-0.3001177907 -0.1624963731 0.6008371115 4287401886
-0.3010546863 -0.1623340100 0.6027128100 4283256927
-0.3024262786 -0.1624008864 0.6054587364 4281349184
-0.3033636212 -0.1622294188 0.6073352695 4281678149
-0.3051705062 -0.1625168920 0.6109527349 4281612870
-0.3048039079 -0.1616436541 0.6102187634 4281678663
-0.3057415783 -0.1614608467 0.6120959520 4282797144
-0.3062444031 -0.1610451788 0.6131026149 4286086794
-0.3071822524 -0.1608550847 0.6149802208 4289902788
-0.3076850772 -0.1604339778 0.6159868836 4292600301
-0.3043181896 -0.2105923146 0.6106040478 4292008164
-0.3035506904 -0.2093844861 0.6090641022 4287205788
-0.3027825356 -0.2081796080 0.6075228453 4286153100
-0.3020136952 -0.2069777101 0.6059801579 4289508030
-0.3016708493 -0.2060702294 0.6052922606 4291284441
-0.3019354045 -0.1860575527 0.6058230996 4290891486
-0.3020120263 -0.1854314804 0.6059768200 4283456115
-0.3020884097 -0.1848049462 0.6061301231 4281613911
-0.3013037443 -0.1836532056 0.6045556664 4281021507
-0.3013794720 -0.1830274910 0.6047076583 4283061090
-0.3014550209 -0.1824013144 0.6048591733 4280391371
-0.3010995388 -0.1815149933 0.6041460037 4280851922
-0.3007436693 -0.1806299984 0.6034318805 4281247698
-0.3008182943 -0.1800042093 0.6035816669 4281510870
-0.3004616499 -0.1791209579 0.6028660536 4281445079
-0.3001045585 -0.1782390475 0.6021495461 4281839837
-0.2997470200 -0.1773584634 0.6014322042 4282622421
-0.2993890643 -0.1764792353 0.6007139683 4278740634
-0.2981676757 -0.1750945449 0.5982632637 4279643194
-0.2973770201 -0.1739673018 0.5966768861 4283327602
-0.2970174551 -0.1730947942 0.5959553719 4288460233
-0.2966574430 -0.1722236425 0.5952330232 4290170851
-0.2996439934 -0.1619333923 0.6012254357 4289245371
-0.3005792499 -0.1617687345 0.6031019688 4284837240
-0.3019484580 -0.1618324965 0.6058492661 4281416004
-0.3028841019 -0.1616587341 0.6077266335 4281020988
-0.3038199246 -0.1614808887 0.6096042991 4281152574
-0.3043217361 -0.1610691696 0.6106112003 4281810504
-0.3048235178 -0.1606552005 0.6116179824 4282994778
-0.3057595491 -0.1604668945 0.6134961247 4285165177
-0.3062613308 -0.1600474715 0.6145029068 4288981171
-0.3067630529 -0.1596257985 0.6155095696 4291876063
-0.3037255406 -0.0747614652 0.6094149351 4293191915
-0.3055319190 -0.0745249763 0.6130393744 4292007639
-0.3077819049 -0.0743876398 0.6175538898 4291415502
-0.3100320399 -0.0742403194 0.6220687032 4290757572
-0.3118388057 -0.0739777684 0.6256939173 4290428607
-0.3140892386 -0.0738114342 0.6302093267 4290297021
-0.3154524863 -0.0734285563 0.6329447031 4290362814
-0.3172594607 -0.0731418878 0.6365702748 4290625986
-0.3186227083 -0.0727458596 0.6393055916 4290823365
-0.3186544776 -0.0720427334 0.6393693686 4292402146
-0.3029968441 -0.2094692588 0.6093106866 4288916406
-0.3022301495 -0.2082639486 0.6077688932 4285363584
-0.3014627695 -0.2070615888 0.6062257886 4288389549
-0.3002688289 -0.2055706233 0.6038247943 4290494925
-0.3003520370 -0.2049565166 0.6039921045 4291679199
-0.3009573519 -0.1858690679 0.6052093506 4290168017
-0.3006043434 -0.1849794239 0.6044995189 4282995048
-0.3006804585 -0.1843544394 0.6046525240 4281942360
-0.3003267050 -0.1834665239 0.6039411426 4281219916
-0.2999725044 -0.1825799197 0.6032288671 4282798948
-0.3000477254 -0.1819553077 0.6033801436 4279800004
-0.2996927500 -0.1810704470 0.6026663780 4280523727
-0.2993373573 -0.1801869124 0.6019516587 4281246930
-0.2994117141 -0.1795626879 0.6021012068 4281641688
-0.2994858623 -0.1789380014 0.6022502780 4281510872
-0.2986989617 -0.1778004616 0.6006678939 4281905630
-0.2983419299 -0.1769213527 0.5999499559 4282952411
-0.2979844809 -0.1760435849 0.5992310643 4278873245
-0.2976265848 -0.1751671582 0.5985113978 4279445563
-0.2968374491 -0.1740394831 0.5969244242 4282472041
-0.2960476577 -0.1729149520 0.5953361988 4286157478
-0.2961192727 -0.1722951829 0.5954802632 4289183956
-0.2991691530 -0.1613694578 0.6016134024 4290627024
-0.3001027107 -0.1612024903 0.6034907699 4286416272
-0.3014695942 -0.1612631381 0.6062394381 4282336593
-0.3024035692 -0.1610870808 0.6081176400 4281349698
-0.3029043376 -0.1606770605 0.6091246605 4281810249
-0.3034050763 -0.1602647752 0.6101316214 4281547077
-0.3039057553 -0.1598502249 0.6111384630 4282139214
-0.3044063747 -0.1594334096 0.6121451855 4284113004
-0.3053406775 -0.1592405289 0.6140240431 4287665312
-0.3058413267 -0.1588182747 0.6150307655 4291415513
-0.2981482148 -0.0768833086 0.5995603204 4292929001
-0.2981816828 -0.0762257054 0.5996276736 4292007899
-0.2990997732 -0.0757921264 0.6014739275 4290888905
-0.3000178039 -0.0753544196 0.6033200026 4289573045
-0.3013782799 -0.0750227571 0.6060558558 4288257185
-0.3031813800 -0.0747942030 0.6096817851 4287072911
-0.3049845695 -0.0745576173 0.6133078933 4285493879
-0.3067878485 -0.0743129998 0.6169341803 4284441191
-0.3090339601 -0.0741665959 0.6214510202 4283520344
-0.3108374476 -0.0739049166 0.6250777245 4283191379
-0.3130838275 -0.0737394989 0.6295951009 4283059023
-0.3153303862 -0.0735640749 0.6341128349 4282730058
-0.3162483275 -0.0730716288 0.6359587312 4282927437
-0.3176091313 -0.0726764128 0.6386952400 4283453781
-0.3176408410 -0.0719739646 0.6387590170 4285230709
-0.3176722527 -0.0712713003 0.6388221383 4287401878
-0.3181464672 -0.0706668571 0.6397757530 4289441714
-0.3181773126 -0.0699627995 0.6398378015 4291678676
-0.3015927672 -0.2089653015 0.6078447700 4291153368
-0.3008273244 -0.2077612877 0.6063020229 4285889928
-0.3000611663 -0.2065602392 0.6047579050 4287600546
-0.2997194827 -0.2056538612 0.6040692925 4289113785
-0.2993773818 -0.2047487199 0.6033797860 4291284954
-0.2995516360 -0.1854150295 0.6037309766 4289706437
-0.2996277809 -0.1847912073 0.6038844585 4282599775
-0.2988461852 -0.1836399585 0.6023091674 4281876052
-0.2993505299 -0.1832795441 0.6033256650 4281024344
-0.2985679507 -0.1821318269 0.6017484069 4282734962
-0.2986429036 -0.1815087944 0.6018995047 4279669446
-0.2987176180 -0.1808852851 0.6020500660 4280590548
-0.2983628213 -0.1800023168 0.6013349891 4281312723
-0.2980076075 -0.1791206747 0.6006190777 4281444309
-0.2980814576 -0.1784975678 0.6007679105 4281379288
-0.2972958386 -0.1773613840 0.5991845727 4281708253
-0.2973690331 -0.1767391562 0.5993320942 4283413728
-0.2970121801 -0.1758619547 0.5986128449 4279202976
-0.2966548800 -0.1749861091 0.5978927612 4279512132
-0.2962971628 -0.1741116047 0.5971717834 4281946473
-0.2955088615 -0.1729866415 0.5955830216 4285170843
-0.2951501906 -0.1721157432 0.5948600769 4287342012
-0.2956517637 -0.1717461795 0.5958710313 4290234845
-0.2965838015 -0.1716234684 0.5977494717 4291155947
-0.2986932695 -0.1608045548 0.6020010114 4291416027
-0.2996251583 -0.1606352925 0.6038791537 4288126377
-0.3005571961 -0.1604619324 0.6057576537 4283652453
-0.3014893830 -0.1602844894 0.6076364517 4281349698
-0.3019890785 -0.1598738879 0.6086435318 4281547077
-0.3024887145 -0.1594610363 0.6096504927 4281547079
-0.3029882908 -0.1590459198 0.6106573939 4282599767
-0.3034878373 -0.1586285383 0.6116642356 4284506994
-0.3039873242 -0.1582088917 0.6126708984 4287730851
-0.3044867814 -0.1577869803 0.6136775017 4291283673
-0.2970343232 -0.0794281363 0.5986574888 4292796912
-0.2961860299 -0.0785380378 0.5969477296 4291744224
-0.2966616154 -0.0779998302 0.5979062915 4290428358
-0.2962540090 -0.0772292614 0.5970847607 4289178291
-0.2971706986 -0.0768027753 0.5989323258 4287665052
-0.2976456881 -0.0762590170 0.5998896360 4286151813
-0.2990038395 -0.0759374201 0.6026269197 4285099123
-0.2994785607 -0.0753873661 0.6035837531 4284572779
-0.3017201424 -0.0752759874 0.6081015468 4284112228
-0.3030783236 -0.0749361515 0.6108388305 4283585884
-0.3048783541 -0.0746984929 0.6144667268 4283190610
-0.3066784739 -0.0744527876 0.6180947423 4282927438
-0.3084786534 -0.0741990507 0.6217229366 4282664266
-0.3102789223 -0.0739372671 0.6253513098 4282466887
-0.3125213385 -0.0737717748 0.6298707128 4282335300
-0.3143217862 -0.0734929219 0.6334995031 4282137921
-0.3156802058 -0.0731036291 0.6362372637 4281874749
-0.3165963888 -0.0726068392 0.6380838156 4281808956
-0.3166280389 -0.0719050691 0.6381475925 4281612094
-0.3166593611 -0.0712030903 0.6382107735 4281941059
-0.3171327114 -0.0705993623 0.6391647458 4282927952
-0.3171634972 -0.0698959902 0.6392267942 4285164914
-0.3167515695 -0.0690959096 0.6383965611 4288586405
-0.3163392842 -0.0682975873 0.6375656128 4292402399
-0.2997671366 -0.2081663609 0.6055207849 4292337642
-0.2985786796 -0.2066709399 0.6031201482 4287666339
-0.2990862429 -0.2063510269 0.6041454077 4286745237
-0.2983208001 -0.2051533759 0.6025992036 4288587441
-0.2984035909 -0.2045406103 0.6027664542 4290363852
-0.2980616391 -0.2036372423 0.6020756960 4291877091
-0.2981483638 -0.1849604845 0.6022509336 4289048505
-0.2982242107 -0.1843382269 0.6024041176 4282532953
-0.2978718877 -0.1834519058 0.6016923785 4281809230
-0.2975190878 -0.1825669110 0.6009798050 4280435558
-0.2971658707 -0.1816832274 0.6002663374 4282869899
-0.2972405255 -0.1810617596 0.6004171371 4279998924
-0.2973149717 -0.1804398298 0.6005674601 4280722647
-0.2973891795 -0.1798174381 0.6007173657 4281510106
-0.2970345616 -0.1789363623 0.6000010371 4281510106
-0.2966794968 -0.1780566275 0.5992838144 4281379034
-0.2963240147 -0.1771782190 0.5985657573 4281642206
-0.2959680855 -0.1763011515 0.5978468060 4283874532
-0.2960407734 -0.1756800413 0.5979936123 4279663780
-0.2956840992 -0.1748047620 0.5972731709 4279578188
-0.2953269780 -0.1739308387 0.5965517759 4281617771
-0.2949694395 -0.1730582565 0.5958295465 4284973979
-0.2950409353 -0.1724380255 0.5959739685 4287013562
-0.2951121926 -0.1718173474 0.5961179137 4288591566
-0.2960425913 -0.1716946065 0.5979973078 4289183703
-0.2969731688 -0.1715678126 0.5998769999 4290630375
-0.2974740267 -0.1711895466 0.6008887887 4291880442
-0.2987148762 -0.1598361433 0.6033952236 4289508030
-0.2996451259 -0.1596614122 0.6052743196 4285034108
-0.3001436889 -0.1592534184 0.6062813997 4281876044
-0.3006421924 -0.1588431895 0.6072883606 4280889149
-0.3011406362 -0.1584306806 0.6082952023 4281744458
-0.3016390204 -0.1580159068 0.6093019247 4282468183
-0.3021373749 -0.1575988829 0.6103085876 4284178801
-0.3026356697 -0.1571795791 0.6113151312 4287271072
-0.3031339347 -0.1567580253 0.6123216152 4291350238
-0.2928350866 -0.0811097920 0.5915182233 4292929003
-0.2928702533 -0.0804622397 0.5915892720 4291481557
-0.2933456004 -0.0799344704 0.5925494432 4290099653
-0.2942612767 -0.0795235634 0.5943990946 4287994277
-0.2947363257 -0.0789904669 0.5953587294 4286743958
-0.2947705984 -0.0783380866 0.5954279304 4285691270
-0.2952452600 -0.0778016001 0.5963867307 4285033332
-0.2957197428 -0.0772629455 0.5973451734 4284441195
-0.2966348231 -0.0768362805 0.5991935730 4284046435
-0.2975498140 -0.0764054805 0.6010418534 4283585884
-0.2984647155 -0.0759705603 0.6028899550 4283322712
-0.3002613783 -0.0757539943 0.6065191031 4283191126
-0.3020581305 -0.0755293816 0.6101484895 4282927952
-0.3038549721 -0.0752967298 0.6137781143 4282796366
-0.3052108586 -0.0749477372 0.6165169477 4282270022
-0.3070078492 -0.0746999756 0.6201468110 4282401608
-0.3088049293 -0.0744441748 0.6237768531 4282795851
-0.3101609051 -0.0740749538 0.6265158653 4283190609
-0.3119580746 -0.0738040283 0.6301460862 4283519574
-0.3137553334 -0.0735250562 0.6337764859 4283716953
-0.3146699667 -0.0730331764 0.6356240511 4283914332
-0.3155845106 -0.0725371540 0.6374713778 4284177504
-0.3160575032 -0.0719365329 0.6384268403 4284572779
-0.3160887957 -0.0712342486 0.6384900808 4284441193
-0.3161198199 -0.0705317631 0.6385526657 4284046435
-0.3161505163 -0.0698290616 0.6386147141 4283125333
-0.3157393336 -0.0690296218 0.6377841234 4283191126
-0.3157693744 -0.0683275014 0.6378448606 4286349190
-0.3149157763 -0.0674360245 0.6361206174 4290033851
-0.3145034313 -0.0666418746 0.6352877021 4293126122
-0.2980289757 -0.2067542970 0.6033633947 4289640129
-0.2976887524 -0.2058486789 0.6026746631 4285955721
-0.2973481119 -0.2049442679 0.6019849777 4288390062
-0.2970070541 -0.2040411085 0.6012944579 4289113785
-0.2970893383 -0.2034293711 0.6014610529 4291416540
-0.2971745431 -0.1847708970 0.6016336083 4287798438
-0.2972502112 -0.1841493249 0.6017867923 4282073172
-0.2968984544 -0.1832635701 0.6010746956 4281481035
-0.2965462804 -0.1823791414 0.6003617048 4279782262
-0.2966210842 -0.1817579269 0.6005131006 4282742947
-0.2962681353 -0.1808752418 0.5997985601 4280130767
-0.2959147692 -0.1799938828 0.5990831852 4280393939
-0.2959887087 -0.1793730557 0.5992328525 4281443800
-0.2960624099 -0.1787517667 0.5993820429 4281509593
-0.2957079709 -0.1778725982 0.5986644626 4281445087
-0.2953530848 -0.1769947708 0.5979459882 4281774052
-0.2949977517 -0.1761182845 0.5972266793 4284726752
-0.2946420014 -0.1752431393 0.5965064168 4280647586
-0.2951425612 -0.1748769581 0.5975198150 4279250253
-0.2947861552 -0.1740026921 0.5967983007 4281026664
-0.2940007448 -0.1728777885 0.5952082276 4284513944
-0.2945007384 -0.1725093424 0.5962204337 4286619320
-0.2950007319 -0.1721386462 0.5972326398 4287474627
-0.2955006957 -0.1717656851 0.5982448459 4287869385
-0.2964296043 -0.1716388613 0.6001254916 4288789971
-0.2969296277 -0.1712604910 0.6011377573 4289974245
-0.2978588343 -0.1711264253 0.6030189395 4291222769
-0.2978049219 -0.1590376794 0.6029098034 4290626513
-0.2983023226 -0.1586323231 0.6039168239 4286152589
-0.2987996936 -0.1582246870 0.6049237251 4282007630
-0.2992970049 -0.1578148007 0.6059305072 4280757563
-0.3002256155 -0.1576291323 0.6078105569 4281744460
-0.3007229269 -0.1572137922 0.6088173389 4282862941
-0.3007886410 -0.1565715522 0.6089503765 4284178801
-0.3012857437 -0.1561526209 0.6099567413 4287402658
-0.3013510704 -0.1555086225 0.6100890040 4291152087
-0.2908799350 -0.0827123150 0.5888900757 4292338155
-0.2909157276 -0.0820681155 0.5889625549 4290957020
-0.2909512520 -0.0814236701 0.5890344381 4289772746
-0.2914260328 -0.0809010193 0.5899956822 4288521909
-0.2919006646 -0.0803761855 0.5909565687 4287008670
-0.2928147912 -0.0799692422 0.5928072333 4285823883
-0.2932891548 -0.0794390738 0.5937675834 4283455335
-0.2946428657 -0.0791429654 0.5965081453 4282796376
-0.2951169610 -0.0786064863 0.5974680185 4282927962
-0.2960307598 -0.0781840011 0.5993179679 4283520350
-0.2965045571 -0.0776421800 0.6002771854 4282994006
-0.2978581190 -0.0773266256 0.6030175090 4282598989
-0.2987716794 -0.0768917501 0.6048670411 4282204231
-0.3001252413 -0.0765649974 0.6076073050 4282138438
-0.3014788032 -0.0762321651 0.6103476286 4282270024
-0.3028323650 -0.0758932456 0.6130878925 4282598987
-0.3041859269 -0.0755482316 0.6158282161 4283322710
-0.3059797585 -0.0753054842 0.6194598079 4283849054
-0.3073333502 -0.0749473199 0.6222001910 4284572777
-0.3091273010 -0.0746894479 0.6258320808 4285624950
-0.3104809225 -0.0743181184 0.6285725236 4286151294
-0.3118345439 -0.0739406869 0.6313129067 4286414466
-0.3131881058 -0.0735571682 0.6340532899 4286480259
-0.3141011298 -0.0730650723 0.6359016895 4286282880
-0.3150140345 -0.0725688413 0.6377499104 4285953915
-0.3150455952 -0.0718674511 0.6378137469 4285164916
-0.3155174851 -0.0712653846 0.6387690902 4284506986
-0.3155484498 -0.0705625936 0.6388317943 4284704365
-0.3151383996 -0.0697620288 0.6380016208 4285230709
-0.3156095147 -0.0691563934 0.6389554143 4284572781
-0.3147579134 -0.0682617798 0.6372313499 4283585886
-0.3139058352 -0.0673708990 0.6355063319 4284572779
-0.3134942353 -0.0665773898 0.6346729994 4288125601
-0.3126412630 -0.0656929985 0.6329461932 4292007641
-0.2966334820 -0.2062499672 0.6018916368 4291350747
-0.2962937355 -0.2053457648 0.6012022495 4286876823
-0.2959535718 -0.2044427842 0.6005119681 4287205788
-0.2960358560 -0.2038322389 0.6006789207 4288982199
-0.2961179316 -0.2032211721 0.6008455157 4290363852
-0.2957754433 -0.1843154430 0.6001505852 4286220176
-0.2958508134 -0.1836954206 0.6003034711 4281744206
-0.2954995632 -0.1828111410 0.5995907784 4281415241
-0.2951478660 -0.1819281727 0.5988771915 4279195527
-0.2956489921 -0.1815705448 0.5998939872 4282419384
-0.2952966690 -0.1806884259 0.5991790891 4280524754
-0.2949438989 -0.1798076332 0.5984632969 4280722133
-0.2950176299 -0.1791874915 0.5986129045 4281509339
-0.2946641147 -0.1783084720 0.5978956223 4281509339
-0.2943101525 -0.1774307787 0.5971773863 4281511135
-0.2943830490 -0.1768110394 0.5973252654 4281971686
-0.2940283418 -0.1759351194 0.5966055393 4285511896
-0.2936731875 -0.1750605553 0.5958849192 4282156453
-0.2937451899 -0.1744412333 0.5960310698 4279251280
-0.2938169837 -0.1738214791 0.5961766839 4280435554
-0.2938885391 -0.1732012630 0.5963219404 4284054420
-0.2939598858 -0.1725805849 0.5964667201 4285896624
-0.2948870063 -0.1724600792 0.5983478427 4286686655
-0.2953862250 -0.1720860898 0.5993607640 4287476171
-0.2963136137 -0.1719583422 0.6012425423 4287541964
-0.2972411811 -0.1718265265 0.6031246185 4288068308
-0.2968837023 -0.1709505916 0.6023993492 4289645796
-0.2978113592 -0.1708133221 0.6042815447 4291027449
-0.2964650393 -0.1580105722 0.6015498042 4291153370
-0.2973916233 -0.1578339636 0.6034299135 4286416274
-0.2978878915 -0.1574257761 0.6044368744 4282337108
-0.2983841002 -0.1570153236 0.6054437160 4281086528
-0.2988802791 -0.1566026062 0.6064504981 4281612872
-0.2993763983 -0.1561876237 0.6074571609 4282599769
-0.2998724580 -0.1557703912 0.6084637046 4283784043
-0.2999375165 -0.1551279873 0.6085957289 4287401888
-0.3004333973 -0.1547071487 0.6096019149 4291020503
-0.2888168395 -0.0862174854 0.5860310197 4293782508
-0.2879773974 -0.0853176638 0.5843277574 4292928488
-0.2875758410 -0.0845503733 0.5835129619 4291941593
-0.2876123488 -0.0839127004 0.5835869908 4290759125
-0.2876485586 -0.0832747817 0.5836605430 4289443265
-0.2881230712 -0.0827625915 0.5846233368 4287865786
-0.2885974348 -0.0822482184 0.5855858326 4286286754
-0.2890716195 -0.0817316622 0.5865479708 4285036440
-0.2895456254 -0.0812129229 0.5875098109 4285431198
-0.2904582620 -0.0808140710 0.5893616080 4285364893
-0.2909319997 -0.0802899972 0.5903228521 4285233307
-0.2922833264 -0.0800039843 0.5930647850 4285428884
-0.2927568257 -0.0794735923 0.5940255523 4282862957
-0.2941081226 -0.0791773647 0.5967674255 4281414992
-0.2954594195 -0.0788750574 0.5995093584 4282007129
-0.2963716984 -0.0784504414 0.6013604403 4281875525
-0.2972838879 -0.0780216902 0.6032113433 4282204490
-0.2986351848 -0.0777030811 0.6059531569 4282993749
-0.2999864817 -0.0773783773 0.6086950898 4283914851
-0.3017770648 -0.0771598965 0.6123282909 4285033330
-0.3031284213 -0.0768220350 0.6150703430 4286151811
-0.3044798076 -0.0764780790 0.6178123951 4287467671
-0.3058311939 -0.0761280358 0.6205544472 4288783531
-0.3067431152 -0.0756634921 0.6224047542 4290099389
-0.3080944121 -0.0753022358 0.6251466870 4291086284
-0.3094457388 -0.0749348849 0.6278886199 4292138458
-0.3107970357 -0.0745614395 0.6306304932 4292335837
-0.3121483028 -0.0741818920 0.6333723068 4292467422
-0.3130598664 -0.0736927465 0.6352219582 4292730594
-0.3139712811 -0.0731994584 0.6370713115 4292335836
-0.3144428432 -0.0726004988 0.6380280852 4291546320
-0.3144743443 -0.0718988106 0.6380920410 4289309875
-0.3145055473 -0.0711969063 0.6381553411 4287336085
-0.3145364523 -0.0704948008 0.6382180452 4285428088
-0.3145670593 -0.0697924867 0.6382801533 4284770158
-0.3141573668 -0.0689933375 0.6374488473 4285362297
-0.3137472868 -0.0681959465 0.6366168261 4285296504
-0.3128967583 -0.0673056692 0.6348909736 4284243816
-0.3120457530 -0.0664191246 0.6331642270 4283849058
-0.3111942708 -0.0655363128 0.6314365268 4286019455
-0.3103423417 -0.0646572486 0.6297079325 4290296000
-0.2953230739 -0.2051353455 0.6005861759 4289180091
-0.2949834764 -0.2042329162 0.5998955369 4286022027
-0.2950655520 -0.2036230415 0.6000624895 4288719540
-0.2951474488 -0.2030126452 0.6002290249 4289574849
-0.2956514955 -0.2026913166 0.6012540460 4291284954
-0.2943788171 -0.1838594675 0.5986658335 4284904316
-0.2944538891 -0.1832410246 0.5988185406 4281613131
-0.2945287526 -0.1826221049 0.5989707708 4281415752
-0.2941776514 -0.1817397177 0.5982567668 4278804883
-0.2942519784 -0.1811207533 0.5984079242 4282226119
-0.2943260670 -0.1805013269 0.5985586047 4281246934
-0.2935478687 -0.1793607920 0.5969759822 4281444313
-0.2936213315 -0.1787422150 0.5971254110 4282100447
-0.2932682931 -0.1778646559 0.5964074731 4281968861
-0.2933412194 -0.1772460639 0.5965557694 4281642721
-0.2934139073 -0.1766270101 0.5967035890 4282366444
-0.2930597961 -0.1757516712 0.5959834456 4286822615
-0.2927052677 -0.1748776734 0.5952624679 4284519860
-0.2927771211 -0.1742590517 0.5954085588 4279843670
-0.2928487062 -0.1736399680 0.5955541730 4279975256
-0.2933471203 -0.1732726544 0.5965677500 4283529618
-0.2934183776 -0.1726517677 0.5967127085 4285832373
-0.2943438292 -0.1725312322 0.5985947251 4286097088
-0.2948421836 -0.1721571386 0.5996081829 4286426053
-0.2957679331 -0.1720293760 0.6014908552 4286688971
-0.2962663174 -0.1716498435 0.6025044322 4287149522
-0.2963370979 -0.1710212529 0.6026483774 4287674578
-0.2968353629 -0.1706380993 0.6036616564 4288595680
-0.2973335981 -0.1702526808 0.6046749353 4290697967
-0.2974039018 -0.1696209311 0.6048178673 4291619069
-0.2955564559 -0.1572142988 0.6010607481 4291285469
-0.2964812517 -0.1570363045 0.6029415131 4287337889
-0.2969764173 -0.1566275507 0.6039485335 4282337108
-0.2974715531 -0.1562165320 0.6049554348 4280758076
-0.2979666293 -0.1558032632 0.6059622169 4281547338
-0.2984616458 -0.1553877145 0.6069689393 4282797405
-0.2985264659 -0.1547469348 0.6071007848 4284441719
-0.2990212739 -0.1543277800 0.6081070900 4287599783
-0.2990857065 -0.1536852419 0.6082381010 4290692565
-0.2833296955 -0.0873312876 0.5761957169 4292798705
-0.2868656516 -0.0877729952 0.5833866596 4291746534
-0.2869034410 -0.0871362910 0.5834635496 4290957018
-0.2860661447 -0.0862356126 0.5817607641 4289903816
-0.2856658399 -0.0854694620 0.5809466243 4288785335
-0.2857026458 -0.0848349258 0.5810215473 4287536044
-0.2857392132 -0.0842001438 0.5810958743 4286088598
-0.2862131596 -0.0836930871 0.5820596814 4285168533
-0.2862492502 -0.0830568522 0.5821331143 4284510603
-0.2871605456 -0.0826724172 0.5839864016 4283919248
-0.2876340151 -0.0821588039 0.5849492550 4282669181
-0.2889830172 -0.0818911642 0.5876926780 4282142075
-0.2894562483 -0.0813712329 0.5886550546 4283721107
-0.2908052504 -0.0810933784 0.5913984776 4284509340
-0.2925923169 -0.0809305906 0.5950327516 4284509340
-0.2935034037 -0.0805194080 0.5968855619 4284442508
-0.2944144011 -0.0801040903 0.5987382531 4282731890
-0.2957635224 -0.0798028633 0.6014818549 4282533473
-0.2966744304 -0.0793783069 0.6033343673 4283849333
-0.2980235517 -0.0790658742 0.6060780287 4286151811
-0.2993726730 -0.0787473619 0.6088216901 4287467671
-0.3002834618 -0.0783084333 0.6106739044 4288980908
-0.3016325831 -0.0779787078 0.6134175658 4290428354
-0.3029817045 -0.0776428878 0.6161612272 4291546835
-0.3043308556 -0.0773009732 0.6189048886 4292336351
-0.3056799769 -0.0769529641 0.6216486096 4293060074
-0.3065905273 -0.0764894262 0.6235002875 4293586418
-0.3130243123 -0.0717289373 0.6365844607 4293389039
-0.3134944737 -0.0711283162 0.6375405788 4291875800
-0.3135252893 -0.0704268888 0.6376032829 4289507254
-0.3135558367 -0.0697252601 0.6376653910 4286612362
-0.3131468594 -0.0689267516 0.6368336678 4285164918
-0.3127375245 -0.0681300089 0.6360012293 4285033332
-0.3114492297 -0.0671456233 0.6333812475 4285493629
-0.3105997145 -0.0662606582 0.6316536665 4284967285
-0.3097497523 -0.0653794408 0.6299250722 4283979874
-0.3093387187 -0.0645937249 0.6290891767 4285098355
-0.3089272976 -0.0638097823 0.6282525063 4288322980
-0.3085155189 -0.0630276203 0.6274150610 4292533732
-0.2939321995 -0.2046314329 0.5991108418 4291088088
-0.2935930789 -0.2037304342 0.5984196067 4286350992
-0.2936748266 -0.2031221092 0.5985862613 4287272094
-0.2937563956 -0.2025132626 0.5987524986 4289311677
-0.2942593396 -0.2021935880 0.5997776389 4290298059
-0.2947623134 -0.2018716633 0.6008028388 4291942884
-0.2937586606 -0.1845527589 0.5987571478 4290825686
-0.2934092581 -0.1836687773 0.5980449915 4283851628
-0.2930594385 -0.1827861071 0.5973318815 4281744717
-0.2931340039 -0.1821687669 0.5974838734 4281613131
-0.2932083607 -0.1815509498 0.5976354480 4278544025
-0.2932824790 -0.1809326708 0.5977865458 4282162640
-0.2929312587 -0.1800526083 0.5970706344 4281574871
-0.2930048406 -0.1794342846 0.5972206593 4281640664
-0.2926528454 -0.1785559654 0.5965031981 4282100447
-0.2923004329 -0.1776789874 0.5957849026 4281968861
-0.2923731804 -0.1770610809 0.5959331393 4281708512
-0.2924456894 -0.1764427125 0.5960809588 4282892786
-0.2920922041 -0.1755679399 0.5953604579 4288332254
-0.2917382717 -0.1746945232 0.5946390629 4286884808
-0.2922359407 -0.1743307114 0.5956534147 4280633697
-0.2923074663 -0.1737114042 0.5957992077 4279646802
-0.2923787832 -0.1730916500 0.5959445834 4283202196
-0.2928761840 -0.1727228612 0.5969583988 4284912814
-0.2933735847 -0.1723518074 0.5979722142 4285572032
-0.2942974865 -0.1722280979 0.5998553634 4286164169
-0.2947949469 -0.1718516201 0.6008693576 4285967307
-0.2952923775 -0.1714728624 0.6018832326 4286427858
-0.2957898080 -0.1710918546 0.6028971672 4286820818
-0.2958602905 -0.1704625934 0.6030408144 4287610334
-0.2963575721 -0.1700779647 0.6040543914 4288726236
-0.2964276969 -0.1694469005 0.6041973233 4290305268
-0.2946482003 -0.1564187109 0.6005702615 4291285983
-0.2955712080 -0.1562393457 0.6024515629 4287008924
-0.2960653007 -0.1558300257 0.6034586430 4282600793
-0.2965593338 -0.1554184556 0.6044656038 4281284679
-0.2970533073 -0.1550046057 0.6054724455 4281482058
-0.2971178591 -0.1543654203 0.6056040525 4282468440
-0.2971822023 -0.1537258327 0.6057351828 4284113265
-0.2976758182 -0.1533070505 0.6067413092 4286679707
-0.2977397740 -0.1526656896 0.6068716645 4290100943
-0.2982332110 -0.1522433013 0.6078773737 4292403698
-0.2861091793 -0.0916273445 0.5831654668 4292602096
-0.2835313082 -0.0901596770 0.5779110789 4291812580
-0.2800799310 -0.0884278938 0.5708763003 4290629085
-0.2822995186 -0.0884893611 0.5754004121 4289576397
-0.2823375463 -0.0878618807 0.5754778981 4288392392
-0.2810660005 -0.0868296623 0.5728861094 4287471290
-0.2819763124 -0.0864723101 0.5747416019 4286287535
-0.2828865945 -0.0861108229 0.5765969753 4285432226
-0.2833602428 -0.0856132880 0.5775623918 4284576413
-0.2838337421 -0.0851135626 0.5785275102 4284181655
-0.2847438157 -0.0847416148 0.5803824663 4284181915
-0.2852170467 -0.0842365399 0.5813471079 4283787157
-0.2856901586 -0.0837292746 0.5823113918 4283853722
-0.2870368659 -0.0834739283 0.5850563645 4283853722
-0.2870728076 -0.0828342661 0.5851296186 4283919262
-0.2879824936 -0.0824445710 0.5869837999 4282800781
-0.2888921201 -0.0820507407 0.5888378620 4282668425
-0.2898016870 -0.0816527754 0.5906918049 4284050078
-0.2915855348 -0.0814950392 0.5943276882 4285299107
-0.2933695316 -0.0813292563 0.5979639292 4285759658
-0.2947163880 -0.0810352117 0.6007091999 4286351261
-0.2956259549 -0.0806158185 0.6025632024 4287009191
-0.2969728410 -0.0803105682 0.6053084731 4288719280
-0.2983197570 -0.0799992234 0.6080538034 4290429898
-0.2996666729 -0.0796817839 0.6107991934 4292270813
-0.3005761206 -0.0792429000 0.6126528978 4293257708
-0.3120766878 -0.0702601895 0.6360940337 4293389039
-0.3121071160 -0.0695602223 0.6361560822 4291020491
-0.3125756085 -0.0689567700 0.6371110082 4288322980
-0.3117285967 -0.0680639520 0.6353845596 4285296502
-0.3104426563 -0.0670801252 0.6327634454 4285295736
-0.3095946908 -0.0661957711 0.6310350895 4285822080
-0.3087462485 -0.0653151572 0.6293057203 4285493115
-0.3078973293 -0.0644382909 0.6275754571 4284637806
-0.3074866235 -0.0636559874 0.6267383099 4284309609
-0.3075142205 -0.0629652813 0.6267945170 4287204501
-0.3079802096 -0.0623632334 0.6277443767 4291547090
-0.2926255763 -0.2035198212 0.5978009105 4289640384
-0.2927071452 -0.2029121518 0.5979675651 4285495170
-0.2927885056 -0.2023039907 0.5981337428 4288324269
-0.2932904661 -0.2019851059 0.5991591811 4289837763
-0.2933715284 -0.2013750523 0.5993248224 4290561486
-0.2938734293 -0.2010525316 0.6003501415 4291877091
-0.2923657298 -0.1840943992 0.5972700715 4289377739
-0.2924406528 -0.1834777892 0.5974231362 4282469474
-0.2920913994 -0.1825957000 0.5967096686 4281418062
-0.2921657860 -0.1819790304 0.5968616009 4281089097
-0.2922399342 -0.1813619137 0.5970131159 4279991213
-0.2918896377 -0.1804819852 0.5962975025 4282425554
-0.2919632792 -0.1798648089 0.5964478850 4282166745
-0.2916122079 -0.1789866388 0.5957307220 4282100952
-0.2916853130 -0.1783694327 0.5958800316 4282166484
-0.2917581797 -0.1777517647 0.5960289240 4281771726
-0.2914060354 -0.1768757999 0.5953095555 4281249503
-0.2914783955 -0.1762581170 0.5954573154 4282894328
-0.2911255062 -0.1753839254 0.5947364569 4289973995
-0.2907721996 -0.1745110899 0.5940146446 4289052893
-0.2912688851 -0.1741480678 0.5950292945 4281749862
-0.2913402319 -0.1735294461 0.5951750875 4279776072
-0.2918367982 -0.1731628031 0.5961894989 4283856790
-0.2923333347 -0.1727938950 0.5972039104 4285633201
-0.2928298712 -0.1724227220 0.5982182622 4285246155
-0.2933263779 -0.1720492840 0.5992325544 4285575120
-0.2942487001 -0.1719223857 0.6011167765 4286165458
-0.2943193614 -0.1712956280 0.6012611389 4286362837
-0.2948158085 -0.1709153950 0.6022753119 4286364117
-0.2948861122 -0.1702868193 0.6024189591 4286627289
-0.2953824401 -0.1699029654 0.6034328341 4286431201
-0.2950260341 -0.1690283269 0.6027047634 4287483889
-0.2950956523 -0.1683984101 0.6028470397 4290829556
-0.2933121324 -0.1553969681 0.5992034674 4291219422
-0.2942332625 -0.1552171409 0.6010851860 4286942877
-0.2947261333 -0.1548081785 0.6020921469 4282007889
-0.2952189744 -0.1543969661 0.6030989289 4281086787
-0.2952831984 -0.1537603289 0.6032301188 4281810510
-0.2957758307 -0.1533455104 0.6042365432 4282731612
-0.2962684333 -0.1529284269 0.6052428484 4284442230
-0.2963321209 -0.1522886902 0.6053729653 4286152848
-0.2963955700 -0.1516485363 0.6055026054 4288785081
-0.2968878150 -0.1512265056 0.6065081954 4291087836
-0.2901277542 -0.0970763043 0.5926981568 4292996084
-0.2875590920 -0.0955641344 0.5874506235 4292601326
-0.2845543325 -0.0939196870 0.5813122392 4291352805
-0.2832890749 -0.0928590745 0.5787274837 4290497496
-0.2824583948 -0.0919456705 0.5770305395 4289577167
-0.2807566822 -0.0907544643 0.5735540986 4288656065
-0.2812309265 -0.0902694240 0.5745229125 4286748845
-0.2782218158 -0.0886720568 0.5683756471 4285761950
-0.2804371417 -0.0887415707 0.5729013085 4285104288
-0.2800396979 -0.0879801661 0.5720893741 4284446358
-0.2792062759 -0.0870845988 0.5703868270 4283984538
-0.2801149189 -0.0867322013 0.5722430944 4284116124
-0.2805878520 -0.0862417594 0.5732092261 4284246946
-0.2819321454 -0.0860150084 0.5759554505 4284049567
-0.2824048996 -0.0855182409 0.5769212246 4284510882
-0.2833133638 -0.0851502866 0.5787771344 4284379296
-0.2842217982 -0.0847781897 0.5806329250 4284182685
-0.2855661809 -0.0845310166 0.5833793283 4284314271
-0.2869106233 -0.0842777565 0.5861259103 4284708512
-0.2878190279 -0.0838913098 0.5879817009 4285169063
-0.2891635299 -0.0836268514 0.5907283425 4286220972
-0.2905080914 -0.0833563134 0.5934751630 4287076281
-0.2918527126 -0.0830796808 0.5962220430 4288259264
-0.2936336994 -0.0829201713 0.5998603702 4289246159
-0.2945421040 -0.0825081542 0.6017161608 4290495446
-0.2967596948 -0.0824557617 0.6062464118 4291153376
-0.2959222496 -0.0815514028 0.6045356989 4292139236
-0.2972669303 -0.0812472329 0.6072826982 4292928752
-0.3111284375 -0.0687932447 0.6356001496 4292993766
-0.3102829158 -0.0679020137 0.6338728666 4289572530
-0.3094369471 -0.0670145229 0.6321446300 4285954180
-0.3081527650 -0.0660369694 0.6295212507 4284967285
-0.3077435791 -0.0652507693 0.6286852956 4285625475
-0.3068962395 -0.0643745065 0.6269542575 4285691268
-0.3069240749 -0.0636836961 0.6270111799 4284770166
-0.3065137863 -0.0629028380 0.6261729598 4284704373
-0.3065409958 -0.0622126423 0.6262285709 4286152842
-0.3070058823 -0.0616101511 0.6271782517 4289837250
-0.3087845445 -0.0612662137 0.6308118105 4292929519
-0.2916589975 -0.2033088654 0.5971813202 4292008932
-0.2917403579 -0.2027018815 0.5973479152 4287534753
-0.2918215096 -0.2020943910 0.5975140929 4285495170
-0.2923224866 -0.2017762959 0.5985397696 4288916661
-0.2924033701 -0.2011669129 0.5987054110 4289508798
-0.2924840450 -0.2005570382 0.5988705754 4291153368
-0.2929848433 -0.2002339214 0.5998960137 4291613919
-0.2913981974 -0.1839024425 0.5966472626 4288259515
-0.2914729118 -0.1832865179 0.5968002677 4281811801
-0.2915474474 -0.1826701164 0.5969528556 4281089100
-0.2911984921 -0.1817890108 0.5962383747 4281483858
-0.2912724614 -0.1811725646 0.5963898301 4280649654
-0.2909227610 -0.1802932173 0.5956737995 4282426065
-0.2905726433 -0.1794151962 0.5949569345 4282232026
-0.2906457484 -0.1787991375 0.5951066613 4282166233
-0.2907186747 -0.1781826168 0.5952559114 4281838295
-0.2907913625 -0.1775656343 0.5954047441 4281969881
-0.2904398441 -0.1766902357 0.5946850181 4282168034
-0.2905119956 -0.1760732383 0.5948327780 4284207615
-0.2897354960 -0.1749434918 0.5932428837 4291026420
-0.2898070216 -0.1743273735 0.5933892727 4290171111
-0.2898783088 -0.1737107933 0.5935353041 4282999668
-0.2903739214 -0.1733472049 0.5945500135 4279841604
-0.2908695042 -0.1729813367 0.5955647826 4283593872
-0.2913650870 -0.1726132184 0.5965794921 4285633455
-0.2918606400 -0.1722428352 0.5975941420 4285114828
-0.2927811146 -0.1721200049 0.5994789004 4285509586
-0.2932767570 -0.1717441827 0.6004936695 4285838292
-0.2937723696 -0.1713660955 0.6015084982 4286035671
-0.2938427329 -0.1707386523 0.6016525030 4286036693
-0.2939128578 -0.1701107621 0.6017960906 4286234072
-0.2944082022 -0.1697276980 0.6028103828 4285841374
-0.2940524220 -0.1688536406 0.6020818949 4286433511
-0.2932705879 -0.1677374989 0.6004810333 4289252839
-0.2924880981 -0.1666245610 0.5988789201 4290897663
-0.2924052775 -0.1546036154 0.5987093449 4290956252
-0.2928970158 -0.1541972905 0.5997161865 4286482328
-0.2938164175 -0.1540128887 0.6015986800 4281811025
-0.2938803732 -0.1533778608 0.6017296314 4281811023
-0.2939441204 -0.1527424008 0.6018601060 4281547851
-0.2944355607 -0.1523279548 0.6028664112 4282468953
-0.2949269712 -0.1519112438 0.6038725376 4284376950
-0.2949901521 -0.1512726992 0.6040019393 4285298569
-0.2950531244 -0.1506337523 0.6041308641 4286614429
-0.2955441773 -0.1502121091 0.6051363349 4288720318
-0.2956067622 -0.1495714188 0.6052644253 4290891487
-0.2956690788 -0.1489303112 0.6053920388 4292338675
-0.2885571122 -0.0993961617 0.5908300877 4292863224
-0.2851276994 -0.0975662097 0.5838082433 4292205294
-0.2843012512 -0.0966366529 0.5821160674 4290562262
-0.2808696628 -0.0948312506 0.5750898123 4289706953
-0.2822127044 -0.0946426913 0.5778397322 4288326591
-0.2796477675 -0.0931463242 0.5725879073 4287339696
-0.2788189948 -0.0922359750 0.5708909631 4286221739
-0.2779897153 -0.0913292319 0.5691930056 4285563809
-0.2771599591 -0.0904260948 0.5674940348 4284840864
-0.2754607201 -0.0892450437 0.5640147924 4284248727
-0.2776716352 -0.0893296525 0.5685417056 4283591061
-0.2772752643 -0.0885713547 0.5677301884 4283656854
-0.2777478695 -0.0880904496 0.5686978102 4284117151
-0.2777855992 -0.0874704719 0.5687750578 4284314530
-0.2791274190 -0.0872579813 0.5715224743 4284117151
-0.2795996368 -0.0867695287 0.5724893808 4283985565
-0.2800717354 -0.0862788856 0.5734559894 4284051097
-0.2827184498 -0.0864510536 0.5788751841 4284116890
-0.2818855047 -0.0855550766 0.5771697164 4284905111
-0.2840975225 -0.0855801404 0.5816988945 4285760420
-0.2850044966 -0.0852049738 0.5835559368 4286812847
-0.2867817581 -0.0850838944 0.5871949792 4287865535
-0.2876887619 -0.0846985057 0.5890520811 4289115342
-0.2881604135 -0.0841818154 0.5900177956 4290365409
-0.2890672386 -0.0837891176 0.5918745995 4291877099
-0.2904094160 -0.0835174918 0.5946227312 4292798201
-0.3084028661 -0.0676440671 0.6314648986 4293651694
-0.3071214855 -0.0666643232 0.6288412213 4290165186
-0.3067133427 -0.0658779740 0.6280055642 4286349192
-0.3063048720 -0.0650934055 0.6271691918 4285362303
-0.3058959842 -0.0643106177 0.6263319850 4285362303
-0.3059237897 -0.0636205003 0.6263889074 4285296510
-0.3059512973 -0.0629301891 0.6264452338 4284901752
-0.3064155877 -0.0623286143 0.6273959279 4284178797
-0.3073168397 -0.0618128069 0.6292412281 4285231485
-0.3082179427 -0.0612928681 0.6310862899 4288455595
-0.3091188967 -0.0607688017 0.6329309940 4292337382
-0.2907744944 -0.2024912983 0.5967273116 4290692304
-0.2908554673 -0.2018844783 0.5968934298 4285757829
-0.2913554311 -0.2015671730 0.5979194641 4285823877
-0.2914361060 -0.2009584755 0.5980850458 4288850355
-0.2915165722 -0.2003492713 0.5982501507 4290298059
-0.2915968299 -0.1997395456 0.5984148979 4291021782
-0.2904315889 -0.1837101877 0.5960235596 4286746528
-0.2900838554 -0.1828288138 0.5953099728 4281154123
-0.2901580930 -0.1822139919 0.5954623222 4280760396
-0.2902320921 -0.1815987080 0.5956141949 4281878877
-0.2898833156 -0.1807194948 0.5948984027 4281176764
-0.2899568081 -0.1801041663 0.5950492024 4282229452
-0.2896072865 -0.1792267114 0.5943319201 4282166233
-0.2896802127 -0.1786113381 0.5944815874 4282166233
-0.2893299460 -0.1777356565 0.5937627554 4281969629
-0.2894023359 -0.1771202534 0.5939113498 4282167008
-0.2890513241 -0.1762463450 0.5931909680 4283675871
-0.2891232073 -0.1756309271 0.5933384895 4286241791
-0.2887714207 -0.1747588068 0.5926166177 4292275962
-0.2888427675 -0.1741433740 0.5927629471 4291289067
-0.2884902358 -0.1732730418 0.5920395255 4284576899
-0.2894085050 -0.1731646806 0.5939239860 4280037182
-0.2899031341 -0.1727996022 0.5949390531 4283264137
-0.2903977334 -0.1724322736 0.5959540606 4285698478
-0.2908923328 -0.1720626801 0.5969690681 4285049549
-0.2913869023 -0.1716908216 0.5979840755 4285444307
-0.2923057079 -0.1715656966 0.5998696685 4285707478
-0.2923760116 -0.1709402949 0.6000139117 4285904857
-0.2924460769 -0.1703144461 0.6001577377 4285643736
-0.2929404974 -0.1699344367 0.6011723280 4285841115
-0.2930102050 -0.1693067849 0.6013154387 4285579743
-0.2926549613 -0.1684342176 0.6005863547 4285711329
-0.2922992706 -0.1675630212 0.5998564363 4287873758
-0.2910932600 -0.1662079394 0.5973814726 4289715962
-0.2914988101 -0.1538109779 0.5982136726 4291022045
-0.2924163342 -0.1536283642 0.6000966430 4285692812
-0.2924800515 -0.1529949456 0.6002274156 4282074195
-0.2929705977 -0.1525835395 0.6012341380 4281547851
-0.2930339575 -0.1519483626 0.6013641357 4281482060
-0.2935242951 -0.1515333503 0.6023704410 4282139990
-0.2935872376 -0.1508964449 0.6024996042 4284114297
-0.2936499715 -0.1502591074 0.6026283503 4285759122
-0.2941399813 -0.1498391628 0.6036339402 4286285727
-0.2942022979 -0.1492000967 0.6037618518 4287009450
-0.2942643762 -0.1485606134 0.6038892269 4288654273
-0.2943262458 -0.1479207277 0.6040161848 4291285993
-0.2891065478 -0.1031084284 0.5933043361 4292535262
-0.2882847488 -0.1021580026 0.5916178226 4291613392
-0.2852977812 -0.1004490107 0.5854879618 4290823876
-0.2831756175 -0.0990561545 0.5811328888 4289903556
-0.2814856172 -0.0978231505 0.5776646733 4288916661
-0.2784954906 -0.0961489975 0.5715283155 4287536046
-0.2768037617 -0.0949337855 0.5680565834 4286549151
-0.2777107358 -0.0946116298 0.5699178576 4284775071
-0.2755845785 -0.0932589024 0.5655544996 4284314520
-0.2760577500 -0.0927895755 0.5665255785 4284117656
-0.2752304971 -0.0918839499 0.5648278594 4283986070
-0.2752697170 -0.0912693962 0.5649083853 4283788951
-0.2748751342 -0.0905118138 0.5640986562 4283920537
-0.2744801939 -0.0897559151 0.5632880926 4284183457
-0.2753859162 -0.0894241631 0.5651468039 4284446629
-0.2758578658 -0.0889484286 0.5661153793 4284314790
-0.2763296962 -0.0884704888 0.5670836568 4284248997
-0.2768013775 -0.0879903659 0.5680516362 4284051360
-0.2768390179 -0.0873710960 0.5681288838 4283985567
-0.2777443528 -0.0870235264 0.5699868202 4284314269
-0.2782156169 -0.0865368173 0.5709539652 4284840613
-0.2795549333 -0.0863159746 0.5737025142 4286222001
-0.2804602087 -0.0859559923 0.5755602717 4287406275
-0.2822338343 -0.0858560503 0.5792001486 4289377990
-0.2835733891 -0.0856169611 0.5819491744 4290628057
-0.2849130332 -0.0853717849 0.5846983790 4292074985
-0.2892933786 -0.0860246867 0.5936877131 4292996087
-0.3065847456 -0.0660004467 0.6291730404 4290823114
-0.3057409227 -0.0651216581 0.6274413466 4286941335
-0.3053328395 -0.0643385351 0.6266039014 4285099131
-0.3049243689 -0.0635571927 0.6257656217 4284770684
-0.3049517870 -0.0628675744 0.6258218884 4284968063
-0.3049789369 -0.0621777773 0.6258776188 4285099901
-0.3054421246 -0.0615757592 0.6268281341 4284376178
-0.3063414693 -0.0610585622 0.6286737919 4284771702
-0.3072406650 -0.0605372377 0.6305191517 4287535008
-0.3077032864 -0.0599267781 0.6314685345 4292072665
-0.2902277410 -0.2025722712 0.5969659090 4292534763
-0.2894719839 -0.2013832182 0.5954114199 4289639871
-0.2899708450 -0.2010675967 0.5964375138 4285034874
-0.2900512218 -0.2004604489 0.5966027975 4285890183
-0.2901313603 -0.1998527944 0.5967676640 4288719282
-0.2902113199 -0.1992446333 0.5969321132 4290364107
-0.2902910709 -0.1986359656 0.5970962048 4291548126
-0.2893913090 -0.1841317266 0.5952454805 4291811300
-0.2890445292 -0.1832505167 0.5945321918 4285364097
-0.2891187668 -0.1826368421 0.5946848989 4281219138
-0.2891927958 -0.1820227057 0.5948371887 4280892241
-0.2892666459 -0.1814080924 0.5949890018 4282273894
