VERSION 0.7
FIELDS x y z rgba
SIZE 4 4 4 4
TYPE F F F U
COUNT 1 1 1 1
WIDTH 920
HEIGHT 1
VIEWPOINT 0.0 0.0 0.0 1.0 0.0 0.0 0.0
POINTS 920
DATA ascii
-0.2810176611 -0.1568196267 0.5727876425 4291745505
-0.2815103531 -0.1564570367 0.5737918615 4292007650
-0.2811471820 -0.1556184888 0.5730516315 4291941857
-0.2820676565 -0.1554891914 0.5749278069 4291941856
-0.2821320593 -0.1548857689 0.5750590563 4291941856
-0.2826244533 -0.1545160413 0.5760626793 4291941856
-0.2831168175 -0.1541440636 0.5770662427 4292007649
-0.2836091518 -0.1537698507 0.5780698061 4291941856
-0.2841014862 -0.1533933729 0.5790732503 4291941856
-0.2845937610 -0.1530146599 0.5800766349 4291876063
-0.2850860059 -0.1526337117 0.5810799599 4291678684
-0.2860070169 -0.1524790972 0.5829572082 4291612891
-0.2869281769 -0.1523203999 0.5848347545 4291547098
-0.2865625322 -0.1514773369 0.5840895176 4291415512
-0.2874836922 -0.1513132155 0.5859671235 4291415512
-0.2884050310 -0.1511449963 0.5878449678 4291481305
-0.2888972163 -0.1507486999 0.5888482332 4291349719
-0.2893893719 -0.1503501385 0.5898513794 4291547090
-0.2898814678 -0.1499493271 0.5908544064 4290757574
-0.2903735340 -0.1495462656 0.5918573737 4290494659
-0.2904359102 -0.1489206553 0.5919844508 4290757831
-0.2909277678 -0.1485140026 0.5929870605 4291284175
-0.2909897566 -0.1478866637 0.5931133628 4291021003
-0.2910515368 -0.1472589076 0.5932392478 4291218125
-0.2915430367 -0.1468473524 0.5942411423 4291349711
-0.2911743224 -0.1460022330 0.5934895873 4290954953
-0.2912353575 -0.1453732848 0.5936139822 4291415504
-0.2912961841 -0.1447439492 0.5937379003 4291020746
-0.2913567424 -0.1441142261 0.5938614011 4290560195
-0.2914170623 -0.1434841156 0.5939843655 4290954953
-0.2914771736 -0.1428536028 0.5941067934 4291283918
-0.2919676304 -0.1424327791 0.5951065421 4291086539
-0.2920273244 -0.1418005526 0.5952281952 4290560195
-0.2920867801 -0.1411679536 0.5953494310 4286677102
-0.2921459973 -0.1405349672 0.5954700708 4284111175
-0.2926359475 -0.1401079297 0.5964687467 4284966481
-0.2926947773 -0.1394732296 0.5965886116 4284966481
-0.2931844890 -0.1390426308 0.5975868106 4285032528
-0.2932429016 -0.1384062469 0.5977059007 4285361493
-0.2933010757 -0.1377694756 0.5978244543 4286413666
-0.2933589816 -0.1371323168 0.5979424715 4286084701
-0.2934166789 -0.1364948004 0.5980600715 4283978809
-0.2939056754 -0.1360566765 0.5990567803 4283781430
-0.2939629555 -0.1354174763 0.5991734862 4285228363
-0.2940199673 -0.1347778887 0.5992897153 4287465325
-0.2940767407 -0.1341379285 0.5994054675 4285162572
-0.2941332757 -0.1334975958 0.5995206833 4285754709
-0.2946215272 -0.1330519915 0.6005159020 4287004524
-0.2946776450 -0.1324099898 0.6006302238 4289438865
-0.2951656580 -0.1319608241 0.6016249657 4289703847
-0.2956535816 -0.1315094084 0.6026194692 4288914331
-0.2961414158 -0.1310557425 0.6036137938 4288914590
-0.2961967587 -0.1304094493 0.6037266254 4291875275
-0.2975493073 -0.1303311139 0.6064834595 4292467670
-0.2984695137 -0.1300582439 0.6083590984 4292072912
-0.2998224497 -0.1299687773 0.6111167073 4293389544
-0.2938081920 -0.1796676069 0.6002168655 4290428617
-0.2913334966 -0.1774930358 0.5951613188 4287204760
-0.2926804125 -0.1776493192 0.5979129672 4286678414
-0.2902036905 -0.1754873097 0.5928533077 4287204758
-0.2894254923 -0.1743597984 0.5912635326 4289245111
-0.2882215679 -0.1729802936 0.5888040066 4290034627
-0.2870167792 -0.1716057509 0.5863427520 4289179318
-0.2858111560 -0.1702361852 0.5838798285 4285889668
-0.2850300968 -0.1691240221 0.5822842121 4284639603
-0.2838228941 -0.1677635014 0.5798180699 4288389804
-0.2826148570 -0.1664079726 0.5773501992 4290429387
-0.2818317413 -0.1653071493 0.5757502913 4290955731
-0.2810479701 -0.1642095149 0.5741491914 4291679454
-0.2794117033 -0.1626192927 0.5708065033 4291745247
-0.2803306580 -0.1625178158 0.5726837516 4291547868
-0.2795452178 -0.1614279598 0.5710792542 4291482075
-0.2796116471 -0.1608316600 0.5712149143 4291613406
-0.2796778679 -0.1602349430 0.5713502169 4291613406
-0.2797438502 -0.1596377939 0.5714850426 4291613406
-0.2798096538 -0.1590402275 0.5716194510 4291679199
-0.2798752189 -0.1584422290 0.5717533827 4291876064
-0.2803673148 -0.1580844373 0.5727586746 4291941857
-0.2804325521 -0.1574846953 0.5728919506 4292007650
-0.2809244990 -0.1571233273 0.5738969445 4291941857
-0.2814164162 -0.1567597091 0.5749018788 4292008419
-0.2810540795 -0.1559199244 0.5741616488 4291942626
-0.2819730043 -0.1557897031 0.5760388970 4291942626
-0.2820374370 -0.1551851332 0.5761705041 4292008419
-0.2825290561 -0.1548143625 0.5771749020 4291942626
-0.2830206752 -0.1544413418 0.5781791806 4292008419
-0.2835122645 -0.1540660858 0.5791833997 4291942624
-0.2840037942 -0.1536885649 0.5801876187 4291679452
-0.2844953239 -0.1533088088 0.5811917186 4291810268
-0.2854147255 -0.1531564146 0.5830699205 4291547096
-0.2859062552 -0.1527712345 0.5840740800 4291547350
-0.2872539461 -0.1528393626 0.5868273377 4291613143
-0.2868892252 -0.1519941241 0.5860822201 4291349971
-0.2878089547 -0.1518281251 0.5879610777 4291481557
-0.2887288034 -0.1516580135 0.5898402333 4291613143
-0.2887918651 -0.1510356367 0.5899690390 4291152592
-0.2892832458 -0.1506360173 0.5909729004 4289508268
-0.2897745967 -0.1502341479 0.5919767022 4288587166
-0.2902658880 -0.1498300135 0.5929803252 4288718500
-0.2903282940 -0.1492032409 0.5931078196 4290100153
-0.2903904617 -0.1485760659 0.5932348371 4290626497
-0.2904523909 -0.1479484737 0.5933613181 4289705395
-0.2905140817 -0.1473204941 0.5934873819 4290494650
-0.2910047472 -0.1469087899 0.5944897532 4290297271
-0.2906367481 -0.1460633427 0.5937379599 4290165170
-0.2906977236 -0.1454341561 0.5938625336 4290099377
-0.2907584906 -0.1448045820 0.5939866304 4289508006
-0.2908189893 -0.1441746205 0.5941102505 4288850076
-0.2908792496 -0.1435442716 0.5942333937 4290231212
-0.2909392715 -0.1429135203 0.5943560004 4290757556
-0.2909990549 -0.1422823817 0.5944781303 4289902248
-0.2914885283 -0.1418600827 0.5954780579 4287402114
-0.2915479243 -0.1412272304 0.5955994129 4283913534
-0.2916070819 -0.1405940056 0.5957202911 4283058225
-0.2920961976 -0.1401668191 0.5967194438 4282860844
-0.2921549380 -0.1395318806 0.5968394876 4282795051
-0.2922134399 -0.1388965547 0.5969589949 4282926119
-0.2922717333 -0.1382608563 0.5970780253 4282860326
-0.2923297584 -0.1376247853 0.5971965790 4283320877
-0.2923875153 -0.1369883269 0.5973145962 4283255084
-0.2924450636 -0.1363514811 0.5974321365 4282531363
-0.2929331362 -0.1359141469 0.5984292030 4282465570
-0.2929902673 -0.1352756321 0.5985459089 4284175677
-0.2930471301 -0.1346367300 0.5986621380 4285162572
-0.2931037545 -0.1339974701 0.5987778306 4283517749
-0.2931601405 -0.1333578378 0.5988929868 4283320370
-0.2932162881 -0.1327178329 0.5990076661 4285886297
-0.2937034667 -0.1322716922 0.6000028849 4287333743
-0.2941905260 -0.1318233013 0.6009979844 4286150504
-0.2946775258 -0.1313726604 0.6019928455 4286216297
-0.2947329283 -0.1307283640 0.6021059752 4289440673
-0.2960828543 -0.1306550801 0.6048637629 4292203979
-0.2965696752 -0.1301967502 0.6058582664 4291809744
-0.2974881530 -0.1299247295 0.6077346206 4292599260
-0.2984066904 -0.1296485811 0.6096110940 4293653240
-0.2924138010 -0.1792215854 0.5987268090 4290495180
-0.2912152410 -0.1778244674 0.5962727070 4288652976
-0.2900158465 -0.1764322966 0.5938168764 4287271323
-0.2888155580 -0.1750450730 0.5913592577 4288916148
-0.2876144648 -0.1736627966 0.5888999701 4289442490
-0.2868368030 -0.1725407094 0.5873076916 4289047732
-0.2856341302 -0.1711674482 0.5848451257 4289771455
-0.2844305933 -0.1697991639 0.5823808908 4288258216
-0.2836508453 -0.1686883718 0.5807843208 4286350221
-0.2824457288 -0.1673291475 0.5783168674 4289113527
-0.2816646397 -0.1662256122 0.5767174959 4290692559
-0.2813078463 -0.1653750986 0.5759869814 4291218903
-0.2805255949 -0.1642770469 0.5743852854 4291745247
-0.2797427177 -0.1631821841 0.5727823377 4291679454
-0.2789592147 -0.1620905250 0.5711780787 4291613406
-0.2790257931 -0.1614944488 0.5713143945 4291613406
-0.2790921628 -0.1608979255 0.5714502931 4291547613
-0.2795838416 -0.1605453491 0.5724570155 4291547613
-0.2796498835 -0.1599470824 0.5725922585 4291613406
-0.2797156870 -0.1593483835 0.5727270246 4291679199
-0.2797813118 -0.1587492675 0.5728613138 4291810271
-0.2798466980 -0.1581497192 0.5729951859 4291876064
-0.2803378999 -0.1577895731 0.5740009546 4291941857
-0.2808291018 -0.1574271619 0.5750067234 4291876064
-0.2813202739 -0.1570625156 0.5760123730 4291744992
-0.2809587419 -0.1562214941 0.5752721429 4291744992
-0.2818760872 -0.1560903341 0.5771504641 4291876578
-0.2819405496 -0.1554846168 0.5772824883 4291942371
-0.2824314237 -0.1551128179 0.5782875419 4291811040
-0.2829222977 -0.1547387540 0.5792925954 4291876833
-0.2834131122 -0.1543624401 0.5802975297 4291811038
-0.2839038968 -0.1539838910 0.5813024640 4291547866
-0.2848216593 -0.1538337171 0.5831816196 4291415764
-0.2853124738 -0.1534497291 0.5841866136 4291086799
-0.2862304747 -0.1532922983 0.5860661864 4291021004
-0.2867213190 -0.1529028863 0.5870711803 4291021004
-0.2876394987 -0.1527381688 0.5889512300 4290823625
-0.2881303430 -0.1523433328 0.5899562836 4290626246
-0.2890487611 -0.1521713436 0.5918366909 4290494659
-0.2891119123 -0.1515468955 0.5919660926 4289902522
-0.2896026373 -0.1511452794 0.5929708481 4288520345
-0.2896654606 -0.1505190879 0.5930994153 4287665036
-0.2901559770 -0.1501138806 0.5941038132 4288454552
-0.2902184129 -0.1494859457 0.5942316055 4288520345
-0.2902806103 -0.1488576084 0.5943589807 4287467653
-0.2903425694 -0.1482288688 0.5944858193 4286414965
-0.2904042900 -0.1475997120 0.5946121812 4287072635
-0.2904657722 -0.1469701678 0.5947381258 4286941049
-0.2900985181 -0.1461243778 0.5939861536 4286349166
-0.2901594341 -0.1454949677 0.5941108465 4286414959
-0.2902201116 -0.1448651552 0.5942351222 4286349417
-0.2902805507 -0.1442349553 0.5943588614 4286217831
-0.2903407514 -0.1436043680 0.5944821835 4287072879
-0.2904007137 -0.1429733783 0.5946049094 4286941293
-0.2904604673 -0.1423419863 0.5947272182 4286283363
-0.2905199528 -0.1417102218 0.5948490500 4285033296
-0.2910084128 -0.1412864625 0.5958491564 4284570944
-0.2910675108 -0.1406529844 0.5959701538 4284176186
-0.2915557325 -0.1402256340 0.5969698429 4284176441
-0.2916144431 -0.1395904571 0.5970900655 4284044855
-0.2916728854 -0.1389548928 0.5972097516 4283979060
-0.2917310894 -0.1383189559 0.5973289013 4283847474
-0.2917890549 -0.1376826316 0.5974475741 4284110644
-0.2918467820 -0.1370459348 0.5975657701 4284044851
-0.2919042706 -0.1364088506 0.5976834893 4283715888
-0.2919614911 -0.1357713938 0.5978006721 4283386923
-0.2920184731 -0.1351335645 0.5979173183 4284176441
-0.2920752168 -0.1344953626 0.5980334878 4284768578
-0.2921316922 -0.1338567883 0.5981491804 4283912503
-0.2921879590 -0.1332178414 0.5982643366 4283912503
-0.2922439277 -0.1325785369 0.5983789563 4285294156
-0.2927301824 -0.1321331710 0.5993745923 4285820500
-0.2927857637 -0.1314921826 0.5994883776 4284835414
-0.2932717502 -0.1310432553 0.6004834175 4286546032
-0.2941883504 -0.1307835728 0.6023602486 4290625460
-0.2951050699 -0.1305197477 0.6042371988 4292796629
-0.2955909371 -0.1300621778 0.6052320600 4292533981
-0.2965076864 -0.1297910213 0.6071091294 4293915634
-0.2941090167 -0.1833538860 0.6035704017 4291218903
-0.2914449275 -0.1790348887 0.5981031656 4290758352
-0.2902485430 -0.1776381582 0.5956479311 4289639871
-0.2877817154 -0.1754721999 0.5905854702 4289508285
-0.2891232073 -0.1756309271 0.5933384895 4289968836
-0.2870777547 -0.1737338305 0.5891408324 4289047732
-0.2854545712 -0.1721006334 0.5858097672 4286218633
-0.2846775949 -0.1709830910 0.5842152238 4287139735
-0.2834762633 -0.1696151793 0.5817498565 4289245111
-0.2826979160 -0.1685048789 0.5801525712 4288652721
-0.2819189727 -0.1673977524 0.5785539746 4290034374
-0.2811393738 -0.1662938148 0.5769540668 4291087062
-0.2803591490 -0.1651930511 0.5753529072 4291547613
-0.2800025642 -0.1643445045 0.5746211410 4291744992
-0.2792212069 -0.1632492244 0.5730176568 4291613406
-0.2788636684 -0.1624043435 0.5722839236 4291481820
-0.2785057425 -0.1615608484 0.5715493560 4291547613
-0.2789966762 -0.1612094939 0.5725568533 4291613406
-0.2790628672 -0.1606114358 0.5726926923 4291547613
-0.2791288197 -0.1600129455 0.5728280544 4291679199
-0.2791945636 -0.1594140381 0.5729629397 4291744992
-0.2796851695 -0.1590564251 0.5739697218 4291810271
-0.2797505856 -0.1584557593 0.5741040111 4291810271
-0.2802410126 -0.1580945700 0.5751104951 4291941857
-0.2807314396 -0.1577311307 0.5761169791 4291941857
-0.2807964087 -0.1571273804 0.5762502551 4291876580
-0.2812866867 -0.1567603499 0.5772564411 4291810787
-0.2817769647 -0.1563910842 0.5782625675 4291876580
-0.2818414569 -0.1557842493 0.5783948898 4291876580
-0.2823315561 -0.1554113925 0.5794007182 4291810785
-0.2828216553 -0.1550362855 0.5804064870 4291876578
-0.2837377489 -0.1548915058 0.5822864771 4291745245
-0.2842278481 -0.1545109749 0.5832923055 4291350487
-0.2851441801 -0.1543589383 0.5851727128 4291086799
-0.2856343091 -0.1539729834 0.5861786008 4290889420
-0.2865508497 -0.1538136601 0.5880594850 4290757831
-0.2870410085 -0.1534222811 0.5890654325 4290757831
-0.2879577279 -0.1532556862 0.5909467340 4290494913
-0.2884479165 -0.1528588682 0.5919526815 4290363327
-0.2893648446 -0.1526849866 0.5938344002 4290363327
-0.2894281447 -0.1520584375 0.5939642787 4290297534
-0.2894912064 -0.1514315009 0.5940937400 4290033069
-0.2895540297 -0.1508041322 0.5942226648 4286940798
-0.2900438011 -0.1503978670 0.5952277780 4286941049
-0.2901062667 -0.1497687697 0.5953559279 4286546291
-0.2901684642 -0.1491392702 0.5954836011 4285691232
-0.2898030281 -0.1482906491 0.5947336555 4285888611
-0.2898646891 -0.1476612687 0.5948601365 4286283111
-0.2899261117 -0.1470314860 0.5949862003 4285822560
-0.2895595729 -0.1461853683 0.5942340493 4286085212
-0.2896204293 -0.1455557197 0.5943589211 4286216798
-0.2896810472 -0.1449256688 0.5944833159 4286480221
-0.2897414565 -0.1442952305 0.5946072340 4286940772
-0.2898015976 -0.1436643898 0.5947306752 4287730542
-0.2898615003 -0.1430331618 0.5948536396 4288191093
-0.2899211645 -0.1424015462 0.5949760675 4288651129
-0.2899805903 -0.1417695433 0.5950980186 4288980094
-0.2900397778 -0.1411371529 0.5952194929 4289176707
-0.2900987267 -0.1405043602 0.5953404307 4289110914
-0.2905860245 -0.1400777996 0.5963404775 4289045119
-0.2906445563 -0.1394433081 0.5964606404 4288781947
-0.2907028794 -0.1388084441 0.5965803266 4288847994
-0.2907609344 -0.1381731927 0.5966994762 4288847994
-0.2908187509 -0.1375375688 0.5968180895 4289045373
-0.2908763289 -0.1369015574 0.5969362855 4289111166
-0.2909336686 -0.1362651736 0.5970539451 4289176959
-0.2909907699 -0.1356284022 0.5971710682 4288847994
-0.2910476029 -0.1349912733 0.5972877741 4289110912
-0.2911041975 -0.1343537718 0.5974038839 4289439877
-0.2911605537 -0.1337158829 0.5975195169 4289374088
-0.2912166417 -0.1330776364 0.5976346731 4289637260
-0.2917021215 -0.1326343566 0.5986309648 4289965970
-0.2926171720 -0.1323832273 0.6005088687 4289834384
-0.2926727831 -0.1317410469 0.6006229520 4288980371
-0.2931579947 -0.1312910169 0.6016187072 4289440922
-0.2936431170 -0.1308387220 0.6026142836 4292336078
-0.2945581675 -0.1305748075 0.6044921279 4294309868
-0.2950431705 -0.1301170737 0.6054874659 4293915636
-0.2929868698 -0.1844107509 0.6026411653 4291349719
-0.2930616736 -0.1837880760 0.6027950048 4291283926
-0.2927144766 -0.1829013824 0.6020808220 4291283926
-0.2923668325 -0.1820160002 0.6013658047 4291283926
-0.2920187712 -0.1811319590 0.6006498337 4291349719
-0.2904769480 -0.1788479239 0.5974785089 4290363592
-0.2892827690 -0.1774515361 0.5950222015 4289245111
-0.2880877554 -0.1760601103 0.5925641656 4289310904
-0.2868918777 -0.1746736169 0.5901044011 4288192423
-0.2861177623 -0.1735484302 0.5885121822 4288587181
-0.2849203050 -0.1721709520 0.5860491395 4287337114
-0.2841448486 -0.1710529923 0.5844540596 4284508015
-0.2825228870 -0.1694309115 0.5811178684 4287534493
-0.2817459702 -0.1683211029 0.5795198083 4289705664
-0.2809683979 -0.1672144681 0.5779204965 4290429387
-0.2806134820 -0.1663619280 0.5771903992 4291153110
-0.2802581191 -0.1655107737 0.5764595270 4291613661
-0.2794789076 -0.1644118875 0.5748567581 4291745247
-0.2791226208 -0.1635643989 0.5741239190 4291679454
-0.2787659168 -0.1627182961 0.5733901858 4291679454
-0.2784087956 -0.1618735790 0.5726556182 4291613661
-0.2784751058 -0.1612757295 0.5727920532 4291613661
-0.2789651752 -0.1609220058 0.5738000870 4291547868
-0.2790311873 -0.1603223979 0.5739358068 4291613661
-0.2790969610 -0.1597223580 0.5740711093 4291679454
-0.2795867920 -0.1593637168 0.5750786662 4291810270
-0.2796522379 -0.1587619185 0.5752132535 4291810270
-0.2801419199 -0.1583997011 0.5762205124 4291876063
-0.2806315720 -0.1580352336 0.5772276521 4291876063
-0.2811212242 -0.1576685011 0.5782347918 4291810785
-0.2811861038 -0.1570622772 0.5783682466 4291744992
-0.2816755772 -0.1566919684 0.5793750882 4291744992
-0.2821650505 -0.1563194096 0.5803818703 4291679199
-0.2826544940 -0.1559446007 0.5813885927 4291679454
-0.2831439078 -0.1555675417 0.5823952556 4291745247
-0.2840585411 -0.1554208845 0.5842765570 4291416280
-0.2845479846 -0.1550383866 0.5852832794 4291021522
-0.2854628265 -0.1548844725 0.5871650577 4290626248
-0.2859522998 -0.1544965357 0.5881718397 4290626248
-0.2868673801 -0.1543353498 0.5900539756 4290626246
-0.2873568535 -0.1539419889 0.5910608172 4291021004
-0.2882721126 -0.1537735015 0.5929434299 4291481555
-0.2887616158 -0.1533747017 0.5939502716 4291613141
-0.2892510891 -0.1529736370 0.5949570537 4291744726
-0.2897405028 -0.1525703073 0.5959637165 4291876312
-0.2898036838 -0.1519412696 0.5960936546 4290888378
-0.2898666561 -0.1513118297 0.5962231755 4287203970
-0.2899293602 -0.1506819874 0.5963521600 4287994242
-0.2899918556 -0.1500517279 0.5964806676 4289375895
-0.2896275520 -0.1492013186 0.5957313776 4289244305
-0.2896894515 -0.1485711783 0.5958587527 4289178512
-0.2893244028 -0.1477227509 0.5951078534 4289507220
-0.2893857658 -0.1470927298 0.5952340961 4289704599
-0.2890199721 -0.1462462991 0.5944817066 4289704080
-0.2890807688 -0.1456164122 0.5946067572 4290098838
-0.2891413271 -0.1449861228 0.5947312713 4290361749
-0.2887744904 -0.1441422105 0.5939766765 4290756507
-0.2888344824 -0.1435120702 0.5941001177 4291085470
-0.2888942361 -0.1428815424 0.5942230225 4291546021
-0.2889537513 -0.1422506124 0.5943454504 4291546276
-0.2890130281 -0.1416192949 0.5944673419 4291743655
-0.2890720665 -0.1409876049 0.5945888162 4291874218
-0.2895585597 -0.1405631453 0.5955895185 4291742632
-0.2896172106 -0.1399297267 0.5957100987 4291611046
-0.2896756232 -0.1392959356 0.5958302617 4291479460
-0.2897337675 -0.1386617571 0.5959498882 4291611046
-0.2897917032 -0.1380272061 0.5960690379 4291676839
-0.2898493707 -0.1373922676 0.5961876512 4291808679
-0.2899067998 -0.1367569566 0.5963057876 4291874472
-0.2899639904 -0.1361212581 0.5964233875 4291677093
-0.2900209427 -0.1354852021 0.5965405107 4291742886
-0.2905061245 -0.1350479424 0.5975384712 4291874218
-0.2905626595 -0.1344101876 0.5976547599 4291940011
-0.2906189561 -0.1337720603 0.5977705717 4292071601
-0.2906749845 -0.1331335753 0.5978858471 4292334773
-0.2907308042 -0.1324947029 0.5980006456 4292400313
-0.2916441262 -0.1322444230 0.5998792648 4292334520
-0.2921285629 -0.1317964792 0.6008756757 4291480759
-0.2926129103 -0.1313462704 0.6018719673 4291086001
-0.2930971682 -0.1308938265 0.6028680205 4292270285
-0.2935813665 -0.1304391026 0.6038638949 4294178282
-0.2913698554 -0.1858151257 0.6006873846 4291152338
-0.2914449871 -0.1851954609 0.6008422971 4291218131
-0.2915199101 -0.1845753193 0.6009967327 4290954959
-0.2915946245 -0.1839546859 0.6011507511 4290625994
-0.2916691303 -0.1833335906 0.6013043523 4290362822
-0.2913224101 -0.1824483722 0.6005895734 4290362822
-0.2909752727 -0.1815644652 0.5998739004 4290362822
-0.2906277180 -0.1806818843 0.5991573930 4290428615
-0.2898584306 -0.1795396805 0.5975714326 4290494408
-0.2890884876 -0.1784005910 0.5959841013 4290165443
-0.2878963947 -0.1770054847 0.5935265422 4288652204
-0.2871250808 -0.1758735776 0.5919363499 4287402391
-0.2863531411 -0.1747448146 0.5903449059 4286941840
-0.2851587236 -0.1733627617 0.5878825188 4286810254
-0.2839634717 -0.1719856560 0.5854184031 4288455079
-0.2831894159 -0.1708681732 0.5838226080 4285560187
-0.2819925845 -0.1695001125 0.5813552141 4287599770
-0.2812171578 -0.1683898866 0.5797566175 4289968836
-0.2804411352 -0.1672828197 0.5781567693 4290692559
-0.2800869346 -0.1664299816 0.5774264932 4291416282
-0.2797322869 -0.1655784994 0.5766954422 4291679454
-0.2789545953 -0.1644791961 0.5750920773 4291745247
-0.2790217996 -0.1638796926 0.5752306581 4291745247
-0.2786659002 -0.1630323678 0.5744969845 4291745247
-0.2787325680 -0.1624329090 0.5746344328 4291679454
-0.2787990272 -0.1618330330 0.5747714043 4291547868
-0.2788652778 -0.1612327099 0.5749079585 4291547868
-0.2789312899 -0.1606319696 0.5750440955 4291482075
-0.2794204652 -0.1602736413 0.5760525465 4291547868
-0.2794861794 -0.1596711427 0.5761880279 4291744477
-0.2799752057 -0.1593092233 0.5771961808 4291744477
-0.2800405622 -0.1587049514 0.5773309469 4291744477
-0.2805294693 -0.1583394557 0.5783388615 4291744477
-0.2810183465 -0.1579716951 0.5793467164 4291679454
-0.2815071940 -0.1576016843 0.5803545713 4291811040
-0.2819960117 -0.1572294235 0.5813623071 4291745247
-0.2824848294 -0.1568548977 0.5823700428 4291613661
-0.2829736173 -0.1564781219 0.5833777189 4291482075
-0.2834623456 -0.1560990959 0.5843852758 4291218903
-0.2839510739 -0.1557178199 0.5853928328 4290889936
-0.2857133448 -0.1560298055 0.5890259743 4290626764
-0.2849283814 -0.1549484730 0.5874077082 4290889166
-0.2862664461 -0.1550204158 0.5901662111 4291349717
-0.2871800363 -0.1548573375 0.5920496583 4291612889
-0.2876688540 -0.1544619948 0.5930574536 4291810268
-0.2885826528 -0.1542916298 0.5949413180 4291810268
-0.2890714705 -0.1538908482 0.5959490538 4291481303
-0.2895602584 -0.1534877867 0.5969567299 4291481303
-0.2900490165 -0.1530824751 0.5979643464 4291744475
-0.2901123166 -0.1524513662 0.5980948210 4291283136
-0.2897498906 -0.1515972316 0.5973476768 4288125072
-0.2898126543 -0.1509662122 0.5974770784 4288981385
-0.2894495130 -0.1501140296 0.5967283845 4291086761
-0.2895116806 -0.1494831294 0.5968565941 4291678638
-0.2891477942 -0.1486329287 0.5961063504 4291744431
-0.2887834609 -0.1477841735 0.5953553319 4291875766
-0.2884187400 -0.1469368786 0.5946033597 4291744180
-0.2884797156 -0.1463071555 0.5947290659 4292204214
-0.2885404527 -0.1456770301 0.5948542953 4292401593
-0.2886009514 -0.1450465024 0.5949789882 4292598713
-0.2886612117 -0.1444155872 0.5951032043 4292796092
-0.2882947326 -0.1435718983 0.5943477750 4292532667
-0.2883544266 -0.1429411173 0.5944707990 4292730046
-0.2884138823 -0.1423099637 0.5945934057 4292532150
-0.2884730995 -0.1416784078 0.5947154760 4292334771
-0.2885320783 -0.1410464644 0.5948370695 4292334771
-0.2885908186 -0.1404141337 0.5949581265 4292137392
-0.2890763283 -0.1399881989 0.5959590673 4292005806
-0.2891346514 -0.1393541694 0.5960793495 4292137392
-0.2891927660 -0.1387197524 0.5961990952 4292203183
-0.2892506123 -0.1380849481 0.5963183641 4292137390
-0.2893082500 -0.1374497712 0.5964371562 4292005804
-0.2893656194 -0.1368142217 0.5965554714 4291940011
-0.2894227505 -0.1361782849 0.5966732502 4291874472
-0.2894796431 -0.1355419755 0.5967904925 4291940265
-0.2895362675 -0.1349052936 0.5969072580 4292071599
-0.2895926833 -0.1342682242 0.5970235467 4292005806
-0.2896488309 -0.1336307973 0.5971392989 4292005553
-0.2905605733 -0.1333858818 0.5990189910 4292268725
-0.2906163931 -0.1327458322 0.5991340876 4292466108
-0.2911000848 -0.1322999746 0.6001312137 4292663487
-0.2911554873 -0.1316582412 0.6002454162 4292466884
-0.2916389108 -0.1312088072 0.6012420654 4292137919
-0.2921222150 -0.1307571381 0.6022384763 4291941320
-0.2930338681 -0.1304939836 0.6041179299 4293454559
-0.2897552252 -0.1872051954 0.5987296104 4291021524
-0.2898306847 -0.1865885407 0.5988855362 4290824145
-0.2899059355 -0.1859714240 0.5990410447 4290560973
-0.2899809778 -0.1853538156 0.5991961360 4290100422
-0.2900558412 -0.1847357303 0.5993507504 4289836221
-0.2905503213 -0.1843836159 0.6003725529 4289309877
-0.2902048528 -0.1834981143 0.5996587276 4288520361
-0.2898589671 -0.1826139390 0.5989440084 4287928224
-0.2899328470 -0.1819948554 0.5990966558 4287731356
-0.2891659141 -0.1808495522 0.5975119472 4287797149
-0.2896595597 -0.1804932803 0.5985319614 4287862942
-0.2888916731 -0.1793515384 0.5969452262 4287928735
-0.2881231606 -0.1782129258 0.5953571796 4288389286
-0.2869332731 -0.1768181920 0.5928984880 4287731356
-0.2861633599 -0.1756867617 0.5913076401 4285757566
-0.2845509350 -0.1740435660 0.5879758596 4286152324
-0.2854637206 -0.1739464700 0.5898619294 4285625980
-0.2834286988 -0.1720557362 0.5856568813 4287205012
-0.2826561332 -0.1709378213 0.5840606093 4288060319
-0.2818829715 -0.1698230952 0.5824629664 4288849835
-0.2811091840 -0.1687115282 0.5808640718 4290166213
-0.2803347707 -0.1676031500 0.5792638659 4291153108
-0.2795597315 -0.1664979458 0.5776623487 4291679452
-0.2792058289 -0.1656461656 0.5769310594 4291745245
-0.2788515091 -0.1647957563 0.5761989355 4291745245
-0.2784967721 -0.1639467329 0.5754659176 4291679452
-0.2785636783 -0.1633465737 0.5756042004 4291679452
-0.2786303759 -0.1627459973 0.5757420063 4291613659
-0.2786968648 -0.1621449888 0.5758793950 4291547866
-0.2791855037 -0.1617883146 0.5768890977 4291679452
-0.2792516649 -0.1611855328 0.5770257711 4291613659
-0.2793175876 -0.1605823338 0.5771620274 4291613659
-0.2798059881 -0.1602207124 0.5781711936 4291810268
-0.2798715830 -0.1596157402 0.5783067346 4291744475
-0.2803598344 -0.1592505425 0.5793156624 4291744475
-0.2808480561 -0.1588830799 0.5803244710 4291876061
-0.2813362777 -0.1585133821 0.5813332796 4291613659
-0.2818244696 -0.1581414044 0.5823420286 4291745245
-0.2823126316 -0.1577671915 0.5833507776 4291679452
-0.2828007638 -0.1573907137 0.5843594074 4291416280
-0.2832888663 -0.1570119709 0.5853679776 4291218901
-0.2837769389 -0.1566309780 0.5863764882 4290889936
-0.2842649817 -0.1562477350 0.5873849392 4290824143
-0.2851767242 -0.1560941637 0.5892689228 4291087315
-0.2856647968 -0.1557054669 0.5902774334 4291612889
-0.2865767479 -0.1555446088 0.5921618342 4291612889
-0.2870648503 -0.1551504731 0.5931704044 4291547096
-0.2879770100 -0.1549823284 0.5950552225 4291678682
-0.2888893187 -0.1548100710 0.5969403386 4291678682
-0.2893774807 -0.1544072926 0.5979490280 4291612889
-0.2898655832 -0.1540022492 0.5989576578 4291547096
-0.2899291515 -0.1533703953 0.5990889668 4291481303
-0.2899924815 -0.1527381241 0.5992198586 4291611842
-0.2896308899 -0.1518827379 0.5984727144 4289243294
-0.2892689109 -0.1510287821 0.5977246761 4289375365
-0.2893313468 -0.1503971219 0.5978537202 4291151776
-0.2889685929 -0.1495451480 0.5971041918 4291678119
-0.2886054218 -0.1486946195 0.5963537693 4291809705
-0.2882418633 -0.1478455365 0.5956025124 4292335801
-0.2878778577 -0.1469979137 0.5948503613 4292335801
-0.2879387736 -0.1463679522 0.5949761868 4292796092
-0.2879994214 -0.1457375884 0.5951015949 4292730299
-0.2880598605 -0.1451068372 0.5952264667 4292926910
-0.2881200612 -0.1444756836 0.5953508019 4293124289
-0.2881800234 -0.1438441277 0.5954747200 4292729280
-0.2878139913 -0.1430006474 0.5947183371 4292926659
-0.2878733873 -0.1423692405 0.5948410630 4292926910
-0.2879325151 -0.1417374462 0.5949633121 4292926910
-0.2879914343 -0.1411052644 0.5950850844 4292598713
-0.2884762287 -0.1406805068 0.5960868001 4292532920
-0.2885347605 -0.1400466114 0.5962077379 4292401332
-0.2885930240 -0.1394123435 0.5963281393 4292532918
-0.2886510789 -0.1387776881 0.5964480639 4292335539
-0.2887088656 -0.1381426454 0.5965675116 4292269746
-0.2887664437 -0.1375072151 0.5966864228 4292203437
-0.2888237536 -0.1368714124 0.5968048573 4292203437
-0.2888808250 -0.1362352371 0.5969228148 4291940265
-0.2889376581 -0.1355986893 0.5970402360 4291940265
-0.2894211113 -0.1351611167 0.5980392098 4292005804
-0.2894775271 -0.1345228702 0.5981557965 4292137390
-0.2895337045 -0.1338842511 0.5982719064 4292334773
-0.2900167704 -0.1334417909 0.5992700458 4292597945
-0.2900725305 -0.1328014880 0.5993852615 4292926657
-0.2905553281 -0.1323554516 0.6003829241 4293058243
-0.2906107008 -0.1317134798 0.6004973054 4292664263
-0.2910932600 -0.1312638819 0.6014943719 4292401091
-0.2915757000 -0.1308120340 0.6024913192 4292007113
-0.2920580804 -0.1303579360 0.6034880877 4293520352
-0.2929680645 -0.1300914884 0.6053684354 4294047220
-0.2882187963 -0.1879673302 0.5969247818 4291087062
-0.2882943749 -0.1873532236 0.5970813036 4290889683
-0.2883697450 -0.1867386401 0.5972374678 4290625997
-0.2884449363 -0.1861235648 0.5973930955 4290362825
-0.2885198891 -0.1855080128 0.5975483656 4289968066
-0.2885946333 -0.1848919839 0.5977031589 4289441722
-0.2890881300 -0.1845429391 0.5987252593 4289046962
-0.2891625762 -0.1839250475 0.5988794565 4288389032
-0.2888176143 -0.1830410361 0.5981649756 4287402137
-0.2888915241 -0.1824230999 0.5983180404 4286678414
-0.2885458171 -0.1815408170 0.5976020694 4286415242
-0.2881996930 -0.1806598604 0.5968852043 4286415242
-0.2882727385 -0.1800423115 0.5970364809 4286481289
-0.2875061333 -0.1789019406 0.5954488516 4286481289
-0.2867389023 -0.1777647138 0.5938598514 4286941840
-0.2859710455 -0.1766306162 0.5922695398 4288126114
-0.2852025628 -0.1754996628 0.5906779170 4286810254
-0.2848535478 -0.1746294349 0.5899550915 4285494394
-0.2836636603 -0.1732472181 0.5874907374 4285889152
-0.2828932703 -0.1721257269 0.5858951807 4286415496
-0.2821222246 -0.1710073948 0.5842983127 4289047214
-0.2817711234 -0.1701461971 0.5835711360 4289573558
-0.2809989750 -0.1690333039 0.5819719434 4290495178
-0.2802261710 -0.1679235995 0.5803713799 4291350487
-0.2798736095 -0.1670683175 0.5796412230 4291547866
-0.2790996730 -0.1659640670 0.5780383348 4291547866
-0.2787461579 -0.1651124358 0.5773062110 4291679452
-0.2783922553 -0.1642621905 0.5765732527 4291613659
-0.2784591913 -0.1636609286 0.5767118931 4291745245
-0.2785259187 -0.1630592197 0.5768500566 4291679452
-0.2785924375 -0.1624570787 0.5769878030 4291547866
-0.2790803015 -0.1620993763 0.5779982209 4291613659
-0.2795681655 -0.1617394239 0.5790086389 4291613661
-0.2796342373 -0.1611341685 0.5791454911 4291547868
-0.2797001004 -0.1605284959 0.5792818666 4291744477
-0.2806096673 -0.1604048163 0.5811656713 4291744477
-0.2806752622 -0.1597964466 0.5813015699 4291678684
-0.2811628282 -0.1594270468 0.5823113322 4291744477
-0.2816503644 -0.1590553820 0.5833210349 4291679452
-0.2821379006 -0.1586814672 0.5843307376 4291416280
-0.2826253772 -0.1583052725 0.5853403807 4290955729
-0.2831128240 -0.1579268426 0.5863499045 4290758350
-0.2836002707 -0.1575461477 0.5873594284 4290758348
-0.2840876579 -0.1571631879 0.5883688927 4290692555
-0.2845750451 -0.1567779630 0.5893782377 4290889934
-0.2854852974 -0.1566225141 0.5912634730 4291284692
-0.2859726846 -0.1562318504 0.5922729373 4291547348
-0.2868831754 -0.1560691148 0.5941586494 4291349969
-0.2873705924 -0.1556729972 0.5951681137 4291218382
-0.2882812917 -0.1555029601 0.5970541835 4291086796
-0.2887687087 -0.1551013887 0.5980637074 4290757831
-0.2896795869 -0.1549240500 0.5999501944 4290692038
-0.2897434235 -0.1542914510 0.6000823975 4290823878
-0.2898070216 -0.1536584347 0.6002141237 4290429120
-0.2894465923 -0.1528012753 0.5994676352 4290295984
-0.2890857458 -0.1519455612 0.5987203121 4288519573
-0.2887244821 -0.1510912925 0.5979720950 4288388723
-0.2883627713 -0.1502384692 0.5972229838 4289507204
-0.2888489962 -0.1498271078 0.5982299447 4289836167
-0.2880624235 -0.1487562358 0.5966008902 4290099339
-0.2876995504 -0.1479068249 0.5958493948 4291019940
-0.2873363197 -0.1470588744 0.5950970650 4291612077
-0.2873971462 -0.1464286894 0.5952230692 4291611816
-0.2874577641 -0.1457980871 0.5953485966 4291809195
-0.2875181139 -0.1451670974 0.5954736471 4292005806
-0.2875782549 -0.1445357054 0.5955981612 4292334771
-0.2876381576 -0.1439039111 0.5957221985 4292071350
-0.2872728407 -0.1430601031 0.5949656367 4292071350
-0.2873321772 -0.1424284577 0.5950885415 4292137394
-0.2873912752 -0.1417964399 0.5952109098 4292005808
-0.2874501348 -0.1411640197 0.5953328013 4291874990
-0.2879340351 -0.1407390982 0.5963350534 4292335541
-0.2879925072 -0.1401049644 0.5964561105 4292269746
-0.2880507410 -0.1394704431 0.5965766907 4292203953
-0.2881087065 -0.1388355494 0.5966967940 4292072365
-0.2881664634 -0.1382002681 0.5968163610 4292138158
-0.2886496782 -0.1377678066 0.5978171825 4291941034
-0.2887070179 -0.1371308267 0.5979359150 4292006827
-0.2887641191 -0.1364934593 0.5980541706 4291940265
-0.2888209820 -0.1358557194 0.5981719494 4292071851
-0.2888775766 -0.1352176070 0.5982891917 4292005804
-0.2889339328 -0.1345791221 0.5984058976 4292203183
-0.2889900506 -0.1339402497 0.5985221267 4292400566
-0.2894722521 -0.1334976256 0.5995208025 4292597945
-0.2895279527 -0.1328570843 0.5996361971 4292860862
-0.2900099158 -0.1324108839 0.6006343365 4292860862
-0.2900651991 -0.1317686588 0.6007488370 4292137919
-0.2905468941 -0.1313188970 0.6017464995 4292466884
-0.2910284996 -0.1308668852 0.6027439237 4292994265
-0.2915100455 -0.1304126084 0.6037412286 4294507504
-0.2867609560 -0.1881091595 0.5952748060 4291218648
-0.2868364453 -0.1874971092 0.5954315066 4291152087
-0.2869117260 -0.1868845820 0.5955877900 4290954708
-0.2869867980 -0.1862715632 0.5957436562 4290559950
-0.2874795198 -0.1859283149 0.5967664123 4290230985
-0.2871363461 -0.1850441098 0.5960540175 4289770688
-0.2876288593 -0.1846981049 0.5970764160 4289244344
-0.2877032161 -0.1840822846 0.5972307324 4288783790
-0.2873590589 -0.1831993163 0.5965163708 4288257446
-0.2878512740 -0.1828492135 0.5975381136 4287467930
-0.2875064909 -0.1819670796 0.5968224406 4286810000
-0.2871612906 -0.1810862869 0.5961058140 4286546828
-0.2872343659 -0.1804698855 0.5962575078 4286349449
-0.2868884206 -0.1795908362 0.5955393910 4286218117
-0.2861231267 -0.1784518510 0.5939507484 4286218117
-0.2857762277 -0.1775763631 0.5932306051 4286415496
-0.2850097716 -0.1764427572 0.5916395783 4287468184
-0.2842426896 -0.1753122807 0.5900471807 4288257700
-0.2838943005 -0.1744426191 0.5893239975 4286678668
-0.2831260562 -0.1733175516 0.5877292156 4286941840
-0.2823571861 -0.1721956432 0.5861331820 4287797149
-0.2815876603 -0.1710769087 0.5845357776 4289442488
-0.2812373042 -0.1702153832 0.5838084221 4290166211
-0.2800467908 -0.1688489318 0.5813370943 4290889936
-0.2809552550 -0.1687486768 0.5832229853 4291613659
-0.2797635794 -0.1673876792 0.5807492733 4291350487
-0.2794114351 -0.1665325463 0.5800182223 4291350487
-0.2794791460 -0.1659282893 0.5801587701 4291547866
-0.2795466185 -0.1653236002 0.5802989006 4291482073
-0.2787729502 -0.1642230898 0.5786928535 4291613659
-0.2788398266 -0.1636193544 0.5788316131 4291613659
-0.2789064646 -0.1630151868 0.5789699554 4291350489
-0.2793936729 -0.1626555473 0.5799813271 4291416282
-0.2798808515 -0.1622936428 0.5809926987 4291350489
-0.2799470425 -0.1616863459 0.5811300874 4291350489
-0.2800130248 -0.1610786319 0.5812670588 4291481305
-0.2804999650 -0.1607117802 0.5822778344 4291547098
-0.2809868753 -0.1603426784 0.5832886100 4291547098
-0.2814737558 -0.1599713266 0.5842993259 4291481305
-0.2819606364 -0.1595977098 0.5853099823 4290692559
-0.2828690410 -0.1594594717 0.5871956944 4289771457
-0.2829342782 -0.1588436961 0.5873311758 4288850353
-0.2834210694 -0.1584632844 0.5883416533 4288521388
-0.2839078307 -0.1580806226 0.5893520713 4288587179
-0.2843945324 -0.1576956958 0.5903624296 4288521386
-0.2848812342 -0.1573085040 0.5913727283 4288521640
-0.2857900262 -0.1571511775 0.5932592750 4288784812
-0.2862767279 -0.1567585468 0.5942696333 4288915881
-0.2867634296 -0.1563636363 0.5952798724 4288521123
-0.2872500420 -0.1559664607 0.5962901115 4288521121
-0.2881591618 -0.1557954699 0.5981773138 4288521121
-0.2886458337 -0.1553928405 0.5991874933 4287994775
-0.2891324162 -0.1549879313 0.6001976132 4287665810
-0.2896189988 -0.1545807719 0.6012076139 4287205513
-0.2896825969 -0.1539465934 0.6013396978 4286087032
-0.2893230021 -0.1530881822 0.6005932093 4285756013
-0.2889629602 -0.1522312164 0.5998458862 4286019185
-0.2886025310 -0.1513756961 0.5990976095 4286283347
-0.2878184021 -0.1503005773 0.5974699259 4286217554
-0.2883037627 -0.1498890668 0.5984774232 4286809687
-0.2875187099 -0.1488177925 0.5968477726 4289046649
-0.2871566117 -0.1479680538 0.5960960984 4290690975
-0.2872177064 -0.1473370939 0.5962229371 4290888354
-0.2868548632 -0.1464893520 0.5954697132 4290954397
-0.2869153917 -0.1458585262 0.5955953598 4291151776
-0.2869757116 -0.1452272832 0.5957205296 4290822300
-0.2870357633 -0.1445956528 0.5958452225 4290427542
-0.2866715193 -0.1437509805 0.5950891376 4290229660
-0.2871551812 -0.1433312148 0.5960931778 4290295453
-0.2872145474 -0.1426984072 0.5962163806 4290493337
-0.2872736752 -0.1420651972 0.5963391066 4290230165
-0.2873325348 -0.1414316148 0.5964612961 4290690462
-0.2873911858 -0.1407976300 0.5965830684 4291743150
-0.2874495983 -0.1401632577 0.5967043042 4292006574
-0.2875077426 -0.1395284981 0.5968250036 4291940781
-0.2875656784 -0.1388933659 0.5969452262 4291940779
-0.2876233459 -0.1382578313 0.5970649719 4292072365
-0.2881057262 -0.1378252059 0.5980663300 4291743655
-0.2881630063 -0.1371879876 0.5981851816 4291743655
-0.2882200181 -0.1365503818 0.5983036160 4291611300
-0.2882768214 -0.1359124035 0.5984215140 4292006058
-0.2883333564 -0.1352740377 0.5985388756 4291874220
-0.2883896828 -0.1346353143 0.5986557603 4291874220
-0.2884457409 -0.1339962035 0.5987721682 4291940015
-0.2885015607 -0.1333567202 0.5988879800 4292071601
-0.2889827192 -0.1329126209 0.5998868346 4292400566
-0.2894638181 -0.1324662566 0.6008855104 4292334773
-0.2895190418 -0.1318237782 0.6010001898 4291349173
-0.2899998724 -0.1313738525 0.6019983292 4291743931
-0.2904806137 -0.1309216619 0.6029962897 4293126105
-0.2909612954 -0.1304672211 0.6039940715 4294639344
-0.2862146795 -0.1881846786 0.5955138206 4291349719
-0.2862900794 -0.1875724345 0.5956707001 4291152340
-0.2863652706 -0.1869596839 0.5958271623 4290757582
-0.2864402831 -0.1863464713 0.5959832072 4290362824
-0.2860980034 -0.1854624152 0.5952710509 4290033859
-0.2861724794 -0.1848491281 0.5954259634 4289573306
-0.2862467468 -0.1842353642 0.5955805182 4289112755
-0.2863207757 -0.1836211234 0.5957345963 4288652458
-0.2863946259 -0.1830064058 0.5958881974 4288126114
-0.2864682674 -0.1823912114 0.5960414410 4287599770
-0.2861239910 -0.1815105677 0.5953251123 4286941840
-0.2857792974 -0.1806312501 0.5946078897 4286415496
-0.2858520746 -0.1800164282 0.5947593451 4286283910
-0.2855066359 -0.1791388690 0.5940405726 4286218117
-0.2851607502 -0.1782626361 0.5933209658 4286086531
-0.2843962312 -0.1771272570 0.5917302966 4286217604
-0.2840494215 -0.1762546003 0.5910086632 4286875534
-0.2832837403 -0.1751246005 0.5894155502 4288257187
-0.2829359770 -0.1742555350 0.5886919498 4288651945
-0.2821691632 -0.1731309444 0.5870964527 4288783533
-0.2814016938 -0.1720095277 0.5854996443 4289309877
-0.2810524404 -0.1711463332 0.5847730041 4289770428
-0.2807027996 -0.1702844948 0.5840454698 4290757323
-0.2803527415 -0.1694240123 0.5833171010 4291153110
-0.2800022364 -0.1685649157 0.5825878382 4291350489
-0.2796513438 -0.1677071750 0.5818577409 4290955729
-0.2797193825 -0.1671013385 0.5819993019 4290824143
-0.2793677449 -0.1662454456 0.5812676549 4291021522
-0.2794352472 -0.1656396389 0.5814081430 4290955729
-0.2799222171 -0.1652811915 0.5824213624 4290955729
-0.2799894214 -0.1646735966 0.5825611949 4290955729
-0.2796365023 -0.1638195813 0.5818269253 4290824143
-0.2797031701 -0.1632120311 0.5819656253 4290889936
-0.2801896930 -0.1628481895 0.5829778910 4291021520
-0.2806761861 -0.1624820828 0.5839900970 4290889934
-0.2807423770 -0.1618714035 0.5841278434 4290627016
-0.2812287509 -0.1615017056 0.5851398110 4290232258
-0.2812946141 -0.1608892381 0.5852768421 4289508281
-0.2817808390 -0.1605159342 0.5862885118 4288652972
-0.2822670341 -0.1601403505 0.5873000622 4287337366
-0.2831739485 -0.1600002646 0.5891870856 4286350471
-0.2832393348 -0.1593824178 0.5893231034 4285758334
-0.2841463983 -0.1592359543 0.5912104249 4285955713
-0.2837904394 -0.1583804339 0.5904698372 4286021506
-0.2846975625 -0.1582285315 0.5923571587 4285889920
-0.2851835787 -0.1578393728 0.5933684111 4286021505
-0.2860908806 -0.1576801687 0.5952562094 4286218884
-0.2865769267 -0.1572855413 0.5962675214 4286087298
-0.2870629132 -0.1568886638 0.5972787142 4286021505
-0.2871272564 -0.1562600583 0.5974125266 4286021505
-0.2876130641 -0.1558595598 0.5984233618 4285889919
-0.2880988419 -0.1554567963 0.5994340777 4285627001
-0.2885845900 -0.1550517529 0.6004447341 4285495415
-0.2890702784 -0.1546444446 0.6014552712 4285495415
-0.2891338170 -0.1540100425 0.6015875340 4285495415
-0.2883527577 -0.1529273987 0.5999624133 4285756768
-0.2884156704 -0.1522940099 0.6000933051 4286875249
-0.2880559564 -0.1514381617 0.5993448496 4286678368
-0.2876958251 -0.1505837440 0.5985955596 4286283610
-0.2873352766 -0.1497307867 0.5978453755 4287599975
-0.2869743407 -0.1488792747 0.5970943570 4289836937
-0.2866129577 -0.1480292231 0.5963425040 4290823581
-0.2866739929 -0.1473980248 0.5964694619 4290560409
-0.2867347896 -0.1467664242 0.5965960026 4290494115
-0.2863723636 -0.1459188908 0.5958418846 4290296736
-0.2864325941 -0.1452874243 0.5959672332 4289375382
-0.2864926159 -0.1446555555 0.5960920453 4288454280
-0.2861291170 -0.1438105553 0.5953357816 4288454532
-0.2861885428 -0.1431788355 0.5954594612 4289112462
-0.2866711915 -0.1427575946 0.5964636803 4289375630
-0.2867302597 -0.1421241462 0.5965865254 4288849286
-0.2867890596 -0.1414903104 0.5967088938 4289506702
-0.2868476510 -0.1408560872 0.5968307853 4290559390
-0.2873297632 -0.1404286027 0.5978339314 4291019940
-0.2873879671 -0.1397926658 0.5979549885 4290954147
-0.2874459028 -0.1391563565 0.5980755687 4291085733
-0.2875036001 -0.1385196447 0.5981956124 4291085733
-0.2875610590 -0.1378825605 0.5983151793 4290823078
-0.2876182795 -0.1372450888 0.5984342098 4290691492
-0.2876752615 -0.1366072446 0.5985527635 4290428320
-0.2877319753 -0.1359690130 0.5986707807 4290362527
-0.2877884805 -0.1353304237 0.5987883210 4290559390
-0.2878447175 -0.1346914321 0.5989053845 4290756769
-0.2879007161 -0.1340520829 0.5990218520 4290756769
-0.2879564762 -0.1334123611 0.5991379023 4290625183
-0.2884368002 -0.1329680979 0.6001372337 4290494113
-0.2884921432 -0.1323266923 0.6002523899 4290625699
-0.2889721990 -0.1318788528 0.6012512445 4290429106
-0.2894521654 -0.1314287484 0.6022498608 4291021243
-0.2899320424 -0.1309763938 0.6032483578 4292665818
-0.2904118598 -0.1305217892 0.6042466760 4293981678
-0.2904662788 -0.1298747659 0.6043599248 4294047731
-0.2848360837 -0.1877120584 0.5940181613 4291349719
-0.2849111855 -0.1871013790 0.5941748023 4291152341
-0.2849860787 -0.1864902228 0.5943309665 4290823376
-0.2846446335 -0.1856072247 0.5936188698 4290428617
-0.2847190201 -0.1849959940 0.5937740207 4290099652
-0.2847931683 -0.1843842864 0.5939286947 4289639099
-0.2848671377 -0.1837721020 0.5940829515 4289046962
-0.2857740521 -0.1836950034 0.5959742665 4288520872
-0.2850144506 -0.1825463176 0.5943900943 4288126114
-0.2850877941 -0.1819327027 0.5945430398 4287665563
-0.2847439945 -0.1810535342 0.5938261151 4287073426
-0.2848168314 -0.1804398894 0.5939779878 4286547082
-0.2844723165 -0.1795624644 0.5932595134 4286349703
-0.2841273546 -0.1786863804 0.5925401449 4286283397
-0.2837820053 -0.1778116375 0.5918198824 4286217604
-0.2834362388 -0.1769382209 0.5910987854 4286349190
-0.2830900252 -0.1760661453 0.5903767943 4286612362
-0.2827433944 -0.1751954257 0.5896539092 4287336085
-0.2823963463 -0.1743260473 0.5889301300 4288257187
-0.2820488811 -0.1734580100 0.5882055163 4288783531
-0.2812830508 -0.1723352671 0.5866084099 4289309875
-0.2809346318 -0.1714708358 0.5858817697 4290165184
-0.2805858254 -0.1706077904 0.5851543546 4290888907
-0.2802365720 -0.1697460860 0.5844259858 4291284694
-0.2798869014 -0.1688857675 0.5836967826 4290692557
-0.2799552977 -0.1682783365 0.5838394165 4290363592
-0.2800234556 -0.1676704735 0.5839815736 4290495178
-0.2796727717 -0.1668124497 0.5832501650 4290560969
-0.2797403932 -0.1662046015 0.5833912492 4290560969
-0.2798078358 -0.1655963212 0.5835318565 4290560971
-0.2802940309 -0.1652345806 0.5845457911 4290363592
-0.2803611159 -0.1646245122 0.5846857429 4290232006
-0.2808471918 -0.1642591655 0.5856993794 4289639869
-0.2809139490 -0.1636473089 0.5858386159 4288850351
-0.2813998759 -0.1632783562 0.5868520141 4287995042
-0.2814663053 -0.1626647115 0.5869905353 4286811281
-0.2815325260 -0.1620506346 0.5871286392 4285890179
-0.2820181847 -0.1616767049 0.5881415009 4285363835
-0.2820840478 -0.1610608548 0.5882788301 4285166456
-0.2825695574 -0.1606833190 0.5892913938 4285363576
-0.2838949859 -0.1607792079 0.5920554996 4285231990
-0.2835405171 -0.1599214524 0.5913162231 4285363576
-0.2840259373 -0.1595371366 0.5923286080 4285758334
-0.2840910852 -0.1589154452 0.5924644470 4286086529
-0.2845763564 -0.1585275084 0.5934764743 4286086529
-0.2850615978 -0.1581372917 0.5944884419 4286152321
-0.2855467796 -0.1577448249 0.5955002904 4286283907
-0.2860319614 -0.1573500633 0.5965120792 4286415493
-0.2865170836 -0.1569530517 0.5975238085 4286218114
-0.2865813375 -0.1563242078 0.5976577997 4286086782
-0.2870662808 -0.1559235752 0.5986691713 4285955196
-0.2871301770 -0.1552929729 0.5988024473 4285757817
-0.2876149416 -0.1548887193 0.5998134017 4285692024
-0.2880996764 -0.1544822007 0.6008242965 4285692024
-0.2881630659 -0.1538484842 0.6009564996 4285560438
-0.2878048420 -0.1529903561 0.6002094150 4286283112
-0.2874462008 -0.1521336585 0.5994614363 4287993730
-0.2875086963 -0.1515005529 0.5995917916 4288848769
-0.2871493101 -0.1506458223 0.5988423228 4289177734
-0.2867895067 -0.1497925371 0.5980919600 4290099341
-0.2864292860 -0.1489406973 0.5973407030 4290888857
-0.2860686481 -0.1480903178 0.5965886116 4290691995
-0.2861296237 -0.1474588960 0.5967157483 4290428823
-0.2861903608 -0.1468270570 0.5968424678 4290296734
-0.2858286500 -0.1459791958 0.5960881114 4290428320
-0.2863111198 -0.1455621868 0.5970942974 4290361761
-0.2859487832 -0.1447153836 0.5963386297 4290164382
-0.2860084772 -0.1440828890 0.5964631438 4290361757
-0.2864905000 -0.1436618865 0.5974683762 4290624929
-0.2865498066 -0.1430276632 0.5975920558 4290625183
-0.2866088748 -0.1423930526 0.5977152586 4290164632
-0.2866677344 -0.1417580396 0.5978379846 4290295964
-0.2871492207 -0.1413307935 0.5988421440 4290888101
-0.2872076929 -0.1406940669 0.5989640355 4290690976
-0.2868428230 -0.1398506761 0.5982031226 4290164632
-0.2869006991 -0.1392141283 0.5983238220 4290098839
-0.2873815894 -0.1387815624 0.5993267298 4289967253
-0.2874390483 -0.1381433010 0.5994465947 4289638804
-0.2874962986 -0.1375046521 0.5995659828 4289573011
-0.2875533104 -0.1368656158 0.5996848345 4289638806
-0.2876100540 -0.1362262070 0.5998032093 4289573013
-0.2876665592 -0.1355864257 0.5999210477 4289769620
-0.2877228260 -0.1349462569 0.6000384092 4289966999
-0.2877788544 -0.1343057156 0.6001552343 4290032792
-0.2878346443 -0.1336648017 0.6002715826 4289966999
-0.2878901660 -0.1330235153 0.6003873944 4289967771
-0.2883695364 -0.1325768232 0.6013870835 4290165150
-0.2884246409 -0.1319338530 0.6015020013 4290494901
-0.2889037728 -0.1314835995 0.6025012136 4291416003
-0.2889584601 -0.1308389455 0.6026152968 4292665818
-0.2894373238 -0.1303851157 0.6036139131 4293323748
-0.2899160981 -0.1299290061 0.6046123505 4293455594
-0.2899702191 -0.1292813718 0.6047252417 4293784559
-0.2834600508 -0.1872389168 0.5925208926 4291283927
-0.2835348547 -0.1866298169 0.5926772356 4291152341
-0.2836094499 -0.1860202253 0.5928331614 4290823376
-0.2836838365 -0.1854101717 0.5929886699 4290362824
-0.2833425403 -0.1845290661 0.5922753215 4290033859
-0.2834164202 -0.1839189380 0.5924296975 4289639101
-0.2834900916 -0.1833083332 0.5925836563 4288981171
-0.2835635543 -0.1826972663 0.5927372575 4288652204
