VERSION 0.7
FIELDS x y z rgba
SIZE 4 4 4 4
TYPE F F F U
COUNT 1 1 1 1
WIDTH 920
HEIGHT 1
VIEWPOINT 0.0 0.0 0.0 1.0 0.0 0.0 0.0
POINTS 920
DATA ascii
-0.2815351486 -0.1751159281 0.5764523745 4280690990
-0.2807595134 -0.1739947647 0.5748642683 4280690990
-0.2799832523 -0.1728767306 0.5732747912 4280691245
-0.2800537050 -0.1722831279 0.5734190941 4280691245
-0.2784287930 -0.1706501096 0.5700920224 4280691245
-0.2784984112 -0.1700592190 0.5702345967 4280625452
-0.2768718302 -0.1684360951 0.5669041276 4280690990
-0.2773647308 -0.1681049615 0.5679132938 4280690990
-0.2778576314 -0.1677715778 0.5689225197 4280625197
-0.2783505023 -0.1674359590 0.5699317455 4280625197
-0.2779945731 -0.1665894240 0.5692029595 4280691245
-0.2784872651 -0.1662511230 0.5702117085 4280625452
-0.2789799273 -0.1659105718 0.5712205172 4280559404
-0.2786231637 -0.1650645435 0.5704900026 4280559404
-0.2782659531 -0.1642198861 0.5697585940 4280625197
-0.2787582278 -0.1638762206 0.5707665086 4280690990
-0.2788254321 -0.1632814258 0.5709041357 4280559404
-0.2780421674 -0.1621901989 0.5693003535 4280493611
-0.2776834965 -0.1613492668 0.5685660243 4280493611
-0.2777497768 -0.1607559025 0.5687016845 4280493611
-0.2773903906 -0.1599168479 0.5679658055 4280625197
-0.2770305872 -0.1590791792 0.5672290921 4280625197
-0.2770960033 -0.1584863812 0.5673630834 4280559404
-0.2771612108 -0.1578931510 0.5674965978 4280559404
-0.2768003643 -0.1570578665 0.5667577982 4280559404
-0.2772909999 -0.1567054391 0.5677623749 4280493611
-0.2769295275 -0.1558711529 0.5670222640 4280493611
-0.2769937813 -0.1552771777 0.5671538115 4280493611
-0.2762053609 -0.1542068273 0.5655394197 4280690476
-0.2762689888 -0.1536138505 0.5656697154 4280690476
-0.2759059370 -0.1527843326 0.5649263859 4280690476
-0.2755425274 -0.1519562304 0.5641822815 4280690476
-0.2756052911 -0.1513638645 0.5643108487 4280690475
-0.2756678760 -0.1507710963 0.5644389391 4280690475
-0.2748765647 -0.1497129798 0.5628187060 4280690475
-0.2749384940 -0.1491212398 0.5629455447 4280690475
-0.2745732069 -0.1482984722 0.5621975660 4280493866
-0.2746346295 -0.1477068514 0.5623233318 4280493866
-0.2751230299 -0.1473436356 0.5633233190 4280493866
-0.2751840949 -0.1467503160 0.5634483695 4280493866
-0.2760997415 -0.1466104835 0.5653231740 4280493866
-0.2761605382 -0.1460145265 0.5654476881 4280493866
-0.2766487300 -0.1456432790 0.5664472580 4280493866
-0.2767091990 -0.1450456232 0.5665710568 4280493866
-0.2763416767 -0.1442243010 0.5658185482 4280558889
-0.2764015794 -0.1436267793 0.5659412742 4280558889
-0.2764613032 -0.1430288702 0.5660635233 4280558889
-0.2765207887 -0.1424305588 0.5661852956 4280558889
-0.2761518955 -0.1416123211 0.5654299855 4280624682
-0.2753543556 -0.1405769289 0.5637970567 4280624682
-0.2745562494 -0.1395448595 0.5621628761 4280624682
-0.2746143937 -0.1389496773 0.5622819066 4280624682
-0.2746722996 -0.1383541077 0.5624004602 4280558889
-0.2747299671 -0.1377581656 0.5625185370 4280558889
-0.2743587494 -0.1369478703 0.5617584586 4280428073
-0.2744158804 -0.1363521069 0.5618754625 4280428073
-0.2744728029 -0.1357559711 0.5619919896 4280428073
-0.2745294869 -0.1351594627 0.5621080399 4280428073
-0.2745859623 -0.1345625967 0.5622236729 4280428073
-0.2746421993 -0.1339653581 0.5623388290 4280493866
-0.2746981978 -0.1333677471 0.5624535084 4280362280
-0.2743246853 -0.1325623244 0.5616887212 4280428073
-0.2743801475 -0.1319649220 0.5618022680 4280493866
-0.2740058899 -0.1311615855 0.5610359907 4280493866
-0.2740608156 -0.1305643916 0.5611484647 4280559659
-0.2741155326 -0.1299668550 0.5612604618 4280559659
-0.2733105123 -0.1289634109 0.5596122146 4280493866
-0.2733645737 -0.1283670217 0.5597229004 4280559659
-0.2734184265 -0.1277702898 0.5598331094 4280624682
-0.2734720409 -0.1271732002 0.5599429011 4280624682
-0.2735254169 -0.1265757680 0.5600521564 4280624682
-0.2735785544 -0.1259779781 0.5601609945 4280624682
-0.2736314535 -0.1253798455 0.5602692962 4280558889
-0.2736841440 -0.1247813702 0.5603771806 4280558889
-0.2737365961 -0.1241825446 0.5604845881 4280624682
-0.2737888098 -0.1235833764 0.5605915189 4280558889
-0.2738407850 -0.1229838654 0.5606979728 4280493866
-0.2734619081 -0.1221915856 0.5599221587 4280493866
-0.2730826139 -0.1214008555 0.5591455102 4280624682
-0.2731337249 -0.1208022162 0.5592501760 4280624682
-0.2727537155 -0.1200136468 0.5584721565 4280624680
-0.2728042901 -0.1194152832 0.5585756898 4280624680
-0.2732856870 -0.1190042868 0.5595613718 4280690473
-0.2737669945 -0.1185910702 0.5605468750 4280690473
-0.2738170326 -0.1179898232 0.5606492758 4280887852
-0.2738668323 -0.1173882410 0.5607512593 4281085231
-0.2739163935 -0.1167863384 0.5608527064 4281348144
-0.2739657164 -0.1161841080 0.5609536767 4281479730
-0.2740147710 -0.1155815497 0.5610541701 4281677109
-0.2740636170 -0.1149786711 0.5611541867 4281940281
-0.2741122246 -0.1143754646 0.5612537265 4282335039
-0.2737288475 -0.1135927737 0.5604687333 4282729797
-0.2737768888 -0.1129898876 0.5605671406 4283713859
-0.2738247216 -0.1123866811 0.5606650114 4283911238
-0.2734403014 -0.1116068438 0.5598779321 4284043337
-0.2730555236 -0.1108286008 0.5590900779 4284174923
-0.2731024623 -0.1102263555 0.5591861606 4284241229
-0.2727169693 -0.1094503477 0.5583968759 4284241229
-0.2723310888 -0.1086759418 0.5576067567 4283978827
-0.2723771632 -0.1080746874 0.5577011108 4283913034
-0.2724229991 -0.1074731201 0.5577949882 4284044879
-0.2724685967 -0.1068712547 0.5578883290 4283781707
-0.2725139558 -0.1062690914 0.5579811931 4282992967
-0.2725590765 -0.1056666225 0.5580735803 4281216556
-0.2721712291 -0.1048970893 0.5572794676 4280624680
-0.2722158134 -0.1042949855 0.5573707223 4280493094
-0.2722601295 -0.1036925837 0.5574614406 4280690475
-0.2723042071 -0.1030898914 0.5575516820 4280558889
-0.2723480165 -0.1024869084 0.5576414466 4280493094
-0.2723916173 -0.1018836275 0.5577306747 4280493094
-0.2720018327 -0.1011190489 0.5569326282 4280558887
-0.2716116905 -0.1003561020 0.5561337471 4280558887
-0.2716543972 -0.0997538790 0.5562212467 4280558887
-0.2716968656 -0.0991513804 0.5563082099 4280558887
-0.2713057101 -0.0983914211 0.5555073023 4280558887
-0.2713476419 -0.0977893248 0.5555931330 4280558887
-0.2709557712 -0.0970316976 0.5547907948 4280428071
-0.2709971368 -0.0964300036 0.5548754930 4280493864
-0.2701709569 -0.0955213830 0.5531837940 4280428071
-0.2702116966 -0.0949210674 0.5532672405 4280428071
-0.2689508200 -0.0938662961 0.5506855249 4280493864
-0.2681231797 -0.0929674655 0.5489909053 4280493864
-0.2677289248 -0.0922216997 0.5481836796 4280428071
-0.2673343420 -0.0914776027 0.5473757386 4280493864
-0.2665053010 -0.0905876383 0.5456783175 4280428073
-0.2665440142 -0.0899944156 0.5457575321 4280493866
-0.2661482990 -0.0892553404 0.5449473262 4280493866
-0.2657522261 -0.0885179341 0.5441363454 4280493866
-0.2662243545 -0.0880695507 0.5451030731 4280559659
-0.2658276856 -0.0873335749 0.5442908406 4280362280
-0.2658650279 -0.0867410153 0.5443673134 4280428073
-0.2663366497 -0.0862889811 0.5453329086 4281086003
-0.2663735747 -0.0856949538 0.5454085469 4281941057
-0.2664102614 -0.0851006880 0.5454837084 4282664780
-0.2668813765 -0.0846440345 0.5464482903 4282730573
-0.2669176161 -0.0840483084 0.5465224981 4282598987
-0.2669536471 -0.0834523365 0.5465962291 4282796366
-0.2669894099 -0.0828561261 0.5466694832 4282796366
-0.2670249045 -0.0822596848 0.5467422009 4282730573
-0.2670601904 -0.0816629976 0.5468144417 4282796366
-0.2675302029 -0.0811981037 0.5477768183 4282533196
-0.2688702345 -0.0809931532 0.5505205989 4282401610
-0.2702103555 -0.0807821229 0.5532644987 4283454296
-0.2719857395 -0.0806941316 0.5568996668 4290559940
-0.2903146446 -0.1955514699 0.5957835317 4290824143
-0.2899729908 -0.1946601570 0.5950824022 4290232006
-0.2888679206 -0.1926010102 0.5928146243 4288981169
-0.2885248661 -0.1917144060 0.5921106339 4286744207
-0.2886021137 -0.1911076605 0.5922691226 4283454557
-0.2878375053 -0.1899450421 0.5906999707 4281612094
-0.2870722413 -0.1887854785 0.5891295075 4281283129
-0.2863063216 -0.1876289845 0.5875576735 4281348922
-0.2868032157 -0.1873006672 0.5885773897 4280954164
-0.2860363424 -0.1861476451 0.5870036483 4280954162
-0.2856901884 -0.1852709502 0.5862932801 4281019955
-0.2853436172 -0.1843955815 0.5855820179 4281151027
-0.2854181826 -0.1837929785 0.5857350826 4281085234
-0.2850708663 -0.1829193234 0.5850223303 4281085233
-0.2851449549 -0.1823166907 0.5851743221 4281019440
-0.2847968936 -0.1814447641 0.5844600201 4280822831
-0.2844484150 -0.1805741638 0.5837448835 4280822831
-0.2857880592 -0.1807729602 0.5864940882 4280822831
-0.2850168943 -0.1796353012 0.5849115252 4280822831
-0.2829780579 -0.1777050644 0.5807273984 4280756783
-0.2830502391 -0.1771049947 0.5808755159 4280756783
-0.2822770476 -0.1759775877 0.5792888403 4280756783
-0.2806578875 -0.1743282229 0.5759660006 4280690990
-0.2815743685 -0.1742554605 0.5778467655 4280691245
-0.2786850631 -0.1718319356 0.5719173551 4280691245
-0.2787550092 -0.1712394655 0.5720608830 4280691245
-0.2771323621 -0.1696107686 0.5687308908 4280625452
-0.2780479193 -0.1695371121 0.5706098080 4280690990
-0.2781170309 -0.1689451188 0.5707516670 4280690990
-0.2777625620 -0.1680964381 0.5700241923 4280625197
-0.2782546878 -0.1677598208 0.5710341334 4280625197
-0.2778995633 -0.1669120640 0.5703053474 4280757038
-0.2783914804 -0.1665727496 0.5713148713 4280691245
-0.2788834274 -0.1662312001 0.5723243952 4280690990
-0.2789514065 -0.1656356752 0.5724639297 4280690990
-0.2781710923 -0.1645380706 0.5708625913 4280690990
-0.2782384455 -0.1639434844 0.5710008144 4280625197
-0.2783055902 -0.1633484662 0.5711385608 4280559404
-0.2779481709 -0.1625049263 0.5704050660 4280559404
-0.2771658897 -0.1614155769 0.5687996745 4280559404
-0.2772320807 -0.1608220041 0.5689355731 4280493611
-0.2772980630 -0.1602280140 0.5690709949 4280559404
-0.2769390941 -0.1593891233 0.5683342814 4280559404
-0.2765797079 -0.1585516334 0.5675967336 4280559404
-0.2766448557 -0.1579581946 0.5677304268 4280493611
-0.2754346132 -0.1566391587 0.5652468204 4280559404
-0.2767744958 -0.1567700505 0.5679965019 4280493611
-0.2764137685 -0.1559354663 0.5672561526 4280427818
-0.2760525942 -0.1551022828 0.5665150285 4280493611
-0.2756910324 -0.1542705148 0.5657730103 4280690476
-0.2753290236 -0.1534401625 0.5650300980 4280624683
-0.2749666572 -0.1526112407 0.5642864108 4280690476
-0.2741780877 -0.1515484154 0.5626681447 4280690476
-0.2750923038 -0.1514264792 0.5645442605 4280624683
-0.2751547992 -0.1508335024 0.5646725297 4280690476
-0.2743650079 -0.1497749686 0.5630517602 4280690476
-0.2744269073 -0.1491830200 0.5631787777 4280690476
-0.2740623355 -0.1483599246 0.5624305606 4280493611
-0.2745499909 -0.1479979157 0.5634313822 4280493611
-0.2746112347 -0.1474047601 0.5635570288 4280493866
-0.2746722400 -0.1468112171 0.5636821985 4280428073
-0.2751596272 -0.1464443207 0.5646824241 4280428073
-0.2752202749 -0.1458490640 0.5648069382 4280428073
-0.2757075131 -0.1454786062 0.5658068061 4280493866
-0.2757678032 -0.1448816508 0.5659306049 4280493866
-0.2754009366 -0.1440609396 0.5651776791 4280558889
-0.2754606903 -0.1434641182 0.5653003454 4280558889
-0.2750930786 -0.1426454037 0.5645459294 4280493096
-0.2751523256 -0.1420487314 0.5646674633 4280493096
-0.2747839987 -0.1412320435 0.5639115572 4280558889
-0.2739878297 -0.1401980966 0.5622776747 4280624682
-0.2736185789 -0.1393852681 0.5615199208 4280624682
-0.2736765742 -0.1387907863 0.5616388917 4280624682
-0.2737343013 -0.1381959170 0.5617574453 4280493611
-0.2737918496 -0.1376006752 0.5618755221 4280493611
-0.2738491595 -0.1370050609 0.5619931221 4280427818
-0.2734782696 -0.1361959428 0.5612319708 4280362025
-0.2735350430 -0.1356005073 0.5613484383 4280427818
-0.2735915780 -0.1350047141 0.5614644885 4280427818
-0.2736479044 -0.1344085485 0.5615800619 4280362025
-0.2732756436 -0.1336026043 0.5608161688 4280427818
-0.2733314335 -0.1330066472 0.5609306097 4280362025
-0.2729584575 -0.1322027743 0.5601652265 4280427818
-0.2730137110 -0.1316070259 0.5602785945 4280427818
-0.2730687261 -0.1310109049 0.5603914857 4280427818
-0.2731235027 -0.1304144263 0.5605039001 4280559404
-0.2727491856 -0.1296137869 0.5597357750 4280559404
-0.2723745108 -0.1288146824 0.5589668155 4280493611
-0.2724284232 -0.1282190084 0.5590775013 4280625197
-0.2724821270 -0.1276229769 0.5591877103 4280559404
-0.2725355923 -0.1270266026 0.5592973828 4280493611
-0.2725888193 -0.1264298856 0.5594066381 4280493611
-0.2730711997 -0.1260309666 0.5603965521 4280493611
-0.2726946175 -0.1252353787 0.5596237779 4280427818
-0.2727471590 -0.1246376112 0.5597316027 4280427818
-0.2727994621 -0.1240394935 0.5598389506 4280427818
-0.2728515565 -0.1234410405 0.5599458218 4280427818
-0.2729034126 -0.1228422374 0.5600522161 4280493866
-0.2725251615 -0.1220505834 0.5592760444 4280362280
-0.2717166245 -0.1210689247 0.5576167107 4280428073
-0.2713375092 -0.1202813163 0.5568386912 4280493866
-0.2713881135 -0.1196849421 0.5569425821 4280558889
-0.2714384794 -0.1190882325 0.5570459366 4280624682
-0.2719188631 -0.1186789796 0.5580317378 4280690475
-0.2723991573 -0.1182674989 0.5590174198 4280624682
-0.2724489868 -0.1176679134 0.5591197014 4280558889
-0.2724985778 -0.1170679927 0.5592214465 4280624682
-0.2725479305 -0.1164677441 0.5593227148 4280558889
-0.2734583318 -0.1162332594 0.5611910224 4280558889
-0.2735073566 -0.1156304702 0.5612916350 4280690475
-0.2735561430 -0.1150273532 0.5613917708 4280887854
-0.2736046910 -0.1144239083 0.5614914298 4281151026
-0.2736530304 -0.1138201505 0.5615906119 4281479991
-0.2732700706 -0.1130377799 0.5608047247 4282333751
-0.2733178437 -0.1124343351 0.5609027147 4282531130
-0.2729341984 -0.1116541848 0.5601153970 4282860095
-0.2725501359 -0.1108756214 0.5593273044 4283123267
-0.2725970447 -0.1102731451 0.5594235063 4283321158
-0.2722122967 -0.1094968244 0.5586339831 4283452744
-0.2718271911 -0.1087220982 0.5578436255 4283518537
-0.2718732059 -0.1081206053 0.5579380989 4283584330
-0.2719190121 -0.1075187996 0.5580320358 4283584844
-0.2719645500 -0.1069166958 0.5581254959 4283519051
-0.2720098495 -0.1063142866 0.5582185388 4282532416
-0.2720549405 -0.1057115793 0.5583109856 4280953384
-0.2716678679 -0.1049417332 0.5575166345 4280690473
-0.2717123628 -0.1043393835 0.5576080084 4280493094
-0.2717566490 -0.1037367433 0.5576988459 4280558889
-0.2722328007 -0.1032977700 0.5586760044 4280493096
-0.2718444765 -0.1025305763 0.5578790903 4280493096
-0.2714557648 -0.1017650142 0.5570814013 4280493096
-0.2714989781 -0.1011621654 0.5571700931 4280493096
-0.2711095810 -0.1003989056 0.5563709736 4280493096
-0.2711522579 -0.0997964442 0.5564585328 4280558889
-0.2707621753 -0.0990354940 0.5556579828 4280558889
-0.2708042860 -0.0984334350 0.5557444692 4280558889
-0.2704135180 -0.0976748094 0.5549424887 4280558889
-0.2704550922 -0.0970731452 0.5550277829 4280428073
-0.2700636089 -0.0963168591 0.5542244315 4280493866
-0.2696717680 -0.0955622196 0.5534202456 4280493866
-0.2688466311 -0.0946568027 0.5517269373 4280493866
-0.2680209577 -0.0937549844 0.5500324965 4280493866
-0.2671948075 -0.0928567499 0.5483371019 4280493866
-0.2668012977 -0.0921116397 0.5475294590 4280493866
-0.2664073706 -0.0913681984 0.5467211008 4280559659
-0.2664463520 -0.0907740295 0.5468010902 4280493864
-0.2660517693 -0.0900329649 0.5459913015 4280493864
-0.2660901845 -0.0894392505 0.5460701585 4280559659
-0.2656949461 -0.0887005702 0.5452589989 4280559659
-0.2657328248 -0.0881073102 0.5453367233 4280559659
-0.2657704353 -0.0875137895 0.5454139709 4280362280
-0.2658078372 -0.0869200230 0.5454906821 4280559659
-0.2662786543 -0.0864668265 0.5464569330 4281283382
-0.2663156092 -0.0858715922 0.5465327501 4282270022
-0.2663523257 -0.0852761120 0.5466080904 4282796366
-0.2668226361 -0.0848182961 0.5475733280 4282796366
-0.2672928572 -0.0843582973 0.5485382676 4282730573
-0.2673289478 -0.0837601423 0.5486122966 4282862161
-0.2669307590 -0.0830267444 0.5477951765 4282796368
-0.2665322125 -0.0822950453 0.5469772220 4282796368
-0.2665674388 -0.0816981122 0.5470495820 4282862161
-0.2670366168 -0.0812330320 0.5480124354 4282533196
-0.2683742046 -0.0810279995 0.5507574081 4282335817
-0.2697118819 -0.0808168873 0.5535026193 4284967535
-0.2710496485 -0.0805997029 0.5562479496 4292073179
-0.2898721993 -0.1983493418 0.5962345600 4291087064
-0.2895326316 -0.1974553019 0.5955361128 4290758099
-0.2896117568 -0.1968473941 0.5956988931 4290560718
-0.2892714441 -0.1959550083 0.5949988961 4290297546
-0.2889306843 -0.1950638741 0.5942980051 4289113527
-0.2885895371 -0.1941740215 0.5935962796 4287863460
-0.2886675000 -0.1935667694 0.5937566757 4287073174
-0.2874862254 -0.1921176463 0.5913268924 4285559935
-0.2879832387 -0.1917916685 0.5923492312 4284309866
-0.2876404822 -0.1909060180 0.5916441679 4283322971
-0.2877173126 -0.1902994812 0.5918022394 4282533455
-0.2869536579 -0.1891386062 0.5902314782 4281612353
-0.2866095901 -0.1882568300 0.5895237923 4281152056
-0.2866854668 -0.1876514852 0.5896798968 4280888884
-0.2859202027 -0.1864971519 0.5881057978 4281019955
-0.2855748832 -0.1856192648 0.5873954892 4281019955
-0.2856498063 -0.1850151718 0.5875496268 4281019955
-0.2853037417 -0.1841389984 0.5868378282 4280888369
-0.2853781581 -0.1835348308 0.5869908333 4281019440
-0.2854523659 -0.1829302013 0.5871434808 4281019440
-0.2851052284 -0.1820561737 0.5864294767 4280953647
-0.2847576737 -0.1811834723 0.5857146382 4280887854
-0.2856737375 -0.1811134815 0.5875988603 4280822576
-0.2841340303 -0.1788386405 0.5844318271 4280756783
-0.2837848961 -0.1779703349 0.5837137103 4280756783
-0.2825917900 -0.1765762717 0.5812596083 4280756783
-0.2830853462 -0.1762377173 0.5822747946 4280756783
-0.2818909585 -0.1748499125 0.5798180699 4280756783
-0.2806957066 -0.1734670550 0.5773596168 4280756783
-0.2794996202 -0.1720891297 0.5748993754 4280625197
-0.2791473269 -0.1712342650 0.5741747022 4280625197
-0.2787945867 -0.1703807414 0.5734491944 4280690990
-0.2805540562 -0.1708148569 0.5770682096 4280690990
-0.2780878842 -0.1686777920 0.5719955564 4280625197
-0.2781566381 -0.1680838168 0.5721369982 4280625197
-0.2790708244 -0.1679984778 0.5740174055 4280690990
-0.2782934904 -0.1668945253 0.5724185109 4280690990
-0.2787846625 -0.1665519625 0.5734287500 4280757038
-0.2788526714 -0.1659553200 0.5735686421 4280691245
-0.2780739963 -0.1648563892 0.5719670057 4280690990
-0.2781413794 -0.1642606854 0.5721055865 4280690990
-0.2782085538 -0.1636645645 0.5722437501 4280690990
-0.2774283886 -0.1625715941 0.5706390738 4280690990
-0.2770712972 -0.1617291272 0.5699045658 4280625197
-0.2767137587 -0.1608880460 0.5691691637 4280493611
-0.2763558328 -0.1600483656 0.5684329271 4280559404
-0.2764214277 -0.1594546288 0.5685678720 4280559404
-0.2769108713 -0.1591041386 0.5695745945 4280493611
-0.2765519917 -0.1582659185 0.5688364506 4280559404
-0.2753441930 -0.1569454521 0.5663521290 4280559404
-0.2754086256 -0.1563527882 0.5664846897 4280493611
-0.2763217986 -0.1562397033 0.5683629513 4280427818
-0.2759614587 -0.1554052979 0.5676217675 4280493611
-0.2751760483 -0.1543341279 0.5660063028 4280690476
-0.2752395570 -0.1537407190 0.5661368966 4280690476
-0.2744531333 -0.1526742280 0.5645192862 4280690476
-0.2736661136 -0.1516110003 0.5629004836 4280690476
-0.2741536200 -0.1512545347 0.5639032125 4280624683
-0.2746410966 -0.1508958340 0.5649059415 4280624683
-0.2742780745 -0.1500695646 0.5641592741 4280493611
-0.2739146650 -0.1492447257 0.5634117126 4280493611
-0.2739762664 -0.1486521512 0.5635384321 4280493611
-0.2740376294 -0.1480591893 0.5636646748 4280493611
-0.2740987837 -0.1474658251 0.5637904406 4280493866
-0.2741597295 -0.1468720585 0.5639157891 4280428073
-0.2742204666 -0.1462778896 0.5640407205 4280428073
-0.2742809653 -0.1456833333 0.5641651750 4280428073
-0.2743412256 -0.1450883895 0.5642891526 4280428073
-0.2744013071 -0.1444930583 0.5644127131 4280428073
-0.2744611502 -0.1438973248 0.5645357966 4280624682
-0.2745207548 -0.1433012038 0.5646584034 4280624682
-0.2741537988 -0.1424831152 0.5639035702 4280624682
-0.2737864256 -0.1416664869 0.5631479621 4280558889
-0.2734186351 -0.1408513188 0.5623914599 4280558889
-0.2730504572 -0.1400376409 0.5616341233 4280493096
-0.2726818621 -0.1392254233 0.5608760118 4280428073
-0.2723128796 -0.1384146959 0.5601170063 4280428073
-0.2727972865 -0.1380374879 0.5611134171 4280428073
-0.2728546858 -0.1374429613 0.5612314939 4280428073
-0.2729118466 -0.1368480474 0.5613490343 4280362025
-0.2729687691 -0.1362527758 0.5614661574 4280362025
-0.2725982070 -0.1354448199 0.5607039332 4280362538
-0.2726546228 -0.1348497421 0.5608199239 4280362538
-0.2727107704 -0.1342542768 0.5609354973 4280362538
-0.2723391950 -0.1334489584 0.5601711869 4280428331
-0.2723948359 -0.1328537017 0.5602856278 4280427818
-0.2720225155 -0.1320504546 0.5595198274 4280493611
-0.2720776200 -0.1314554065 0.5596331358 4280427818
-0.2717046142 -0.1306542456 0.5588659048 4280493611
-0.2721871138 -0.1302642226 0.5598583817 4280559404
-0.2718134820 -0.1294642240 0.5590898395 4280559404
-0.2714394331 -0.1286657304 0.5583204627 4280493611
-0.2714932263 -0.1280707717 0.5584310889 4280493611
-0.2715467811 -0.1274754554 0.5585412979 4280493611
-0.2716001272 -0.1268797815 0.5586509705 4280493611
-0.2716532052 -0.1262837648 0.5587601662 4280493611
-0.2721346319 -0.1258856505 0.5597504377 4280493611
-0.2721873522 -0.1252879947 0.5598588586 4280427818
-0.2722398639 -0.1246899962 0.5599668622 4280427818
-0.2718633115 -0.1238962263 0.5591923594 4280427818
-0.2719152570 -0.1232984811 0.5592991710 4280427818
-0.2719669640 -0.1227003932 0.5594055653 4280559404
-0.2715893984 -0.1219093725 0.5586289167 4280493611
-0.2707823217 -0.1209282577 0.5569688678 4280624683
-0.2708331048 -0.1203319877 0.5570732951 4280624683
-0.2708836496 -0.1197353825 0.5571772456 4280624683
-0.2705045938 -0.1189496294 0.5563975573 4280624683
-0.2705545723 -0.1183533072 0.5565004349 4280690476
-0.2710338831 -0.1179435700 0.5574862957 4280624683
-0.2715131044 -0.1175316051 0.5584719777 4280624683
-0.2715625465 -0.1169323996 0.5585737228 4280624683
-0.2716117799 -0.1163328663 0.5586749315 4280558890
-0.2720906138 -0.1159161255 0.5596598387 4280624683
-0.2721394300 -0.1153149977 0.5597602725 4280756269
-0.2721880376 -0.1147135422 0.5598602295 4280887855
-0.2726664543 -0.1142920330 0.5608443022 4280887855
-0.2722845078 -0.1135096699 0.5600586534 4280953648
-0.2723323703 -0.1129072532 0.5601571202 4281216047
-0.2719497085 -0.1121271029 0.5593700409 4281347633
-0.2719970345 -0.1115250066 0.5594674349 4281479732
-0.2716136873 -0.1107470915 0.5586788654 4281677111
-0.2716604471 -0.1101453230 0.5587750673 4281940279
-0.2717069983 -0.1095432490 0.5588707924 4282269244
-0.2713226378 -0.1087682098 0.5580801964 4282532670
-0.2713686228 -0.1081664786 0.5581747890 4282730049
-0.2709835470 -0.1073936969 0.5573827624 4282861381
-0.2710289657 -0.1067923009 0.5574761629 4282992967
-0.2710741758 -0.1061906144 0.5575691462 4282072380
-0.2715501487 -0.1057564914 0.5585482121 4280822313
-0.2711638212 -0.1049863324 0.5577535629 4280756268
-0.2716394663 -0.1045496911 0.5587319136 4280493096
-0.2716837823 -0.1039458513 0.5588230491 4280427304
-0.2717278302 -0.1033417135 0.5589136481 4280427304
-0.2713402510 -0.1025742069 0.5581164956 4280427303
-0.2709523141 -0.1018083319 0.5573185086 4280493096
-0.2709954977 -0.1012052372 0.5574073195 4280493096
-0.2706068456 -0.1004416645 0.5566079617 4280493096
-0.2706494927 -0.0998389646 0.5566956401 4280558889
-0.2702601552 -0.0990777090 0.5558948517 4280558889
-0.2698704600 -0.0983180851 0.5550932288 4280558889
-0.2699122131 -0.0977164656 0.5551791787 4280624682
-0.2695218325 -0.0969591737 0.5543761253 4280428073
-0.2691310346 -0.0962035358 0.5535723567 4280428073
-0.2683078349 -0.0952960923 0.5518791080 4280493866
-0.2679162323 -0.0945447311 0.5510736704 4280493866
-0.2670921087 -0.0936435014 0.5493784547 4280493866
-0.2666997015 -0.0928964168 0.5485713482 4280493866
-0.2658745944 -0.0920014083 0.5468742251 4280493866
-0.2659137845 -0.0914072618 0.5469548106 4280559659
-0.2655202746 -0.0906651840 0.5461454391 4280493864
-0.2655588984 -0.0900714770 0.5462248325 4280493864
-0.2655972838 -0.0894775167 0.5463038087 4280493864
-0.2652027905 -0.0887385309 0.5454924107 4280493864
-0.2648079395 -0.0880012363 0.5446802378 4280559659
-0.2648454607 -0.0874084458 0.5447574258 4280428073
-0.2648827434 -0.0868154019 0.5448341370 4280625452
-0.2653526664 -0.0863629952 0.5458006859 4281546554
-0.2653895319 -0.0857684836 0.5458765030 4282401608
-0.2654261589 -0.0851737261 0.5459518433 4282796366
-0.2658955753 -0.0847166926 0.5469173789 4282796368
-0.2659317553 -0.0841204748 0.5469918251 4282730575
-0.2659676969 -0.0835240185 0.5470657349 4282862161
-0.2660034001 -0.0829273164 0.5471391678 4282796368
-0.2660388350 -0.0823303759 0.5472120643 4282862161
-0.2660740614 -0.0817331970 0.5472844839 4282993747
-0.2669757903 -0.0814000666 0.5491392612 4282401610
-0.2683109939 -0.0811939761 0.5518856049 4282270024
-0.2696462870 -0.0809818134 0.5546321273 4286612360
-0.2887486517 -0.1993557662 0.5952835083 4291087064
-0.2884103060 -0.1984615326 0.5945860147 4290626513
-0.2884896398 -0.1978553087 0.5947495103 4290297548
-0.2881505489 -0.1969627142 0.5940504670 4289705411
-0.2878110111 -0.1960713863 0.5933505297 4288718514
-0.2883079648 -0.1957495362 0.5943750143 4287534240
-0.2879678011 -0.1948589683 0.5936737657 4285758084
-0.2876272500 -0.1939696819 0.5929716229 4284376431
-0.2877050042 -0.1933631152 0.5931319594 4283980903
-0.2869448066 -0.1921949238 0.5915647149 4283520352
-0.2870219350 -0.1915891469 0.5917237401 4283454557
-0.2870988846 -0.1909828782 0.5918824077 4282928213
-0.2863371670 -0.1898202896 0.5903120041 4282401869
-0.2872521877 -0.1897689104 0.5921984315 4281875525
-0.2860701382 -0.1883327365 0.5897614956 4281677887
-0.2861459553 -0.1877271980 0.5899177790 4281348922
-0.2858018577 -0.1868468076 0.5892084241 4281217334
-0.2854573429 -0.1859677136 0.5884981751 4281217334
-0.2855323255 -0.1853625178 0.5886527300 4281085748
-0.2851870656 -0.1844851524 0.5879409313 4280954162
-0.2852615118 -0.1838798821 0.5880944133 4281019440
-0.2853357494 -0.1832741499 0.5882474780 4281019440
-0.2849894464 -0.1823989302 0.5875335336 4281085233
-0.2850631475 -0.1817931533 0.5876855254 4281019440
-0.2847160995 -0.1809196621 0.5869700313 4280822576
-0.2847892940 -0.1803138405 0.5871209502 4280756783
-0.2844415009 -0.1794420928 0.5864039063 4280756783
-0.2836724222 -0.1783071309 0.5848183632 4280756783
-0.2837446630 -0.1777026057 0.5849673152 4280822576
-0.2833956182 -0.1768348515 0.5842477083 4280822576
-0.2830461264 -0.1759684384 0.5835272074 4280822576
-0.2822749019 -0.1748424172 0.5819372535 4280756783
-0.2810816765 -0.1734594703 0.5794772506 4280690990
-0.2794660628 -0.1718223095 0.5761465430 4280690990
-0.2829088569 -0.1732909977 0.5832442045 4280690990
-0.2791837752 -0.1703697592 0.5755645633 4280690990
-0.2784093916 -0.1692595035 0.5739681721 4280690990
-0.2784782946 -0.1686635017 0.5741101503 4280690990
-0.2802351117 -0.1690856516 0.5777320266 4280625197
-0.2786154151 -0.1674701720 0.5743928552 4280625197
-0.2786836922 -0.1668728590 0.5745335817 4280822061
-0.2779070139 -0.1657712311 0.5729324222 4280887854
-0.2788195610 -0.1656768918 0.5748137236 4280887854
-0.2780420780 -0.1645780355 0.5732108355 4280822061
-0.2781092823 -0.1639807820 0.5733494163 4280887854
-0.2773307562 -0.1628864855 0.5717443824 4280887854
-0.2778201997 -0.1625375897 0.5727534294 4280756269
-0.2770407200 -0.1614469737 0.5711464882 4280624683
-0.2762606442 -0.1603595912 0.5695382953 4280625197
-0.2759031355 -0.1595200747 0.5688012242 4280493611
-0.2759684324 -0.1589257121 0.5689358711 4280559404
-0.2760335505 -0.1583309323 0.5690701008 4280559404
-0.2760984600 -0.1577357352 0.5692039132 4280559404
-0.2757395804 -0.1568990946 0.5684640408 4280493611
-0.2758039534 -0.1563039720 0.5685967207 4280493611
-0.2754443288 -0.1554692537 0.5678553581 4280493611
-0.2750843167 -0.1546359360 0.5671131611 4280690476
-0.2755717933 -0.1542787552 0.5681181550 4280690476
-0.2747870982 -0.1532100290 0.5665004253 4280493611
-0.2735776603 -0.1519090235 0.5640070438 4280493611
-0.2740643919 -0.1515515298 0.5650104880 4280559404
-0.2741267681 -0.1509581059 0.5651390553 4280493611
-0.2741889060 -0.1503642946 0.5652672052 4280493611
-0.2738263309 -0.1495382190 0.5645197034 4280493611
-0.2734633088 -0.1487135887 0.5637713075 4280493866
-0.2735246420 -0.1481204033 0.5638977289 4280493866
-0.2735857368 -0.1475268155 0.5640236735 4280493866
-0.2732216716 -0.1467046738 0.5632731318 4280493866
-0.2732822597 -0.1461112201 0.5633980036 4280428073
-0.2729174793 -0.1452910602 0.5626460314 4280493866
-0.2729775310 -0.1446977407 0.5627697706 4280428073
-0.2726120353 -0.1438795775 0.5620163083 4280362280
-0.2730969191 -0.1435099393 0.5630159378 4280558889
-0.2731562853 -0.1429154426 0.5631383657 4280624682
-0.2727898657 -0.1420988888 0.5623829365 4280624682
-0.2724230587 -0.1412837952 0.5616267323 4280624682
-0.2720558345 -0.1404701769 0.5608696342 4280428073
-0.2716881931 -0.1396580338 0.5601117611 4280428073
-0.2717460990 -0.1390653402 0.5602310896 4280428073
-0.2718037665 -0.1384722739 0.5603500009 4280428073
-0.2718612254 -0.1378788203 0.5604684353 4280362280
-0.2719184756 -0.1372849941 0.5605864525 4280362280
-0.2724017799 -0.1369050443 0.5615828633 4280362537
-0.2720322609 -0.1360962242 0.5608210564 4280362537
-0.2720888257 -0.1355012804 0.5609376431 4280362537
-0.2721451819 -0.1349059641 0.5610538125 4280428330
-0.2717746198 -0.1340997666 0.5602899194 4280428331
-0.2714037001 -0.1332950741 0.5595251918 4280362538
-0.2714591920 -0.1327005178 0.5596395731 4280493866
-0.2710875273 -0.1318978965 0.5588734150 4280428073
-0.2711424828 -0.1313035637 0.5589867234 4280493866
-0.2711971998 -0.1307088584 0.5590994954 4280559659
-0.2712517083 -0.1301137954 0.5592118502 4280559659
-0.2708787322 -0.1293144226 0.5584429502 4280559659
-0.2705053389 -0.1285165548 0.5576731563 4280493866
-0.2705589831 -0.1279222965 0.5577837825 4280428073
-0.2706124187 -0.1273276955 0.5578938723 4280428073
-0.2706655860 -0.1267327517 0.5580035448 4280493866
-0.2707185447 -0.1261374354 0.5581127405 4280624682
-0.2711990476 -0.1257401109 0.5591033101 4280558889
-0.2712516487 -0.1251431704 0.5592117310 4280624682
-0.2717319131 -0.1247423291 0.5602018833 4280624682
-0.2713561058 -0.1239482462 0.5594270825 4280624682
-0.2714080215 -0.1233502701 0.5595340729 4280624682
-0.2710314989 -0.1225583330 0.5587579012 4280624683
-0.2706545889 -0.1217679456 0.5579808950 4280624683
-0.2702773213 -0.1209791079 0.5572030544 4280624683
-0.2694711983 -0.1200010404 0.5555412173 4280624683
-0.2699500322 -0.1195959300 0.5565283298 4280624683
-0.2695716321 -0.1188108176 0.5557482243 4280558890
-0.2696215212 -0.1182152033 0.5558510423 4280558890
-0.2696711421 -0.1176192611 0.5559533834 4280624683
-0.2701493800 -0.1172090396 0.5569393039 4280690476
-0.2701986134 -0.1166114956 0.5570408106 4280558890
-0.2702476382 -0.1160136238 0.5571418405 4280558890
-0.2707254589 -0.1155986339 0.5581269264 4280624683
-0.2703449726 -0.1148169115 0.5573425293 4280690476
-0.2703932822 -0.1142180711 0.5574421287 4280756269
-0.2704413533 -0.1136189103 0.5575412512 4280756269
-0.2709185481 -0.1131988317 0.5585250258 4280690476
-0.2705367804 -0.1124196351 0.5577380061 4280690222
-0.2705841660 -0.1118195280 0.5578356385 4280690222
-0.2706312835 -0.1112191007 0.5579327941 4280690476
-0.2706781924 -0.1106183603 0.5580294728 4280756269
-0.2707248330 -0.1100173071 0.5581256747 4280887852
-0.2707712650 -0.1094159484 0.5582213402 4281151024
-0.2712472975 -0.1089869961 0.5592027903 4281414450
-0.2708633542 -0.1082122996 0.5584112406 4281611829
-0.2704790533 -0.1074392051 0.5576189756 4281809208
-0.2705244422 -0.1068375781 0.5577124953 4282006587
-0.2705695927 -0.1062356457 0.5578055978 4281414196
-0.2706145048 -0.1056334153 0.5578981638 4280624680
-0.2710894644 -0.1051978618 0.5588773489 4280690475
-0.2711339593 -0.1045940742 0.5589690804 4280493096
-0.2711782157 -0.1039899886 0.5590603352 4280427304
-0.2712222338 -0.1033856124 0.5591510534 4280493097
-0.2708353996 -0.1026177928 0.5583536029 4280493096
-0.2704482079 -0.1018516049 0.5575553775 4280493096
-0.2704913616 -0.1012482718 0.5576443672 4280493096
-0.2701034844 -0.1004843861 0.5568446517 4280558889
-0.2701460719 -0.0998814404 0.5569325089 4280558889
-0.2697575092 -0.0991198719 0.5561314225 4280624682
-0.2689375579 -0.0982025713 0.5544410348 4280624682
-0.2689792216 -0.0976016596 0.5545269251 4280624682
-0.2685895264 -0.0968450308 0.5537235141 4280493866
-0.2681994438 -0.0960900486 0.5529193282 4280428073
-0.2673777342 -0.0951831937 0.5512253046 4280493866
-0.2665555179 -0.0942799300 0.5495302081 4280493866
-0.2661641836 -0.0935318470 0.5487234592 4280493866
-0.2657724917 -0.0927854255 0.5479159355 4280559659
-0.2653804123 -0.0920406729 0.5471076369 4280559659
-0.2649879754 -0.0912975892 0.5462985635 4280493866
-0.2650268078 -0.0907038972 0.5463786125 4280493864
-0.2650654018 -0.0901099518 0.5464581847 4280493864
-0.2646719813 -0.0893699527 0.5456470847 4280428073
-0.2642781734 -0.0886316374 0.5448352695 4280493866
-0.2638840377 -0.0878949985 0.5440226793 4280559659
-0.2639214694 -0.0873029381 0.5440998673 4280362280
-0.2639586627 -0.0867106169 0.5441765189 4280690990
-0.2644276917 -0.0862590000 0.5451434851 4281809471
-0.2644644380 -0.0856652111 0.5452192426 4282664780
-0.2645009756 -0.0850711837 0.5452945232 4282862159
-0.2649694979 -0.0846149400 0.5462604761 4282862161
-0.2650055885 -0.0840194449 0.5463348627 4282796368
-0.2646090686 -0.0832876191 0.5455173850 4282927954
-0.2646445930 -0.0826926157 0.5455906391 4282927954
-0.2651123703 -0.0822315216 0.5465550423 4282993747
-0.2655800283 -0.0817682445 0.5475191474 4283125333
-0.2664801478 -0.0814349800 0.5493748188 4282533196
-0.2678128779 -0.0812288150 0.5521224141 4282401610
-0.2691457272 -0.0810165629 0.5548701882 4288454050
-0.2870305777 -0.1979653984 0.5930995941 4289902790
-0.2866922915 -0.1970738769 0.5924005508 4288521137
-0.2867709696 -0.1964695901 0.5925631523 4287139484
-0.2868494689 -0.1958648115 0.5927253366 4285560450
-0.2869277596 -0.1952595264 0.5928871632 4284507762
-0.2865881026 -0.1943704188 0.5921852589 4284113004
-0.2866658866 -0.1937650293 0.5923460126 4284047211
-0.2867434621 -0.1931591630 0.5925062895 4283915110
-0.2868208289 -0.1925527900 0.5926662087 4283520352
-0.2864798009 -0.1916661263 0.5919615030 4283322971
-0.2865566611 -0.1910596639 0.5921203494 4282730834
-0.2862148881 -0.1901746839 0.5914140940 4282204490
-0.2854541242 -0.1890138388 0.5898421407 4281743939
-0.2855300307 -0.1884085685 0.5899989605 4281743680
-0.2856057584 -0.1878028363 0.5901554227 4281546301
-0.2852623761 -0.1869221330 0.5894459486 4281480508
-0.2849185765 -0.1860427260 0.5887355208 4281414715
-0.2849934697 -0.1854373217 0.5888902545 4281283127
-0.2850681543 -0.1848314404 0.5890445709 4281085748
-0.2847232819 -0.1839541644 0.5883319974 4280954162
-0.2847974598 -0.1833482236 0.5884851813 4280954162
-0.2844518423 -0.1824726760 0.5877711177 4281151026
-0.2845254838 -0.1818666905 0.5879232287 4281151026
-0.2845989168 -0.1812602282 0.5880749822 4280822576
-0.2846721411 -0.1806533039 0.5882262588 4280822576
-0.2843251824 -0.1797803640 0.5875093341 4280822576
-0.2839777768 -0.1789087355 0.5867915154 4280822576
-0.2840501666 -0.1783021986 0.5869410634 4280822576
-0.2837020457 -0.1774323434 0.5862217546 4280822576
-0.2837738991 -0.1768257767 0.5863702297 4280822576
-0.2830045223 -0.1756966263 0.5847803950 4280822576
-0.2813932598 -0.1740502864 0.5814510584 4280690990
-0.2827260196 -0.1742255539 0.5842049718 4280756783
-0.2806925774 -0.1723280549 0.5800032020 4280690990
-0.2803415954 -0.1714689583 0.5792779922 4280690990
-0.2795691788 -0.1703546643 0.5776818991 4280756783
-0.2787961364 -0.1692435294 0.5760844946 4280690990
-0.2792861760 -0.1688998193 0.5770971179 4280625197
-0.2789335251 -0.1680461615 0.5763684511 4280625197
-0.2794233859 -0.1676997691 0.5773805976 4280756268
-0.2794916630 -0.1670990735 0.5775216818 4280822061
-0.2787164152 -0.1659956872 0.5759198070 4280887854
-0.2779405415 -0.1648955047 0.5743165612 4280887854
-0.2780077755 -0.1642971337 0.5744554996 4280887854
-0.2776528299 -0.1634499133 0.5737220645 4280822061
-0.2772974670 -0.1626040936 0.5729877949 4280756268
-0.2769417167 -0.1617596596 0.5722526312 4280756268
-0.2761632502 -0.1606709510 0.5706441402 4280756268
-0.2758065462 -0.1598302126 0.5699070692 4280690475
-0.2758719027 -0.1592347324 0.5700420737 4280690476
-0.2759370506 -0.1586388201 0.5701767206 4280690476
-0.2760019600 -0.1580424905 0.5703108907 4280690476
-0.2756439149 -0.1572046280 0.5695710182 4280690476
-0.2752854526 -0.1563681811 0.5688303113 4280690476
-0.2749265730 -0.1555331498 0.5680887699 4280624683
-0.2745672762 -0.1546995193 0.5673463345 4280493611
-0.2750539184 -0.1543422192 0.5683518648 4280559404
-0.2746939957 -0.1535096020 0.5676081777 4280493611
-0.2734869719 -0.1522071809 0.5651140213 4280493611
-0.2739729285 -0.1518486589 0.5661181808 4280559404
-0.2740353346 -0.1512541026 0.5662471652 4280559404
-0.2740975320 -0.1506591439 0.5663756728 4280493866
-0.2737357616 -0.1498318315 0.5656281114 4280559659
-0.2733735740 -0.1490059793 0.5648797154 4280493866
-0.2730109990 -0.1481815577 0.5641304851 4280559659
-0.2730720043 -0.1475877464 0.5642566085 4280559659
-0.2731328309 -0.1469935477 0.5643822551 4280493866
-0.2727692127 -0.1461716145 0.5636309385 4280493866
-0.2724051774 -0.1453511417 0.5628787279 4280493866
-0.2716163695 -0.1443066448 0.5612487197 4280428073
-0.2716759145 -0.1437145770 0.5613718033 4280428073
-0.2717352509 -0.1431221068 0.5614944696 4280428073
-0.2722190619 -0.1427519470 0.5624941587 4280428073
-0.2718532979 -0.1419360042 0.5617383122 4280428073
-0.2714871168 -0.1411215365 0.5609816909 4280493866
-0.2715454996 -0.1405284554 0.5611023307 4280493866
-0.2707535625 -0.1394970119 0.5594658852 4280493866
-0.2708112895 -0.1389050186 0.5595852137 4280428073
-0.2708688378 -0.1383126527 0.5597041249 4280362280
-0.2709261477 -0.1377199143 0.5598224998 4280428073
-0.2705578208 -0.1369115263 0.5590614676 4280428073
-0.2710400820 -0.1365333050 0.5600579977 4280428330
-0.2706711292 -0.1357260346 0.5592955947 4280428330
-0.2707274556 -0.1351327449 0.5594120026 4280362537
-0.2707835734 -0.1345390677 0.5595279336 4280362537
-0.2708394527 -0.1339450330 0.5596433878 4280428330
-0.2704691589 -0.1331409514 0.5588782430 4280362537
-0.2705245018 -0.1325471103 0.5589926243 4280428073
-0.2705796361 -0.1319529116 0.5591065288 4280428073
-0.2702083290 -0.1311514825 0.5583392978 4280559659
-0.2702628970 -0.1305574924 0.5584520698 4280625452
-0.2703172565 -0.1299631447 0.5585643649 4280559659
-0.2699449360 -0.1291643828 0.5577950478 4280559659
-0.2695721984 -0.1283671558 0.5570248365 4280493866
-0.2696257234 -0.1277736127 0.5571354032 4280428073
-0.2696789801 -0.1271797270 0.5572454929 4280428073
-0.2697320282 -0.1265854836 0.5573551059 4280428073
-0.2697848678 -0.1259908825 0.5574643016 4280558889
-0.2698374689 -0.1253959388 0.5575729609 4280558889
-0.2703168690 -0.1249981225 0.5585635900 4280624682
-0.2703690827 -0.1244015470 0.5586714745 4280624682
-0.2708482742 -0.1240002140 0.5596616268 4280624682
-0.2709001303 -0.1234019995 0.5597687364 4280624682
-0.2705243528 -0.1226097494 0.5589923263 4280493611
-0.2701482177 -0.1218190491 0.5582150817 4280559404
-0.2693441212 -0.1208380982 0.5565536022 4280493611
-0.2693947256 -0.1202423051 0.5566581488 4280427818
-0.2685897052 -0.1192663535 0.5549947023 4280427818
-0.2686396837 -0.1186717898 0.5550979376 4280427818
-0.2686894238 -0.1180768982 0.5552006960 4280558890
-0.2691668570 -0.1176687405 0.5561872721 4280690476
-0.2692162097 -0.1170722395 0.5562892556 4280756268
-0.2692653239 -0.1164754108 0.5563907623 4280624682
-0.2693142295 -0.1158782542 0.5564917922 4280558889
-0.2693628669 -0.1152807772 0.5565922856 4280624682
-0.2694112957 -0.1146829724 0.5566923618 4280558889
-0.2694594860 -0.1140848473 0.5567919016 4280624682
-0.2695074379 -0.1134864092 0.5568910241 4280690475
-0.2695551515 -0.1128876433 0.5569896102 4280558889
-0.2691740096 -0.1121100411 0.5562020540 4280427822
-0.2692211568 -0.1115116030 0.5562995076 4280427822
-0.2688393295 -0.1107362285 0.5555104613 4280362027
-0.2688859403 -0.1101381183 0.5556068420 4280362027
-0.2689323425 -0.1095396876 0.5557026863 4280493096
-0.2689784765 -0.1089409515 0.5557980537 4280493096
-0.2690244019 -0.1083419099 0.5558928847 4280428071
-0.2690700591 -0.1077425629 0.5559872389 4280493864
-0.2691155076 -0.1071429104 0.5560811758 4280822059
-0.2691606879 -0.1065429524 0.5561745167 4280953645
-0.2696350217 -0.1061116681 0.5571545959 4280756266
-0.2696797848 -0.1055101529 0.5572471619 4280493094
-0.2705833316 -0.1052424386 0.5591142178 4280689962
-0.2706277966 -0.1046384126 0.5592060685 4280624169
-0.2706719935 -0.1040340886 0.5592973828 4280427050
-0.2707159817 -0.1034294665 0.5593882203 4280492843
-0.2703299224 -0.1026613340 0.5585905313 4280493096
-0.2703733444 -0.1020570844 0.5586802363 4280493096
-0.2699865997 -0.1012912616 0.5578811169 4280493096
-0.2695994675 -0.1005270630 0.5570811629 4280558889
-0.2696420252 -0.0999238789 0.5571690798 4280558889
-0.2688240707 -0.0990035906 0.5554789901 4280624682
-0.2684358358 -0.0982443169 0.5546767116 4280624682
-0.2680471838 -0.0974866897 0.5538736582 4280624682
-0.2676581740 -0.0967307091 0.5530698299 4280493866
-0.2668384314 -0.0958218277 0.5513759255 4280493866
-0.2660181522 -0.0949165374 0.5496810079 4280493866
-0.2656278908 -0.0941674486 0.5488746166 4280493866
-0.2652372420 -0.0934200212 0.5480673909 4280493866
-0.2652769089 -0.0928249508 0.5481493473 4280559659
-0.2648856044 -0.0920798928 0.5473407507 4280559659
-0.2640631497 -0.0911877453 0.5456413031 4280493866
-0.2636710405 -0.0904469937 0.5448310971 4280428073
-0.2645712495 -0.0901483819 0.5466912389 4280559659
-0.2641786039 -0.0894080848 0.5458799005 4280493866
-0.2642166018 -0.0888143480 0.5459583998 4280493866
-0.2638232708 -0.0880764350 0.5451456904 4280559659
-0.2638607323 -0.0874831602 0.5452230573 4280296487
-0.2638979554 -0.0868896320 0.5452999473 4280756783
-0.2643661797 -0.0864368603 0.5462675095 4282204229
-0.2644029856 -0.0858418569 0.5463435054 4282796366
-0.2644395232 -0.0852466151 0.5464190245 4282927952
-0.2644758224 -0.0846511200 0.5464940071 4282796368
-0.2645118833 -0.0840553790 0.5465685129 4282796368
-0.2645476758 -0.0834593996 0.5466425419 4282927954
-0.2641516328 -0.0827280059 0.5458241701 4282927954
-0.2641868889 -0.0821325183 0.5458970070 4283059540
-0.2650853693 -0.0818032548 0.5477535725 4283059540
-0.2664156258 -0.0816021115 0.5505023003 4282927184
-0.2673141360 -0.0812636092 0.5523589253 4283321942
-0.2690764070 -0.0811815932 0.5560004115 4289967289
-0.2856533527 -0.1974687278 0.5916115642 4290692306
-0.2857320607 -0.1968656182 0.5917745233 4289310653
-0.2853939235 -0.1959759295 0.5910742283 4287994793
-0.2858888507 -0.1956579238 0.5920992494 4286481554
-0.2859669328 -0.1950533241 0.5922610164 4285297280
-0.2856278718 -0.1941647828 0.5915587544 4284836727
-0.2857054472 -0.1935600787 0.5917194486 4284507762
-0.2857828438 -0.1929548830 0.5918797255 4284573040
-0.2854427099 -0.1920683980 0.5911752582 4284046696
-0.2859369814 -0.1917430162 0.5921989679 4283652708
-0.2855962515 -0.1908573210 0.5914932489 4283257950
-0.2856726944 -0.1902510524 0.5916516185 4283059799
-0.2853312194 -0.1893670410 0.5909443498 4282533455
-0.2849892676 -0.1884843260 0.5902361870 4282138697
-0.2850649059 -0.1878783852 0.5903928280 4281678146
-0.2847222388 -0.1869973540 0.5896831751 4281809473
-0.2843791544 -0.1861176342 0.5889725685 4281612094
-0.2844539583 -0.1855120361 0.5891275406 4281349435
-0.2841101289 -0.1846340299 0.5884154439 4281152056
-0.2841844261 -0.1840283573 0.5885692835 4280888884
-0.2838398516 -0.1831520796 0.5878556371 4280823091
-0.2839136124 -0.1825463474 0.5880084038 4280888369
-0.2839871645 -0.1819401532 0.5881607533 4280888369
-0.2836415470 -0.1810660362 0.5874449611 4280888369
-0.2837145925 -0.1804597974 0.5875961781 4280888369
-0.2837873995 -0.1798530966 0.5877470374 4280888369
-0.2830214500 -0.1787163913 0.5861606598 4280822576
-0.2835130394 -0.1783744097 0.5871787667 4280822576
-0.2835851312 -0.1777672023 0.5873280764 4280822576
-0.2832373977 -0.1768974662 0.5866079330 4280822576
-0.2828892469 -0.1760290712 0.5858868957 4280822576
-0.2825406790 -0.1751620024 0.5851649642 4280756783
-0.2814222574 -0.1731734574 0.5828486085 4280756783
-0.2810723186 -0.1723113358 0.5821238160 4280756783
-0.2807219625 -0.1714505702 0.5813981891 4280756783
-0.2799508274 -0.1703354120 0.5798011422 4280756783
-0.2795995176 -0.1694782674 0.5790736079 4280690990
-0.2796683609 -0.1688764542 0.5792161226 4280690990
-0.2797369957 -0.1682741791 0.5793582797 4280625197
-0.2789638937 -0.1671671867 0.5777571201 4280690990
-0.2786110342 -0.1663146168 0.5770263076 4280756783
-0.2782577276 -0.1654634327 0.5762946010 4280756783
-0.2779040337 -0.1646136194 0.5755620599 4280887855
-0.2771287560 -0.1635166705 0.5739564300 4280756269
-0.2767741084 -0.1626705378 0.5732219219 4280690476
-0.2785259187 -0.1630592197 0.5768500566 4280756269
-0.2760636210 -0.1609824300 0.5717504025 4280690476
-0.2752861679 -0.1598956138 0.5701402426 4280690476
-0.2753514647 -0.1592999101 0.5702754855 4280756269
-0.2754165232 -0.1587037891 0.5704102516 4280690476
-0.2754813731 -0.1581072509 0.5705445409 4280690476
-0.2751240730 -0.1572690755 0.5698044896 4280690476
-0.2743442655 -0.1561920196 0.5681895018 4280690476
-0.2744081616 -0.1555969715 0.5683218837 4280690476
-0.2740496099 -0.1547630280 0.5675792694 4280559404
-0.2745353580 -0.1544056088 0.5685852766 4280559404
-0.2741761804 -0.1535726786 0.5678414106 4280559404
-0.2733940482 -0.1525054723 0.5662214756 4280559404
-0.2734566033 -0.1519111097 0.5663510561 4280559404
-0.2739416659 -0.1515502185 0.5673556924 4280559404
-0.2740038931 -0.1509541124 0.5674845576 4280559404
-0.2740658820 -0.1503576189 0.5676129460 4280559404
-0.2737046480 -0.1495295912 0.5668647885 4280559404
-0.2733429670 -0.1487030238 0.5661157370 4280559404
-0.2725576758 -0.1476486176 0.5644893050 4280559404
-0.2726184130 -0.1470541954 0.5646151304 4280559404
-0.2726789415 -0.1464593858 0.5647404790 4280493866
-0.2718922496 -0.1454111785 0.5631111860 4280493866
-0.2711049616 -0.1443662792 0.5614806414 4280428073
-0.2707407475 -0.1435493231 0.5607263446 4280428073
-0.2707999647 -0.1429575682 0.5608489513 4280493866
-0.2712827921 -0.1425882131 0.5618489385 4280428073
-0.2713416517 -0.1419947594 0.5619708300 4280428073
-0.2709762156 -0.1411799639 0.5612139702 4280428073
-0.2710345089 -0.1405866593 0.5613347292 4280428073
-0.2702441216 -0.1395548135 0.5596977472 4280428073
-0.2694531381 -0.1385263056 0.5580595732 4280362537
-0.2699348330 -0.1381528080 0.5590572357 4280362537
-0.2699919939 -0.1375607699 0.5591756105 4280428331
-0.2696243227 -0.1367530078 0.5584141016 4280428331
-0.2692562640 -0.1359467357 0.5576518178 4280428331
-0.2693125606 -0.1353554428 0.5577684641 4280428331
-0.2689437866 -0.1345512271 0.5570046902 4280362538
-0.2689995766 -0.1339601278 0.5571202040 4280362538
-0.2690551281 -0.1333686709 0.5572352409 4280362538
-0.2691104710 -0.1327768415 0.5573498607 4280362538
-0.2691655755 -0.1321846545 0.5574640036 4280427818
-0.2692204714 -0.1315920949 0.5575776696 4280427818
-0.2692751288 -0.1309991777 0.5576908588 4280493611
-0.2697550356 -0.1306119114 0.5586848259 4280559404
-0.2698093355 -0.1300173402 0.5587972999 4280493611
-0.2694377601 -0.1292182654 0.5580277443 4280493611
-0.2686400414 -0.1282175332 0.5563755631 4280493611
-0.2691192329 -0.1278269589 0.5573680401 4280427818
-0.2691724598 -0.1272328347 0.5574782491 4280427818
-0.2687994540 -0.1264379919 0.5567057729 4280493611
-0.2688521445 -0.1258441061 0.5568148494 4280427818
-0.2689045966 -0.1252498776 0.5569235086 4280427818
-0.2693830729 -0.1248528585 0.5579144359 4280493611
-0.2694351375 -0.1242569983 0.5580223203 4280493611
-0.2694869936 -0.1236607879 0.5581297278 4280493611
-0.2699651122 -0.1232589558 0.5591198802 4280559404
