VERSION 0.7
FIELDS x y z rgba
SIZE 4 4 4 4
TYPE F F F U
COUNT 1 1 1 1
WIDTH 920
HEIGHT 1
VIEWPOINT 0.0 0.0 0.0 1.0 0.0 0.0 0.0
POINTS 920
DATA ascii
-0.3454683423 -0.1473751217 0.6364378929 4280362027
-0.3478719592 -0.1476884633 0.6408659816 4280427820
-0.3498085439 -0.1477946192 0.6444336772 4280296234
-0.3508100808 -0.1474996954 0.6462786794 4280493611
-0.3513438106 -0.1470049620 0.6472619772 4280427818
-0.3509415984 -0.1461183429 0.6465210319 4280427818
-0.3505389392 -0.1452331841 0.6457791924 4280427818
-0.2902195156 -0.1196479648 0.5346559286 4280362025
-0.2841866910 -0.1165791303 0.5235419869 4280362025
-0.2814292610 -0.1148719341 0.5184621215 4280558890
-0.2805440128 -0.1139363572 0.5168312788 4280493097
-0.2801266015 -0.1131934598 0.5160623193 4280362280
-0.2783032358 -0.1118870229 0.5127032399 4280362280
-0.2797592282 -0.1118997410 0.5153855085 4280427818
-0.2784033418 -0.1107875481 0.5128875971 4280427818
-0.2784530222 -0.1102373749 0.5129791498 4280493611
-0.2794402242 -0.1100562140 0.5147978067 4280493611
-0.2780827880 -0.1089524031 0.5122970939 4280559659
-0.2781317234 -0.1084022745 0.5123872757 4280559659
-0.2786495388 -0.1080337241 0.5133411884 4280033315
-0.2782288790 -0.1073011458 0.5125662684 4280230694
-0.2782771289 -0.1067501530 0.5126550794 4279046678
-0.2787944674 -0.1063779593 0.5136082172 4283323223
-0.3779780865 -0.2181680351 0.6977565885 4279440923
-0.3780723512 -0.2174469829 0.6979305744 4279309337
-0.3777068555 -0.2164620608 0.6972558498 4280625197
-0.3778004348 -0.2157408148 0.6974286437 4281414713
-0.3774340749 -0.2147574574 0.6967523098 4281744193
-0.3775270283 -0.2140360177 0.6969239116 4281744193
-0.3776197135 -0.2133140415 0.6970950365 4281941572
-0.3767920136 -0.2120736539 0.6955670714 4282138951
-0.3768839538 -0.2113523930 0.6957367659 4282401869
-0.3760550320 -0.2101162225 0.6942065954 4282665041
-0.3752254248 -0.2088830769 0.6926750541 4282994006
-0.3739345670 -0.2073975056 0.6902921200 4283191385
-0.3184420466 -0.1746599376 0.5878516436 4283981673
-0.3212837279 -0.1755595803 0.5930974483 4284508017
-0.3325829506 -0.1796873808 0.6139560342 4285429119
-0.3358909488 -0.1807856858 0.6200627089 4287271323
-0.3382772505 -0.1813762337 0.6244679093 4292139487
-0.3847690523 -0.1771041304 0.7102928162 4284704876
-0.3843821585 -0.1761376709 0.7095786333 4279046165
-0.3825984597 -0.1745355725 0.7062858939 4279440923
-0.3808136880 -0.1729403138 0.7029911876 4279375130
-0.3776309490 -0.1707203835 0.6971157789 4279309337
-0.3371882439 -0.1517453492 0.6224575639 4279243544
-0.3349265158 -0.1500405371 0.6182823777 4279769888
-0.3340613246 -0.1489677727 0.6166852117 4280427818
-0.3336615264 -0.1481051296 0.6159471273 4282270022
-0.3337273598 -0.1474498510 0.6160686612 4284111712
-0.3342591226 -0.1469992101 0.6170502901 4285164400
-0.3352570832 -0.1467504501 0.6188925505 4286612362
-0.3367215097 -0.1467008293 0.6215959191 4287994015
-0.3386526704 -0.1468475908 0.6251609325 4288257187
-0.3363853097 -0.1451744586 0.6209753156 4286283397
-0.3415830433 -0.1467170566 0.6305704713 4280888371
-0.3444488347 -0.1472414881 0.6358608007 4280559406
-0.3463817835 -0.1473573148 0.6394290328 4280296234
-0.3487820625 -0.1476630569 0.6438599825 4280493613
-0.3497819304 -0.1473689526 0.6457058191 4280427818
-0.3503147960 -0.1468749344 0.6466894746 4280427818
-0.3499132097 -0.1459888667 0.6459481120 4280558890
-0.3495111465 -0.1451042593 0.6452059150 4280558890
-0.3481739461 -0.1438349634 0.6427374482 4280558890
-0.2841998041 -0.1168235466 0.5246396065 4280558890
-0.2814469337 -0.1151146740 0.5195577145 4280558890
-0.2805632055 -0.1141777709 0.5179263949 4280493097
-0.2796789110 -0.1132442653 0.5162939429 4280362280
-0.2787940502 -0.1123141497 0.5146604776 4280362280
-0.2783764899 -0.1115749627 0.5138896108 4280427818
-0.2784264684 -0.1110239252 0.5139818788 4280427818
-0.2784762084 -0.1104725897 0.5140737295 4280493611
-0.2780576050 -0.1097362190 0.5133010149 4280493611
-0.2785750031 -0.1093690321 0.5142561197 4280559659
-0.2781558037 -0.1086339355 0.5134822726 4280559659
-0.2786729038 -0.1082643121 0.5144368410 4280099108
-0.2782530487 -0.1075304896 0.5136618018 4280164901
-0.2778328061 -0.1067982316 0.5128859878 4279770401
-0.2783493996 -0.1064258888 0.5138396025 4282270535
-0.3747911751 -0.2190838903 0.6932948828 4291218131
-0.3877178133 -0.2258432955 0.7172068954 4285296504
-0.3859815300 -0.2240386307 0.7139950395 4278651411
-0.3842440546 -0.2222404033 0.7107810378 4279967271
-0.3825054169 -0.2204486281 0.7075648308 4279309341
-0.3821418285 -0.2194536775 0.7068923116 4280888373
-0.3822365999 -0.2187225074 0.7070676088 4281480510
-0.3809541762 -0.2172057182 0.7046954036 4281809986
-0.3805890083 -0.2162152827 0.7040198445 4281941572
-0.3802233338 -0.2152260840 0.7033433914 4282138951
-0.3798571527 -0.2142380923 0.7026660442 4282336330
-0.3794904649 -0.2132513374 0.7019878030 4282599248
-0.3782042265 -0.2117512226 0.6996084452 4282862420
-0.3773766756 -0.2105122805 0.6980776787 4283257178
-0.3774679601 -0.2097873986 0.6982464790 4283454557
-0.3766392171 -0.2085527033 0.6967135072 4283586145
-0.3187713027 -0.1758549064 0.5896684527 4283717731
-0.3292047381 -0.1789042354 0.6089683771 4285494912
-0.3371911049 -0.1818583310 0.6237416863 4289574078
-0.3818279505 -0.1761114746 0.7063116431 4287270290
-0.3814412951 -0.1751491725 0.7055964470 4279572509
-0.3801247478 -0.1737633795 0.7031610608 4279243544
-0.3788073361 -0.1723826081 0.7007240653 4279309337
-0.3765592873 -0.1705856621 0.6965656281 4279243544
-0.3710551262 -0.1673295945 0.6863839030 4279177751
-0.3381090462 -0.1517774463 0.6254397631 4279572509
-0.3349202275 -0.1496576220 0.6195409894 4280098339
-0.3340561390 -0.1485849321 0.6179425716 4281743164
-0.3336567581 -0.1477215290 0.6172037721 4283848540
-0.3337223530 -0.1470646858 0.6173251867 4285098607
-0.3342532516 -0.1466116607 0.6183071733 4286546828
-0.3347840309 -0.1461564004 0.6192891002 4287665309
-0.3376433253 -0.1467107236 0.6245782375 4287928222
-0.3400376141 -0.1470521986 0.6290072203 4287270292
-0.3428984284 -0.1475846320 0.6342991590 4282335817
-0.3452940285 -0.1479060352 0.6387306452 4280559406
-0.3472242057 -0.1480191797 0.6423010826 4280164648
-0.3463578224 -0.1469379812 0.6406984329 4280427820
-0.3487545550 -0.1472379863 0.6451319456 4280362025
-0.3492865264 -0.1467446983 0.6461160183 4280427818
-0.3488855660 -0.1458591670 0.6453742981 4280558890
-0.3484841287 -0.1449751109 0.6446316838 4280558890
-0.3471490145 -0.1437062025 0.6421620250 4280624682
-0.2851441503 -0.1174525544 0.5274643898 4280624682
-0.2819292247 -0.1155488566 0.5215173960 4280558889
-0.2805802822 -0.1144193262 0.5190221071 4280558889
-0.2796975374 -0.1134844869 0.5173891783 4280558889
-0.2783472240 -0.1123645231 0.5148912668 4280558889
-0.2783974707 -0.1118126288 0.5149842501 4280427818
-0.2789146900 -0.1114471108 0.5159410238 4280427818
-0.2780795097 -0.1099703237 0.5143960714 4280493611
-0.2781287432 -0.1094181761 0.5144872069 4280559659
-0.2781777680 -0.1088657230 0.5145778656 4280559659
-0.2777589560 -0.1081309468 0.5138031244 4280164901
-0.2778074443 -0.1075788513 0.5138928294 4280164901
-0.2778556943 -0.1070264652 0.5139820576 4280230952
-0.3782993257 -0.2215898484 0.7012250423 4291218131
-0.3783946931 -0.2208663970 0.7014018297 4283322714
-0.3775744438 -0.2196100205 0.6998813748 4278651411
-0.3772112727 -0.2186219096 0.6992082000 4280098857
-0.3745581210 -0.2163128108 0.6942902803 4279967271
-0.3741934001 -0.2153315097 0.6936141849 4281479740
-0.3742862940 -0.2146141231 0.6937863827 4281742912
-0.3743789196 -0.2138962001 0.6939581037 4281941572
-0.3744712770 -0.2131777555 0.6941292882 4282073158
-0.3745633960 -0.2124587595 0.6943000555 4282336076
-0.3746552169 -0.2117392570 0.6944702864 4282533455
-0.3742881119 -0.2107609212 0.6937897801 4282796627
-0.3734616935 -0.2095264196 0.6922579408 4283059799
-0.3735524118 -0.2088079751 0.6924260259 4283454557
-0.3731838167 -0.2078333646 0.6917428374 4283717729
-0.3718964756 -0.2063505054 0.6893565655 4283717731
-0.3219285607 -0.1779622883 0.5967348218 4284112489
-0.3265992701 -0.1798716187 0.6053925157 4284442224
-0.3243800104 -0.1779813170 0.6012788415 4284836982
-0.3290529847 -0.1798675954 0.6099408269 4285429119
-0.3314295113 -0.1804840714 0.6143459678 4286021256
-0.3338068724 -0.1810912192 0.6187527180 4286547600
-0.3380246758 -0.1826832294 0.6265709400 4291416282
-0.3780432045 -0.1739462316 0.7007503510 4281480506
-0.3767282963 -0.1725653261 0.6983129382 4279177751
-0.3744844198 -0.1707662344 0.6941536665 4279506716
-0.3713110387 -0.1685544401 0.6882714033 4279309337
-0.3741710782 -0.1690821201 0.6935728192 4279177751
-0.3353094757 -0.1501400322 0.6215380430 4279704095
-0.3344470263 -0.1490650624 0.6199393272 4281019955
-0.3335839212 -0.1479933560 0.6183394790 4283322710
-0.3331848979 -0.1471301168 0.6175998449 4284638570
-0.3337149918 -0.1466769129 0.6185824275 4286349449
-0.3342449665 -0.1462214738 0.6195648313 4287336344
-0.3347748816 -0.1457638294 0.6205470562 4287665309
-0.3366998732 -0.1459085494 0.6241152883 4287862688
-0.3390904665 -0.1462461352 0.6285465360 4284178021
-0.3414816558 -0.1465741545 0.6329789162 4280427820
-0.3438734710 -0.1468925774 0.6374124289 4280164648
-0.3471966982 -0.1475971192 0.6435724497 4280296234
-0.3481934071 -0.1473037153 0.6454200149 4280493097
-0.3477934301 -0.1464182138 0.6446785331 4280558890
-0.3469272852 -0.1453390867 0.6430730820 4280558890
-0.3460605443 -0.1442632675 0.6414664388 4280558890
-0.2864963412 -0.1188425198 0.5310567617 4280624682
-0.2818900049 -0.1163511947 0.5225183368 4280624682
-0.2796118259 -0.1148349941 0.5182954073 4280558889
-0.2791969478 -0.1140896082 0.5175264478 4280558889
-0.2783155143 -0.1131562218 0.5158925653 4280558889
-0.2783660591 -0.1126034707 0.5159862638 4280558889
-0.2779499888 -0.1118627340 0.5152150393 4280493611
-0.2784664333 -0.1114970669 0.5161722898 4280493611
-0.2780497372 -0.1107575819 0.5153999329 4280493611
-0.2776326537 -0.1100196615 0.5146268606 4280559404
-0.2781485915 -0.1096512526 0.5155831575 4280559659
-0.2777308822 -0.1089145988 0.5148088932 4280559659
-0.2777796388 -0.1083616316 0.5148992538 4280230694
-0.2782950997 -0.1079895571 0.5158547163 4280164901
-0.2774094343 -0.1070745587 0.5142130256 4280230439
-0.2779245079 -0.1067009792 0.5151678324 4280559404
-0.2775051594 -0.1059684604 0.5143904686 4288915628
-0.3735728562 -0.2192727327 0.6938924789 4289046964
-0.3722966909 -0.2177553475 0.6915220618 4281019959
-0.3719334006 -0.2167752832 0.6908473372 4279638306
-0.3724837005 -0.2163273096 0.6918694973 4280296236
-0.3725768328 -0.2156124860 0.6920424700 4281019959
-0.3722124398 -0.2146334350 0.6913655996 4281677119
-0.3718475401 -0.2136556208 0.6906878352 4281611326
-0.3719396591 -0.2129409611 0.6908589005 4282072904
-0.3724890947 -0.2124868035 0.6918795109 4282336076
-0.3725807965 -0.2117701918 0.6920498013 4282599248
-0.3717565536 -0.2105344981 0.6905188560 4282796627
-0.3718475103 -0.2098185867 0.6906877756 4282994006
-0.3710220754 -0.2085871249 0.6891545653 4283257178
-0.3698273599 -0.2063889951 0.6869354248 4283980901
-0.3245365620 -0.1804438680 0.6028100848 4283915110
-0.3236977160 -0.1793094277 0.6012519598 4284375661
-0.3260684013 -0.1799497306 0.6056554317 4284639603
-0.3275225461 -0.1800763011 0.6083564162 4285297533
-0.3303535581 -0.1809510738 0.6136149168 4285692291
-0.3327267170 -0.1815643013 0.6180229187 4286284428
-0.3351007402 -0.1821682006 0.6224325299 4287928998
-0.3765057623 -0.1735962033 0.6993402243 4284112739
-0.3751928508 -0.1722165495 0.6969015598 4279046678
-0.3752689660 -0.1714770198 0.6970429420 4279704608
-0.3702474833 -0.1684183925 0.6877158284 4279309850
-0.3643696904 -0.1642407477 0.6767981052 4279375130
-0.3352313638 -0.1504147202 0.6226751804 4279572509
-0.3339066803 -0.1491312534 0.6202146411 4280362025
-0.3330450356 -0.1480590999 0.6186141968 4282533194
-0.3326467276 -0.1471955031 0.6178743243 4283849054
-0.3331759870 -0.1467421204 0.6188574433 4284770417
-0.3332410753 -0.1460830569 0.6189783216 4286810000
-0.3337700963 -0.1456261426 0.6199609041 4288257700
-0.3352276385 -0.1455702484 0.6226682067 4288191907
-0.3371498585 -0.1457091570 0.6262386441 4285954432
-0.3395369649 -0.1460400969 0.6306725740 4280690992
-0.3419247270 -0.1463614553 0.6351076961 4280164646
-0.3443130851 -0.1466732174 0.6395439506 4280427818
-0.3457725346 -0.1465813369 0.6422548294 4280624683
-0.3467673957 -0.1462874413 0.6441027522 4280624683
-0.3463675678 -0.1454039514 0.6433600783 4280624682
-0.3455022573 -0.1443276703 0.6417528391 4280624682
-0.3451014459 -0.1434480250 0.6410083175 4280558889
-0.2939952612 -0.1215980276 0.5460812449 4280558889
-0.2824177444 -0.1162266657 0.5245765448 4280624682
-0.2796774507 -0.1145217195 0.5194866061 4280624682
-0.2783322036 -0.1133964658 0.5169878602 4280624683
-0.2783827782 -0.1128425524 0.5170817971 4280624683
-0.2779675126 -0.1121005714 0.5163105130 4280624682
-0.2775518596 -0.1113601476 0.5155384541 4280624682
-0.2780673802 -0.1109931171 0.5164959431 4280690475
-0.2776511014 -0.1102539450 0.5157227516 4280690475
-0.2777003646 -0.1097004041 0.5158142447 4280559404
-0.2777493894 -0.1091465652 0.5159053206 4280559404
-0.2777982056 -0.1085924357 0.5159959793 4280164646
-0.2778467536 -0.1080380157 0.5160862207 4279967267
-0.2774288356 -0.1073029637 0.5153099298 4280428073
-0.2774768770 -0.1067488939 0.5153990984 4279967522
-0.2775246799 -0.1061945409 0.5154879093 4286875787
-0.3709627986 -0.2158893943 0.6904689670 4280427822
-0.3697786629 -0.2136708200 0.6882648468 4281677889
-0.3695921302 -0.2074484527 0.6879177094 4283849317
-0.3687667251 -0.2062225193 0.6863813400 4284178282
-0.3674829304 -0.2047446519 0.6839919090 4284244075
-0.3268319368 -0.1814198792 0.6083286405 4284507247
-0.3282839954 -0.1815470010 0.6110313535 4284836982
-0.3306524158 -0.1821729839 0.6154396534 4285692291
-0.3307313323 -0.1815324873 0.6155865192 4285889415
-0.3335590959 -0.1823947877 0.6208497882 4286349966
-0.3359296322 -0.1829963177 0.6252620816 4289442237
-0.3718097806 -0.1710164994 0.6920453906 4279638814
-0.3737354577 -0.1711293310 0.6956295967 4279573021
-0.3696472943 -0.1684929579 0.6880203485 4279309849
-0.3650943935 -0.1656626463 0.6795461178 4279112471
-0.3647047877 -0.1647316366 0.6788209677 4279178264
-0.3360768557 -0.1511058062 0.6255360842 4279572509
-0.3333656192 -0.1491973996 0.6204897165 4280033060
-0.3325054348 -0.1481247842 0.6188886762 4281875264
-0.3321078122 -0.1472608447 0.6181485653 4283454296
-0.3326362967 -0.1468072832 0.6191322207 4282336330
-0.3327013254 -0.1461479515 0.6192532778 4285362808
-0.3327660859 -0.1454882324 0.6193737984 4288651945
-0.3337576985 -0.1452315450 0.6212194562 4288322980
-0.3356766403 -0.1453723758 0.6247912049 4287270292
-0.3380598128 -0.1457053423 0.6292269230 4281743680
-0.3399797380 -0.1458297521 0.6328005195 4279835681
-0.3423640132 -0.1461444348 0.6372383237 4280427818
-0.3438208997 -0.1460553110 0.6399500370 4280559404
-0.3452780545 -0.1459602565 0.6426621675 4280493611
-0.3448787332 -0.1450782418 0.6419189572 4280624682
-0.3444789946 -0.1441976875 0.6411749125 4280624682
-0.3440787792 -0.1433185935 0.6404299736 4280558889
-0.3427492678 -0.1420560032 0.6379553676 4280624682
-0.2828899622 -0.1166616753 0.5265399218 4280624682
-0.2796896994 -0.1147635058 0.5205833316 4280624682
-0.2783467770 -0.1136368364 0.5180837512 4280624683
-0.2779326141 -0.1128929853 0.5173128843 4280624683
-0.2779829502 -0.1123385504 0.5174065232 4280624682
-0.2771031559 -0.1114099547 0.5157690048 4280690475
-0.2772023082 -0.1103032902 0.5159535408 4280690475
-0.2772515416 -0.1097495183 0.5160451531 4280559404
-0.2773005366 -0.1091954485 0.5161364079 4280559404
-0.2773492932 -0.1086410880 0.5162271857 4280098853
-0.2773978412 -0.1080864370 0.5163174868 4280230439
-0.2774942219 -0.1069762632 0.5164968967 4280296487
-0.2775420547 -0.1064207405 0.5165859461 4284046688
-0.3690714538 -0.2182929367 0.6883715987 4290691787
-0.3691650033 -0.2175832540 0.6885461211 4282401869
-0.3692582846 -0.2168730199 0.6887201071 4279638563
-0.3693513274 -0.2161622643 0.6888936758 4280362286
-0.3694441319 -0.2154509574 0.6890667081 4281151545
-0.3695366383 -0.2147391289 0.6892392635 4281612096
-0.3691731393 -0.2137628496 0.6885612607 4281941061
-0.3692650199 -0.2130508274 0.6887326837 4282138440
-0.3684446514 -0.2118139714 0.6872025728 4282270283
-0.3699041307 -0.2118864506 0.6899246573 4282599248
-0.3699953556 -0.2111719549 0.6900948286 4282928213
-0.3691736162 -0.2099379152 0.6885622144 4283125592
-0.3692640960 -0.2092241347 0.6887309551 4283257178
-0.3684411645 -0.2079943568 0.6871960759 4283586143
-0.3671608865 -0.2065107226 0.6848081350 4284046696
-0.3658796549 -0.2050318867 0.6824184656 4284441454
-0.3266757131 -0.1823857725 0.6092974544 4284573040
-0.3281255066 -0.1825152189 0.6120015383 4284638833
-0.3291186094 -0.1823855788 0.6138537526 4285231740
-0.3319407701 -0.1832616478 0.6191174984 4285823877
-0.3320200443 -0.1826173514 0.6192653775 4286152587
-0.3343862593 -0.1832258701 0.6236786842 4286942103
-0.3372108340 -0.1840747893 0.6289469600 4291021269
-0.3730519116 -0.1719432920 0.6957957745 4281152053
-0.3722041547 -0.1707812250 0.6942145824 4279244056
-0.3704319298 -0.1692004055 0.6909090877 4279244056
-0.3681966960 -0.1674164087 0.6867401004 4279243544
-0.3641119599 -0.1648045629 0.6791214347 4279177751
-0.3396900594 -0.1530467719 0.6335710883 4279572509
-0.3342106044 -0.1498854160 0.6233510971 4279704095
-0.3324274719 -0.1483968347 0.6200252771 4281283382
-0.3320306242 -0.1475316137 0.6192851663 4283322965
-0.3320958912 -0.1468724012 0.6194068193 4281875266
-0.3321608603 -0.1462128013 0.6195280552 4283059540
-0.3322255611 -0.1455528140 0.6196487546 4287796636
-0.3327528238 -0.1450942308 0.6206321120 4288322980
-0.3342057467 -0.1450351924 0.6233420372 4287862427
-0.3361219168 -0.1451702118 0.6269159913 4283585882
-0.3385016024 -0.1454965025 0.6313544512 4279967267
-0.3404187262 -0.1456150860 0.6349301934 4280230439
-0.3423362970 -0.1457259059 0.6385067105 4280493611
-0.3433276415 -0.1454364061 0.6403556466 4280493611
-0.3429287672 -0.1445568055 0.6396117210 4280624682
-0.3425294757 -0.1436786503 0.6388669610 4280624682
-0.3425932825 -0.1429954618 0.6389860511 4280624682
-0.3417294919 -0.1419267505 0.6373748779 4280624682
-0.2838223279 -0.1172886416 0.5293697119 4280690475
-0.2796998620 -0.1150054187 0.5216807127 4280690475
-0.2783592343 -0.1138773412 0.5191802382 4280690476
-0.2770178616 -0.1127545163 0.5166783333 4280690476
-0.2766039371 -0.1120128334 0.5159063935 4280690475
-0.2766538262 -0.1114597172 0.5159993768 4280690475
-0.2767034769 -0.1109063104 0.5160920024 4280690475
-0.2767529190 -0.1103526056 0.5161842108 4280690475
-0.2768020928 -0.1097985953 0.5162759423 4280625197
-0.2763865590 -0.1090610027 0.5155009031 4280625197
-0.2768998146 -0.1086897105 0.5164581537 4279967267
-0.2769483030 -0.1081348211 0.5165486336 4280296232
-0.2765318155 -0.1073991433 0.5157718062 4280296487
-0.2770446241 -0.1070241854 0.5167282820 4280954417
-0.2770924270 -0.1064684317 0.5168174505 4281678140
-0.2771399915 -0.1059123874 0.5169061422 4290625988
-0.3671018481 -0.2175787091 0.6861193180 4287665309
-0.3667405248 -0.2166029960 0.6854440570 4279901735
-0.3668332994 -0.2158960104 0.6856174469 4280625458
-0.3669258058 -0.2151884884 0.6857903004 4280691251
-0.3670180440 -0.2144804448 0.6859627366 4282138440
-0.3671100438 -0.2137718648 0.6861346960 4281743682
-0.3667467535 -0.2127987295 0.6854556799 4282072647
-0.3668381274 -0.2120899558 0.6856264472 4282006854
-0.3673844635 -0.2116429210 0.6866475940 4282467662
-0.3647432625 -0.2093639374 0.6817111373 4282796627
-0.3675661385 -0.2102209777 0.6869871020 4283191385
-0.3672009706 -0.2092496008 0.6863046288 4283322971
-0.3672910333 -0.2085382044 0.6864729524 4283454557
-0.3664692044 -0.2073105872 0.6849369407 4283849315
-0.3651907742 -0.2058290094 0.6825475097 4284309868
-0.3634553552 -0.2040961534 0.6793040037 4284704626
-0.3288767636 -0.1839957833 0.6146760583 4284770419
-0.3289561272 -0.1833570898 0.6148244143 4284902005
-0.3326861560 -0.1847452968 0.6217958927 4285758084
-0.3332223892 -0.1843511164 0.6227981448 4285823877
-0.3355849385 -0.1849612743 0.6272137165 4286415759
-0.3379483223 -0.1855620891 0.6316309571 4287863205
-0.3366581798 -0.1841545850 0.6292196512 4292337129
-0.3710606098 -0.1713805050 0.6935184002 4283323222
-0.3702140152 -0.1702206880 0.6919360757 4279112213
-0.3689056039 -0.1688530296 0.6894906163 4279375385
-0.3671351075 -0.1672802567 0.6861815453 4279375130
-0.3662862480 -0.1661328375 0.6845949888 4279111958
-0.3345222175 -0.1510312706 0.6252275109 4279506971
-0.3327428401 -0.1495369375 0.6219018102 4279243799
-0.3314240873 -0.1482560337 0.6194370389 4280493866
-0.3314895332 -0.1475969404 0.6195594072 4282796621
-0.3315547407 -0.1469374597 0.6196812391 4282993747
-0.3316196799 -0.1462775916 0.6198025942 4281283129
-0.3321462870 -0.1458201557 0.6207868457 4286546567
-0.3331348598 -0.1455623657 0.6226345301 4288388771
-0.3345856667 -0.1455014795 0.6253461242 4287994013
-0.3369611800 -0.1458347887 0.6297859550 4285230707
-0.3388749957 -0.1459593624 0.6333629489 4280493611
-0.3407892585 -0.1460761726 0.6369406581 4280230439
-0.3380790353 -0.1442124099 0.6318752766 4280427818
-0.3418435752 -0.1451083571 0.6389112473 4280427818
-0.3414452374 -0.1442302167 0.6381667256 4280493611
-0.3415092230 -0.1435480565 0.6382862926 4280493611
-0.3415729105 -0.1428655237 0.6384053826 4280559659
-0.3411734104 -0.1419899315 0.6376586556 4280559659
-0.2852125466 -0.1181078106 0.5330669284 4280624682
-0.2801710069 -0.1154382750 0.5236441493 4280690475
-0.2779063880 -0.1139280945 0.5194116235 4280690476
-0.2770305276 -0.1129937395 0.5177745819 4280690476
-0.2766174078 -0.1122508198 0.5170024633 4280690475
-0.2771307826 -0.1118836477 0.5179619789 4280690475
-0.2762535214 -0.1109558120 0.5163223743 4280690475
-0.2763029337 -0.1104018763 0.5164147019 4280690475
-0.2763520777 -0.1098476425 0.5165065527 4280625197
-0.2759372592 -0.1091097370 0.5157312155 4280625197
-0.2759858668 -0.1085558459 0.5158221126 4280098853
-0.2760342360 -0.1080016568 0.5159125328 4280098853
-0.2760823965 -0.1074471846 0.5160025358 4280691245
-0.2761303186 -0.1068924218 0.5160921216 4281020210
-0.2766421735 -0.1065160856 0.5170487761 4280691245
-0.2766897082 -0.1059598178 0.5171376467 4288257440
-0.3650429547 -0.2175681293 0.6836905479 4290626766
-0.3651359379 -0.2168637216 0.6838646531 4283454557
-0.3634138703 -0.2150846869 0.6806393862 4279441184
-0.3648672998 -0.2151856422 0.6833615303 4279967528
-0.3649593890 -0.2144805044 0.6835340261 4281283388
-0.3650512397 -0.2137748301 0.6837060452 4282204233
-0.3651428223 -0.2130686194 0.6838775277 4282401612
-0.3652341366 -0.2123618871 0.6840485930 4282598989
-0.3653252125 -0.2116546184 0.6842191219 4282664782
-0.3654160202 -0.2109468132 0.6843891740 4282402123
-0.3659611642 -0.2104999870 0.6854102015 4282862674
-0.3651421070 -0.2092690319 0.6838762164 4283191385
-0.3656868637 -0.2088202685 0.6848964691 4283388764
-0.3648667336 -0.2075926811 0.6833604574 4283717731
-0.3645009696 -0.2066260725 0.6826754212 4284046696
-0.3627691865 -0.2048894912 0.6794319749 4284375662
-0.3601257205 -0.2026470751 0.6744809747 4284770420
-0.3278803527 -0.1838199198 0.6140885353 4284310385
-0.3293260634 -0.1839451194 0.6167961955 4284902522
-0.3303165734 -0.1838110089 0.6186513305 4285297278
-0.3340415955 -0.1851887554 0.6256279349 4286152587
-0.3382239640 -0.1868035942 0.6334611177 4286087049
-0.3369368017 -0.1853915304 0.6310503483 4289179320
-0.3682276011 -0.1696595401 0.6896550655 4279835936
-0.3673814833 -0.1685052067 0.6880703568 4279835936
-0.3628509641 -0.1656721383 0.6795850992 4279309592
-0.3573971689 -0.1624383032 0.6693706512 4279375385
-0.3358179033 -0.1519316435 0.6289547682 4279308822
-0.3317381442 -0.1493955404 0.6213137507 4279177236
-0.3327256739 -0.1491478831 0.6231633425 4279703580
-0.3314086497 -0.1478678882 0.6206967235 4281545784
-0.3314739168 -0.1472072154 0.6208189130 4282861644
-0.3310777545 -0.1463423520 0.6200769544 4279900959
-0.3316035867 -0.1458847225 0.6210617423 4284572777
-0.3316680193 -0.1452228874 0.6211824417 4287599255
-0.3321935833 -0.1447617412 0.6221667528 4287599255
-0.3341034353 -0.1448987573 0.6257437468 4287138704
-0.3355521858 -0.1448288113 0.6284571290 4281809726
-0.3393094242 -0.1457444131 0.6354940534 4280691245
-0.3402973711 -0.1454606354 0.6373444200 4280625452
-0.3403617740 -0.1447798908 0.6374650002 4280428073
-0.3404258788 -0.1440987587 0.6375851035 4280625197
-0.3404897153 -0.1434172541 0.6377046704 4280427818
-0.3400911987 -0.1425416768 0.6369582415 4280427818
-0.2875206172 -0.1193112656 0.5384985805 4280428073
-0.2811008394 -0.1160623208 0.5264749527 4280625452
-0.2779153883 -0.1141687781 0.5205088854 4280624682
-0.2770410776 -0.1132330969 0.5188713670 4280558889
-0.2761661708 -0.1123008281 0.5172327757 4280690476
-0.2757533789 -0.1115591452 0.5164597034 4280822062
-0.2758523226 -0.1104511097 0.5166450143 4280625197
-0.2759014368 -0.1098966524 0.5167369843 4280625452
-0.2759503424 -0.1093418896 0.5168285370 4280625452
-0.2759990096 -0.1087868363 0.5169196725 4280559659
-0.2760474384 -0.1082314923 0.5170103908 4280625452
-0.2760956287 -0.1076758504 0.5171006918 4280954417
-0.2761436105 -0.1071199253 0.5171905160 4281217589
-0.2761913240 -0.1065637097 0.5172799230 4280296487
-0.2767023146 -0.1061850637 0.5182369947 4285230962
-0.2776768208 -0.1059812009 0.5200620890 4293060327
-0.3626284897 -0.2165796161 0.6805841923 4288060069
-0.3627209365 -0.2158784568 0.6807577014 4281151802
-0.3628131151 -0.2151767462 0.6809306741 4280099114
-0.3619989157 -0.2139390111 0.6794025898 4280230443
-0.3634499013 -0.2140386403 0.6821258068 4281414717
-0.3630881608 -0.2130684555 0.6814468503 4282401612
-0.3631793261 -0.2123646289 0.6816179752 4282270026
-0.3632702231 -0.2116602659 0.6817885637 4282795600
-0.3633608818 -0.2109553814 0.6819587350 4282729807
-0.3639050126 -0.2105124593 0.6829800010 4282731088
-0.3639952540 -0.2098056376 0.6831493378 4283125846
-0.3631772995 -0.2085768431 0.6816142201 4283388764
-0.3628127277 -0.2076109052 0.6809299588 4283586143
-0.3610850871 -0.2058693469 0.6776875257 4284046696
-0.3602648973 -0.2046504766 0.6761481762 4284375661
-0.3553542793 -0.2011199445 0.6669318676 4284704627
-0.3290781379 -0.1855622232 0.6176165938 4285099385
-0.3277940452 -0.1841545999 0.6152065992 4284507762
-0.3292375505 -0.1842790097 0.6179157495 4285165692
-0.3306814730 -0.1843976378 0.6206257343 4285626243
-0.3325807750 -0.1847632229 0.6241903305 4286086794
-0.3344807029 -0.1851212382 0.6277561784 4286613391
-0.3386571705 -0.1867265552 0.6355946064 4290560971
-0.3662449121 -0.1690977812 0.6873714924 4281086003
-0.3653999865 -0.1679457128 0.6857857704 4279572764
-0.3636349738 -0.1663762033 0.6824731231 4279638557
-0.3618689179 -0.1648135781 0.6791585684 4279243799
-0.3568825126 -0.1617983282 0.6698001027 4279177236
-0.3376340866 -0.1523676813 0.6336744428 4279243029
-0.3326402605 -0.1494204253 0.6243020296 4279571994
-0.3313255608 -0.1481389552 0.6218345761 4281085233
-0.3309305608 -0.1472722739 0.6210932732 4282861644
-0.3305351436 -0.1464070529 0.6203511357 4280624682
-0.3305996954 -0.1457462609 0.6204723120 4282467401
-0.3306640089 -0.1450850815 0.6205929518 4287138704
-0.3311886787 -0.1446246654 0.6215776205 4287665048
-0.3326346576 -0.1445624828 0.6242914796 4287599255
-0.3340809047 -0.1444943696 0.6270058155 4283059793
-0.3359883130 -0.1446187198 0.6305856705 4280493866
-0.3378961384 -0.1447352916 0.6341663003 4280691245
-0.3388822675 -0.1444510370 0.6360170841 4280559659
-0.3389461637 -0.1437714845 0.6361370087 4280625197
-0.3390097916 -0.1430915296 0.6362563968 4280493611
-0.3390731215 -0.1424112171 0.6363752484 4280427818
-0.3391361833 -0.1417305022 0.6364936233 4280493611
-0.3387374580 -0.1408575177 0.6357452869 4280493866
-0.2829486728 -0.1170687899 0.5310404301 4280691245
-0.2788455784 -0.1147896871 0.5233397484 4280624683
-0.2775112391 -0.1136617064 0.5208353996 4280624683
-0.2770998180 -0.1129153743 0.5200632811 4280690476
-0.2766880095 -0.1121705994 0.5192903876 4280822062
-0.2758138180 -0.1112410426 0.5176496506 4280625197
-0.2754011154 -0.1105003133 0.5168751478 4280625197
-0.2754501998 -0.1099456176 0.5169672370 4280691245
-0.2754990757 -0.1093906313 0.5170589685 4280691245
-0.2755476832 -0.1088353470 0.5171502233 4280559659
-0.2755960822 -0.1082797721 0.5172410607 4280822831
-0.2756442428 -0.1077238992 0.5173314214 4280756783
-0.2756921947 -0.1071677431 0.5174213648 4281085748
-0.2757398784 -0.1066112965 0.5175108910 4280690990
-0.2762500942 -0.1062325016 0.5184684396 4283059538
-0.2781486511 -0.1063825786 0.5220316648 4291152332
-0.3610308170 -0.2168302238 0.6790010333 4292007649
-0.3611232042 -0.2161311060 0.6791747808 4284836212
-0.3612153232 -0.2154314369 0.6793480515 4279901478
-0.3613072038 -0.2147312462 0.6795208454 4280690994
-0.3613988459 -0.2140305042 0.6796931624 4280756787
-0.3614902198 -0.2133292407 0.6798650026 4281743682
-0.3611287773 -0.2123613358 0.6791852713 4282598221
-0.3612195253 -0.2116598785 0.6793559790 4282400842
-0.3613100350 -0.2109579146 0.6795261502 4282927186
-0.3614002764 -0.2102554142 0.6796959043 4282992979
-0.3619432449 -0.2098149806 0.6807171106 4282928467
-0.3615799844 -0.2088488340 0.6800338626 4283257432
-0.3612162471 -0.2078839242 0.6793497801 4283454557
-0.3603986800 -0.2066603005 0.6778121591 4283717729
-0.3591269553 -0.2051806450 0.6754204035 4284178282
-0.3279197514 -0.1866657287 0.6167280674 4284507247
-0.3552197814 -0.2014637887 0.6680720448 4284836213
-0.3294410706 -0.1861549318 0.6195893288 4285230971
-0.3281593919 -0.1847449690 0.6171787977 4284770934
-0.3296008110 -0.1848676950 0.6198896766 4285297278
-0.3310426176 -0.1849846393 0.6226013899 4285889670
-0.3329390585 -0.1853486449 0.6261680722 4286021256
-0.3348361552 -0.1857050657 0.6297359467 4287534493
-0.3362794220 -0.1858028322 0.6324503422 4292008417
-0.3633484244 -0.1681108922 0.6833598018 4283520344
-0.3620456159 -0.1667515785 0.6809095740 4279572764
-0.3598965108 -0.1642576456 0.6768677235 4279375385
-0.3553772569 -0.1614524424 0.6683682203 4279177236
-0.3467227817 -0.1567960680 0.6520915031 4279440408
-0.3330119252 -0.1498998404 0.6263051033 4279571994
-0.3312402070 -0.1484101713 0.6229729652 4280624682
-0.3303865194 -0.1473372877 0.6213673949 4282730058
-0.3299917877 -0.1464716941 0.6206250787 4281808956
-0.3300563097 -0.1458106488 0.6207463741 4280887855
-0.3301205635 -0.1451492012 0.6208672523 4286282881
-0.3297246695 -0.1442861408 0.6201226711 4287796120
-0.3311681747 -0.1442257911 0.6228374839 4288059292
-0.3330719769 -0.1443589032 0.6264180541 4284836204
-0.3345160782 -0.1442857981 0.6291339993 4280625452
-0.3364206553 -0.1444042921 0.6327160001 4280625452
-0.3374050558 -0.1441217810 0.6345673800 4280691245
-0.3379290998 -0.1436394900 0.6355530024 4280625197
-0.3379926085 -0.1429601908 0.6356723905 4280625197
-0.3380557895 -0.1422805190 0.6357912421 4280559404
-0.3381187320 -0.1416004598 0.6359096169 4280427818
-0.3381813765 -0.1409200281 0.6360274553 4280559659
-0.3364004493 -0.1394749731 0.6326780319 4280625452
-0.2793097198 -0.1152209342 0.5253058076 4280690476
-0.2779777944 -0.1140906140 0.5228008032 4280690476
-0.2766450942 -0.1129655540 0.5202944279 4280756269
-0.2762340307 -0.1122204661 0.5195212364 4280822062
-0.2762837708 -0.1116633490 0.5196148157 4280625197
-0.2754106522 -0.1107349619 0.5179727077 4280690990
-0.2749983668 -0.1099945530 0.5171973705 4280690990
-0.2750471830 -0.1094393358 0.5172891617 4280690990
-0.2750957906 -0.1088838205 0.5173805356 4280493611
-0.2751441300 -0.1083280146 0.5174714923 4280625197
-0.2751922607 -0.1077719182 0.5175620317 4280559404
-0.2757019699 -0.1073954180 0.5185206532 4280954162
-0.2757497132 -0.1068378016 0.5186104178 4281217334
-0.2762592137 -0.1064579189 0.5195686221 4281151541
-0.2772306800 -0.1062529683 0.5213956833 4289112749
-0.3590769470 -0.2161081880 0.6767399907 4289968064
-0.3591689169 -0.2154114395 0.6769132614 4281743939
-0.3592606187 -0.2147141546 0.6770861149 4280230443
-0.3593520820 -0.2140163332 0.6772584915 4280493615
-0.3594433069 -0.2133179754 0.6774303913 4281348154
-0.3595342636 -0.2126190960 0.6776018143 4282269256
-0.3596249521 -0.2119196802 0.6777727604 4282400842
-0.3597154021 -0.2112197429 0.6779432297 4282664014
-0.3593536019 -0.2102547884 0.6772613525 4282795087
-0.3594434261 -0.2095546722 0.6774306297 4283255638
-0.3599852324 -0.2091167420 0.6784517765 4282928467
-0.3596222997 -0.2081528753 0.6777678132 4283257432
-0.3592589200 -0.2071902454 0.6770828962 4283520350
-0.3588950336 -0.2062288672 0.6763970852 4283783522
-0.3580779731 -0.2050095499 0.6748571992 4284178283
-0.3554489911 -0.2027600855 0.6699025035 4284507248
-0.3270024657 -0.1858484894 0.6162902713 4284902006
-0.3293472826 -0.1864914894 0.6207094789 4285296764
-0.3289741874 -0.1855913401 0.6200063229 4284902520
-0.3299603462 -0.1854567528 0.6218649149 4285494657
-0.3327601254 -0.1863335818 0.6271415353 4286021256
-0.3314798176 -0.1849225461 0.6247285604 4286350221
-0.3347342908 -0.1860371828 0.6308621764 4288850353
-0.3618327677 -0.1677600592 0.6819337606 4285954685
-0.3610631526 -0.1658911109 0.6804832816 4279967522
-0.3593027592 -0.1643299162 0.6771655679 4279441178
-0.3557078242 -0.1619408876 0.6703902483 4279243029
-0.3493602276 -0.1583195031 0.6584271789 4279374615
-0.3338384330 -0.1505864263 0.6291737556 4279637785
-0.3302353024 -0.1482696384 0.6223831177 4279900957
-0.3298417330 -0.1474022418 0.6216413975 4282203715
-0.3294477165 -0.1465363055 0.6208987832 4282795852
-0.3295122087 -0.1458749771 0.6210203171 4280953648
-0.3291173875 -0.1450110227 0.6202762127 4284506470
-0.3300994337 -0.1447525024 0.6221270561 4287467155
-0.3315407932 -0.1446903050 0.6248435378 4287993499
-0.3329823911 -0.1446221769 0.6275604963 4286414467
-0.3312086463 -0.1431582570 0.6242175698 4281479992
-0.3349474669 -0.1440729052 0.6312639713 4280296232
-0.3359301090 -0.1437921375 0.6331159472 4280822576
-0.3369128406 -0.1435072869 0.6349680424 4280625197
-0.3369762003 -0.1428286433 0.6350874305 4280625197
-0.3370392621 -0.1421496123 0.6352062821 4280690990
-0.3375619352 -0.1416632086 0.6361913681 4280493611
-0.3376245499 -0.1409824938 0.6363093853 4280559404
-0.3358466029 -0.1395368129 0.6329585314 4280493611
-0.2816108167 -0.1164133549 0.5307422280 4280690476
-0.2779804468 -0.1143305302 0.5239001513 4280690476
-0.2766501009 -0.1132040620 0.5213928819 4280756269
-0.2762398124 -0.1124577299 0.5206196308 4280822062
-0.2758291364 -0.1117129549 0.5198456645 4280690990
-0.2754180431 -0.1109697372 0.5190709233 4280690990
-0.2750065923 -0.1102280915 0.5182954073 4280690990
-0.2745947242 -0.1094880030 0.5175191760 4280690990
-0.2746432722 -0.1089322567 0.5176107287 4280296232
-0.2746915817 -0.1083762199 0.5177017450 4280362025
-0.2747396827 -0.1078198925 0.5177924037 4280559404
-0.2752485871 -0.1074432433 0.5187515616 4280954162
-0.2752963006 -0.1068853959 0.5188414454 4281348920
-0.2758049965 -0.1065053642 0.5198001862 4280625197
-0.2767749131 -0.1063003391 0.5216281414 4286941580
-0.3565848172 -0.2158067375 0.6734528542 4292600554
-0.3571268320 -0.2153853774 0.6744765043 4286612621
-0.3572183847 -0.2146909982 0.6746494174 4279506977
-0.3573096693 -0.2139960974 0.6748217940 4280625201
-0.3574007154 -0.2133006603 0.6749937534 4280493615
-0.3574915230 -0.2126046866 0.6751652360 4281348924
-0.3575820625 -0.2119081765 0.6753362417 4282204233
-0.3576723337 -0.2112111598 0.6755067110 4282269256
-0.3577623665 -0.2105135918 0.6756767631 4282664014
-0.3574008942 -0.2095509320 0.6749940515 4282466635
-0.3574903011 -0.2088532001 0.6751629710 4283124565
-0.3575794697 -0.2081549466 0.6753313541 4283060053
-0.3576683700 -0.2074561715 0.6754992604 4283389018
-0.3568536043 -0.2062347680 0.6739604473 4283651936
-0.3560381234 -0.2050163746 0.6724203229 4283980901
-0.3552219570 -0.2038010061 0.6708788872 4284375661
-0.3516927958 -0.2010382414 0.6642136574 4284704626
-0.3327882588 -0.1895335019 0.6285101771 4285033592
-0.3287990093 -0.1865715683 0.6209760308 4285428350
-0.3297837377 -0.1864383221 0.6228358150 4285099899
-0.3316736221 -0.1868107617 0.6264051199 4285823622
-0.3303959966 -0.1853978336 0.6239920855 4286152842
-0.3331917822 -0.1862675101 0.6292723417 4286810772
-0.3350830376 -0.1866216511 0.6328441501 4290297797
-0.3612338603 -0.1678337008 0.6822330952 4288257440
-0.3603926301 -0.1666866094 0.6806443334 4280757038
-0.3595507741 -0.1655427665 0.6790543795 4279441178
-0.3587082326 -0.1644021422 0.6774631739 4279638557
-0.3551192880 -0.1620120853 0.6706849933 4279506201
-0.3501554430 -0.1590127051 0.6613101363 4279374615
-0.3346596360 -0.1512735039 0.6320444942 4279703580
-0.3310628235 -0.1489529759 0.6252514720 4279374615
-0.3297542334 -0.1476722509 0.6227800846 4281479992
-0.3293610215 -0.1468050331 0.6220374703 4282664266
-0.3294255435 -0.1461425275 0.6221593022 4281743164
-0.3290315270 -0.1452772915 0.6214151382 4282137922
-0.3286370635 -0.1444135159 0.6206701398 4286480260
-0.3296174705 -0.1441526711 0.6225217581 4287730327
-0.3319735229 -0.1444864422 0.6269714832 4287335569
-0.3334129751 -0.1444133222 0.6296900511 4282795852
-0.3348526955 -0.1443342566 0.6324090958 4280098339
-0.3358338475 -0.1440524608 0.6342621446 4280953648
-0.3358973563 -0.1433748603 0.6343820691 4280690990
-0.3359605670 -0.1426968575 0.6345014572 4280559404
-0.3364825547 -0.1422124952 0.6354873180 4280690990
-0.3365452886 -0.1415328085 0.6356058121 4280559404
-0.3347708881 -0.1400841177 0.6322546005 4280625197
-0.2783383131 -0.1158859730 0.5256749988 4280559404
-0.2848209441 -0.1179873422 0.5379182100 4280690476
-0.2770620286 -0.1141918302 0.5232645869 4280690476
-0.2761934102 -0.1132542565 0.5216240883 4280756269
-0.2753241956 -0.1123200953 0.5199824572 4280822062
-0.2749141455 -0.1115759388 0.5192080736 4280756783
-0.2745037079 -0.1108333394 0.5184329152 4280756783
-0.2736330032 -0.1099075899 0.5167884231 4280690990
-0.2741416395 -0.1095366329 0.5177490711 4280690990
-0.2751102448 -0.1093463674 0.5195783973 4280362025
-0.2742384374 -0.1084243953 0.5179318786 4280362025
-0.2742864788 -0.1078678295 0.5180226564 4280625452
-0.2747946084 -0.1074910313 0.5189822912 4280757038
-0.2748422623 -0.1069329530 0.5190722942 4281151796
-0.2753501832 -0.1065527648 0.5200315118 4280691245
-0.2763185203 -0.1063476652 0.5218603611 4284178274
-0.2772869468 -0.1061385348 0.5236893892 4292073434
-0.3546396494 -0.2150806636 0.6711870432 4291087315
-0.3551805019 -0.2146618068 0.6722106338 4282994006
-0.3548218906 -0.2136989534 0.6715319753 4279309598
-0.3553624749 -0.2132772803 0.6725550890 4280362286
-0.3550031483 -0.2123151273 0.6718750000 4280888630
-0.3555434644 -0.2118906379 0.6728976369 4281414717
-0.3560837805 -0.2114638537 0.6739201546 4282006854
-0.3557234704 -0.2105018646 0.6732382774 4282335049
-0.3558130860 -0.2098066956 0.6734079123 4282532428
-0.3554519415 -0.2088463157 0.6727244258 4282532428
-0.3555409610 -0.2081509680 0.6728928685 4283058772
-0.3556297123 -0.2074551135 0.6730608344 4283060053
-0.3552673757 -0.2064966857 0.6723750830 4283389018
-0.3544535935 -0.2052783370 0.6708348989 4283717729
-0.3531880379 -0.2038027197 0.6684397459 4284046694
-0.3505680263 -0.2015536875 0.6634811163 4284507247
-0.3312485814 -0.1897497326 0.6269173622 4284836212
-0.3272671103 -0.1867808402 0.6193820834 4285165178
-0.3314912915 -0.1877975911 0.6273767352 4285297278
-0.3315717280 -0.1871459186 0.6275289655 4286086794
-0.3330074549 -0.1872560233 0.6302461624 4286087049
-0.3344435692 -0.1873603016 0.6329641342 4287402909
-0.3331677318 -0.1859449893 0.6305495501 4291547864
-0.3584246337 -0.1661248505 0.6783504486 4282730828
-0.3580406308 -0.1651939750 0.6776236892 4278980627
-0.3571993709 -0.1640547216 0.6760315299 4279572764
-0.3540731370 -0.1618743539 0.6701148748 4279703580
-0.3504883647 -0.1594984680 0.6633303761 4279440408
-0.3391319811 -0.1536173373 0.6418373585 4279769373
-0.3314279020 -0.1494306773 0.6272567511 4279571994
-0.3296644986 -0.1479423940 0.6239193678 4281216820
-0.3292720914 -0.1470738947 0.6231766939 4281940543
-0.3288792074 -0.1462068558 0.6224331260 4281874750
-0.3284859061 -0.1453412622 0.6216887832 4280361511
-0.3280921578 -0.1444771290 0.6209435463 4284967021
-0.3290709853 -0.1442161947 0.6227961183 4287072397
-0.3300499022 -0.1439511776 0.6246488094 4287532948
-0.3310289085 -0.1436820924 0.6265016198 4284440677
-0.3324659467 -0.1436067075 0.6292213202 4280229925
-0.3339032233 -0.1435254067 0.6319414973 4280756269
-0.3348826468 -0.1432422101 0.6337951422 4280822062
-0.3354039192 -0.1427598894 0.6347817183 4280756269
-0.3354668021 -0.1420812309 0.6349007487 4280690990
-0.3359878063 -0.1415953785 0.6358867288 4280690990
-0.3360502124 -0.1409150362 0.6360048652 4280690990
-0.3338196278 -0.1392777413 0.6317833066 4280559404
-0.3315879405 -0.1376493573 0.6275596619 4280690476
-0.2798142433 -0.1155685708 0.5295733213 4280756269
-0.2771124840 -0.1138699874 0.5244600177 4280756269
-0.2757861316 -0.1127450466 0.5219497681 4280822062
-0.2767538726 -0.1125587076 0.5237812996 4280756783
-0.2745083869 -0.1110682115 0.5195314884 4280756783
-0.2745575011 -0.1105107367 0.5196244717 4280690990
-0.2741471529 -0.1097690985 0.5188478231 4280625197
-0.2737364173 -0.1090290248 0.5180705190 4280362025
-0.2737846673 -0.1084725261 0.5181618333 4280427818
-0.2738326788 -0.1079157367 0.5182526708 4280493866
-0.2743400037 -0.1075387821 0.5192128420 4280559659
-0.2743876576 -0.1069804728 0.5193029642 4281020210
-0.2753544152 -0.1067783982 0.5211327076 4280954417
-0.2758615315 -0.1063949615 0.5220924616 4281941312
-0.2768284082 -0.1061857492 0.5239223242 4290560195
-0.3526982367 -0.2143538296 0.6689188480 4288191653
-0.3532378972 -0.2139374614 0.6699423790 4280625458
-0.3528796434 -0.2129768729 0.6692628860 4280033321
-0.3529699743 -0.2122876048 0.6694341898 4280427822
-0.3535092473 -0.2118670195 0.6704570055 4281283131
-0.3535992205 -0.2111758143 0.6706275940 4281612094
-0.3541383147 -0.2107515484 0.6716500521 4281875266
-0.3537783623 -0.2097918391 0.6709674001 4282203461
-0.3538675904 -0.2090990543 0.6711366177 4282400840
-0.3535067737 -0.2081409395 0.6704522967 4282664012
-0.3535953760 -0.2074480057 0.6706203222 4283058770
-0.3536837101 -0.2067545354 0.6707878709 4282928465
-0.3528716266 -0.2055362165 0.6692476869 4283257430
-0.3516086340 -0.2040596455 0.6668523550 4283586397
-0.3503447175 -0.2025878727 0.6644552350 4283981155
-0.3459269106 -0.1993042976 0.6560764909 4284441454
-0.3284410536 -0.1885378063 0.6229133010 4284836212
-0.3285215795 -0.1878917664 0.6230660081 4285230971
-0.3277003765 -0.1867315471 0.6215084791 4285691522
-0.3282310665 -0.1863422841 0.6225150228 4285494657
-0.3296636939 -0.1864609420 0.6252321005 4285955208
-0.3315478265 -0.1868279725 0.6288055182 4286021256
-0.3338837922 -0.1874407232 0.6332358122 4288587183
-0.3569162190 -0.1657741815 0.6769185662 4285230707
-0.3565327227 -0.1648447812 0.6761912704 4279178006
-0.3556927741 -0.1637068838 0.6745981574 4279506971
-0.3530277014 -0.1617363840 0.6695436835 4279571994
-0.3499050736 -0.1595684439 0.6636213660 4279374615
-0.3422179818 -0.1553417444 0.6490422487 4279506201
-0.3327019811 -0.1503210962 0.6309944391 4280295717
-0.3300289810 -0.1484179497 0.6259248853 4281479992
-0.3291808963 -0.1473428905 0.6243164539 4281611578
-0.3287888467 -0.1464745700 0.6235728264 4281611578
-0.3283963203 -0.1456076950 0.6228284240 4280493097
-0.3280033767 -0.1447422802 0.6220831871 4283453782
-0.3285238147 -0.1442796737 0.6230701804 4286019709
-0.3290441632 -0.1438148171 0.6240570545 4287072397
-0.3304785788 -0.1437453777 0.6267775893 4285756537
-0.3319132924 -0.1436699927 0.6294986010 4281085234
-0.3328909576 -0.1433917135 0.6313528419 4280690476
-0.3343260586 -0.1433053762 0.6340746284 4280756269
-0.3343890905 -0.1426277608 0.6341941953 4280887855
-0.3349093795 -0.1421439350 0.6351809502 4280822062
-0.3349719346 -0.1414646357 0.6352995634 4280822062
-0.3350342214 -0.1407849342 0.6354176998 4280625197
-0.3332650959 -0.1393392682 0.6320624352 4280559404
-0.3310371637 -0.1377101839 0.6278370023 4280690222
-0.2811813056 -0.1163778305 0.5332816243 4280756015
-0.2775683701 -0.1142975688 0.5264293551 4280822062
-0.2757863104 -0.1129826084 0.5230495334 4280822062
-0.2762943506 -0.1126085296 0.5240131021 4280690990
-0.2745109200 -0.1113032028 0.5206307173 4280690990
-0.2745600939 -0.1107445657 0.5207239389 4280625197
-0.2741505504 -0.1100016832 0.5199472308 4280625197
-0.2737406194 -0.1092603654 0.5191697478 4280296232
-0.2737889290 -0.1087027043 0.5192613602 4280296232
-0.2742956579 -0.1083258986 0.5202224255 4280427818
-0.2743435800 -0.1077667102 0.5203133225 4280625197
-0.2753089368 -0.1075657904 0.5221441984 4281020210
-0.2758154869 -0.1071824878 0.5231049061 4281086003
-0.2767809629 -0.1069744304 0.5249359608 4280888369
-0.2777464986 -0.1067623347 0.5267671943 4288059806
-0.3506699502 -0.2143115103 0.6664759517 4292007649
-0.3507605791 -0.2136262059 0.6666482091 4284902005
-0.3508509994 -0.2129403949 0.6668200493 4279835685
-0.3509411514 -0.2122540325 0.6669914126 4280033064
-0.3510310650 -0.2115671486 0.6671622992 4280625201
-0.3515691757 -0.2111490667 0.6681849957 4281019959
-0.3516587019 -0.2104602456 0.6683551669 4281874496
-0.3517479897 -0.2097709030 0.6685248613 4281940289
-0.3518370390 -0.2090810388 0.6686940789 4281874496
-0.3514769673 -0.2081248462 0.6680096984 4282335047
-0.3511163890 -0.2071699053 0.6673244238 4282532426
-0.3512044549 -0.2064802349 0.6674918532 4282861391
-0.3512922823 -0.2057900429 0.6676587462 4282796879
-0.3500318527 -0.2043125182 0.6652631760 4283191637
-0.3483210504 -0.2025783807 0.6620116830 4283586397
-0.3466090858 -0.2008508146 0.6587579846 4283981155
-0.3394999802 -0.1960143596 0.6452465653 4284441454
-0.3283390701 -0.1888771355 0.6240343451 4284836212
-0.3275198638 -0.1877142638 0.6224774122 4285296764
-0.3280499876 -0.1873253584 0.6234849095 4285888901
-0.3281299472 -0.1866781265 0.6236369014 4285626243
-0.3295603693 -0.1867959797 0.6263555288 4285757829
-0.3319719732 -0.1867608428 0.6309389472 4289968836
-0.3549549878 -0.1652112901 0.6746200323 4287533462
-0.3541167676 -0.1640733629 0.6730269194 4280230439
-0.3496358693 -0.1612588912 0.6645106077 4280033060
-0.3519830406 -0.1615981758 0.6689715981 4279966753
-0.3493210077 -0.1596383750 0.6639121771 4279769374
-0.3439244628 -0.1564459056 0.6536555886 4279703581
-0.3348804712 -0.1516247839 0.6364668012 4281414199
-0.3308454156 -0.1490991712 0.6287978292 4281677371
-0.3290874660 -0.1476120055 0.6254567504 4281743164
-0.3286961913 -0.1467424035 0.6247131228 4281545785
-0.3283044994 -0.1458742619 0.6239686608 4281611578
-0.3283683956 -0.1452092528 0.6240901351 4282664266
-0.3284320533 -0.1445438564 0.6242110729 4285164400
-0.3284954429 -0.1438780725 0.6243315339 4286480260
-0.3299275339 -0.1438086182 0.6270533800 4286348674
-0.3309034705 -0.1435352415 0.6289082170 4282072129
-0.3323360085 -0.1434548348 0.6316308379 4280690476
-0.3333121836 -0.1431723684 0.6334861517 4280690476
-0.3338317573 -0.1426905990 0.6344736218 4280953648
-0.3338944614 -0.1420123279 0.6345927715 4280756269
-0.3344137371 -0.1415270120 0.6355797052 4280887855
-0.3340190351 -0.1406546235 0.6348295808 4280756269
-0.3327098489 -0.1394007504 0.6323413253 4280624683
-0.3304856718 -0.1377709806 0.6281141639 4280690222
-0.2857419848 -0.1185150892 0.5430752039 4280821808
-0.2780205607 -0.1147254482 0.5284000635 4280822062
-0.2766990662 -0.1135958210 0.5258884430 4280756269
-0.2758342326 -0.1126583070 0.5242447853 4280690990
-0.2749688625 -0.1117242202 0.5226000547 4280625197
-0.2745605409 -0.1109785214 0.5218240023 4280625199
-0.2741518021 -0.1102343947 0.5210471749 4280690992
-0.2742004693 -0.1096749306 0.5211396217 4280362027
-0.2737910151 -0.1089330092 0.5203614831 4280098855
-0.2738391459 -0.1083738878 0.5204529166 4280493611
-0.2743450105 -0.1079947650 0.5214143991 4280822576
-0.2743927240 -0.1074341238 0.5215050578 4280888369
-0.2753565609 -0.1072300225 0.5233368874 4281019955
-0.2758622169 -0.1068444028 0.5242979527 4280427818
