VERSION 0.7
FIELDS x y z rgba
SIZE 4 4 4 4
TYPE F F F U
COUNT 1 1 1 1
WIDTH 920
HEIGHT 1
VIEWPOINT 0.0 0.0 0.0 1.0 0.0 0.0 0.0
POINTS 920
DATA ascii
-0.2873433232 -0.0909836665 0.5554995537 4284111712
-0.2873835862 -0.0903791264 0.5555774570 4287203983
-0.2874236107 -0.0897743404 0.5556547642 4285822330
-0.2874633670 -0.0891693011 0.5557316542 4286480260
-0.2875028551 -0.0885640085 0.5558080077 4286743946
-0.2879970670 -0.0880976394 0.5567634106 4285691258
-0.2880361080 -0.0874908939 0.5568388700 4290625219
-0.2880748808 -0.0868839025 0.5569138527 4288125085
-0.2881134152 -0.0862766728 0.5569883585 4287401361
-0.2886068821 -0.0858045295 0.5579423308 4290691011
-0.2886449397 -0.0851958469 0.5580159426 4287203469
-0.2886827588 -0.0845869333 0.5580890179 4287861399
-0.2891756892 -0.0841102302 0.5590419173 4283453781
-0.2896684706 -0.0836313665 0.5599946380 4287269775
-0.2897056043 -0.0830198154 0.5600664020 4287665560
-0.2897424698 -0.0824080259 0.5601376891 4286744458
-0.2902347147 -0.0819246173 0.5610892773 4287665560
-0.2902711034 -0.0813114047 0.5611596704 4288060318
-0.2903072238 -0.0806979612 0.5612294674 4285231219
-0.2903431058 -0.0800842866 0.5612988472 4289310385
-0.2903787196 -0.0794703886 0.5613676906 4286283907
-0.2904140353 -0.0788562670 0.5614359975 4287270802
-0.2909050882 -0.0783647448 0.5623852611 4287467924
-0.2913959622 -0.0778710768 0.5633342862 4287467924
-0.2914306223 -0.0772543550 0.5634012222 4288388771
-0.2923772633 -0.0768772811 0.5652313232 4285822844
-0.2924114764 -0.0762581974 0.5652974844 4287007118
-0.2924454212 -0.0756388903 0.5653631091 4290494147
-0.2929354012 -0.0751364082 0.5663103461 4290428354
-0.2929688692 -0.0745157078 0.5663750172 4289770424
-0.2930020690 -0.0738947988 0.5664392114 4289375670
-0.2930349708 -0.0732736737 0.5665028691 4291546839
-0.2930676341 -0.0726523474 0.5665659904 4292073181
-0.2926434875 -0.0719186068 0.5657459497 4291744216
-0.2926755250 -0.0712978393 0.5658079386 4291810009
-0.2931639850 -0.0707871169 0.5667521954 4292007388
-0.2931955457 -0.0701649711 0.5668132305 4292007388
-0.2936835885 -0.0696509480 0.5677567124 4291217872
-0.2937146425 -0.0690274313 0.5678167939 4282204229
-0.2937454581 -0.0684037209 0.5678763390 4279901474
-0.2942328751 -0.0678852201 0.5688186288 4280559659
-0.2947200835 -0.0673645884 0.5697605610 4279835936
-0.2956641316 -0.0669452995 0.5715855360 4286020478
-0.3332119286 -0.2197793126 0.6455600858 4288718251
-0.3333030045 -0.2191219181 0.6457365751 4282007111
-0.3329546154 -0.2181761563 0.6450615525 4281678146
-0.3334844708 -0.2178055197 0.6460881233 4281480510
-0.3331353664 -0.2168604136 0.6454117894 4281283131
-0.3327858150 -0.2159165144 0.6447345614 4281612096
-0.3328755200 -0.2152581811 0.6449083686 4281677889
-0.3329650164 -0.2145993263 0.6450816989 4281677119
-0.3330542743 -0.2139399201 0.6452546716 4281611326
-0.3327032328 -0.2129982561 0.6445745230 4281677121
-0.3327918947 -0.2123386711 0.6447463632 4281611328
-0.3319997191 -0.2111185640 0.6432116032 4281479742
-0.3316472769 -0.2101805508 0.6425287724 4281479742
-0.3308538198 -0.2089655101 0.6409915686 4281479740
-0.3216870129 -0.2024833411 0.6232318878 4281348154
-0.2851865590 -0.1788945347 0.5525164008 4281479740
-0.2857021689 -0.1786029786 0.5535153747 4281611326
-0.2823955417 -0.1747122556 0.5471091270 4281611326
-0.2829100192 -0.1744215637 0.5481058955 4281545533
-0.2825415730 -0.1735862195 0.5473920703 4281611326
-0.2826142907 -0.1730225533 0.5475329757 4281545533
-0.2826868296 -0.1724584550 0.5476734638 4281545533
-0.2832009792 -0.1721625030 0.5486695766 4281545533
-0.2828312814 -0.1713289469 0.5479533076 4281479742
-0.2833452523 -0.1710303575 0.5489490628 4281479742
-0.2838592231 -0.1707295775 0.5499448776 4281545535
-0.2843732238 -0.1704265922 0.5509406924 4281479742
-0.2844448984 -0.1698572487 0.5510795116 4281413947
-0.2845163345 -0.1692874730 0.5512179136 4281413947
-0.2850301564 -0.1689796597 0.5522134304 4281413947
-0.2855440378 -0.1686696410 0.5532089472 4281348154
-0.2851722538 -0.1678361893 0.5524887443 4281216568
-0.2865717709 -0.1680430025 0.5552000999 4281150775
-0.2853135467 -0.1666910201 0.5527623892 4281019189
-0.2875995636 -0.1674075276 0.5571913719 4280953396
-0.2881134748 -0.1670864820 0.5581870079 4280887601
-0.2890707552 -0.1670193970 0.5600416064 4280887601
-0.2895847857 -0.1666930467 0.5610374808 4280821808
-0.2905424237 -0.1666188538 0.5628927946 4280821808
-0.2910565436 -0.1662871838 0.5638888478 4280821808
-0.2924582958 -0.1664584875 0.5666045547 4280821808
-0.2929726541 -0.1661206037 0.5676010847 4280756015
-0.2930429876 -0.1655296981 0.5677374005 4280624429
-0.2935572565 -0.1651882678 0.5687336922 4280690222
-0.2936272621 -0.1645956188 0.5688693523 4280624429
-0.2936970592 -0.1640025377 0.5690045953 4280690476
-0.2937666476 -0.1634090394 0.5691393614 4280690476
-0.2938360274 -0.1628151238 0.5692737699 4280690476
-0.2934605479 -0.1619753689 0.5685462952 4280690476
-0.2939741015 -0.1616260260 0.5695412755 4280624429
-0.2940427959 -0.1610308588 0.5696743727 4280558636
-0.2941112816 -0.1604352593 0.5698070526 4280690222
-0.2941795588 -0.1598392576 0.5699393153 4280295464
-0.2933572829 -0.1587610096 0.5683462620 4280164132
-0.2920891047 -0.1574459523 0.5658892989 4280229925
-0.2912654579 -0.1563750058 0.5642936230 4280493097
-0.2908866704 -0.1555454880 0.5635597110 4280887855
-0.2905074358 -0.1547173560 0.5628249645 4281019187
-0.2901277840 -0.1538906395 0.5620894432 4280953394
-0.2901934385 -0.1533008069 0.5622166991 4280625197
-0.2907047868 -0.1529451758 0.5632073283 4280756783
-0.2912160754 -0.1525873095 0.5641979575 4280625197
-0.2917273641 -0.1522272378 0.5651884675 4280756783
-0.2931309342 -0.1523286551 0.5679077506 4280954164
-0.2940886319 -0.1521932930 0.5697631836 4280954164
-0.2950465083 -0.1520538777 0.5716189146 4281085750
-0.2960045040 -0.1519104242 0.5734750032 4281019957
-0.2951764464 -0.1508500725 0.5718706846 4281282361
-0.2965810597 -0.1509294957 0.5745919943 4281216568
-0.2975392938 -0.1507766545 0.5764484406 4281216568
-0.2989445031 -0.1508452445 0.5791708827 4281348154
-0.2985622883 -0.1500096917 0.5784303546 4281479740
-0.2995207608 -0.1498465240 0.5802872777 4281611326
-0.2995851040 -0.1492338479 0.5804119706 4281611326
-0.2992019653 -0.1483989358 0.5796696544 4281479740
-0.2997130752 -0.1480072886 0.5806598663 4281414976
-0.2997767031 -0.1473934203 0.5807831883 4281480769
-0.2998401225 -0.1467791647 0.5809060335 4281546562
-0.2999032736 -0.1461645067 0.5810283422 4281612355
-0.3004139066 -0.1457667202 0.5820176601 4281612355
-0.3009244800 -0.1453666985 0.5830068588 4281678148
-0.3009870946 -0.1447490603 0.5831281543 4281678148
-0.3010495007 -0.1441310197 0.5832490325 4281678148
-0.3020077944 -0.1439397335 0.5851056576 4281875527
-0.3025180697 -0.1435317397 0.5860942602 4281941320
-0.3030282855 -0.1431215107 0.5870826840 4282007113
-0.3030900657 -0.1424982697 0.5872024298 4282072906
-0.3031516075 -0.1418746561 0.5873216391 4282072906
-0.3036614358 -0.1414595991 0.5883093476 4282072906
-0.3037225604 -0.1408342868 0.5884278417 4282007113
-0.3037834764 -0.1402086169 0.5885457993 4281941320
-0.3033953011 -0.1393763721 0.5877937675 4281743431
-0.3030067086 -0.1385456175 0.5870409012 4280888122
-0.3030666709 -0.1379206628 0.5871571302 4280230439
-0.3034795225 -0.1335357130 0.5879569650 4281743429
-0.3018532991 -0.1308708489 0.5848063231 4282402123
-0.3023601174 -0.1304397434 0.5857881904 4282270537
-0.3028668463 -0.1300064027 0.5867699981 4282467916
-0.3056240678 -0.1305320710 0.5921117663 4282467916
-0.3029700816 -0.1235290542 0.5869699121 4280098853
-0.3043767810 -0.1234474182 0.5896952748 4280230439
-0.3044306934 -0.1228139699 0.5897997022 4280230439
-0.3013267219 -0.1209131330 0.5837861300 4280164646
-0.3000260293 -0.1197453812 0.5812662244 4280361511
-0.2855880857 -0.1023027152 0.5532943010 4280295718
-0.2865383923 -0.1020263359 0.5551354289 4279704095
-0.2866278887 -0.1008242294 0.5553088784 4279901474
-0.2857665122 -0.0999060944 0.5536400080 4280625197
-0.2853575647 -0.0991488621 0.5528476834 4280493611
-0.2849482000 -0.0983932614 0.5520545840 4288915115
-0.2849915326 -0.0977947637 0.5521385670 4292073181
-0.2850346267 -0.0971959904 0.5522220731 4292270560
-0.2850774527 -0.0965969488 0.5523050427 4291941595
-0.2851200402 -0.0959976315 0.5523875356 4291744216
-0.2851623893 -0.0953980535 0.5524695516 4291810268
-0.2852044702 -0.0947982073 0.5525510907 4291744475
-0.2852462828 -0.0941980928 0.5526321530 4291678682
-0.2852878571 -0.0935977176 0.5527126789 4291941854
-0.2853291929 -0.0929970816 0.5527927279 4291941854
-0.2862776220 -0.0926899761 0.5546302199 4289968064
-0.2863185704 -0.0920869112 0.5547095537 4288388773
-0.2863592505 -0.0914835855 0.5547883511 4287862429
-0.2868535519 -0.0910240337 0.5557460189 4284506986
-0.2868937850 -0.0904192403 0.5558239818 4287336085
-0.2869337797 -0.0898141935 0.5559014678 4285625467
-0.2869735062 -0.0892088935 0.5559784174 4286743948
-0.2874670923 -0.0887435377 0.5569347143 4286743948
-0.2875063717 -0.0881367847 0.5570107698 4286020225
-0.2875453830 -0.0875297785 0.5570863485 4290494147
-0.2875841260 -0.0869225264 0.5571613908 4288191392
-0.2876226008 -0.0863150358 0.5572360158 4287532948
-0.2881152928 -0.0858426914 0.5581904650 4290822598
-0.2881533206 -0.0852337554 0.5582641363 4287269776
-0.2886456549 -0.0847580507 0.5592179894 4288125085
-0.2891378403 -0.0842801854 0.5601715446 4283782747
-0.2891751826 -0.0836686045 0.5602439642 4287467155
-0.2892122865 -0.0830567852 0.5603158474 4287797917
-0.2897039354 -0.0825743675 0.5612683296 4286679436
-0.2897405624 -0.0819611177 0.5613392591 4287599768
-0.2897769213 -0.0813476443 0.5614097118 4288586663
-0.2898130417 -0.0807339326 0.5614796877 4285757564
-0.2903038859 -0.0802457705 0.5624306798 4289507765
-0.2903395295 -0.0796306431 0.5624997020 4286547080
-0.2903749049 -0.0790152922 0.5625682473 4287533975
-0.2908651829 -0.0785226002 0.5635181069 4287401876
-0.2909000814 -0.0779058337 0.5635856986 4287730841
-0.2909346819 -0.0772888437 0.5636527538 4288783529
-0.2918797433 -0.0769116133 0.5654836893 4286349188
-0.2923693359 -0.0764112771 0.5664322376 4287270290
-0.2924033105 -0.0757907405 0.5664980412 4290625733
-0.2924370170 -0.0751699805 0.5665633678 4290691526
-0.2924704552 -0.0745490119 0.5666281581 4289638838
-0.2925036252 -0.0739278346 0.5666924119 4289507513
-0.2925365269 -0.0733064413 0.5667561293 4291481303
-0.2921134531 -0.0725716203 0.5659364462 4291876315
-0.2921457589 -0.0719507858 0.5659990907 4291876315
-0.2926335931 -0.0714410171 0.5669442415 4291744729
-0.2926654220 -0.0708188042 0.5670058727 4291876315
-0.2931528687 -0.0703057200 0.5679502487 4291941595
-0.2931841910 -0.0696821362 0.5680109262 4291283665
-0.2936712503 -0.0691657439 0.5689545870 4282204229
-0.2937020957 -0.0685407892 0.5690142512 4279835681
-0.2941887379 -0.0680210963 0.5699571371 4280756268
-0.2951313853 -0.0676037520 0.5717833638 4279966752
-0.2951615155 -0.0669753030 0.5718417764 4285822329
-0.3313180208 -0.2190013677 0.6432750225 4287007379
-0.3314086497 -0.2183463424 0.6434509754 4281612353
-0.3314990401 -0.2176907957 0.6436265111 4281678146
-0.3311506212 -0.2167476267 0.6429499984 4281546303
-0.3312404454 -0.2160918713 0.6431244612 4281151545
-0.3313300610 -0.2154355794 0.6432984471 4281612096
-0.3309805095 -0.2144942880 0.6426197290 4281612096
-0.3310695291 -0.2138378024 0.6427926421 4281677121
-0.3311583698 -0.2131807953 0.6429650784 4281611328
-0.3312469721 -0.2125232518 0.6431370974 4281611328
-0.3308959007 -0.2115841955 0.6424554586 4281545535
-0.3296652734 -0.2100861371 0.6400660872 4281479742
-0.3306320608 -0.2099889964 0.6419432163 4281545535
-0.3289603591 -0.2082176507 0.6386975050 4281348156
-0.3268476129 -0.2061752826 0.6345954537 4281348156
-0.2851318121 -0.1792459041 0.5536016226 4281479742
-0.2844006717 -0.1775592417 0.5521820188 4281677121
-0.2820518017 -0.1736589819 0.5476215482 4281545535
-0.2821244597 -0.1730951220 0.5477626324 4281545535
-0.2826378345 -0.1728003919 0.5487594008 4281545535
-0.2827102244 -0.1722347736 0.5488998890 4281545535
-0.2827824056 -0.1716687232 0.5490400195 4281545535
-0.2832956314 -0.1713691652 0.5500365496 4281545535
-0.2833675146 -0.1708013713 0.5501760840 4281479740
-0.2838806808 -0.1704982966 0.5511724353 4281479740
-0.2839522958 -0.1699287444 0.5513114333 4281348924
-0.2840236723 -0.1693587601 0.5514500737 4281414717
-0.2845366895 -0.1690508574 0.5524460673 4281414717
-0.2850497067 -0.1687407494 0.5534421802 4281283131
-0.2851206958 -0.1681676954 0.5535799861 4281019959
-0.2847493291 -0.1673343927 0.5528589487 4280888373
-0.2857043147 -0.1672792882 0.5547131300 4280822578
-0.2866595685 -0.1672201753 0.5565677881 4280888371
-0.2876150012 -0.1671570837 0.5584228635 4280953394
-0.2885707021 -0.1670900136 0.5602784157 4280887601
-0.2895266116 -0.1670189351 0.5621343255 4280821808
-0.2904827297 -0.1669438481 0.5639907122 4280690222
-0.2909961343 -0.1666111797 0.5649875998 4280756015
-0.2915095687 -0.1662763059 0.5659844279 4280756015
-0.2920230031 -0.1659391969 0.5669812560 4280690222
-0.2925364077 -0.1655998826 0.5679780841 4280624429
-0.2926065028 -0.1650083363 0.5681141615 4280690222
-0.2926763594 -0.1644163579 0.5682497621 4280690222
-0.2931895256 -0.1640721858 0.5692461729 4280624429
-0.2932590544 -0.1634784639 0.5693811774 4280624429
-0.2933283746 -0.1628843248 0.5695157051 4280624683
-0.2938413322 -0.1625352949 0.5705116391 4280624683
-0.2934663296 -0.1616947949 0.5697835684 4280624429
-0.2935349643 -0.1610993892 0.5699168444 4280624429
-0.2936033905 -0.1605035812 0.5700497031 4280558636
-0.2941158712 -0.1601492614 0.5710447431 4280229671
-0.2932951748 -0.1590696871 0.5694512725 4280229925
-0.2929183543 -0.1582334191 0.5687196255 4280427304
-0.2912073135 -0.1566809267 0.5653975606 4280756269
-0.2903846204 -0.1556118727 0.5638002753 4281085234
-0.2904509008 -0.1550208181 0.5639289021 4280887855
-0.2905169427 -0.1544293612 0.5640571713 4280624683
-0.2901377678 -0.1536019146 0.5633209944 4280493613
-0.2902032733 -0.1530105621 0.5634481311 4280690992
-0.2902685702 -0.1524188071 0.5635749102 4280690992
-0.2912242115 -0.1522923857 0.5654303432 4280822578
-0.2917346358 -0.1519299746 0.5664213896 4280888371
-0.2931360304 -0.1520274282 0.5691422820 4280888371
-0.2940921783 -0.1518889070 0.5709987283 4281019957
-0.2954941988 -0.1519755572 0.5737208128 4281019957
-0.2960050106 -0.1515997201 0.5747125745 4281216568
-0.2969616652 -0.1514490545 0.5765699744 4281216568
-0.2965805233 -0.1506148875 0.5758299828 4281216568
-0.2975371778 -0.1504588723 0.5776874423 4281282361
-0.2984940112 -0.1502988040 0.5795451403 4281413947
-0.2985584438 -0.1496871859 0.5796702504 4281545533
-0.2986226380 -0.1490751803 0.5797948837 4281545533
-0.2986865938 -0.1484627873 0.5799190402 4281545533
-0.2987503111 -0.1478499770 0.5800427794 4281414463
-0.2992604673 -0.1474568844 0.5810332298 4281480256
-0.2997705638 -0.1470615566 0.5820236206 4281546049
-0.2998337448 -0.1464457512 0.5821463466 4281611842
-0.2998967171 -0.1458295584 0.5822685957 4281677635
-0.3004064560 -0.1454294026 0.5832583308 4281743428
-0.3009161651 -0.1450270116 0.5842479467 4281678148
-0.3009786010 -0.1444078088 0.5843691230 4281678148
-0.3019354045 -0.1442155391 0.5862268209 4281743941
-0.3019975126 -0.1435937434 0.5863474607 4281809734
-0.3025068939 -0.1431833655 0.5873364210 4281875527
-0.3030162156 -0.1427707672 0.5883253217 4281875527
-0.3030778170 -0.1421459764 0.5884448886 4281941320
-0.3031391203 -0.1415208131 0.5885639787 4281941320
-0.3032002151 -0.1408952624 0.5886825323 4281941320
-0.3037090003 -0.1404765248 0.5896704197 4281875527
-0.3033216596 -0.1396430284 0.5889183283 4281546050
-0.3029338717 -0.1388110071 0.5881654024 4280690741
-0.3034420907 -0.1383893043 0.5891521573 4280033315
-0.3026053309 -0.1373548955 0.5875275731 4279506971
-0.3025093377 -0.1333958507 0.5873411894 4282270286
-0.3016693592 -0.1323746890 0.5857102871 4282796627
-0.3039717674 -0.1327292621 0.5901805758 4283322971
-0.3026821315 -0.1315131932 0.5876766443 4283257432
-0.3036375344 -0.1312732995 0.5895316601 4282928467
-0.3041438162 -0.1308360696 0.5905146003 4282599502
-0.3046499789 -0.1303966194 0.5914973617 4282402123
-0.3069537282 -0.1307205111 0.5959702730 4282335817
-0.3047630489 -0.1291301399 0.5917168856 4282467403
-0.3070671558 -0.1294439882 0.5961904526 4282467403
-0.3062241077 -0.1284280270 0.5945536494 4282401610
-0.3067297637 -0.1279783994 0.5955353975 4282204231
-0.3068409264 -0.1267009377 0.5957512259 4280427820
-0.3055461347 -0.1255071610 0.5932372808 4280164648
-0.3056552708 -0.1242332682 0.5934491754 4280164648
-0.3048089743 -0.1232317537 0.5918060541 4280164646
-0.3044124246 -0.1224147454 0.5910361409 4280098853
-0.3022138774 -0.1208786964 0.5867674947 4280164646
-0.3022666574 -0.1202477440 0.5868699551 4280164646
-0.2836986780 -0.1024570391 0.5508190393 4280295718
-0.2832918167 -0.1016989872 0.5500291586 4280295718
-0.2842402756 -0.1014263034 0.5518705845 4279638302
-0.2865446508 -0.1016304418 0.5563446879 4279835681
-0.2865892947 -0.1010280475 0.5564314127 4279835681
-0.2866337001 -0.1004253700 0.5565176010 4280625197
-0.2862257063 -0.0996649638 0.5557253957 4280493611
-0.2853650451 -0.0987496898 0.5540544391 4288980908
-0.2849561572 -0.0979934856 0.5532605648 4292138974
-0.2849992812 -0.0973935127 0.5533443093 4292270560
-0.2850421667 -0.0967932642 0.5534275174 4291875802
-0.2846322656 -0.0960400626 0.5526316762 4291810009
-0.2846745551 -0.0954402238 0.5527138114 4291810268
-0.2847166061 -0.0948401242 0.5527954698 4291744475
-0.2847583890 -0.0942397639 0.5528765917 4291678682
-0.2847999334 -0.0936391354 0.5529572368 4291876061
-0.2852940857 -0.0931861624 0.5539166331 4291810268
-0.2848822474 -0.0924370959 0.5531170368 4289968064
-0.2853760123 -0.0919816867 0.5540757179 4288257700
-0.2854166031 -0.0913790688 0.5541545153 4287599770
-0.2859100401 -0.0909202769 0.5551125407 4284639085
-0.2859501839 -0.0903161839 0.5551905036 4287336598
-0.2864432931 -0.0898540094 0.5561479330 4285625467
-0.2864829898 -0.0892484561 0.5562249422 4286875534
-0.2860690653 -0.0885023922 0.5554212928 4286743946
-0.2865615785 -0.0880365893 0.5563775897 4285954430
-0.2870539725 -0.0875686258 0.5573335886 4290494147
-0.2870927155 -0.0869611204 0.5574087501 4288125599
-0.2871311605 -0.0863533616 0.5574834347 4287532947
-0.2871693671 -0.0857453644 0.5575576425 4290888390
-0.2872073054 -0.0851371214 0.5576312542 4287269775
-0.2876987457 -0.0846621841 0.5585854650 4288322463
-0.2881900668 -0.0841850787 0.5595394373 4283782746
-0.2886812687 -0.0837058052 0.5604930520 4287532947
-0.2887183130 -0.0830937326 0.5605650544 4287666331
-0.2887551486 -0.0824814141 0.5606365204 4286547850
-0.2892457545 -0.0819975957 0.5615890622 4287534745
-0.2892820835 -0.0813838542 0.5616596341 4288390054
-0.2893181741 -0.0807698816 0.5617296696 4285625978
-0.2893539965 -0.0801556781 0.5617992282 4289441972
-0.2898438275 -0.0796661153 0.5627502799 4286415494
-0.2903335094 -0.0791743994 0.5637010336 4287665561
-0.2903686464 -0.0785575882 0.5637692213 4287336596
-0.2908579707 -0.0780625343 0.5647193193 4287731354
-0.2908926308 -0.0774443150 0.5647865534 4288915115
-0.2913815677 -0.0769459158 0.5657358766 4286414981
-0.2914157510 -0.0763262883 0.5658022165 4287270290
-0.2919043303 -0.0758245513 0.5667508245 4290494147
-0.2919380069 -0.0752035305 0.5668162107 4290691526
-0.2919714153 -0.0745822936 0.5668811202 4289704631
-0.2920045555 -0.0739608407 0.5669454336 4289507513
-0.2920374274 -0.0733391792 0.5670092702 4291612889
-0.2916150987 -0.0726040378 0.5661892891 4291876315
-0.2916473746 -0.0719829276 0.5662519336 4291876315
-0.2925894558 -0.0715842694 0.5680810809 4291810522
-0.2926212847 -0.0709608123 0.5681428909 4291942108
-0.2926528454 -0.0703371540 0.5682041645 4291875802
-0.2926841676 -0.0697132945 0.5682649612 4291152079
-0.2931704223 -0.0691966787 0.5692090392 4282138436
-0.2936564982 -0.0686779320 0.5701528192 4279769888
-0.2941423953 -0.0681570396 0.5710961819 4280756268
-0.2941727340 -0.0675294772 0.5711551309 4279966752
-0.2992124557 -0.0680409148 0.5809400678 4285624950
-0.3293375373 -0.2188747078 0.6408116817 4292402405
-0.3298654258 -0.2185124159 0.6418388486 4285165175
-0.3295181394 -0.2175699770 0.6411631107 4281678146
-0.3296081126 -0.2169167995 0.6413381100 4281678146
-0.3296978474 -0.2162631005 0.6415127516 4281546303
-0.3302253187 -0.2158951908 0.6425390840 4281217338
-0.3294385672 -0.2146686167 0.6410082579 4281546049
-0.3295275271 -0.2140141875 0.6411813498 4281611842
-0.3296162486 -0.2133592218 0.6413540244 4281677121
-0.3297047615 -0.2127037346 0.6415262222 4281611328
-0.3297930360 -0.2120477110 0.6416980028 4281611328
-0.3294424415 -0.2111100554 0.6410157681 4281545535
-0.3295301497 -0.2104538679 0.6411864758 4281479742
-0.3291787207 -0.2095177770 0.6405026913 4281545535
-0.3279488087 -0.2080259770 0.6381095648 4281282363
-0.2814885974 -0.1742953211 0.5477091670 4281545535
-0.2816339731 -0.1731676161 0.5479920506 4281545535
-0.2830268741 -0.1734122038 0.5507022738 4281545533
-0.2822188437 -0.1723069996 0.5491300821 4281479740
-0.2822909653 -0.1717407405 0.5492703915 4281545533
-0.2828033864 -0.1714410931 0.5502673984 4281545533
-0.2833158076 -0.1711392552 0.5512644649 4281479740
-0.2833875418 -0.1705699265 0.5514040589 4281545533
-0.2834590673 -0.1700001806 0.5515431762 4281348922
-0.2835303843 -0.1694299877 0.5516819954 4281414715
-0.2840425670 -0.1691219807 0.5526785254 4281414715
-0.2841135859 -0.1685500592 0.5528167486 4281283129
-0.2841843963 -0.1679776907 0.5529545546 4281019957
-0.2846964002 -0.1676648557 0.5539507866 4280822578
-0.2852084041 -0.1673498005 0.5549470186 4280822578
-0.2861620486 -0.1672907174 0.5568025708 4280888371
-0.2871159017 -0.1672276407 0.5586585402 4280953394
-0.2880699933 -0.1671605557 0.5605149865 4280821808
-0.2890242934 -0.1670894921 0.5623717904 4280756015
-0.2899788320 -0.1670144200 0.5642290711 4280690222
-0.2904914320 -0.1666816324 0.5652264953 4280690222
-0.2910040021 -0.1663466394 0.5662238598 4280690222
-0.2915166020 -0.1660094261 0.5672212243 4280624429
-0.2920292020 -0.1656700075 0.5682186484 4280558636
-0.2916566432 -0.1648281217 0.5674936771 4280690222
-0.2926116884 -0.1647352725 0.5693519711 4280690222
-0.2922385633 -0.1638934314 0.5686260462 4280624429
-0.2927508354 -0.1635478288 0.5696227551 4280492843
-0.2928200662 -0.1629534662 0.5697574615 4280558636
-0.2928890884 -0.1623586863 0.5698917508 4280492843
-0.2934010923 -0.1620082110 0.5708880424 4280492843
-0.2930264771 -0.1611678749 0.5701590776 4280624429
-0.2930948436 -0.1605718434 0.5702921152 4280492843
-0.2931629717 -0.1599753797 0.5704246759 4280229671
-0.2927872837 -0.1591373980 0.5696936846 4280361511
-0.2919674516 -0.1580605954 0.5680984855 4280558890
-0.2907031476 -0.1567476839 0.5656384230 4280953648
-0.2898819447 -0.1556781977 0.5640405416 4281216820
-0.2895041108 -0.1548494250 0.5633054376 4280690476
-0.2895700037 -0.1542586535 0.5634336472 4280361511
-0.2896356881 -0.1536674798 0.5635614395 4280690222
-0.2901454568 -0.1533106863 0.5645533204 4280690222
-0.2902107835 -0.1527177989 0.5646803975 4280821808
-0.2911649346 -0.1525904387 0.5665369630 4280887601
-0.2916746438 -0.1522269994 0.5675287247 4280953396
-0.2930737436 -0.1523236185 0.5702511072 4281019189
-0.2940284014 -0.1521841437 0.5721086264 4281019189
-0.2949832380 -0.1520406306 0.5739665031 4281216568
-0.2954932153 -0.1516646594 0.5749588013 4281019959
-0.2964482605 -0.1515139639 0.5768170953 4281019959
-0.2970229089 -0.1505234092 0.5779352188 4281085752
-0.2975327373 -0.1501385421 0.5789271593 4281283131
-0.2980425060 -0.1497514546 0.5799190998 4281348924
-0.2981066406 -0.1491392106 0.5800439119 4281348924
-0.2977248728 -0.1483045518 0.5793009996 4281348924
-0.2977884412 -0.1476924419 0.5794247389 4281348670
-0.2982976437 -0.1473001093 0.5804155469 4281414463
-0.2988068163 -0.1469055563 0.5814062357 4281480256
-0.2997620106 -0.1467271298 0.5832648277 4281611842
-0.2998250127 -0.1461097747 0.5833874345 4281677635
-0.2998877764 -0.1454920322 0.5835095644 4281743428
-0.3003966510 -0.1450895071 0.5844997168 4281743428
-0.3009054661 -0.1446847320 0.5854897499 4281743428
-0.3014142513 -0.1442777514 0.5864796638 4281809221
-0.3019229472 -0.1438685209 0.5874694586 4281809221
-0.3019848764 -0.1432451755 0.5875899792 4281809734
-0.3020465374 -0.1426214427 0.5877099633 4281875527
-0.3025548756 -0.1422073841 0.5886991024 4281941320
-0.3030631542 -0.1417911053 0.5896880627 4281875527
-0.3026771843 -0.1409561783 0.5889370441 4281941320
-0.3031851649 -0.1405372918 0.5899254680 4281941320
-0.3032457829 -0.1399098039 0.5900434256 4281677635
-0.3028588295 -0.1390765309 0.5892904401 4280624947
-0.3029188812 -0.1384492218 0.5894073248 4279835936
-0.3007410169 -0.1368036717 0.5851697326 4279441178
-0.3029421568 -0.1332204789 0.5894526243 4282862420
-0.3034480810 -0.1327869445 0.5904370546 4283059799
-0.3039539456 -0.1323511899 0.5914213061 4283060051
-0.3040113151 -0.1317189485 0.5915329456 4282665293
-0.3049654067 -0.1314730197 0.5933893919 4282204744
-0.3059195578 -0.1312230080 0.5952459574 4282138951
-0.3059765100 -0.1305859536 0.5953567624 4282138697
-0.3060332239 -0.1299485415 0.5954670906 4282401869
-0.3056408465 -0.1291211694 0.5947036147 4282336330
-0.3061458468 -0.1286726594 0.5956861973 4282204744
-0.3070997298 -0.1284096688 0.5975422263 4282270024
-0.3071555495 -0.1277689785 0.5976508856 4281677887
-0.3072111309 -0.1271279454 0.5977590084 4280690992
-0.3063679934 -0.1261167079 0.5961184502 4280164648
-0.3068721890 -0.1256608516 0.5970994830 4280164648
-0.3064775169 -0.1248366684 0.5963315964 4280164648
-0.3060824275 -0.1240140200 0.5955628157 4280098853
-0.3052373827 -0.1230117530 0.5939185619 4280098853
-0.3061902225 -0.1227338091 0.5957725644 4280164646
-0.3030958474 -0.1208381951 0.5897516608 4280098853
-0.2832563519 -0.1019060090 0.5511487722 4280229925
-0.2842032909 -0.1016322672 0.5529912710 4279704095
-0.2851502597 -0.1013544500 0.5548338294 4279769888
-0.2856459916 -0.1009131223 0.5557984710 4279835681
-0.2865929604 -0.1006280854 0.5576409698 4280625197
-0.2857343256 -0.0997088850 0.5559703708 4280493611
-0.2848752141 -0.0987932235 0.5542986989 4289046701
-0.2844670713 -0.0980366990 0.5535045266 4292204767
-0.2845101655 -0.0974364728 0.5535883904 4292270560
-0.2845529914 -0.0968359783 0.5536717176 4291810009
-0.2841438353 -0.0960824490 0.5528756380 4291810009
-0.2841860950 -0.0954823643 0.5529578328 4291810268
-0.2842281163 -0.0948820114 0.5530396104 4291810268
-0.2847218215 -0.0944312885 0.5540001988 4291744475
-0.2847633660 -0.0938294530 0.5540810823 4291876061
-0.2848047018 -0.0932273492 0.5541614890 4291744475
-0.2852979004 -0.0927720144 0.5551211238 4289902271
-0.2853387594 -0.0921684355 0.5552006364 4288389032
-0.2853793800 -0.0915646031 0.5552796721 4287402137
-0.2854197323 -0.0909605101 0.5553582311 4285033843
-0.2854598463 -0.0903561637 0.5554362535 4287270805
-0.2859521508 -0.0898937955 0.5563941598 4285428601
-0.2859918177 -0.0892879814 0.5564713478 4287073426
-0.2855786383 -0.0885416046 0.5556674004 4286743946
-0.2860703468 -0.0880756080 0.5566241741 4286020223
-0.2861092389 -0.0874690413 0.5566998124 4290559940
-0.2866006196 -0.0869996771 0.5576559305 4288059806
-0.2866390646 -0.0863916650 0.5577306747 4287664533
-0.2866772115 -0.0857834071 0.5578049421 4290954183
-0.2867151201 -0.0851749033 0.5578787327 4287269775
-0.2872057855 -0.0846997574 0.5588334203 4288388256
-0.2876963019 -0.0842224509 0.5597878098 4283716951
-0.2881866693 -0.0837429836 0.5607419610 4287664531
-0.2882237136 -0.0831306428 0.5608140230 4287929503
-0.2887137234 -0.0826478079 0.5617675185 4286613643
-0.2887502909 -0.0820340365 0.5618386865 4287797917
-0.2887865901 -0.0814200267 0.5619093180 4288455847
-0.2888226509 -0.0808057934 0.5619794726 4285626748
-0.2888584435 -0.0801913291 0.5620490909 4289442742
-0.2893474698 -0.0797015578 0.5630006194 4286481287
-0.2893827856 -0.0790856704 0.5630693436 4287862940
-0.2898714542 -0.0785925537 0.5640201569 4287336596
-0.2899062932 -0.0779752582 0.5640879273 4287797147
-0.2903945744 -0.0774787962 0.5650380850 4288980908
-0.2904289365 -0.0768600926 0.5651049018 4286480774
-0.2909168601 -0.0763602927 0.5660542846 4287401876
-0.2909507453 -0.0757401809 0.5661202073 4290428354
-0.2914382815 -0.0752370507 0.5670688748 4290691526
-0.2914716899 -0.0746155381 0.5671338439 4289704631
-0.2915048003 -0.0739938244 0.5671982765 4289639099
-0.2915376425 -0.0733718872 0.5672621727 4291744475
-0.2915702164 -0.0727497488 0.5673255324 4291876315
-0.2911483049 -0.0720150545 0.5665046573 4291810522
-0.2911802828 -0.0713934675 0.5665668845 4291810522
-0.2921206355 -0.0709924921 0.5683965087 4291942108
-0.2921521664 -0.0703685582 0.5684579015 4291941595
-0.2921834290 -0.0697444305 0.5685187578 4291086286
-0.2922144234 -0.0691200942 0.5685790777 4282138436
-0.2926996648 -0.0686020926 0.5695232153 4279704095
-0.2931846976 -0.0680819452 0.5704669952 4280756268
-0.2936695814 -0.0675596595 0.5714104176 4280098338
-0.2968821228 -0.0676568970 0.5776612759 4285493364
-0.3278883994 -0.2183835655 0.6393737793 4291481303
-0.3279784918 -0.2177329808 0.6395494342 4283849315
-0.3280683458 -0.2170818597 0.6397246718 4282072904
-0.3281579912 -0.2164302021 0.6398994327 4281546560
-0.3282473981 -0.2157780081 0.6400738358 4281414717
-0.3278993964 -0.2148388326 0.6393952370 4281348924
-0.3275509477 -0.2139008641 0.6387157440 4281612096
-0.3276394606 -0.2132488191 0.6388883591 4281612096
-0.3277277648 -0.2125962526 0.6390604973 4281677121
-0.3278158307 -0.2119431496 0.6392322779 4281611328
-0.3274658918 -0.2110074162 0.6385498643 4281611328
-0.3271155059 -0.2100729197 0.6378666162 4281611328
-0.3267646432 -0.2091396451 0.6371824741 4281545535
-0.3250989020 -0.2073691785 0.6339343190 4281479742
-0.2975749969 -0.1891679317 0.5802634358 4281216570
-0.3208872378 -0.2032922655 0.6257216930 4281348156
-0.2837004662 -0.1791186035 0.5532084107 4281479742
-0.2815821767 -0.1735107452 0.5490778685 4281479740
-0.2820940316 -0.1732149720 0.5500759482 4281479740
-0.2817268670 -0.1723791361 0.5493599772 4281479740
-0.2826781571 -0.1723487675 0.5512149930 4281479740
-0.2827502191 -0.1717801094 0.5513555408 4281479740
-0.2832619548 -0.1714772880 0.5523533225 4281479740
-0.2828937471 -0.1706414968 0.5516353846 4281479740
-0.2829652131 -0.1700715423 0.5517747402 4281414715
-0.2825962901 -0.1692375392 0.5510553718 4281414715
-0.2835478187 -0.1691930592 0.5529108047 4281348922
-0.2840591669 -0.1688827574 0.5539079309 4281151543
-0.2841300368 -0.1683093011 0.5540460944 4280954164
-0.2842006981 -0.1677354127 0.5541839004 4280822578
-0.2851526141 -0.1676794291 0.5560401082 4280822578
-0.2856639028 -0.1673611850 0.5570371151 4280888371
-0.2861752212 -0.1670407355 0.5580341816 4280887601
-0.2871276140 -0.1669745594 0.5598912835 4280821808
-0.2885213494 -0.1671599746 0.5626090765 4280756015
-0.2890330255 -0.1668302119 0.5636067986 4280690222
-0.2899860442 -0.1667520255 0.5654651523 4280690222
-0.2909393013 -0.1666698307 0.5673239827 4280690222
-0.2914511561 -0.1663316190 0.5683221221 4280624429
-0.2910796404 -0.1654889435 0.5675976276 4280492843
-0.2911494672 -0.1648978591 0.5677338243 4280624429
-0.2912190855 -0.1643063575 0.5678696036 4280624429
-0.2912884951 -0.1637144238 0.5680049062 4280558636
-0.2917998135 -0.1633695960 0.5690019727 4280492843
-0.2918688953 -0.1627759188 0.5691366792 4280492843
-0.2919377387 -0.1621818095 0.5692709684 4280427050
-0.2920064032 -0.1615872979 0.5694047809 4280427050
-0.2916322649 -0.1607484370 0.5686752796 4280492843
-0.2917003632 -0.1601539850 0.5688080788 4280492843
-0.2917682528 -0.1595591158 0.5689404011 4280163878
-0.2913930416 -0.1587226093 0.5682088137 4280427304
-0.2905744910 -0.1576471925 0.5666126013 4280427304
-0.2897552848 -0.1565749645 0.5650151968 4280690476
-0.2889354527 -0.1555059701 0.5634165406 4281019441
-0.2890014946 -0.1549153775 0.5635453463 4280690476
-0.2895106971 -0.1545610726 0.5645382404 4280427304
-0.2895764112 -0.1539687663 0.5646663904 4280756015
-0.2900854647 -0.1536109447 0.5656589866 4280690222
-0.2905944586 -0.1532509029 0.5666515827 4280821808
-0.2915472090 -0.1531216949 0.5685093999 4280821808
-0.2920562923 -0.1527563035 0.5695021152 4280953394
-0.2930092812 -0.1526199281 0.5713604093 4281019187
-0.2939624488 -0.1524795145 0.5732190609 4281019187
-0.2949157655 -0.1523350626 0.5750780106 4281150773
-0.2958692610 -0.1521865577 0.5769372582 4280954166
-0.2963785529 -0.1518063992 0.5779303908 4280954166
-0.2964434028 -0.1511973441 0.5780568123 4280954166
-0.2969525158 -0.1508136541 0.5790495872 4281085752
-0.2965723276 -0.1499780267 0.5783082843 4281217338
-0.2975259125 -0.1498156488 0.5801677108 4281283131
-0.2975900173 -0.1492031813 0.5802927017 4281283131
-0.2972089350 -0.1483681947 0.5795496106 4281217338
-0.2972724438 -0.1477558464 0.5796734691 4281479742
-0.2973357141 -0.1471430957 0.5797968507 4281545535
-0.2978439629 -0.1467493176 0.5807878971 4281611328
-0.2987974882 -0.1465717554 0.5826472044 4281677121
-0.2988603413 -0.1459550858 0.5827697515 4281677635
-0.2993684411 -0.1455546319 0.5837605596 4281677635
-0.2998764813 -0.1451519430 0.5847512484 4281743428
-0.2999387980 -0.1445322782 0.5848727822 4281743428
-0.3004466295 -0.1441260576 0.5858630538 4281875014
-0.3014002740 -0.1439305246 0.5877225995 4281875014
-0.3014621437 -0.1433069259 0.5878432393 4281809734
-0.3015237749 -0.1426829547 0.5879634023 4281875527
-0.3015851378 -0.1420585960 0.5880830884 4281875527
-0.3020925224 -0.1416430771 0.5890724659 4281809734
-0.3025998175 -0.1412253380 0.5900616646 4281875527
-0.3022142351 -0.1403906196 0.5893098116 4281875527
-0.3022747040 -0.1397638172 0.5894277692 4281743428
-0.3023349643 -0.1391366571 0.5895451903 4280690740
-0.3006082773 -0.1376907378 0.5861782432 4279572762
-0.3037606776 -0.1338697374 0.5923253894 4282928213
-0.3029237092 -0.1328445673 0.5906932950 4282730834
-0.3043238223 -0.1327992380 0.5934234262 4282599502
-0.3043813109 -0.1321648657 0.5935355425 4282270537
-0.3053339720 -0.1319169998 0.5953931808 4282007365
-0.3049433529 -0.1310875565 0.5946314931 4282138951
-0.3054480255 -0.1306427270 0.5956156254 4282006852
-0.3055046797 -0.1300050616 0.5957260728 4282204231
-0.3051130176 -0.1291773617 0.5949624181 4282006852
-0.3060653210 -0.1289174259 0.5968193412 4281677887
-0.3065694869 -0.1284655780 0.5978024602 4281480508
-0.3061769903 -0.1276377589 0.5970370770 4281085750
-0.3066807985 -0.1271833330 0.5980194807 4280493613
-0.3062876165 -0.1263566911 0.5972527862 4280230441
-0.3063425422 -0.1257156432 0.5973598957 4280230439
-0.3059485853 -0.1248911247 0.5965917110 4280164646
-0.3046568632 -0.1237037703 0.5940728784 4280098853
-0.3065057397 -0.1237904280 0.5976781249 4280098853
-0.3061107695 -0.1229677051 0.5969079733 4280099108
-0.2998794317 -0.1198148057 0.5847569704 4280099108
-0.2981872261 -0.1178466156 0.5814572573 4280164901
-0.2841192484 -0.1024378240 0.5540250540 4280229925
-0.2859654725 -0.1024839059 0.5576251149 4279769888
-0.2846591473 -0.1013990194 0.5550778508 4279835681
-0.2869559824 -0.1015954763 0.5595566034 4279835681
-0.2851983309 -0.1003552824 0.5561292171 4280559404
-0.2843410969 -0.0994376019 0.5544576645 4280559404
-0.2839340270 -0.0986800864 0.5536639094 4289112494
-0.2839773297 -0.0980798826 0.5537483096 4292204767
-0.2840203941 -0.0974794030 0.5538322926 4292204767
-0.2840631902 -0.0968786478 0.5539157391 4291875802
-0.2836547494 -0.0961248055 0.5531193614 4291810009
-0.2836969793 -0.0955244675 0.5532016754 4291810268
-0.2841900587 -0.0950747803 0.5541631579 4291810268
-0.2842318416 -0.0944729522 0.5542446375 4291744475
-0.2842733860 -0.0938708633 0.5543256402 4291941854
-0.2847659588 -0.0934165567 0.5552861094 4291744475
-0.2848070562 -0.0928129852 0.5553662777 4289836478
-0.2848478854 -0.0922091529 0.5554459095 4288258216
-0.2848884761 -0.0916050598 0.5555250645 4287205528
-0.2849287987 -0.0910007134 0.5556036830 4285363324
-0.2854204774 -0.0905393660 0.5565624833 4287205528
-0.2859120369 -0.0900758505 0.5575209856 4285428601
-0.2854999900 -0.0893274844 0.5567174554 4287336598
-0.2855393589 -0.0887211561 0.5567942262 4286547082
-0.2855784595 -0.0881145895 0.5568705201 4286086531
-0.2856173217 -0.0875077695 0.5569462776 4290559940
-0.2856559157 -0.0869007036 0.5570214987 4288059806
-0.2861462831 -0.0864299312 0.5579777360 4287731096
-0.2861844301 -0.0858214125 0.5580521226 4290889160
-0.2866744697 -0.0853472725 0.5590077043 4287138189
-0.2871643603 -0.0848709643 0.5599629879 4288454049
-0.2876541317 -0.0843924880 0.5609179735 4283716951
-0.2876914144 -0.0837801248 0.5609906912 4287861910
-0.2881808281 -0.0832982883 0.5619450212 4288192675
-0.2882176340 -0.0826844871 0.5620167851 4286811022
-0.2882541716 -0.0820704475 0.5620880723 4288061089
-0.2882904410 -0.0814561769 0.5621588230 4288521640
-0.2883264720 -0.0808416829 0.5622290373 4285889150
-0.2888149023 -0.0803528950 0.5631814599 4289705144
-0.2888504565 -0.0797369704 0.5632507801 4286547080
-0.2893385291 -0.0792448372 0.5642024875 4288060319
-0.2893735766 -0.0786274970 0.5642709136 4287205010
-0.2894083858 -0.0780099332 0.5643387437 4287862940
-0.2898958921 -0.0775132552 0.5652893782 4288849322
-0.2899302244 -0.0768942833 0.5653563142 4286414981
-0.2904173434 -0.0763942674 0.5663061738 4287599255
-0.2904511690 -0.0757738948 0.5663721561 4290362561
-0.2909379303 -0.0752705410 0.5673213005 4290625733
-0.2909712791 -0.0746487677 0.5673863292 4289704631
-0.2905510962 -0.0739114657 0.5665670037 4289573306
-0.2905838490 -0.0732902363 0.5666308999 4291810268
-0.2906163633 -0.0726687983 0.5666942596 4291810522
-0.2911020219 -0.0721595436 0.5676412582 4291810522
-0.2906805277 -0.0714252889 0.5668194294 4291810522
-0.2916193008 -0.0710241497 0.5686499476 4291942108
-0.2916508019 -0.0703999400 0.5687114000 4292007388
-0.2916820347 -0.0697755367 0.5687723160 4290954700
-0.2917130291 -0.0691509321 0.5688326955 4282072643
-0.2921974361 -0.0686326995 0.5697773099 4279835681
-0.2926816940 -0.0681123286 0.5707215667 4280690475
-0.2936195731 -0.0676944479 0.5725504160 4280098338
-0.2941035032 -0.0671688244 0.5734940767 4285427571
-0.3264416158 -0.2178918719 0.6379341483 4290231490
-0.3260954022 -0.2169527560 0.6372576356 4282862674
-0.3266209066 -0.2165931910 0.6382845640 4282138951
-0.3262740374 -0.2156547308 0.6376066804 4281349435
-0.3267993331 -0.2152923644 0.6386332512 4281217338
-0.3264517784 -0.2143545896 0.6379540563 4281283131
-0.3261037469 -0.2134180218 0.6372739673 4281677889
-0.3261919618 -0.2127674967 0.6374462843 4281612096
-0.3258431554 -0.2118324786 0.6367646456 4281742912
-0.3259307742 -0.2111817747 0.6369359493 4281677119
-0.3255811930 -0.2102483362 0.6362527013 4281677119
-0.3252311051 -0.2093161196 0.6355686188 4281611326
-0.3244433403 -0.2081046551 0.6340291500 4281611326
-0.3219054043 -0.2057778239 0.6290694475 4281545533
-0.3206782937 -0.2042971104 0.6266714334 4281282361
-0.2931940854 -0.1861509234 0.5729616880 4281348154
-0.2814555466 -0.1744202524 0.5500221252 4281479740
-0.2815282345 -0.1738540232 0.5501641631 4281479740
-0.2816007137 -0.1732873619 0.5503058434 4281479738
-0.2821117640 -0.1729892939 0.5513045192 4281479738
-0.2817451060 -0.1721527278 0.5505880117 4281479738
-0.2822559476 -0.1718520224 0.5515863299 4281479738
-0.2827668488 -0.1715491116 0.5525846481 4281479738
-0.2823993564 -0.1707129925 0.5518665314 4281479738
-0.2824707627 -0.1701428443 0.5520060658 4281349435
-0.2821025252 -0.1693085283 0.5512864590 4281349435
-0.2826129198 -0.1690012217 0.5522838831 4281217849
-0.2835629880 -0.1689536572 0.5541405082 4281020470
-0.2836337686 -0.1683800071 0.5542788506 4280954164
-0.2841442227 -0.1680660844 0.5552763939 4280822578
-0.2846546769 -0.1677499413 0.5562739372 4280822578
-0.2856052220 -0.1676899791 0.5581314564 4280822578
-0.2861157954 -0.1673685312 0.5591292381 4280756785
-0.2866263986 -0.1670448780 0.5601270795 4280625199
-0.2875773907 -0.1669747084 0.5619854927 4280624429
-0.2889690995 -0.1671553403 0.5647051930 4280624429
-0.2894800305 -0.1668223441 0.5657036304 4280690222
-0.2899909616 -0.1664871424 0.5667021275 4280690222
-0.2905018926 -0.1661497205 0.5677005649 4280558636
-0.2905718982 -0.1655588448 0.5678373575 4280492843
-0.2902006209 -0.1647172123 0.5671118498 4280492843
-0.2907112241 -0.1643758118 0.5681096315 4280492843
-0.2907805741 -0.1637836695 0.5682451725 4280492843
-0.2908497155 -0.1631910950 0.5683802366 4280492843
-0.2909186184 -0.1625980884 0.5685149431 4280492843
-0.2909873128 -0.1620046794 0.5686491728 4280492843
-0.2910557687 -0.1614108384 0.5687829852 4280427050
-0.2906822562 -0.1605725586 0.5680530667 4280361257
-0.2903083265 -0.1597356498 0.5673223138 4280427304
-0.2903759480 -0.1591423750 0.5674543977 4280032546
-0.2900012434 -0.1583073586 0.5667222142 4280361511
-0.2891839445 -0.1572333127 0.5651250482 4280361511
-0.2888083160 -0.1564019918 0.5643909574 4280427304
-0.2884322703 -0.1555720717 0.5636560917 4280822062
-0.2884982526 -0.1549812704 0.5637850165 4280756269
-0.2890066206 -0.1546268463 0.5647784472 4280756269
-0.2895149291 -0.1542702019 0.5657718778 4280821808
-0.2904660404 -0.1541463286 0.5676305294 4280690222
-0.2909744382 -0.1537843347 0.5686240196 4280821808
-0.2919257879 -0.1536532938 0.5704831481 4280887601
-0.2924342155 -0.1532859504 0.5714766979 4280953394
-0.2933858037 -0.1531477422 0.5733363032 4281084980
-0.2943375707 -0.1530054659 0.5751962662 4280953394
-0.2948460877 -0.1526296437 0.5761900544 4281019187
-0.2957980931 -0.1524801850 0.5780504346 4281019957
-0.2963066697 -0.1520989835 0.5790442824 4280954164
-0.2963715196 -0.1514887810 0.5791710019 4280954164
-0.2964361608 -0.1508781761 0.5792973042 4281019957
-0.2965005338 -0.1502671689 0.5794231892 4281085750
-0.2965646982 -0.1496557742 0.5795485377 4281217336
-0.2970726788 -0.1492670923 0.5805412531 4281283129
-0.2966923416 -0.1484317780 0.5797979832 4281283129
-0.2967557907 -0.1478191912 0.5799219608 4281479742
-0.2968190014 -0.1472062171 0.5800455213 4281545535
-0.2973264456 -0.1468122900 0.5810371041 4281611328
-0.2978338003 -0.1464161426 0.5820286274 4281677121
-0.2983411252 -0.1460177600 0.5830200315 4281742914
-0.2988483906 -0.1456171572 0.5840113759 4281742914
-0.2989108264 -0.1449985653 0.5841333270 4281611842
-0.2998627722 -0.1448092759 0.5859936476 4281611842
-0.3003698885 -0.1444019824 0.5869846940 4281809221
-0.3004318476 -0.1437794566 0.5871057510 4281743428
-0.3009387553 -0.1433686316 0.5880963206 4281809221
-0.3010003269 -0.1427444071 0.5882166624 4281809221
-0.3006162941 -0.1419095695 0.5874661803 4281743941
-0.3011227250 -0.1414948255 0.5884558558 4281743941
-0.3016290963 -0.1410778463 0.5894454122 4281743941
-0.3016898036 -0.1404511780 0.5895640254 4281809734
-0.3004130721 -0.1392045319 0.5870690346 4281808707
-0.3013646007 -0.1389911175 0.5889285803 4280821812
-0.3014244735 -0.1383642405 0.5890455246 4279637785
-0.3010380864 -0.1375332475 0.5882904530 4279308820
-0.3006512821 -0.1367037445 0.5875346065 4278980109
-0.2993717492 -0.1354719400 0.5850341320 4279243281
-0.2994301915 -0.1348482370 0.5851482749 4280493613
-0.3018364906 -0.1339658201 0.5898507237 4282796116
-0.3018943667 -0.1333360076 0.5899637938 4283125335
-0.3032920063 -0.1332947761 0.5926950574 4282664784
-0.3042431474 -0.1330522001 0.5945538282 4282204231
-0.3048048913 -0.1319742352 0.5956515670 4281480508
-0.3048619926 -0.1313370317 0.5957631469 4281480508
-0.3049188554 -0.1306994706 0.5958742499 4281348922
-0.3050317764 -0.1294232607 0.5960949659 4281019957
-0.3055352271 -0.1289734691 0.5970788002 4280690992
-0.3055911362 -0.1283335537 0.5971880555 4280493611
-0.3060942888 -0.1278802454 0.5981712937 4280230439
-0.3061497509 -0.1272386909 0.5982797146 4280164646
-0.3062049747 -0.1265967935 0.5983876586 4280230439
-0.3062599301 -0.1259545386 0.5984950066 4280361510
-0.3063146472 -0.1253119409 0.5986019373 4280295717
-0.3045774400 -0.1239399463 0.5952070951 4280229924
-0.3064232469 -0.1240257248 0.5988141894 4280229924
-0.3002042472 -0.1208567396 0.5866609216 4280229924
-0.3033938110 -0.1214820519 0.5928940177 4280229924
-0.3016537428 -0.1201303527 0.5894936323 4280229924
-0.2990162373 -0.1184307411 0.5843393207 4280295717
-0.2822798491 -0.1019955426 0.5516330004 4280295718
-0.2832235992 -0.1017215922 0.5534772873 4279769888
-0.2859659195 -0.1020855978 0.5588363409 4279835681
-0.2864603102 -0.1016401052 0.5598024726 4279769888
-0.2847056985 -0.1003993824 0.5563736558 4280493611
-0.2838500142 -0.0994813144 0.5547013879 4280625197
-0.2838935852 -0.0988801792 0.5547865629 4289178287
-0.2834869325 -0.0981230214 0.5539919138 4292204767
-0.2835299671 -0.0975222886 0.5540759563 4292204767
-0.2835727036 -0.0969212875 0.5541595221 4291875802
-0.2836152315 -0.0963200182 0.5542426109 4291810009
-0.2832072377 -0.0955665410 0.5534452796 4291810268
-0.2832491696 -0.0949656814 0.5535272360 4291810268
-0.2832908630 -0.0943645611 0.5536087155 4291744475
-0.2837827504 -0.0939122364 0.5545699596 4291876061
-0.2842745185 -0.0934577435 0.5555309653 4291744475
-0.2843155563 -0.0928539187 0.5556111932 4289836478
-0.2843563557 -0.0922498330 0.5556909442 4288324011
-0.2843969166 -0.0916454867 0.5557701588 4287139737
-0.2848879695 -0.0911851600 0.5567298532 4285692289
-0.2849280834 -0.0905793458 0.5568081737 4287205528
-0.2849679291 -0.0899732709 0.5568860769 4285559933
-0.2854584754 -0.0895083472 0.5578446984 4287599516
-0.2854978740 -0.0889008120 0.5579217076 4286481289
-0.2850859165 -0.0881535336 0.5571166277 4286218117
-0.2855758965 -0.0876849815 0.5580741763 4290559940
-0.2856145203 -0.0870766938 0.5581496358 4288059806
-0.2856528759 -0.0864681676 0.5582245588 4287796634
-0.2856909931 -0.0858593881 0.5582990646 4290888905
-0.2861801982 -0.0853850469 0.5592551231 4287006603
-0.2866693139 -0.0849085376 0.5602108836 4288519842
-0.2867067456 -0.0842971131 0.5602840781 4283782746
-0.2871955037 -0.0838172361 0.5612391829 4288059291
-0.2872324586 -0.0832043737 0.5613114238 4288323491
-0.2877208591 -0.0827211291 0.5622658730 4286941838
-0.2877573967 -0.0821068287 0.5623372197 4288257698
-0.2882454395 -0.0816202313 0.5632909536 4288586663
-0.2882814705 -0.0810045004 0.5633614063 4285889150
-0.2883172333 -0.0803885385 0.5634313226 4289573558
-0.2883527577 -0.0797723532 0.5635007024 4286546567
-0.2888400257 -0.0792800114 0.5644529462 4288191392
-0.2893271446 -0.0787855014 0.5654048324 4287138704
-0.2898140848 -0.0782888457 0.5663564801 4288125599
-0.2898487151 -0.0776688531 0.5664241314 4288849322
-0.2898830473 -0.0770486444 0.5664912462 4286283395
-0.2899171412 -0.0764282197 0.5665578246 4287927706
-0.2904033065 -0.0759258345 0.5675078630 4290559426
-0.2904368937 -0.0753040090 0.5675735474 4290691012
-0.2904702127 -0.0746819600 0.5676386952 4289835703
-0.2905032635 -0.0740597025 0.5677032471 4289441720
-0.2905360758 -0.0734372288 0.5677673817 4291744475
-0.2905685902 -0.0728145540 0.5678309202 4291876315
-0.2906008363 -0.0721916631 0.5678939223 4291876315
-0.2910855114 -0.0716800466 0.5688410997 4291876315
-0.2915700376 -0.0711662769 0.5697879195 4291942108
-0.2916015685 -0.0705408305 0.5698495507 4292073179
-0.2916328311 -0.0699151829 0.5699106455 4290757319
-0.2916638255 -0.0692893341 0.5699712038 4282072898
-0.2921474874 -0.0687699094 0.5709164143 4280033315
-0.2930839658 -0.0683539882 0.5727464557 4280624682
-0.2931142747 -0.0677246302 0.5728057027 4280098338
-0.2990343869 -0.0684432015 0.5843748450 4285361778
-0.3245621026 -0.2171085775 0.6356408596 4288586665
-0.3242162168 -0.2161717117 0.6349635124 4282204744
-0.3247404993 -0.2158146501 0.6359902620 4281875779
-0.3248293996 -0.2151668966 0.6361643672 4281349435
-0.3253535926 -0.2148061693 0.6371909976 4281283129
-0.3250064850 -0.2138697952 0.6365112066 4281283129
-0.3246589303 -0.2129346281 0.6358305216 4281677889
-0.3247468174 -0.2122856230 0.6360026002 4281677889
-0.3243984580 -0.2113520056 0.6353203654 4281808705
-0.3240496218 -0.2104196250 0.6346372366 4281808705
-0.3232641220 -0.2092061341 0.6330988407 4281677119
-0.3242233694 -0.2091214359 0.6349775195 4281611326
-0.3225639760 -0.2073492259 0.6317276359 4281611326
