VERSION 0.7
FIELDS x y z rgba
SIZE 4 4 4 4
TYPE F F F U
COUNT 1 1 1 1
WIDTH 920
HEIGHT 1
VIEWPOINT 0.0 0.0 0.0 1.0 0.0 0.0 0.0
POINTS 920
DATA ascii
-0.2891461551 -0.2201039195 0.5853800178 4281743682
-0.2892332673 -0.2195196301 0.5855563879 4281809475
-0.2897400856 -0.2192525715 0.5865824819 4282006854
-0.2873067260 -0.2167649269 0.5816560984 4282270026
-0.2894935012 -0.2177636027 0.5860832334 4282401612
-0.2904204726 -0.2178076208 0.5879598856 4282072645
-0.2909273207 -0.2175333500 0.5889860392 4282335817
-0.2918547988 -0.2175703496 0.5908637047 4282664782
-0.2915205956 -0.2166654766 0.5901870728 4282598989
-0.2924483120 -0.2166971564 0.5920652747 4282270024
-0.2933763564 -0.2167249024 0.5939441323 4282138438
-0.2943047285 -0.2167486846 0.5958235860 4282270024
-0.2956545353 -0.2170777619 0.5985562801 4282335817
-0.2957410514 -0.2164760530 0.5987314582 4281283129
-0.2958273590 -0.2158738077 0.5989062190 4281743680
-0.2959135175 -0.2152710408 0.5990806222 4282138438
-0.2959994674 -0.2146677524 0.5992546082 4287072913
-0.2960852087 -0.2140639424 0.5994282365 4289507254
-0.2965926528 -0.2137636691 0.6004555821 4283520091
-0.2966781557 -0.2131579369 0.6006286144 4281612353
-0.2967634499 -0.2125516981 0.6008013487 4283849315
-0.3014624417 -0.1982865930 0.6103145480 4290231753
-0.3011176884 -0.1973824948 0.6096165180 4288915893
-0.3011978865 -0.1967575550 0.6097788811 4287468447
-0.3012778759 -0.1961321235 0.6099408269 4285823108
-0.3013576567 -0.1955062002 0.6101023555 4284375662
-0.3010114729 -0.1946045160 0.6094014645 4283059801
-0.3010907173 -0.1939784735 0.6095619202 4281941320
-0.3011697531 -0.1933519542 0.6097218990 4282138699
-0.3012485504 -0.1927249283 0.6098814607 4282401871
-0.3013271391 -0.1920974106 0.6100406051 4282532944
-0.3014055490 -0.1914694011 0.6101992726 4281677635
-0.3014836907 -0.1908409148 0.6103575230 4280756787
-0.3011351228 -0.1899428815 0.6096518040 4281019959
-0.3007861078 -0.1890461594 0.6089451909 4282664784
-0.3008633852 -0.1884179860 0.6091017127 4284770160
-0.3005135953 -0.1875229478 0.6083935499 4287533212
-0.3045791984 -0.1681362838 0.6166244149 4288191396
-0.3046490848 -0.1674895883 0.6167659163 4283125335
-0.3042883277 -0.1666067839 0.6160355210 4283585886
-0.3043576181 -0.1659601182 0.6161758304 4283783265
-0.3044266999 -0.1653130054 0.6163156629 4283650909
-0.3036341369 -0.1641996354 0.6147111654 4285295734
-0.3028409779 -0.1630894989 0.6131053567 4287664280
-0.3024780452 -0.1622136682 0.6123706102 4287137936
-0.3016837239 -0.1611090899 0.6107624769 4285690490
-0.3004576862 -0.1597785056 0.6082803607 4281677117
-0.2992308438 -0.1584530026 0.6057966352 4282269254
-0.2992970049 -0.1578148007 0.6059305072 4282006082
-0.2989315391 -0.1569496840 0.6051906347 4281677117
-0.2994285524 -0.1565371156 0.6061968803 4281479738
-0.2990624309 -0.1556730121 0.6054556966 4281348152
-0.2982642651 -0.1545866132 0.6038396955 4281084980
-0.2974654436 -0.1535034925 0.6022225618 4281150264
-0.2958023846 -0.1519799083 0.5988556147 4281084471
-0.2594709098 -0.1146364734 0.5253021121 4284967547
-0.2595195174 -0.1140741855 0.5254005194 4285099133
-0.2604857981 -0.1133270562 0.5273567438 4285164926
-0.2600989342 -0.1125736907 0.5265735388 4285493891
-0.2605817616 -0.1121965200 0.5275510550 4285888649
-0.2601943016 -0.1114444137 0.5267665982 4285954442
-0.2593712807 -0.1105084792 0.5251004100 4286021005
-0.2602887750 -0.1103139073 0.5269578695 4286349970
-0.2590296268 -0.1091976091 0.5244087577 4286942107
-0.2590760887 -0.1086344272 0.5245027542 4286876314
-0.2923871875 -0.2553720474 0.5932755470 4287203460
-0.2912474275 -0.2537199855 0.5909628868 4285821807
-0.2921700180 -0.2538650334 0.5928348899 4286347373
-0.2914417982 -0.2525752187 0.5913572907 4286018408
-0.2907128632 -0.2512881160 0.5898782015 4286017630
-0.2895701528 -0.2496475428 0.5875595808 4285886044
-0.2884264588 -0.2480112761 0.5852389336 4287398251
-0.2885218561 -0.2474428564 0.5854324698 4288714111
-0.2882035971 -0.2465201765 0.5847867131 4289108863
-0.2870576382 -0.2448928058 0.5824615359 4288121968
-0.2871520221 -0.2443259656 0.5826530457 4287069278
-0.2872462571 -0.2437585443 0.5828441978 4286740313
-0.2869262695 -0.2428401560 0.5821949840 4286806106
-0.2866058946 -0.2419228554 0.5815448165 4286674520
-0.2866993546 -0.2413554043 0.5817345381 4286610020
-0.2863782346 -0.2404394448 0.5810829401 4284504644
-0.2864712775 -0.2398717105 0.5812717080 4281282090
-0.2865641415 -0.2393034250 0.5814601183 4281150504
-0.2866568267 -0.2387345880 0.5816482306 4280953912
-0.2867493629 -0.2381651998 0.5818359852 4280690740
-0.2868417501 -0.2375952601 0.5820234418 4280756787
-0.2865187228 -0.2366817594 0.5813680291 4280888373
-0.2870260477 -0.2364537269 0.5823973417 4280887855
-0.2871179283 -0.2358821481 0.5825838447 4280822062
-0.2876253128 -0.2356505394 0.5836133361 4280887603
-0.2873012125 -0.2347373217 0.5829557180 4280887603
-0.2865608037 -0.2334863394 0.5814533830 4280887603
-0.2862357497 -0.2325761616 0.5807937980 4280887603
-0.2863264084 -0.2320043296 0.5809777975 4280757038
-0.2855843008 -0.2307591885 0.5794720054 4280757038
-0.2852579653 -0.2298523933 0.5788097978 4280756787
-0.2853477299 -0.2292814255 0.5789919496 4280822580
-0.2854373455 -0.2287099361 0.5791738033 4280954166
-0.2855267823 -0.2281378955 0.5793552995 4281019959
-0.2856160700 -0.2275653183 0.5795364380 4281085752
-0.2857051790 -0.2269922048 0.5797172189 4281085752
-0.2845424712 -0.2254269570 0.5773580074 4281085752
-0.2854655385 -0.2255146801 0.5792310238 4281085752
-0.2855540216 -0.2249408066 0.5794104934 4281151543
-0.2860599160 -0.2246944159 0.5804370046 4281085750
-0.2857304215 -0.2237914503 0.5797684789 4281283129
-0.2858183980 -0.2232159823 0.5799469352 4281677887
-0.2863241732 -0.2229654789 0.5809732080 4281875266
-0.2864119112 -0.2223880887 0.5811512470 4281875266
-0.2864994705 -0.2218101919 0.5813289285 4281941059
-0.2865868509 -0.2212317437 0.5815062523 4282138438
-0.2866740525 -0.2206527740 0.5816831589 4282006854
-0.2867611051 -0.2200732827 0.5818597674 4282072647
-0.2868479490 -0.2194932550 0.5820360184 4282138440
-0.2869346440 -0.2189127058 0.5822119117 4282138440
-0.2866021395 -0.2180128992 0.5815372467 4282204233
-0.2862692177 -0.2171142697 0.5808616877 4282270026
-0.2867743671 -0.2168508768 0.5818867087 4282401612
-0.2868602276 -0.2162690759 0.5820609331 4282467405
-0.2869458795 -0.2156867683 0.5822347403 4282072645
-0.2878706455 -0.2157328874 0.5841111541 4282401610
-0.2883759439 -0.2154614478 0.5851364732 4282598989
-0.2888813317 -0.2151877731 0.5861619115 4282072645
-0.2893867791 -0.2149118781 0.5871875286 4281414715
-0.2903124392 -0.2149448097 0.5890657306 4281414715
-0.2916586399 -0.2152840048 0.5917972922 4281677887
-0.2921646535 -0.2149988413 0.5928240418 4281546301
-0.2926707268 -0.2147114277 0.5938508511 4280690992
-0.2931768596 -0.2144217938 0.5948778391 4280888371
-0.2928415239 -0.2135163546 0.5941974521 4281414715
-0.2933475375 -0.2132239342 0.5952241421 4281480508
-0.2934325933 -0.2126242369 0.5953966975 4281085752
-0.2935174406 -0.2120240033 0.5955688953 4280493615
-0.2936021090 -0.2114232630 0.5957407355 4281743682
-0.2936865985 -0.2108219862 0.5959121585 4282862163
-0.2950353324 -0.2111250311 0.5986487865 4288849585
-0.2942765653 -0.2099186480 0.5971092582 4290033859
-0.2952040434 -0.2099147141 0.5989911556 4290428617
-0.2995722592 -0.2015396059 0.6078546047 4290494411
-0.3000775874 -0.2012030482 0.6088799238 4289573309
-0.3001589775 -0.2005809247 0.6090450883 4288454828
-0.2998160720 -0.1996758729 0.6083493233 4287204248
-0.2998969257 -0.1990536153 0.6085133553 4286085767
-0.2999775708 -0.1984308511 0.6086769700 4284178282
-0.2992091775 -0.1972480267 0.6071178317 4283191387
-0.2992891669 -0.1966260225 0.6072801948 4282138699
-0.2993689477 -0.1960035264 0.6074420810 4281612355
-0.2994485199 -0.1953805387 0.6076034904 4281480769
-0.2995278835 -0.1947570443 0.6077645421 4281612355
-0.2991820574 -0.1938576996 0.6070628166 4281612355
-0.2992608845 -0.1932341009 0.6072227955 4281349183
-0.2993395030 -0.1926100105 0.6073822975 4281085498
-0.2994178832 -0.1919854432 0.6075413823 4280888119
-0.2999214828 -0.1916321963 0.6085632443 4281348924
-0.2995740473 -0.1907348186 0.6078582406 4282335819
-0.2996518016 -0.1901087761 0.6080160141 4284112230
-0.2993035913 -0.1892130971 0.6073094606 4286678157
-0.3031619191 -0.1677310616 0.6151382923 4288520361
-0.3028020263 -0.1668492854 0.6144080162 4283191128
-0.3028713167 -0.1662046462 0.6145486236 4283585116
-0.3025106490 -0.1653247327 0.6138167977 4283979874
-0.3025793433 -0.1646801233 0.6139562130 4283979874
-0.3022179008 -0.1638020873 0.6132228374 4285295734
-0.3009960651 -0.1624612659 0.6107435822 4287664282
-0.3006335497 -0.1615878493 0.6100080609 4287532696
-0.2998404503 -0.1604855806 0.6083987951 4285164148
-0.2990467250 -0.1593865603 0.6067882776 4281545533
-0.2978219986 -0.1580623835 0.6043031812 4282400842
-0.2978878915 -0.1574257761 0.6044368744 4282006084
-0.2979535460 -0.1567887515 0.6045700908 4281545533
-0.2980189323 -0.1561513096 0.6047028303 4281282361
-0.2980841100 -0.1555134356 0.6048350334 4281150773
-0.2968564928 -0.1542037278 0.6023440957 4281019187
-0.2969209254 -0.1535677910 0.6024748087 4281150264
-0.2956919670 -0.1522655636 0.5999811888 4281084471
-0.2594312131 -0.1148772463 0.5264053941 4285164926
-0.2594798505 -0.1143137962 0.5265040994 4285625477
-0.2590942681 -0.1135598123 0.5257217288 4285428098
-0.2595764697 -0.1131859496 0.5267000794 4284835961
-0.2596244216 -0.1126215607 0.5267974138 4284835961
-0.2592379451 -0.1118694693 0.5260132551 4284770938
-0.2597196996 -0.1114918366 0.5269907713 4284573559
-0.2593325973 -0.1107410118 0.5262053013 4284902524
-0.2593795955 -0.1101763248 0.5263006687 4285231489
-0.2594263852 -0.1096113324 0.5263955593 4285560454
-0.2581690550 -0.1084980592 0.5238443613 4285955212
-0.2914283872 -0.2551095486 0.5926656723 4287597701
-0.2915259600 -0.2545362711 0.5928641558 4286939771
-0.2912115157 -0.2536036968 0.5922246575 4287004273
-0.2904845774 -0.2523142695 0.5907463431 4286872687
-0.2897569537 -0.2510275543 0.5892665386 4286675302
-0.2890286148 -0.2497434914 0.5877853632 4286477923
-0.2862373292 -0.2466848493 0.5821089149 4287069025
-0.2867446542 -0.2464741617 0.5831406116 4287397990
-0.2860139608 -0.2451998144 0.5816546082 4287397473
-0.2861082554 -0.2446341813 0.5818463564 4286936922
-0.2857894003 -0.2437157929 0.5811979175 4286871383
-0.2858832479 -0.2431498617 0.5813887715 4287463520
-0.2859769464 -0.2425833642 0.5815793276 4287924585
-0.2856570780 -0.2416665852 0.5809288025 4287924585
-0.2857502997 -0.2410998046 0.5811184645 4287333228
-0.2854297161 -0.2401843816 0.5804665089 4282859304
-0.2855225205 -0.2396173030 0.5806551576 4280163609
-0.2856151462 -0.2390496880 0.5808435678 4281282090
-0.2857076228 -0.2384815067 0.5810316205 4280559155
-0.2857999206 -0.2379127890 0.5812193155 4280361776
-0.2854777277 -0.2369995266 0.5805641413 4280361775
-0.2855695784 -0.2364305258 0.5807508826 4280295982
-0.2852466702 -0.2355186492 0.5800942183 4280558890
-0.2853380740 -0.2349493802 0.5802800655 4280624683
-0.2858441770 -0.2347202301 0.5813093185 4280624429
-0.2859353721 -0.2341490388 0.5814948082 4280624429
-0.2856112719 -0.2332382947 0.5808357000 4280690222
-0.2852867544 -0.2323286682 0.5801756978 4280690222
-0.2845464051 -0.2310827971 0.5786700845 4280690475
-0.2842208743 -0.2301762402 0.5780081153 4280690475
-0.2834792733 -0.2289351225 0.5764999390 4280690224
-0.2835685909 -0.2283664942 0.5766815543 4280821810
-0.2836576998 -0.2277973294 0.5768628120 4280887603
-0.2837466598 -0.2272276431 0.5770437121 4280953396
-0.2838354409 -0.2266574055 0.5772242546 4281019187
-0.2839240730 -0.2260866314 0.5774044991 4281019187
-0.2840125263 -0.2255153358 0.5775843859 4280953394
-0.2841008008 -0.2249435037 0.5777639151 4280953394
-0.2841889262 -0.2243711352 0.5779431462 4281084980
-0.2842768729 -0.2237982303 0.5781219602 4281150773
-0.2839476764 -0.2228974849 0.5774525404 4281413945
-0.2844522595 -0.2226508409 0.5784786344 4281742910
-0.2845396698 -0.2220763415 0.5786564350 4282006082
-0.2846269310 -0.2215013206 0.5788338780 4282006082
-0.2847140133 -0.2209257632 0.5790109634 4282006082
-0.2848009467 -0.2203496844 0.5791877508 4282006082
-0.2848876715 -0.2197730839 0.5793641210 4282071875
-0.2845563889 -0.2188745439 0.5786904097 4282006082
-0.2846426368 -0.2182977349 0.5788658261 4282006082
-0.2843106389 -0.2174006999 0.5781906247 4282006082
-0.2843964100 -0.2168236822 0.5783650875 4281809473
-0.2844820321 -0.2162461579 0.5785391927 4281743680
-0.2845674455 -0.2156680971 0.5787129402 4281743680
-0.2846527100 -0.2150895298 0.5788862705 4281612094
-0.2847377658 -0.2145104408 0.5790593028 4281151545
-0.2852415144 -0.2142454237 0.5800837874 4281283131
-0.2857453525 -0.2139782012 0.5811083317 4281348924
-0.2862492502 -0.2137087435 0.5821331143 4280954166
-0.2871724367 -0.2137490958 0.5840105414 4280690994
-0.2880959213 -0.2137855142 0.5858886242 4280822580
-0.2890197337 -0.2138179988 0.5877673626 4280822580
-0.2895242572 -0.2135370523 0.5887933969 4280427822
-0.2900288403 -0.2132538706 0.5898194909 4280098855
-0.2901136279 -0.2126606852 0.5899919868 4280493613
-0.2906182110 -0.2123738974 0.5910180807 4280888371
-0.2907027602 -0.2117788196 0.5911900401 4280230441
-0.2912073135 -0.2114884108 0.5922161341 4279967269
-0.2908712626 -0.2105871141 0.5915327072 4280822578
-0.2909552455 -0.2099904865 0.5917035341 4281414717
-0.2914596200 -0.2096959352 0.5927292109 4281085752
-0.2919640243 -0.2093991339 0.5937550068 4282204233
-0.2924684882 -0.2091000974 0.5947809219 4282664784
-0.2933939397 -0.2090988159 0.5966629386 4283059288
-0.2943196595 -0.2090935558 0.5985456109 4283717218
-0.2956668735 -0.2093825638 0.6012853384 4283915110
-0.2949081063 -0.2081788778 0.5997422338 4283980903
-0.2962557375 -0.2084607929 0.6024829149 4284244075
-0.2967608273 -0.2081456482 0.6035100818 4284441454
-0.2968443036 -0.2075334638 0.6036798358 4284902005
-0.2965058088 -0.2066268474 0.6029914021 4284902005
-0.2965887487 -0.2060144991 0.6031601429 4284836212
-0.2966715097 -0.2054016441 0.6033284068 4284770419
-0.2967540622 -0.2047882676 0.6034963131 4284638833
-0.2968364060 -0.2041743845 0.6036638021 4284573040
-0.2969185710 -0.2035599947 0.6038308740 4284441454
-0.2970004976 -0.2029450834 0.6039975286 4284309868
-0.2970822453 -0.2023296803 0.6041637659 4284244075
-0.2971637845 -0.2017137557 0.6043295860 4284046696
-0.2976679504 -0.2013833821 0.6053548455 4283651425
-0.2977492213 -0.2007655799 0.6055201292 4282993495
-0.2978302538 -0.2001472712 0.6056849360 4282467151
-0.2979110777 -0.1995284408 0.6058493257 4282203979
-0.2975684404 -0.1986265779 0.6051524878 4281875014
-0.2976487279 -0.1980076432 0.6053158045 4281414463
-0.2977288365 -0.1973882020 0.6054787040 4281678148
-0.2978087366 -0.1967682540 0.6056411862 4282007113
-0.2974646688 -0.1958687901 0.6049414873 4281743941
-0.2975440323 -0.1952487379 0.6051028371 4281020218
-0.2976231873 -0.1946281940 0.6052638292 4280624947
-0.2977021337 -0.1940071434 0.6054243445 4280559154
-0.2973566651 -0.1931101233 0.6047218442 4280888373
-0.2974350750 -0.1924889833 0.6048812866 4281414717
-0.2975132763 -0.1918673366 0.6050403118 4282664784
-0.2975912690 -0.1912452132 0.6051989198 4284770160
-0.2980936766 -0.1908945292 0.6062206030 4287204501
-0.3013184965 -0.1670876890 0.6127787828 4289507256
-0.3013877273 -0.1664450914 0.6129196286 4283454300
-0.3010279238 -0.1655661911 0.6121879220 4283585886
-0.3010965884 -0.1649236232 0.6123275757 4283783265
-0.3007360399 -0.1640466005 0.6115942597 4284046437
-0.3003750145 -0.1631709635 0.6108601093 4284770160
-0.2995843887 -0.1620645523 0.6092522144 4286480008
-0.2987931371 -0.1609613746 0.6076430678 4287137938
-0.2984306514 -0.1600917876 0.6069058776 4284308839
-0.2972087264 -0.1587647498 0.6044209599 4281940291
-0.2964156270 -0.1576713175 0.6028080583 4282466635
-0.2964812517 -0.1570363045 0.6029415131 4281808705
-0.2961168587 -0.1561742276 0.6022004485 4281479740
-0.2961819172 -0.1555393040 0.6023327708 4281150775
-0.2962467670 -0.1549039632 0.6024646163 4281216568
-0.2950211763 -0.1535965055 0.5999721885 4280953396
-0.2929344773 -0.1518482119 0.5957285762 4281150264
-0.2917070985 -0.1505528539 0.5932325125 4281084471
-0.2576571703 -0.1143493950 0.5239866376 4285034110
-0.2581868470 -0.1134176925 0.5250638127 4285757063
-0.2582348287 -0.1128552780 0.5251613855 4285164926
-0.2587159574 -0.1124809608 0.5261397958 4284572789
-0.2583301365 -0.1117295176 0.5253551602 4284441973
-0.2579439282 -0.1109796464 0.5245697498 4284441973
-0.2579909563 -0.1104169339 0.5246654153 4284573559
-0.2580377460 -0.1098539159 0.5247605443 4284902524
-0.2567830384 -0.1087395474 0.5222089291 4285164926
-0.2559615076 -0.1078132913 0.5205382109 4285362305
-0.2890205085 -0.2522654533 0.5890995264 4290820008
-0.2882944942 -0.2509788573 0.5876196623 4291017387
-0.2875677347 -0.2496949434 0.5861384273 4290687903
-0.2860172391 -0.2477009147 0.5829780698 4290622110
-0.2869355083 -0.2478463501 0.5848497152 4290621847
-0.2857951224 -0.2462141067 0.5825253129 4290490261
-0.2854776680 -0.2452940941 0.5818782449 4290884756
-0.2855718434 -0.2447283119 0.5820702314 4290884756
-0.2852536738 -0.2438096404 0.5814217329 4290555789
-0.2853474021 -0.2432435453 0.5816127658 4290424203
-0.2854410112 -0.2426768988 0.5818035603 4290359180
-0.2855344415 -0.2421096861 0.5819939971 4290490766
-0.2852149308 -0.2411928773 0.5813427567 4289373065
-0.2848950326 -0.2402771562 0.5806907415 4284109625
-0.2849877179 -0.2397099286 0.5808796287 4280426781
-0.2846670747 -0.2387955636 0.5802261233 4281084711
-0.2847593129 -0.2382280529 0.5804141164 4280361778
-0.2848514020 -0.2376599908 0.5806017518 4280361778
-0.2849433124 -0.2370913774 0.5807890892 4280361775
-0.2842076719 -0.2358356565 0.5792896748 4280032810
-0.2842989862 -0.2352675945 0.5794758201 4280361511
-0.2843901515 -0.2346989810 0.5796616673 4280493097
-0.2848952413 -0.2344706357 0.5806911588 4280492843
-0.2849862278 -0.2339001000 0.5808765888 4280427050
-0.2842483222 -0.2326507568 0.5793725252 4280427820
-0.2839241922 -0.2317424864 0.5787119269 4280427820
-0.2835996747 -0.2308353335 0.5780504346 4280493096
-0.2832746804 -0.2299293131 0.5773880482 4280493096
-0.2829492986 -0.2290244102 0.5767248273 4280624431
-0.2826234698 -0.2281206399 0.5760607123 4280690224
-0.2827123702 -0.2275521457 0.5762419105 4280690222
-0.2828011215 -0.2269831300 0.5764227509 4280690222
-0.2824742794 -0.2260810882 0.5757565498 4280756015
-0.2829780579 -0.2258434594 0.5767834187 4280756015
-0.2830663025 -0.2252728343 0.5769633055 4280756015
-0.2827385664 -0.2243717015 0.5762952566 4280821808
-0.2832422554 -0.2241299599 0.5773218870 4280756015
-0.2833299637 -0.2235577255 0.5775007010 4280953394
-0.2834175229 -0.2229849696 0.5776791573 4281150773
-0.2826722860 -0.2217584848 0.5761601925 4281282359
-0.2827592492 -0.2211863548 0.5763373971 4281348152
-0.2832625806 -0.2209385931 0.5773633718 4281413945
-0.2833493054 -0.2203645557 0.5775401592 4281348406
-0.2834358811 -0.2197899967 0.5777165890 4281216820
-0.2835222781 -0.2192149013 0.5778926611 4281084980
-0.2836084962 -0.2186392844 0.5780684352 4280953394
-0.2836945355 -0.2180631459 0.5782437921 4280953394
-0.2837803960 -0.2174864858 0.5784187913 4281019187
-0.2834486365 -0.2165903151 0.5777425766 4280887601
-0.2831164598 -0.2156953216 0.5770655274 4280953394
-0.2832015455 -0.2151187956 0.5772389174 4281084980
-0.2832864523 -0.2145417482 0.5774120092 4281019187
-0.2833711803 -0.2139641792 0.5775847435 4280492845
-0.2834557295 -0.2133861035 0.5777570605 4280295466
-0.2839583158 -0.2131213695 0.5787814260 4280230443
-0.2844609618 -0.2128544152 0.5798059702 4280362029
-0.2853821218 -0.2128974050 0.5816835165 4280362029
-0.2858850360 -0.2126251459 0.5827085972 4280427822
-0.2863880098 -0.2123506516 0.5837337971 4280230443
-0.2873098552 -0.2123835385 0.5856127739 4279835685
-0.2878130674 -0.2121037245 0.5866384506 4279506718
-0.2883163393 -0.2118216753 0.5876642466 4279901476
-0.2888196707 -0.2115373909 0.5886901617 4280098855
-0.2884844542 -0.2106385529 0.5880069137 4280033062
-0.2885682285 -0.2100462168 0.5881776810 4280033062
-0.2886518240 -0.2094533592 0.5883480310 4280625199
-0.2887352109 -0.2088599950 0.5885180235 4280888371
-0.2892382145 -0.2085688263 0.5895432830 4280954164
-0.2897412777 -0.2082754076 0.5905686617 4281151545
-0.2902444005 -0.2079797536 0.5915941000 4281414717
-0.2907475531 -0.2076818645 0.5926197171 4281941061
-0.2916710377 -0.2076809704 0.5945019722 4282204233
-0.2925947905 -0.2076761127 0.5963848829 4282270026
-0.2930983305 -0.2073697299 0.5974112153 4282138440
-0.2940225601 -0.2073577642 0.5992950201 4282138186
-0.2945262790 -0.2070460320 0.6003217697 4282006600
-0.2941883206 -0.2061422169 0.5996329188 4281875525
-0.2942709327 -0.2055336684 0.5998012424 4281941318
-0.2943533063 -0.2049245983 0.5999692082 4282007111
-0.2940143049 -0.2040227354 0.5992781520 4282072904
-0.2940961719 -0.2034135312 0.5994450450 4282072904
-0.2945993245 -0.2030943632 0.6004706025 4282138697
-0.2946809232 -0.2024832666 0.6006368995 4282270283
-0.2951839864 -0.2021604627 0.6016623378 4282401869
-0.2952653170 -0.2015474737 0.6018280387 4282401358
-0.2953464091 -0.2009339780 0.6019933820 4282401358
-0.2954273224 -0.2003199756 0.6021583080 4282203979
-0.2955080271 -0.1997054815 0.6023227572 4281743428
-0.2955885231 -0.1990904659 0.6024868488 4281414463
-0.2952464223 -0.1981914341 0.6017895937 4281282877
-0.2957488894 -0.1978589594 0.6028137803 4281151291
-0.2954061627 -0.1969606727 0.6021151543 4280953912
-0.2954857349 -0.1963445544 0.6022773385 4280625201
-0.2955650985 -0.1957279295 0.6024391055 4281283131
-0.2956442237 -0.1951108128 0.6026003957 4281414717
-0.2953000963 -0.1942149401 0.6018989682 4281546303
-0.2958019078 -0.1938750893 0.6029217839 4282927956
-0.2958804369 -0.1932564825 0.6030818224 4284704367
-0.2959587276 -0.1926373839 0.6032414436 4286414985
-0.2960368395 -0.1920178086 0.6034006476 4287730845
-0.2999069393 -0.1666814387 0.6112889051 4290033600
-0.2995479703 -0.1658035666 0.6105572581 4283520093
-0.2996166348 -0.1651630253 0.6106972098 4283717472
-0.2992569208 -0.1642870307 0.6099640131 4283717472
-0.2993249893 -0.1636465341 0.6101027727 4284178023
-0.2989645004 -0.1627724022 0.6093680263 4284506988
-0.2981751859 -0.1616673917 0.6077591777 4285230711
-0.2973852456 -0.1605656147 0.6061490774 4286678157
-0.2965947092 -0.1594670862 0.6045377254 4283454300
-0.2958035171 -0.1583718210 0.6029250622 4282270026
-0.2950117290 -0.1572797894 0.6013112068 4282270026
-0.2946482003 -0.1564187109 0.6005702615 4281546303
-0.2947132587 -0.1557858139 0.6007028222 4281479740
-0.2947780490 -0.1551524997 0.6008349061 4281019189
-0.2948426306 -0.1545187831 0.6009665132 4281348154
-0.2936191559 -0.1532126516 0.5984727740 4280887603
-0.2936829925 -0.1525808573 0.5986028910 4281150264
-0.2577128112 -0.1134657487 0.5252862573 4285362305
-0.2573282719 -0.1127136797 0.5245023966 4285099133
-0.2574233115 -0.1115893573 0.5246961713 4285099903
-0.2570377886 -0.1108401343 0.5239103436 4285034110
-0.2566984594 -0.1095311493 0.5232186913 4285165696
-0.2571777999 -0.1091532558 0.5241957307 4285428098
-0.2554918826 -0.1078590974 0.5207593441 4285559684
-0.2564038038 -0.1076634154 0.5226181149 4285493891
-0.2555830479 -0.1067399755 0.5209451914 4285691270
-0.2564948201 -0.1065398902 0.5228036642 4285757833
-0.2882832885 -0.2535015941 0.5889301300 4290295466
-0.2879697680 -0.2525722682 0.5882896185 4290427052
-0.2876558006 -0.2516439855 0.5876482129 4290556064
-0.2873414159 -0.2507167459 0.5870059729 4290490271
-0.2866159678 -0.2494332194 0.5855240226 4290883740
-0.2863005996 -0.2485089004 0.5848796964 4290686361
-0.2863956988 -0.2479413897 0.5850740075 4290817941
-0.2852575481 -0.2463085800 0.5827488303 4291212699
-0.2849407494 -0.2453882843 0.5821017027 4291804836
-0.2846235335 -0.2444690615 0.5814536214 4292068008
-0.2847173214 -0.2439033687 0.5816452503 4292002472
-0.2848109603 -0.2433371246 0.5818365216 4292199851
-0.2849044502 -0.2427703142 0.5820274949 4292135086
-0.2845859230 -0.2418529540 0.5813767910 4291937707
-0.2842669785 -0.2409366667 0.5807252526 4291018410
-0.2843597233 -0.2403698415 0.5809146762 4285689177
-0.2840400636 -0.2394549102 0.5802616477 4281018150
-0.2841323316 -0.2388877869 0.5804501772 4281741873
-0.2842244804 -0.2383201271 0.5806384087 4281347892
-0.2839038074 -0.2374068350 0.5799832940 4280887341
-0.2839954793 -0.2368388921 0.5801705718 4281084970
-0.2840870023 -0.2362703830 0.5803575516 4280690212
-0.2837652862 -0.2353587449 0.5797003508 4280295717
-0.2838563621 -0.2347899824 0.5798863769 4280822061
-0.2843605578 -0.2345616072 0.5809164643 4280690740
-0.2836245596 -0.2333106995 0.5794128180 4280427568
-0.2828878164 -0.2320625782 0.5779078007 4280624433
-0.2825641334 -0.2311556786 0.5772465467 4280690226
-0.2822400033 -0.2302498966 0.5765843987 4280754993
-0.2823294401 -0.2296820283 0.5767670870 4280491821
-0.2820045948 -0.2287776619 0.5761034489 4280625199
-0.2820935547 -0.2282095402 0.5762851834 4280625199
-0.2821823657 -0.2276408821 0.5764666200 4280690992
-0.2818565071 -0.2267382443 0.5758008957 4280690992
-0.2819448411 -0.2261693627 0.5759813786 4280756785
-0.2824477553 -0.2259316891 0.5770087838 4280625199
-0.2821210027 -0.2250299603 0.5763412714 4280559406
-0.2822088301 -0.2244594693 0.5765206814 4280625199
-0.2822965086 -0.2238884419 0.5766997933 4280690992
-0.2827992737 -0.2236452848 0.5777269006 4280690992
-0.2824713290 -0.2227447927 0.5770569444 4280822578
-0.2821429670 -0.2218454480 0.5763860941 4280888371
-0.2818141580 -0.2209472507 0.5757144094 4280888371
-0.2819007039 -0.2203752697 0.5758912563 4280888371
-0.2819871008 -0.2198027372 0.5760677457 4280954164
-0.2820733190 -0.2192296982 0.5762438774 4281019957
-0.2821593583 -0.2186561227 0.5764196515 4281019189
-0.2822452486 -0.2180820405 0.5765950680 4280953396
-0.2827473581 -0.2178282291 0.5776208043 4280888373
-0.2824164629 -0.2169322670 0.5769448280 4281019959
-0.2825017869 -0.2163566053 0.5771191716 4281019959
-0.2830037773 -0.2160986811 0.5781446695 4281019959
-0.2826719582 -0.2152037174 0.5774667859 4281085752
-0.2827567756 -0.2146264911 0.5776401162 4281085752
-0.2828414142 -0.2140487432 0.5778130293 4280954166
-0.2829258740 -0.2134704888 0.5779855251 4280954166
-0.2830101848 -0.2128916979 0.5781577229 4280822580
-0.2835118175 -0.2126255482 0.5791825652 4280690994
-0.2844312191 -0.2126694620 0.5810607672 4280493613
-0.2849331200 -0.2123980075 0.5820860863 4280559406
-0.2858529985 -0.2124348879 0.5839653015 4280362027
-0.2863551676 -0.2121580988 0.5849911571 4279375132
-0.2864392102 -0.2115702331 0.5851628780 4279703327
-0.2869413793 -0.2112898380 0.5861887336 4280427050
-0.2870251834 -0.2107000649 0.5863599777 4280558638
-0.2871088386 -0.2101097852 0.5865308046 4280887603
-0.2871922553 -0.2095189840 0.5867012739 4280887603
-0.2872755229 -0.2089276612 0.5868713856 4280690224
-0.2873585820 -0.2083358318 0.5870410800 4280822578
-0.2878604829 -0.2080463171 0.5880663991 4281348922
-0.2883624434 -0.2077545673 0.5890917778 4281151543
-0.2892836928 -0.2077616751 0.5909737945 4281348922
-0.2902052104 -0.2077648193 0.5928564072 4281546303
-0.2907075584 -0.2074646056 0.5938826203 4281612096
-0.2912099361 -0.2071621418 0.5949088931 4281480510
-0.2917123735 -0.2068574280 0.5959353447 4281546303
-0.2922148407 -0.2065504789 0.5969617963 4281546303
-0.2927173376 -0.2062412649 0.5979883671 4281414717
-0.2927998006 -0.2056347728 0.5981568694 4281283390
-0.2924618721 -0.2047336102 0.5974664688 4281086011
-0.2925438285 -0.2041269690 0.5976338983 4280954425
-0.2922051549 -0.2032274008 0.5969420075 4280888632
-0.2922865748 -0.2026206106 0.5971084237 4280691253
-0.2927885056 -0.2023039907 0.5981337428 4280559667
-0.2928696573 -0.2016953081 0.5982995629 4280625460
-0.2933715284 -0.2013750523 0.5993248224 4280757046
-0.2934524119 -0.2007644922 0.5994900465 4280757046
-0.2935330868 -0.2001534253 0.5996548533 4281020218
-0.2936135530 -0.1995418519 0.5998192430 4281283390
-0.2936938405 -0.1989297867 0.5999832153 4281480769
-0.2937738895 -0.1983172148 0.6001468301 4281743941
-0.2938537598 -0.1977041364 0.6003099680 4282072906
-0.2939334214 -0.1970905662 0.6004726887 4282796629
-0.2940128744 -0.1964764893 0.6006349921 4283651938
-0.2940921187 -0.1958619207 0.6007969379 4285296251
-0.2941711843 -0.1952468604 0.6009584069 4286612111
-0.2938278317 -0.1943520606 0.6002570391 4287994277
-0.2984978557 -0.1662747115 0.6097972989 4290165186
-0.2981394231 -0.1653983444 0.6090650558 4283454300
-0.2977805734 -0.1645233631 0.6083319783 4283454298
-0.2978486121 -0.1638849080 0.6084709764 4284112228
-0.2974889874 -0.1630117893 0.6077363491 4284112228
-0.2971289456 -0.1621400863 0.6070008278 4284375400
-0.2963408530 -0.1610374004 0.6053908467 4284900976
-0.2955521643 -0.1599379480 0.6037795544 4285558906
-0.2947628200 -0.1588417590 0.6021670699 4283124567
-0.2939728796 -0.1577488184 0.6005532742 4282400844
-0.2936103046 -0.1568878293 0.5998126268 4282006854
-0.2928192317 -0.1558004767 0.5981965661 4281612096
-0.2933121324 -0.1553969681 0.5992034674 4281479740
-0.2933766842 -0.1547652632 0.5993353128 4281150775
-0.2934409976 -0.1541331559 0.5994667411 4281150777
-0.2926481366 -0.1530524343 0.5978469849 4281019191
-0.2563749552 -0.1131328270 0.5237450004 4284638834
-0.2568543851 -0.1127613783 0.5247244239 4284572787
-0.2565174699 -0.1114489958 0.5240361691 4285296510
-0.2565645576 -0.1108870953 0.5241323113 4285362303
-0.2566580176 -0.1097623706 0.5243232846 4285560454
-0.2567044199 -0.1091995537 0.5244180560 4285691786
-0.2563183606 -0.1084535345 0.5236293674 4285231235
-0.2542479336 -0.1064233109 0.5193997025 4285560200
-0.2873295546 -0.2532375157 0.5883166194 4290558384
-0.2874259949 -0.2526686490 0.5885140896 4290558384
-0.2871127129 -0.2517400682 0.5878726244 4290491041
-0.2867989838 -0.2508125305 0.5872302651 4290359455
-0.2864848375 -0.2498860806 0.5865870714 4290686872
-0.2853502929 -0.2482473105 0.5842640400 4290489493
-0.2854451537 -0.2476804554 0.5844582319 4291015320
-0.2838988304 -0.2456928492 0.5812920928 4291081113
-0.2840866745 -0.2445628345 0.5816767216 4291673250
-0.2841803432 -0.2439969927 0.5818685293 4291739560
-0.2842738926 -0.2434305996 0.5820600390 4292200111
-0.2843672633 -0.2428636402 0.5822512507 4292398262
-0.2836383581 -0.2415958345 0.5807587504 4292200883
-0.2837311327 -0.2410294116 0.5809487700 4291282099
-0.2834124565 -0.2401139140 0.5802962184 4285689694
-0.2835047841 -0.2395471931 0.5804852843 4281084461
-0.2835969925 -0.2389799207 0.5806740522 4281808184
-0.2836890221 -0.2384120971 0.5808624625 4281743164
-0.2837808728 -0.2378437072 0.5810505748 4281479992
-0.2834605873 -0.2369304001 0.5803947449 4281480243
-0.2835519910 -0.2363617420 0.5805819631 4280888106
-0.2836432457 -0.2357925326 0.5807687640 4280427818
-0.2829095423 -0.2345389873 0.5792664886 4281085748
-0.2834127247 -0.2343114018 0.5802968144 4280954425
-0.2839160562 -0.2340816110 0.5813273191 4280559667
-0.2831810415 -0.2328314036 0.5798224211 4280822326
-0.2824453712 -0.2315839678 0.5783160925 4281085498
-0.2825351059 -0.2310148031 0.5784998536 4281084471
-0.2817983031 -0.2297712862 0.5769912004 4281084471
-0.2810608149 -0.2285305560 0.5754811764 4281019959
-0.2811495662 -0.2279631048 0.5756628513 4281019959
-0.2812381387 -0.2273951173 0.5758442283 4281019959
-0.2817402482 -0.2271601558 0.5768723488 4281019959
-0.2814147770 -0.2262575328 0.5762059093 4281019959
-0.2819168270 -0.2260198295 0.5772338510 4281019959
-0.2820048630 -0.2254488617 0.5774141550 4281085752
-0.2816784978 -0.2245471328 0.5767458677 4281151545
-0.2817660570 -0.2239759415 0.5769251585 4281085752
-0.2818534672 -0.2234042138 0.5771041512 4281019959
-0.2819406986 -0.2228319496 0.5772827268 4281085752
-0.2816129923 -0.2219323069 0.5766118169 4281217338
-0.2812848985 -0.2210338265 0.5759399533 4281217338
-0.2813713551 -0.2204616517 0.5761170387 4281348924
-0.2814576626 -0.2198889703 0.5762937069 4281414717
-0.2811285257 -0.2189922780 0.5756198168 4281414717
-0.2812143266 -0.2184193730 0.5757955313 4281414717
-0.2812999785 -0.2178459615 0.5759708881 4281348924
-0.2818011045 -0.2175929397 0.5769969225 4281348924
-0.2814707756 -0.2166975439 0.5763205290 4281348924
-0.2815558910 -0.2161225528 0.5764948726 4281283131
-0.2820568681 -0.2158654332 0.5775206089 4281283131
-0.2821417749 -0.2152885497 0.5776944160 4281348924
-0.2822264731 -0.2147111446 0.5778679252 4281283131
-0.2827274203 -0.2144490480 0.5788936019 4281348924
-0.2828119099 -0.2138697654 0.5790666342 4281151545
-0.2828962505 -0.2132899463 0.5792392492 4280954166
-0.2829803824 -0.2127096206 0.5794115067 4280822580
-0.2838981152 -0.2127535939 0.5812906027 4280756787
-0.2843991518 -0.2124820799 0.5823165178 4281019959
-0.2849002481 -0.2122083306 0.5833424926 4280888373
-0.2854014039 -0.2119323462 0.5843686461 4279967271
-0.2854852378 -0.2113451362 0.5845403671 4279769892
-0.2859864235 -0.2110655457 0.5855664611 4280625201
-0.2860700190 -0.2104764432 0.5857376456 4281282877
-0.2865711749 -0.2101932466 0.5867637992 4281809221
-0.2866545320 -0.2096022516 0.5869344473 4282006600
-0.2863197029 -0.2087060660 0.5862489343 4281546049
-0.2880750000 -0.2093301862 0.5898429155 4280888119
-0.2864852250 -0.2075232416 0.5865878463 4282532944
-0.2874044180 -0.2075352520 0.5884699225 4287138454
-0.2879054248 -0.2072420418 0.5894957185 4288322728
-0.2884064615 -0.2069466114 0.5905216336 4288914866
-0.2889075875 -0.2066489160 0.5915476680 4288783280
-0.2894087136 -0.2063489854 0.5925737619 4288586414
-0.2899099290 -0.2060468048 0.5935999751 4288191656
-0.2904111445 -0.2057423890 0.5946263075 4287796898
-0.2909124494 -0.2054357082 0.5956526995 4287467933
-0.2909944654 -0.2048316300 0.5958206058 4286809490
-0.2910763025 -0.2042270452 0.5959881544 4286546318
-0.2911579311 -0.2036219388 0.5961553454 4286283146
-0.2908197045 -0.2027238160 0.5954627991 4286019974
-0.2909008265 -0.2021185756 0.5956289172 4285691522
-0.2909817398 -0.2015128285 0.5957946181 4285691522
-0.2914824784 -0.2011964768 0.5968198776 4285954694
-0.2915631235 -0.2005888522 0.5969849825 4286217866
-0.2920638025 -0.2002688795 0.5980101228 4286612624
-0.2921441495 -0.1996593624 0.5981746912 4286941589
-0.2922243178 -0.1990493536 0.5983387828 4287467933
-0.2923042774 -0.1984388381 0.5985025167 4288125863
-0.2966650128 -0.1656295657 0.6074312329 4289638842
-0.2967333496 -0.1649926603 0.6075711846 4283059542
-0.2963750064 -0.1641191840 0.6068375111 4283849056
-0.2960162461 -0.1632470936 0.6061029434 4283914849
-0.2960837185 -0.1626107097 0.6062410474 4284243814
-0.2957241833 -0.1617405117 0.6055049300 4284441193
-0.2949374318 -0.1606392264 0.6038939953 4284966769
-0.2941500545 -0.1595412046 0.6022818089 4284966769
-0.2933620512 -0.1584464163 0.6006683111 4282927186
-0.2921463251 -0.1571251750 0.5981791019 4282400842
-0.2917841971 -0.1562666148 0.5974376202 4282071877
-0.2914216518 -0.1554094851 0.5966953039 4281545533
-0.2914860845 -0.1547807306 0.5968272686 4281413947
-0.2919777930 -0.1543775946 0.5978340507 4281216568
-0.2911866903 -0.1532968730 0.5962142348 4281216057
-0.2903949618 -0.1522194296 0.5945931673 4281018678
-0.2900304198 -0.1513685435 0.5938467383 4281084471
-0.2892375886 -0.1502967477 0.5922233462 4281084471
-0.2548902333 -0.1092542559 0.5218960643 4285626247
-0.2549363375 -0.1086940542 0.5219904780 4285494407
-0.2545508146 -0.1079505831 0.5212010741 4285428614
-0.2545964122 -0.1073907316 0.5212944150 4285362821
-0.2542102039 -0.1066495031 0.5205036402 4285231235
-0.2542552948 -0.1060900018 0.5205959678 4285362822
-0.2847152650 -0.2489085943 0.5842925310 4291345572
-0.2844009399 -0.2479853332 0.5836474895 4291213986
-0.2836768627 -0.2467071414 0.5821614861 4291278749
-0.2837710381 -0.2461420149 0.5823547840 4291147163
-0.2834554613 -0.2452219576 0.5817071199 4291410336
-0.2835491896 -0.2446565181 0.5818995237 4291673508
-0.2836427689 -0.2440905273 0.5820915699 4291608746
-0.2837361991 -0.2435239702 0.5822833180 4291937711
-0.2838294804 -0.2429568470 0.5824747086 4291807154
-0.2839225829 -0.2423891723 0.5826658010 4291412396
-0.2840155661 -0.2418209463 0.5828565955 4290558638
-0.2832872272 -0.2405548841 0.5813619494 4285426784
-0.2829689085 -0.2396393716 0.5807086825 4281413686
-0.2830609977 -0.2390719503 0.5808976293 4281742651
-0.2831529379 -0.2385039479 0.5810862780 4281545533
-0.2832446992 -0.2379354089 0.5812746286 4281413947
-0.2833363116 -0.2373663187 0.5814626217 4281414968
-0.2830163836 -0.2364529967 0.5808060765 4281086003
-0.2826960385 -0.2355407625 0.5801486969 4280427820
-0.2831985354 -0.2353136986 0.5811798573 4281217336
-0.2828775942 -0.2344020456 0.5805212855 4281020219
-0.2829681337 -0.2338318527 0.5807070732 4280493875
-0.2826464772 -0.2329215854 0.5800469518 4280953912
-0.2819122672 -0.2316737324 0.5785402060 4281282877
-0.2820019126 -0.2311044037 0.5787242055 4281084471
-0.2816789746 -0.2301974893 0.5780614614 4281216057
-0.2809430957 -0.2289554924 0.5765512586 4281217338
-0.2810318470 -0.2283870429 0.5767334104 4281151545
-0.2807076573 -0.2274835259 0.5760681033 4281217338
-0.2807959616 -0.2269148380 0.5762493014 4281283131
-0.2812971771 -0.2266784608 0.5772778988 4281217338
-0.2813852727 -0.2261078656 0.5774587393 4281348924
-0.2814732194 -0.2255367339 0.5776391625 4281414717
-0.2815609872 -0.2249650508 0.5778192878 4281348924
-0.2816485763 -0.2243928462 0.5779990554 4281348924
-0.2817360163 -0.2238201052 0.5781785250 4281283131
-0.2814094424 -0.2229190171 0.5775083303 4281348924
-0.2806684673 -0.2216921002 0.5759876966 4281348924
-0.2807550132 -0.2211202979 0.5761653185 4281348924
-0.2808413804 -0.2205479592 0.5763425231 4281414717
-0.2809275687 -0.2199750990 0.5765194297 4281414717
-0.2805991173 -0.2190781087 0.5758454204 4281348924
-0.2810994685 -0.2188277841 0.5768721700 4281414463
-0.2811851501 -0.2182533443 0.5770480037 4281348670
-0.2812706530 -0.2176783830 0.5772234797 4281414463
-0.2813559771 -0.2171029001 0.5773985982 4281480256
-0.2818562388 -0.2168462425 0.5784252286 4281480256
-0.2823565900 -0.2165873647 0.5794520378 4281546049
-0.2820262909 -0.2156909406 0.5787742138 4281611842
-0.2825265229 -0.2154293209 0.5798007846 4281611842
-0.2826112211 -0.2148495167 0.5799746513 4281546049
-0.2831114829 -0.2145842910 0.5810012817 4281348670
-0.2831959724 -0.2140025944 0.5811746120 4281348670
-0.2841122150 -0.2140471637 0.5830549598 4281151291
-0.2837804854 -0.2131501734 0.5823741555 4281151291
-0.2842807472 -0.2128777355 0.5834008455 4281414463
-0.2847810984 -0.2126030773 0.5844276547 4280822839
-0.2848650515 -0.2120162100 0.5845999122 4279835944
-0.2849487960 -0.2114288211 0.5847718120 4280362288
-0.2854490876 -0.2111491561 0.5857985020 4281086011
-0.2855325937 -0.2105598897 0.5859698653 4281941321
-0.2860328853 -0.2102766186 0.5869965553 4283849318
-0.2856990695 -0.2093797773 0.5863114595 4284573041
-0.2857820094 -0.2087889463 0.5864817500 4282665044
-0.2858648002 -0.2081976086 0.5866515636 4280954426
-0.2863648236 -0.2079088241 0.5876777172 4283520353
-0.2952616811 -0.1652218103 0.6059358716 4289112496
-0.2953297496 -0.1645865142 0.6060755849 4283059540
-0.2945463061 -0.1634783000 0.6044678092 4283980642
-0.2950394750 -0.1630792767 0.6054798365 4283783263
-0.2942550778 -0.1619747728 0.6038700938 4284112228
-0.2938959897 -0.1611069888 0.6031332016 4284112228
-0.2935364842 -0.1602406055 0.6023954749 4285229941
-0.2923243046 -0.1589123458 0.5999078155 4284243046
-0.2919637561 -0.1580506265 0.5991678834 4282860880
-0.2911764681 -0.1569605172 0.5975522399 4282400329
-0.2903885841 -0.1558736712 0.5959352851 4282005571
-0.2900265753 -0.1550180465 0.5951923728 4281413434
-0.2900907695 -0.1543909162 0.5953240991 4281413434
-0.2905814052 -0.1539894789 0.5963310003 4281281848
-0.2906452119 -0.1533605754 0.5964619517 4281150264
-0.2898550332 -0.1522827148 0.5948403478 4281018678
-0.2890642285 -0.1512081474 0.5932174921 4281018678
-0.2557558715 -0.1092920080 0.5248620510 4285625993
-0.2545100152 -0.1081793010 0.5223053694 4285625993
-0.2541249394 -0.1074361801 0.5215150714 4285362822
-0.2537394762 -0.1066946611 0.5207240582 4285033857
-0.2533536553 -0.1059547365 0.5199322104 4285297029
-0.2847288251 -0.2540440857 0.5856552720 4289705146
-0.2844176292 -0.2531163990 0.5850151181 4288914337
-0.2849211991 -0.2529134154 0.5860509276 4288914337
-0.2846094072 -0.2519862056 0.5854096413 4288980124
-0.2847050726 -0.2514202595 0.5856063962 4288980124
-0.2839845419 -0.2501349747 0.5841243863 4289439643
-0.2844878137 -0.2499280870 0.5851594806 4289505436
-0.2841745913 -0.2490034848 0.5845152140 4289570451
-0.2838609517 -0.2480799407 0.5838701129 4289570451
-0.2839554548 -0.2475135922 0.5840644836 4290029971
-0.2832323909 -0.2462360412 0.5825772285 4289832592
-0.2833262980 -0.2456701845 0.5827704072 4289898128
-0.2830111086 -0.2447500974 0.5821220875 4289832335
-0.2831045687 -0.2441839427 0.5823143721 4289504399
-0.2831979096 -0.2436172366 0.5825062990 4289635985
-0.2832910717 -0.2430499643 0.5826979280 4289636757
-0.2833840847 -0.2424821258 0.5828892589 4289373585
-0.2834769189 -0.2419137359 0.5830802321 4288058768
-0.2827500701 -0.2406472564 0.5815851688 4284308567
-0.2824324071 -0.2397314608 0.5809317827 4281610813
-0.2825244069 -0.2391638607 0.5811209679 4281742399
-0.2826162279 -0.2385957092 0.5813098550 4281611073
-0.2827078700 -0.2380270213 0.5814983845 4281611073
-0.2827993929 -0.2374577671 0.5816866159 4281283642
-0.2828907371 -0.2368879616 0.5818744898 4280954677
-0.2825711966 -0.2359746099 0.5812172294 4280296495
-0.2822512388 -0.2350623757 0.5805591345 4281151804
-0.2823418379 -0.2344925702 0.5807454586 4281151805
-0.2816100419 -0.2332412302 0.5792402625 4280493875
-0.2812888324 -0.2323323190 0.5785795450 4281216568
-0.2809671760 -0.2314245403 0.5779179335 4281545533
-0.2806450725 -0.2305178791 0.5772554278 4281018678
-0.2803225815 -0.2296123356 0.5765920877 4281150264
-0.2804113925 -0.2290442586 0.5767747760 4281413947
-0.2800881863 -0.2281401455 0.5761099458 4281413947
-0.2801765501 -0.2275718302 0.5762917399 4281348154
-0.2802647650 -0.2270029783 0.5764731765 4281348154
-0.2803528011 -0.2264335752 0.5766542554 4281348154
-0.2804406881 -0.2258636504 0.5768350363 4281348154
-0.2805283964 -0.2252931893 0.5770153999 4281348154
-0.2810285985 -0.2250526696 0.5780442953 4281216568
-0.2811160982 -0.2244802862 0.5782243013 4281348154
-0.2812034488 -0.2239073813 0.5784039497 4281413947
-0.2812906206 -0.2233339399 0.5785832405 4281479740
-0.2809644341 -0.2224328518 0.5779122710 4281479740
-0.2806378007 -0.2215329260 0.5772404671 4281479740
-0.2807241976 -0.2209595740 0.5774182081 4281677119
-0.2808104455 -0.2203857005 0.5775955915 4281742912
-0.2804827988 -0.2194875628 0.5769216418 4281808705
-0.2809823751 -0.2192363590 0.5779492259 4281545533
-0.2810680866 -0.2186609060 0.5781255364 4281611326
-0.2815676928 -0.2184060961 0.5791531801 4281677119
-0.2816531956 -0.2178287357 0.5793290138 4281742912
-0.2821528316 -0.2175703347 0.5803567171 4281742914
-0.2822380960 -0.2169910669 0.5805321336 4281677121
-0.2827377617 -0.2167290747 0.5815598369 4281480256
-0.2824081182 -0.2158309668 0.5808817744 4281480256
-0.2829076648 -0.2155662179 0.5819092989 4281480256
-0.2829923332 -0.2149839997 0.5820835233 4281414463
-0.2830768526 -0.2144012749 0.5822573304 4281546049
-0.2835763693 -0.2141315341 0.5832847953 4281282877
-0.2840759456 -0.2138595581 0.5843123794 4281151291
-0.2841601670 -0.2132735550 0.5844855905 4281414463
-0.2842441797 -0.2126870304 0.5846584439 4280822326
-0.2843280435 -0.2120999694 0.5848308802 4279967017
-0.2844116986 -0.2115124017 0.5850029588 4280099116
-0.2844952047 -0.2109243274 0.5851746798 4281020218
-0.2849945426 -0.2106432319 0.5862017870 4281612355
-0.2850777805 -0.2100532502 0.5863729715 4286020486
-0.2847445309 -0.2091569602 0.5856875777 4287270553
-0.2848272622 -0.2085668147 0.5858577490 4283322973
-0.2853263617 -0.2082802057 0.5868843198 4281086012
-0.2854088545 -0.2076881677 0.5870540142 4283717732
-0.2938608527 -0.1648136079 0.6044387817 4288586152
-0.2939286530 -0.1641799062 0.6045782566 4283191126
-0.2935713828 -0.1633094251 0.6038433909 4283717470
-0.2932136953 -0.1624403596 0.6031076908 4283783263
-0.2928555608 -0.1615726799 0.6023710370 4284112228
-0.2924970090 -0.1607064009 0.6016335487 4284046435
-0.2921380401 -0.1598415375 0.6008952260 4284769390
-0.2909280062 -0.1585145891 0.5984062552 4283914081
-0.2901425660 -0.1574235559 0.5967906713 4282664014
-0.2897820175 -0.1565656960 0.5960491300 4282137670
-0.2894210815 -0.1557092518 0.5953066945 4281873985
-0.2890597284 -0.1548542380 0.5945634246 4281479227
-0.2891237438 -0.1542277783 0.5946950912 4281347641
-0.2891875207 -0.1536009163 0.5948262811 4281150262
-0.2888250947 -0.1527483463 0.5940808058 4281150264
-0.2884622216 -0.1518972069 0.5933344364 4281084471
-0.2863942385 -0.1501537263 0.5890808105 4281018678
-0.2864564359 -0.1495316923 0.5892087817 4280952885
-0.2531775236 -0.1078587621 0.5207577348 4285757579
-0.2527930439 -0.1071172431 0.5199669003 4285099649
-0.2833728790 -0.2534131706 0.5842007995 4288191907
-0.2826553285 -0.2521240413 0.5827215910 4287203719
-0.2839713097 -0.2526473999 0.5854345560 4286874754
-0.2836600244 -0.2517207265 0.5847928524 4286611836
-0.2833483517 -0.2507950962 0.5841502547 4286480250
-0.2830362320 -0.2498705238 0.5835068226 4286677115
-0.2827236950 -0.2489470094 0.5828624964 4286413943
-0.2828182578 -0.2483824641 0.5830574632 4286018410
-0.2829126716 -0.2478173375 0.5832520723 4285886824
-0.2825991511 -0.2468953878 0.5826057196 4285754721
-0.2822851837 -0.2459744960 0.5819584131 4285688928
-0.2823788524 -0.2454093099 0.5821515918 4285623133
-0.2824723721 -0.2448435724 0.5823443532 4285359961
-0.2825657427 -0.2442772537 0.5825368762 4284900180
-0.2826589644 -0.2437103987 0.5827290416 4284900180
-0.2827520370 -0.2431429625 0.5829209089 4284900178
-0.2828449309 -0.2425749749 0.5831124187 4284834385
-0.2825288177 -0.2416567057 0.5824607015 4284637533
-0.2822122872 -0.2407395244 0.5818081498 4282926915
-0.2823044360 -0.2401715070 0.5819981694 4281676608
-0.2823964655 -0.2396029234 0.5821878314 4281742401
-0.2820788920 -0.2386873662 0.5815331936 4281611073
-0.2821704447 -0.2381185144 0.5817219615 4281611073
-0.2822618484 -0.2375490963 0.5819103718 4281217595
-0.2823531032 -0.2369791269 0.5820984840 4281086009
-0.2820342481 -0.2360654920 0.5814411044 4280493874
-0.2817149758 -0.2351529598 0.5807828903 4281283390
-0.2818054557 -0.2345830053 0.5809694529 4281414463
-0.2810751200 -0.2333312333 0.5794637799 4280822326
-0.2807545662 -0.2324220389 0.5788029432 4281216566
-0.2804335952 -0.2315139621 0.5781412125 4281479738
-0.2805229127 -0.2309451401 0.5783253908 4281019191
-0.2802012265 -0.2300384790 0.5776621699 4281084984
-0.2798790932 -0.2291329354 0.5769980550 4281348154
-0.2799676657 -0.2285641581 0.5771806836 4281413947
-0.2800560892 -0.2279948294 0.5773629546 4281413947
-0.2797329426 -0.2270910144 0.5766967535 4281348154
-0.2794093788 -0.2261883467 0.5760297179 4281413947
-0.2803202868 -0.2262836397 0.5779076219 4281479740
-0.2804080248 -0.2257121801 0.5780885220 4281479740
-0.2804956138 -0.2251401693 0.5782690644 4281479740
-0.2805830240 -0.2245676219 0.5784492493 4281545533
-0.2806702554 -0.2239945531 0.5786291361 4281545533
-0.2811695933 -0.2237490118 0.5796585679 4281479740
-0.2812566161 -0.2231740355 0.5798379779 4281413947
-0.2809309363 -0.2222721130 0.5791665912 4281479740
-0.2801921964 -0.2210458219 0.5776435733 4281545533
-0.2806911170 -0.2207964659 0.5786721110 4281611326
-0.2803643048 -0.2198971808 0.5779983401 4281611326
-0.2804500759 -0.2193220854 0.5781751871 4281545533
-0.2805356979 -0.2187464535 0.5783517361 4281611326
-0.2810344398 -0.2184915990 0.5793799162 4281677119
-0.2811198235 -0.2179140598 0.5795559287 4281742912
-0.2812050581 -0.2173359990 0.5797316432 4281742914
-0.2817037702 -0.2170761675 0.5807597637 4281677121
-0.2817887664 -0.2164962143 0.5809350014 4281677121
-0.2822874784 -0.2162327766 0.5819631815 4281677121
-0.2823722661 -0.2156509161 0.5821379423 4281808707
-0.2824568450 -0.2150685191 0.5823123455 4281677121
