VERSION 0.7
FIELDS x y z rgba
SIZE 4 4 4 4
TYPE F F F U
COUNT 1 1 1 1
WIDTH 920
HEIGHT 1
VIEWPOINT 0.0 0.0 0.0 1.0 0.0 0.0 0.0
POINTS 920
DATA ascii
-0.2546068728 -0.0499756970 0.5663980842 4280756015
-0.2546273768 -0.0493503623 0.5664436817 4280821808
-0.2546476424 -0.0487248786 0.5664887428 4280822062
-0.2546676397 -0.0480992459 0.5665332079 4281019441
-0.2546873689 -0.0474734642 0.5665770769 4281019441
-0.2551156878 -0.0469227359 0.5675299764 4281151027
-0.2551349401 -0.0462956652 0.5675727725 4281611578
-0.2551539540 -0.0456684530 0.5676150322 4281874750
-0.2555816174 -0.0451132804 0.5685664415 4281940543
-0.2551911771 -0.0444136113 0.5676978827 4282203715
-0.2556183934 -0.0438561551 0.5686482787 4282466887
-0.2556363940 -0.0432273895 0.5686883330 4282466887
-0.2552450895 -0.0425303355 0.5678178668 4282730059
-0.2560807168 -0.0420366190 0.5696767569 4282795852
-0.2556888759 -0.0413403139 0.5688050389 4282993230
-0.2557058334 -0.0407110304 0.5688428283 4283190609
-0.2561317086 -0.0401457585 0.5697901845 4283190609
-0.2565573752 -0.0395783447 0.5707371235 4283453781
-0.2569828331 -0.0390087962 0.5716835856 4283256400
-0.2569988370 -0.0383760072 0.5717192292 4283124814
-0.2566053569 -0.0376829989 0.5708438158 4283650901
-0.2570300996 -0.0371100791 0.5717887282 4283979866
-0.2558174133 -0.0363026895 0.5690910220 4284243038
-0.2558323145 -0.0356724672 0.5691241622 4284440417
-0.2554376125 -0.0349860676 0.5682460666 4284177243
-0.2554519475 -0.0343566351 0.5682780147 4285558896
-0.2558754683 -0.0337811485 0.5692201257 4287729026
-0.2558893263 -0.0331505015 0.5692510009 4289373851
-0.2554934919 -0.0324677192 0.5683704019 4290031780
-0.2555068135 -0.0318378806 0.5684000254 4290360745
-0.2555198669 -0.0312079433 0.5684291124 4290821297
-0.2559421957 -0.0306269135 0.5693686008 4291150262
-0.2559547424 -0.0299957767 0.5693965554 4291413947
-0.2559670508 -0.0293645468 0.5694239140 4292006084
-0.2405149490 -0.2427983135 0.5363744497 4284967547
-0.2406009287 -0.2422889471 0.5365661979 4280427830
-0.2395514697 -0.2406385541 0.5342257619 4281217087
-0.2392582297 -0.2397511452 0.5335718393 4280888122
-0.2393433005 -0.2392433584 0.5337615609 4280559157
-0.2390494198 -0.2383572757 0.5331061482 4283783014
-0.2395130992 -0.2382261455 0.5341402292 4288585901
-0.2388395965 -0.2369644642 0.5326382518 4291480793
-0.2389239222 -0.2364561260 0.5328263044 4292270308
-0.2384168804 -0.2341820598 0.5316955447 4289638842
-0.2377409041 -0.2329290062 0.5301880240 4282532428
-0.2378240824 -0.2324212193 0.5303735137 4280624431
-0.2375271022 -0.2315424383 0.5297112465 4282664014
-0.2376099080 -0.2310343981 0.5298959017 4283058772
-0.2392968982 -0.2314888388 0.5336580276 4281479738
-0.2389992774 -0.2306087464 0.5329943299 4280625201
-0.2390819639 -0.2300961316 0.5331787467 4282270026
-0.2391645461 -0.2295829952 0.5333628654 4282532428
-0.2392469794 -0.2290693223 0.5335467458 4288322212
-0.2419387102 -0.2202564627 0.5395495892 4285691521
-0.2420188636 -0.2197297662 0.5397283435 4282533457
-0.2417152226 -0.2188551575 0.5390511751 4280230189
-0.2421787828 -0.2186747938 0.5400849581 4279638052
-0.2422585189 -0.2181465328 0.5402628183 4280098603
-0.2419540733 -0.2172728628 0.5395838618 4280164396
-0.2408808619 -0.2157122791 0.5371904969 4280822326
-0.2409596890 -0.2151858062 0.5373662710 4280888119
-0.2410383672 -0.2146588266 0.5375416875 4280295982
-0.2411168963 -0.2141313255 0.5377168655 4280888119
-0.2411952913 -0.2136033028 0.5378916860 4281873987
-0.2412735373 -0.2130747736 0.5380662084 4282531917
-0.2409667075 -0.2122067362 0.5373819470 4282334538
-0.2406594902 -0.2113398761 0.5366967916 4281676608
-0.2407370657 -0.2108114958 0.5368697643 4281808707
-0.2404291928 -0.2099461555 0.5361831784 4282861395
-0.2408917695 -0.2097532004 0.5372148156 4282400331
-0.2398122549 -0.2082190216 0.5348073840 4282992468
-0.2402745485 -0.2080250531 0.5358383060 4287006352
-0.2399653494 -0.2071627676 0.5351487994 4289638072
-0.2442705333 -0.2011953443 0.5447497964 4289704635
-0.2443453968 -0.2006515712 0.5449167490 4289112498
-0.2444201112 -0.2001072913 0.5450833440 4288257189
-0.2444946617 -0.1995625198 0.5452496409 4287336087
-0.2445690483 -0.1990172416 0.5454155207 4286546571
-0.2442549616 -0.1981564462 0.5447151065 4285559676
-0.2443289310 -0.1976110488 0.5448800325 4284638574
-0.2444027215 -0.1970651448 0.5450446010 4283388505
-0.2444763631 -0.1965187639 0.5452088714 4282533196
-0.2445498556 -0.1959718764 0.5453727245 4281348922
-0.2446231693 -0.1954244971 0.5455362201 4280427820
-0.2443073094 -0.1945668161 0.5448318124 4280033062
-0.2443801761 -0.1940193325 0.5449943542 4279769890
-0.2444528937 -0.1934713572 0.5451564789 4279506718
-0.2445254624 -0.1929228902 0.5453183055 4279375132
-0.2445978522 -0.1923739463 0.5454797745 4280296236
-0.2442804724 -0.1915190518 0.5447719693 4280625201
-0.2443524301 -0.1909700036 0.5449324250 4280690994
-0.2444242090 -0.1904204637 0.5450925231 4280559408
-0.2444958240 -0.1898704469 0.5452522635 4280493615
-0.2445672899 -0.1893199384 0.5454115868 4280493615
-0.2442484051 -0.1884678900 0.5447004437 4280427822
-0.2447097003 -0.1882174909 0.5457291603 4280427822
-0.2447806448 -0.1876655519 0.5458874106 4281019959
-0.2448514402 -0.1871131212 0.5460453033 4281085752
-0.2445314378 -0.1862626821 0.5453316569 4281019959
-0.2446017712 -0.1857101768 0.5454884768 4281085752
-0.2446719408 -0.1851572096 0.5456449986 4281019959
-0.2443509847 -0.1843088567 0.5449292064 4281019959
-0.2448117733 -0.1840498298 0.5459568501 4280756787
-0.2440990657 -0.1829091907 0.5443674326 4280625201
-0.2437770367 -0.1820638478 0.5436492562 4281019189
-0.2434546202 -0.1812198162 0.5429302454 4280756017
-0.2435233146 -0.1806675494 0.5430834293 4280361259
-0.2432002276 -0.1798252463 0.5423629284 4280361259
-0.2432684749 -0.1792729497 0.5425150990 4280492845
-0.2433365583 -0.1787201762 0.5426669717 4280032294
-0.2426205575 -0.1775931269 0.5410701632 4279637536
-0.2426880747 -0.1770412177 0.5412207246 4279834915
-0.2427554131 -0.1764888465 0.5413709283 4279835685
-0.2428225875 -0.1759360135 0.5415207148 4280098857
-0.2428895831 -0.1753827184 0.5416701436 4280296236
-0.2433489114 -0.1751114130 0.5426945090 4280427822
-0.2434156686 -0.1745563000 0.5428433418 4280756787
-0.2434822470 -0.1740007550 0.5429918170 4281151545
-0.2435486466 -0.1734447330 0.5431399345 4281480510
-0.2440078110 -0.1731671244 0.5441638827 4281677889
-0.2440739572 -0.1726092994 0.5443114042 4281809475
-0.2445330769 -0.1723280847 0.5453352928 4282072647
-0.2445989847 -0.1717684567 0.5454822779 4282138186
-0.2446647137 -0.1712083817 0.5456288457 4282138186
-0.2447302639 -0.1706478596 0.5457750559 4282138186
-0.2447956353 -0.1700868756 0.5459208488 4282006600
-0.2444671541 -0.1692529023 0.5451883078 4281743428
-0.2441382855 -0.1684202850 0.5444548726 4281480256
-0.2442028970 -0.1678597778 0.5445989966 4280953913
-0.2438733578 -0.1670289785 0.5438640714 4280888120
-0.2439375073 -0.1664684862 0.5440071225 4280559154
-0.2432131022 -0.1653715074 0.5423915982 4280164396
-0.2432766706 -0.1648119390 0.5425333977 4279703845
-0.2429456711 -0.1639857292 0.5417952538 4279374880
-0.2426142991 -0.1631608903 0.5410562158 4279506466
-0.2430717200 -0.1628662348 0.5420762897 4279572259
-0.2427397668 -0.1620423496 0.5413360000 4279901224
-0.2420126200 -0.1609572768 0.5397143960 4279967017
-0.2412848920 -0.1598754227 0.5380914807 4280559154
-0.2405565679 -0.1587967873 0.5364672542 4280427568
-0.2410129756 -0.1585008800 0.5374850631 4280558640
-0.2387029678 -0.1563902497 0.5323335528 4281216570
-0.2387633920 -0.1558382362 0.5324683189 4281216570
-0.2380328327 -0.1547716111 0.5308390856 4280887605
-0.2365106940 -0.1531958729 0.5274445415 4280756017
-0.2361743748 -0.1523928344 0.5266944766 4280427052
-0.2358376831 -0.1515912116 0.5259436369 4280229673
-0.2358963937 -0.1510444432 0.5260745883 4280163880
-0.2355590463 -0.1502447724 0.5253222585 4280296236
-0.2356172949 -0.1496981084 0.5254521370 4280493615
-0.2360714674 -0.1494017243 0.5264649987 4279900710
-0.2373761088 -0.1490510404 0.5293744802 4280098089
-0.2378304005 -0.1487469971 0.5303876400 4279834917
-0.2378882170 -0.1481937170 0.5305165648 4279638052
-0.2383424193 -0.1478860974 0.5315294862 4280032810
-0.2387966365 -0.1475762278 0.5325424075 4280756533
-0.2392508388 -0.1472641230 0.5335553288 4280427568
-0.2397050560 -0.1469497532 0.5345683098 4281018936
-0.2397623062 -0.1463907659 0.5346959829 4281479487
-0.2398193628 -0.1458313763 0.5348232388 4280624947
-0.2398762405 -0.1452715844 0.5349500775 4282401358
-0.2403301597 -0.1449510008 0.5359623432 4284900978
-0.2407840639 -0.1446281523 0.5369746089 4286545803
-0.2416353971 -0.1445407718 0.5388731956 4287664798
-0.2424869090 -0.1444492936 0.5407721400 4289178037
-0.2529517412 -0.1212251633 0.5641098022 4288783533
-0.2525984645 -0.1204299629 0.5633219481 4280427822
-0.2526464760 -0.1198268458 0.5634290576 4280822580
-0.2526942492 -0.1192233860 0.5635356307 4280756787
-0.2527418137 -0.1186195835 0.5636417270 4286480776
-0.2545877695 -0.0986688733 0.5677583218 4290099650
-0.2542234063 -0.0978977382 0.5669457912 4289704892
-0.2538586557 -0.0971282721 0.5661323667 4289441720
-0.2543021739 -0.0966678485 0.5671214461 4289310134
-0.2539368570 -0.0958997682 0.5663067102 4289244341
-0.2547844052 -0.0955885500 0.5681968927 4289310134
-0.2548230290 -0.0949716344 0.5682830215 4289441720
-0.2552659512 -0.0945042148 0.5692707896 4289639101
-0.2553041577 -0.0938857570 0.5693560243 4289902273
-0.2553421259 -0.0932670310 0.5694406629 4290033859
-0.2553798556 -0.0926480293 0.5695247650 4290165445
-0.2585204542 -0.0726487637 0.5765286684 4285428349
-0.2581435442 -0.0719032139 0.5756881237 4280230702
-0.2581728697 -0.0712716803 0.5757535100 4280230443
-0.2582019269 -0.0706399232 0.5758183599 4286480778
-0.2582307458 -0.0700079650 0.5758826137 4289836221
-0.2582592964 -0.0693757832 0.5759462714 4284375402
-0.2582876086 -0.0687434003 0.5760093927 4280295466
-0.2579088807 -0.0680035502 0.5751647949 4279834915
-0.2575297952 -0.0672654882 0.5743193626 4280558638
-0.2567434907 -0.0664239451 0.5725658536 4281479740
-0.2571775317 -0.0658990070 0.5735338330 4281742910
-0.2567974627 -0.0651653260 0.5726862550 4281611324
-0.2551960349 -0.0641266182 0.5691148639 4281545274
-0.2560363412 -0.0637033582 0.5709888339 4281282102
-0.2536198199 -0.0624736920 0.5655996799 4281150516
-0.2528310716 -0.0616529323 0.5638407469 4281282102
-0.2508203983 -0.0605411418 0.5593566895 4281676860
-0.2492162734 -0.0595364422 0.5557793379 4282071618
-0.2476115823 -0.0585395582 0.5522007346 4281874496
-0.2472282201 -0.0578363389 0.5513457656 4281479738
-0.2488812059 -0.0576063581 0.5550321341 4281479738
-0.2489047647 -0.0569950715 0.5550846457 4281413945
-0.2493354976 -0.0564758964 0.5560452342 4281282359
-0.2489511520 -0.0557719842 0.5551880598 4281150773
-0.2493814528 -0.0552504659 0.5561476946 4281150773
-0.2510341406 -0.0549946055 0.5598334074 4281084980
-0.2526868880 -0.0547305644 0.5635191798 4281150773
-0.2531169057 -0.0541965254 0.5644781590 4281084980
-0.2535467148 -0.0536603145 0.5654366612 4280887601
-0.2535686791 -0.0530366674 0.5654856563 4280756015
-0.2535903752 -0.0524128601 0.5655341148 4280690222
-0.2540195882 -0.0518721566 0.5664912462 4280887601
-0.2540408373 -0.0512470305 0.5665386319 4280953394
-0.2536540031 -0.0505404919 0.5656759739 4280821808
-0.2540825307 -0.0499963090 0.5666316748 4280821808
-0.2541030347 -0.0493707173 0.5666773319 4280756015
-0.2545311451 -0.0488232225 0.5676320791 4280756015
-0.2541432083 -0.0481190905 0.5667669773 4280756015
-0.2541629374 -0.0474930555 0.5668109059 4280493097
-0.2545903921 -0.0469421037 0.5677641630 4280427304
-0.2542015910 -0.0462405533 0.5668971539 4280756269
-0.2546285987 -0.0456873067 0.5678493977 4280756269
-0.2550553977 -0.0451319106 0.5688012242 4280690476
-0.2550739050 -0.0445031561 0.5688424706 4281085234
-0.2550921440 -0.0438742675 0.5688831806 4281019440
-0.2551101148 -0.0432452485 0.5689232349 4280953647
-0.2547196448 -0.0425479077 0.5680524707 4280888624
-0.2547370791 -0.0419196300 0.5680913329 4280954417
-0.2551625073 -0.0413573980 0.5690401196 4281216819
-0.2551794648 -0.0407278575 0.5690779090 4281348405
-0.2551961541 -0.0400981940 0.5691151619 4281348403
-0.2564376295 -0.0396578573 0.5718837380 4281611575
-0.2560455203 -0.0389627852 0.5710092783 4282137660
-0.2560614645 -0.0383307450 0.5710449219 4282532418
-0.2560772002 -0.0376985855 0.5710799098 4282861896
-0.2552757561 -0.0369480774 0.5692926645 4283190861
-0.2556993663 -0.0363758132 0.5702373385 4284374622
-0.2544887960 -0.0355730243 0.5675376654 4284703587
-0.2545033991 -0.0349444523 0.5675702095 4284637792
-0.2549262345 -0.0343708545 0.5685132146 4287072133
-0.2549403310 -0.0337410606 0.5685446262 4289833372
-0.2549541593 -0.0331111625 0.5685754418 4290557095
-0.2549677193 -0.0324811600 0.5686057210 4291281072
-0.2549810410 -0.0318510607 0.5686353445 4291017900
-0.2549940646 -0.0312208645 0.5686644912 4290228384
-0.2550068498 -0.0305905715 0.5686929822 4289702040
-0.2550193965 -0.0299601853 0.5687209368 4289373332
-0.2554403543 -0.0293767098 0.5696597695 4289636504
-0.2554523945 -0.0287451297 0.5696865916 4289110160
-0.2554641664 -0.0281134620 0.5697128177 4289044367
-0.2550669014 -0.0274377391 0.5688269138 4289175955
-0.2550781369 -0.0268069115 0.5688519478 4289636506
-0.2546803057 -0.0261340532 0.5679647326 4290359976
-0.2546910048 -0.0255040731 0.5679885745 4291017906
-0.2547014356 -0.0248740166 0.5680118799 4291610815
-0.2389574945 -0.2412314862 0.5342243910 4284375410
-0.2386651933 -0.2403435707 0.5335708857 4280295983
-0.2383725047 -0.2394567132 0.5329165459 4280953913
-0.2380794138 -0.2385709137 0.5322613120 4281019708
-0.2381639928 -0.2380640805 0.5324503779 4281151294
-0.2378702611 -0.2371796072 0.5317937136 4282992726
-0.2379544675 -0.2366724908 0.5319819450 4286874513
-0.2376600951 -0.2357893735 0.5313238502 4290296518
-0.2377439141 -0.2352819890 0.5315112472 4292270308
-0.2375323474 -0.2338925749 0.5310382843 4291875036
-0.2376156747 -0.2333843857 0.5312245488 4286018946
-0.2376988679 -0.2328756750 0.5314105749 4279834404
-0.2381611913 -0.2327370197 0.5324441195 4281216055
-0.2378648967 -0.2318566293 0.5317817330 4282663501
-0.2371887118 -0.2306083590 0.5302700400 4283321942
-0.2376507819 -0.2304673046 0.5313030481 4282400840
-0.2373534590 -0.2295893878 0.5306383371 4280953394
-0.2378155440 -0.2294456214 0.5316714048 4281742910
-0.2375177145 -0.2285682857 0.5310055614 4281808703
-0.2383599579 -0.2287867218 0.5328885317 4284703595
-0.2412043661 -0.2189348936 0.5392475724 4285098871
-0.2409010231 -0.2180611640 0.5385694504 4281940807
-0.2409804016 -0.2175344378 0.5387468934 4280295982
-0.2406764030 -0.2166621834 0.5380672216 4279506466
-0.2407553792 -0.2161352485 0.5382438302 4279703845
-0.2404507250 -0.2152644843 0.5375627279 4280295982
-0.2401456684 -0.2143948674 0.5368807316 4280624947
-0.2398402244 -0.2135264277 0.5361978412 4280822326
-0.2395343930 -0.2126591504 0.5355141163 4281347643
-0.2399961501 -0.2124729604 0.5365464687 4281347643
-0.2400739044 -0.2119454592 0.5367202759 4281742914
-0.2397672683 -0.2110791802 0.5360347629 4281413949
-0.2402289659 -0.2108889222 0.5370669365 4281611328
-0.2399217933 -0.2100232989 0.5363802314 4281545535
-0.2396142334 -0.2091588825 0.5356926322 4281742914
-0.2393062860 -0.2082956284 0.5350041389 4281413949
-0.2397676557 -0.2081016451 0.5360355973 4281348154
-0.2398441434 -0.2075722665 0.5362066031 4283387737
-0.2395353913 -0.2067100555 0.5355163217 4284506988
-0.2399966866 -0.2065120041 0.5365476608 4284967539
-0.2400727421 -0.2059811205 0.5367176533 4285757055
-0.2405341119 -0.2057794929 0.5377491713 4286283399
-0.2402243912 -0.2049178183 0.5370567441 4286414985
-0.2410714328 -0.2050415426 0.5389503837 4286480778
-0.2415329665 -0.2048341483 0.5399821997 4286611594
-0.2416086346 -0.2042981684 0.5401514173 4286611594
-0.2416841537 -0.2037616968 0.5403202176 4286480006
-0.2417595237 -0.2032247037 0.5404887199 4286216834
-0.2418347299 -0.2026872337 0.5406568646 4285756283
-0.2419098020 -0.2021492422 0.5408246517 4285164146
-0.2423712611 -0.2019328177 0.5418563485 4284506218
-0.2424461395 -0.2013929784 0.5420237184 4284111460
-0.2421340644 -0.2005322874 0.5413260460 4282992979
-0.2425954193 -0.2003117800 0.5423575044 4282400842
-0.2426698357 -0.1997704357 0.5425238609 4281742910
-0.2427440882 -0.1992285997 0.5426898599 4281282359
-0.2428181767 -0.1986862719 0.5428555012 4280953396
-0.2428921163 -0.1981434375 0.5430207849 4280756017
-0.2425784022 -0.1972849518 0.5423194170 4280362029
-0.2426519096 -0.1967419982 0.5424837470 4280098857
-0.2427252531 -0.1961985379 0.5426477790 4279966501
-0.2427984476 -0.1956546009 0.5428113937 4280032294
-0.2428714782 -0.1951101720 0.5429746509 4280295466
-0.2425562590 -0.1942544430 0.5422699451 4280558638
-0.2422406375 -0.1933999658 0.5415643454 4280690224
-0.2423129529 -0.1928558052 0.5417259932 4280558638
-0.2423851192 -0.1923111528 0.5418873429 4280427052
-0.2428456694 -0.1920733452 0.5429169536 4280361259
-0.2429176122 -0.1915268451 0.5430778265 4280690224
-0.2426006198 -0.1906743050 0.5423691273 4280492845
-0.2426721305 -0.1901277155 0.5425289869 4280361259
-0.2427434623 -0.1895806491 0.5426884890 4280427052
-0.2428146452 -0.1890330911 0.5428476334 4280427052
-0.2428856641 -0.1884850711 0.5430063605 4280427052
-0.2425671667 -0.1876353770 0.5422943234 4280558638
-0.2426377386 -0.1870872676 0.5424520969 4280624431
-0.2427081466 -0.1865386665 0.5426095128 4280888373
-0.2427783906 -0.1859896034 0.5427665710 4280888373
-0.2428484559 -0.1854400635 0.5429232121 4280493615
-0.2429183722 -0.1848900467 0.5430794954 4280230443
-0.2425980866 -0.1840436608 0.5423634648 4279704099
-0.2426675409 -0.1834935695 0.5425187349 4279638306
-0.2427368313 -0.1829430163 0.5426736474 4279440927
-0.2428059578 -0.1823920012 0.5428282022 4279572513
-0.2424844354 -0.1815481484 0.5421093702 4279769892
-0.2425531000 -0.1809970737 0.5422629118 4280427822
-0.2422309220 -0.1801549643 0.5415425897 4281084982
-0.2422991395 -0.1796038300 0.5416951180 4281611326
-0.2423671931 -0.1790522486 0.5418472290 4282203463
-0.2428260893 -0.1787880957 0.5428732038 4282729807
-0.2425027788 -0.1779476851 0.5421503782 4283650909
-0.2425703108 -0.1773947030 0.5423013568 4284769390
-0.2422463298 -0.1765560359 0.5415770411 4285494142
-0.2423133999 -0.1760030240 0.5417270064 4286283658
-0.2423803061 -0.1754495651 0.5418766141 4287204760
-0.2428387254 -0.1751781851 0.5429014564 4287928483
-0.2429053932 -0.1746229082 0.5430504680 4288520620
-0.2429718822 -0.1740671694 0.5431991220 4289046964
-0.2430381924 -0.1735109836 0.5433473587 4289310136
-0.2434964329 -0.1732333004 0.5443718433 4289310136
-0.2435625046 -0.1726752967 0.5445195436 4289967553
-0.2436283976 -0.1721168458 0.5446668863 4290164932
-0.2440865338 -0.1718342155 0.5456910729 4290362311
-0.2441521734 -0.1712739617 0.5458378196 4290362311
-0.2438250035 -0.1704387963 0.5451064110 4290362312
-0.2438901812 -0.1698785424 0.5452520847 4290296519
-0.2435623258 -0.1690451801 0.5445191860 4290164933
-0.2436270416 -0.1684849262 0.5446638465 4289967554
-0.2432985157 -0.1676533967 0.5439293981 4289638589
-0.2433627695 -0.1670931578 0.5440729856 4289572796
-0.2430335730 -0.1662634462 0.5433370471 4289243831
-0.2427039891 -0.1654351056 0.5426002145 4288585901
-0.2431609482 -0.1651425809 0.5436218381 4287533213
-0.2424372286 -0.1640488654 0.5420038104 4286085767
-0.2425002605 -0.1634891480 0.5421447158 4283717219
-0.2425630987 -0.1629289985 0.5422852635 4281151292
-0.2410502732 -0.1613140851 0.5389030576 4280492847
-0.2415063232 -0.1610193700 0.5399226546 4280690226
-0.2395979315 -0.1591518521 0.5356561542 4281084984
-0.2396592349 -0.1585972607 0.5357931852 4280887605
-0.2393260747 -0.1577823162 0.5350483656 4280887605
-0.2393869013 -0.1572277844 0.5351843834 4281150777
-0.2374751717 -0.1553822905 0.5309104323 4280690226
-0.2371405661 -0.1545743048 0.5301623940 4280427054
-0.2368055731 -0.1537677348 0.5294134617 4280163880
-0.2364702076 -0.1529625952 0.5286636949 4280229673
-0.2365293354 -0.1524133086 0.5287958384 4280098857
-0.2361932993 -0.1516100764 0.5280445814 4280230443
-0.2358568907 -0.1508082747 0.5272924900 4280098603
-0.2355200946 -0.1500079036 0.5265395641 4280164396
-0.2359734476 -0.1497105211 0.5275531411 4279900710
-0.2368221879 -0.1496607214 0.5294505954 4279769124
-0.2364847362 -0.1488600522 0.5286961794 4280032296
-0.2381246984 -0.1493008733 0.5323625207 4280163882
-0.2377869785 -0.1484984607 0.5316075087 4280032810
-0.2386361212 -0.1484359950 0.5335059166 4280032810
-0.2390896231 -0.1481241882 0.5345197916 4280098603
-0.2395431101 -0.1478101313 0.5355336070 4279769638
-0.2399966121 -0.1474938244 0.5365474820 4279703331
-0.2400539815 -0.1469327956 0.5366757512 4279834917
-0.2397149354 -0.1461298168 0.5359177589 4279966503
-0.2397718281 -0.1455689222 0.5360449553 4279505952
-0.2398285121 -0.1450076103 0.5361716747 4279308573
-0.2398850173 -0.1444459110 0.5362980366 4279703331
-0.2403379381 -0.1441216469 0.5373105407 4280558640
-0.2411875278 -0.1440320015 0.5392099619 4281282363
-0.2420372963 -0.1439382583 0.5411097407 4282401358
-0.2428872287 -0.1438403875 0.5430098772 4283980390
-0.2433403730 -0.1435042918 0.5440229774 4284835699
-0.2441905737 -0.1433991194 0.5459236503 4286151559
-0.2446437776 -0.1430575699 0.5469368696 4287730592
-0.2454942018 -0.1429450661 0.5488381386 4289046452
-0.2516245246 -0.1208885387 0.5625433922 4289441720
-0.2512718737 -0.1200949624 0.5617549419 4280757044
-0.2513196766 -0.1194935441 0.5618618131 4280625201
-0.2513672411 -0.1188917756 0.5619682074 4280625201
-0.2510136366 -0.1181010082 0.5611776114 4285822848
-0.2575501800 -0.0731955543 0.5757910609 4289441722
-0.2571743131 -0.0724499300 0.5749507546 4286283658
-0.2572038174 -0.0718193501 0.5750166774 4283388766
-0.2572330534 -0.0711885542 0.5750820637 4282730323
-0.2568562627 -0.0704462603 0.5742396712 4286612110
-0.2572907507 -0.0699263290 0.5752110481 4289309623
-0.2573192418 -0.0692948923 0.5752747655 4284572527
-0.2565356493 -0.0684466511 0.5735229254 4281348924
-0.2565635443 -0.0678168014 0.5735852718 4281414717
-0.2569971681 -0.0672930479 0.5745546818 4281874498
-0.2558064759 -0.0663458556 0.5718927383 4282071877
-0.2562395930 -0.0658217072 0.5728610158 4281742912
-0.2554541826 -0.0649854094 0.5711051226 4281479740
-0.2546683252 -0.0641529113 0.5693482757 4281348152
-0.2534758747 -0.0632228926 0.5666823387 4281348152
-0.2522828877 -0.0622986779 0.5640152693 4281545531
-0.2478390783 -0.0605857000 0.5540804863 4281742910
-0.2482701391 -0.0600743815 0.5550441742 4281808703
-0.2503265142 -0.0599501655 0.5596414804 4281874496
-0.2483189255 -0.0588525571 0.5551531911 4281742910
-0.2491558492 -0.0584320165 0.5570243001 4281413945
-0.2495861948 -0.0579129793 0.5579863787 4281348152
-0.2500163615 -0.0573917665 0.5589480996 4281348152
-0.2496332377 -0.0566837378 0.5580915809 4281348152
-0.2520960271 -0.0566167608 0.5635975003 4281282359
-0.2500859499 -0.0555441193 0.5591036081 4281216566
-0.2525487244 -0.0554637834 0.5646095276 4281216566
-0.2533847988 -0.0550180040 0.5664787292 4281150773
-0.2538140416 -0.0544807389 0.5674383640 4281150773
-0.2538363039 -0.0538549982 0.5674881339 4281085750
-0.2538582981 -0.0532290936 0.5675373077 4281019957
-0.2538800538 -0.0526030250 0.5675859451 4280888371
-0.2539015710 -0.0519768000 0.5676340461 4280954164
-0.2539228201 -0.0513504148 0.5676815510 4281019957
-0.2539438009 -0.0507238731 0.5677284598 4280954164
-0.2539645433 -0.0500971787 0.5677748322 4280954164
-0.2543920577 -0.0495496094 0.5687305927 4280822578
-0.2540052831 -0.0488433279 0.5678658485 4280953394
-0.2540252507 -0.0482161827 0.5679105520 4280953394
-0.2544520795 -0.0476651490 0.5688648224 4280821808
-0.2544715703 -0.0470367037 0.5689083934 4280821808
-0.2544908226 -0.0464081168 0.5689514279 4280887601
-0.2545098066 -0.0457793847 0.5689938664 4280361257
-0.2549357712 -0.0452227555 0.5699461699 4280163878
-0.2549542785 -0.0445927419 0.5699875355 4280558636
-0.2549725175 -0.0439625904 0.5700283051 4280756269
-0.2545831800 -0.0432630815 0.5691578984 4280624683
-0.2541935146 -0.0425654575 0.5682867765 4280625197
-0.2546183467 -0.0420041308 0.5692364573 4280888369
-0.2546355128 -0.0413744599 0.5692749023 4281019441
-0.2546524405 -0.0407446660 0.5693127513 4280822062
-0.2550765872 -0.0401789285 0.5702610016 4280756266
-0.2555005252 -0.0396110490 0.5712087750 4280822059
-0.2559242547 -0.0390410386 0.5721560717 4281019179
-0.2551251352 -0.0382854119 0.5703695416 4281216558
-0.2555483878 -0.0377141498 0.5713157058 4281414450
-0.2551562190 -0.0370224752 0.5704389811 4282072380
-0.2547637522 -0.0363327041 0.5695615411 4283321932
-0.2547786236 -0.0357019641 0.5695948005 4283650897
-0.2543855608 -0.0350150019 0.5687160492 4285230183
-0.2543998659 -0.0343850553 0.5687480569 4288519833
-0.2544139326 -0.0337550007 0.5687795281 4290030492
-0.2544277608 -0.0331248417 0.5688104033 4290359457
-0.2544412911 -0.0324945860 0.5688406825 4290688420
-0.2544545829 -0.0318642259 0.5688704252 4290688420
-0.2544676363 -0.0312337708 0.5688995123 4290293915
-0.2544803917 -0.0306032188 0.5689280629 4290030743
-0.2544929087 -0.0299725719 0.5689560771 4289899670
-0.2549130321 -0.0293888561 0.5698952675 4289702291
-0.2549250424 -0.0287570171 0.5699221492 4289241486
-0.2545288801 -0.0280800890 0.5690364838 4288649349
-0.2541324496 -0.0274050981 0.5681502223 4288254079
-0.2541436553 -0.0267750211 0.5681752563 4288122493
-0.2541545928 -0.0261448640 0.5681996942 4287925375
-0.2541652620 -0.0255146250 0.5682235956 4287859582
-0.2545836568 -0.0249242503 0.5691589713 4287990915
-0.2545938492 -0.0242928453 0.5691817403 4288254087
-0.2554197907 -0.0237372033 0.5710282326 4288519320
-0.2546133995 -0.0230298117 0.5692254901 4289111457
-0.2550308704 -0.0224340819 0.5701587200 4290230451
-0.2374031544 -0.2396677732 0.5320705771 4284177770
-0.2378648072 -0.2395415008 0.5331052542 4280888120
-0.2371953130 -0.2382766455 0.5316047668 4281084731
-0.2369023860 -0.2373924702 0.5309482813 4281611075
-0.2369864583 -0.2368865758 0.5311366916 4280953143
-0.2366928905 -0.2360037416 0.5304787755 4282071624
-0.2367765903 -0.2354975790 0.5306662917 4284835185
-0.2364823818 -0.2346160859 0.5300069451 4288980144
-0.2369436026 -0.2344836444 0.5310406089 4291875036
-0.2366488874 -0.2336027026 0.5303801298 4291940829
-0.2363537997 -0.2327228487 0.5297187567 4289834940
-0.2364366055 -0.2322156280 0.5299043655 4281873987
-0.2357624471 -0.2309664041 0.5283933878 4280492332
-0.2354661822 -0.2300898284 0.5277294517 4281873985
-0.2359269261 -0.2299525589 0.5287620425 4282992466
-0.2356301546 -0.2290765494 0.5280969143 4283124052
-0.2353329957 -0.2282016426 0.5274309516 4281611324
-0.2354145497 -0.2276945114 0.5276136994 4281019187
-0.2370128483 -0.2286501974 0.5311958194 4282071618
-0.2359566092 -0.2270436585 0.5288285613 4282597962
-0.2356584221 -0.2261699140 0.5281602740 4287795866
-0.2396259606 -0.2174469233 0.5370523334 4288257449
-0.2397049814 -0.2169217318 0.5372294784 4286283659
-0.2397838533 -0.2163960189 0.5374062657 4283520353
-0.2394800335 -0.2155254930 0.5367253423 4281414977
-0.2391758263 -0.2146561295 0.5360435247 4280296496
-0.2396368384 -0.2144731581 0.5370767713 4280033324
-0.2393321097 -0.2136044502 0.5363937616 4279704359
-0.2390269786 -0.2127369046 0.5357099175 4279966503
-0.2391046435 -0.2122106105 0.5358839631 4280624433
-0.2387988418 -0.2113445848 0.5351986289 4280558640
-0.2392595261 -0.2111565024 0.5362311006 4280624433
-0.2389532030 -0.2102911323 0.5355445743 4280559154
-0.2390301675 -0.2097636461 0.5357170701 4280953912
-0.2387231886 -0.2088997960 0.5350290537 4281084984
-0.2387997508 -0.2083721459 0.5352006555 4280756019
-0.2384921163 -0.2075098157 0.5345111489 4280690224
-0.2385682464 -0.2069820017 0.5346817970 4280624431
-0.2386442423 -0.2064536810 0.5348521471 4279967271
-0.2387200892 -0.2059248388 0.5350221395 4279901478
-0.2387958020 -0.2053955048 0.5351917744 4280164907
-0.2388713509 -0.2048656791 0.5353611112 4280164907
-0.2393315285 -0.2046643794 0.5363925099 4280098857
-0.2397918105 -0.2044608742 0.5374240875 4280164650
-0.2398671657 -0.2039278150 0.5375929475 4280098085
-0.2395572215 -0.2030677795 0.5368983150 4280163878
-0.2404026836 -0.2031858116 0.5387931466 4280032546
-0.2404777110 -0.2026503980 0.5389612913 4279769374
-0.2405525744 -0.2021144778 0.5391290784 4279703327
-0.2402416766 -0.2012550235 0.5384323001 4279571741
-0.2403161228 -0.2007189691 0.5385991335 4279505948
-0.2407762706 -0.2005037367 0.5396304727 4279571741
-0.2404645532 -0.1996453553 0.5389318466 4279769122
-0.2393802553 -0.1981490254 0.5365017056 4279769122
-0.2409985960 -0.1988884956 0.5401287079 4280098085
-0.2410723865 -0.1983491033 0.5402941108 4280624429
-0.2411460280 -0.1978092045 0.5404591560 4280887601
-0.2412195206 -0.1972688138 0.5406238437 4280624429
-0.2409061641 -0.1964126527 0.5399215817 4280229673
-0.2409792095 -0.1958721429 0.5400853157 4280098087
-0.2410521060 -0.1953311414 0.5402486920 4280098087
-0.2407378107 -0.1944769770 0.5395442843 4280163880
-0.2408102751 -0.1939358711 0.5397066474 4280427052
-0.2408825904 -0.1933942735 0.5398687124 4280624431
-0.2405673414 -0.1925421208 0.5391622186 4280492845
-0.2402517051 -0.1916912496 0.5384548306 4280361259
-0.2403233051 -0.1911499351 0.5386152864 4280427052
-0.2407824844 -0.1909155697 0.5396443605 4280558638
-0.2408538759 -0.1903724074 0.5398043990 4280756017
-0.2413130701 -0.1901344508 0.5408335328 4280492845
-0.2409961671 -0.1892846525 0.5401232839 4280427052
-0.2410670668 -0.1887400448 0.5402821898 4280361259
-0.2411378175 -0.1881949604 0.5404407382 4280163880
-0.2412083894 -0.1876494139 0.5405989289 4280163880
-0.2412788123 -0.1871033609 0.5407567620 4280032294
-0.2413490564 -0.1865568459 0.5409141779 4279571743
-0.2410303950 -0.1857103258 0.5401999950 4279901224
-0.2411001921 -0.1851637363 0.5403564572 4279769638
-0.2411698401 -0.1846166700 0.5405125022 4279506466
-0.2416284084 -0.1843660176 0.5415402651 4279769638
-0.2416978329 -0.1838171333 0.5416958928 4280164396
-0.2413777709 -0.1829726398 0.5409785509 4281414463
-0.2414467484 -0.1824236959 0.5411331058 4282598737
-0.2415155470 -0.1818742752 0.5412873626 4283717218
-0.2415841967 -0.1813243777 0.5414412022 4285822594
-0.2416526675 -0.1807740182 0.5415946245 4287138454
-0.2413310856 -0.1799325049 0.5408739448 4288256935
-0.2413991094 -0.1793821007 0.5410263538 4288980658
-0.2414669544 -0.1788312346 0.5411784053 4289835967
-0.2415354550 -0.1638455093 0.5413319468 4290032577
-0.2412054539 -0.1630210131 0.5405923128 4286150790
-0.2412680089 -0.1624625027 0.5407325625 4281611073
-0.2401512414 -0.1611124873 0.5382296443 4280492847
-0.2406062782 -0.1608186215 0.5392494798 4281479742
-0.2394883335 -0.1594750434 0.5367439389 4281874500
-0.2403363585 -0.1594412625 0.5386444926 4281084984
-0.2380370051 -0.1573231071 0.5334911942 4280361261
-0.2392781973 -0.1575475931 0.5362729430 4280558640
-0.2373706251 -0.1557005048 0.5319976807 4280492847
-0.2374306172 -0.1551486254 0.5321321487 4280163882
-0.2370965779 -0.1543399394 0.5313834548 4280230189
-0.2371560931 -0.1537881345 0.5315169096 4281282877
-0.2372154444 -0.1532359123 0.5316498876 4281809221
-0.2368804514 -0.1524296403 0.5308991075 4282927702
-0.2361508459 -0.1513721049 0.5292639136 4282730323
-0.2366036773 -0.1510731876 0.5302788019 4282269772
-0.2362676412 -0.1502702981 0.5295256972 4281940293
-0.2367203087 -0.1499687284 0.5305401683 4280427054
-0.2367783338 -0.1494158804 0.5306702256 4279505952
-0.2372309119 -0.1491107345 0.5316845775 4279374366
-0.2380783260 -0.1490505189 0.5335837603 4279901224
-0.2385310084 -0.1487399489 0.5345983505 4280098603
-0.2389836907 -0.1484271139 0.5356128812 4279638052
-0.2394363731 -0.1481120437 0.5366274714 4279835431
-0.2394938618 -0.1475512236 0.5367562771 4279834917
-0.2395511568 -0.1469900012 0.5368847251 4279571745
-0.2392128557 -0.1461867541 0.5361264944 4279374366
-0.2388741821 -0.1453849524 0.5353674889 4279440159
-0.2389307171 -0.1448243856 0.5354941487 4279702818
-0.2393827289 -0.1445022672 0.5365072489 4280031783
-0.2398347259 -0.1441778839 0.5375202894 4280229420
-0.2406825870 -0.1440882534 0.5394204855 4280229420
-0.2395508587 -0.1428142041 0.5368840694 4280295982
-0.2411906868 -0.1431912333 0.5405592918 4280098603
-0.2416426539 -0.1428578347 0.5415722132 4279506467
-0.2424908429 -0.1427554339 0.5434731841 4280098604
-0.2429428697 -0.1424165815 0.5444862247 4280361778
-0.2437912822 -0.1423068643 0.5463877320 4280624950
-0.2442433685 -0.1419625580 0.5474009514 4281546052
-0.2450920194 -0.1418455094 0.5493029952 4282861912
-0.2455441505 -0.1414957345 0.5503162742 4284178029
-0.2448059618 -0.1404607445 0.5486618280 4285362303
-0.2460514903 -0.1405626833 0.5514533520 4286743699
-0.2465034723 -0.1402070522 0.5524663329 4287664801
-0.2465583831 -0.1396243125 0.5525893569 4288520367
-0.2466130853 -0.1390412003 0.5527119637 4289178297
-0.2458731681 -0.1380117685 0.5510536432 4289704641
-0.2499002069 -0.1203589737 0.5600790977 4289310134
-0.2495480925 -0.1195679829 0.5592899323 4280625458
-0.2495955974 -0.1189692095 0.5593964458 4280164650
-0.2492428124 -0.1181804091 0.5586057901 4281151545
-0.2484895140 -0.1172044501 0.5569174886 4285362297
-0.2561459839 -0.0742533728 0.5740772486 4289375929
-0.2561761439 -0.0736242011 0.5741447806 4288060069
-0.2562060356 -0.0729948059 0.5742118359 4286678416
-0.2562356889 -0.0723651871 0.5742782950 4284769906
-0.2558602393 -0.0716220289 0.5734368563 4283980390
-0.2566991448 -0.0712176338 0.5753169656 4283256667
-0.2563231587 -0.0704750419 0.5744742751 4284309355
-0.2559468150 -0.0697342232 0.5736308694 4285362043
-0.2555701435 -0.0689951926 0.5727866888 4284243562
-0.2560032904 -0.0684746355 0.5737574100 4283651425
-0.2556260228 -0.0677371845 0.5729118586 4283256667
-0.2548432648 -0.0668951645 0.5711575747 4282072393
-0.2548704743 -0.0662676468 0.5712185502 4281677635
-0.2540869713 -0.0654312149 0.5694625378 4281480256
-0.2541135848 -0.0648052916 0.5695222020 4281282877
-0.2537346482 -0.0640768185 0.5686728954 4281216566
-0.2533553839 -0.0633501410 0.5678228736 4281545531
-0.2521649301 -0.0624245554 0.5651548505 4282006082
-0.2489467561 -0.0610079654 0.5579422116 4282137668
-0.2481606305 -0.0601973571 0.5561803579 4281808703
-0.2502128184 -0.0600720979 0.5607797503 4281348152
-0.2498317063 -0.0593584850 0.5599256158 4281282359
-0.2498559058 -0.0587420538 0.5599797964 4281413945
-0.2494741976 -0.0580310859 0.5591243505 4281413945
-0.2507148981 -0.0576953776 0.5619050264 4281348152
-0.2503327131 -0.0569840558 0.5610484481 4281217336
-0.2507616878 -0.0564572774 0.5620099306 4281085750
-0.2528137267 -0.0562897362 0.5666089058 4281151543
-0.2532425225 -0.0557545945 0.5675699711 4281283129
-0.2536711395 -0.0552172810 0.5685305595 4281085750
-0.2540995777 -0.0546777956 0.5694907904 4281151543
-0.2541218698 -0.0540497936 0.5695407987 4281085748
-0.2541439235 -0.0534216315 0.5695902109 4281085748
-0.2537597120 -0.0527089685 0.5687291026 4281019955
-0.2537812293 -0.0520814843 0.5687773228 4281085748
-0.2542085648 -0.0515361689 0.5697350502 4281217334
-0.2538234890 -0.0508260429 0.5688719749 4281151541
-0.2538442314 -0.0501980856 0.5689185262 4281085748
-0.2538647056 -0.0495699793 0.5689644217 4280888369
-0.2538849711 -0.0489417203 0.5690097809 4280954162
-0.2539049387 -0.0483133122 0.5690545440 4281019955
-0.2543309331 -0.0477610528 0.5700093508 4281019955
-0.2543504536 -0.0471313447 0.5700530410 4281151541
-0.2543697059 -0.0465014949 0.5700961947 4281019957
-0.2547950745 -0.0459447764 0.5710495114 4280362027
-0.2548138201 -0.0453136377 0.5710915923 4280296234
-0.2548323274 -0.0446823575 0.5711330771 4280888371
-0.2548505962 -0.0440509431 0.5711739659 4280756017
-0.2548685670 -0.0434193946 0.5712143183 4280427052
-0.2544797957 -0.0427194685 0.5703429580 4280362029
-0.2540906966 -0.0420214310 0.5694708824 4280559408
-0.2545144558 -0.0414577276 0.5704206228 4280558636
-0.2545313835 -0.0408266671 0.5704585314 4280295464
-0.2549546957 -0.0402596928 0.5714072585 4280427303
-0.2553777695 -0.0396905728 0.5723555088 4280493096
-0.2549873292 -0.0389949344 0.5714803934 4280492837
-0.2554099560 -0.0384235568 0.5724276304 4280558630
-0.2554256618 -0.0377898738 0.5724627972 4280624680
-0.2550343275 -0.0370969065 0.5715857744 4280690473
-0.2546427250 -0.0364058428 0.5707080960 4281479730
-0.2538439929 -0.0356595404 0.5689179301 4282927176
-0.2550790310 -0.0351978540 0.5716859102 4286874754
-0.2538728416 -0.0343992375 0.5689826608 4290230197
-0.2538869083 -0.0337689258 0.5690141320 4291083180
-0.2539007068 -0.0331385098 0.5690450668 4291017387
-0.2539142370 -0.0325079933 0.5690754056 4290753698
-0.2539274991 -0.0318773761 0.5691051483 4290622112
-0.2539405227 -0.0312466603 0.5691342950 4290424729
-0.2539532781 -0.0306158494 0.5691629052 4289964178
-0.2543727756 -0.0300329961 0.5701030493 4289701776
-0.2543850243 -0.0294009876 0.5701305270 4289175432
-0.2539899945 -0.0287228581 0.5692451596 4288385918
-0.2540017068 -0.0280916821 0.5692714453 4288188539
-0.2540131807 -0.0274604205 0.5692971349 4288385920
-0.2536172867 -0.0267860778 0.5684098601 4288846471
-0.2536281943 -0.0261556618 0.5684343576 4288780425
-0.2536388636 -0.0255251639 0.5684582591 4288583046
-0.2540564239 -0.0249345452 0.5693940520 4288517001
-0.2540665865 -0.0243028793 0.5694168210 4288582794
-0.2540764809 -0.0236711390 0.5694390535 4288058768
-0.2540861368 -0.0230393261 0.5694606304 4288124561
-0.2545027137 -0.0224433523 0.5703942776 4289111970
-0.2358519286 -0.2381071448 0.5299130678 4285362046
-0.2359359860 -0.2376030236 0.5301018953 4281348673
-0.2360199094 -0.2370983511 0.5302904844 4280822329
-0.2361037135 -0.2365931422 0.5304787755 4281217085
-0.2358107120 -0.2357108593 0.5298204422 4281019706
-0.2358941436 -0.2352053821 0.5300078988 4281018936
-0.2359774560 -0.2346993685 0.5301951170 4282334796
-0.2360606641 -0.2341928184 0.5303820372 4286611596
-0.2357665002 -0.2333124429 0.5297211409 4289572281
-0.2358493209 -0.2328056395 0.5299071670 4289967037
-0.2355545312 -0.2319266200 0.5292448401 4284637804
-0.2356369644 -0.2314195484 0.5294300914 4279571743
-0.2357192934 -0.2309119552 0.5296150446 4280558638
-0.2358014882 -0.2304038256 0.5297996998 4281611326
-0.2358835638 -0.2298951745 0.5299841166 4282335049
-0.2355873585 -0.2290183753 0.5293185711 4283058772
-0.2356690466 -0.2285094708 0.5295021534 4282335049
-0.2357506156 -0.2280000448 0.5296853781 4281940291
-0.2350749671 -0.2267597765 0.5281673670 4282598221
-0.2359133661 -0.2269795984 0.5300510526 4283979874
-0.2386673689 -0.2147343308 0.5362387896 4287467933
-0.2383634746 -0.2138658613 0.5355560184 4285757314
-0.2380591929 -0.2129985690 0.5348723531 4284178282
-0.2377545238 -0.2121324539 0.5341877937 4282730577
-0.2382141948 -0.2119479179 0.5352205634 4281414717
-0.2382914722 -0.2114218175 0.5353942513 4280888373
-0.2376033962 -0.2102181762 0.5338482261 4280625201
-0.2376801521 -0.2096927464 0.5340206623 4280032810
-0.2381396145 -0.2095036358 0.5350530148 4280164396
-0.2378332168 -0.2086403668 0.5343646407 4280822326
-0.2379095405 -0.2081134170 0.5345361233 4281085498
-0.2376025021 -0.2072516829 0.5338461995 4280822326
-0.2372950613 -0.2063911408 0.5331554413 4280559154
-0.2373706996 -0.2058643699 0.5333254337 4280888119
-0.2374462038 -0.2053370923 0.5334950686 4280427568
-0.2375215590 -0.2048093230 0.5336643457 4281151291
-0.2375967652 -0.2042810470 0.5338333249 4280756533
-0.2380557805 -0.2040814310 0.5348646641 4280756533
-0.2381308228 -0.2035512924 0.5350332856 4280493361
-0.2382057011 -0.2030206472 0.5352014899 4281085752
-0.2386647612 -0.2028161138 0.5362329483 4281151545
-0.2391239107 -0.2026093602 0.5372645259 4280822580
-0.2388140261 -0.2017506212 0.5365682840 4280493615
-0.2388884425 -0.2012171298 0.5367354751 4280756017
-0.2385778874 -0.2003599852 0.5360377431 4280953396
-0.2386518717 -0.1998263597 0.5362039804 4280821812
-0.2387257069 -0.1992922425 0.5363698602 4280492847
-0.2391845584 -0.1990782022 0.5374007821 4280427054
-0.2377170920 -0.1972633600 0.5341036916 4280427054
-0.2393316925 -0.1980057508 0.5377314091 4280492845
-0.2394050360 -0.1974687874 0.5378961563 4280624431
-0.2390925884 -0.1966142058 0.5371941924 4280427052
-0.2391654998 -0.1960771233 0.5373579860 4280492845
-0.2388523966 -0.1952241659 0.5366545320 4280821812
-0.2389248759 -0.1946869642 0.5368173718 4280558640
-0.2386111021 -0.1938356310 0.5361123681 4280296236
-0.2382969409 -0.1929855496 0.5354065299 4280427822
-0.2383687347 -0.1924486309 0.5355678201 4280427822
-0.2384403497 -0.1919112206 0.5357287526 4280559408
-0.2385118306 -0.1913733333 0.5358893275 4280625201
-0.2385831326 -0.1908349544 0.5360495448 4280493615
-0.2386542857 -0.1902961135 0.5362094045 4280691251
-0.2391121984 -0.1900643110 0.5372382402 4280822837
-0.2391831428 -0.1895236224 0.5373976231 4280625458
-0.2392539382 -0.1889824569 0.5375567079 4280362286
-0.2393245548 -0.1884407997 0.5377153754 4280164907
-0.2390076518 -0.1875946224 0.5370033383 4279835942
-0.2390778512 -0.1870528907 0.5371610522 4279770149
-0.2395354807 -0.1868129671 0.5381892323 4279770149
-0.2399931699 -0.1865708083 0.5392175913 4280033321
-0.2400631011 -0.1860258877 0.5393747091 4281086009
-0.2397449166 -0.1851808578 0.5386598706 4282401359
-0.2398144156 -0.1846358627 0.5388159752 4283717219
-0.2402718961 -0.1843882799 0.5398438573 4285427837
-0.2403411716 -0.1838414669 0.5399994850 4286941076
-0.2407986522 -0.1835902780 0.5410273671 4288388522
-0.2409006059 -0.1650253981 0.5412564278 4289374136
-0.2405719161 -0.1641996801 0.5405179262 4286479757
-0.2410266548 -0.1639083773 0.5415396690 4282597970
-0.2406973988 -0.1630835980 0.5407998562 4280624180
-0.2403677553 -0.1622602046 0.5400592089 4281676868
-0.2404299527 -0.1617019773 0.5401989818 4281546052
-0.2385303527 -0.1598289460 0.5359309316 4281348673
-0.2381992489 -0.1590124518 0.5351870060 4280558385
-0.2378677726 -0.1581973732 0.5344422460 4279768869
-0.2383211404 -0.1579039544 0.5354608893 4280558640
-0.2379890978 -0.1570898443 0.5347148776 4281808707
-0.2380494922 -0.1565354466 0.5348505378 4280624948
-0.2373238504 -0.1554658413 0.5332201719 4280230190
-0.2373836786 -0.1549124420 0.5333545804 4280888120
-0.2374433279 -0.1543586254 0.5334885716 4281546050
-0.2375027835 -0.1538043767 0.5336222053 4284506735
-0.2375620604 -0.1532497257 0.5337553620 4288783280
-0.2370098978 -0.1505268812 0.5325147510 4287533213
-0.2370680422 -0.1499720067 0.5326454043 4284046183
-0.2375199050 -0.1496649235 0.5336606503 4280032810
-0.2379717678 -0.1493555903 0.5346758962 4279243294
-0.2380295545 -0.1487976462 0.5348057747 4279901224
-0.2384813279 -0.1484847367 0.5358207822 4279769638
-0.2389331162 -0.1481695622 0.5368358493 4279835431
-0.2389905155 -0.1476085484 0.5369648337 4279769638
-0.2390477359 -0.1470471323 0.5370934010 4279572259
-0.2387101948 -0.1462436020 0.5363349915 4279637538
-0.2387669384 -0.1456823200 0.5364624858 4279045401
-0.2384287417 -0.1448807567 0.5357026458 4279834917
-0.2384849936 -0.1443195939 0.5358290672 4279769124
-0.2385410666 -0.1437580436 0.5359550118 4279440159
-0.2385969460 -0.1431961060 0.5360805392 4279703331
-0.2394428700 -0.1431060582 0.5379812121 4280032296
-0.2398937643 -0.1427766681 0.5389942527 4280361261
-0.2407399416 -0.1426793188 0.5408954620 4279967017
-0.2411908954 -0.1423444897 0.5419086814 4280032810
-0.2424328029 -0.1424722224 0.5446990132 4279966503
-0.2420927584 -0.1416680366 0.5439350009 4280163882
-0.2413566709 -0.1406347752 0.5422811508 4279834917
-0.2422030419 -0.1405233294 0.5441827774 4279571745
-0.2430495769 -0.1404077411 0.5460847616 4278980122
-0.2446881533 -0.1407434940 0.5497663021 4278980122
-0.2447431237 -0.1401641518 0.5498898029 4279111709
-0.2451940179 -0.1398102790 0.5509029031 4279374881
-0.2444562763 -0.1387793571 0.5492452979 4279835432
-0.2453031391 -0.1386477649 0.5511480570 4280361776
-0.2437718809 -0.1371737421 0.5477076173 4280954172
-0.2450149655 -0.1372615993 0.5505006313 4281677895
-0.2450687289 -0.1366799474 0.5506213903 4282401872
-0.2451222837 -0.1360978931 0.5507417321 4282796630
-0.2451756299 -0.1355154663 0.5508615971 4283322974
-0.2452287674 -0.1349326670 0.5509809852 4283454560
-0.2452817112 -0.1343494803 0.5510998964 4283651685
-0.2453344315 -0.1337659210 0.5512183905 4283717478
-0.2457840145 -0.1333974749 0.5522285104 4283783271
-0.2458364218 -0.1328122169 0.5523462296 4284046443
-0.2458886057 -0.1322265863 0.5524634719 4284309869
-0.2459405959 -0.1316405833 0.5525802970 4284178283
-0.2463897616 -0.1312659383 0.5535895228 4284572528
-0.2464414090 -0.1306782365 0.5537055135 4284572528
-0.2468904108 -0.1303000003 0.5547143817 4284638321
-0.2469417304 -0.1297106296 0.5548296571 4284901493
-0.2469928265 -0.1291208863 0.5549444556 4285230458
-0.2474415153 -0.1287377477 0.5559526086 4285625216
-0.2470943779 -0.1279402971 0.5551726222 4286217352
-0.2475428134 -0.1275545359 0.5561801791 4286677903
-0.2475931495 -0.1269623935 0.5562932491 4287467419
-0.2476432621 -0.1263698786 0.5564058423 4287993763
-0.2480913699 -0.1259792298 0.5574126840 4288651693
-0.2481411397 -0.1253850460 0.5575245023 4289178037
-0.2469955534 -0.1241895929 0.5549505949 4289638072
-0.2478415668 -0.1239962652 0.5568513870 4290098623
-0.2478906065 -0.1234019771 0.5569615960 4290624967
-0.2479394227 -0.1228073314 0.5570712686 4291085518
-0.2481802702 -0.1198288947 0.5576124191 4288519591
-0.2482277751 -0.1192321703 0.5577191710 4280821810
-0.2478759140 -0.1184443682 0.5569285750 4280953394
-0.2471244484 -0.1174683794 0.5552402139 4281348152
-0.2467717826 -0.1166847050 0.5544478297 4284045665
-0.2552086413 -0.0741662681 0.5734037757 4290033347
-0.2552387118 -0.0735378414 0.5734713674 4289244084
-0.2548646331 -0.0727938265 0.5726308227 4288125603
-0.2552981079 -0.0722803175 0.5736047626 4286941327
-0.2549234033 -0.0715378597 0.5727629662 4286349190
-0.2545484006 -0.0707971752 0.5719203353 4285493883
-0.2545771301 -0.0701696500 0.5719848871 4283980644
-0.2546055913 -0.0695419088 0.5720488429 4282138186
-0.2538254559 -0.0686951876 0.5702960491 4281940807
-0.2546617985 -0.0682858080 0.5721751451 4281611842
-0.2546895444 -0.0676574484 0.5722374320 4281151291
-0.2539083958 -0.0668160915 0.5704823732 4280888373
-0.2539355457 -0.0661893189 0.5705433488 4280756787
-0.2527492344 -0.0652491450 0.5678779483 4280954166
-0.2527757287 -0.0646249726 0.5679375529 4281414717
-0.2523975074 -0.0638982058 0.5670877695 4281414715
-0.2512099147 -0.0629704297 0.5644194484 4281875266
-0.2508309484 -0.0622492731 0.5635679960 4281677887
-0.2496424466 -0.0613311194 0.5608976483 4281019957
-0.2500720322 -0.0608123913 0.5618628263 4280822578
-0.2500967681 -0.0601940751 0.5619183779 4280559406
-0.2497165203 -0.0594791733 0.5610640645 4280362027
-0.2505502403 -0.0590522923 0.5629373193 4280559406
-0.2505742908 -0.0584324338 0.5629912615 4280756787
-0.2514077425 -0.0579991862 0.5648639202 4280888373
-0.2510264814 -0.0572845750 0.5640072823 4280822578
-0.2514547110 -0.0567545779 0.5649694204 4280625199
-0.2518827617 -0.0562224053 0.5659312010 4280625199
-0.2531206310 -0.0558668263 0.5687124133 4280690992
-0.2535484135 -0.0553282946 0.5696735978 4280756017
-0.2535709441 -0.0547002070 0.5697242022 4280821810
-0.2535932362 -0.0540719517 0.5697742701 4281019957
-0.2536152601 -0.0534435324 0.5698237419 4281085750
-0.2536370158 -0.0528149530 0.5698726773 4281019955
-0.2536585331 -0.0521862097 0.5699210167 4280954162
-0.2536798120 -0.0515573099 0.5699687600 4280888369
-0.2541060746 -0.0510096066 0.5709265471 4280822576
-0.2537215650 -0.0502990372 0.5700625777 4281019441
-0.2537420690 -0.0496696681 0.5701086521 4281216820
-0.2537623048 -0.0490401499 0.5701541305 4281414199
-0.2541877031 -0.0484878123 0.5711099505 4281348406
-0.2542074621 -0.0478569902 0.5711543560 4281479991
-0.2542269826 -0.0472260229 0.5711981654 4281348405
-0.2546517253 -0.0466692224 0.5721524954 4281282099
-0.2546707392 -0.0460369587 0.5721952319 4280492583
-0.2546895146 -0.0454045571 0.5722374320 4280558376
-0.2547080517 -0.0447720140 0.5722790360 4281413685
-0.2547262907 -0.0441393331 0.5723200440 4281085233
