VERSION 0.7
FIELDS x y z rgba
SIZE 4 4 4 4
TYPE F F F U
COUNT 1 1 1 1
WIDTH 920
HEIGHT 1
VIEWPOINT 0.0 0.0 0.0 1.0 0.0 0.0 0.0
POINTS 920
DATA ascii
-0.2837561965 -0.0699663758 0.5917661190 4281413945
-0.2850759923 -0.0696312413 0.5945184231 4281611324
-0.2851056755 -0.0689778775 0.5945803523 4281282359
-0.2829847634 -0.0678090379 0.5901572108 4281282359
-0.2834437788 -0.0672622621 0.5911145210 4280821808
-0.2839026451 -0.0667133108 0.5920714736 4280427052
-0.2826405168 -0.0657618195 0.5894393325 4281084982
-0.2826685607 -0.0651133731 0.5894978642 4281019959
-0.2809752226 -0.0640722588 0.5859664083 4280230443
-0.2792812884 -0.0630388558 0.5824337602 4281151545
-0.2801689208 -0.0625900328 0.5842849016 4282138440
-0.2780435979 -0.0614709742 0.5798526406 4282137670
-0.2780698538 -0.0608324595 0.5799073577 4287993247
-0.2781970799 -0.0576372221 0.5801726580 4288454568
-0.2752069235 -0.0563800335 0.5739368200 4281151545
-0.2584552467 -0.0517504811 0.5390016437 4283519323
-0.2546002269 -0.0503886491 0.5309620500 4285032562
-0.2550525963 -0.0498871952 0.5319054723 4288585384
-0.2550739348 -0.0493003353 0.5319499373 4289177519
-0.2555259168 -0.0487956107 0.5328925848 4286019455
-0.2555467784 -0.0482074656 0.5329360962 4283914079
-0.2590152025 -0.0482615940 0.5401693583 4283848286
-0.2620528936 -0.0482203960 0.5465044379 4283650907
-0.2954598963 -0.0475214906 0.6161738038 4292730859
-0.2989310920 -0.0473871380 0.6234129071 4290362311
-0.2976572216 -0.0464954972 0.6207562685 4287862177
-0.2989713550 -0.0460080244 0.6234968901 4284506734
-0.2994225025 -0.0453836545 0.6244377494 4282730323
-0.2998734117 -0.0447571576 0.6253780723 4282401358
-0.2985980511 -0.0438749231 0.6227183938 4282598737
-0.3007744849 -0.0434977897 0.6272572279 4282006600
-0.3012246490 -0.0428649224 0.6281960607 4281809221
-0.3016745746 -0.0422299355 0.6291344166 4280888119
-0.3016926646 -0.0415334105 0.6291720867 4280822326
-0.3008471727 -0.0407199189 0.6274088621 4281348670
-0.3008646071 -0.0400251411 0.6274452209 4282532945
-0.3013134003 -0.0393866710 0.6283811927 4285888388
-0.2780385017 -0.2236937135 0.5811882019 4287271319
-0.2781247795 -0.2231171727 0.5813685060 4282862420
-0.2782108784 -0.2225400954 0.5815484524 4282599248
-0.2782967985 -0.2219624817 0.5817280412 4282138697
-0.2779743671 -0.2210597247 0.5810540915 4282007111
-0.2780598104 -0.2204819024 0.5812327266 4281677887
-0.2785535455 -0.2202264518 0.5822647214 4281480508
-0.2786387801 -0.2196467072 0.5824429393 4281480508
-0.2787238359 -0.2190664262 0.5826207399 4281480508
-0.2788087428 -0.2184856087 0.5827981830 4281283129
-0.2784845233 -0.2175847739 0.5821204782 4281217336
-0.2773417532 -0.2160477936 0.5797317624 4281151541
-0.2745613456 -0.2132441998 0.5739198327 4280888369
-0.2758721113 -0.2136215121 0.5766597390 4280888369
-0.2529571652 -0.1794276088 0.5287602544 4280098855
-0.2534407973 -0.1791820526 0.5297712088 4280098855
-0.2535116374 -0.1786433309 0.5299192667 4280098855
-0.2535822690 -0.1781041771 0.5300669074 4280098855
-0.2540658414 -0.1778537482 0.5310777426 4280098855
-0.2541362643 -0.1773128062 0.5312249064 4280164648
-0.2550331652 -0.1773462892 0.5330997705 4280164648
-0.2546899915 -0.1765161306 0.5323824286 4280164648
-0.2551735640 -0.1762586385 0.5333932638 4280164650
-0.2548298240 -0.1754293442 0.5326746702 4280098857
-0.2561408281 -0.1757370085 0.5354151130 4280164650
-0.2566245496 -0.1754728705 0.5364262462 4280164650
-0.2566942871 -0.1749243736 0.5365719795 4280230441
-0.2567638159 -0.1743754297 0.5367173553 4280164648
-0.2568331957 -0.1738260537 0.5368623734 4280099368
-0.2573167384 -0.1735557020 0.5378731489 4280033575
-0.2569713891 -0.1727259457 0.5371512175 4280098855
-0.2578693628 -0.1727306396 0.5390282869 4280164648
-0.2566941381 -0.1713472754 0.5365717411 4280164648
-0.2567625046 -0.1707965583 0.5367146134 4280230441
-0.2568306625 -0.1702454090 0.5368570685 4280296234
-0.2568986416 -0.1696938276 0.5369991660 4280230441
-0.2565512955 -0.1688685566 0.5362731218 4280230441
-0.2566187978 -0.1683169901 0.5364142060 4280230441
-0.2566860914 -0.1677649915 0.5365548730 4280230441
-0.2567532063 -0.1672125459 0.5366951823 4280230441
-0.2568201721 -0.1666596830 0.5368351340 4280230441
-0.2573025823 -0.1663751602 0.5378435254 4280230441
-0.2569534779 -0.1655526459 0.5371137857 4280296232
-0.2566039562 -0.1647315025 0.5363832116 4280230439
-0.2570860386 -0.1644438952 0.5373908877 4280230439
-0.2571520209 -0.1638888866 0.5375288725 4280230439
-0.2568016350 -0.1630691439 0.5367963910 4280164648
-0.2568671405 -0.1625141799 0.5369333625 4280164648
-0.2569324672 -0.1619587839 0.5370698571 4280164648
-0.2569975853 -0.1614029557 0.5372060537 4280164648
-0.2570625246 -0.1608467251 0.5373417735 4280296234
-0.2567105591 -0.1600302756 0.5366060138 4280230441
-0.2571918368 -0.1597329825 0.5376120806 4280230441
-0.2568392456 -0.1589174867 0.5368750691 4280164648
-0.2577374279 -0.1588746309 0.5387524962 4280164648
-0.2573843598 -0.1580592245 0.5380144715 4280164648
-0.2578653991 -0.1577557325 0.5390200019 4280098855
-0.2579290867 -0.1571956575 0.5391531587 4280033062
-0.2579925954 -0.1566351801 0.5392858386 4280098853
-0.2580558956 -0.1560742706 0.5394181609 4280033060
-0.2581189871 -0.1555129588 0.5395500660 4280098853
-0.2581818998 -0.1549512446 0.5396816134 4280098853
-0.2582446039 -0.1543891132 0.5398126841 4279967267
-0.2583071291 -0.1538265646 0.5399433374 4279967267
-0.2583694458 -0.1532636136 0.5400736332 4280033060
-0.2580133677 -0.1524531692 0.5393293500 4279967267
-0.2580752075 -0.1518903226 0.5394585729 4279901474
-0.2585551739 -0.1515723169 0.5404618979 4279901474
-0.2586167157 -0.1510077566 0.5405904651 4279901476
-0.2586780190 -0.1504427791 0.5407186151 4279835683
-0.2583204508 -0.1496348828 0.5399712324 4279835683
-0.2588000596 -0.1493116319 0.5409737229 4279769890
-0.2588607669 -0.1487454474 0.5411006212 4279835683
-0.2589212656 -0.1481788754 0.5412271023 4279835683
-0.2589815855 -0.1476119161 0.5413531661 4279966499
-0.2590416968 -0.1470445544 0.5414788127 4279966499
-0.2586823106 -0.1462397724 0.5407276154 4279966499
-0.2587419152 -0.1456725448 0.5408522487 4279966499
-0.2588013113 -0.1451049149 0.5409764051 4279966499
-0.2588604987 -0.1445368975 0.5411000848 4279966499
-0.2589195073 -0.1439684927 0.5412234068 4280032292
-0.2589782774 -0.1433997005 0.5413462520 4279966499
-0.2590368390 -0.1428305358 0.5414686799 4279966499
-0.2590952218 -0.1422609687 0.5415906906 4279966499
-0.2587333322 -0.1414613724 0.5408343077 4280032292
-0.2587912083 -0.1408919692 0.5409552455 4280098085
-0.2588488460 -0.1403221786 0.5410757661 4280163878
-0.2584860027 -0.1395251453 0.5403172374 4280229671
-0.2585431337 -0.1389555186 0.5404366851 4280295464
-0.2581795752 -0.1381604970 0.5396767259 4280295464
-0.2586567998 -0.1378151476 0.5406742692 4280164648
-0.2582926154 -0.1370212287 0.5399130583 4280098855
-0.2583488226 -0.1364510357 0.5400305390 4280164648
-0.2584048510 -0.1358804703 0.5401476026 4280164648
-0.2584606409 -0.1353095472 0.5402642488 4280164648
-0.2589372396 -0.1349576861 0.5412604809 4280230441
-0.2585715652 -0.1341665685 0.5404961109 4280230441
-0.2590479553 -0.1338120997 0.5414919257 4280164648
-0.2591029704 -0.1332387626 0.5416069627 4279901476
-0.2591578066 -0.1326650679 0.5417215228 4279769890
-0.2596338987 -0.1323057860 0.5427166820 4279704097
-0.2596883774 -0.1317304224 0.5428305864 4279835683
-0.2593209743 -0.1309417933 0.5420626402 4280230441
-0.2597966790 -0.1305786222 0.5430570245 4280690992
-0.2598505318 -0.1300021708 0.5431695580 4280954164
-0.2590602934 -0.1290051639 0.5415177345 4281019957
-0.2591135204 -0.1284298748 0.5416289568 4281415228
-0.2591665387 -0.1278542429 0.5417397618 4281612607
-0.2592193186 -0.1272782534 0.5418501496 4281941572
-0.2592719197 -0.1267019212 0.5419600606 4282204744
-0.2593242824 -0.1261252314 0.5420694947 4282401869
-0.2593764067 -0.1255481839 0.5421785116 4282796627
-0.2598508596 -0.1251743436 0.5431702733 4283322971
-0.2599026561 -0.1245956644 0.5432785153 4283651936
-0.2599542141 -0.1240166500 0.5433862805 4284375661
-0.2600055635 -0.1234372854 0.5434936285 4284573040
-0.2600567043 -0.1228575781 0.5436004996 4284967799
-0.2605305612 -0.1224763617 0.5445910096 4285362557
-0.2597352862 -0.1214992628 0.5429286361 4285559682
-0.2597856522 -0.1209194884 0.5430339575 4285691268
-0.2598358393 -0.1203393713 0.5431388021 4285625475
-0.2594625056 -0.1195638701 0.5423584580 4285493889
-0.2599354982 -0.1191781312 0.5433471203 4285230717
-0.2745733559 -0.1118602008 0.5739449263 4282270286
-0.2767457068 -0.1121024713 0.5784858465 4285494143
-0.2776429951 -0.1118211150 0.5803614259 4283717731
-0.2781150937 -0.1113653257 0.5813482404 4284112489
-0.2781617343 -0.1107379794 0.5814457536 4283651938
-0.2786335349 -0.1102786809 0.5824319720 4282730836
-0.2791052163 -0.1098171473 0.5834179521 4283849317
-0.2804278731 -0.1096862704 0.5861826539 4285296763
-0.2804738581 -0.1090528667 0.5862788558 4286809489
-0.2906287014 -0.0866769180 0.6075056195 4286546569
-0.2898092866 -0.0857594609 0.6057927608 4280427820
-0.2889893651 -0.0848456621 0.6040789485 4281283129
-0.2881689966 -0.0839355290 0.6023640633 4281545531
-0.2873481214 -0.0830290690 0.6006481647 4281348152
-0.2869550586 -0.0822490454 0.5998265743 4281085750
-0.2865616083 -0.0814707354 0.5990041494 4281019957
-0.2861678004 -0.0806941539 0.5981809497 4280954166
-0.2862020433 -0.0800391138 0.5982525349 4280822580
-0.2853790522 -0.0791461617 0.5965322256 4280953396
-0.2845555544 -0.0782569051 0.5948109031 4281084982
-0.2841602266 -0.0774882138 0.5939844847 4281019187
-0.2829071879 -0.0764894783 0.5913652778 4280690222
-0.2816536129 -0.0754964054 0.5887448788 4280230441
-0.2808282077 -0.0746229440 0.5870195031 4280098855
-0.2800023556 -0.0737531856 0.5852932334 4280362027
-0.2796048820 -0.0729991123 0.5844623446 4280098855
-0.2800647914 -0.0724687427 0.5854237676 4279900706
-0.2805245519 -0.0719361901 0.5863848329 4279769120
-0.2805551589 -0.0712924525 0.5864487886 4280558636
-0.2814435661 -0.0708645582 0.5883058310 4281019187
-0.2823318839 -0.0704325140 0.5901626945 4280164648
-0.2827909887 -0.0698902607 0.5911223292 4280822578
-0.2832499146 -0.0693458393 0.5920816064 4281217336
-0.2837086320 -0.0687992349 0.5930405259 4281348922
-0.2824501693 -0.0678380728 0.5904099345 4282532426
-0.2833376527 -0.0673931763 0.5922650695 4284177251
-0.2812196612 -0.0662362725 0.5878377557 4282992979
-0.2816772759 -0.0656898618 0.5887943506 4281216568
-0.2799875438 -0.0646455288 0.5852622986 4280559408
-0.2778677344 -0.0635107532 0.5808312297 4280625201
-0.2783243358 -0.0629687086 0.5817856193 4280493615
-0.2783511579 -0.0623283125 0.5818417072 4281809475
-0.2775185704 -0.0614973381 0.5801013112 4281611326
-0.2771151364 -0.0607643463 0.5792580247 4283716702
-0.2558395565 -0.0507514849 0.5347853899 4283650911
-0.2575813234 -0.0504987687 0.5384261608 4284308841
-0.2563126981 -0.0496547781 0.5357744098 4284243046
-0.2554737329 -0.0488989092 0.5340206623 4283716702
-0.2567849755 -0.0485535078 0.5367615819 4283782495
-0.2550850809 -0.0476396531 0.5332082510 4282992979
-0.2563960254 -0.0472890064 0.5359485149 4283256151
-0.2914379835 -0.0476603024 0.6091973186 4290494149
-0.2961940169 -0.0477501713 0.6191389561 4286875282
-0.2970755100 -0.0472023264 0.6209815145 4284046183
-0.2953734100 -0.0462458730 0.6174235940 4282730323
-0.2979767919 -0.0459614284 0.6228654385 4282335565
-0.2984270751 -0.0453377888 0.6238066554 4281611842
-0.2988770902 -0.0447120219 0.6247473955 4280888119
-0.2993268967 -0.0440841280 0.6256875992 4281875014
-0.2993457317 -0.0433916748 0.6257269979 4283190874
-0.3002257645 -0.0428219661 0.6275665164 4283848804
-0.2998133004 -0.0420668237 0.6267043948 4281348670
-0.2994005084 -0.0413135476 0.6258414388 4279835431
-0.2994181514 -0.0406205878 0.6258783937 4281019705
-0.3007280529 -0.0400998555 0.6286164522 4281480256
-0.3007451892 -0.0394036658 0.6286522746 4282598737
-0.2990384698 -0.0384855345 0.6250846982 4287533725
-0.2766861916 -0.2231237292 0.5797072649 4284507499
-0.2767721117 -0.2225487232 0.5798872709 4282533455
-0.2768578529 -0.2219731659 0.5800669193 4282599248
-0.2769434154 -0.2213970721 0.5802462101 4281612353
-0.2770288289 -0.2208204567 0.5804251432 4281349181
-0.2767065465 -0.2199194133 0.5797498822 4281546301
-0.2767914832 -0.2193425745 0.5799278617 4281414715
-0.2768762410 -0.2187652141 0.5801054239 4281480508
-0.2769608200 -0.2181873173 0.5802826881 4281480508
-0.2770452499 -0.2176088840 0.5804595351 4281283129
-0.2754969299 -0.2157514095 0.5772155523 4281151543
-0.2739474177 -0.2139002234 0.5739690661 4281151541
-0.2703548074 -0.2104657292 0.5664418936 4280954162
-0.2712534666 -0.2105338722 0.5683247447 4280954162
-0.2543137372 -0.1825856715 0.5328329802 4280164646
-0.2531640530 -0.1776348799 0.5304241776 4280164648
-0.2537168562 -0.1768414974 0.5315824151 4280098855
-0.2537868321 -0.1762994826 0.5317289829 4280098855
-0.2542694211 -0.1760428101 0.5327401161 4280164648
-0.2547520399 -0.1757839173 0.5337512493 4280164648
-0.2552346885 -0.1755228043 0.5347625613 4280164648
-0.2557174265 -0.1752594858 0.5357739329 4280164648
-0.2557869554 -0.1747117043 0.5359196067 4280164648
-0.2558563054 -0.1741634607 0.5360649228 4280164648
-0.2559255064 -0.1736147851 0.5362098813 4280033575
-0.2564080656 -0.1733452529 0.5372209549 4280033575
-0.2568906546 -0.1730735004 0.5382320881 4280098855
-0.2569594979 -0.1725217104 0.5383763313 4280164648
-0.2566142678 -0.1716925651 0.5376530290 4280164648
-0.2562686503 -0.1708647460 0.5369288921 4280230441
-0.2559226155 -0.1700382829 0.5362038612 4280230441
-0.2559904158 -0.1694874018 0.5363458991 4280230441
-0.2560580075 -0.1689360887 0.5364875793 4280164648
-0.2561254501 -0.1683843285 0.5366287827 4280230441
-0.2557781339 -0.1675605625 0.5359011292 4280230441
-0.2558450699 -0.1670088470 0.5360413790 4280164648
-0.2559118271 -0.1664566845 0.5361812115 4280230441
-0.2563932538 -0.1661729813 0.5371899605 4280230441
-0.2564597428 -0.1656190604 0.5373292565 4280296232
-0.2561109662 -0.1647976190 0.5365984440 4280296232
-0.2565921545 -0.1645099372 0.5376066566 4280230439
-0.2566580772 -0.1639547199 0.5377448201 4280230439
-0.2563084066 -0.1631346941 0.5370121598 4280230441
-0.2563738525 -0.1625795364 0.5371492505 4280230441
-0.2564390898 -0.1620239466 0.5372859836 4280230441
-0.2565041482 -0.1614679396 0.5374222994 4280230441
-0.2565690279 -0.1609115005 0.5375581980 4280230441
-0.2566336989 -0.1603546441 0.5376937389 4280230441
-0.2566981912 -0.1597973704 0.5378288031 4280296234
-0.2567624748 -0.1592396796 0.5379635096 4280230441
-0.2572428286 -0.1589387506 0.5389699340 4280230441
-0.2568904757 -0.1581230462 0.5382317305 4280230441
-0.2573706508 -0.1578194648 0.5392377377 4280230441
-0.2574342787 -0.1572591960 0.5393710732 4280230441
-0.2574976981 -0.1566985250 0.5395039320 4280230439
-0.2571441531 -0.1558847725 0.5387632251 4280098853
-0.2576239705 -0.1555759162 0.5397685170 4280098853
-0.2576867938 -0.1550139934 0.5399001241 4280164646
-0.2577494383 -0.1544516683 0.5400313735 4280230439
-0.2578119040 -0.1538889259 0.5401622057 4280164646
-0.2578741312 -0.1533257663 0.5402926207 4280098853
-0.2579361796 -0.1527622193 0.5404226184 4280033060
-0.2579980195 -0.1521982551 0.5405521989 4279967269
-0.2584772408 -0.1518792510 0.5415562987 4279901476
-0.2585388124 -0.1513135582 0.5416852236 4279901476
-0.2586001456 -0.1507474780 0.5418137908 4279835683
-0.2586612999 -0.1501809806 0.5419418812 4279901476
-0.2578863204 -0.1491306871 0.5403181314 4279901476
-0.2579468489 -0.1485652179 0.5404449701 4279901476
-0.2580071986 -0.1479993612 0.5405714512 4279835683
-0.2580673397 -0.1474331170 0.5406974554 4279966499
-0.2581272721 -0.1468664557 0.5408230424 4280032292
-0.2577685714 -0.1460622996 0.5400714278 4280032292
-0.2582465410 -0.1457319856 0.5410729051 4280032292
-0.2578872442 -0.1449288726 0.5403200984 4280032292
-0.2583650053 -0.1445959359 0.5413210988 4280032292
-0.2584239244 -0.1440273225 0.5414445400 4280032292
-0.2584826350 -0.1434583217 0.5415675640 4280032292
-0.2585411370 -0.1428889483 0.5416901708 4279966499
-0.2585994601 -0.1423191726 0.5418123007 4280032292
-0.2582383156 -0.1415192783 0.5410556793 4280032292
-0.2582961321 -0.1409496665 0.5411767960 4280098085
-0.2579343021 -0.1401517838 0.5404186845 4280163878
-0.2579915822 -0.1395823359 0.5405387282 4280229671
-0.2580486536 -0.1390125006 0.5406582952 4280229671
-0.2576858401 -0.1382171810 0.5398981571 4280295464
-0.2577424049 -0.1376475245 0.5400166512 4280098855
-0.2577987909 -0.1370774955 0.5401347280 4280164648
-0.2578549385 -0.1365070939 0.5402523875 4280164648
-0.2579108775 -0.1359363198 0.5403695703 4280164648
-0.2579666078 -0.1353651732 0.5404863358 4280098855
-0.2580220997 -0.1347936541 0.5406026840 4280164648
-0.2584977448 -0.1344403774 0.5415992141 4280230441
-0.2585529387 -0.1338671893 0.5417148471 4280164648
-0.2586078942 -0.1332936436 0.5418300033 4280296234
-0.2586626709 -0.1327197254 0.5419447422 4280230441
-0.2587172091 -0.1321454495 0.5420590043 4280033062
-0.2587715387 -0.1315708160 0.5421728492 4279769890
-0.2588256598 -0.1309958100 0.5422862768 4279638304
-0.2588795722 -0.1304204464 0.5423991680 4279901476
-0.2589332461 -0.1298447251 0.5425117016 4280362027
-0.2585656047 -0.1290584505 0.5417413712 4280756785
-0.2586187720 -0.1284829527 0.5418527722 4280690990
-0.2590930164 -0.1281154156 0.5428464413 4280888369
-0.2587244809 -0.1273308992 0.5420742631 4281217334
-0.2587769926 -0.1267543435 0.5421842933 4281414713
-0.2592508495 -0.1263829321 0.5431770682 4281677887
-0.2593030035 -0.1258047372 0.5432863832 4282006852
-0.2597766817 -0.1254298091 0.5442788005 4282467662
-0.2594067156 -0.1246472970 0.5435036421 4282796627
-0.2598800957 -0.1242697984 0.5444955230 4283125594
-0.2595095038 -0.1234884784 0.5437190533 4283520352
-0.2599826455 -0.1231084019 0.5447103381 4284112490
-0.2600335777 -0.1225271970 0.5448170304 4284638834
-0.2596620917 -0.1217476800 0.5440387130 4285099385
-0.2598623931 -0.1194218695 0.5444583893 4285296510
-0.2599119246 -0.1188395843 0.5445621610 4285296510
-0.2600103021 -0.1176740080 0.5447682738 4285296510
-0.2748046517 -0.1134943813 0.5757650733 4283191388
-0.2761245072 -0.1133966893 0.5785304308 4282204493
-0.2753234208 -0.1124267802 0.5768520236 4280954426
-0.2783404887 -0.1130108386 0.5831733346 4280757047
-0.2775389850 -0.1120393351 0.5814940333 4281809735
-0.2784347236 -0.1117527634 0.5833707452 4283388767
-0.2784814537 -0.1111232489 0.5834686756 4282928216
-0.2793771327 -0.1108302921 0.5853452682 4280559668
-0.2789988518 -0.1100307480 0.5845527053 4281743941
-0.2803190947 -0.1098988727 0.5873188376 4283257180
-0.2803651094 -0.1092642546 0.5874152780 4284243562
-0.2808357477 -0.1087939143 0.5884013772 4289375416
-0.2879411578 -0.0860752240 0.6032884717 4287336085
-0.2862685323 -0.0849088207 0.5997839570 4281677117
-0.2854498327 -0.0840014964 0.5980686545 4281150773
-0.2854854167 -0.0833473802 0.5981432199 4280690222
-0.2850932777 -0.0825692341 0.5973216295 4280953394
-0.2847007811 -0.0817928016 0.5964992642 4281348154
-0.2847354412 -0.0811399296 0.5965719223 4281479740
-0.2847698331 -0.0804868117 0.5966439843 4281479740
-0.2839486897 -0.0795937255 0.5949234962 4281282361
-0.2826993763 -0.0785854384 0.5923060179 4281216568
-0.2835881710 -0.0781723410 0.5941681862 4281282361
-0.2819102108 -0.0770535469 0.5906525254 4280887601
-0.2810872197 -0.0761742592 0.5889282227 4280690222
-0.2802637815 -0.0752986819 0.5872029662 4280361257
-0.2794398665 -0.0744268149 0.5854767561 4279900706
-0.2790434957 -0.0736716613 0.5846462250 4280163878
-0.2790747583 -0.0730302632 0.5847117901 4280032292
-0.2795338631 -0.0724996775 0.5856736302 4280098085
-0.2799927592 -0.0719669014 0.5866351724 4280098085
-0.2800233364 -0.0713228956 0.5866991878 4280032292
-0.2804818749 -0.0707867518 0.5876598954 4280361257
-0.2805119455 -0.0701413453 0.5877228975 4280624429
-0.2813983858 -0.0697079301 0.5895801783 4280953394
-0.2818563581 -0.0691652447 0.5905396938 4281479738
-0.2827425599 -0.0687245205 0.5923964977 4281808703
-0.2814864516 -0.0677639320 0.5897647142 4282598219
-0.2828007340 -0.0674220026 0.5925183892 4285624697
-0.2824009061 -0.0666692704 0.5916805863 4287137936
-0.2802864015 -0.0655176044 0.5872503519 4284966767
-0.2794570327 -0.0646731928 0.5855126977 4281742910
-0.2773412764 -0.0635379329 0.5810797811 4280690222
-0.2782257199 -0.0630928800 0.5829328895 4280427052
-0.2774215937 -0.0616189130 0.5812481046 4282466635
-0.2757325470 -0.0606018752 0.5777092576 4281545533
-0.2749006450 -0.0597790927 0.5759662390 4287204501
-0.2638697922 -0.0543090552 0.5528546572 4289967553
-0.2630575597 -0.0529171415 0.5511528850 4280361775
-0.2587884367 -0.0514559262 0.5422083139 4283058519
-0.2570935786 -0.0505204387 0.5386571884 4284045414
-0.2558273673 -0.0496760868 0.5360043049 4283979876
-0.2554401755 -0.0484116264 0.5351930857 4282532430
-0.2576075494 -0.0482227094 0.5397341251 4283190360
-0.2571987510 -0.0475474484 0.5388776064 4286874768
-0.2913160920 -0.0477512255 0.6103595495 4283980642
-0.2926255763 -0.0472846664 0.6131031513 4282861395
-0.2960835695 -0.0471541882 0.6203482747 4282532430
-0.2965334654 -0.0465355404 0.6212908626 4281874500
-0.2969831228 -0.0459147580 0.6222329736 4281545535
-0.2961430848 -0.0450954959 0.6204729676 4282269772
-0.2978816926 -0.0446668081 0.6241156459 4285230457
-0.2979007661 -0.0439761877 0.6241556406 4288783279
-0.2983494401 -0.0433478914 0.6250956655 4290493897
-0.2970781624 -0.0424716212 0.6224321127 4290362311
-0.2975262403 -0.0418430679 0.6233708858 4286217352
-0.2988340259 -0.0413313396 0.6261109710 4280757046
-0.2992816567 -0.0406965539 0.6270488501 4280691253
-0.2992990315 -0.0400021784 0.6270852685 4281151804
-0.2980259657 -0.0391382575 0.6244179010 4281480769
-0.2997629642 -0.0386685506 0.6280572414 4283257180
-0.2997794747 -0.0379728265 0.6280918121 4288981171
-0.2752507031 -0.2231261134 0.5780448318 4288849837
-0.2753364146 -0.2225531489 0.5782248378 4282731088
-0.2754219770 -0.2219796479 0.5784044862 4282533455
-0.2755073607 -0.2214056253 0.5785838366 4282007111
-0.2755925953 -0.2208310664 0.5787627697 4281809473
-0.2752710283 -0.2199311107 0.5780875087 4281283129
-0.2753557861 -0.2193563282 0.5782654881 4281546301
-0.2750335336 -0.2184578627 0.5775887370 4281414715
-0.2751178145 -0.2178828716 0.5777657628 4281480508
-0.2752019465 -0.2173073590 0.5779423714 4281414715
-0.2752858698 -0.2167313099 0.5781186819 4281217334
-0.2753696740 -0.2161547393 0.5782946348 4281151541
-0.2713785172 -0.2123886347 0.5699129701 4281151541
-0.2538218796 -0.1826575845 0.5330428481 4280164646
-0.2530720234 -0.1815274656 0.5314680934 4280098853
-0.2527324855 -0.1806942075 0.5307550430 4280098853
-0.2523925304 -0.1798622459 0.5300410986 4280098853
-0.2524633408 -0.1793236434 0.5301898718 4280098853
-0.2525340021 -0.1787845790 0.5303382277 4280098853
-0.2530159056 -0.1785353720 0.5313502550 4280098853
-0.2530863285 -0.1779945344 0.5314981341 4280164646
-0.2531565726 -0.1774532348 0.5316456556 4280164646
-0.2532266378 -0.1769115031 0.5317928195 4280098855
-0.2532965243 -0.1763693094 0.5319395661 4280098855
-0.2541902065 -0.1763984561 0.5338163972 4280098855
-0.2542599738 -0.1758536100 0.5339629054 4280098855
-0.2543295622 -0.1753083020 0.5341090560 4280098855
-0.2548112869 -0.1750458032 0.5351207256 4280098855
-0.2548806369 -0.1744987220 0.5352663398 4280098855
-0.2549498081 -0.1739511937 0.5354115963 4280098855
-0.2554314435 -0.1736838073 0.5364230871 4280098855
-0.2555003762 -0.1731345057 0.5365678072 4280098855
-0.2559819818 -0.1728635728 0.5375792384 4280098855
-0.2564636469 -0.1725904197 0.5385907292 4280164648
-0.2561191320 -0.1717609763 0.5378672481 4280230441
-0.2553610206 -0.1706567109 0.5362751484 4280230441
-0.2562555373 -0.1706566066 0.5381537080 4280164648
-0.2554966211 -0.1695550382 0.5365599394 4280164648
-0.2555641532 -0.1690035313 0.5367017388 4280164648
-0.2552178502 -0.1681790203 0.5359745026 4280230441
-0.2548711598 -0.1673558652 0.5352464318 4280361257
-0.2553517818 -0.1670756340 0.5362557173 4280361257
-0.2558324337 -0.1667931676 0.5372651219 4280164648
-0.2554849386 -0.1659705043 0.5365353823 4280230441
-0.2555512488 -0.1654172987 0.5366746187 4280427304
-0.2560316622 -0.1651308537 0.5376835465 4280427304
-0.2560977042 -0.1645758897 0.5378222466 4280427304
-0.2557490468 -0.1637550890 0.5370900035 4280427304
-0.2558146119 -0.1632001698 0.5372276902 4280427050
-0.2558799684 -0.1626448184 0.5373649597 4280427050
-0.2559451461 -0.1620890349 0.5375018120 4280296234
-0.2560101151 -0.1615328342 0.5376383066 4280296234
-0.2561395168 -0.1604191661 0.5379100442 4280296234
-0.2562039495 -0.1598616987 0.5380453467 4280362027
-0.2562681437 -0.1593038142 0.5381801724 4280296234
-0.2563321888 -0.1587455124 0.5383146405 4280296234
-0.2568115592 -0.1584431678 0.5393214226 4280296234
-0.2568753064 -0.1578831226 0.5394552946 4280296234
-0.2569388747 -0.1573226601 0.5395887494 4280362027
-0.2570022345 -0.1567617953 0.5397217870 4280296232
-0.2566494048 -0.1559477448 0.5389808416 4280230439
-0.2567122877 -0.1553869545 0.5391128659 4280230439
-0.2571911216 -0.1550766677 0.5401184559 4280296232
-0.2572536767 -0.1545141488 0.5402498841 4280427818
-0.2573160529 -0.1539512128 0.5403808355 4280362025
-0.2573782206 -0.1533878595 0.5405114293 4280230441
-0.2574402094 -0.1528241038 0.5406416059 4280230441
-0.2575019896 -0.1522599459 0.5407713056 4280098855
-0.2575635612 -0.1516953707 0.5409006476 4280098855
-0.2580418289 -0.1513749510 0.5419049859 4280033062
-0.2581031024 -0.1508086622 0.5420337319 4280033062
-0.2581641674 -0.1502419710 0.5421620011 4280033062
-0.2578078806 -0.1494330764 0.5414137244 4280033062
-0.2574512064 -0.1486256123 0.5406646729 4279967269
-0.2575114965 -0.1480595618 0.5407912731 4279901476
-0.2579890192 -0.1477321535 0.5417941213 4280032292
-0.2580489814 -0.1471643746 0.5419200659 4280032292
-0.2576911151 -0.1463589966 0.5411685109 4280032292
-0.2577505708 -0.1457913667 0.5412933826 4280032292
-0.2578098476 -0.1452233344 0.5414178371 4280032292
-0.2578688860 -0.1446548998 0.5415418744 4280098085
-0.2579277456 -0.1440860927 0.5416654348 4280098085
-0.2579863966 -0.1435168833 0.5417886376 4280098085
-0.2580448389 -0.1429473013 0.5419113636 4280032292
-0.2581030726 -0.1423773170 0.5420336723 4280098085
-0.2577427030 -0.1415771246 0.5412768126 4280098085
-0.2578004301 -0.1410073042 0.5413980484 4280098085
-0.2578579485 -0.1404370964 0.5415188670 4280163878
-0.2570778728 -0.1394124031 0.5398806930 4280163878
-0.2571347952 -0.1388432980 0.5400002003 4280229671
-0.2576104105 -0.1384990066 0.5409989953 4280229671
-0.2572480142 -0.1377039403 0.5402379632 4280098855
-0.2577233911 -0.1373570412 0.5412362814 4280164648
-0.2577795684 -0.1367855072 0.5413542390 4280164648
-0.2574162781 -0.1359921098 0.5405913591 4280164648
-0.2575274110 -0.1348490268 0.5408247113 4280164648
-0.2580021620 -0.1344956160 0.5418217778 4280164648
-0.2580572963 -0.1339222193 0.5419375300 4280164648
-0.2581122220 -0.1333484650 0.5420528054 4280164648
-0.2581669092 -0.1327743381 0.5421677232 4280230441
-0.2582213879 -0.1321998388 0.5422821045 4280296234
-0.2582756579 -0.1316249818 0.5423961282 4280098855
-0.2583297193 -0.1310497671 0.5425096154 4279835683
-0.2583835721 -0.1304741949 0.5426227450 4279638304
-0.2588574290 -0.1301094741 0.5436178446 4279638304
-0.2589109242 -0.1295322478 0.5437301993 4279704097
-0.2585438192 -0.1287453175 0.5429592133 4280361511
-0.2590172887 -0.1283767074 0.5439535379 4280493097
-0.2586495578 -0.1275909394 0.5431813002 4280625197
-0.2587021291 -0.1270132363 0.5432916880 4280822576
-0.2587544620 -0.1264351606 0.5434015989 4281019957
-0.2588065565 -0.1258567572 0.5435110331 4281217336
-0.2588584721 -0.1252779812 0.5436199903 4281612096
-0.2593311369 -0.1249016374 0.5446126461 4282006854
-0.2589615881 -0.1241194233 0.5438365936 4282203979
-0.2590128481 -0.1235396191 0.5439442396 4282664530
-0.2586426139 -0.1227595359 0.5431666970 4283256668
-0.2586933374 -0.1221799925 0.5432732105 4283783012
-0.2587438226 -0.1216001138 0.5433793068 4284309356
-0.2587940991 -0.1210198849 0.5434848666 4284769907
-0.2588441670 -0.1204393283 0.5435900092 4285098874
-0.2588939965 -0.1198584288 0.5436946154 4285362046
-0.2589436173 -0.1192772016 0.5437988043 4285296512
-0.2594148219 -0.1188889518 0.5447883606 4285362305
-0.2594640553 -0.1183061078 0.5448917747 4285296512
-0.2599350512 -0.1179143488 0.5458809137 4285164926
-0.2730100155 -0.1130161956 0.5733392239 4282336079
-0.2743271887 -0.1129213572 0.5761053562 4281875528
-0.2756445408 -0.1128204465 0.5788718462 4281480770
-0.2765385807 -0.1125411242 0.5807494521 4280625461
-0.2782797813 -0.1126004234 0.5844061375 4281086012
-0.2783268094 -0.1119700149 0.5845048428 4281283391
-0.2787972689 -0.1115087569 0.5854928493 4281480257
-0.2788438499 -0.1108767614 0.5855906606 4280427569
-0.2793140411 -0.1104119867 0.5865780711 4281348671
-0.2797841132 -0.1099449769 0.5875653028 4281940808
-0.2798300982 -0.1093101129 0.5876618028 4281414464
-0.2802998722 -0.1088395864 0.5886483788 4283783012
-0.2807695270 -0.1083668321 0.5896347165 4286349452
-0.2812390924 -0.1078918427 0.5906208158 4287204761
-0.2817085087 -0.1074146107 0.5916066170 4288389034
-0.2879680395 -0.0983786583 0.6047520638 4287862429
-0.2880094349 -0.0977207869 0.6048390269 4286349190
-0.2880505621 -0.0970626250 0.6049253941 4285888639
-0.2885169685 -0.0965465829 0.6059048772 4284770158
-0.2885576487 -0.0958868936 0.6059902310 4283585884
-0.2890236974 -0.0953673720 0.6069689989 4283323225
-0.2890638709 -0.0947061554 0.6070533991 4283191639
-0.2891037762 -0.0940446556 0.6071372032 4283257432
-0.2887175977 -0.0932453573 0.6063261628 4283454811
-0.2883310318 -0.0924477428 0.6055143476 4283717983
-0.2887959778 -0.0919229612 0.6064907908 4283915362
-0.2884087265 -0.0911267549 0.6056775451 4283981155
-0.2880211174 -0.0903322399 0.6048635244 4283981155
-0.2876331210 -0.0895394087 0.6040487289 4284572777
-0.2868185639 -0.0886166021 0.6023381352 4284309605
-0.2868559957 -0.0879588351 0.6024166942 4284243298
-0.2864668667 -0.0871710926 0.6015994549 4283980126
-0.2856509984 -0.0862563103 0.5998861194 4285098607
-0.2856874466 -0.0856007189 0.5999626517 4285032814
-0.2848707139 -0.0846913010 0.5982474685 4281677117
-0.2844800055 -0.0839113668 0.5974270105 4280690222
-0.2836623788 -0.0830083117 0.5957099199 4280427050
-0.2836974859 -0.0823566318 0.5957835913 4280558636
-0.2833056748 -0.0815818384 0.5949607491 4281084980
-0.2833401859 -0.0809306577 0.5950332284 4281611324
-0.2833744287 -0.0802792311 0.5951051712 4281479740
-0.2834084034 -0.0796275809 0.5951765180 4281019189
-0.2821615040 -0.0786188692 0.5925579667 4280821810
-0.2813409567 -0.0777337775 0.5908347368 4281019189
-0.2818008661 -0.0772033185 0.5918005705 4281084980
-0.2814065516 -0.0764386728 0.5909724832 4280624429
-0.2805847824 -0.0755607635 0.5892467499 4280295464
-0.2801896930 -0.0748005956 0.5884170532 4280098085
-0.2793670595 -0.0739291310 0.5866894722 4280427050
-0.2793984115 -0.0732854977 0.5867552757 4280032292
-0.2794294953 -0.0726416484 0.5868205428 4279966499
-0.2798876166 -0.0721076727 0.5877826214 4280098085
-0.2803455591 -0.0715715140 0.5887443423 4280098085
-0.2803759277 -0.0709250569 0.5888081193 4280229671
-0.2808334529 -0.0703855306 0.5897689462 4280624429
-0.2812908292 -0.0698438138 0.5907294750 4280690222
-0.2817480266 -0.0692999214 0.5916895866 4281084980
-0.2822050154 -0.0687538534 0.5926493406 4281677117
-0.2830894589 -0.0683087930 0.5945067406 4282269254
-0.2835461497 -0.0677573830 0.5954657793 4284374630
-0.2814363539 -0.0665965378 0.5910350680 4287269265
-0.2810368836 -0.0658462569 0.5901961923 4288848297
-0.2802092731 -0.0649985299 0.5884581208 4286348163
-0.2798090279 -0.0642528087 0.5876176357 4282532169
-0.2811200023 -0.0638979003 0.5903707147 4280426793
-0.2785796225 -0.0626704618 0.5850357413 4280887344
-0.2760384679 -0.0614547022 0.5796991587 4282006082
-0.2752085626 -0.0606277958 0.5779563189 4282137668
-0.2739756107 -0.0590776280 0.5753670335 4289374900
-0.2655096948 -0.0547740310 0.5575880408 4285757055
-0.2646764517 -0.0539845601 0.5558381677 4279440927
-0.2651277184 -0.0534579791 0.5567858815 4280427822
-0.2600102425 -0.0518194474 0.5460388660 4282137417
-0.2583187521 -0.0508795939 0.5424866080 4283716449
-0.2600541115 -0.0506146066 0.5461309552 4283453277
-0.2562195063 -0.0492704324 0.5380780697 4283255898
-0.2545264959 -0.0483509786 0.5345226526 4283979876
-0.2549756169 -0.0478413552 0.5354658365 4287335319
-0.2571388185 -0.0476472490 0.5400086641 4291283413
-0.2593021095 -0.0474430658 0.5445517302 4292204515
-0.2873117328 -0.0478750914 0.6033738256 4281875525
-0.2890475690 -0.0474898890 0.6070191264 4282138697
-0.2929277420 -0.0474439040 0.6151677966 4281743428
-0.2916612327 -0.0465582311 0.6125079989 4281940807
-0.2933968306 -0.0461506993 0.6161528826 4283322460
-0.2947034240 -0.0456685834 0.6188968420 4285888387
-0.2951518893 -0.0450493917 0.6198385954 4288849072
-0.2973906398 -0.0419215523 0.6245401502 4290033346
-0.2974084914 -0.0412301198 0.6245776415 4284244075
-0.2965677083 -0.0404215716 0.6228119135 4280296495
-0.2952972949 -0.0395593904 0.6201440096 4280493874
-0.2978895605 -0.0392115936 0.6255879402 4281020218
-0.2979062796 -0.0385186784 0.6256230474 4282138699
-0.2970641255 -0.0377166420 0.6238544583 4285033591
-0.2962215841 -0.0369184911 0.6220850348 4290626766
-0.2734986246 -0.2222241759 0.5757082105 4287073426
-0.2735838890 -0.2216535807 0.5758876204 4281349435
-0.2736689448 -0.2210824490 0.5760667324 4282336076
-0.2737538815 -0.2205107957 0.5762454271 4281546560
-0.2738386095 -0.2199386209 0.5764238238 4281612607
-0.2735173702 -0.2190409154 0.5757476091 4281086263
-0.2731957138 -0.2181443721 0.5750705600 4281546301
-0.2728736401 -0.2172490060 0.5743925571 4281348922
-0.2729573250 -0.2166772485 0.5745687485 4281283127
-0.2726345658 -0.2157833874 0.5738893151 4281283127
-0.2714984715 -0.2142492384 0.5714979172 4281151541
-0.2728008330 -0.2146389633 0.5742393136 4281151541
-0.2539323568 -0.1849459857 0.5345215797 4280361511
-0.2536673248 -0.1835664213 0.5339637399 4280164901
-0.2537393272 -0.1830250919 0.5341153145 4280164901
-0.2529911101 -0.1818936914 0.5325403214 4280164901
-0.2530625463 -0.1813531965 0.5326907039 4280099108
-0.2527235448 -0.1805191934 0.5319771171 4280164646
-0.2527945042 -0.1799786687 0.5321264863 4280098853
-0.2528653145 -0.1794376671 0.5322755575 4280098853
-0.2529359460 -0.1788962334 0.5324242115 4280098853
-0.2530063987 -0.1783543378 0.5325725079 4280098853
-0.2530766726 -0.1778119951 0.5327204466 4280098853
-0.2531467974 -0.1772691905 0.5328680277 4280164646
-0.2532167137 -0.1767259389 0.5330152512 4280164646
-0.2536976635 -0.1764682531 0.5340275764 4280098855
-0.2537673414 -0.1759232283 0.5341742635 4280098855
-0.2538368404 -0.1753777415 0.5343205929 4280098855
-0.2543177009 -0.1751151681 0.5353327990 4280164648
-0.2543869615 -0.1745679080 0.5354785919 4280098855
-0.2544560730 -0.1740202159 0.5356240273 4280098855
-0.2549368143 -0.1737527549 0.5366359949 4280098855
-0.2550056577 -0.1732032746 0.5367808938 4280098855
-0.2554863989 -0.1729322672 0.5377928615 4280098855
-0.2555549741 -0.1723809987 0.5379372239 4280164648
-0.2556234002 -0.1718292981 0.5380812287 4280230441
-0.2556916177 -0.1712771505 0.5382248163 4280230441
-0.2549346089 -0.1701738387 0.5366313457 4280164648
-0.2550022602 -0.1696225852 0.5367737412 4280164648
-0.2550697029 -0.1690708995 0.5369157195 4280295464
-0.2551369667 -0.1685187817 0.5370572805 4280361257
-0.2547911108 -0.1676944345 0.5363292694 4280361257
-0.2552709579 -0.1674132347 0.5373393297 4280361257
-0.2549245059 -0.1665898114 0.5366100669 4280230441
-0.2549909055 -0.1660368443 0.5367498398 4280296234
-0.2550571263 -0.1654834449 0.5368892550 4280427304
-0.2547096908 -0.1646623164 0.5361579061 4280427304
-0.2551890314 -0.1643753648 0.5371668935 4280427304
-0.2556684017 -0.1640861928 0.5381760001 4280427304
-0.2553201914 -0.1632655710 0.5374429822 4280492843
-0.2553854883 -0.1627100259 0.5375804305 4280492843
-0.2558645904 -0.1624168754 0.5385889411 4280362027
-0.2559296191 -0.1618595719 0.5387257934 4280362027
-0.2559944391 -0.1613018662 0.5388622880 4280427820
-0.2560590804 -0.1607437283 0.5389983058 4280427820
-0.2561235130 -0.1601851583 0.5391339660 4280362027
-0.2553586960 -0.1591095924 0.5375240445 4280362027
-0.2562518418 -0.1590667814 0.5394040942 4280362027
-0.2559009492 -0.1582504660 0.5386654735 4280362027
-0.2563793659 -0.1579467207 0.5396725535 4280362027
-0.2560279071 -0.1571313888 0.5389326811 4280362027
-0.2560910881 -0.1565712243 0.5390656590 4280230439
-0.2561540604 -0.1560106426 0.5391982794 4280362025
-0.2562168539 -0.1554496586 0.5393304229 4280362025
-0.2562794387 -0.1548882574 0.5394622087 4280427818
-0.2567573190 -0.1545765549 0.5404680967 4280493613
-0.2568196356 -0.1540134251 0.5405992270 4280427820
-0.2568817139 -0.1534498781 0.5407299995 4280296234
-0.2569436431 -0.1528859288 0.5408602953 4280362027
-0.2570053339 -0.1523215622 0.5409901738 4280296234
-0.2570668459 -0.1517568082 0.5411196947 4280296234
-0.2575442493 -0.1514362842 0.5421245694 4280296234
-0.2576054335 -0.1508697867 0.5422533751 4280230441
-0.2576664686 -0.1503028870 0.5423818231 4280164648
-0.2577272654 -0.1497355998 0.5425097942 4280098855
-0.2577878833 -0.1491678953 0.5426374078 4280098855
-0.2578482926 -0.1485998034 0.5427645445 4280033062
-0.2579084933 -0.1480313092 0.5428912640 4280098085
-0.2583852410 -0.1477006376 0.5438948274 4280098085
-0.2576114237 -0.1466558278 0.5422660112 4280098085
-0.2576709390 -0.1460870504 0.5423912406 4280098085
-0.2577302158 -0.1455179006 0.5425160527 4280098085
-0.2577893138 -0.1449483484 0.5426404476 4280098085
-0.2578482032 -0.1443784088 0.5427643657 4280098085
-0.2579068840 -0.1438080817 0.5428879261 4280098085
-0.2579653561 -0.1432373524 0.5430110097 4280098085
-0.2576061189 -0.1424354017 0.5422548056 4280098085
-0.2576640844 -0.1418648362 0.5423768163 4280098085
-0.2577218413 -0.1412938833 0.5424984097 4280163878
-0.2577793896 -0.1407225430 0.5426195264 4280163878
-0.2570009530 -0.1396965235 0.5409809351 4280163878
-0.2570579052 -0.1391262859 0.5411008596 4280229671
-0.2571146488 -0.1385556608 0.5412202477 4280229671
-0.2567530274 -0.1377602965 0.5404590368 4280229671
-0.2568092644 -0.1371898502 0.5405774117 4280295464
-0.2572836280 -0.1368415207 0.5415759683 4280295464
-0.2573395371 -0.1362694055 0.5416936278 4280295464
-0.2573952377 -0.1356969029 0.5418108702 4280427050
-0.2574507296 -0.1351240426 0.5419276953 4280427050
-0.2575059831 -0.1345507950 0.5420440435 4280361257
-0.2575610578 -0.1339771897 0.5421599746 4280361257
-0.2580347955 -0.1336201280 0.5431571603 4280296234
-0.2580895126 -0.1330448538 0.5432723761 4280230441
-0.2585631013 -0.1326842606 0.5442692637 4280098855
-0.2581983507 -0.1318932176 0.5435014367 4280164648
-0.2582524419 -0.1313168555 0.5436152816 4280230441
-0.2583062947 -0.1307401210 0.5437286496 4280098855
-0.2583599687 -0.1301630288 0.5438416004 4279638304
-0.2579939067 -0.1293752193 0.5430710912 4279309339
-0.2584666312 -0.1290077865 0.5440661907 4279703580
-0.2580999732 -0.1282211244 0.5432943702 4279900959
-0.2581526637 -0.1276435554 0.5434052944 4280229925
-0.2586250007 -0.1272722334 0.5443995595 4280558890
-0.2582574487 -0.1264873445 0.5436258316 4280822062
-0.2583095133 -0.1259087175 0.5437353849 4281019441
-0.2579412460 -0.1251259446 0.5429602265 4281216566
-0.2579927742 -0.1245475560 0.5430687070 4281479738
-0.2580440938 -0.1239688173 0.5431767702 4281611326
-0.2585155368 -0.1235907003 0.5441691279 4282006084
-0.2585664988 -0.1230103374 0.5442764163 4282401358
-0.2581967413 -0.1222305521 0.5434980392 4282796116
-0.2582471967 -0.1216504499 0.5436042547 4283190874
-0.2582974136 -0.1210700050 0.5437099338 4283651425
-0.2583473921 -0.1204892248 0.5438151956 4284243563
-0.2583971918 -0.1199081093 0.5439199805 4284769907
-0.2584467530 -0.1193266585 0.5440242887 4285099131
-0.2589170635 -0.1189382672 0.5450143218 4285428096
-0.2589662671 -0.1183551997 0.5451179147 4285493889
-0.2590152323 -0.1177717969 0.5452209711 4285362303
-0.2594852149 -0.1173786148 0.5462102890 4285362305
-0.2599551380 -0.1169832125 0.5471994877 4285296512
-0.2604250014 -0.1165855750 0.5481885076 4285164926
-0.2608947754 -0.1161857098 0.5491773486 4285033340
-0.2702331245 -0.1140242442 0.5688343644 4285033338
-0.2723921239 -0.1142981648 0.5733789802 4283849064
-0.2742241919 -0.1131428704 0.5772354603 4281941067
-0.2755391300 -0.1130409762 0.5800033808 4281414723
-0.2760089040 -0.1125881821 0.5809922218 4280822586
-0.2769013345 -0.1123045981 0.5828707814 4280954426
-0.2786394358 -0.1123578548 0.5865294337 4280362289
-0.2786862850 -0.1117249653 0.5866280794 4280427569
-0.2796253264 -0.1107934564 0.5886046886 4280427568
-0.2796715498 -0.1101576909 0.5887020230 4280953912
-0.2797175646 -0.1095216125 0.5887988806 4281348671
-0.2801865339 -0.1090499461 0.5897860527 4282335566
-0.2806554139 -0.1085760370 0.5907730460 4281283391
-0.2815475464 -0.1082627028 0.5926509500 4281480770
-0.2815928161 -0.1076215208 0.5927462578 4281941321
-0.2824848592 -0.1073017791 0.5946239233 4282336079
-0.2821061611 -0.1064981446 0.5938267708 4282928215
-0.2829980254 -0.1061729640 0.5957041383 4284046696
-0.2834661603 -0.1056856364 0.5966895819 4285493629
-0.2839342058 -0.1051960737 0.5976747870 4286348938
-0.2844021022 -0.1047042757 0.5986596942 4287533212
-0.2856363356 -0.0991463065 0.6012577415 4286743948
-0.2861024737 -0.0986389667 0.6022389531 4284178021
-0.2861438990 -0.0979840234 0.6023261547 4282598989
-0.2861850560 -0.0973287970 0.6024128199 4282006852
-0.2866506577 -0.0968167260 0.6033928394 4282730575
-0.2866913378 -0.0961599648 0.6034785509 4283191126
-0.2867317796 -0.0955029279 0.6035636663 4282730575
-0.2863471210 -0.0947050974 0.6027539372 4282270024
-0.2863869667 -0.0940484777 0.6028378010 4281875266
-0.2864265442 -0.0933915898 0.6029211283 4281546814
-0.2860408127 -0.0925968364 0.6021091938 4281481021
-0.2856547236 -0.0918037668 0.6012964845 4281481021
-0.2839928269 -0.0906054750 0.5977982283 4281546814
-0.2853066027 -0.0903573483 0.6005636454 4281481021
-0.2844941616 -0.0894346759 0.5988534689 4281283642
-0.2845318615 -0.0887810662 0.5989328623 4281348406
-0.2845692635 -0.0881272033 0.5990116000 4281019441
-0.2841810286 -0.0873423293 0.5981943607 4280558890
-0.2837923765 -0.0865591541 0.5973762870 4279440409
-0.2834033668 -0.0857776776 0.5965573788 4279505948
-0.2834395468 -0.0851257294 0.5966335535 4280098085
-0.2830498517 -0.0843466967 0.5958132148 4280229671
-0.2826597691 -0.0835693777 0.5949921012 4280163878
-0.2822692990 -0.0827937722 0.5941702127 4280032292
-0.2818784714 -0.0820198804 0.5933474898 4279769120
-0.2819131017 -0.0813706294 0.5934204459 4280361000
-0.2815215886 -0.0805992037 0.5925962925 4281282102
-0.2815556526 -0.0799504593 0.5926679969 4281282102
-0.2815894485 -0.0793014765 0.5927391052 4280426793
-0.2807708383 -0.0784142837 0.5910159945 4280098085
-0.2803778946 -0.0776488036 0.5901888609 4280558636
-0.2804107368 -0.0770020783 0.5902580023 4280690222
-0.2804433107 -0.0763551295 0.5903265476 4280690222
-0.2800493538 -0.0755928904 0.5894973278 4280426793
-0.2800813615 -0.0749464780 0.5895646214 4280163621
-0.2796867192 -0.0741867572 0.5887339711 4280755758
-0.2797181308 -0.0735408887 0.5888000727 4281084723
-0.2801757157 -0.0730059221 0.5897632837 4280756015
-0.2802066207 -0.0723586380 0.5898283720 4280163878
-0.2806638181 -0.0718202889 0.5907906890 4280229671
-0.2811208367 -0.0712797567 0.5917527080 4280163878
-0.2820042968 -0.0708442181 0.5936123729 4280163621
-0.2820343077 -0.0701921433 0.5936756134 4280426793
-0.2820640802 -0.0695398599 0.5937381983 4280689965
-0.2829470932 -0.0690958053 0.5955969691 4280953137
-0.2838300169 -0.0686476007 0.5974554420 4281874239
-0.2825785577 -0.0676840320 0.5948211551 4283124306
-0.2826072574 -0.0670299530 0.5948815942 4285229682
-0.2817817926 -0.0661751479 0.5931440592 4288190367
-0.2809559107 -0.0653240904 0.5914055705 4288519332
-0.2822647095 -0.0649682432 0.5941605568 4285492854
-0.2797298729 -0.0637305751 0.5888247490 4280821551
-0.2814653516 -0.0634676889 0.5924779177 4280953137
-0.2763665020 -0.0616715811 0.5817449689 4281348152
-0.2772470415 -0.0612196624 0.5835984945 4282466633
-0.2755641341 -0.0602035671 0.5800560117 4281940289
-0.2721715271 -0.0588258207 0.5729146600 4282861391
-0.2709145844 -0.0579205416 0.5702688098 4285427318
-0.2692297995 -0.0569306724 0.5667223334 4285229939
-0.2671170235 -0.0558591858 0.5622750521 4282532428
-0.2667367756 -0.0545319915 0.5614746213 4278979606
-0.2612024546 -0.0527896509 0.5498250127 4280163880
-0.2612470686 -0.0515766703 0.5499188900 4283321691
-0.2561376989 -0.0499689020 0.5391637683 4284045414
-0.2548759878 -0.0491266623 0.5365079641 4285098102
-0.2548968792 -0.0485345423 0.5365519524 4287664798
-0.2549175322 -0.0479422770 0.5365953445 4289178037
-0.2557933927 -0.0475087576 0.5384390950 4288980658
-0.2566691637 -0.0470711254 0.5402825475 4287664798
-0.2601117194 -0.0470941141 0.5475290418 4285822848
-0.2609874308 -0.0466422774 0.5493724346 4284375402
-0.2889452875 -0.0469082966 0.6082230210 4283651425
-0.2893933356 -0.0463042073 0.6091661453 4286941075
-0.2932661772 -0.0462379940 0.6173183918 4289967553
-0.2955571711 -0.0410692617 0.6221408844 4289704894
-0.2955746353 -0.0403804071 0.6221776605 4283586145
-0.2960202396 -0.0397489518 0.6231155992 4280625460
-0.2951802909 -0.0389458090 0.6213476062 4280691253
-0.2960537672 -0.0383686461 0.6231861711 4281349183
-0.2964985371 -0.0377328470 0.6241224408 4281678148
-0.2965146005 -0.0370414071 0.6241562366 4286217865
-0.2721551061 -0.2216507196 0.5742225647 4285954691
-0.2722399831 -0.2210816592 0.5744016767 4281349181
-0.2719200850 -0.2201844007 0.5737266541 4281941318
-0.2720045149 -0.2196151167 0.5739048123 4281546560
-0.2720887661 -0.2190453112 0.5740826130 4281217595
-0.2721728683 -0.2184749693 0.5742600560 4280757044
-0.2722567916 -0.2179041058 0.5744371414 4281414713
-0.2719352841 -0.2170092911 0.5737587810 4281217334
-0.2716133893 -0.2161156684 0.5730795860 4281151541
-0.2708855271 -0.2149014920 0.5715438724 4281151541
-0.2705626488 -0.2140110731 0.5708625913 4281020210
-0.2682105303 -0.2115218341 0.5658998489 4281086003
-0.2686979473 -0.2112763524 0.5669283271 4281085748
-0.2667494118 -0.2091188878 0.5628170371 4280822576
-0.2534379661 -0.1850184798 0.5347310901 4280295718
-0.2531014681 -0.1841794848 0.5340211391 4280295718
-0.2531735599 -0.1836384535 0.5341732502 4280230439
-0.2532455027 -0.1830969453 0.5343250036 4280230439
-0.2529080212 -0.1822600663 0.5336129665 4280164646
-0.2529794872 -0.1817185283 0.5337637663 4280164646
-0.2526413202 -0.1808833629 0.5330502391 4280164646
-0.2523027360 -0.1800494790 0.5323358774 4280098853
-0.2527831793 -0.1797997355 0.5333495140 4280033060
-0.2528538406 -0.1792572439 0.5334986448 4280098853
-0.2529243231 -0.1787142903 0.5336473584 4280033060
-0.2534046769 -0.1784596592 0.5346608758 4280033060
-0.2530647516 -0.1776270270 0.5339437127 4280098855
-0.2531347275 -0.1770827323 0.5340912938 4280098855
-0.2536149025 -0.1768240929 0.5351043940 4280098855
-0.2532741129 -0.1759927571 0.5343853831 4280098855
-0.2533435524 -0.1754471064 0.5345318913 4280033575
-0.2538235188 -0.1751844734 0.5355445743 4280099368
-0.2538927197 -0.1746370345 0.5356906056 4280099368
-0.2539617121 -0.1740891486 0.5358361602 4280033575
-0.2540305555 -0.1735408157 0.5359814167 4280098855
-0.2545103729 -0.1732719541 0.5369937420 4280098855
-0.2545789480 -0.1727218479 0.5371384621 4280098855
-0.2546473444 -0.1721712947 0.5372827649 4280164648
-0.2547155619 -0.1716202945 0.5374267101 4280165161
-0.2547836006 -0.1710688472 0.5375702381 4280165161
-0.2548514307 -0.1705169678 0.5377134085 4280230441
-0.2545072734 -0.1696900725 0.5369872451 4280230441
-0.2549865842 -0.1694118828 0.5379985571 4280230441
-0.2546418607 -0.1685858965 0.5372712016 4280230441
-0.2542966902 -0.1677612513 0.5365429521 4280230441
-0.2543634176 -0.1672089696 0.5366837382 4280296234
-0.2544299364 -0.1666562557 0.5368241072 4280362027
