VERSION 0.7
FIELDS x y z rgba
SIZE 4 4 4 4
TYPE F F F U
COUNT 1 1 1 1
WIDTH 920
HEIGHT 1
VIEWPOINT 0.0 0.0 0.0 1.0 0.0 0.0 0.0
POINTS 920
DATA ascii
-0.2713282108 -0.1156828478 0.5555533171 4286598224
-0.2713770568 -0.1150863022 0.5556533337 4286598224
-0.2714256644 -0.1144894361 0.5557528734 4286729810
-0.2714740634 -0.1138922572 0.5558519363 4286729810
-0.2715221941 -0.1132947505 0.5559505224 4286795348
-0.2715701163 -0.1126969308 0.5560486317 4286926934
-0.2716177702 -0.1120987982 0.5561462641 4286927189
-0.2716652155 -0.1115003526 0.5562433600 4286598224
-0.2717124224 -0.1109015867 0.5563399792 4286531661
-0.2717593610 -0.1103025153 0.5564361811 4286992212
-0.2718060911 -0.1097031310 0.5565318465 4286992212
-0.2722847760 -0.1092768982 0.5575119257 4286992212
-0.2723310888 -0.1086759418 0.5576067567 4286795603
-0.2723771632 -0.1080746874 0.5577011108 4287124568
-0.2724229991 -0.1074731201 0.5577949882 4286926934
-0.2724685967 -0.1068712547 0.5578883290 4286861141
-0.2725139558 -0.1062690914 0.5579811931 4286795348
-0.2721264362 -0.1054988950 0.5571877360 4286729555
-0.2721712291 -0.1048970893 0.5572794676 4286466383
-0.2722158134 -0.1042949855 0.5573707223 4286137418
-0.2722601295 -0.1036925837 0.5574614406 4285611587
-0.2723042071 -0.1030898914 0.5575516820 4285151036
-0.2723480165 -0.1024869084 0.5576414466 4284363315
-0.2723916173 -0.1018836275 0.5577306747 4284034350
-0.2728680968 -0.1014410853 0.5587062836 4284625975
-0.2729112506 -0.1008362696 0.5587946773 4285547077
-0.2733874321 -0.1003902704 0.5597696900 4286401616
-0.2734301984 -0.0997839272 0.5598571897 4286598995
-0.2734726965 -0.0991773009 0.5599442124 4287321947
-0.2739484012 -0.0987266004 0.5609182715 4287453533
-0.2744240165 -0.0982737020 0.5618920922 4287585119
-0.2748995125 -0.0978185907 0.5628656745 4287650912
-0.2749412060 -0.0972079560 0.5629510880 4287716963
-0.2754164040 -0.0967494026 0.5639240742 4287848549
-0.2754576802 -0.0961372554 0.5640085936 4288112234
-0.2759325802 -0.0956752598 0.5649809241 4288243820
-0.2759734094 -0.0950615928 0.5650645494 4287784039
-0.2764480114 -0.0945961624 0.5660362840 4287586660
-0.2769224644 -0.0941285267 0.5670077205 4287258981
-0.2778308988 -0.0938052610 0.5688678026 4287522153
-0.2783051431 -0.0933322534 0.5698388815 4287195500
-0.2792135179 -0.0930016860 0.5716987848 4287853430
-0.2796875834 -0.0925233141 0.5726694465 4289172373
-0.2810302377 -0.0923281386 0.5754185319 4289896096
-0.2819385827 -0.0919851661 0.5772784352 4290161583
-0.2837158740 -0.0919195786 0.5809174776 4292924889
-0.2950632274 -0.1711658388 0.6055286527 4293060337
-0.2951334715 -0.1705336422 0.6056727767 4293060337
-0.2952034771 -0.1699009836 0.6058164239 4293060337
-0.2956981063 -0.1695114374 0.6068315506 4292994542
-0.2961927056 -0.1691196114 0.6078465581 4292928749
-0.2962622344 -0.1684837788 0.6079892516 4292862956
-0.2963315248 -0.1678475142 0.6081314087 4292797163
-0.2964006066 -0.1672108024 0.6082731485 4292731370
-0.2964694202 -0.1665736288 0.6084144115 4292731370
-0.2965380251 -0.1659360230 0.6085551977 4292534761
-0.2966063917 -0.1652979851 0.6086955070 4292403175
-0.2962488830 -0.1644232571 0.6079618335 4292402405
-0.2963166833 -0.1637852490 0.6081010103 4292336612
-0.2963842750 -0.1631467938 0.6082396507 4292467171
-0.2964515984 -0.1625079215 0.6083778739 4292467171
-0.2960926890 -0.1616360247 0.6076412797 4292597987
-0.2957333326 -0.1607655436 0.6069037914 4292532194
-0.2949473262 -0.1596657485 0.6052907705 4291543498
-0.2937344015 -0.1583393812 0.6028015614 4287595918
-0.2920942307 -0.1567892283 0.5994356275 4286606707
-0.2891735435 -0.1545621157 0.5934418440 4286080363
-0.2862513065 -0.1523475051 0.5874448419 4286340193
-0.2829008400 -0.1499192715 0.5805689692 4286208607
-0.2799754143 -0.1477306038 0.5745654106 4286665819
-0.2787560225 -0.1464515626 0.5720629692 4286402647
-0.2771088481 -0.1449543387 0.5686826110 4286534229
-0.2767419219 -0.1441313922 0.5679296255 4286665815
-0.2759474218 -0.1430884004 0.5662991405 4286600277
-0.2751523256 -0.1420487314 0.5646674633 4286534484
-0.2747839987 -0.1412320435 0.5639115572 4286468691
-0.2744152546 -0.1404168159 0.5631548762 4286468691
-0.2740461230 -0.1396030635 0.5623973012 4286468179
-0.2736765742 -0.1387907863 0.5616388917 4286468179
-0.2733066082 -0.1379799843 0.5608797073 4286533971
-0.2725084424 -0.1369556785 0.5592417121 4286468178
-0.2729933858 -0.1365769207 0.5602368712 4286336592
-0.2726223171 -0.1357696652 0.5594753623 4286205006
-0.2722508311 -0.1349638999 0.5587130189 4286139213
-0.2718789577 -0.1341596246 0.5579498410 4286073420
-0.2719349265 -0.1335671842 0.5580646992 4286139213
-0.2715623081 -0.1327649802 0.5573000908 4286139213
-0.2716177404 -0.1321727484 0.5574138165 4285876041
-0.2712444365 -0.1313726157 0.5566477180 4285612869
-0.2712993324 -0.1307806075 0.5567603707 4285481796
-0.2713539898 -0.1301882267 0.5568725467 4285744968
-0.2709796727 -0.1293907613 0.5561043620 4286008140
-0.2710337937 -0.1287986189 0.5562154055 4286073933
-0.2706587613 -0.1280032545 0.5554457903 4286205006
-0.2707123458 -0.1274113357 0.5555557609 4286270799
-0.2703365982 -0.1266180724 0.5547846556 4286205006
-0.2703896463 -0.1260263920 0.5548934937 4286270799
-0.2704424560 -0.1254343688 0.5550019145 4286271312
-0.2700656950 -0.1246438324 0.5542286634 4286205519
-0.2701179683 -0.1240520552 0.5543359518 4286205519
-0.2701700330 -0.1234599352 0.5544427633 4286271312
-0.2702218294 -0.1228674650 0.5545491576 4286336592
-0.2698437572 -0.1220802665 0.5537732244 4286270799
-0.2698950171 -0.1214880720 0.5538784266 4286401615
-0.2699460685 -0.1208955348 0.5539832115 4286335822
-0.2699968815 -0.1203026623 0.5540875196 4286401615
-0.2700474858 -0.1197094545 0.5541912913 4286598994
-0.2700978220 -0.1191159189 0.5542946458 4286730580
-0.2701479495 -0.1185220480 0.5543975234 4286598994
-0.2706280947 -0.1181156337 0.5553828478 4286598737
-0.2706778347 -0.1175201535 0.5554849505 4286598737
-0.2707273364 -0.1169243529 0.5555865169 4286532944
-0.2712070942 -0.1165131703 0.5565711260 4286598737
-0.2712562382 -0.1159157678 0.5566719174 4286598737
-0.2713051140 -0.1153180376 0.5567722321 4286598737
-0.2713537514 -0.1147199944 0.5568720102 4286730323
-0.2714021504 -0.1141216233 0.5569713712 4286730323
-0.2714503407 -0.1135229319 0.5570702553 4286861396
-0.2714982629 -0.1129239276 0.5571686029 4286861396
-0.2715459764 -0.1123246029 0.5572665334 4286992982
-0.2715934217 -0.1117249653 0.5573639274 4286664017
-0.2716406584 -0.1111250147 0.5574608445 4286532431
-0.2716876566 -0.1105247512 0.5575572848 4286861396
-0.2717343867 -0.1099241748 0.5576531887 4286861396
-0.2717809081 -0.1093232930 0.5577486753 4286992982
-0.2722586393 -0.1088946760 0.5587290525 4286795603
-0.2723047435 -0.1082922220 0.5588237047 4287124568
-0.2719190121 -0.1075187996 0.5580320358 4287190619
-0.2719645500 -0.1069166958 0.5581254959 4287190619
-0.2720098495 -0.1063142866 0.5582185388 4286861141
-0.2720549405 -0.1057115793 0.5583109856 4286466383
-0.2716678679 -0.1049417332 0.5575166345 4286597969
-0.2717123628 -0.1043393835 0.5576080084 4286466383
-0.2717566490 -0.1037367433 0.5576988459 4285940552
-0.2722328007 -0.1032977700 0.5586760044 4285743173
-0.2722766399 -0.1026935875 0.5587660074 4285218369
-0.2723202705 -0.1020891070 0.5588555336 4284692025
-0.2723636329 -0.1014843360 0.5589445233 4284889147
-0.2728391588 -0.1010394096 0.5599203706 4285678663
-0.2728821039 -0.1004331037 0.5600085258 4286467409
-0.2733573318 -0.0999847203 0.5609837770 4286664788
-0.2733998597 -0.0993768796 0.5610710979 4287387485
-0.2734421492 -0.0987687632 0.5611578226 4287650657
-0.2739169002 -0.0983156860 0.5621321201 4287913829
-0.2743915617 -0.0978603959 0.5631062388 4288045415
-0.2748660743 -0.0974029005 0.5640800595 4287849062
-0.2749075890 -0.0967907757 0.5641651750 4287980648
-0.2753818035 -0.0963298380 0.5651383996 4288178797
-0.2754228711 -0.0957161933 0.5652226806 4288113004
-0.2758967876 -0.0952518061 0.5661952496 4287784296
-0.2768037617 -0.0949337855 0.5680565834 4287586917
-0.2772774994 -0.0944640338 0.5690287352 4287326059
-0.2777511179 -0.0939920694 0.5700007081 4287655024
-0.2782245874 -0.0935179070 0.5709723830 4287656310
-0.2791313827 -0.0931862444 0.5728332996 4288643205
-0.2800381780 -0.0928504393 0.5746942163 4289435804
-0.2813785076 -0.0926532596 0.5774447918 4290159527
-0.2822853029 -0.0923082158 0.5793057680 4291806921
-0.2938053310 -0.1735112965 0.6043246388 4293060338
-0.2938762903 -0.1728815883 0.6044705510 4292994544
-0.2939470410 -0.1722514331 0.6046160460 4292928751
-0.2935938835 -0.1713735163 0.6038897038 4292862958
-0.2940878272 -0.1709897369 0.6049056649 4292797165
-0.2941578925 -0.1703582257 0.6050497890 4292797165
-0.2942277193 -0.1697262526 0.6051933765 4292731372
-0.2942973077 -0.1690938324 0.6053365469 4292665579
-0.2947908640 -0.1687037051 0.6063517332 4292599786
-0.2948600948 -0.1680694818 0.6064941883 4292533991
-0.2949291170 -0.1674347967 0.6066361070 4292468198
-0.2949979305 -0.1667996794 0.6067776084 4292402405
-0.2950664759 -0.1661641151 0.6069186330 4292402405
-0.2951348126 -0.1655281186 0.6070591807 4292140003
-0.2952029109 -0.1648916751 0.6071993113 4292008417
-0.2948459387 -0.1640184373 0.6064650416 4292007647
-0.2949134707 -0.1633820385 0.6066039205 4291941854
-0.2949807942 -0.1627451926 0.6067423820 4292203999
-0.2950478792 -0.1621079147 0.6068803668 4292072413
-0.2946894765 -0.1612375379 0.6061431766 4291940314
-0.2943306565 -0.1603685617 0.6054051518 4292071900
-0.2939714193 -0.1595010012 0.6046662331 4292202198
-0.2927607000 -0.1581750363 0.6021758914 4289373099
-0.2915491760 -0.1568541676 0.5996839404 4286541941
-0.2899111509 -0.1553103626 0.5963147283 4285818218
-0.2869946957 -0.1530920863 0.5903158784 4286538342
-0.2840766907 -0.1508863121 0.5843139291 4286143584
-0.2811571658 -0.1486930698 0.5783087611 4286469467
-0.2790882885 -0.1469611079 0.5740532875 4286140502
-0.2774444222 -0.1454614252 0.5706720352 4286402898
-0.2766521275 -0.1444137990 0.5690423846 4286534484
-0.2758592665 -0.1433694810 0.5674115419 4286600277
-0.2750657797 -0.1423284709 0.5657794476 4286600277
-0.2746982872 -0.1415105313 0.5650235415 4286600277
-0.2743303776 -0.1406940669 0.5642668009 4286534484
-0.2739620507 -0.1398790628 0.5635092258 4286533972
-0.2731665075 -0.1388486028 0.5618728995 4286402386
-0.2732242048 -0.1382535100 0.5619915724 4286599765
-0.2724276781 -0.1372278631 0.5603531599 4286468179
-0.2729118466 -0.1368480474 0.5613490343 4286402385
-0.2725415826 -0.1360395402 0.5605874658 4286336592
-0.2725982070 -0.1354448199 0.5607039332 4286270799
-0.2717998922 -0.1344270110 0.5590618849 4286205006
-0.2718558908 -0.1338334233 0.5591770411 4286270800
-0.2714841366 -0.1330299675 0.5584123731 4286336593
-0.2715395987 -0.1324365735 0.5585264564 4286598994
-0.2711670995 -0.1316352040 0.5577602983 4286401615
-0.2712220252 -0.1310420185 0.5578733087 4285941834
-0.2712767124 -0.1304484904 0.5579857826 4285941834
-0.2709032297 -0.1296497732 0.5572175384 4286073420
-0.2709573805 -0.1290564537 0.5573289394 4286139213
-0.2705831528 -0.1282598525 0.5565592051 4286270799
-0.2706367671 -0.1276667565 0.5566694736 4286270799
-0.2702618539 -0.1268722564 0.5558983088 4286270799
-0.2703149319 -0.1262794137 0.5560075045 4286270799
-0.2703678012 -0.1256862134 0.5561162233 4286271312
-0.2699918449 -0.1248944253 0.5553429723 4286271312
-0.2700441480 -0.1243014783 0.5554505587 4286271312
-0.2700962424 -0.1237081811 0.5555576682 4286337105
-0.2697192729 -0.1229191273 0.5547822714 4286337105
-0.2697708309 -0.1223260984 0.5548883080 4286271312
-0.2698221207 -0.1217327267 0.5549938679 4286204236
-0.2698732018 -0.1211390123 0.5550988913 4286335822
-0.2699240446 -0.1205449700 0.5552034974 4286401615
-0.2704038918 -0.1201412827 0.5561904311 4286467408
-0.2704543471 -0.1195456237 0.5562942624 4286467408
-0.2705045938 -0.1189496294 0.5563975573 4286467408
-0.2701251209 -0.1181654409 0.5556170940 4286533201
-0.2706043422 -0.1177566499 0.5566027761 4286533201
-0.2706538737 -0.1171596646 0.5567046404 4286533201
-0.2707031667 -0.1165623590 0.5568060875 4286664787
-0.2707522511 -0.1159647182 0.5569069982 4286796116
-0.2708010674 -0.1153667644 0.5570074320 4286796116
-0.2708496749 -0.1147684753 0.5571073890 4286730323
-0.2708980441 -0.1141698733 0.5572068691 4286730323
-0.2709461749 -0.1135709509 0.5573058724 4286730323
-0.2709940374 -0.1129717082 0.5574043393 4286730323
-0.2710416913 -0.1123721451 0.5575023890 4286796116
-0.2710891068 -0.1117722690 0.5575999022 4286796116
-0.2715666592 -0.1113485470 0.5585821867 4286861396
-0.2716136873 -0.1107470915 0.5586788654 4286795603
-0.2716604471 -0.1101453230 0.5587750673 4286795603
-0.2717069983 -0.1095432490 0.5588707924 4287190361
-0.2717532814 -0.1089408621 0.5589660406 4286927189
-0.2717993557 -0.1083381698 0.5590607524 4287124568
-0.2718451619 -0.1077351719 0.5591550469 4287190106
-0.2714598477 -0.1069620848 0.5583624840 4287124313
-0.2715051174 -0.1063594371 0.5584555864 4286663762
-0.2715501487 -0.1057564914 0.5585482121 4286466383
-0.2715949416 -0.1051532403 0.5586403012 4286663762
-0.2720706463 -0.1047156453 0.5596187711 4286597969
-0.2716837823 -0.1039458513 0.5588230491 4286269004
-0.2717278302 -0.1033417135 0.5589136481 4286203211
-0.2717716396 -0.1027372852 0.5590037704 4285547334
-0.2718152106 -0.1021325588 0.5590934157 4285086783
-0.2722900510 -0.1016887054 0.5600700974 4285283905
-0.2723332047 -0.1010824442 0.5601588488 4286073421
-0.2723761201 -0.1004758924 0.5602471232 4286730581
-0.2728505135 -0.1000273302 0.5612229109 4286993753
-0.2728929818 -0.0994192511 0.5613102913 4287519584
-0.2733671069 -0.0989672318 0.5622854233 4287848549
-0.2738410830 -0.0985130072 0.5632603765 4288177514
-0.2738829553 -0.0979021564 0.5633465052 4288243307
-0.2743566334 -0.0974444747 0.5643208623 4287849832
-0.2748302221 -0.0969845951 0.5652949214 4288047211
-0.2748714685 -0.0963709801 0.5653797984 4288244847
-0.2753447294 -0.0959076509 0.5663532615 4288179054
-0.2753855586 -0.0952925161 0.5664372444 4288048238
-0.2762908936 -0.0949743688 0.5682994127 4288048238
-0.2771962583 -0.0946520865 0.5701615810 4287523695
-0.2776690722 -0.0941789746 0.5711341500 4288050039
-0.2785743475 -0.0938493833 0.5729961991 4288447109
-0.2794796228 -0.0935156494 0.5748581886 4289236625
-0.2803848684 -0.0931777805 0.5767202377 4289502367
-0.2817228734 -0.0929785892 0.5794723630 4291410364
-0.2926178575 -0.1752164960 0.6032602787 4292863473
-0.2926893234 -0.1745888442 0.6034075618 4292797680
-0.2927605510 -0.1739607453 0.6035544276 4292731887
-0.2924089730 -0.1730820686 0.6028296351 4292666094
-0.2924796641 -0.1724539548 0.6029753685 4292666094
-0.2925501168 -0.1718253791 0.6031206250 4292600301
-0.2921974957 -0.1709489673 0.6023936272 4292534508
-0.2922673821 -0.1703204066 0.6025377512 4292468715
-0.2927601337 -0.1699369550 0.6035535932 4292337384
-0.2928296924 -0.1693065912 0.6036970019 4292271591
-0.2928990126 -0.1686757654 0.6038399339 4292205798
-0.2929681242 -0.1680444926 0.6039823890 4292140005
-0.2934604585 -0.1676546931 0.6049973965 4292074212
-0.2935292125 -0.1670216173 0.6051391363 4292008419
-0.2935977578 -0.1663881093 0.6052803993 4291942626
-0.2936660349 -0.1657541394 0.6054211855 4291876833
-0.2937341034 -0.1651197374 0.6055614948 4292007647
-0.2938019335 -0.1644848883 0.6057013869 4291876061
-0.2934454978 -0.1636131704 0.6049665213 4291809757
-0.2935127616 -0.1629783660 0.6051052213 4291678171
-0.2935798168 -0.1623431295 0.6052434444 4291874523
-0.2932222784 -0.1614737660 0.6045063138 4291874523
-0.2932887673 -0.1608385742 0.6046434045 4291611349
-0.2929304838 -0.1599711180 0.6039047837 4291611349
-0.2925717831 -0.1591050625 0.6031652689 4291808467
-0.2922126353 -0.1582404226 0.6024248600 4290887365
-0.2914282680 -0.1571481228 0.6008077860 4288253329
-0.2897934616 -0.1556027830 0.5974374413 4286279539
-0.2877326310 -0.1538371593 0.5931888819 4286276197
-0.2852455378 -0.1518540531 0.5880615115 4286078818
-0.2823318839 -0.1496562362 0.5820547342 4286339675
-0.2798419893 -0.1476954073 0.5769215822 4285813331
-0.2782015502 -0.1461923569 0.5735396147 4286534484
-0.2769855857 -0.1449189335 0.5710328221 4286534484
-0.2761944234 -0.1438723505 0.5694018006 4286600022
-0.2749770284 -0.1426083297 0.5668919683 4286600022
-0.2746103406 -0.1417891532 0.5661360025 4286600022
-0.2742432654 -0.1409714371 0.5653792620 4286534229
-0.2738757730 -0.1401551962 0.5646216273 4286468436
-0.2735078633 -0.1393404454 0.5638631582 4286468436
-0.2727134526 -0.1383110434 0.5622254014 4286468436
-0.2727708817 -0.1377153546 0.5623437762 4286402643
-0.2724017799 -0.1369050443 0.5615828633 4286468179
-0.2724586427 -0.1363095492 0.5617001057 4286468179
-0.2720888257 -0.1355012804 0.5609376431 4286402386
-0.2721451819 -0.1349059641 0.5610538125 4286336593
-0.2717746198 -0.1340997666 0.5602899194 4286336593
-0.2714037001 -0.1332950741 0.5595251918 4286402386
-0.2714591920 -0.1327005178 0.5596395731 4286335822
-0.2710875273 -0.1318978965 0.5588734150 4286270029
-0.2711424828 -0.1313035637 0.5589867234 4286204236
-0.2707701325 -0.1305030137 0.5582190156 4286204236
-0.2708245516 -0.1299088895 0.5583311915 4286270029
-0.2704514861 -0.1291104555 0.5575621128 4286335822
-0.2705053389 -0.1285165548 0.5576731563 4286467408
-0.2705589831 -0.1279222965 0.5577837825 4286401615
-0.2701849043 -0.1271265447 0.5570125580 4286402385
-0.2702380121 -0.1265325397 0.5571219921 4286468178
-0.2698632181 -0.1257389039 0.5563493371 4286402385
-0.2699157596 -0.1251451224 0.5564576983 4286336592
-0.2699681222 -0.1245510131 0.5565655828 4286336592
-0.2695922852 -0.1237601042 0.5557908416 4286402385
-0.2696440816 -0.1231662408 0.5558975935 4286402385
-0.2692675591 -0.1223774776 0.5551213622 4286336592
-0.2693188190 -0.1217838749 0.5552270412 4286072650
-0.2693698406 -0.1211899295 0.5553322434 4286401615
-0.2698489726 -0.1207873821 0.5563200116 4286598994
-0.2698996365 -0.1201918200 0.5564243793 4286335822
-0.2699500322 -0.1195959300 0.5565283298 4286072650
-0.2700002193 -0.1189997047 0.5566318035 4286204236
-0.2700501680 -0.1184031442 0.5567347407 4286467408
-0.2700998783 -0.1178062558 0.5568372607 4286598994
-0.2701493800 -0.1172090396 0.5569393039 4286861654
-0.2701986134 -0.1166114956 0.5570408106 4286861654
-0.2702476382 -0.1160136238 0.5571418405 4286861654
-0.2702964246 -0.1154154316 0.5572424531 4286730068
-0.2703449726 -0.1148169115 0.5573425293 4286730068
-0.2703932822 -0.1142180711 0.5574421287 4286730068
-0.2704413533 -0.1136189103 0.5575412512 4286795861
-0.2709185481 -0.1131988317 0.5585250258 4286730068
-0.2709662020 -0.1125980839 0.5586233139 4286795603
-0.2710136473 -0.1119970158 0.5587211251 4286927189
-0.2710608542 -0.1113956347 0.5588183999 4286927189
-0.2711078227 -0.1107939407 0.5589152575 4286795603
-0.2711545527 -0.1101919413 0.5590115786 4286861396
-0.2712010443 -0.1095896214 0.5591074228 4287256154
-0.2716771662 -0.1091597229 0.5600889921 4287058775
-0.2717232406 -0.1085558310 0.5601840019 4287453533
-0.2713390887 -0.1077808291 0.5593919754 4287058520
-0.2713845968 -0.1071772873 0.5594858527 4286861141
-0.2714298964 -0.1065734401 0.5595792532 4286861141
-0.2714749575 -0.1059692875 0.5596721172 4286992727
-0.2719500661 -0.1055318266 0.5606516004 4286926934
-0.2719947100 -0.1049261168 0.5607436299 4286663762
-0.2716086507 -0.1041550562 0.5599477291 4286532176
-0.2716527283 -0.1035497114 0.5600386262 4286532176
-0.2716965675 -0.1029440835 0.5601289868 4286007374
-0.2717401683 -0.1023381576 0.5602188706 4285678409
-0.2717835307 -0.1017319411 0.5603082180 4285941065
-0.2722574174 -0.1012856960 0.5612852573 4286664788
-0.2723003626 -0.1006779447 0.5613737106 4287059033
-0.2723430395 -0.1000699028 0.5614617467 4287322205
-0.2723854780 -0.0994615778 0.5615492463 4287782756
-0.2728587389 -0.0990093797 0.5625249147 4288045928
-0.2733318806 -0.0985549688 0.5635003448 4288112234
-0.2738049030 -0.0980983600 0.5644754767 4288178027
-0.2738465369 -0.0974860117 0.5645613670 4287784039
-0.2743192613 -0.0970259458 0.5655359626 4287915625
-0.2747918665 -0.0965636745 0.5665102601 4288048238
-0.2752643526 -0.0960991904 0.5674843192 4288245617
-0.2753052115 -0.0954828411 0.5675685406 4288509302
-0.2762089670 -0.0951636061 0.5694317222 4288772474
-0.2766810656 -0.0946925059 0.5704050660 4287985529
-0.2775847614 -0.0943659618 0.5722680688 4288446080
-0.2784884572 -0.0940352678 0.5741311312 4289105296
-0.2793921232 -0.0937004387 0.5759941339 4289631640
-0.2807276845 -0.0935053229 0.5787475109 4290423726
-0.2816314101 -0.0931612328 0.5806106329 4293384411
-0.2913582325 -0.1775382906 0.6020419598 4292929266
-0.2914303839 -0.1769131720 0.6021910310 4292929266
-0.2915023267 -0.1762875915 0.6023396850 4292863473
-0.2915740311 -0.1756615490 0.6024878621 4292797680
-0.2916455269 -0.1750350446 0.6026355624 4292666094
-0.2917167842 -0.1744080931 0.6027828455 4292600301
-0.2917878330 -0.1737806648 0.6029296517 4292600301
-0.2914368808 -0.1729025692 0.6022045016 4292534508
-0.2915073931 -0.1722751409 0.6023501754 4292468715
-0.2915776670 -0.1716472507 0.6024953723 4292402922
-0.2916477323 -0.1710189134 0.6026401520 4292402922
-0.2912953794 -0.1701435447 0.6019120812 4292402922
-0.2913649082 -0.1695152223 0.6020557284 4292139750
-0.2914341688 -0.1688864380 0.6021988988 4292139750
-0.2919256985 -0.1685010642 0.6032145619 4292008419
-0.2919946313 -0.1678704768 0.6033569574 4291942626
-0.2920633554 -0.1672394574 0.6034989357 4291876833
-0.2921318114 -0.1666079760 0.6036404371 4291811040
-0.2922000587 -0.1659760624 0.6037814617 4291679454
-0.2922680974 -0.1653437018 0.6039220095 4291613661
-0.2919128239 -0.1644725204 0.6031879187 4291810011
-0.2919802964 -0.1638402045 0.6033273339 4291744218
-0.2920475304 -0.1632074416 0.6034662724 4291808728
-0.2916911840 -0.1623386294 0.6027299762 4291611349
-0.2917578816 -0.1617059112 0.6028677821 4291545558
-0.2918243408 -0.1610727608 0.6030050516 4291545558
-0.2918905616 -0.1604391783 0.6031419039 4291480274
-0.2915328145 -0.1595732272 0.6024026871 4291348688
-0.2915984690 -0.1589397043 0.6025384068 4291611601
-0.2908160388 -0.1578455716 0.6009216309 4291743187
-0.2904570401 -0.1569838673 0.6001797915 4290491061
-0.2896734774 -0.1558953226 0.5985606909 4287201411
-0.2880409062 -0.1543554068 0.5951872468 4285619551
-0.2859830260 -0.1525960714 0.5909349918 4285751137
-0.2834995687 -0.1506200731 0.5858033895 4286209375
-0.2810147703 -0.1486547589 0.5806689858 4285814617
-0.2789532244 -0.1469237804 0.5764091611 4286600022
-0.2777398825 -0.1456470788 0.5739019513 4286600022
-0.2765257657 -0.1443755329 0.5713931918 4286665815
-0.2757357359 -0.1433300078 0.5697607398 4286665815
-0.2749451101 -0.1422878057 0.5681270361 4286600022
-0.2745789587 -0.1414679289 0.5673704743 4286534229
-0.2737872601 -0.1404314488 0.5657345057 4286468436
-0.2734201849 -0.1396154463 0.5649760365 4286468436
-0.2730527222 -0.1388009191 0.5642167330 4286468691
-0.2726848423 -0.1379878819 0.5634565949 4286402898
-0.2723165751 -0.1371763200 0.5626956224 4286468179
-0.2723734677 -0.1365796626 0.5628131628 4286468179
-0.2720044851 -0.1357701570 0.5620507598 4286468179
-0.2716350853 -0.1349621415 0.5612874627 4286402386
-0.2712652981 -0.1341556311 0.5605233312 4286402385
-0.2713210285 -0.1335602850 0.5606384873 4286402385
-0.2709505260 -0.1327558458 0.5598729253 4286335822
-0.2710057497 -0.1321607083 0.5599870086 4286335822
-0.2706345320 -0.1313583404 0.5592199564 4286335822
-0.2702628970 -0.1305574924 0.5584520698 4286270029
-0.2707436383 -0.1301681399 0.5594453812 4286204236
-0.2703713775 -0.1293684393 0.5586762428 4286270029
-0.2704252899 -0.1287733763 0.5587875843 4286335822
-0.2700523436 -0.1279757917 0.5580169559 4286467408
-0.2701056898 -0.1273809522 0.5581272244 4286664787
-0.2697320282 -0.1265854836 0.5573551059 4286730580
-0.2697848678 -0.1259908825 0.5574643016 4286664788
-0.2694104910 -0.1251975298 0.5566906929 4286467409
-0.2694627941 -0.1246031895 0.5567987561 4286467409
-0.2695148289 -0.1240084916 0.5569063425 4286533202
-0.2691394687 -0.1232178733 0.5561306477 4286467409
-0.2691909671 -0.1226234436 0.5562371016 4286401616
-0.2692422569 -0.1220286638 0.5563430786 4286006857
-0.2692933083 -0.1214335486 0.5564485788 4286467408
-0.2697716653 -0.1210299060 0.5574370027 4286664787
-0.2698223293 -0.1204331666 0.5575417280 4286270029
-0.2698727846 -0.1198360994 0.5576459169 4285875014
-0.2699230015 -0.1192386970 0.5577496886 4286006600
-0.2699729800 -0.1186409593 0.5578529835 4286401358
-0.2700227201 -0.1180428863 0.5579557419 4286730323
-0.2700722218 -0.1174444929 0.5580580235 4286927447
-0.2701214850 -0.1168457642 0.5581598878 4286795861
-0.2697423697 -0.1160624847 0.5573765039 4286730068
-0.2702193558 -0.1156473309 0.5583620667 4286730068
-0.2702679336 -0.1150476262 0.5584624410 4286729555
-0.2703162730 -0.1144476011 0.5585623384 4286795348
-0.2703643739 -0.1138472557 0.5586616993 4286861141
-0.2704122365 -0.1132465899 0.5587606430 4286795348
-0.2704598606 -0.1126456037 0.5588590503 4286861396
-0.2705072463 -0.1120442972 0.5589569807 4286927189
-0.2705544233 -0.1114426851 0.5590544343 4286861396
-0.2706013322 -0.1108407527 0.5591513515 4286927189
-0.2706480026 -0.1102385074 0.5592477918 4286927189
-0.2706944644 -0.1096359491 0.5593438148 4286861396
-0.2707406580 -0.1090330854 0.5594392419 4286598224
-0.2712157667 -0.1086017564 0.5604209900 4287256154
-0.2712615430 -0.1079973206 0.5605155826 4286926934
-0.2708778381 -0.1072226539 0.5597227216 4286597969
-0.2709230781 -0.1066185683 0.5598161817 4286992727
-0.2709680796 -0.1060141772 0.5599091649 4287453278
-0.2714423239 -0.1055765450 0.5608891845 4287058520
-0.2714869380 -0.1049705967 0.5609812737 4286663762
-0.2715312839 -0.1043643504 0.5610729456 4286795348
-0.2711456716 -0.1035936400 0.5602761507 4286926934
-0.2711894810 -0.1029877588 0.5603666306 4286730070
-0.2712330222 -0.1023815945 0.5604566336 4286466898
-0.2717062533 -0.1019364297 0.5614345074 4286466383
-0.2717493773 -0.1013287157 0.5615236163 4286992727
-0.2722223103 -0.1008800864 0.5625008345 4287124313
-0.2722650170 -0.1002708375 0.5625891089 4287519071
-0.2723074853 -0.0996612981 0.5626768470 4287913831
-0.2727799714 -0.0992079601 0.5636531711 4288111210
-0.2732523382 -0.0987524092 0.5646291971 4287980137
-0.2737245560 -0.0982946530 0.5656049848 4288045930
-0.2737662494 -0.0976810902 0.5656911135 4287586406
-0.2742381990 -0.0972198769 0.5666663051 4287717992
-0.2747100294 -0.0967564508 0.5676412582 4288048240
-0.2751817107 -0.0962908193 0.5686159730 4288377205
-0.2760840058 -0.0959727019 0.5704804063 4288641147
-0.2765555382 -0.0955016837 0.5714547038 4289101698
-0.2770269215 -0.0950284600 0.5724287629 4288447107
-0.2779290974 -0.0946998522 0.5742928982 4288710279
-0.2788312435 -0.0943670943 0.5761570930 4288974993
-0.2797333896 -0.0940301940 0.5780212283 4290093474
-0.2810666263 -0.0938330665 0.5807760954 4292069834
-0.2888380289 -0.1790660620 0.5982072949 4292995059
-0.2889105380 -0.1784462035 0.5983574390 4292929266
-0.2894028723 -0.1780843437 0.5993771553 4292929266
-0.2894750834 -0.1774626523 0.5995266438 4292863473
-0.2895470560 -0.1768404841 0.5996757150 4292731889
-0.2896187901 -0.1762178689 0.5998243093 4292731889
-0.2896903455 -0.1755947769 0.5999724865 4292731889
-0.2897616625 -0.1749712378 0.6001201868 4292600303
-0.2902534306 -0.1746002734 0.6011386514 4292600301
-0.2903244197 -0.1739749014 0.6012856960 4292534508
-0.2903951705 -0.1733490825 0.6014322639 4292599787
-0.2904657125 -0.1727227867 0.6015783548 4292533994
-0.2901149690 -0.1718466282 0.6008519530 4292468201
-0.2901849747 -0.1712203473 0.6009969115 4292336615
-0.2902547419 -0.1705936044 0.6011413932 4292270822
-0.2899029255 -0.1697197258 0.6004127860 4292270822
-0.2899721563 -0.1690929979 0.6005561352 4292139236
-0.2904627323 -0.1687106788 0.6015722156 4292073443
-0.2905316353 -0.1680821478 0.6017148495 4292007649
-0.2906002998 -0.1674531698 0.6018570662 4291876063
-0.2906687260 -0.1668237299 0.6019988060 4291810270
-0.2907369435 -0.1661938578 0.6021400690 4291678684
-0.2908049226 -0.1655635387 0.6022808552 4291678171
-0.2908726633 -0.1649327874 0.6024211645 4291678171
-0.2905179262 -0.1640631258 0.6016864777 4291742935
-0.2905851305 -0.1634324044 0.6018256545 4291677142
-0.2906520963 -0.1628012508 0.6019643545 4291610838
-0.2902962863 -0.1619339436 0.6012274623 4291610838
-0.2903627157 -0.1613028347 0.6013650298 4291413459
-0.2904289067 -0.1606712937 0.6015021205 4291347666
-0.2904948592 -0.1600393206 0.6016387343 4291414483
-0.2905606031 -0.1594069153 0.6017748713 4291282897
-0.2902030647 -0.1585429758 0.6010343432 4291546321
-0.2902682424 -0.1579106301 0.6011693478 4291612114
-0.2899099588 -0.1570485979 0.6004273295 4291478985
-0.2891279161 -0.1559596509 0.5988076925 4288781472
-0.2879218757 -0.1546465456 0.5963098407 4286278767
-0.2858680189 -0.1528855860 0.5920561552 4285291872
-0.2842366099 -0.1513590068 0.5886773467 4285553498
-0.2817568183 -0.1493901461 0.5835415125 4285487705
-0.2801232636 -0.1478794217 0.5801582932 4286403413
-0.2784887552 -0.1463757157 0.5767730474 4286337620
-0.2772772312 -0.1451008916 0.5742639303 4286534231
-0.2760649621 -0.1438312382 0.5717532039 4286600024
-0.2752760649 -0.1427867711 0.5701193213 4286534229
-0.2744865716 -0.1417456269 0.5684841871 4286468436
-0.2741208375 -0.1409259737 0.5677267313 4286468436
-0.2737546861 -0.1401077956 0.5669684410 4286468436
-0.2733881176 -0.1392910928 0.5662092566 4286468691
-0.2725965679 -0.1382605135 0.5645698905 4286468691
-0.2722291350 -0.1374477148 0.5638088584 4286533972
-0.2722860575 -0.1368498951 0.5639267564 4286533972
-0.2719178796 -0.1360391527 0.5631642938 4286533972
-0.2715493441 -0.1352298856 0.5624009371 4286533972
-0.2711803615 -0.1344221383 0.5616368055 4286533971
-0.2708109915 -0.1336158663 0.5608718395 4286468178
-0.2708664536 -0.1330199391 0.5609866977 4286533971
-0.2704963982 -0.1322157532 0.5602202415 4286468178
-0.2705512941 -0.1316200197 0.5603339672 4286533201
-0.2701805234 -0.1308179200 0.5595660210 4286335822
-0.2702349126 -0.1302224100 0.5596786737 4286270029
-0.2702890635 -0.1296265423 0.5597908497 4286335822
-0.2699172497 -0.1288271248 0.5590208173 4286270029
-0.2699708641 -0.1282314807 0.5591318607 4286533201
-0.2695983648 -0.1274341643 0.5583603382 4286598995
-0.2696514428 -0.1268387437 0.5584702492 4286730581
-0.2692782283 -0.1260435432 0.5576972961 4286730068
-0.2693307400 -0.1254483759 0.5578060746 4286532689
-0.2689568400 -0.1246553063 0.5570316911 4286532689
-0.2690088153 -0.1240603924 0.5571393371 4286598482
-0.2690606117 -0.1234651208 0.5572465658 4286467409
-0.2691121399 -0.1228695139 0.5573533177 4286335823
-0.2691634595 -0.1222735643 0.5574595928 4286335565
-0.2692145407 -0.1216772795 0.5575653911 4286467151
-0.2692653835 -0.1210806444 0.5576707125 4286532944
-0.2693160176 -0.1204836816 0.5577755570 4286335565
-0.2693663836 -0.1198863760 0.5578799248 4286072393
-0.2694165409 -0.1192887425 0.5579838157 4286138186
-0.2694664896 -0.1186907738 0.5580871701 4286467151
-0.2695161700 -0.1180924699 0.5581901073 4286861909
-0.2695656419 -0.1174938381 0.5582925677 4286861396
-0.2696148455 -0.1168948784 0.5583944917 4286729810
-0.2696638405 -0.1162955910 0.5584959388 4286729555
-0.2697125971 -0.1156959757 0.5585969687 4286729555
-0.2697611153 -0.1150960401 0.5586974621 4286729555
-0.2698094249 -0.1144957766 0.5587974787 4286795348
-0.2698574662 -0.1138951927 0.5588969588 4286795348
-0.2699052989 -0.1132942960 0.5589960217 4286795348
-0.2699528635 -0.1126930714 0.5590945482 4286927189
-0.2700002193 -0.1120915338 0.5591925979 4287058775
-0.2700473070 -0.1114896759 0.5592901707 4286861396
-0.2700941861 -0.1108875126 0.5593872666 4287058775
-0.2701408267 -0.1102850288 0.5594838262 4286927189
-0.2706153989 -0.1098560542 0.5604667068 4286664017
-0.2706616223 -0.1092519984 0.5605624914 4286335052
-0.2707076371 -0.1086476296 0.5606577396 4286861396
-0.2707533836 -0.1080429554 0.5607524514 4286926934
-0.2707988918 -0.1074379757 0.5608467460 4286532176
-0.2712727189 -0.1070017293 0.5618280172 4286927447
-0.2713178098 -0.1063951850 0.5619214773 4287453791
-0.2709339559 -0.1056212187 0.5611264706 4287059033
-0.2709785104 -0.1050150245 0.5612187386 4286927447
-0.2710228264 -0.1044085398 0.5613105297 4287190619
-0.2710668743 -0.1038017571 0.5614017844 4287256412
-0.2711107135 -0.1031946763 0.5614925027 4287059035
-0.2711542845 -0.1025873050 0.5615827441 4287059035
-0.2711976171 -0.1019796431 0.5616725087 4286992727
-0.2716698647 -0.1015320867 0.5626506209 4287190106
-0.2717127800 -0.1009228826 0.5627394915 4287255385
-0.2721847594 -0.1004718617 0.5637170076 4287650143
-0.2722272575 -0.0998611152 0.5638049841 4287913831
-0.2726989388 -0.0994066298 0.5647819042 4288045417
-0.2727410197 -0.0987943560 0.5648690462 4287849064
-0.2732124031 -0.0983364135 0.5658453107 4287980650
-0.2736836970 -0.0978762582 0.5668213964 4287849578
-0.2741548419 -0.0974138975 0.5677971840 4287981164
-0.2750556469 -0.0971010402 0.5696628690 4288180083
-0.2755266428 -0.0966332927 0.5706382990 4288509048
-0.2759975195 -0.0961633325 0.5716134906 4288510333
-0.2764682472 -0.0956911594 0.5725884438 4288970884
-0.2769388556 -0.0952167735 0.5735630989 4288448390
-0.2778394222 -0.0948870704 0.5754282475 4288777355
-0.2791701555 -0.0946991295 0.5781843066 4289304471
-0.2800707817 -0.0943601578 0.5800495744 4291541433
-0.2877260447 -0.1801151931 0.5972781777 4292929266
-0.2873798907 -0.1792356819 0.5965595841 4292929266
-0.2874523401 -0.1786178648 0.5967099667 4292863475
-0.2875245512 -0.1779996008 0.5968599319 4292797682
-0.2875965834 -0.1773808599 0.5970094204 4292928498
-0.2880877256 -0.1770193279 0.5980289578 4292928498
-0.2881594002 -0.1763987541 0.5981777906 4292731119
-0.2882308662 -0.1757777333 0.5983261466 4292731119
-0.2883021235 -0.1751562357 0.5984740257 4292731119
-0.2883731723 -0.1745342761 0.5986214876 4292665326
-0.2888638377 -0.1741650105 0.5996400714 4292599787
-0.2889345586 -0.1735412329 0.5997868776 4292533994
-0.2890050411 -0.1729170084 0.5999331474 4292468201
-0.2890752852 -0.1722923070 0.6000790000 4292336615
-0.2887250781 -0.1714176536 0.5993520021 4292205029
-0.2887947857 -0.1707929671 0.5994967222 4292007650
-0.2888642848 -0.1701678187 0.5996410251 4292007136
-0.2889335752 -0.1695422232 0.5997847915 4292007136
-0.2890026271 -0.1689161807 0.5999281406 4291941343
-0.2894922197 -0.1685346514 0.6009445190 4291875550
-0.2891400754 -0.1676627547 0.6002134681 4291875550
-0.2892084420 -0.1670353711 0.6003554463 4291743964
-0.2892766297 -0.1664075404 0.6004969478 4291612378
-0.2893445492 -0.1657792777 0.6006379724 4291480792
-0.2894122601 -0.1651505679 0.6007785201 4291546071
-0.2894797623 -0.1645214111 0.6009185910 4291546071
-0.2891255319 -0.1636532545 0.6001833081 4291676885
-0.2891924679 -0.1630241424 0.6003223062 4291611092
-0.2892591953 -0.1623945981 0.6004607677 4291544531
-0.2893256545 -0.1617646068 0.6005987525 4291676117
-0.2889700532 -0.1608992964 0.5998606086 4291347666
-0.2890360057 -0.1602693647 0.5999974608 4291150287
-0.2891016901 -0.1596390009 0.6001338363 4291282897
-0.2891671658 -0.1590082198 0.6002697349 4291217104
-0.2892324030 -0.1583769917 0.6004051566 4291481042
-0.2892974019 -0.1577453464 0.6005401015 4291415249
-0.2889397740 -0.1568839103 0.5997976661 4291874515
-0.2885816991 -0.1560239047 0.5990543962 4290953413
-0.2878005803 -0.1549378037 0.5974329114 4288516499
-0.2861734629 -0.1534018070 0.5940552354 4285490021
-0.2845453620 -0.1518727839 0.5906755328 4285291098
-0.2824934125 -0.1501260251 0.5864159465 4285356891
-0.2808632553 -0.1486119181 0.5830320120 4286403926
-0.2792321444 -0.1471048295 0.5796460509 4286206547
-0.2780232728 -0.1458267272 0.5771365762 4286206036
-0.2763903141 -0.1443327665 0.5737468600 4286206036
-0.2756031454 -0.1432860345 0.5721127391 4286206036
-0.2748153806 -0.1422426254 0.5704774857 4286271829
-0.2740270197 -0.1412025541 0.5688409805 4286469206
-0.2736617029 -0.1403831393 0.5680826306 4286469206
-0.2732959688 -0.1395651847 0.5673234463 4286337619
-0.2729298472 -0.1387487203 0.5665634274 4286403412
-0.2721394300 -0.1377192289 0.5649225712 4286665558
-0.2717724144 -0.1369066685 0.5641607046 4286665558
-0.2718290687 -0.1363082528 0.5642783046 4286665558
-0.2714613378 -0.1354977489 0.5635149479 4286665558
-0.2710931897 -0.1346887499 0.5627507567 4286600277
-0.2707246542 -0.1338812411 0.5619857311 4286468691
-0.2707801461 -0.1332841516 0.5621009469 4286468691
-0.2704108953 -0.1324787140 0.5613344312 4286337105
-0.2704658508 -0.1318818182 0.5614485145 4286402385
-0.2700959146 -0.1310784668 0.5606805086 4286270799
-0.2701503038 -0.1304817945 0.5607934594 4286402385
-0.2702044845 -0.1298847646 0.5609059334 4286402385
-0.2698335350 -0.1290840805 0.5601358414 4286139213
-0.2698871791 -0.1284872741 0.5602471828 4286468178
-0.2695154846 -0.1276887059 0.5594756603 4286467409
-0.2691434026 -0.1268916577 0.5587032437 4286664788
-0.2691962123 -0.1262956709 0.5588128567 4286730068
-0.2692487538 -0.1256993413 0.5589219928 4286532689
-0.2693011165 -0.1251026541 0.5590306520 4286532689
-0.2693532109 -0.1245056093 0.5591387749 4286598482
-0.2689794898 -0.1237124801 0.5583630204 4286532689
-0.2690310776 -0.1231157035 0.5584700704 4286401103
-0.2690823972 -0.1225185767 0.5585766435 4286467151
-0.2691335082 -0.1219211072 0.5586827397 4286269772
-0.2696103156 -0.1215152740 0.5596725345 4286269772
-0.2696610391 -0.1209161803 0.5597777963 4286467151
-0.2697115541 -0.1203167588 0.5598826408 4286532944
-0.2693356276 -0.1195278689 0.5591022968 4286401358
-0.2693856061 -0.1189287156 0.5592060089 4286532944
-0.2694353163 -0.1183292344 0.5593092442 4286861909
-0.2694847882 -0.1177294180 0.5594119430 4286861396
-0.2695340514 -0.1171292737 0.5595141649 4286729810
-0.2695830762 -0.1165288016 0.5596159697 4286729810
-0.2692052126 -0.1157445759 0.5588315725 4286729810
-0.2692537010 -0.1151444018 0.5589321852 4286664017
-0.2693019211 -0.1145439073 0.5590323210 4286729810
-0.2693499327 -0.1139430925 0.5591319799 4286861396
-0.2693977058 -0.1133419499 0.5592311621 4286861396
-0.2698722482 -0.1129191592 0.5602162480 4286861396
-0.2699196041 -0.1123164296 0.5603145957 4287190361
-0.2699667513 -0.1117133871 0.5604124069 4286861909
-0.2700136602 -0.1111100242 0.5605097413 4286861909
-0.2700603008 -0.1105063483 0.5606065989 4286861909
-0.2701067328 -0.1099023670 0.5607029796 4286861909
-0.2701528966 -0.1092980653 0.5607988238 4286861396
-0.2701988518 -0.1086934581 0.5608941913 4287124568
-0.2706721425 -0.1082595736 0.5618767142 4287256412
-0.2707176805 -0.1076533943 0.5619712472 4286795861
-0.2707629800 -0.1070469096 0.5620652437 4286993753
-0.2708080411 -0.1064401269 0.5621588230 4287454304
-0.2708528340 -0.1058330387 0.5622518063 4287256925
-0.2708974183 -0.1052256450 0.5623443127 4287256925
-0.2709417343 -0.1046179608 0.5624363422 4287453791
-0.2709858418 -0.1040099710 0.5625278950 4287256412
-0.2710296810 -0.1034016907 0.5626189113 4287125341
-0.2710732818 -0.1027931124 0.5627093911 4287388513
-0.2711166143 -0.1021842435 0.5627993941 4287387998
-0.2715881169 -0.1017355472 0.5637781024 4287519584
-0.2716310620 -0.1011251360 0.5638672709 4287387485
-0.2721022367 -0.1006729752 0.5648453832 4287716450
-0.2721447647 -0.1000610217 0.5649336576 4287914344
-0.2726156712 -0.0996053964 0.5659111738 4288177516
-0.2730864584 -0.0991475582 0.5668884516 4287849578
-0.2731283605 -0.0985328183 0.5669754744 4288112750
-0.2735988498 -0.0980715156 0.5679521561 4288114033
-0.2740692198 -0.0976080000 0.5689285994 4288179826
-0.2749684453 -0.0972940624 0.5707952380 4288377975
-0.2754386663 -0.0968251601 0.5717713237 4288575354
-0.2759087384 -0.0963540375 0.5727471113 4288379004
-0.2768078446 -0.0960295945 0.5746135712 4288839555
-0.2772777379 -0.0955530852 0.5755890012 4288646028
-0.2781767845 -0.0952213183 0.5774552822 4289106579
-0.2790758312 -0.0948853940 0.5793215632 4290094502
-0.2804042697 -0.0946903303 0.5820791721 4293252566
-0.2863426805 -0.1796634346 0.5957800746 4292929268
-0.2864151299 -0.1790467799 0.5959308743 4292863475
-0.2860691547 -0.1781691760 0.5952110291 4292797680
-0.2861410975 -0.1775524914 0.5953606963 4292731887
-0.2862128317 -0.1769353449 0.5955099463 4292666094
-0.2867028713 -0.1765755117 0.5965296030 4292666094
-0.2867742777 -0.1759565324 0.5966781378 4292600301
-0.2868454754 -0.1753370911 0.5968262553 4292534508
-0.2869164348 -0.1747171879 0.5969738960 4292402922
-0.2869871855 -0.1740968376 0.5971211195 4292271336
-0.2870577276 -0.1734760106 0.5972678661 4292337384
-0.2875472009 -0.1731070876 0.5982863307 4292271591
-0.2876174152 -0.1724844426 0.5984324217 4292205798
-0.2876873910 -0.1718613505 0.5985780358 4292140005
-0.2873376906 -0.1709881872 0.5978503823 4292074212
-0.2874071300 -0.1703650951 0.5979948640 4291942626
-0.2874763608 -0.1697415560 0.5981389284 4291876063
-0.2875453532 -0.1691175550 0.5982824564 4291744477
-0.2876141369 -0.1684931219 0.5984255672 4291743964
-0.2876826823 -0.1678682268 0.5985682011 4291743964
-0.2877510190 -0.1672428846 0.5987104177 4291743964
-0.2878191471 -0.1666171104 0.5988521576 4291678171
-0.2878870368 -0.1659908891 0.5989933610 4291480792
-0.2879546881 -0.1653642207 0.5991342068 4291480792
-0.2880221307 -0.1647371203 0.5992745161 4291546071
-0.2880893648 -0.1641095728 0.5994143486 4291348692
-0.2877356708 -0.1632429212 0.5986784697 4291413970
-0.2873815894 -0.1623776704 0.5979417562 4291545556
-0.2874479294 -0.1617506593 0.5980798006 4291414483
-0.2875140607 -0.1611232013 0.5982173681 4291348690
-0.2875799537 -0.1604953110 0.5983544588 4291480017
-0.2876456082 -0.1598669887 0.5984910727 4291414224
-0.2881322801 -0.1594713777 0.5995036960 4291347918
-0.2881975770 -0.1588412821 0.5996395350 4291413711
-0.2882626653 -0.1582107544 0.5997749567 4291610574
-0.2879059911 -0.1573494226 0.5990328193 4291478988
-0.2879704833 -0.1567189693 0.5991670489 4291413964
-0.2880347967 -0.1560880840 0.5993008018 4291545550
-0.2872552276 -0.1550015658 0.5976787806 4291215815
-0.2860531509 -0.1536916494 0.5951777101 4288123544
-0.2848502696 -0.1523868591 0.5926749110 4284899174
-0.2832245231 -0.1508623809 0.5892922878 4284899174
-0.2815977931 -0.1493449062 0.5859076381 4286011737
-0.2799701095 -0.1478344500 0.5825210214 4285945944
-0.2783414423 -0.1463309973 0.5791323185 4285812816
-0.2771342993 -0.1450557113 0.5766206980 4285549644
-0.2759263813 -0.1437855959 0.5741074085 4285877581
-0.2751403451 -0.1427399218 0.5724719167 4285943374
-0.2743537128 -0.1416975856 0.5708352327 4285943887
-0.2735664845 -0.1406585872 0.5691972971 4285943887
-0.2732015848 -0.1398393959 0.5684380531 4286207059
-0.2728362978 -0.1390216947 0.5676780343 4286207059
-0.2724705935 -0.1382054687 0.5669171214 4286338132
-0.2716813087 -0.1371770501 0.5652748942 4286338132
-0.2713147402 -0.1363647431 0.5645121336 4286665304
-0.2713710964 -0.1357657313 0.5646294355 4286731097
-0.2710037827 -0.1349554807 0.5638651848 4286992990
-0.2710596323 -0.1343566477 0.5639813542 4286992990
-0.2706916034 -0.1335484684 0.5632156730 4286599765
-0.2703231871 -0.1327417791 0.5624490976 4286533972
-0.2703781724 -0.1321437359 0.5625634789 4286402386
-0.2700090408 -0.1313391328 0.5617954731 4286336593
-0.2700634897 -0.1307412982 0.5619087219 4286402386
-0.2696936429 -0.1299387813 0.5611392260 4286402386
-0.2697475553 -0.1293411702 0.5612514019 4286533202
-0.2693769932 -0.1285407543 0.5604804158 4286533202
-0.2694303691 -0.1279433668 0.5605914593 4286401616
-0.2694835067 -0.1273456216 0.5607020259 4286598995
-0.2691119313 -0.1265479177 0.5599288940 4286598995
-0.2691645324 -0.1259503961 0.5600383282 4286335823
-0.2692168951 -0.1253525466 0.5601472855 4286533202
-0.2692690492 -0.1247543320 0.5602557659 4286335823
-0.2688961625 -0.1239599511 0.5594799519 4286466896
-0.2689477503 -0.1233619973 0.5595872998 4286466896
-0.2689990997 -0.1227636933 0.5596941710 4286466896
-0.2690502405 -0.1221650541 0.5598005652 4286269517
-0.2691011429 -0.1215660721 0.5599064827 4286335310
-0.2691518366 -0.1209667474 0.5600119233 4286532689
-0.2692022622 -0.1203670874 0.5601168871 4286532689
-0.2692524791 -0.1197670922 0.5602213144 4286466896
-0.2693024576 -0.1191667616 0.5603253245 4286598482
-0.2693521976 -0.1185661033 0.5604287982 4286730068
-0.2689761221 -0.1177787483 0.5596463084 4286795861
-0.2690253258 -0.1171783656 0.5597487092 4286795861
-0.2690742910 -0.1165776625 0.5598505735 4286926934
-0.2691230178 -0.1159766316 0.5599519610 4286926934
-0.2687456310 -0.1151927188 0.5591667295 4286926934
-0.2687938213 -0.1145919859 0.5592669845 4286992727
-0.2688417733 -0.1139909327 0.5593667626 4287058520
-0.2688894868 -0.1133895591 0.5594660640 4287124313
-0.2693631649 -0.1129666120 0.5604516268 4286992982
-0.2694104910 -0.1123636439 0.5605500937 4286927189
-0.2694575787 -0.1117603630 0.5606480241 4286992982
-0.2695044279 -0.1111567616 0.5607455373 4287124568
-0.2695510387 -0.1105528474 0.5608425140 4287058775
-0.2695974112 -0.1099486277 0.5609389544 4287124568
-0.2696435452 -0.1093440875 0.5610349774 4287321177
-0.2705428600 -0.1090833545 0.5629062057 4287255384
-0.2705886662 -0.1084762886 0.5630014539 4287321177
-0.2706342340 -0.1078689098 0.5630962849 4287386970
-0.2702526152 -0.1070920452 0.5623022318 4287321947
-0.2702976167 -0.1064850166 0.5623958707 4287321947
-0.2703423798 -0.1058776900 0.5624890327 4287453533
-0.2708140612 -0.1054363623 0.5634704232 4287585119
-0.2708584070 -0.1048274711 0.5635626912 4287650142
-0.2709025145 -0.1042182818 0.5636544824 4287650142
-0.2709463835 -0.1036087945 0.5637457371 4287322458
-0.2709900141 -0.1029990092 0.5638365149 4287585630
-0.2710333765 -0.1023889408 0.5639267564 4287783011
-0.2715040743 -0.1019391045 0.5649061203 4287717218
-0.2715470493 -0.1013274863 0.5649955273 4287782243
-0.2720174491 -0.1008741781 0.5659742951 4288045415
-0.2720600069 -0.1002610177 0.5660628080 4288243309
-0.2725301087 -0.0998042449 0.5670409799 4288309102
-0.2730001211 -0.0993452594 0.5680188537 4288046959
-0.2734700143 -0.0988840610 0.5689965487 4288178545
-0.2739397883 -0.0984206423 0.5699740052 4287982195
-0.2744094431 -0.0979550108 0.5709512234 4288376953
-0.2748789787 -0.0974871665 0.5719281435 4288181115
-0.2753483951 -0.0970171094 0.5729048252 4288246908
-0.2758176923 -0.0965448394 0.5738812685 4288312960
-0.2767152190 -0.0962193012 0.5757486820 4288773511
-0.2776127160 -0.0958896130 0.5776160955 4289105815
-0.2785102427 -0.0955557674 0.5794835091 4289500573
-0.2794077396 -0.0952177793 0.5813509226 4291872201
-0.2848168314 -0.1804398894 0.5939779878 4292929268
-0.2848894298 -0.1798257530 0.5941293836 4292929268
-0.2849618196 -0.1792111695 0.5942803621 4292863475
-0.2850340009 -0.1785960943 0.5944308639 4292731889
-0.2851059437 -0.1779805720 0.5945809484 4292666094
-0.2851777077 -0.1773645729 0.5947306156 4292600301
-0.2852492630 -0.1767481118 0.5948798060 4292600301
-0.2853205800 -0.1761311889 0.5950285196 4292534508
-0.2853916883 -0.1755138040 0.5951768756 4292534508
-0.2854625881 -0.1748959571 0.5953246951 4292402922
-0.2855332792 -0.1742776632 0.5954720974 4292271336
-0.2856037319 -0.1736588925 0.5956190825 4292205543
-0.2860922515 -0.1732930243 0.5966378450 4292401894
-0.2861624062 -0.1726724356 0.5967841148 4292270308
-0.2862323225 -0.1720513999 0.5969299674 4292139235
-0.2863020301 -0.1714299023 0.5970753431 4292073442
-0.2859528363 -0.1705582291 0.5963470936 4291941856
-0.2860220075 -0.1699367464 0.5964913368 4291876063
-0.2860909402 -0.1693148017 0.5966351032 4291809757
-0.2865786552 -0.1689393967 0.5976521969 4291612378
-0.2862281799 -0.1680695713 0.5969213247 4291809243
-0.2862964571 -0.1674462855 0.5970637202 4291743450
-0.2867837846 -0.1670668125 0.5980800390 4291546585
-0.2868517339 -0.1664417237 0.5982217193 4291414999
-0.2869194448 -0.1658161879 0.5983629227 4291414485
-0.2865673602 -0.1649487019 0.5976287127 4291414485
-0.2866345346 -0.1643232107 0.5977687836 4291414483
-0.2867015004 -0.1636972576 0.5979083776 4291348690
-0.2863483429 -0.1628321260 0.5971719623 4291282897
-0.2864147425 -0.1622062325 0.5973104239 4291282897
-0.2864809334 -0.1615799069 0.5974484086 4291217104
-0.2865468860 -0.1609531343 0.5975859761 4291217104
-0.2866126001 -0.1603259444 0.5977230072 4291217104
