VERSION 0.7
FIELDS x y z rgba
SIZE 4 4 4 4
TYPE F F F U
COUNT 1 1 1 1
WIDTH 920
HEIGHT 1
VIEWPOINT 0.0 0.0 0.0 1.0 0.0 0.0 0.0
POINTS 920
DATA ascii
-0.2896919847 -0.1218914837 0.5529168248 4288899182
-0.2897454798 -0.1212995499 0.5530189872 4288966003
-0.2902544141 -0.1208970845 0.5539903045 4289426554
-0.2903075218 -0.1203035712 0.5540916920 4289754487
-0.2908162177 -0.1198976561 0.5550625920 4290017659
-0.2908689380 -0.1193025634 0.5551632047 4290215810
-0.2913773954 -0.1188932061 0.5561336279 4289689466
-0.2914296985 -0.1182965338 0.5562334657 4288770163
-0.2919378877 -0.1178837344 0.5572034717 4288835956
-0.2924460173 -0.1174687445 0.5581732988 4288702830
-0.2929540575 -0.1170515642 0.5591429472 4289031795
-0.2930056155 -0.1164508089 0.5592413545 4289898152
-0.3434550166 -0.2119697183 0.6569235325 4287993247
-0.3430987000 -0.2110206932 0.6562420130 4284108888
-0.3427419066 -0.2100728750 0.6555595994 4283648337
-0.3423846662 -0.2091262937 0.6548762918 4284040519
-0.3420269489 -0.2081809491 0.6541920900 4283908933
-0.3416687548 -0.2072368413 0.6535069346 4284892745
-0.3404178023 -0.2057546377 0.6511142254 4285353296
-0.3387196362 -0.2040084153 0.6478661895 4286008914
-0.3361275494 -0.2017329037 0.6429083347 4286008914
-0.3295153677 -0.1970642358 0.6302613020 4286205264
-0.2956563234 -0.1761867702 0.5654993653 4286139471
-0.2934972942 -0.1742764413 0.5613698363 4286204237
-0.2917837501 -0.1726388782 0.5580923557 4286006858
-0.2900691032 -0.1710079312 0.5548127294 4285876299
-0.2896945477 -0.1701714694 0.5540963411 4285942092
-0.2888723910 -0.1690746248 0.5525237918 4286270800
-0.2880495489 -0.1679808944 0.5509499907 4286468179
-0.2872260809 -0.1668902785 0.5493749380 4286468179
-0.2859544754 -0.1655437201 0.5469427109 4286402386
-0.2851295769 -0.1644602418 0.5453649759 4286205007
-0.2847517729 -0.1636371911 0.5446423292 4285941835
-0.2839257419 -0.1625591069 0.5430623293 4286335822
-0.2835469544 -0.1617396772 0.5423378944 4286862166
-0.2831677794 -0.1609216034 0.5416126251 4287125081
-0.2827881575 -0.1601049155 0.5408865809 4287059288
-0.2828564048 -0.1595424414 0.5410170555 4287059286
-0.2824760675 -0.1587276012 0.5402895808 4287125079
-0.2820952833 -0.1579141468 0.5395612717 4286796116
-0.2817140818 -0.1571020782 0.5388321877 4285940807
-0.2817811668 -0.1565406621 0.5389604568 4286005318
-0.2813992500 -0.1557304710 0.5382299423 4284360493
-0.2814657986 -0.1551691592 0.5383572578 4283638310
-0.2815321386 -0.1546074450 0.5384841561 4283506724
-0.2811491489 -0.1537996382 0.5377516150 4283573544
-0.2812149823 -0.1532380283 0.5378775597 4284297267
-0.2812806070 -0.1526760161 0.5380030274 4284954423
-0.2813459933 -0.1521136165 0.5381281376 4285217595
-0.2814112008 -0.1515508294 0.5382528305 4285676350
-0.2814761698 -0.1509876400 0.5383771062 4285742143
-0.2815409303 -0.1504240781 0.5385009646 4285872700
-0.2816054821 -0.1498601139 0.5386244655 4285938493
-0.2816698253 -0.1492957622 0.5387474895 4286201408
-0.2812839150 -0.1484934390 0.5380093455 4286398787
-0.2813477218 -0.1479292363 0.5381314158 4286530371
-0.2814113200 -0.1473646313 0.5382530689 4286727750
-0.2819250524 -0.1470345259 0.5392356515 4286332994
-0.2819883227 -0.1464682668 0.5393567085 4286530373
-0.2820513844 -0.1459016204 0.5394772887 4286530373
-0.2825648785 -0.1455667466 0.5404594541 4286464580
-0.2826275826 -0.1449984312 0.5405794382 4286727752
-0.2826900780 -0.1444297433 0.5406989455 4286596166
-0.2827523649 -0.1438606828 0.5408180952 4286332994
-0.2828144431 -0.1432912350 0.5409367681 4286267201
-0.2828762829 -0.1427214295 0.5410550833 4286201408
-0.2829379141 -0.1421512365 0.5411729813 4286069822
-0.2829993069 -0.1415806711 0.5412904024 4286201408
-0.2830604911 -0.1410097331 0.5414074063 4286464580
-0.2831214666 -0.1404384375 0.5415240526 4286661959
-0.2831822038 -0.1398667693 0.5416402221 4286661959
-0.2836944759 -0.1395168900 0.5426200032 4286530373
-0.2837548554 -0.1389435679 0.5427355170 4286267201
-0.2838150263 -0.1383698881 0.5428506136 4286398785
-0.2838749886 -0.1377958506 0.5429652929 4286267199
-0.2839347124 -0.1372214407 0.5430794954 4286267199
-0.2839941978 -0.1366466582 0.5431933403 4286464578
-0.2840534747 -0.1360715330 0.5433067083 4286727750
-0.2841125131 -0.1354960352 0.5434196591 4286793543
-0.2841713428 -0.1349201798 0.5435321331 4286727750
-0.2842299342 -0.1343439817 0.5436441898 4286727750
-0.2842883170 -0.1337674111 0.5437558889 4286727750
-0.2847992182 -0.1334025860 0.5447331071 4286859336
-0.2848572433 -0.1328243911 0.5448440313 4287187788
-0.2849150300 -0.1322458535 0.5449545383 4287319374
-0.2849725783 -0.1316669583 0.5450646281 4287385422
-0.2850298882 -0.1310877204 0.5451742411 4287451215
-0.2850869596 -0.1305081248 0.5452834368 4287517008
-0.2851438224 -0.1299281865 0.5453922153 4287451215
-0.2856538892 -0.1295535415 0.5463677645 4287648341
-0.2857103646 -0.1289719790 0.5464758277 4287779927
-0.2857666314 -0.1283900738 0.5465834141 4287845720
-0.2858226299 -0.1278078407 0.5466905832 4287911513
-0.2858784199 -0.1272252500 0.5467972755 4288043358
-0.2859340012 -0.1266423315 0.5469035506 4288043358
-0.2864432633 -0.1262591630 0.5478776097 4288109151
-0.2864984274 -0.1256746352 0.5479831696 4288438116
-0.2865533829 -0.1250897646 0.5480882525 4288438116
-0.2870622873 -0.1247018799 0.5490616560 4288503909
-0.2875711620 -0.1243117973 0.5500349402 4288307043
-0.2876255512 -0.1237240732 0.5501389503 4288372836
-0.2881341875 -0.1233305410 0.5511118174 4288438631
-0.2886427641 -0.1229348183 0.5520845652 4288504424
-0.2886966169 -0.1223442405 0.5521876216 4288701803
-0.2892049551 -0.1219450682 0.5531598926 4288833389
-0.2892584205 -0.1213528961 0.5532621741 4288833904
-0.2897665501 -0.1209502742 0.5542340279 4289097076
-0.2898196280 -0.1203565225 0.5543355346 4289426292
-0.2898724377 -0.1197624356 0.5544365644 4289689464
-0.2903801799 -0.1193551123 0.5554077029 4289821052
-0.2904326022 -0.1187594458 0.5555079579 4289689466
-0.2909400761 -0.1183486730 0.5564786196 4289033078
-0.2909920812 -0.1177514344 0.5565780997 4288769906
-0.2919547856 -0.1175205559 0.5584194660 4288834157
-0.2920064926 -0.1169208065 0.5585183501 4289360501
-0.2925135493 -0.1165022105 0.5594882369 4289501338
-0.3414465785 -0.2119059861 0.6544723511 4290822087
-0.3410909772 -0.2109588683 0.6537907124 4285032303
-0.3407348692 -0.2100129873 0.6531081796 4284240215
-0.3403783143 -0.2090683281 0.6524247527 4283582285
-0.3400212824 -0.2081248909 0.6517403722 4283776834
-0.3396638036 -0.2071827054 0.6510551572 4284105799
-0.3388605416 -0.2059711069 0.6495155096 4285090124
-0.3376112282 -0.2044927180 0.6471208334 4285484882
-0.3350244164 -0.2022123933 0.6421625614 4286074961
-0.3297622800 -0.1983340085 0.6320763230 4286140754
-0.2973071635 -0.1781808734 0.5698675513 4286336593
-0.2938156724 -0.1754626185 0.5631751418 4286205007
-0.2916600108 -0.1735541672 0.5590432882 4286138444
-0.2903952003 -0.1721830815 0.5566189289 4285875272
-0.2895756960 -0.1710804701 0.5550481081 4285613129
-0.2887555063 -0.1699809730 0.5534760356 4285678922
-0.2879346907 -0.1688845754 0.5519027114 4285941835
-0.2871132195 -0.1677913070 0.5503281355 4286205007
-0.2862910926 -0.1667011380 0.5487523675 4286402386
-0.2854683399 -0.1656141132 0.5471752882 4286468179
-0.2837512195 -0.1640136391 0.5438839793 4286205007
-0.2842678130 -0.1637068540 0.5448741913 4285744456
-0.2834432125 -0.1626283377 0.5432936549 4285941064
-0.2830651700 -0.1618085802 0.5425689816 4286796373
-0.2817921042 -0.1604807377 0.5401288271 4287256667
-0.2827551663 -0.1604270339 0.5419747829 4287322460
-0.2819284499 -0.1593575627 0.5403901339 4287190872
-0.2819963098 -0.1587953717 0.5405202508 4287125079
-0.2816162407 -0.1579816043 0.5397917032 4286730321
-0.2812357545 -0.1571692079 0.5390624404 4285677633
-0.2813027799 -0.1566075981 0.5391908884 4286005832
-0.2804735005 -0.1555486023 0.5376013517 4284624179
-0.2809880376 -0.1552355587 0.5385876298 4283639080
-0.2806060910 -0.1544269472 0.5378555059 4283441701
-0.2806720734 -0.1538655162 0.5379819870 4283311142
-0.2807378173 -0.1533036977 0.5381080508 4284166451
-0.2803548276 -0.1524974853 0.5373739004 4284757560
-0.2804200649 -0.1519357711 0.5374989510 4284889146
-0.2804850936 -0.1513736695 0.5376235843 4285413948
-0.2805499136 -0.1508111656 0.5377478600 4285545534
-0.2806145251 -0.1502482891 0.5378716588 4285938493
-0.2806789279 -0.1496850103 0.5379951000 4286135872
-0.2807430923 -0.1491213590 0.5381181240 4286398787
-0.2808070779 -0.1485573202 0.5382407308 4286530373
-0.2808708251 -0.1479928792 0.5383629799 4286530371
-0.2809343636 -0.1474280655 0.5384847522 4286464578
-0.2814472914 -0.1470978558 0.5394679308 4286332994
-0.2815105319 -0.1465313733 0.5395891070 4286530373
-0.2815735042 -0.1459645033 0.5397098660 4286464580
-0.2816362977 -0.1453972608 0.5398302078 4286464580
-0.2816988826 -0.1448296458 0.5399501324 4286661959
-0.2817612290 -0.1442616433 0.5400696397 4286596166
-0.2818233371 -0.1436932683 0.5401887298 4286332994
-0.2818852663 -0.1431245059 0.5403074026 4286201408
-0.2819469571 -0.1425553858 0.5404256582 4286201408
-0.2820084393 -0.1419858932 0.5405434966 4286201408
-0.2825202942 -0.1416419148 0.5415245891 4286332994
-0.2825814188 -0.1410707682 0.5416417718 4286464580
-0.2826423347 -0.1404992491 0.5417584777 4286596166
-0.2827030122 -0.1399273574 0.5418748260 4286596166
-0.2832144797 -0.1395773441 0.5428551435 4286464580
-0.2832748294 -0.1390038133 0.5429708362 4286267201
-0.2833349407 -0.1384299099 0.5430860519 4286728263
-0.2833948433 -0.1378556341 0.5432008505 4286465091
-0.2834545076 -0.1372810006 0.5433152318 4286332992
-0.2835139632 -0.1367060095 0.5434291959 4286267199
-0.2835731804 -0.1361306459 0.5435427427 4286332992
-0.2836321890 -0.1355549246 0.5436558127 4286398785
-0.2836909592 -0.1349788457 0.5437684655 4286530371
-0.2837494910 -0.1344024241 0.5438807011 4286793543
-0.2838078141 -0.1338256299 0.5439924598 4286661957
-0.2843179405 -0.1334606558 0.5449702144 4286859336
-0.2843759060 -0.1328822374 0.5450813174 4287121995
-0.2844336331 -0.1323034763 0.5451920033 4287187788
-0.2844911218 -0.1317243427 0.5453022122 4287319374
-0.2845484018 -0.1311448812 0.5454120040 4287450960
-0.2846054435 -0.1305650473 0.5455213189 4287516753
-0.2846622467 -0.1299848855 0.5456302166 4287516753
-0.2851714790 -0.1296100914 0.5466063023 4287582548
-0.2852279246 -0.1290283054 0.5467144847 4287714134
-0.2852841318 -0.1284461766 0.5468222499 4287714134
-0.2853401005 -0.1278637052 0.5469295382 4287714134
-0.2853958607 -0.1272808760 0.5470363498 4287648341
-0.2854513824 -0.1266977191 0.5471427441 4287648341
-0.2859598398 -0.1263144016 0.5481173396 4287846233
-0.2860149741 -0.1257296503 0.5482230186 4288175198
-0.2860698700 -0.1251445413 0.5483282804 4288306530
-0.2865779698 -0.1247565076 0.5493021607 4288503909
-0.2866324782 -0.1241698116 0.5494066477 4288241250
-0.2871403694 -0.1237783208 0.5503801703 4288438629
-0.2876482010 -0.1233846322 0.5513535738 4288307043
-0.2881559432 -0.1229887605 0.5523267984 4288636008
-0.2882097661 -0.1223979369 0.5524299741 4288636778
-0.2887172997 -0.1219986156 0.5534027815 4288834157
-0.2887707353 -0.1214062050 0.5535051823 4288768111
-0.2892780304 -0.1210034192 0.5544775724 4288833904
-0.2893310487 -0.1204094216 0.5545791984 4289294190
-0.2893838286 -0.1198151037 0.5546804070 4289491569
-0.2894363701 -0.1192204505 0.5547810793 4289294706
-0.2899431288 -0.1188117042 0.5557523966 4289360499
-0.2904497981 -0.1184007674 0.5567235947 4289032565
-0.2909564078 -0.1179876402 0.5576946139 4288769393
-0.2914629281 -0.1175723225 0.5586654544 4288768364
-0.2915145755 -0.1169723272 0.5587644577 4289557880
-0.2920208275 -0.1165535673 0.5597348809 4289235342
-0.2925269902 -0.1161326095 0.5607050657 4293972438
-0.3395315111 -0.2111670077 0.6521900296 4288189084
-0.3396201730 -0.2104973197 0.6523603201 4283912539
-0.3392645419 -0.2095528394 0.6516771913 4284370774
-0.3393526077 -0.2088829875 0.6518464088 4283647051
-0.3385518491 -0.2076675594 0.6503082514 4283973443
-0.3381948173 -0.2067267746 0.6496224403 4284236615
-0.3365037441 -0.2049749196 0.6463741064 4285352526
-0.3312544227 -0.2010704279 0.6362909675 4285681491
-0.3348971307 -0.2025668174 0.6432881355 4286206034
-0.3207468987 -0.1933233142 0.6161075830 4286206034
-0.2945747972 -0.1769199520 0.5658348203 4286336593
-0.2919788957 -0.1747377366 0.5608484745 4286205007
-0.2907170653 -0.1733621359 0.5584247112 4286204237
-0.2894543707 -0.1719913930 0.5559992194 4285875272
-0.2886362076 -0.1708892435 0.5544276237 4285613129
-0.2873718441 -0.1695273519 0.5519990325 4285613129
-0.2883348465 -0.1694801003 0.5538488030 4285678922
-0.2866235375 -0.1678624898 0.5505616665 4285810508
-0.2853570282 -0.1665117294 0.5481288433 4286205264
-0.2845356166 -0.1654251665 0.5465509892 4286402643
-0.2828213573 -0.1638249308 0.5432581902 4286270800
-0.2837832272 -0.1637764424 0.5451058149 4285941835
-0.2825137973 -0.1624408811 0.5426673889 4286006857
-0.2821363211 -0.1616217047 0.5419423580 4286598994
-0.2817584276 -0.1608038992 0.5412164927 4286862166
-0.2813801169 -0.1599874794 0.5404897928 4286862166
-0.2814481258 -0.1594254822 0.5406204462 4286730580
-0.2810690999 -0.1586109102 0.5398923755 4286796373
-0.2811365724 -0.1580489874 0.5400219560 4286664530
-0.2807568014 -0.1572362930 0.5392924547 4285611842
-0.2803765833 -0.1564249694 0.5385621786 4286006347
-0.2804432511 -0.1558636427 0.5386902094 4284953659
-0.2800622880 -0.1550542116 0.5379584432 4284099631
-0.2801284194 -0.1544929743 0.5380854607 4283507494
-0.2801943421 -0.1539313346 0.5382121205 4283179555
-0.2802600563 -0.1533693075 0.5383383036 4283969071
-0.2798777521 -0.1525627822 0.5376039743 4284560694
-0.2799429595 -0.1520008594 0.5377292037 4284823866
-0.2800079286 -0.1514385343 0.5378540158 4285282875
-0.2800726891 -0.1508758366 0.5379784107 4285414461
-0.2801372409 -0.1503127366 0.5381023884 4286004286
-0.2802015841 -0.1497492641 0.5382260084 4286201665
-0.2802657187 -0.1491853893 0.5383492112 4286464578
-0.2803296447 -0.1486211270 0.5384719372 4286661957
-0.2803933322 -0.1480564922 0.5385943055 4286530884
-0.2804568410 -0.1474914551 0.5387162566 4286399298
-0.2809689343 -0.1471611261 0.5396999717 4286662216
-0.2810321152 -0.1465944350 0.5398212671 4286662216
-0.2810950577 -0.1460273564 0.5399422050 4286596166
-0.2811577916 -0.1454598904 0.5400627255 4286530373
-0.2812202871 -0.1448920518 0.5401827693 4286596166
-0.2812826037 -0.1443238407 0.5403024554 4286530373
-0.2813446820 -0.1437552422 0.5404216647 4286333251
-0.2814065218 -0.1431862712 0.5405405164 4286267458
-0.2814681828 -0.1426169276 0.5406589508 4286201665
-0.2815296054 -0.1420472115 0.5407769084 4286267458
-0.2815908194 -0.1414771080 0.5408945084 4286332994
-0.2821017206 -0.1411317438 0.5418758392 4286332994
-0.2821625769 -0.1405600011 0.5419927835 4286464580
-0.2822232246 -0.1399878860 0.5421092510 4286596166
-0.2822836339 -0.1394153982 0.5422253013 4286464837
-0.2827941477 -0.1390639991 0.5432059169 4286399044
-0.2828542292 -0.1384898722 0.5433213115 4286399044
-0.2829140723 -0.1379153728 0.5434362888 4286267458
-0.2829736769 -0.1373405159 0.5435507894 4286267458
-0.2830331028 -0.1367652863 0.5436648726 4286333251
-0.2830922604 -0.1361897141 0.5437785387 4286398787
-0.2831512094 -0.1356137693 0.5438917875 4286398787
-0.2832099497 -0.1350374669 0.5440046191 4286596166
-0.2832684517 -0.1344608068 0.5441169739 4286727752
-0.2833267152 -0.1338837892 0.5442289114 4286793543
-0.2838360071 -0.1335186958 0.5452072024 4286925129
-0.2838939130 -0.1329400390 0.5453184247 4286925129
-0.2839516103 -0.1323610395 0.5454292297 4286859336
-0.2840090692 -0.1317816973 0.5455395579 4287056202
-0.2840662897 -0.1312019825 0.5456495285 4287253581
-0.2841232717 -0.1306219399 0.5457589626 4287385167
-0.2846318483 -0.1302482784 0.5467358828 4287319374
-0.2846884727 -0.1296666116 0.5468446016 4287319374
-0.2847448587 -0.1290845871 0.5469529629 4287319374
-0.2848010361 -0.1285022199 0.5470608473 4287450960
-0.2848569453 -0.1279195100 0.5471682549 4287450960
-0.2853648961 -0.1275385916 0.5481439233 4287253581
-0.2854204476 -0.1269542724 0.5482506752 4287253581
-0.2854757607 -0.1263696104 0.5483568907 4287517268
-0.2855308354 -0.1257846206 0.5484627485 4287780440
-0.2855857015 -0.1251992881 0.5485680699 4287978076
-0.2860929966 -0.1248110980 0.5495425463 4288109662
-0.2866002321 -0.1244207174 0.5505168438 4288043869
-0.2866545320 -0.1238325164 0.5506211519 4288372834
-0.2871615589 -0.1234386861 0.5515950918 4288307041
-0.2876684964 -0.1230426580 0.5525688529 4288636006
-0.2877222896 -0.1224515960 0.5526721478 4288570983
-0.2882290184 -0.1220521107 0.5536454916 4288636776
-0.2882823944 -0.1214594617 0.5537480116 4288701548
-0.2887888849 -0.1210565269 0.5547209382 4288701548
-0.2888418734 -0.1204622909 0.5548226833 4288965225
-0.2893481255 -0.1200558990 0.5557951331 4289228397
-0.2894006968 -0.1194600761 0.5558961630 4289359729
-0.2894530296 -0.1188639253 0.5559966564 4289293936
-0.2895051241 -0.1182674542 0.5560967326 4288966002
-0.2904646993 -0.1180395335 0.5579398870 4288702830
-0.2909703851 -0.1176240519 0.5589112639 4288636008
-0.2910220027 -0.1170238107 0.5590103865 4289293938
-0.2915274501 -0.1166048795 0.5599812865 4288838274
-0.2920328081 -0.1161837578 0.5609520078 4293575370
-0.3375317752 -0.2110940218 0.6497350335 4291347666
-0.3376202583 -0.2104272544 0.6499053240 4286148474
-0.3372653127 -0.2094846964 0.6492220759 4284108891
-0.3373531699 -0.2088177651 0.6493912339 4284041296
-0.3365539908 -0.2076032609 0.6478528380 4283580745
-0.3370847106 -0.2072096914 0.6488744617 4283841344
-0.3362844884 -0.2059985399 0.6473340392 4284236102
-0.3354835510 -0.2047903985 0.6457923055 4285483853
-0.3342380822 -0.2033152580 0.6433947682 4285747025
-0.3321036696 -0.2013066262 0.6392861605 4286140241
-0.3277474046 -0.1979650706 0.6309005022 4286074448
-0.2958473265 -0.1780641079 0.5694941282 4286139214
-0.2923677266 -0.1753445268 0.5627960563 4286073421
-0.2906638980 -0.1737010032 0.5595162511 4286139214
-0.2898480892 -0.1725935489 0.5579458475 4285941835
-0.2890315950 -0.1714891940 0.5563741326 4285678922
-0.2882144749 -0.1703879535 0.5548011661 4285744715
-0.2873966694 -0.1692898124 0.5532270074 4285744715
-0.2861332595 -0.1679336280 0.5507949591 4285810508
-0.2848689556 -0.1665823311 0.5483611822 4286073680
-0.2840490043 -0.1654953212 0.5467828512 4286205266
-0.2827830613 -0.1641529500 0.5443459749 4286270800
-0.2824071646 -0.1633307338 0.5436223745 4286205007
-0.2820308208 -0.1625098884 0.5428979397 4286401615
-0.2816540599 -0.1616903991 0.5421726704 4286598994
-0.2812768817 -0.1608722806 0.5414466262 4286664788
-0.2808992565 -0.1600555331 0.5407197475 4286598995
-0.2809672058 -0.1594933271 0.5408505201 4286467408
-0.2805888653 -0.1586784422 0.5401222110 4286664787
-0.2802101076 -0.1578649431 0.5393931270 4286598737
-0.2802772224 -0.1573033035 0.5395223498 4285677635
-0.2798977196 -0.1564916819 0.5387918353 4285808453
-0.2799643278 -0.1559301317 0.5389199853 4285216316
-0.2795840800 -0.1551203877 0.5381880999 4284756791
-0.2796501517 -0.1545589417 0.5383152366 4283769896
-0.2792691886 -0.1537511051 0.5375819206 4283376420
-0.2793347538 -0.1531897485 0.5377081037 4284100143
-0.2794000804 -0.1526280195 0.5378338695 4284560694
-0.2790180743 -0.1518225819 0.5370985270 4284889659
-0.2790828943 -0.1512609571 0.5372232795 4285282875
-0.2791475058 -0.1506989449 0.5373476744 4285414461
-0.2792119086 -0.1501365304 0.5374715924 4286004286
-0.2792760730 -0.1495737433 0.5375951529 4286201665
-0.2793400586 -0.1490105540 0.5377182961 4286398785
-0.2794038057 -0.1484469920 0.5378410220 4286596164
-0.2794673741 -0.1478830427 0.5379633904 4286728009
-0.2799786627 -0.1475547850 0.5389476418 4286662216
-0.2800419033 -0.1469891667 0.5390692949 4286728009
-0.2801049054 -0.1464231610 0.5391905904 4286728009
-0.2801676989 -0.1458567679 0.5393114686 4286661959
-0.2802302837 -0.1452900022 0.5394319296 4286596166
-0.2802926302 -0.1447228491 0.5395519733 4286530373
-0.2803547680 -0.1441553235 0.5396715999 4286398787
-0.2804166973 -0.1435874254 0.5397908092 4286135872
-0.2804784179 -0.1430191398 0.5399096012 4286135872
-0.2805399001 -0.1424504966 0.5400279760 4286070079
-0.2810501456 -0.1421084702 0.5410101414 4286267458
-0.2811113000 -0.1415381581 0.5411278605 4286332994
-0.2811722457 -0.1409674883 0.5412451625 4286267201
-0.2812329531 -0.1403964311 0.5413620472 4286464580
-0.2817427814 -0.1400483698 0.5423434973 4286596166
-0.2818031609 -0.1394756734 0.5424596667 4286530630
-0.2818633020 -0.1389025897 0.5425754786 4286596423
-0.2823728621 -0.1385497749 0.5435563326 4286464837
-0.2824326754 -0.1379750669 0.5436714888 4286267458
-0.2824922502 -0.1373999864 0.5437861681 4286201665
-0.2825515866 -0.1368245333 0.5439003706 4286135872
-0.2826107144 -0.1362487227 0.5440142155 4286135872
-0.2826696336 -0.1356725544 0.5441275835 4286267458
-0.2827283144 -0.1350960284 0.5442405343 4286596166
-0.2827867568 -0.1345191449 0.5443530679 4286661959
-0.2828449905 -0.1339419037 0.5444651246 4286793545
-0.2829029858 -0.1333643049 0.5445767641 4286925131
-0.2829607427 -0.1327863485 0.5446879864 4286859338
-0.2834689617 -0.1324185729 0.5456662774 4286661959
-0.2835263610 -0.1318389922 0.5457767844 4286727752
-0.2835835218 -0.1312590539 0.5458868146 4286990924
-0.2836404741 -0.1306787729 0.5459964871 4287056202
-0.2836972177 -0.1300981343 0.5461056232 4286924616
-0.2837536931 -0.1295171678 0.5462144017 4287122250
-0.2842611670 -0.1291408241 0.5471912026 4287056457
-0.2843172848 -0.1285582334 0.5472992659 4287253836
-0.2843731642 -0.1279752851 0.5474068522 4287319629
-0.2848802805 -0.1275942177 0.5483829975 4287056715
-0.2849358022 -0.1270096600 0.5484898686 4287056715
-0.2849910557 -0.1264247745 0.5485962629 4287385680
-0.2850461006 -0.1258395463 0.5487022400 4287583059
-0.2851009071 -0.1252539754 0.5488077402 4287715158
-0.2856073976 -0.1248656362 0.5497826934 4287846744
-0.2861137986 -0.1244751066 0.5507575274 4287978330
-0.2861680686 -0.1238866746 0.5508619547 4288438881
-0.2866742909 -0.1234926879 0.5518363714 4288438627
-0.2871804237 -0.1230965033 0.5528106689 4288438627
-0.2872341573 -0.1225052103 0.5529141426 4288242018
-0.2872876227 -0.1219135821 0.5530170798 4288242018
-0.2877933979 -0.1215126812 0.5539906621 4288504424
-0.2878464758 -0.1209194586 0.5540928245 4288504424
-0.2883520126 -0.1205151081 0.5550659895 4288701539
-0.2884047031 -0.1199202985 0.5551673770 4289096297
-0.2889100015 -0.1195124909 0.5561400652 4289491056
-0.2889623046 -0.1189161018 0.5562407374 4289491056
-0.2890143394 -0.1183193848 0.5563409328 4289096559
-0.2899723053 -0.1180913895 0.5581849813 4288899180
-0.2900240421 -0.1174921617 0.5582845807 4288570215
-0.2905287743 -0.1170752570 0.5592561364 4288964973
-0.2910334170 -0.1166561544 0.5602275133 4288639355
-0.2915379703 -0.1162348688 0.5611987710 4293113279
-0.3356247842 -0.2103511095 0.6474483609 4289372849
-0.3357128203 -0.2096867412 0.6476182342 4284832101
-0.3353582025 -0.2087464482 0.6469341516 4284239964
-0.3354456723 -0.2080819160 0.6471028328 4284040269
-0.3350902498 -0.2071432173 0.6464172006 4283645511
-0.3342915773 -0.2059330046 0.6448765397 4283709243
-0.3330493569 -0.2044539154 0.6424801350 4284432966
-0.3309201896 -0.2024375796 0.6383728385 4285681232
-0.3279034495 -0.1998892874 0.6325532198 4285812818
-0.2925293446 -0.1776983142 0.5643136501 4286008655
-0.2903873622 -0.1757747680 0.5601816177 4285877069
-0.2891309559 -0.1743945330 0.5577578545 4285941834
-0.2896479070 -0.1740855426 0.5587551594 4285941834
-0.2888338864 -0.1729772091 0.5571847558 4286139213
-0.2880191803 -0.1718719751 0.5556131601 4286139213
-0.2863160074 -0.1702419519 0.5523276329 4285876042
-0.2877198458 -0.1704599857 0.5550357699 4285876042
-0.2869035304 -0.1693614125 0.5534610152 4285941835
-0.2851980925 -0.1677433997 0.5501710773 4286073421
-0.2843802571 -0.1666528583 0.5485934019 4286139214
-0.2835617661 -0.1655654311 0.5470144749 4286205007
-0.2822980881 -0.1642225236 0.5445767045 4286467408
-0.2828122079 -0.1639154553 0.5455684662 4286533201
-0.2815472186 -0.1625788212 0.5431282520 4286796116
-0.2811711729 -0.1617590189 0.5424028039 4286730323
-0.2803497016 -0.1606855392 0.5408180952 4286796374
-0.2808628976 -0.1603776962 0.5418081284 4286730581
-0.2804856896 -0.1595611274 0.5410804152 4286664530
-0.2801080644 -0.1587459296 0.5403519273 4286664530
-0.2797299922 -0.1579321027 0.5396226048 4286466638
-0.2793515027 -0.1571196765 0.5388925076 4285677122
-0.2789726257 -0.1563086361 0.5381615758 4285676353
-0.2790390551 -0.1557477713 0.5382897258 4285347388
-0.2791052759 -0.1551865190 0.5384175181 4285216571
-0.2791712880 -0.1546248645 0.5385448337 4283900711
-0.2787910402 -0.1538167000 0.5378112793 4283638309
-0.2784103453 -0.1530099362 0.5370769501 4284362032
-0.2784755230 -0.1524488926 0.5372026563 4284822583
-0.2785404921 -0.1518874466 0.5373280048 4285085755
-0.2786052823 -0.1513256133 0.5374529362 4285676350
-0.2786698043 -0.1507633924 0.5375774503 4285742143
-0.2787341475 -0.1502007693 0.5377016068 4286201408
-0.2787982821 -0.1496377736 0.5378252864 4286332994
-0.2788622081 -0.1490743756 0.5379486084 4286464580
-0.2789259255 -0.1485105902 0.5380715132 4286596166
-0.2789894044 -0.1479464322 0.5381940007 4286728009
-0.2794998884 -0.1476180702 0.5391787291 4286793802
-0.2795630693 -0.1470522285 0.5393006206 4286662216
-0.2796260118 -0.1464860141 0.5394220352 4286662216
-0.2796887457 -0.1459194124 0.5395430923 4286596166
-0.2797512710 -0.1453524232 0.5396636724 4286596166
-0.2798135877 -0.1447850615 0.5397838950 4286596166
-0.2798756659 -0.1442173123 0.5399036407 4286332994
-0.2799375653 -0.1436491907 0.5400230289 4285938493
-0.2799992263 -0.1430806965 0.5401419997 4286004286
-0.2800606489 -0.1425118297 0.5402604938 4286004286
-0.2805700600 -0.1421696842 0.5412431955 4286135872
-0.2806311846 -0.1415991634 0.5413610935 4286332994
-0.2806920707 -0.1410282552 0.5414785147 4286332994
-0.2807527184 -0.1404569894 0.5415955782 4286464580
-0.2812617421 -0.1401088089 0.5425775051 4286530373
-0.2813220620 -0.1395358741 0.5426938534 4286464837
-0.2813821733 -0.1389625818 0.5428097844 4286530630
-0.2814420462 -0.1383889318 0.5429252982 4286728009
-0.2819506526 -0.1380347013 0.5439064503 4286662216
-0.2820101678 -0.1374593973 0.5440213084 4286596423
-0.2820694745 -0.1368837208 0.5441356897 4286399044
-0.2821285427 -0.1363077015 0.5442496538 4286267458
-0.2821874022 -0.1357313097 0.5443632007 4286201665
-0.2822460234 -0.1351545453 0.5444762707 4286135615
-0.2823044360 -0.1345774382 0.5445889235 4286004029
-0.2823626101 -0.1339999735 0.5447011590 4286398787
-0.2824205458 -0.1334221363 0.5448129773 4286661959
-0.2824782729 -0.1328439564 0.5449243188 4286727750
-0.2829856873 -0.1324760467 0.5459030867 4286596164
-0.2830430269 -0.1318962276 0.5460137725 4286727750
-0.2831001580 -0.1313160658 0.5461239815 4286990922
-0.2831570506 -0.1307355613 0.5462337136 4286990922
-0.2832137346 -0.1301546991 0.5463430285 4286925129
-0.2832701802 -0.1295734942 0.5464519262 4287056457
-0.2837768197 -0.1291970164 0.5474293232 4286990664
-0.2838329077 -0.1286141872 0.5475374460 4287121995
-0.2838887274 -0.1280310154 0.5476452112 4287319374
-0.2843950391 -0.1276497990 0.5486218929 4287253581
-0.2844505012 -0.1270650178 0.5487288833 4287187788
-0.2845057249 -0.1264798939 0.5488354564 4287319887
-0.2845607102 -0.1258944273 0.5489414930 4287583059
-0.2850665450 -0.1255072057 0.5499172807 4287583059
-0.2851211429 -0.1249201372 0.5500226021 4287846231
-0.2856267691 -0.1245294586 0.5509979725 4288175198
-0.2856809795 -0.1239407882 0.5511025786 4288372577
-0.2861863673 -0.1235466450 0.5520775318 4288109405
-0.2862402201 -0.1229563728 0.5521813631 4287648854
-0.2862938046 -0.1223657727 0.5522847772 4287714904
-0.2867988050 -0.1219669133 0.5532590151 4288043869
-0.2868520319 -0.1213747114 0.5533616543 4288241252
-0.2873568237 -0.1209723949 0.5543354154 4288438631
-0.2874096334 -0.1203786060 0.5544372797 4288504414
-0.2879141867 -0.1199728325 0.5554106236 4288636000
-0.2879665792 -0.1193774641 0.5555117130 4289161578
-0.2884708941 -0.1189682335 0.5564845800 4289358957
-0.2889751494 -0.1185568124 0.5574573278 4289096046
-0.2894793153 -0.1181431934 0.5584298968 4288898667
-0.2895309925 -0.1175437197 0.5585295558 4288767592
-0.2900348902 -0.1171266511 0.5595016479 4288767592
-0.2900861800 -0.1165256053 0.5596005917 4288638326
-0.2910424769 -0.1162859350 0.5614453554 4292717492
-0.3337216377 -0.2096074224 0.6451593637 4287332494
-0.3338092566 -0.2089454383 0.6453287601 4284304728
-0.3334549963 -0.2080074400 0.6446438432 4284304728
-0.3335420191 -0.2073453069 0.6448121071 4283908168
-0.3327450454 -0.2061351389 0.6432713866 4283316031
-0.3319473565 -0.2049279809 0.6417292953 4283840316
-0.3307068944 -0.2034518272 0.6393311620 4284498246
-0.3281387687 -0.2011670917 0.6343663931 4286009425
-0.3229149878 -0.1972710043 0.6242676377 4286075218
-0.2951226234 -0.1796585470 0.5705386996 4286008140
-0.2907723188 -0.1763857007 0.5621286035 4285810761
-0.2881902754 -0.1742003858 0.5571369529 4285810248
-0.2878206968 -0.1733587682 0.5564224720 4285876041
-0.2874507010 -0.1725184768 0.5557071567 4286073420
-0.2866372466 -0.1714145839 0.5541345477 4286205006
-0.2853800058 -0.1700497419 0.5517040491 4286138443
-0.2863381207 -0.1700056195 0.5535563231 4286006857
-0.2855230272 -0.1689084023 0.5519805551 4285876042
-0.2847073078 -0.1678142995 0.5504035950 4286007628
-0.2838909328 -0.1667233258 0.5488253236 4286204237
-0.2830739319 -0.1656354815 0.5472458601 4286335823
-0.2813686728 -0.1640333086 0.5439491868 4286598737
-0.2823257744 -0.1639848650 0.5457995534 4286730323
-0.2815070450 -0.1629046500 0.5442167521 4286861909
-0.2802435458 -0.1615715325 0.5417740941 4286796116
-0.2798676789 -0.1607536823 0.5410474539 4286927702
-0.2799357176 -0.1601914763 0.5411790013 4286796116
-0.2795590758 -0.1593754739 0.5404508710 4286664017
-0.2796266079 -0.1588133425 0.5405814052 4286598224
-0.2792492509 -0.1579992175 0.5398519039 4286137673
-0.2788714767 -0.1571864784 0.5391216278 4285545536
-0.2784932852 -0.1563751101 0.5383904576 4286135621
-0.2785596848 -0.1558140516 0.5385187864 4285806656
-0.2786258459 -0.1552525908 0.5386466980 4285742145
-0.2782466114 -0.1544436067 0.5379135609 4284228906
-0.2783122361 -0.1538822502 0.5380404592 4284098603
-0.2779322863 -0.1530751735 0.5373058915 4284822326
-0.2779974043 -0.1525139213 0.5374318361 4285348670
-0.2780623138 -0.1519522667 0.5375573039 4285480256
-0.2781270146 -0.1513902247 0.5376824141 4285873472
-0.2781915367 -0.1508277804 0.5378071070 4286005058
-0.2782558203 -0.1502649635 0.5379313827 4286398274
-0.2783198953 -0.1497017443 0.5380552411 4286529860
-0.2783837318 -0.1491381377 0.5381786823 4286661446
-0.2788936198 -0.1488122493 0.5391644239 4286727239
-0.2789571583 -0.1482469589 0.5392872691 4286661959
-0.2790204883 -0.1476812959 0.5394096971 4286727752
-0.2790836096 -0.1471152455 0.5395317078 4286728009
-0.2791465223 -0.1465488076 0.5396533012 4286662216
-0.2792091966 -0.1459819824 0.5397744775 4286596166
-0.2792716622 -0.1454147846 0.5398952365 4286596166
-0.2793339193 -0.1448472142 0.5400155783 4286793545
-0.2793959677 -0.1442792416 0.5401355624 4286464580
-0.2799049020 -0.1439408511 0.5411194563 4286004286
-0.2799666226 -0.1433712244 0.5412387252 4286070079
-0.2800281048 -0.1428012252 0.5413576365 4286070079
-0.2800893784 -0.1422308534 0.5414760709 4286201665
-0.2801504135 -0.1416601092 0.5415940881 4286332994
-0.2806588709 -0.1413143575 0.5425770283 4286332994
-0.2807195783 -0.1407419592 0.5426943898 4286398787
-0.2807800770 -0.1401691884 0.5428113341 4286464580
-0.2808403373 -0.1395960450 0.5429278612 4286464837
-0.2813484073 -0.1392442435 0.5439100266 4286464837
-0.2814083099 -0.1386694610 0.5440258384 4286530630
-0.2814680040 -0.1380942911 0.5441412926 4286728009
-0.2815274894 -0.1375187635 0.5442562699 4286793802
-0.2815867364 -0.1369428635 0.5443707705 4286596423
-0.2820942402 -0.1365837604 0.5453519225 4286399044
-0.2821531296 -0.1360062212 0.5454657674 4286267458
-0.2822118104 -0.1354283243 0.5455791950 4286135613
-0.2822702527 -0.1348500699 0.5456922054 4286004027
-0.2823284566 -0.1342714578 0.5458047390 4286332992
-0.2823864520 -0.1336924881 0.5459168553 4286661957
-0.2824442387 -0.1331131458 0.5460284948 4286727750
-0.2825017571 -0.1325334758 0.5461397767 4286596164
-0.2830083072 -0.1321632117 0.5471189618 4286727750
-0.2830654681 -0.1315819025 0.5472295284 4286990922
-0.2831224203 -0.1310002357 0.5473396182 4287056715
-0.2831791341 -0.1304182261 0.5474492311 4286990922
-0.2827860117 -0.1296297759 0.5466892719 4286990409
-0.2832918465 -0.1292531490 0.5476672053 4286990409
-0.2833478749 -0.1286700964 0.5477755070 4287121995
-0.2834036648 -0.1280866861 0.5478833318 4287319374
-0.2834592164 -0.1275029480 0.5479907393 4287319374
-0.2839645743 -0.1271203160 0.5489677191 4287187788
-0.2840197682 -0.1265349537 0.5490744114 4287188301
-0.2840747237 -0.1259492636 0.5491806269 4287517266
-0.2845796943 -0.1255618930 0.5501568913 4287517266
-0.2850846350 -0.1251723319 0.5511330366 4287846231
-0.2851390541 -0.1245837584 0.5512382388 4288240991
-0.2856437862 -0.1241907328 0.5522139668 4287977819
-0.2856978178 -0.1236005574 0.5523184538 4287385682
-0.2857516110 -0.1230100542 0.5524224639 4286596166
-0.2858051658 -0.1224192083 0.5525259972 4287056974
-0.2858584821 -0.1218280345 0.5526290536 4287912283
-0.2863625288 -0.1214277595 0.5536034703 4287912285
-0.2868664861 -0.1210252866 0.5545777678 4288307043
-0.2869192660 -0.1204312593 0.5546797514 4288241240
-0.2874230146 -0.1200253293 0.5556536317 4288109654
-0.2879266739 -0.1196172014 0.5566273332 4288700512
-0.2884302437 -0.1192068756 0.5576008558 4289095270
-0.2884823084 -0.1186087430 0.5577014685 4288898408
-0.2889856398 -0.1181949601 0.5586745739 4288832615
-0.2890372872 -0.1175952405 0.5587743521 4288570213
-0.2895403802 -0.1171780080 0.5597469807 4288372834
-0.2895916104 -0.1165767163 0.5598460436 4288505970
-0.2900944650 -0.1161560267 0.5608181357 4292321964
-0.3326160312 -0.2100785077 0.6444056034 4292266708
-0.3322630227 -0.2091403306 0.6437216997 4286016373
-0.3319095373 -0.2082033753 0.6430368423 4284370520
-0.3315556049 -0.2072676569 0.6423511505 4284173141
-0.3307601810 -0.2060584277 0.6408101320 4284039752
-0.3312874734 -0.2056737989 0.6418316960 4283381822
-0.3304910362 -0.2044679224 0.6402886510 4284169535
-0.3288111687 -0.2027208507 0.6370341182 4284630086
-0.3253642917 -0.1998953819 0.6303561926 4286009425
-0.3183826804 -0.1949207187 0.6168301105 4286141011
-0.2919625044 -0.1781172454 0.5656440258 4285877069
-0.2889445126 -0.1756540984 0.5597970486 4285679690
-0.2876924574 -0.1742736548 0.5573712587 4285744713
-0.2873235643 -0.1734317243 0.5566566586 4285744713
-0.2869542539 -0.1725911200 0.5559411645 4286007628
-0.2865845263 -0.1717518419 0.5552248359 4286007628
-0.2862143815 -0.1709139049 0.5545076728 4285941834
-0.2854012847 -0.1698140353 0.5529324412 4285876041
-0.2850301564 -0.1689796597 0.5522134304 4286007627
-0.2842159271 -0.1678851396 0.5506358743 4286205006
-0.2834010124 -0.1667937338 0.5490571260 4286139211
-0.2825854719 -0.1657054573 0.5474770665 4286270797
-0.2817692757 -0.1646203250 0.5458958149 4286598994
-0.2809524238 -0.1635383219 0.5443132520 4286664787
-0.2805781960 -0.1627165228 0.5435882807 4286927189
-0.2797602117 -0.1616399288 0.5420034528 4287058775
-0.2793850303 -0.1608217657 0.5412766337 4287255382
-0.2790094316 -0.1600049734 0.5405489206 4287123796
-0.2790770829 -0.1594430506 0.5406800508 4287255382
-0.2787007689 -0.1586281210 0.5399509072 4287123796
-0.2783240080 -0.1578145623 0.5392209888 4286335050
-0.2783908546 -0.1572532058 0.5393505096 4286203464
-0.2780133784 -0.1564415395 0.5386191607 4286202694
-0.2780796885 -0.1558802724 0.5387476683 4286663245
-0.2777014673 -0.1550704837 0.5380148888 4285413950
-0.2773228288 -0.1542620957 0.5372813344 4283637539
-0.2773883343 -0.1537014246 0.5374082327 4284557871
-0.2774536014 -0.1531403512 0.5375346541 4285215801
-0.2775186598 -0.1525788903 0.5376607180 4285873472
-0.2771386802 -0.1517734081 0.5369245410 4286070851
-0.2776481807 -0.1514547765 0.5379116535 4286136644
-0.2777126133 -0.1508921236 0.5380365252 4286070851
-0.2777768373 -0.1503290832 0.5381609201 4286136644
-0.2778408527 -0.1497656554 0.5382849574 4286334023
-0.2779046595 -0.1492018402 0.5384085774 4286334023
-0.2784137130 -0.1488758475 0.5393948555 4286399816
-0.2784772217 -0.1483103484 0.5395178199 4286662218
-0.2785404921 -0.1477444619 0.5396404266 4286728011
-0.2786035538 -0.1471782029 0.5397625566 4286662216
-0.2786663771 -0.1466115564 0.5398843288 4286662216
-0.2787290215 -0.1460445225 0.5400056839 4286596677
-0.2787914276 -0.1454771012 0.5401266217 4286728263
-0.2788536549 -0.1449093074 0.5402470827 4286794056
-0.2789156139 -0.1443411261 0.5403671861 4286399298
-0.2794237733 -0.1440026164 0.5413516760 4285938747
-0.2794854045 -0.1434327662 0.5414710641 4285872954
-0.2795468569 -0.1428625584 0.5415900946 4286004027
-0.2796080709 -0.1422919631 0.5417087078 4286004027
-0.2796690464 -0.1417209953 0.5418269038 4286135613
-0.2801766992 -0.1413751394 0.5428103805 4286267199
-0.2802373469 -0.1408025026 0.5429278612 4286332992
-0.2802977860 -0.1402295083 0.5430449843 4286530371
-0.2803579867 -0.1396561414 0.5431616306 4286596164
-0.2808652222 -0.1393042356 0.5441443324 4286530371
-0.2809250951 -0.1387292147 0.5442603230 4286531398
-0.2809847295 -0.1381538361 0.5443758965 4286399812
-0.2810441554 -0.1375780702 0.5444909930 4286005054
-0.2811033726 -0.1370019615 0.5446056724 4286136640
-0.2816100419 -0.1366427243 0.5455873609 4286531398
-0.2816689014 -0.1360649616 0.5457013249 4286334019
-0.2817275226 -0.1354868412 0.5458149314 4286201919
-0.2817859054 -0.1349083483 0.5459280610 4286136126
-0.2818440795 -0.1343295127 0.5460407734 4286333505
-0.2819020152 -0.1337503195 0.5461530089 4286465091
-0.2819597423 -0.1331707537 0.5462648273 4286596677
-0.2820172310 -0.1325908452 0.5463762283 4286662470
-0.2825229466 -0.1322204620 0.5473559499 4286793543
-0.2825800478 -0.1316389143 0.5474666357 4286859336
-0.2826369703 -0.1310570240 0.5475768447 4286859336
-0.2826936245 -0.1304747760 0.5476866364 4286793543
-0.2827500701 -0.1298921853 0.5477959514 4286925129
-0.2828062475 -0.1293092370 0.5479048491 4287122508
-0.2828622460 -0.1287259609 0.5480133295 4287122508
-0.2833670676 -0.1283457279 0.5489913225 4287122508
-0.2834226489 -0.1277608126 0.5490990281 4287056715
-0.2834780216 -0.1271755695 0.5492063165 4287122508
-0.2839824855 -0.1267905980 0.5501837134 4287188301
-0.2840374708 -0.1262037307 0.5502902269 4287254094
-0.2840922475 -0.1256165355 0.5503963232 4287648852
-0.2845963538 -0.1252268255 0.5513729453 4287912024
-0.2851004303 -0.1248349175 0.5523495078 4288306782
-0.2851546407 -0.1242448390 0.5524545908 4288372575
-0.2852086127 -0.1236544326 0.5525591373 4287780438
-0.2852623761 -0.1230636835 0.5526632667 4287583059
-0.2853158712 -0.1224726066 0.5527669787 4288175196
-0.2853691578 -0.1218811944 0.5528701544 4288372575
-0.2858723700 -0.1214807630 0.5538451076 4287651161
-0.2863755226 -0.1210781336 0.5548199415 4287716954
-0.2864282429 -0.1204838604 0.5549220443 4288109916
-0.2873816192 -0.1202662811 0.5567690730 4288044123
-0.2874340117 -0.1196694896 0.5568706393 4288503133
-0.2879368067 -0.1192589998 0.5578446984 4289029477
-0.2879888117 -0.1186606213 0.5579454303 4289161582
-0.2884913385 -0.1182466820 0.5589190125 4288898410
-0.2885429263 -0.1176467240 0.5590189695 4288635234
-0.2890452147 -0.1172293201 0.5599920750 4288635234
-0.2890963852 -0.1166277826 0.5600912571 4288111974
-0.2895984352 -0.1162069291 0.5610638857 4291796382
-0.3311592937 -0.2096094787 0.6429668665 4291214020
-0.3308067322 -0.2086727023 0.6422823668 4285226857
-0.3304536939 -0.2077371478 0.6415969133 4284173141
-0.3301002085 -0.2068028450 0.6409106255 4284107348
-0.3297462761 -0.2058697641 0.6402234435 4283973959
-0.3289515078 -0.2046639472 0.6386803389 4283381822
-0.3277155757 -0.2031880468 0.6362807155 4284037436
-0.3264787197 -0.2017168850 0.6338792443 4284629573
-0.3221560419 -0.1983511299 0.6254864931 4286075218
-0.3006388843 -0.1844544858 0.5837095380 4286141011
-0.2910155654 -0.1779224128 0.5650252700 4286073678
-0.2884438038 -0.1757278442 0.5600320697 4285876299
-0.2871939838 -0.1743468642 0.5576053858 4285876042
-0.2863845229 -0.1732376814 0.5560337901 4285744456
-0.2864572108 -0.1726636887 0.5561749339 4286006858
-0.2860881686 -0.1718240976 0.5554584265 4286006858
-0.2857187092 -0.1709858477 0.5547410846 4285810248
-0.2849071026 -0.1698855460 0.5531653166 4285876041
-0.2836530209 -0.1685258597 0.5507304072 4286138443
-0.2828400135 -0.1674326807 0.5491518974 4286270029
-0.2820263505 -0.1663426310 0.5475721359 4286204236
-0.2807699144 -0.1649958640 0.5451326370 4286204236
-0.2812816501 -0.1646898240 0.5461262465 4286401615
-0.2800239027 -0.1633493453 0.5436843038 4286598994
-0.2800927758 -0.1627852917 0.5438179970 4286796116
-0.2797188461 -0.1619645506 0.5430919528 4286861909
-0.2789017558 -0.1608897895 0.5415055752 4287123796
-0.2794125080 -0.1605816633 0.5424971581 4287189589
-0.2781515718 -0.1592569649 0.5400490165 4287321175
-0.2782188654 -0.1586953104 0.5401796699 4287255382
-0.2778428197 -0.1578814536 0.5394495726 4286664015
-0.2779096067 -0.1573198885 0.5395792127 4286203464
-0.2775328159 -0.1565079093 0.5388476849 4285939522
-0.2775990665 -0.1559464186 0.5389763117 4286992210
-0.2772215903 -0.1551363319 0.5382433534 4286531659
-0.2768436670 -0.1543276310 0.5375096202 4284557869
-0.2769090831 -0.1537667513 0.5376366377 4284689455
-0.2769742906 -0.1532054693 0.5377632380 4285413178
-0.2770393193 -0.1526437998 0.5378894806 4286268230
-0.2766600251 -0.1518380046 0.5371530652 4286268230
-0.2771686912 -0.1515192688 0.5381407142 4286268228
-0.2767888010 -0.1507144868 0.5374031067 4286268228
-0.2772972584 -0.1503931582 0.5383903384 4286334023
-0.2773612142 -0.1498295218 0.5385144949 4286399816
-0.2774249911 -0.1492654979 0.5386382937 4286399816
-0.2774885297 -0.1487010866 0.5387616158 4286334023
-0.2779966295 -0.1483736783 0.5397481918 4286530630
-0.2780598700 -0.1478075832 0.5398709178 4286662216
-0.2781228721 -0.1472411007 0.5399932861 4286662216
-0.2781856656 -0.1466742456 0.5401151776 4286596423
-0.2782482207 -0.1461069882 0.5402366519 4286464837
-0.2783105969 -0.1455393583 0.5403577685 4286333251
-0.2783727348 -0.1449713558 0.5404784083 4286333251
-0.2788801789 -0.1446340084 0.5414636135 4286135872
-0.2784963846 -0.1438341886 0.5407184958 4285938493
-0.2790035903 -0.1434942633 0.5417032242 4286070079
-0.2790649533 -0.1429238319 0.5418224335 4286069822
-0.2791261375 -0.1423530281 0.5419411659 4286135615
-0.2791870832 -0.1417818367 0.5420594811 4286201406
-0.2792477906 -0.1412102729 0.5421773791 4286267199
-0.2797544897 -0.1408630013 0.5431611538 4286398785
-0.2798148692 -0.1402897835 0.5432783961 4286530371
-0.2798750401 -0.1397162080 0.5433952212 4286464578
-0.2803814411 -0.1393641680 0.5443784595 4286398785
-0.2804412544 -0.1387889236 0.5444945693 4286464837
-0.2805008590 -0.1382133216 0.5446102619 4286399044
-0.2810069621 -0.1378565133 0.5455929637 4286070079
-0.2806193829 -0.1370609999 0.5448403955 4286135872
-0.2811252475 -0.1367016286 0.5458225608 4286530630
-0.2811840177 -0.1361236423 0.5459367037 4286464837
-0.2812426090 -0.1355452985 0.5460504293 4286267458
-0.2813009322 -0.1349665970 0.5461637378 4286333251
-0.2813590765 -0.1343875229 0.5462765694 4286399298
-0.2814169526 -0.1338080913 0.5463889837 4286399298
-0.2814746201 -0.1332283169 0.5465009212 4286464578
-0.2815320492 -0.1326481700 0.5466124415 4286596164
-0.2820369601 -0.1322776526 0.5475926995 4286793543
-0.2820940316 -0.1316958815 0.5477035046 4286859336
-0.2821508646 -0.1311137527 0.5478138924 4286793543
-0.2822074890 -0.1305312812 0.5479238033 4286859336
-0.2822638750 -0.1299484670 0.5480332971 4286925129
-0.2823200226 -0.1293652952 0.5481423140 4287122508
-0.2828241885 -0.1289861798 0.5491211414 4287122508
-0.2828799486 -0.1284013987 0.5492294431 4287122508
-0.2829355001 -0.1278162599 0.5493373275 4287188301
-0.2834393084 -0.1274324059 0.5503154993 4287056715
-0.2834944725 -0.1268456578 0.5504226089 4287188301
-0.2835494280 -0.1262585670 0.5505293012 4287188301
-0.2836041451 -0.1256711334 0.5506355166 4287714645
-0.2841074467 -0.1252812743 0.5516126752 4287714645
-0.2846106887 -0.1248892099 0.5525897741 4287977817
-0.2846648395 -0.1242989004 0.5526949763 4288043610
-0.2847187817 -0.1237082556 0.5527997017 4287583059
-0.2847724855 -0.1231172681 0.5529039502 4287583059
-0.2848259509 -0.1225259528 0.5530077219 4288109403
-0.2848791778 -0.1219343022 0.5531110764 4288240989
-0.2853815854 -0.1215337142 0.5540865660 4287781465
-0.2854344249 -0.1209404767 0.5541891456 4287781465
-0.2859365940 -0.1205364242 0.5551641583 4288043610
-0.2868883908 -0.1203187630 0.5570120811 4288109403
-0.2869407535 -0.1197217330 0.5571137667 4288699999
-0.2874426842 -0.1193110868 0.5580883026 4289160550
-0.2874946594 -0.1187124625 0.5581892133 4289095789
-0.2879963517 -0.1182983592 0.5591632724 4289029996
-0.2880479097 -0.1176981553 0.5592634082 4288766820
-0.2885493934 -0.1172805950 0.5602369905 4288569441
-0.2886005342 -0.1166788116 0.5603362918 4288111461
-0.2891017497 -0.1162577942 0.5613094568 4291861662
-0.3297048807 -0.2091398984 0.6415264606 4290556090
-0.3293527663 -0.2082045227 0.6408413649 4284963685
-0.3290002048 -0.2072703838 0.6401553154 4284501849
-0.3282078207 -0.2060616314 0.6386135221 4284172884
-0.3278542161 -0.2051308453 0.6379255056 4284039238
-0.3270605505 -0.2039272189 0.6363812685 4283512894
-0.3258264959 -0.2024533600 0.6339800358 4283708471
-0.3237118721 -0.2004396170 0.6298655272 4284563780
-0.3185163140 -0.1965339631 0.6197562218 4286140754
-0.2957156897 -0.1818259954 0.5753916502 4286272340
-0.2900695503 -0.1777272820 0.5644056201 4286205007
-0.2875021994 -0.1755327135 0.5594101548 4285941835
-0.2862544954 -0.1741520762 0.5569823980 4285875272
-0.2858869135 -0.1733103842 0.5562672019 4285809479
-0.2855188847 -0.1724700332 0.5555511117 4286006345
-0.2851504385 -0.1716310084 0.5548342466 4285940552
-0.2847815752 -0.1707933247 0.5541164875 4285875271
-0.2844122946 -0.1699569821 0.5533979535 4285941064
-0.2840425670 -0.1691219807 0.5526785254 4286072393
-0.2832312286 -0.1680266112 0.5510998964 4286138186
-0.2824192941 -0.1669343561 0.5495200157 4286138186
-0.2816066742 -0.1658452302 0.5479388833 4286203979
-0.2803519368 -0.1645001918 0.5454974771 4286335565
-0.2808627486 -0.1641927361 0.5464913845 4286598737
-0.2800484300 -0.1631112695 0.5449069738 4286796116
-0.2792334855 -0.1620329320 0.5433212519 4286664530
-0.2788598239 -0.1612132490 0.5425941944 4286861394
-0.2793698311 -0.1609041244 0.5435865521 4286927187
-0.2781112790 -0.1595780104 0.5411376953 4286861394
-0.2777363658 -0.1587624550 0.5404081941 4286992980
-0.2773610055 -0.1579482704 0.5396778584 4286861394
-0.2774277329 -0.1573865116 0.5398076773 4286137671
-0.2770516574 -0.1565742046 0.5390759706 4285742143
-0.2766751945 -0.1557632983 0.5383434296 4286860624
-0.2767410874 -0.1552021205 0.5384716392 4287255382
-0.2763638496 -0.1543931067 0.5377376676 4285544764
-0.2764292359 -0.1538320184 0.5378648639 4285084213
-0.2760512829 -0.1530249119 0.5371294618 4285544764
-0.2761161327 -0.1524639279 0.5372556448 4286334023
-0.2761807740 -0.1519025415 0.5373814106 4286334023
-0.2762452066 -0.1513407826 0.5375068188 4286136642
-0.2763094306 -0.1507786214 0.5376317501 4286268228
-0.2768170834 -0.1504571736 0.5386194587 4286334023
-0.2768809795 -0.1498933285 0.5387438536 4286465609
-0.2769446671 -0.1493290961 0.5388677716 4286662218
-0.2770081460 -0.1487644613 0.5389912724 4286530632
-0.2770714164 -0.1481994539 0.5391144156 4286464837
-0.2775786221 -0.1478706449 0.5401012897 4286530630
-0.2776415646 -0.1473039538 0.5402237773 4286728011
-0.2777042985 -0.1467368752 0.5403458476 4286662218
-0.2777668238 -0.1461694092 0.5404675007 4286464839
-0.2778291404 -0.1456015706 0.5405887365 4286267460
-0.2778912187 -0.1450333446 0.5407095551 4286267458
-0.2779531181 -0.1444647312 0.5408299565 4286135872
-0.2784595788 -0.1441259831 0.5418154001 4286070079
