VERSION 0.7
FIELDS x y z rgba
SIZE 4 4 4 4
TYPE F F F U
COUNT 1 1 1 1
WIDTH 920
HEIGHT 1
VIEWPOINT 0.0 0.0 0.0 1.0 0.0 0.0 0.0
POINTS 920
DATA ascii
-0.2831633389 -0.1065451428 0.5594306588 4294039392
-0.2832095623 -0.1059408709 0.5595220327 4294368357
-0.2837009132 -0.1055019274 0.5604927540 4293973595
-0.2841921747 -0.1050607860 0.5614632964 4293315665
-0.2846833169 -0.1046174541 0.5624336600 4292986183
-0.2856199443 -0.1043346897 0.5642840862 4292525632
-0.2861109674 -0.1038860083 0.5652540922 4292656195
-0.2866018414 -0.1034351364 0.5662239194 4292656195
-0.2870926261 -0.1029820666 0.5671935678 4292656193
-0.2880291641 -0.1026857570 0.5690438151 4292721986
-0.2885197699 -0.1022273451 0.5700131059 4292723014
-0.2894562781 -0.1019237787 0.5718632936 4292723014
-0.2899467051 -0.1014600173 0.5728322268 4292657739
-0.2904370427 -0.1009940654 0.5738009214 4292723532
-0.2909272611 -0.1005259156 0.5747694373 4292591426
-0.2918635905 -0.1002087891 0.5766193271 4292591426
-0.2927999496 -0.0998875648 0.5784692168 4292657470
-0.2937363386 -0.0995622203 0.5803191662 4293183814
-0.2946726978 -0.0992327780 0.5821691155 4292988519
-0.2956090569 -0.0988992155 0.5840190053 4292922726
-0.2969920337 -0.0987099782 0.5867512822 4293385631
-0.2983751297 -0.0985147133 0.5894837976 4294898870
-0.3200169504 -0.1615092903 0.6336307526 4291149208
-0.3187664449 -0.1601769030 0.6311547756 4290162313
-0.3161958158 -0.1581895798 0.6260648966 4291015518
-0.3114244640 -0.1551174223 0.6166176796 4290883932
-0.3053309619 -0.1514106095 0.6045525670 4291013711
-0.3001146913 -0.1481636912 0.5942244530 4290750539
-0.2970966697 -0.1460201442 0.5882488489 4290552900
-0.2949576080 -0.1443199366 0.5840135217 4290289728
-0.2936980426 -0.1430575252 0.5815195441 4290551340
-0.2924377024 -0.1418002844 0.5790240765 4290288168
-0.2916170657 -0.1407608390 0.5773992538 4290287395
-0.2907958329 -0.1397247165 0.5757731795 4290287395
-0.2899740040 -0.1386919171 0.5741459727 4290286877
-0.2891515791 -0.1376624554 0.5725176334 4290286877
-0.2887694538 -0.1368452460 0.5717609525 4290614807
-0.2879459262 -0.1358215362 0.5701304078 4290417428
-0.2875628471 -0.1350082308 0.5693719387 4290155545
-0.2871793807 -0.1341964155 0.5686126351 4290023959
-0.2867954671 -0.1333861053 0.5678525567 4289826580
-0.2864111662 -0.1325772852 0.5670916438 4289826580
-0.2860264778 -0.1317699701 0.5663298965 4289958166
-0.2856413424 -0.1309641600 0.5655673146 4290089752
-0.2861389518 -0.1305628270 0.5665525794 4290155545
-0.2861948311 -0.1299587339 0.5666632652 4290155545
-0.2858087420 -0.1291546524 0.5658987761 4290155544
-0.2854222357 -0.1283520907 0.5651335120 4290089751
-0.2854772508 -0.1277488023 0.5652424097 4290023445
-0.2850899994 -0.1269483417 0.5644757152 4290023445
-0.2851444483 -0.1263452917 0.5645834804 4290089238
-0.2851986587 -0.1257418990 0.5646908283 4289957652
-0.2848103642 -0.1249441504 0.5639219880 4289628687
-0.2848640084 -0.1243410036 0.5640282035 4289431308
-0.2849173844 -0.1237375215 0.5641339421 4289628173
-0.2849705517 -0.1231336966 0.5642392039 4289957138
-0.2845808864 -0.1223392710 0.5634676814 4290155285
-0.2846334875 -0.1217357144 0.5635718107 4290418457
-0.2851285934 -0.1213202104 0.5645521283 4290550041
-0.2851808071 -0.1207150444 0.5646554828 4290747420
-0.2852327526 -0.1201095507 0.5647583604 4290879517
-0.2848414779 -0.1193181649 0.5639836192 4290945310
-0.2844497859 -0.1185283288 0.5632081032 4291208480
-0.2840577066 -0.1177400500 0.5624317527 4291537445
-0.2836652398 -0.1169533283 0.5616546869 4291538215
-0.2832723558 -0.1161681712 0.5608767271 4291735594
-0.2828790545 -0.1153845787 0.5600980520 4291932975
-0.2824853957 -0.1146025509 0.5593185425 4291867182
-0.2820912898 -0.1138221025 0.5585383177 4291801902
-0.2816968262 -0.1130432263 0.5577572584 4291867695
-0.2817456424 -0.1124430001 0.5578538775 4292064824
-0.2813504338 -0.1116663367 0.5570713878 4292327996
-0.2813987136 -0.1110664308 0.5571669340 4292854085
-0.2814467251 -0.1104662269 0.5572620034 4293183050
-0.2814944685 -0.1098657101 0.5573565960 4293051725
-0.2815420032 -0.1092648953 0.5574507117 4292920139
-0.2815892994 -0.1086637676 0.5575442910 4293117261
-0.2820805311 -0.1082327887 0.5585169792 4293380433
-0.2825717032 -0.1077996120 0.5594894886 4293512019
-0.2826184034 -0.1071956903 0.5595819354 4293512019
-0.2826648355 -0.1065914631 0.5596739054 4293973081
-0.2827110291 -0.1059869453 0.5597653389 4294367839
-0.2832015455 -0.1055478230 0.5607365966 4293973079
-0.2836920023 -0.1051065102 0.5617076159 4293446735
-0.2841823101 -0.1046629921 0.5626784563 4292920390
-0.2851173282 -0.1043801233 0.5645297766 4292459839
-0.2856075168 -0.1039312631 0.5655003786 4292656193
-0.2860975564 -0.1034802049 0.5664706826 4292590400
-0.2865875363 -0.1030269563 0.5674408078 4292590915
-0.2875224352 -0.1027305275 0.5692918897 4292788294
-0.2880122364 -0.1022719294 0.5702617168 4292854598
-0.2889471352 -0.1019682512 0.5721127987 4292788805
-0.2894367576 -0.1015042961 0.5730822086 4292526149
-0.2899262607 -0.1010381505 0.5740514398 4292526149
-0.2904156446 -0.1005698144 0.5750204325 4292525635
-0.2913503945 -0.1002525687 0.5768712163 4292591428
-0.2922851443 -0.0999312103 0.5787220001 4292854851
-0.2932198942 -0.0996057391 0.5805727839 4293381195
-0.2941546440 -0.0992761627 0.5824236274 4292989297
-0.2955351770 -0.0990919247 0.5851570368 4292726125
-0.2964699864 -0.0987531617 0.5870079994 4293451964
-0.3177616894 -0.1600239426 0.6305519938 4290097047
-0.3156345785 -0.1582568288 0.6263310313 4291081057
-0.3113108575 -0.1554025859 0.6177512407 4290949471
-0.3052282929 -0.1516932845 0.6056813002 4291014227
-0.3004606962 -0.1486614347 0.5962207317 4290816848
-0.2970089316 -0.1462987363 0.5893711448 4290553674
-0.2948738039 -0.1445969045 0.5851343274 4290224709
-0.2931770682 -0.1431185007 0.5817673802 4290552371
-0.2923586369 -0.1420743912 0.5801433325 4290354992
-0.2910998762 -0.1408208758 0.5776455402 4290420008
-0.2902801633 -0.1397843361 0.5760188699 4290354215
-0.2894598544 -0.1387511194 0.5743910670 4290485541
-0.2890789211 -0.1379311830 0.5736352205 4290485541
-0.2882575095 -0.1369037032 0.5720052123 4290615832
-0.2878756821 -0.1360876709 0.5712475181 4290418453
-0.2870531678 -0.1350659579 0.5696153641 4290155545
-0.2866704166 -0.1342538148 0.5688558817 4290023959
-0.2867276967 -0.1336484849 0.5689695477 4289892373
-0.2863442004 -0.1328384131 0.5682085752 4289892373
-0.2864009142 -0.1322332770 0.5683211088 4290023959
-0.2860167027 -0.1314252764 0.5675586462 4290089752
-0.2856320739 -0.1306187958 0.5667954087 4290155545
-0.2856878936 -0.1300144494 0.5669062138 4290155545
-0.2853025496 -0.1292100549 0.5661415458 4290089751
-0.2853578031 -0.1286059469 0.5662512183 4290089751
-0.2849717140 -0.1278036386 0.5654850602 4290089238
-0.2850264311 -0.1271997690 0.5655936599 4290023445
-0.2846395969 -0.1263995767 0.5648260117 4289891859
-0.2846937478 -0.1257959306 0.5649334788 4289760273
-0.2847476602 -0.1251919568 0.5650404692 4289562894
-0.2843597829 -0.1243944764 0.5642707944 4289431308
-0.2844131589 -0.1237907559 0.5643766522 4289496587
-0.2844662666 -0.1231866926 0.5644820333 4289759759
-0.2845191360 -0.1225822940 0.5645869970 4290154515
-0.2845717669 -0.1219775602 0.5646914244 4290417687
-0.2846241593 -0.1213724837 0.5647953749 4290484250
-0.2846763134 -0.1207670793 0.5648988485 4290747422
-0.2847281992 -0.1201613396 0.5650018454 4290813726
-0.2843376696 -0.1193696335 0.5642268658 4290879519
-0.2839467227 -0.1185794696 0.5634511113 4291011103
-0.2835553885 -0.1177908704 0.5626745820 4291340068
-0.2831636369 -0.1170038283 0.5618972182 4291275043
-0.2827714980 -0.1162183508 0.5611190200 4291472422
-0.2823789418 -0.1154344380 0.5603401065 4291604521
-0.2819859982 -0.1146520972 0.5595603585 4291538728
-0.2815926671 -0.1138713211 0.5587798357 4291604521
-0.2811989188 -0.1130921245 0.5579984784 4291670314
-0.2812477052 -0.1124916598 0.5580952764 4291736109
-0.2812962234 -0.1118908748 0.5581915975 4291736109
-0.2809014618 -0.1111145318 0.5574082136 4291867443
-0.2809494436 -0.1105140746 0.5575034022 4292262201
-0.2809971571 -0.1099133193 0.5575981140 4292525120
-0.2810446322 -0.1093122587 0.5576923490 4292722499
-0.2815352380 -0.1088823527 0.5586658716 4292919880
-0.2820257246 -0.1084502563 0.5596392155 4293117259
-0.2820726335 -0.1078463867 0.5597322583 4293248843
-0.2821192741 -0.1072422192 0.5598248243 4293380429
-0.2821656764 -0.1066377461 0.5599169135 4293841492
-0.2826555669 -0.1061996967 0.5608890057 4294104664
-0.2827015519 -0.1055936813 0.5609802008 4293709906
-0.2831911445 -0.1051521897 0.5619517565 4293249355
-0.2836806476 -0.1047085002 0.5629231334 4292854597
-0.2841700315 -0.1042626053 0.5638942122 4292394046
-0.2851034105 -0.1039764807 0.5657463670 4292525120
-0.2855926454 -0.1035252362 0.5667172074 4292459327
-0.2860817611 -0.1030718014 0.5676878095 4292590663
-0.2870150805 -0.1027752608 0.5695397854 4292788042
-0.2875040472 -0.1023164764 0.5705100894 4292657989
-0.2884373367 -0.1020126790 0.5723620653 4292526403
-0.2889261246 -0.1015485376 0.5733320117 4292460356
-0.2894147933 -0.1010822058 0.5743017197 4292526149
-0.2903479934 -0.1007679850 0.5761535168 4292919880
-0.2912811935 -0.1004496589 0.5780053139 4292788294
-0.2917696238 -0.0999748185 0.5789745450 4293051976
-0.2927027941 -0.0996492207 0.5808262229 4293578320
-0.2940808237 -0.0994699895 0.5835607648 4293186684
-0.2950140536 -0.0991352051 0.5854126215 4292923512
-0.2963922918 -0.0989448726 0.5881475210 4293649879
-0.3163196743 -0.1596496105 0.6290770173 4290294177
-0.3146344125 -0.1581038237 0.6257254481 4291146852
-0.3111949563 -0.1556878686 0.6188852787 4291081059
-0.3055617809 -0.1521944553 0.6076823473 4291145811
-0.3008029163 -0.1491594911 0.5982182026 4291080018
-0.2973575294 -0.1467939764 0.5913662314 4290817361
-0.2947877645 -0.1448740065 0.5862556696 4290422603
-0.2930941880 -0.1433940679 0.5828875899 4290619192
-0.2918384969 -0.1421348751 0.5803903341 4290487606
-0.2910209894 -0.1410936713 0.5787644982 4290420783
-0.2902028561 -0.1400557905 0.5771374702 4290289197
-0.2893841267 -0.1390212327 0.5755092502 4290421034
-0.2885648310 -0.1379900128 0.5738798380 4290486827
-0.2877449095 -0.1369621158 0.5722492933 4290617376
-0.2873637974 -0.1361457556 0.5714913607 4290485790
-0.2874217629 -0.1355381161 0.5716066360 4290352924
-0.2870399356 -0.1347237974 0.5708472729 4290221338
-0.2866576612 -0.1339109838 0.5700870156 4290155545
-0.2862749994 -0.1330996603 0.5693259835 4290089752
-0.2858919203 -0.1322898269 0.5685641766 4290221338
-0.2859483659 -0.1316841096 0.5686764121 4290287131
-0.2855645418 -0.1308763623 0.5679131150 4290352410
-0.2851803005 -0.1300701201 0.5671489835 4290352410
-0.2852358520 -0.1294651926 0.5672594309 4290286617
-0.2848508954 -0.1286610514 0.5664938688 4290220824
-0.2849058807 -0.1280563474 0.5666032434 4290089238
-0.2845202088 -0.1272543073 0.5658361912 4289891859
-0.2841341197 -0.1264538020 0.5650683641 4289628687
-0.2841882110 -0.1258499324 0.5651759505 4289497101
-0.2842420936 -0.1252457052 0.5652830601 4289563148
-0.2842957079 -0.1246411502 0.5653896928 4289563148
-0.2839082479 -0.1238439456 0.5646191239 4289628171
-0.2839612961 -0.1232396439 0.5647246838 4289825550
-0.2840141356 -0.1226349995 0.5648297071 4290088722
-0.2840667069 -0.1220300272 0.5649343133 4290351894
-0.2841190696 -0.1214247122 0.5650383830 4290484250
-0.2841711640 -0.1208190694 0.5651420355 4290681629
-0.2842230201 -0.1202130839 0.5652451515 4290747679
-0.2838332057 -0.1194210500 0.5644699335 4290879265
-0.2834430039 -0.1186305732 0.5636939406 4290945312
-0.2830524147 -0.1178416461 0.5629171133 4291274277
-0.2826614082 -0.1170542836 0.5621395111 4291143459
-0.2822699845 -0.1162684858 0.5613610744 4291340838
-0.2818782032 -0.1154842526 0.5605819225 4291472935
-0.2814859748 -0.1147015914 0.5598019361 4291407142
-0.2810933888 -0.1139204949 0.5590211153 4291538728
-0.2811424434 -0.1133191586 0.5591186881 4291670314
-0.2807491124 -0.1125402674 0.5583364964 4291604521
-0.2807976007 -0.1119392514 0.5584328771 4291538728
-0.2808458507 -0.1113379151 0.5585288405 4291604269
-0.2808938622 -0.1107362732 0.5586243272 4291999027
-0.2809416056 -0.1101343259 0.5587192774 4292393789
-0.2809891105 -0.1095320657 0.5588137507 4292656961
-0.2814789712 -0.1091010496 0.5597879291 4292788292
-0.2815260589 -0.1084972322 0.5598816276 4292854085
-0.2820156515 -0.1080627590 0.5608552694 4293051979
-0.2820623219 -0.1074573919 0.5609480739 4293249358
-0.2821087539 -0.1068517268 0.5610404015 4293578321
-0.2821549475 -0.1062457636 0.5611322522 4293644114
-0.2826438844 -0.1058053374 0.5621047020 4293446735
-0.2826896608 -0.1051978320 0.5621956587 4293183563
-0.2831783295 -0.1047539636 0.5631675124 4292854598
-0.2836668789 -0.1043078899 0.5641391277 4292459840
-0.2841553390 -0.1038596258 0.5651105642 4292525122
-0.2850870490 -0.1035702303 0.5669634938 4292459329
-0.2855753601 -0.1031166092 0.5679345727 4292524870
-0.2865070403 -0.1028199568 0.5697875023 4292656456
-0.2869951725 -0.1023609862 0.5707582831 4292591426
-0.2879268527 -0.1020570695 0.5726110935 4292459840
-0.2884148359 -0.1015927419 0.5735815763 4292460610
-0.2893464565 -0.1012815535 0.5754343271 4292723782
-0.2902781069 -0.1009662598 0.5772871375 4293183052
-0.2912097573 -0.1006468460 0.5791399479 4292985673
-0.2916974425 -0.1001708508 0.5801098347 4293118286
-0.2926290333 -0.0998441651 0.5819625258 4293578837
-0.2935606539 -0.0995133668 0.5838152170 4293056132
-0.2949364185 -0.0993280411 0.5865513086 4293187718
-0.3153173923 -0.1594960541 0.6284719110 4290359203
-0.3140725493 -0.1581708491 0.6259907484 4291211881
-0.3110767901 -0.1559732705 0.6200197935 4291080295
-0.3058914244 -0.1526959389 0.6096846461 4291145813
-0.3007036150 -0.1494403481 0.5993445516 4291211606
-0.2972645164 -0.1470729113 0.5924899578 4290883921
-0.2946994901 -0.1451512426 0.5873774886 4290357577
-0.2930090725 -0.1436697692 0.5840082765 4290619451
-0.2917557657 -0.1424091458 0.5815103054 4290619451
-0.2905016840 -0.1411536932 0.5790107250 4290553141
-0.2896850705 -0.1401153952 0.5773831010 4290355762
-0.2897445560 -0.1395025104 0.5775016546 4290421805
-0.2889269292 -0.1384690106 0.5758720040 4290356012
-0.2881087065 -0.1374388635 0.5742411613 4290421027
-0.2872898877 -0.1364120543 0.5726091862 4290486820
-0.2869091928 -0.1355959177 0.5718503594 4290550303
-0.2865280807 -0.1347812712 0.5710907578 4290418717
-0.2861465514 -0.1339681298 0.5703303218 4290352923
-0.2862035930 -0.1333610266 0.5704439878 4290287130
-0.2853822708 -0.1323463321 0.5688070059 4290352923
-0.2854386568 -0.1317403764 0.5689193606 4290352923
-0.2850555778 -0.1309323013 0.5681558251 4290418203
-0.2851113975 -0.1303265542 0.5682671070 4290352410
-0.2847275734 -0.1295205802 0.5675020814 4290286617
-0.2847828269 -0.1289150566 0.5676122308 4290220824
-0.2843982875 -0.1281111687 0.5668457747 4290155031
-0.2840133309 -0.1273088157 0.5660785437 4289891859
-0.2840677202 -0.1267041117 0.5661869049 4289628941
-0.2836820185 -0.1259038597 0.5654181838 4289497355
-0.2837358415 -0.1252994090 0.5655254722 4289563148
-0.2837894261 -0.1246946156 0.5656322241 4289628941
-0.2838427722 -0.1240894720 0.5657385588 4289825548
-0.2834556997 -0.1232925430 0.5649670959 4290088720
-0.2835084796 -0.1226876602 0.5650722980 4290286871
-0.2835610211 -0.1220824420 0.5651769638 4290550043
-0.2836133242 -0.1214768887 0.5652812123 4290747422
-0.2836653590 -0.1208710074 0.5653849840 4290813215
-0.2832766175 -0.1200780347 0.5646101236 4290813474
-0.2833281159 -0.1194724292 0.5647127628 4291010853
-0.2829386592 -0.1186816245 0.5639365315 4290945058
-0.2825487852 -0.1178923771 0.5631594658 4291208230
-0.2821585238 -0.1171046942 0.5623816252 4291143461
-0.2817678452 -0.1163185760 0.5616029501 4291209254
-0.2818178236 -0.1157151088 0.5617025495 4291406629
-0.2814264297 -0.1149311811 0.5609224439 4291406629
-0.2810346484 -0.1141488254 0.5601415634 4291407141
-0.2806424499 -0.1133680418 0.5593599081 4291604520
-0.2806912363 -0.1127661467 0.5594570637 4291341349
-0.2802983224 -0.1119875759 0.5586739779 4291407142
-0.2803465426 -0.1113860011 0.5587700605 4291604523
-0.2803944945 -0.1107841134 0.5588656664 4291867695
-0.2808838487 -0.1103554368 0.5598409772 4292130617
-0.2809313834 -0.1097519845 0.5599357486 4292262203
-0.2814204693 -0.1093198434 0.5609105825 4292262463
-0.2814676166 -0.1087148413 0.5610045195 4292459842
-0.2815144956 -0.1081095263 0.5610979795 4292920139
-0.2815611362 -0.1075039133 0.5611909032 4293051725
-0.2816075087 -0.1068979949 0.5612833500 4293314638
-0.2820958197 -0.1064586490 0.5622566342 4293248845
-0.2821417749 -0.1058511883 0.5623482466 4293117772
-0.2821874917 -0.1052434295 0.5624393821 4293117772
-0.2826753259 -0.1047993824 0.5634117126 4292854600
-0.2831630707 -0.1043531299 0.5643838048 4292525635
-0.2836506963 -0.1039046869 0.5653557181 4292328256
-0.2845807970 -0.1036151797 0.5672095418 4292328256
-0.2850682735 -0.1031613797 0.5681811571 4292525122
-0.2859983444 -0.1028646082 0.5700349212 4292590915
-0.2864856720 -0.1024054512 0.5710062385 4292525373
-0.2874157131 -0.1021014154 0.5728599429 4292459580
-0.2883457839 -0.1017932668 0.5747137070 4292723011
-0.2888328731 -0.1013255939 0.5756845474 4293117769
-0.2902059555 -0.1011646241 0.5784212947 4293248845
-0.2906929553 -0.1006906331 0.5793919563 4293051466
-0.2916229963 -0.1003669798 0.5812456608 4293250136
-0.2925530374 -0.1000392064 0.5830993652 4293710687
-0.2934831083 -0.0997073203 0.5849530697 4292925070
-0.2948565483 -0.0995209590 0.5876905322 4293451414
-0.3126366735 -0.1577970386 0.6245113611 4291146611
-0.3105196357 -0.1560393274 0.6202824116 4290949232
-0.3062172830 -0.1531977206 0.6116881967 4291014488
-0.3014758825 -0.1501565427 0.6022169590 4291146074
-0.2980432808 -0.1477853805 0.5953601599 4290884432
-0.2950460613 -0.1456443667 0.5893729925 4290292295
-0.2933589220 -0.1441604346 0.5860028267 4290751039
-0.2921080887 -0.1428974569 0.5835042000 4290751039
-0.2908564806 -0.1416396350 0.5810040832 4290815031
-0.2900415659 -0.1405990720 0.5793762207 4290617652
-0.2892260551 -0.1395618170 0.5777471662 4290618156
-0.2884099483 -0.1385279149 0.5761169195 4290552363
-0.2875932455 -0.1374973357 0.5744855404 4290486568
-0.2872137725 -0.1366784722 0.5737274885 4290552361
-0.2868338823 -0.1358610839 0.5729686618 4290550817
-0.2860156000 -0.1348387003 0.5713340640 4290485024
-0.2856347859 -0.1340252310 0.5705733895 4290550303
-0.2856917679 -0.1334178895 0.5706871748 4290484510
-0.2853102386 -0.1326064765 0.5699250698 4290484510
-0.2849282920 -0.1317965835 0.5691621304 4290484510
-0.2845459580 -0.1309881955 0.5683983564 4290418716
-0.2846017182 -0.1303822100 0.5685097575 4290352923
-0.2846572399 -0.1297758669 0.5686206818 4290287130
-0.2842738330 -0.1289701462 0.5678548217 4290155544
-0.2838900387 -0.1281659454 0.5670881271 4290220824
-0.2835057974 -0.1273632646 0.5663206577 4290023445
-0.2835601270 -0.1267583221 0.5664291382 4289760273
-0.2836142182 -0.1261530370 0.5665372014 4289628687
-0.2832289636 -0.1253530681 0.5657675862 4289694480
-0.2832824886 -0.1247480214 0.5658745170 4289694480
-0.2833357751 -0.1241426468 0.5659809709 4289760523
-0.2833888233 -0.1235369220 0.5660869479 4289892109
-0.2830021679 -0.1227402762 0.5653145909 4290418455
-0.2830546796 -0.1221348196 0.5654194355 4290813213
-0.2831069231 -0.1215290204 0.5655238032 4290944547
-0.2831589282 -0.1209228933 0.5656276941 4290944547
-0.2832106948 -0.1203164309 0.5657311082 4290945060
-0.2828223705 -0.1195237562 0.5649554133 4291010853
-0.2828735709 -0.1189175695 0.5650576353 4291010853
-0.2824845016 -0.1181270629 0.5642805099 4291142439
-0.2820950747 -0.1173381135 0.5635025501 4291209254
-0.2817052007 -0.1165507287 0.5627238154 4291275047
-0.2813149691 -0.1157649159 0.5619443059 4291275043
-0.2809243202 -0.1149806678 0.5611639619 4291340836
-0.2805332839 -0.1141979918 0.5603827834 4291341091
-0.2805823088 -0.1135952175 0.5604807734 4291406884
-0.2801905572 -0.1128147468 0.5596982241 4291341349
-0.2802390456 -0.1122122929 0.5597950220 4291407142
-0.2802872658 -0.1116095260 0.5598914027 4291669801
-0.2803352475 -0.1110064462 0.5599872470 4291867180
-0.2808238566 -0.1105766520 0.5609632730 4291998770
-0.2808714211 -0.1099720076 0.5610582829 4292064563
-0.2809187472 -0.1093670577 0.5611528158 4292130362
-0.2809658349 -0.1087618023 0.5612468719 4292327741
-0.2810126841 -0.1081562489 0.5613404512 4292656710
-0.2815004885 -0.1077192277 0.5623148680 4292919882
-0.2815469205 -0.1071121097 0.5624076128 4293051468
-0.2815930843 -0.1065047011 0.5624998212 4292985675
-0.2820804417 -0.1060629711 0.5634734035 4292985673
-0.2821262181 -0.1054540128 0.5635647774 4293117259
-0.2821716964 -0.1048447564 0.5636556745 4292854600
-0.2826586068 -0.1043983325 0.5646283031 4292525635
-0.2831453979 -0.1039497033 0.5656006932 4292197184
-0.2840738893 -0.1036600918 0.5674554110 4292197184
-0.2845605314 -0.1032061055 0.5684275031 4292525375
-0.2854889929 -0.1029092222 0.5702821612 4292591168
-0.2859754860 -0.1024498791 0.5712539554 4292591166
-0.2869039178 -0.1021457240 0.5731085539 4292591166
-0.2882744968 -0.1019938886 0.5758463740 4292854598
-0.2892030478 -0.1016805395 0.5777012110 4293315149
-0.2901315987 -0.1013630778 0.5795560479 4293249106
-0.2906177938 -0.1008879393 0.5805272460 4293183313
-0.2911038995 -0.1004106030 0.5814982653 4293184871
-0.2920323312 -0.1000827029 0.5833528638 4293645422
-0.2934032977 -0.0999013558 0.5860914588 4292924829
-0.2943317890 -0.0995642543 0.5879462361 4293911724
-0.3116390705 -0.1576432735 0.6239027977 4291212671
-0.3095257878 -0.1558857709 0.6196720004 4290883706
-0.3061032295 -0.1534811854 0.6128199697 4290752092
-0.3018066287 -0.1506555378 0.6042182446 4290949471
-0.2983804345 -0.1482815295 0.5973589420 4291016531
-0.2953888476 -0.1461377889 0.5913697481 4290292808
-0.2937049568 -0.1446514130 0.5879986286 4290947905
-0.2920201123 -0.1431720555 0.5846255422 4290816319
-0.2907708883 -0.1419128031 0.5821245909 4290945847
-0.2899575830 -0.1408708841 0.5804963112 4290748468
-0.2891436517 -0.1398323029 0.5788668990 4290748970
-0.2883291543 -0.1387970448 0.5772362351 4290748970
-0.2875140607 -0.1377651393 0.5756043792 4290748713
-0.2866983712 -0.1367365718 0.5739713907 4290814506
-0.2863192260 -0.1359188557 0.5732123256 4290748196
-0.2859396636 -0.1351026446 0.5724524260 4290682403
-0.2855596840 -0.1342879087 0.5716917515 4290616610
-0.2851792872 -0.1334746927 0.5709301829 4290550817
-0.2847985029 -0.1326629668 0.5701678395 4290616610
-0.2844173014 -0.1318527460 0.5694046617 4290616610
-0.2840356827 -0.1310440302 0.5686406493 4290616096
-0.2840913832 -0.1304378062 0.5687521696 4290550303
-0.2841468751 -0.1298312396 0.5688632727 4290287130
-0.2837641835 -0.1290251911 0.5680971742 4290221337
-0.2833811045 -0.1282206625 0.5673302412 4290286617
-0.2834357023 -0.1276149005 0.5674395561 4290089238
-0.2830519080 -0.1268124878 0.5666711926 4289826066
-0.2831059396 -0.1262069643 0.5667793155 4289760273
-0.2831597328 -0.1256010979 0.5668870211 4289826066
-0.2832133174 -0.1249948740 0.5669942498 4289826066
-0.2832666337 -0.1243883222 0.5671010017 4289497351
-0.2828811407 -0.1235898063 0.5663292408 4289563144
-0.2829338908 -0.1229835078 0.5664348602 4290089490
-0.2829864025 -0.1223768741 0.5665400028 4290681627
-0.2830386758 -0.1217698976 0.5666446686 4290878754
-0.2826518118 -0.1209747344 0.5658701658 4290878754
-0.2822645605 -0.1201811284 0.5650948882 4290945061
-0.2823159397 -0.1195750311 0.5651977658 4290945061
-0.2819279730 -0.1187835857 0.5644209981 4291010853
-0.2815395892 -0.1179937050 0.5636434555 4291076646
-0.2811507881 -0.1172053814 0.5628651381 4291340586
-0.2812009752 -0.1166008040 0.5629655719 4291340586
-0.2808114886 -0.1158146709 0.5621858239 4291209250
-0.2808611095 -0.1152103990 0.5622851849 4291275043
-0.2804708779 -0.1144264564 0.5615039468 4291143712
-0.2805199623 -0.1138224974 0.5616021752 4291209505
-0.2801290154 -0.1130407602 0.5608195066 4291144223
-0.2801775038 -0.1124371141 0.5609166026 4291210016
-0.2797858715 -0.1116575971 0.5601325035 4291406882
-0.2802737951 -0.1112288907 0.5611093640 4291670054
-0.2803215683 -0.1106243059 0.5612050295 4291867180
-0.2803691030 -0.1100194231 0.5613001585 4291932973
-0.2804163992 -0.1094142273 0.5613948703 4291867445
-0.2804634273 -0.1088087261 0.5614890456 4291999031
-0.2805102170 -0.1082029268 0.5615826845 4292393536
-0.2809972167 -0.1077657267 0.5625576377 4292722501
-0.2810435891 -0.1071583703 0.5626505017 4293050953
-0.2810897231 -0.1065507084 0.5627428293 4292919367
-0.2811355889 -0.1059427559 0.5628346801 4292919365
-0.2816219628 -0.1054996029 0.5638083816 4293050951
-0.2816674113 -0.1048901007 0.5638993979 4292854085
-0.2821534872 -0.1044434905 0.5648725033 4292525120
-0.2826394439 -0.1039946824 0.5658454299 4292131904
-0.2831253111 -0.1035436764 0.5668181181 4292131904
-0.2840521336 -0.1032507941 0.5686736107 4292394298
-0.2849789560 -0.1029537916 0.5705291629 4292525884
-0.2859058380 -0.1026526764 0.5723847151 4292591166
-0.2872740030 -0.1025049090 0.5751237869 4292722752
-0.2882009745 -0.1021945998 0.5769795775 4293051725
-0.2891279459 -0.1018801779 0.5788354278 4293446483
-0.2900549471 -0.1015616357 0.5806912780 4293315416
-0.2905403972 -0.1010853425 0.5816631317 4293249623
-0.2910257280 -0.1006068513 0.5826348066 4293250419
-0.2919526100 -0.1002778634 0.5844904184 4293710970
-0.2933212221 -0.1000954956 0.5872303843 4292859563
-0.2942481935 -0.0997572914 0.5890861750 4294175423
-0.3106423318 -0.1574892700 0.6232932210 4290885510
-0.3089680076 -0.1559516191 0.6199337840 4290490752
-0.3059869111 -0.1537647694 0.6139522791 4290751316
-0.3021335602 -0.1511548311 0.6062206626 4291014488
-0.2987137735 -0.1487780064 0.5993589759 4291276880
-0.2957277894 -0.1466315240 0.5933677554 4290882122
-0.2936115563 -0.1449276656 0.5891215801 4291013189
-0.2919298708 -0.1434467882 0.5857473612 4290750017
-0.2906830609 -0.1421861053 0.5832456350 4291077425
-0.2898713350 -0.1411428452 0.5816169977 4291011632
-0.2886230648 -0.1398915946 0.5791122913 4290814244
-0.2878100574 -0.1388559192 0.5774810910 4290814244
-0.2869964838 -0.1378235966 0.5758486390 4290880297
-0.2866185606 -0.1370031387 0.5750903487 4290880297
-0.2858038843 -0.1359765828 0.5734557509 4291011372
-0.2854250669 -0.1351600289 0.5726956725 4291011372
-0.2850458026 -0.1343449950 0.5719347000 4291010602
-0.2846661508 -0.1335314363 0.5711729527 4290879016
-0.2842861116 -0.1327193975 0.5704103708 4290813221
-0.2843424082 -0.1321117878 0.5705233216 4290813221
-0.2839615941 -0.1313018203 0.5697593093 4290682405
-0.2835803926 -0.1304933578 0.5689944029 4290616612
-0.2836358249 -0.1298865527 0.5691056252 4290484510
-0.2832539082 -0.1290801764 0.5683392882 4290418717
-0.2833087742 -0.1284735948 0.5684493780 4290287131
-0.2829261124 -0.1276693344 0.5676815510 4290155545
-0.2829804122 -0.1270629764 0.5677905083 4290155031
-0.2825970054 -0.1262608320 0.5670212507 4290089238
-0.2826507688 -0.1256547272 0.5671291351 4289760786
-0.2827042639 -0.1250482649 0.5672364831 4289497614
-0.2827575505 -0.1244414747 0.5673433542 4289628173
-0.2828105688 -0.1238343343 0.5674497485 4289496587
-0.2824254930 -0.1230361015 0.5666770935 4289562630
-0.2824779749 -0.1224292293 0.5667824149 4290023181
-0.2825301886 -0.1218220070 0.5668871999 4290418203
-0.2821440697 -0.1210265309 0.5661124587 4290747168
-0.2817575336 -0.1202325970 0.5653368831 4290813724
-0.2813706100 -0.1194402203 0.5645605326 4290747931
-0.2814216316 -0.1188345030 0.5646629333 4291405863
-0.2810339928 -0.1180442944 0.5638851523 4291076898
-0.2806459665 -0.1172556505 0.5631065369 4291405612
-0.2806960940 -0.1166508347 0.5632071495 4291405612
-0.2803073227 -0.1158643812 0.5624271035 4291208482
-0.2803569138 -0.1152598634 0.5625265837 4291208482
-0.2799674273 -0.1144756079 0.5617451072 4291142186
-0.2800164521 -0.1138714030 0.5618434548 4291010600
-0.2800652385 -0.1132668778 0.5619413257 4291404580
-0.2801137865 -0.1126620471 0.5620387197 4291536166
-0.2801620662 -0.1120568961 0.5621356368 4291537195
-0.2802101076 -0.1114514321 0.5622320175 4291931953
-0.2802579105 -0.1108456627 0.5623279810 4291998768
-0.2803054750 -0.1102395803 0.5624234080 4291867182
-0.2803528011 -0.1096331924 0.5625183582 4292196400
-0.2803998590 -0.1090264991 0.5626127720 4292064814
-0.2804467082 -0.1084194928 0.5627067089 4292065072
-0.2804932892 -0.1078121886 0.5628001690 4292459830
-0.2805396020 -0.1072045863 0.5628931522 4292460609
-0.2810254991 -0.1067637578 0.5638680458 4292592195
-0.2810713947 -0.1061545983 0.5639601946 4292855116
-0.2811170518 -0.1055451483 0.5640518069 4292855116
-0.2816024721 -0.1050996110 0.5650257468 4292788296
-0.2816477120 -0.1044886112 0.5651165247 4292656710
-0.2821328342 -0.1040396243 0.5660899282 4292459327
-0.2830580771 -0.1037497818 0.5679463744 4292393534
-0.2835430801 -0.1032954380 0.5689194798 4292590655
-0.2844682932 -0.1029983237 0.5707759261 4292459069
-0.2853935361 -0.1026970893 0.5726323724 4292459331
-0.2867592871 -0.1025492698 0.5753726959 4292985675
-0.2876846194 -0.1022388414 0.5772293806 4292986961
-0.2886099815 -0.1019243002 0.5790861249 4293118547
-0.2899760604 -0.1017602831 0.5818270445 4292527699
-0.2904607356 -0.1012828350 0.5827995539 4292790871
-0.2909452915 -0.1008031890 0.5837718248 4292989567
-0.2918706238 -0.1004731134 0.5856284499 4293384325
-0.2927959561 -0.1001389027 0.5874850750 4292794809
-0.2941623032 -0.0999504253 0.5902265906 4294242255
-0.3096464574 -0.1573349983 0.6226826906 4290885257
-0.3084095120 -0.1560174078 0.6201952696 4290556292
-0.3058683276 -0.1540484726 0.6150850654 4290949214
-0.3028912246 -0.1518723220 0.6090982556 4290817628
-0.2990432680 -0.1492747813 0.6013602614 4290948687
-0.2960629165 -0.1471255720 0.5953669548 4290882894
-0.2939507365 -0.1454191655 0.5911194682 4291078980
-0.2922723591 -0.1439358294 0.5877442956 4290750015
-0.2905929983 -0.1424595118 0.5843671560 4291012144
-0.2897828817 -0.1414149106 0.5827381015 4290880558
-0.2889721990 -0.1403736323 0.5811078548 4290748196
-0.2881608903 -0.1393356919 0.5794763565 4290813989
-0.2869136333 -0.1380915493 0.5769681931 4290946092
-0.2861010730 -0.1370612234 0.5753341913 4290880299
-0.2857234776 -0.1362419277 0.5745748281 4291011372
-0.2849098146 -0.1352173835 0.5729386210 4291011372
-0.2854027450 -0.1348136514 0.5739299059 4291010602
-0.2845881879 -0.1337930262 0.5722918510 4290813223
-0.2842089534 -0.1329797208 0.5715292096 4290879014
-0.2838293016 -0.1321679205 0.5707657933 4290879014
-0.2834492326 -0.1313576400 0.5700014830 4290682405
-0.2835049331 -0.1307500154 0.5701134801 4290682405
-0.2831241488 -0.1299418062 0.5693477392 4290616096
-0.2831792831 -0.1293344051 0.5694586039 4290550303
-0.2827977538 -0.1285282969 0.5686913729 4290484510
-0.2828523219 -0.1279211193 0.5688011646 4290352924
-0.2824700773 -0.1271171272 0.5680324435 4290221338
-0.2825241089 -0.1265101880 0.5681411028 4290089752
-0.2825778723 -0.1259029061 0.5682492256 4289892372
-0.2826314270 -0.1252952665 0.5683569312 4289694993
-0.2826847136 -0.1246872991 0.5684641004 4289628939
-0.2823008001 -0.1238872036 0.5676920414 4289431560
-0.2823535204 -0.1232794821 0.5677980781 4289299456
-0.2819688618 -0.1224815324 0.5670245290 4289299456
-0.2820210457 -0.1218740717 0.5671294928 4289562894
-0.2816356719 -0.1210782751 0.5663545132 4290089238
-0.2812498808 -0.1202840209 0.5655786991 4290616345
-0.2808637023 -0.1194913238 0.5648021102 4291142689
-0.2804771066 -0.1187001839 0.5640246868 4291143461
-0.2805277705 -0.1180948392 0.5641265512 4291143461
-0.2801404595 -0.1173058748 0.5633476973 4290813475
-0.2801905572 -0.1167008206 0.5634484887 4290287131
-0.2802404165 -0.1160954386 0.5635487437 4290090773
-0.2798520923 -0.1153092906 0.5627678037 4289893394
-0.2799013853 -0.1147042140 0.5628669262 4289695510
-0.2795123160 -0.1139202639 0.5620845556 4290156061
-0.2799992263 -0.1134931073 0.5630636811 4290813213
-0.2796095312 -0.1127104163 0.5622800589 4291142178
-0.2796577811 -0.1121050268 0.5623770952 4291077668
-0.2797057927 -0.1114993244 0.5624735951 4291406633
-0.2797535658 -0.1108933091 0.5625696778 4291669805
-0.2798010707 -0.1102869809 0.5626652241 4291604012
-0.2798483372 -0.1096803471 0.5627602935 4291735594
-0.2798953652 -0.1090734079 0.5628548265 4291867180
-0.2799421549 -0.1084661558 0.5629489422 4291801902
-0.2799886763 -0.1078586057 0.5630425215 4292196660
-0.2800349891 -0.1072507575 0.5631355643 4292460093
-0.2805200219 -0.1068097576 0.5641109943 4292657472
-0.2805658877 -0.1062003523 0.5642032027 4292789321
-0.2810506523 -0.1057558879 0.5651780367 4292789321
-0.2810961008 -0.1051449329 0.5652694106 4292722760
-0.2815805674 -0.1046970189 0.5662437081 4292525381
-0.2820649445 -0.1042468995 0.5672177076 4292394046
-0.2825492024 -0.1037945673 0.5681915283 4292591425
-0.2834728360 -0.1035005003 0.5700489283 4292722752
-0.2843964994 -0.1032023206 0.5719063878 4292591166
-0.2848805487 -0.1027414650 0.5728797913 4292656969
-0.2862438858 -0.1025935933 0.5756213665 4292985934
-0.2871676087 -0.1022830456 0.5774789453 4292986710
-0.2885311842 -0.1021240503 0.5802209973 4293118296
-0.2898949087 -0.1019590199 0.5829634070 4292593241
-0.2903788388 -0.1014804244 0.5839365125 4292987999
-0.2908626199 -0.1009996235 0.5849093795 4292858500
-0.2917863727 -0.1006684527 0.5867670774 4293384844
-0.2927101552 -0.1003331542 0.5886247158 4293255620
-0.3086514473 -0.1571804881 0.6220712066 4290557069
-0.3074167073 -0.1558632851 0.6195825934 4290162311
-0.3057474494 -0.1543322951 0.6162183285 4290883942
-0.3032096624 -0.1523723304 0.6111035943 4290620770
-0.2993689477 -0.1497718543 0.6033627391 4290816846
-0.2963942289 -0.1476199180 0.5973674059 4290948432
-0.2942861021 -0.1459109634 0.5931186080 4291079493
-0.2921768427 -0.1442108899 0.5888674855 4290750528
-0.2909348905 -0.1429464072 0.5863643885 4290881073
-0.2896921635 -0.1416870952 0.5838597417 4290683694
-0.2884486616 -0.1404329836 0.5813535452 4290617125
-0.2880733907 -0.1396051943 0.5805972219 4290748711
-0.2868285477 -0.1383596212 0.5780882239 4291011631
-0.2860175669 -0.1373279542 0.5764538050 4290880045
-0.2856408060 -0.1365074068 0.5756944418 4291011370
-0.2852635980 -0.1356883496 0.5749341846 4291011370
-0.2844510674 -0.1346648782 0.5732965469 4291010600
-0.2845079899 -0.1340547353 0.5734112859 4290813221
-0.2841295898 -0.1332401782 0.5726486444 4290879014
-0.2837507427 -0.1324271262 0.5718851089 4290879014
-0.2833715081 -0.1316155791 0.5711207390 4290682405
-0.2829918563 -0.1308055371 0.5703555942 4290748198
-0.2830472589 -0.1301973164 0.5704672933 4290747682
-0.2826668918 -0.1293893754 0.5697006583 4290616096
-0.2827217281 -0.1287813783 0.5698111653 4290616096
-0.2823406160 -0.1279755384 0.5690430999 4290616096
-0.2823949158 -0.1273677647 0.5691524744 4290352924
-0.2820130885 -0.1265640408 0.5683829188 4290221338
-0.2820668221 -0.1259565204 0.5684912205 4290089752
-0.2821202874 -0.1253486425 0.5685990453 4289958166
-0.2821735442 -0.1247404367 0.5687063336 4290023697
-0.2822265625 -0.1241318733 0.5688132048 4289826318
-0.2818430364 -0.1233320609 0.5680402517 4289497351
-0.2818954885 -0.1227237582 0.5681459308 4289299972
-0.2815112472 -0.1219260916 0.5673715472 4289365515
-0.2811266184 -0.1211299673 0.5665962696 4289628687
-0.2807415724 -0.1203353927 0.5658202767 4289958417
-0.2803561091 -0.1195423752 0.5650433898 4290484761
-0.2804070413 -0.1189361736 0.5651460886 4290682658
-0.2800208926 -0.1181453317 0.5643677711 4290222107
-0.2800712585 -0.1175394133 0.5644692779 4289235221
-0.2796843648 -0.1167507544 0.5636895299 4288379912
-0.2797341943 -0.1161451340 0.5637899637 4287919874
-0.2797837555 -0.1155391932 0.5638898611 4287656704
-0.2793958485 -0.1147533432 0.5631080270 4287524864
-0.2794448435 -0.1141477078 0.5632067919 4287853829
-0.2794936001 -0.1135417596 0.5633050799 4288840201
-0.2795421183 -0.1129354835 0.5634028316 4289827096
-0.2791528702 -0.1121531129 0.5626183152 4290419744
-0.2792008221 -0.1115471646 0.5627149940 4290814502
-0.2792485356 -0.1109409034 0.5628111362 4291209513
-0.2792960107 -0.1103343368 0.5629068017 4291406892
-0.2793432474 -0.1097274572 0.5630019903 4291538217
-0.2793902159 -0.1091202721 0.5630967021 4291801389
-0.2794369459 -0.1085127816 0.5631908774 4291736109
-0.2799215019 -0.1080741137 0.5641674995 4291999281
-0.2799678147 -0.1074650586 0.5642608404 4292262712
-0.2800138891 -0.1068557054 0.5643537045 4292591677
-0.2800597250 -0.1062460542 0.5644460320 4292789575
-0.2805436552 -0.1058014184 0.5654213428 4292921161
-0.2805890441 -0.1051902175 0.5655128956 4292854348
-0.2810727060 -0.1047421172 0.5664876103 4292591176
-0.2815562189 -0.1042918190 0.5674621463 4292394298
-0.2820396423 -0.1038393155 0.5684365034 4292723263
-0.2829616666 -0.1035451367 0.5702947378 4292591679
-0.2838836908 -0.1032468379 0.5721530914 4292525886
-0.2852446139 -0.1031030342 0.5748959184 4292722763
-0.2861667573 -0.1027955338 0.5767544508 4293051728
-0.2870889008 -0.1024839059 0.5786129832 4292855641
-0.2884501219 -0.1023239046 0.5813564658 4292855641
-0.2893723845 -0.1020030677 0.5832152367 4292527968
-0.2902946472 -0.1016781032 0.5850740075 4292988519
-0.2912169099 -0.1013490111 0.5869327784 4292661129
-0.2921391726 -0.1010157913 0.5887915492 4293384852
-0.2930614650 -0.1006784365 0.5906503797 4293781968
-0.3067919016 -0.1565840095 0.6197105646 4290623383
-0.3064247668 -0.1557089239 0.6189689636 4289899660
-0.3047585189 -0.1541782469 0.6156032085 4290621035
-0.3026582897 -0.1524364650 0.6113608479 4290489449
-0.2996907532 -0.1502692401 0.6053665280 4290816848
-0.2971548736 -0.1483307928 0.6002441049 4290882641
-0.2946176529 -0.1464030743 0.5951189399 4291145027
-0.2925124466 -0.1447004527 0.5908665061 4290881855
-0.2912729979 -0.1434336007 0.5883628726 4290946868
-0.2895992100 -0.1419594139 0.5849819183 4290749489
-0.2887917459 -0.1409154534 0.5833507776 4290682666
-0.2875499725 -0.1396641582 0.5808424354 4290748459
-0.2867411971 -0.1386278123 0.5792087913 4290946092
-0.2859318554 -0.1375947893 0.5775739551 4290814506
-0.2851219177 -0.1365651339 0.5759378672 4291011370
-0.2847454846 -0.1357457638 0.5751774311 4291011370
-0.2843686044 -0.1349278837 0.5744162202 4290945577
-0.2839913368 -0.1341114938 0.5736541152 4290748198
-0.2840479612 -0.1335007399 0.5737684965 4290813221
-0.2836699486 -0.1326864362 0.5730049610 4290747428
-0.2832915485 -0.1318736374 0.5722405314 4290550819
-0.2829127014 -0.1310623288 0.5714753270 4290616612
-0.2825334668 -0.1302525550 0.5707092881 4290747682
-0.2825886011 -0.1296437383 0.5708206296 4290616096
-0.2826434672 -0.1290345639 0.5709314942 4290681889
-0.2822631896 -0.1282274723 0.5701633096 4290681889
-0.2823175192 -0.1276185364 0.5702730417 4290616096
-0.2819364965 -0.1268135458 0.5695034266 4290484510
-0.2819902599 -0.1262048334 0.5696120262 4290287131
-0.2820437849 -0.1255957931 0.5697200894 4290089752
-0.2820970714 -0.1249864027 0.5698277354 4290024728
-0.2817146778 -0.1241847202 0.5690553784 4289958935
-0.2817673981 -0.1235755831 0.5691618323 4289892370
-0.2813843191 -0.1227760464 0.5683879852 4289892370
-0.2814364731 -0.1221671700 0.5684933662 4289826580
-0.2810526490 -0.1213697866 0.5677180290 4289629201
-0.2806684375 -0.1205739453 0.5669419169 4289366543
-0.2802838087 -0.1197796687 0.5661650300 4289366543
-0.2798987925 -0.1189869419 0.5653873086 4289301265
-0.2799494267 -0.1183801666 0.5654895902 4288643335
-0.2795636952 -0.1175896227 0.5647103786 4287064578
-0.2796137631 -0.1169831380 0.5648115277 4286275072
-0.2796635926 -0.1163763329 0.5649122000 4285880064
-0.2792768180 -0.1155885980 0.5641309619 4285814272
-0.2797625363 -0.1151617467 0.5651121140 4285552129
-0.2793751359 -0.1143752635 0.5643295646 4285617922
-0.2794239223 -0.1137681231 0.5644280910 4286603776
-0.2790358067 -0.1129838452 0.5636441112 4287919636
-0.2790840268 -0.1123770177 0.5637415051 4289367068
-0.2786951959 -0.1115949601 0.5629560947 4290090791
-0.2787428796 -0.1109884605 0.5630523562 4290551585
-0.2787902951 -0.1103816405 0.5631482005 4291143722
-0.2788374722 -0.1097745225 0.5632435083 4291341351
-0.2788844109 -0.1091670915 0.5633382797 4291604523
-0.2789311111 -0.1085593551 0.5634326339 4291801902
-0.2794148326 -0.1081205159 0.5644096732 4291999281
-0.2794610858 -0.1075112149 0.5645031929 4292131124
-0.2795071304 -0.1069016159 0.5645961761 4292525882
-0.2795529068 -0.1062917188 0.5646886230 4292986953
-0.2800360024 -0.1058469042 0.5656644702 4293250125
-0.2800813615 -0.1052354574 0.5657560825 4292920909
-0.2805641592 -0.1047871783 0.5667313337 4292526151
-0.2810468674 -0.1043367013 0.5677063465 4292263228
-0.2819672823 -0.1040455773 0.5695655942 4292657986
-0.2824498415 -0.1035897210 0.5705403090 4292329024
-0.2838082016 -0.1034509540 0.5732842088 4292263231
-0.2851667702 -0.1033061519 0.5760284662 4292723279
-0.2860873342 -0.1029975712 0.5778880119 4292986451
-0.2874461114 -0.1028416380 0.5806326866 4292921434
-0.2883667946 -0.1025238484 0.5824924707 4292855641
-0.2892875075 -0.1022019237 0.5843521953 4292462437
-0.2902081907 -0.1018758714 0.5862119794 4292922988
-0.2911289036 -0.1015456915 0.5880718231 4292529810
-0.2920496166 -0.1012113765 0.5899316072 4293648291
-0.3050016761 -0.1553342789 0.6174797416 4290163353
-0.3042025566 -0.1542430371 0.6158618927 4290227568
-0.3021062315 -0.1525005549 0.6116178632 4290227568
-0.3000087440 -0.1507669240 0.6073714495 4290948947
-0.2974777222 -0.1488258392 0.6022473574 4290685775
-0.2949453592 -0.1468954682 0.5971205831 4291275841
-0.2928442061 -0.1451902986 0.5928667784 4291078462
-0.2916072607 -0.1439210922 0.5903625488 4291143479
-0.2899367809 -0.1424444467 0.5869806409 4290946100
-0.2886981666 -0.1411865354 0.5844730139 4290748459
-0.2874587774 -0.1399338245 0.5819638968 4290748459
-0.2866516411 -0.1388961226 0.5803298354 4290945575
-0.2858439088 -0.1378617585 0.5786945820 4290813989
-0.2850355804 -0.1368307620 0.5770581365 4290945577
-0.2846599519 -0.1360101253 0.5762976408 4290945577
-0.2838505507 -0.1349849105 0.5746589899 4290945577
-0.2839074433 -0.1343733519 0.5747742057 4290879784
-0.2835305929 -0.1335572153 0.5740112066 4290616612
-0.2835869193 -0.1329458654 0.5741252899 4290419233
-0.2832093239 -0.1321318001 0.5733608603 4290419233
-0.2828313410 -0.1313192546 0.5725955963 4290419233
-0.2824529111 -0.1305082142 0.5718294978 4290681889
-0.2820740938 -0.1296986938 0.5710625648 4290616096
-0.2821289301 -0.1290892810 0.5711735487 4290616096
-0.2821835279 -0.1284795254 0.5712840557 4290747682
-0.2818036377 -0.1276726872 0.5705150366 4290879268
-0.2818576694 -0.1270631552 0.5706244111 4290681889
-0.2814770937 -0.1262584329 0.5698539019 4290484510
-0.2815305591 -0.1256491542 0.5699621439 4290352924
-0.2815837860 -0.1250395179 0.5700699091 4290156574
-0.2816367745 -0.1244295388 0.5701771975 4289959195
-0.2812548280 -0.1236281395 0.5694038868 4290024473
-0.2813072503 -0.1230184212 0.5695100427 4290090266
-0.2809245586 -0.1222191676 0.5687353015 4290090268
-0.2805414796 -0.1214214563 0.5679597855 4289958682
-0.2801580131 -0.1206253022 0.5671834350 4289629717
-0.2797741294 -0.1198307052 0.5664062500 4289300752
-0.2793898582 -0.1190376580 0.5656282902 4288643337
-0.2794404626 -0.1184306443 0.5657306910 4287985408
-0.2794907987 -0.1178233027 0.5658326149 4285485568
-0.2791054845 -0.1170330569 0.5650525689 4284630272
-0.2791552842 -0.1164260060 0.5651533604 4284761869
-0.2796404064 -0.1159993187 0.5661355257 4285354006
-0.2792541385 -0.1152109429 0.5653535128 4285552415
-0.2793031931 -0.1146029234 0.5654528141 4286210345
-0.2789162099 -0.1138167530 0.5646693707 4285682708
-0.2789647281 -0.1132090464 0.5647675395 4285880087
-0.2785770297 -0.1124250889 0.5639826655 4287459600
-0.2781889141 -0.1116427109 0.5631969571 4289236011
-0.2782365382 -0.1110359654 0.5632933974 4290025498
-0.2782839239 -0.1104289070 0.5633893013 4290749221
-0.2787673175 -0.1099936739 0.5643679500 4291341349
-0.2788142860 -0.1093850508 0.5644630194 4291670314
-0.2788610160 -0.1087761149 0.5645576119 4291867182
-0.2789074779 -0.1081668735 0.5646517277 4292064561
-0.2789537013 -0.1075573266 0.5647453070 4292130613
-0.2794363201 -0.1071148515 0.5657223463 4292591164
-0.2794821262 -0.1065037474 0.5658150911 4293250125
-0.2799644470 -0.1060578078 0.5667915344 4293447504
-0.2800098360 -0.1054451540 0.5668834448 4292921422
-0.2804918885 -0.1049957424 0.5678592920 4292460871
-0.2809737921 -0.1045441255 0.5688350201 4292395076
-0.2818926573 -0.1042519286 0.5706952214 4292658248
-0.2823744416 -0.1037949398 0.5716705918 4292395078
-0.2837304771 -0.1036551669 0.5744159222 4292460871
-0.2846494019 -0.1033506021 0.5762763023 4292921171
-0.2860056758 -0.1031996980 0.5790221095 4293118550
-0.2869247198 -0.1028859168 0.5808826685 4292987227
-0.2882812321 -0.1027238816 0.5836289525 4292987227
-0.2892003357 -0.1024008691 0.5854897499 4292397161
-0.2901194692 -0.1020737365 0.5873505473 4292791919
-0.2910386324 -0.1017424613 0.5892113447 4292596896
-0.2919577658 -0.1014070511 0.5910721421 4294175928
-0.3032146096 -0.1540885717 0.6152451634 4290030715
-0.3019848764 -0.1527828425 0.6127499938 4289833336
-0.3003228605 -0.1512649208 0.6093776226 4290751316
-0.2982282937 -0.1495375931 0.6051275730 4290488144
-0.2961325645 -0.1478191465 0.6008751988 4291209789
-0.2936039269 -0.1458950192 0.5957443714 4291143996
-0.2919376791 -0.1444088817 0.5923634768 4291208757
-0.2902704775 -0.1429297924 0.5889805555 4291011378
-0.2886023223 -0.1414577514 0.5855957866 4290814253
-0.2877974808 -0.1404144317 0.5839626789 4290748460
-0.2865598202 -0.1391645521 0.5814513564 4290813989
-0.2857536972 -0.1381288469 0.5798156857 4290748196
-0.2849470079 -0.1370965093 0.5781788230 4290879784
-0.2841396928 -0.1360675097 0.5765407681 4290879784
-0.2837643921 -0.1352480501 0.5757792592 4291011370
-0.2833886743 -0.1344300956 0.5750168562 4290945577
-0.2834452987 -0.1338179410 0.5751317739 4290550819
-0.2830688357 -0.1330020428 0.5743678808 4290353440
-0.2831248939 -0.1323900968 0.5744816661 4290353440
-0.2827477157 -0.1315762848 0.5737163424 4290353440
-0.2823701203 -0.1307639778 0.5729501843 4290616096
-0.2819921374 -0.1299532056 0.5721831918 4290681889
-0.2816137373 -0.1291439384 0.5714153647 4290616610
-0.2816682756 -0.1285339445 0.5715260506 4290682403
-0.2812891304 -0.1277267784 0.5707567930 4290879782
-0.2813431025 -0.1271170229 0.5708662868 4290748196
-0.2813968360 -0.1265068948 0.5709753036 4290681889
-0.2814503610 -0.1258964390 0.5710838437 4290681889
-0.2815036178 -0.1252856255 0.5711919665 4290617123
-0.2811228037 -0.1244823635 0.5704192519 4290419744
-0.2811754942 -0.1238718033 0.5705261827 4290419746
-0.2807939649 -0.1230706871 0.5697520375 4290419746
-0.2808460891 -0.1224603876 0.5698578358 4290485026
-0.2804638445 -0.1216614172 0.5690822005 4290353440
-0.2800811827 -0.1208639964 0.5683057308 4290089752
-0.2796981335 -0.1200681329 0.5675284863 4289694994
-0.2788802981 -0.1190883294 0.5658690333 4288511747
-0.2789308131 -0.1184810698 0.5659715533 4287722240
-0.2789811194 -0.1178734899 0.5660736561 4285815040
-0.2794658244 -0.1174482405 0.5670571327 4285880833
-0.2790810168 -0.1166573465 0.5662763119 4285814832
-0.2791305780 -0.1160487831 0.5663769245 4286801727
-0.2791799307 -0.1154398993 0.5664770007 4287394894
-0.2787940800 -0.1146518290 0.5656940937 4287460687
-0.2788428664 -0.1140432507 0.5657930970 4286011954
-0.2784563005 -0.1132573858 0.5650086999 4284827680
-0.2785045207 -0.1126491204 0.5651065707 4285814788
-0.2781172395 -0.1118654832 0.5643207431 4288446508
-0.2777295709 -0.1110834256 0.5635341406 4289631510
-0.2777769268 -0.1104761288 0.5636302233 4290355233
-0.2782594562 -0.1100407243 0.5646093488 4291143969
-0.2783063948 -0.1094318479 0.5647045374 4291670313
-0.2783530653 -0.1088226736 0.5647992492 4291801389
-0.2783994973 -0.1082131863 0.5648934841 4292130354
-0.2788814306 -0.1077717915 0.5658713579 4292196406
-0.2789274454 -0.1071607471 0.5659646988 4292525371
-0.2794091105 -0.1067158803 0.5669420362 4293118539
-0.2798906565 -0.1062688008 0.5679191351 4293381711
-0.2799360752 -0.1056549475 0.5680112839 4292856143
-0.2804173529 -0.1052044034 0.5689878464 4292658764
-0.2808985114 -0.1047516465 0.5699641705 4292527438
-0.2822520435 -0.1046200842 0.5727105737 4292461645
