VERSION 0.7
FIELDS x y z rgba
SIZE 4 4 4 4
TYPE F F F U
COUNT 1 1 1 1
WIDTH 920
HEIGHT 1
VIEWPOINT 0.0 0.0 0.0 1.0 0.0 0.0 0.0
POINTS 920
DATA ascii
-0.3053499460 -0.1336204708 0.5557076335 4293512803
-0.3058811426 -0.1332344115 0.5566743612 4293447014
-0.3059408665 -0.1326418072 0.5567830205 4293315428
-0.3055288494 -0.1318453848 0.5560331941 4292460907
-0.3060595691 -0.1314555407 0.5569990873 4291408219
-0.3056468964 -0.1306602657 0.5562480092 4289832569
-0.3057055473 -0.1300671846 0.5563547611 4289766776
-0.3001400232 -0.1583641618 0.5473324060 4291998013
-0.3002096117 -0.1577926129 0.5474593043 4292130366
-0.3002789617 -0.1572206616 0.5475857854 4292130366
-0.3003481030 -0.1566483229 0.5477119088 4291934014
-0.3004170358 -0.1560755819 0.5478375554 4291868221
-0.3000191450 -0.1552609801 0.5471119881 4291934014
-0.3000875413 -0.1546883583 0.5472366810 4291999807
-0.3006224930 -0.1543550044 0.5482122302 4292000059
-0.3006905317 -0.1537806988 0.5483363271 4292131645
-0.3007583320 -0.1532060057 0.5484599471 4292328253
-0.3008259237 -0.1526309252 0.5485832095 4292459839
-0.3008933067 -0.1520554572 0.5487060547 4292591679
-0.3004931211 -0.1512443721 0.5479763150 4292723265
-0.3000924885 -0.1504347026 0.5472457409 4292723011
-0.3001589775 -0.1498598754 0.5473669767 4292723011
-0.3002252281 -0.1492846608 0.5474877954 4293050688
-0.2998235226 -0.1484774202 0.5467552543 4292984895
-0.2998892367 -0.1479023397 0.5468750596 4292853827
-0.2999547124 -0.1473268867 0.5469945073 4292985413
-0.3000199497 -0.1467510611 0.5471134782 4293182800
-0.3000849783 -0.1461748481 0.5472320318 4294103902
-0.3001497984 -0.1455982625 0.5473502278 4293907555
-0.3002143502 -0.1450213045 0.5474679470 4293578590
-0.3002786934 -0.1444439888 0.5475853086 4293710182
-0.3003427982 -0.1438662857 0.5477021933 4293775975
-0.3004066944 -0.1432882249 0.5478186607 4294960253
-0.3004703224 -0.1427097768 0.5479347706 4294961538
-0.3005337417 -0.1421309859 0.5480504036 4294631035
-0.3005969524 -0.1415518075 0.5481656194 4294894207
-0.3011289537 -0.1411922127 0.5491358042 4294499197
-0.3007226288 -0.1403923780 0.5483947992 4294961804
-0.3012543619 -0.1400302500 0.5493645072 4294964631
-0.3013167083 -0.1394487172 0.5494782329 4294700688
-0.3018482625 -0.1390831321 0.5504475236 4294698633
-0.3019102514 -0.1384999901 0.5505605936 4294040703
-0.3019720018 -0.1379164755 0.5506731868 4293907054
-0.3025032282 -0.1375461817 0.5516419411 4293972847
-0.3025646210 -0.1369610578 0.5517538786 4294367083
-0.3026257455 -0.1363755614 0.5518653393 4294564462
-0.3026866317 -0.1357897222 0.5519763827 4294368112
-0.3036875129 -0.1356234103 0.5538015962 4293512803
-0.3037481308 -0.1350350380 0.5539121032 4293710700
-0.3042787910 -0.1346544474 0.5548797846 4294631802
-0.3038686216 -0.1338572502 0.5541318655 4294499700
-0.3043989837 -0.1334741265 0.5550990105 4293644391
-0.3049292862 -0.1330888420 0.5560660958 4293512543
-0.3049888909 -0.1324968934 0.5561747551 4293512543
-0.3050482273 -0.1319046021 0.5562829971 4293906280
-0.3046365082 -0.1311093271 0.5555321574 4293050971
-0.3047537804 -0.1299248636 0.5557460189 4290226012
-0.3007781506 -0.1614655703 0.5496093035 4290159947
-0.2999189198 -0.1603953987 0.5480391979 4291275047
-0.3004543185 -0.1600717306 0.5490175486 4291406633
-0.3005245030 -0.1594989896 0.5491458178 4291736116
-0.3001291454 -0.1586798280 0.5484233499 4291933495
-0.3001987934 -0.1581071615 0.5485506654 4291934263
-0.3002682328 -0.1575341076 0.5486775041 4291934263
-0.2998718023 -0.1567173004 0.5479530692 4291868470
-0.2999406755 -0.1561443508 0.5480789542 4291868470
-0.2995434701 -0.1553294212 0.5473531485 4291934517
-0.2996118069 -0.1547565758 0.5474780202 4291934517
-0.3001459837 -0.1544231027 0.5484541059 4292131126
-0.3002139628 -0.1538485736 0.5485783219 4292262712
-0.2998154461 -0.1530356556 0.5478501320 4292459582
-0.2998828888 -0.1524612457 0.5479733944 4292525375
-0.2999500930 -0.1518864483 0.5480961800 4292459840
-0.3000170887 -0.1513112485 0.5482186079 4292591426
-0.2996171713 -0.1505012512 0.5474878550 4292723014
-0.2996836007 -0.1499262005 0.5476092100 4292657221
-0.2992829382 -0.1491181254 0.5468770862 4292722754
-0.2993488014 -0.1485431939 0.5469974279 4292788547
-0.2994144559 -0.1479678899 0.5471174121 4292723012
-0.2994799018 -0.1473922133 0.5472369790 4292723012
-0.2995451093 -0.1468161494 0.5473561287 4292985934
-0.2991426885 -0.1460115612 0.5466207862 4294301794
-0.2996748388 -0.1456629038 0.5475931764 4294235748
-0.2997393608 -0.1450857222 0.5477110744 4293117267
-0.2998036444 -0.1445081681 0.5478286147 4293512546
-0.2998677194 -0.1439302415 0.5479456782 4293973097
-0.2999315560 -0.1433519423 0.5480623245 4293842288
-0.2999951541 -0.1427732706 0.5481785536 4294960769
-0.2995904386 -0.1419724077 0.5474389791 4294961291
-0.3001216948 -0.1416148394 0.5484097004 4294962833
-0.3001846075 -0.1410350800 0.5485246778 4294961554
-0.3002472818 -0.1404549479 0.5486392379 4294894733
-0.3003097177 -0.1398744583 0.5487533212 4294962832
-0.3008405268 -0.1395109147 0.5497232676 4294830732
-0.3009026051 -0.1389287859 0.5498366952 4294830223
-0.3004956543 -0.1381308138 0.5490930676 4294830223
-0.3014949560 -0.1379780620 0.5509191155 4294829194
-0.3015564382 -0.1373939514 0.5510314107 4294631815
-0.3020867407 -0.1370222569 0.5520004630 4294762620
-0.3021478355 -0.1364365369 0.5521121025 4294696827
-0.3022086918 -0.1358504593 0.5522232652 4294697331
-0.3022693098 -0.1352640241 0.5523340702 4293710436
-0.3027991354 -0.1348863691 0.5533022285 4293644391
-0.3028593659 -0.1342983246 0.5534122586 4294170735
-0.3033890128 -0.1339172274 0.5543800592 4293973358
-0.3034488559 -0.1333275586 0.5544894338 4293841772
-0.3039782941 -0.1329430342 0.5554568768 4293841509
-0.3040377498 -0.1323517561 0.5555655360 4293578337
-0.3045669794 -0.1319637895 0.5565325618 4293643878
-0.3041559458 -0.1311681867 0.5557814837 4293314913
-0.3046848774 -0.1307777017 0.5567479730 4292725096
-0.3047434390 -0.1301841289 0.5568550229 4291869787
-0.3048017919 -0.1295902282 0.5569615960 4289832818
-0.3048598766 -0.1289959848 0.5570677519 4289569646
-0.3020845652 -0.1631112248 0.5531190038 4290422066
-0.3016917706 -0.1622853726 0.5523998141 4290487859
-0.3008342683 -0.1612121016 0.5508297086 4291274795
-0.3009048402 -0.1606377810 0.5509589911 4291537967
-0.3005107343 -0.1598160267 0.5502373576 4291605298
-0.3001161814 -0.1589956433 0.5495149493 4291736884
-0.2997212112 -0.1581766456 0.5487917066 4291868724
-0.2997905910 -0.1576033682 0.5489187241 4291868724
-0.2993948460 -0.1567862481 0.5481941104 4291999540
-0.2994636595 -0.1562130600 0.5483201742 4292065333
-0.2990671694 -0.1553978175 0.5475941300 4292196408
-0.2991354465 -0.1548247337 0.5477191806 4292262201
-0.2992034853 -0.1542512625 0.5478438139 4292393276
-0.2992713451 -0.1536774039 0.5479679704 4292459069
-0.2993389368 -0.1531031579 0.5480917692 4292524607
-0.2989406884 -0.1522913128 0.5473626256 4292524607
-0.2990077734 -0.1517171711 0.5474854112 4292459327
-0.2990745902 -0.1511426568 0.5476077795 4292590913
-0.2986752689 -0.1503332257 0.5468766093 4292788547
-0.2987415493 -0.1497588456 0.5469979644 4292788547
-0.2988076210 -0.1491840780 0.5471189022 4292460610
-0.2984071970 -0.1483770758 0.5463857651 4292657989
-0.2984727025 -0.1478024423 0.5465056896 4292592196
-0.2985379994 -0.1472274363 0.5466252565 4292394817
-0.2986030579 -0.1466520429 0.5467443466 4292854346
-0.2986678779 -0.1460762918 0.5468630791 4294235999
-0.2987324893 -0.1455001533 0.5469813347 4294235748
-0.2987968624 -0.1449236423 0.5470992327 4293314646
-0.2988610268 -0.1443467587 0.5472167134 4294038888
-0.2989249229 -0.1437695026 0.5473337173 4294302060
-0.2989886403 -0.1431918740 0.5474503636 4293908081
-0.2985848188 -0.1423910558 0.5467109680 4294960769
-0.2991153300 -0.1420355290 0.5476823449 4294961805
-0.2991783321 -0.1414567977 0.5477976799 4294962319
-0.2992410958 -0.1408777088 0.5479125977 4294961296
-0.2997713089 -0.1405174732 0.5488834381 4294829453
-0.2998336852 -0.1399367452 0.5489977002 4294434685
-0.2998958826 -0.1393556595 0.5491115451 4294434685
-0.2994898558 -0.1385577172 0.5483680964 4294500740
-0.3004875779 -0.1384079903 0.5501949191 4294961805
-0.3005491197 -0.1378249228 0.5503076315 4294961299
-0.3010787070 -0.1374552697 0.5512772799 4294763149
-0.3011398911 -0.1368705630 0.5513893366 4294894725
-0.3012008667 -0.1362855136 0.5515009761 4294894725
-0.3017300963 -0.1359111518 0.5524700284 4294367852
-0.3017906845 -0.1353244781 0.5525808930 4293644129
-0.3013823032 -0.1345282346 0.5518332124 4293512543
-0.3023799062 -0.1343583912 0.5536598563 4294170473
-0.3024398685 -0.1337697506 0.5537695885 4293841259
-0.3024995923 -0.1331807673 0.5538789630 4293643880
-0.3030281365 -0.1327970028 0.5548467636 4293709925
-0.3035566509 -0.1324110478 0.5558144450 4293644132
-0.3036158085 -0.1318192035 0.5559227467 4293315944
-0.3032054007 -0.1310241669 0.5551713109 4293118565
-0.3037334383 -0.1306344420 0.5561381578 4293184871
-0.3042614162 -0.1302425414 0.5571048856 4292724320
-0.3043197095 -0.1296484023 0.5572116375 4291146860
-0.3043777645 -0.1290539056 0.5573179126 4290291551
-0.3103311062 -0.1685380489 0.5693764091 4289765449
-0.3002832830 -0.1618568897 0.5509412885 4290815784
-0.2998905182 -0.1610338539 0.5502206683 4291143467
-0.2994973063 -0.1602121741 0.5494992137 4291472432
-0.2995674014 -0.1596390009 0.5496278405 4291605049
-0.2987096012 -0.1585729420 0.5480539799 4291670842
-0.2987790406 -0.1580007374 0.5481814146 4291867703
-0.2988482714 -0.1574281305 0.5483083725 4291867703
-0.2989172637 -0.1568551362 0.5484349728 4291999031
-0.2985217571 -0.1560390592 0.5477094054 4292064824
-0.2985902131 -0.1554661542 0.5478349924 4292195642
-0.2981939614 -0.1546519697 0.5471079350 4292327228
-0.2987264693 -0.1543191671 0.5480849147 4292327228
-0.2983970344 -0.1529324055 0.5474805236 4292393789
-0.2984642684 -0.1523584425 0.5476038456 4292393789
-0.2985312641 -0.1517840773 0.5477268100 4292393789
-0.2981329560 -0.1509738117 0.5469959974 4292459582
-0.2977342308 -0.1501649469 0.5462644100 4292656961
-0.2978003621 -0.1495912373 0.5463857651 4292722754
-0.2979319692 -0.1484426558 0.5466272235 4292854597
-0.2979974151 -0.1478677988 0.5467473269 4292657218
-0.2980626523 -0.1472925544 0.5468670130 4292723011
-0.2981276810 -0.1467169523 0.5469863415 4293184079
-0.2981924713 -0.1461409628 0.5471051931 4293973595
-0.2982570231 -0.1455645859 0.5472236276 4293710174
-0.2978552282 -0.1447613090 0.5464864373 4293512795
-0.2979192138 -0.1441850960 0.5466038585 4294894199
-0.2979829907 -0.1436085254 0.5467208624 4294565234
-0.2980465591 -0.1430315673 0.5468374491 4294500218
-0.2981098592 -0.1424542516 0.5469536185 4294894976
-0.2981729507 -0.1418765634 0.5470693707 4294961031
-0.2982358038 -0.1412985176 0.5471847057 4294961802
-0.2982984483 -0.1407200992 0.5472996235 4294434176
-0.2988277674 -0.1403606385 0.5482708216 4294631555
-0.2989520431 -0.1392001659 0.5484988689 4294960000
-0.2994810641 -0.1388359964 0.5494694114 4294434426
-0.2995427251 -0.1382539570 0.5495825410 4294829184
-0.3000715673 -0.1378863305 0.5505528450 4294894987
-0.3001328409 -0.1373026669 0.5506652594 4294829194
-0.3001939058 -0.1367186457 0.5507773161 4294960777
-0.3002547324 -0.1361342669 0.5508888960 4294368383
-0.3012508750 -0.1359717995 0.5527165532 4294104681
-0.3008435369 -0.1351746768 0.5519691706 4293775716
-0.3013716936 -0.1347976327 0.5529382229 4293644129
-0.3018998206 -0.1344184279 0.5539072156 4294433645
-0.3019597232 -0.1338295490 0.5540171266 4294104431
-0.3024876416 -0.1334468871 0.5549857020 4293446501
-0.3025471568 -0.1328563988 0.5550949574 4293380706
-0.3026064634 -0.1322655678 0.5552036762 4293578085
-0.3026655018 -0.1316743791 0.5553120375 4293250922
-0.3031929135 -0.1312857568 0.5562797189 4293119336
-0.3037202656 -0.1308949739 0.5572472811 4293052780
-0.3037787676 -0.1303009242 0.5573545694 4292855401
-0.3033681214 -0.1295063645 0.5566011667 4292067190
-0.3038950264 -0.1291117966 0.5575678945 4291343467
-0.3011191785 -0.1632539779 0.5536031127 4291209250
-0.3011904359 -0.1626773626 0.5537340641 4291209250
-0.2998731434 -0.1613533199 0.5513122678 4291209513
-0.2994807363 -0.1605304480 0.5505908132 4291472685
-0.2990879118 -0.1597089320 0.5498685837 4291670326
-0.2986946404 -0.1588887870 0.5491455793 4291801912
-0.2983009219 -0.1580700129 0.5484217405 4291867441
-0.2983700931 -0.1574971974 0.5485489368 4291933234
-0.2979756296 -0.1566803008 0.5478237271 4291999279
-0.2980442643 -0.1561075747 0.5479498506 4291933486
-0.2981126606 -0.1555344462 0.5480756164 4291998768
-0.2977170944 -0.1547199339 0.5473483801 4292130354
-0.2977849543 -0.1541469097 0.5474731326 4291999027
-0.2978525758 -0.1535734981 0.5475974679 4292130613
-0.2974559367 -0.1527613848 0.5468682647 4292262712
-0.2979871929 -0.1524255127 0.5478449464 4292262712
-0.2975898981 -0.1516144127 0.5471145511 4292262460
-0.2976565361 -0.1510403454 0.5472370386 4292196667
-0.2972584963 -0.1502311528 0.5465052724 4292393538
-0.2973245680 -0.1496572047 0.5466267467 4292590917
-0.2969257832 -0.1488499492 0.5458935499 4292722493
-0.2969913185 -0.1482761353 0.5460140705 4292985665
-0.2970566154 -0.1477019638 0.5461341143 4292657472
-0.2971217334 -0.1471273899 0.5462538004 4293183816
-0.2971865833 -0.1465524584 0.5463730693 4293907802
-0.2972512245 -0.1459771395 0.5464918613 4293973595
-0.2973156273 -0.1454014480 0.5466102958 4293184343
-0.2973798215 -0.1448253840 0.5467283130 4293513308
-0.2974437773 -0.1442489475 0.5468459129 4294566263
-0.2975074947 -0.1436721385 0.5469630957 4294105712
-0.2975710034 -0.1430949569 0.5470798016 4293776495
-0.2976342738 -0.1425174177 0.5471961498 4294368632
-0.2976973355 -0.1419394910 0.5473120213 4294961027
-0.2977601290 -0.1413612217 0.5474275351 4294962312
-0.2978227139 -0.1407825649 0.5475425720 4294828414
-0.2978850901 -0.1402035505 0.5476572514 4294038898
-0.2979471982 -0.1396241784 0.5477714539 4294827901
-0.2980090976 -0.1390444487 0.5478852391 4294961286
-0.2985372245 -0.1386810392 0.5488561988 4294829181
-0.2985987365 -0.1380996704 0.5489692688 4294763388
-0.2991266847 -0.1377328187 0.5499399304 4294763139
-0.2991878390 -0.1371498257 0.5500523448 4294960775
-0.2997156084 -0.1367795318 0.5510225892 4294961548
-0.2997763753 -0.1361949146 0.5511343479 4293907832
-0.2998369038 -0.1356099546 0.5512456298 4293710952
-0.2998972237 -0.1350246370 0.5513564944 4294039917
-0.2999572754 -0.1344389617 0.5514669418 4293645159
-0.3004844189 -0.1340614259 0.5524361134 4293776745
-0.3010115325 -0.1336817145 0.5534051657 4293644139
-0.3010710776 -0.1330931634 0.5535145998 4293446760
-0.3015979528 -0.1327100098 0.5544832945 4293249631
-0.3021247983 -0.1323246807 0.5554518700 4293052252
-0.3021838069 -0.1317332536 0.5555603504 4292987750
-0.3017746806 -0.1309384853 0.5548081994 4292987750
-0.3027690351 -0.1307514608 0.5566362739 4293578876
-0.3032954335 -0.1303592622 0.5576040745 4293513083
-0.3028855324 -0.1295643598 0.5568504333 4292264318
-0.3024751842 -0.1287709624 0.5560960174 4291869560
-0.3030010462 -0.1283759028 0.5570628047 4290558348
-0.3019492328 -0.1646569967 0.5562649965 4290748200
-0.3071008325 -0.1668376476 0.5657554865 4291143207
-0.3007067442 -0.1627484411 0.5539759994 4291209000
-0.2993916273 -0.1614238620 0.5515532494 4291013413
-0.2999241948 -0.1610970944 0.5525343418 4291342378
-0.2986077666 -0.1597788036 0.5501092076 4291801652
-0.2982152104 -0.1589583308 0.5493859649 4291801652
-0.2978221774 -0.1581392437 0.5486619473 4291801650
-0.2978913188 -0.1575662047 0.5487892628 4291867443
-0.2974975407 -0.1567489803 0.5480638146 4291933236
-0.2975661159 -0.1561760306 0.5481901765 4291933236
-0.2971715629 -0.1553606987 0.5474633574 4291933236
-0.2972396016 -0.1547878534 0.5475886464 4291999029
-0.2968443036 -0.1539743990 0.5468604565 4291999029
-0.2969117761 -0.1534016579 0.5469847322 4292064822
-0.2969790399 -0.1528285295 0.5471086502 4292261942
-0.2970460951 -0.1522550136 0.5472321510 4292393528
-0.2966493666 -0.1514444798 0.5465013385 4292393528
-0.2967158556 -0.1508710831 0.5466238260 4292327735
-0.2967821360 -0.1502972990 0.5467458963 4292393528
-0.2968481779 -0.1497231424 0.5468675494 4292854079
-0.2964500785 -0.1489155591 0.5461341739 4292985665
-0.2965155542 -0.1483415216 0.5462548137 4292788286
-0.2965808213 -0.1477671117 0.5463750362 4292393787
-0.2966458797 -0.1471923292 0.5464949012 4293249096
-0.2967106998 -0.1466171592 0.5466142893 4293775700
-0.2967752814 -0.1460416168 0.5467332602 4293446735
-0.2968396544 -0.1454657018 0.5468518734 4292855118
-0.2969037890 -0.1448894143 0.5469700098 4293644634
-0.2969676852 -0.1443127394 0.5470877886 4294763121
-0.2965665460 -0.1435107738 0.5463487506 4294368363
-0.2966299057 -0.1429342628 0.5464654565 4292789850
-0.2966930270 -0.1423573941 0.5465817451 4294237296
-0.2967559397 -0.1417801529 0.5466976166 4294962057
-0.2968186140 -0.1412025541 0.5468130708 4294961543
-0.2973463833 -0.1408449858 0.5477854013 4294566022
-0.2974087000 -0.1402657479 0.5479001403 4294171264
-0.2974707782 -0.1396861374 0.5480145216 4294567047
-0.2975326180 -0.1391061693 0.5481284857 4294962062
-0.2980599403 -0.1387426257 0.5490999222 4294962836
-0.2981214225 -0.1381610334 0.5492132306 4294633871
-0.2981826663 -0.1375790834 0.5493260622 4294961026
-0.2987096906 -0.1372108161 0.5502969027 4294962054
-0.2987705469 -0.1366272420 0.5504090786 4294763652
-0.2992973924 -0.1362555325 0.5513796210 4293710964
-0.2993578911 -0.1356703341 0.5514910817 4294105458
-0.2994181514 -0.1350847781 0.5516021252 4294237044
-0.2994781733 -0.1344988644 0.5517126918 4294235752
-0.3000045419 -0.1341211796 0.5526823401 4293380443
-0.3000641763 -0.1335336566 0.5527922511 4292197751
-0.3001235723 -0.1329457760 0.5529016852 4292658302
-0.3006495833 -0.1325633973 0.5538707376 4293054105
-0.3007086217 -0.1319739074 0.5539794564 4292922519
-0.3012344241 -0.1315880865 0.5549480915 4291940003
-0.3008259237 -0.1307938993 0.5541955829 4291742624
-0.3018186390 -0.1306077242 0.5560243726 4292134282
-0.3023441732 -0.1302162856 0.5569925904 4292200075
-0.3024022579 -0.1296223253 0.5570995808 4292594057
-0.3019926250 -0.1288286000 0.5563449264 4292528264
-0.3025176823 -0.1284333766 0.5573122501 4291213709
-0.3030427098 -0.1280359775 0.5582793951 4291147916
-0.3729234040 -0.2076015770 0.6884255409 4289240685
-0.3743950725 -0.2076529264 0.6911422610 4288911720
-0.3726427853 -0.2059167176 0.6879074574 4289960763
-0.3700563908 -0.2029695213 0.6831329465 4290485028
-0.3037675619 -0.1659881771 0.5607621670 4290813993
-0.3019955456 -0.1644004881 0.5574909449 4291077416
-0.2983777225 -0.1618190408 0.5508124232 4291077416
-0.2998320460 -0.1619927734 0.5534971356 4291013413
-0.2980570793 -0.1604224741 0.5502204895 4291408171
-0.2976655364 -0.1596011966 0.5494976640 4291735857
-0.2972735465 -0.1587812901 0.5487740636 4291801650
-0.2978045344 -0.1584540904 0.5497542620 4291801650
-0.2969500721 -0.1573903859 0.5481768847 4291801650
-0.2965568900 -0.1565737277 0.5474510789 4291933236
-0.2961632609 -0.1557584554 0.5467244387 4291933236
-0.2962313592 -0.1551866829 0.5468501449 4291933236
-0.2962992191 -0.1546145082 0.5469754338 4291999029
-0.2963668704 -0.1540419459 0.5471003056 4292196149
-0.2960389555 -0.1526571065 0.5464949608 4292196149
-0.2961058319 -0.1520842612 0.5466184616 4292196149
-0.2961724997 -0.1515110284 0.5467414856 4292196149
-0.2962389290 -0.1509374082 0.5468641520 4292130356
-0.2963051498 -0.1503634155 0.5469864011 4292261942
-0.2959080637 -0.1495549828 0.5462533236 4292656700
-0.2960391641 -0.1484068483 0.5464953780 4292722239
-0.2961044014 -0.1478322148 0.5466157794 4292262201
-0.2961694002 -0.1472572088 0.5467357635 4292656959
-0.2962341607 -0.1466818154 0.5468553305 4293117512
-0.2962987125 -0.1461060494 0.5469744802 4293051719
-0.2963630259 -0.1455299109 0.5470932126 4292854346
-0.2964271307 -0.1449533850 0.5472115278 4293512276
-0.2964909971 -0.1443765014 0.5473294258 4294302313
-0.2960905433 -0.1435741931 0.5465902090 4294104934
-0.2961538434 -0.1429974586 0.5467070937 4293052254
-0.2962169349 -0.1424203664 0.5468235016 4294368114
-0.2962797880 -0.1418429017 0.5469395518 4294961030
-0.2963424027 -0.1412650645 0.5470551848 4294828930
-0.2964048088 -0.1406868547 0.5471703410 4294302335
-0.2969316542 -0.1403279006 0.5481429100 4294170749
-0.2969937027 -0.1397480667 0.5482574701 4294829192
-0.2970554829 -0.1391678602 0.5483715534 4294961806
-0.2971170545 -0.1385872960 0.5484852195 4294962323
-0.2976434827 -0.1382223517 0.5494569540 4294435722
-0.2977046669 -0.1376401633 0.5495699644 4294302586
-0.2977656424 -0.1370576173 0.5496824980 4294631551
-0.2982917428 -0.1366879493 0.5506536365 4294566533
-0.2983523309 -0.1361037791 0.5507655144 4293974396
-0.2988782227 -0.1357306689 0.5517363548 4293777265
-0.2989384532 -0.1351448745 0.5518475175 4293777265
-0.2989984155 -0.1345587224 0.5519582629 4293513332
-0.2995239794 -0.1341809034 0.5529284477 4292592230
-0.2995835841 -0.1335931420 0.5530384779 4291870360
-0.3001089692 -0.1332118660 0.5540083051 4293317806
-0.3001681864 -0.1326224953 0.5541176200 4294437845
-0.3002271652 -0.1320327669 0.5542265177 4294832603
-0.2998196185 -0.1312385798 0.5534741282 4293847775
-0.3008107543 -0.1310554594 0.5553038120 4293453017
-0.3013355732 -0.1306660473 0.5562726259 4293451201
-0.3004606664 -0.1296703964 0.5546575189 4292924857
-0.3014517128 -0.1294798106 0.5564870834 4292660642
-0.3015094101 -0.1288861781 0.5565935969 4292529056
-0.3025005162 -0.1286894083 0.5584232211 4291806625
-0.3016241193 -0.1276978999 0.5568053126 4291938211
-0.3759977221 -0.2097430527 0.6955268383 4289633615
-0.3756288886 -0.2087652832 0.6948446035 4289502029
-0.3706608117 -0.2052423358 0.6856545210 4290353710
-0.3684499562 -0.2032608688 0.6815648675 4290353710
-0.3068851233 -0.1686669886 0.5676811934 4290550567
-0.2983561754 -0.1621397883 0.5519042015 4290946088
-0.2979661822 -0.1613154411 0.5511828065 4291144233
-0.2975757420 -0.1604924649 0.5504605770 4291473198
-0.2967935801 -0.1588506252 0.5490136743 4291801648
-0.2968628109 -0.1582775414 0.5491417646 4291801648
-0.2964707613 -0.1574591845 0.5484165549 4291801648
-0.2965394557 -0.1568861902 0.5485435724 4291867441
-0.2961466312 -0.1560697109 0.5478169322 4291867441
-0.2957533896 -0.1552546024 0.5470895171 4291867184
-0.2953597009 -0.1544408947 0.5463612676 4291932977
-0.2958888113 -0.1541094333 0.5473400354 4292064563
-0.2954944670 -0.1532967240 0.5466105938 4291932977
-0.2950997055 -0.1524854153 0.5458803773 4291932977
-0.2956283689 -0.1521509886 0.5468582511 4291932977
-0.2952329516 -0.1513406932 0.5461268425 4291867184
-0.2952992320 -0.1507677585 0.5462494493 4291867184
-0.2953653038 -0.1501944214 0.5463716388 4292064563
-0.2954311371 -0.1496207118 0.5464934111 4292393528
-0.2950343192 -0.1488133669 0.5457593799 4292459067
-0.2950996161 -0.1482397914 0.5458801985 4292459067
-0.2951647043 -0.1476658285 0.5460005403 4292064563
-0.2952295542 -0.1470914930 0.5461205244 4292261942
-0.2952941656 -0.1465167850 0.5462400317 4292459578
-0.2953585684 -0.1459416896 0.5463591814 4292722750
-0.2954227328 -0.1453662217 0.5464778543 4292657221
-0.2954866886 -0.1447903812 0.5465961695 4293051979
-0.2955504060 -0.1442141682 0.5467140079 4293775969
-0.2956138849 -0.1436375678 0.5468314886 4293841762
-0.2956771553 -0.1430606097 0.5469484925 4293446499
-0.2957401872 -0.1424832940 0.5470651388 4294564980
-0.2958030105 -0.1419055909 0.5471813083 4294960000
-0.2958655953 -0.1413275301 0.5472970605 4294828414
-0.2959279418 -0.1407490969 0.5474123955 4294499451
-0.2959900498 -0.1401703060 0.5475273132 4294631037
-0.2960519493 -0.1395911425 0.5476418138 4294959492
-0.2961136103 -0.1390116215 0.5477558970 4294959235
-0.2966392636 -0.1386487186 0.5487282276 4294565762
-0.2967005670 -0.1380675584 0.5488415956 4294171004
-0.2972260416 -0.1377011985 0.5498136878 4294235764
-0.2972869575 -0.1371184289 0.5499263406 4294696315
-0.2973476648 -0.1365352869 0.5500386357 4294632325
-0.2974081039 -0.1359517872 0.5501504540 4294303360
-0.2979331315 -0.1355794519 0.5511216521 4294501758
-0.2979932129 -0.1349943280 0.5512327552 4293646449
-0.2980530560 -0.1344088614 0.5513435006 4292461952
-0.2985777259 -0.1340318024 0.5523140430 4289501267
-0.2986372113 -0.1334447116 0.5524240732 4288977563
-0.2986964285 -0.1328572780 0.5525336266 4292201420
-0.2992207706 -0.1324755102 0.5535035133 4293123559
-0.2992796004 -0.1318864673 0.5536124110 4293123559
-0.2993382215 -0.1312970668 0.5537207723 4292400606
-0.2993965745 -0.1307073236 0.5538287759 4291282125
-0.3003861308 -0.1305219531 0.5556592345 4291347389
-0.3004441857 -0.1299296916 0.5557666421 4292531663
-0.3005020022 -0.1293370724 0.5558736324 4293649610
-0.3010829985 -0.1283495128 0.5569483042 4291806887
-0.3016063273 -0.1279527247 0.5579164028 4291741094
-0.3016633689 -0.1273569167 0.5580219030 4292136889
-0.3733707368 -0.2102443576 0.6920893192 4290491520
-0.3725441098 -0.2090116143 0.6905570626 4288254558
-0.3717167675 -0.2077818960 0.6890234351 4289895217
-0.3708887100 -0.2065551877 0.6874885559 4289895217
-0.3691416979 -0.2048219740 0.6842502356 4290485026
-0.3030996323 -0.1675536484 0.5618330836 4290550819
-0.3008755445 -0.1657045186 0.5577104092 4290485287
-0.3009474576 -0.1651243120 0.5578436852 4290616873
-0.2991808355 -0.1635388434 0.5545690656 4290618152
-0.2983325124 -0.1624606997 0.5529965758 4290618152
-0.2974835336 -0.1613857001 0.5514228940 4290946854
-0.2966338992 -0.1603138596 0.5498479605 4291210026
-0.2971636355 -0.1599881351 0.5508298874 4291538219
-0.2963130176 -0.1589199156 0.5492531657 4291735598
-0.2963821888 -0.1583466232 0.5493814349 4291735598
-0.2959908247 -0.1575279236 0.5486559868 4291669805
-0.2960594594 -0.1569547206 0.5487831831 4291801391
-0.2956673503 -0.1561379135 0.5480563641 4291801391
-0.2952747941 -0.1553224921 0.5473287106 4291669805
-0.2953425646 -0.1547498703 0.5474543571 4291735598
-0.2949492633 -0.1539363414 0.5467252731 4291604012
-0.2950164676 -0.1533638388 0.5468499064 4291538219
-0.2946224213 -0.1525522023 0.5461194515 4291604012
-0.2946890891 -0.1519798189 0.5462430716 4291604012
-0.2947555482 -0.1514070481 0.5463662148 4291538219
-0.2948217988 -0.1508338749 0.5464890003 4291538219
-0.2948878109 -0.1502603292 0.5466113687 4291801391
-0.2949536145 -0.1496863961 0.5467333794 4292196149
-0.2945574820 -0.1488787234 0.5459991097 4292130102
-0.2946227193 -0.1483049244 0.5461200476 4292327481
-0.2946877480 -0.1477307379 0.5462405682 4292130356
-0.2947525382 -0.1471561790 0.5463606715 4292196149
-0.2948171198 -0.1465812474 0.5464803576 4292196408
-0.2948814631 -0.1460059285 0.5465996861 4292262201
-0.2949455976 -0.1454302371 0.5467185378 4292130875
-0.2950094938 -0.1448541582 0.5468369722 4292459840
-0.2950731814 -0.1442777216 0.5469549894 4293183314
-0.2951366305 -0.1437009126 0.5470725894 4293578072
-0.2947371304 -0.1428993940 0.5463321209 4293446751
-0.2948000431 -0.1423227340 0.5464487076 4294170474
-0.2948626876 -0.1417457163 0.5465648770 4294565241
-0.2949251235 -0.1411683261 0.5466805696 4294762620
-0.2949873507 -0.1405905783 0.5467959046 4294499449
-0.2950493395 -0.1400124580 0.5469107628 4294762621
-0.2951110601 -0.1394339800 0.5470252633 4294563961
-0.2956359684 -0.1390731186 0.5479981899 4294103410
-0.2956973612 -0.1384930015 0.5481119752 4293709675
-0.2962220907 -0.1381286979 0.5490846634 4294038640
-0.2962830961 -0.1375469416 0.5491977334 4294761591
-0.2963438928 -0.1369648427 0.5493103862 4294959998
-0.2964044511 -0.1363823861 0.5494226813 4294698370
-0.2969287038 -0.1360120773 0.5503944755 4294369405
-0.2969888747 -0.1354279965 0.5505059958 4293711726
-0.2975129783 -0.1350542456 0.5514774323 4293316968
-0.2975727618 -0.1344685405 0.5515882969 4291475073
-0.2976323366 -0.1338824779 0.5516987443 4287593286
-0.2981560826 -0.1335040182 0.5526695251 4286675863
-0.2982152700 -0.1329163462 0.5527792573 4289833927
-0.2982742190 -0.1323283166 0.5528885126 4290690258
-0.2983329296 -0.1317399442 0.5529973507 4290361293
-0.2988561690 -0.1313555092 0.5539672375 4289966526
-0.2984496057 -0.1305621564 0.5532136559 4290163905
-0.2989725769 -0.1301751882 0.5541830063 4290295994
-0.2994954586 -0.1297860593 0.5551522970 4291217096
-0.2995531559 -0.1291941255 0.5552592278 4293190098
-0.3000758290 -0.1288015395 0.5562280416 4293650649
-0.3001331389 -0.1282079965 0.5563342571 4292399541
-0.3006556034 -0.1278119832 0.5573027134 4291610025
-0.3007124960 -0.1272168458 0.5574081540 4291083942
-0.3021658957 -0.1272093952 0.5601022243 4292465595
-0.3667079806 -0.2038913816 0.6811413765 4290485279
-0.3640452921 -0.2016596049 0.6761955619 4290551072
-0.2994692922 -0.1652702838 0.5562489629 4290354215
-0.2986235023 -0.1641872227 0.5546779037 4290354215
-0.2982358634 -0.1633585989 0.5539578795 4290355495
-0.2973888516 -0.1622809172 0.5523846149 4290421288
-0.2965412140 -0.1612063795 0.5508101583 4290486819
-0.2956928909 -0.1601349860 0.5492344499 4290815784
-0.2962217033 -0.1598100364 0.5502167344 4291274793
-0.2958317995 -0.1589891613 0.5494924784 4291537965
-0.2954414487 -0.1581696570 0.5487674475 4291537965
-0.2950506806 -0.1573515385 0.5480415821 4291537965
-0.2946594656 -0.1565347910 0.5473149419 4291669551
-0.2942678332 -0.1557194442 0.5465875268 4291603758
-0.2947955728 -0.1553903222 0.5475677252 4291472172
-0.2944032848 -0.1545759588 0.5468390584 4291472172
-0.2940105796 -0.1537629962 0.5461096168 4291340586
-0.2940776348 -0.1531911641 0.5462341905 4291274793
-0.2941444814 -0.1526189446 0.5463584065 4291406379
-0.2942111194 -0.1520463377 0.5464821458 4291406379
-0.2942775190 -0.1514733434 0.5466054678 4291406379
-0.2943437099 -0.1508999616 0.5467284322 4291406379
-0.2944096923 -0.1503261924 0.5468509793 4291537965
-0.2944754362 -0.1497520357 0.5469731092 4291866930
-0.2940800190 -0.1489440352 0.5462386012 4291932975
-0.2941451967 -0.1483700126 0.5463597178 4292130354
-0.2942101955 -0.1477956027 0.5464804173 4292130356
-0.2942749262 -0.1472208202 0.5466006994 4292327735
-0.2943394482 -0.1466456503 0.5467205048 4292130617
-0.2944037616 -0.1460701078 0.5468399525 4292064824
-0.2944678366 -0.1454941928 0.5469589829 4292130875
-0.2945317030 -0.1449179053 0.5470775962 4292657219
-0.2945953012 -0.1443412304 0.5471957922 4292591174
-0.2946587205 -0.1437641978 0.5473135114 4292985932
-0.2942599356 -0.1429623514 0.5465728045 4292854867
-0.2943227887 -0.1423854679 0.5466895700 4293183832
-0.2943854034 -0.1418082267 0.5468058586 4293907563
-0.2944478095 -0.1412306130 0.5469217300 4294499700
-0.2945099473 -0.1406526268 0.5470372438 4294367862
-0.2945719063 -0.1400742829 0.5471522808 4294367862
-0.2946335971 -0.1394955665 0.5472669005 4294301818
-0.2946950793 -0.1389164925 0.5473810434 4293841267
-0.2947563231 -0.1383370608 0.5474948287 4293775466
-0.2952801585 -0.1379735172 0.5484678149 4294301810
-0.2958039343 -0.1376077980 0.5494407415 4294696566
-0.2958646715 -0.1370254606 0.5495535731 4294499187
-0.2959252000 -0.1364427656 0.5496659279 4293711472
-0.2959854603 -0.1358597130 0.5497779250 4293645679
-0.2965087891 -0.1354880184 0.5507499576 4293842286
-0.2965686917 -0.1349033415 0.5508612394 4292658012
-0.2970918417 -0.1345281750 0.5518329740 4289039973
-0.2971513569 -0.1339418888 0.5519434810 4287658320
-0.2976743281 -0.1335632801 0.5529148579 4289110214
-0.2977334559 -0.1329753697 0.5530247092 4289504972
-0.2977923751 -0.1323871017 0.5531341434 4288387502
-0.2983149886 -0.1320037842 0.5541048646 4289900741
-0.2979094684 -0.1312095225 0.5533516407 4291084754
-0.2984317839 -0.1308236867 0.5543217659 4291808477
-0.2989540100 -0.1304356605 0.5552918315 4291677657
-0.2990119159 -0.1298438162 0.5553993583 4291546071
-0.2986051738 -0.1290509403 0.5546438694 4292466900
-0.2991269529 -0.1286591291 0.5556131005 4293322209
-0.2991841137 -0.1280662715 0.5557192564 4292399550
-0.2997057140 -0.1276710182 0.5566880703 4290820518
-0.2997624874 -0.1270765662 0.5567935109 4290622878
-0.3012135029 -0.1270700544 0.5594887137 4291083429
-0.3697787523 -0.2098473161 0.6882650256 4288780158
-0.3694120944 -0.2088752985 0.6875826120 4289500739
-0.3685876429 -0.2076468766 0.6860480309 4289895497
-0.3673050702 -0.2061647326 0.6836608052 4290222878
-0.3660215437 -0.2046873719 0.6812718511 4290025499
-0.3638218343 -0.2027048469 0.6771775484 4290288411
-0.3103530109 -0.1722726524 0.5776565671 4290419997
-0.2966918051 -0.1640759408 0.5522291660 4290091812
-0.2985947132 -0.1645107716 0.5557709932 4290026019
-0.2963755727 -0.1626752317 0.5516405702 4290289191
-0.2959878743 -0.1618503183 0.5509189367 4290289191
-0.2951414287 -0.1607771218 0.5493434668 4290289440
-0.2956695557 -0.1604533643 0.5503264666 4290618405
-0.2948221564 -0.1593838036 0.5487492085 4291011621
-0.2948913574 -0.1588113606 0.5488780141 4291274793
-0.2945702374 -0.1574200690 0.5482802987 4291340586
-0.2941797376 -0.1566030085 0.5475534797 4291537965
-0.2937887907 -0.1557873338 0.5468258262 4291472172
-0.2938565612 -0.1552155763 0.5469519496 4291274793
-0.2934648693 -0.1544017792 0.5462229252 4291340586
-0.2935321033 -0.1538301259 0.5463480353 4291471402
-0.2931396663 -0.1530182362 0.5456175804 4291405609
-0.2932063639 -0.1524467021 0.5457417369 4291471402
-0.2932728231 -0.1518747658 0.5458654761 4291537195
-0.2933391035 -0.1513024420 0.5459887981 4291668781
-0.2938650250 -0.1509659886 0.5469676852 4291668781
-0.2934709489 -0.1501566321 0.5462341905 4291602988
-0.2935365438 -0.1495831609 0.5463562608 4291734574
-0.2936670482 -0.1484350413 0.5465992093 4291932975
-0.2937319875 -0.1478604227 0.5467200279 4292064309
-0.2937966883 -0.1472854167 0.5468404889 4292327481
-0.2938611507 -0.1467100233 0.5469604731 4292064824
-0.2939254045 -0.1461342573 0.5470800996 4291999031
-0.2939894497 -0.1455581188 0.5471992493 4292393534
-0.2940532565 -0.1449815929 0.5473180413 4293117257
-0.2941168249 -0.1444046944 0.5474363565 4292723014
-0.2941801846 -0.1438274384 0.5475542545 4292788807
-0.2937821150 -0.1430252641 0.5468133688 4292394312
-0.2938449085 -0.1424481571 0.5469302535 4292525898
-0.2939074934 -0.1418706775 0.5470467210 4293578850
-0.2935083210 -0.1410710365 0.5463038087 4294499952
-0.2935703397 -0.1404937357 0.5464192033 4294368116
-0.2936321497 -0.1399160624 0.5465342402 4294302323
-0.2936936915 -0.1393380314 0.5466488004 4293842548
-0.2937550247 -0.1387596279 0.5467629433 4293842548
-0.2942781150 -0.1383981407 0.5477365851 4294104690
-0.2943390906 -0.1378181130 0.5478500724 4294236276
-0.2948619723 -0.1374531686 0.5488232970 4294039149
-0.2953848541 -0.1370860487 0.5497965217 4293447012
-0.2954453230 -0.1365031153 0.5499090552 4293053542
-0.2955055237 -0.1359198391 0.5500211716 4293579886
-0.2955655456 -0.1353361905 0.5501328111 4293841518
-0.2960879207 -0.1349630803 0.5511051416 4293249381
-0.2961475551 -0.1343778074 0.5512161255 4288579683
-0.2966697514 -0.1340012401 0.5521880984 4285224240
-0.2967289984 -0.1334143579 0.5522983670 4287071660
-0.2967880070 -0.1328271180 0.5524082184 4289308622
-0.2968467772 -0.1322395355 0.5525175929 4288255916
-0.2973684967 -0.1318569928 0.5534886718 4290953429
-0.2974268794 -0.1312678009 0.5535973310 4292071902
-0.2979483902 -0.1308818012 0.5545680523 4291282386
-0.2984698713 -0.1304936260 0.5555385947 4290756553
-0.2980641425 -0.1296998411 0.5547834635 4291414483
-0.2985853255 -0.1293091327 0.5557535291 4292006097
-0.2986426651 -0.1287163794 0.5558602810 4292664027
-0.2996274233 -0.1285211742 0.5576931834 4292860365
-0.2996844947 -0.1279258877 0.5577993989 4291873470
-0.3006692827 -0.1277244836 0.5596324205 4290425763
-0.3016542196 -0.1275190413 0.5614656210 4289702040
-0.3026392162 -0.1273095757 0.5632990003 4291216055
-0.3681704700 -0.2101304084 0.6866911650 4289502061
-0.3673482835 -0.2088999152 0.6851577163 4289304682
-0.3665254116 -0.2076724172 0.6836228967 4290420283
-0.3652452826 -0.2061901838 0.6812352538 4290222904
-0.3644208908 -0.2049695998 0.6796976328 4290222878
-0.3622254431 -0.2029841244 0.6756028533 4290157085
-0.3595717549 -0.2007519007 0.6706532836 4290222877
-0.2997915447 -0.1667548567 0.5591545701 4290288670
-0.2952925265 -0.1636403948 0.5507632494 4290091040
-0.2958204746 -0.1633199453 0.5517479777 4290091040
-0.2968057990 -0.1632488519 0.5535857081 4290353701
-0.2955041230 -0.1619205326 0.5511578918 4290353701
-0.2951166928 -0.1610966623 0.5504353046 4290288671
-0.2947288156 -0.1602741629 0.5497118235 4290551843
-0.2943405211 -0.1594530344 0.5489876270 4290814242
-0.2944096327 -0.1588803828 0.5491165519 4291077414
-0.2940205932 -0.1580611318 0.5483909249 4291143207
-0.2936310768 -0.1572432518 0.5476644635 4291274793
-0.2936993539 -0.1566711664 0.5477917790 4291537965
-0.2933091223 -0.1558551639 0.5470638871 4291406379
-0.2933768332 -0.1552831978 0.5471902490 4291339816
-0.2929858565 -0.1544690877 0.5464609861 4291471402
-0.2925944328 -0.1536563635 0.5457308888 4291537195
-0.2926612794 -0.1530849934 0.5458556414 4291405609
-0.2927279174 -0.1525132358 0.5459799170 4291603242
-0.2927943468 -0.1519410759 0.5461038351 4291734828
-0.2928605676 -0.1513685435 0.5462272763 4291866414
-0.2929265499 -0.1507956088 0.5463503599 4291866414
-0.2929923236 -0.1502222866 0.5464730263 4291800621
-0.2930578589 -0.1496485919 0.5465952754 4291800621
-0.2931231856 -0.1490745097 0.5467171073 4291998000
-0.2927287221 -0.1482672840 0.5459814072 4292063793
-0.2927935123 -0.1476933360 0.5461022258 4292195125
-0.2928580642 -0.1471190006 0.5462226272 4292392504
-0.2929223776 -0.1465442926 0.5463426113 4291932723
-0.2929864824 -0.1459691972 0.5464621782 4291932723
-0.2930503786 -0.1453937292 0.5465813279 4292130615
-0.2931140363 -0.1448178887 0.5467000604 4292591166
-0.2931774557 -0.1442416757 0.5468183756 4292920391
-0.2932406664 -0.1436650902 0.5469362140 4292723012
-0.2933036387 -0.1430881321 0.5470536947 4292328519
-0.2933664024 -0.1425108016 0.5471707582 4292657484
-0.2929682732 -0.1417102814 0.5464282036 4293841508
-0.2930304706 -0.1411331147 0.5465441942 4294631024
-0.2930924594 -0.1405555904 0.5466598272 4294434159
-0.2926932573 -0.1397576034 0.5459152460 4294302573
-0.2927546799 -0.1391802430 0.5460298061 4293974383
-0.2932769954 -0.1388208121 0.5470039845 4294171762
-0.2933380604 -0.1382418275 0.5471178889 4294301808
-0.2938601971 -0.1378789246 0.5480917692 4293907050
-0.2939209044 -0.1372983009 0.5482049584 4293447263
-0.2944428623 -0.1369319558 0.5491785407 4293052505
-0.2945031822 -0.1363497078 0.5492910147 4292856413
-0.2945632637 -0.1357671022 0.5494031310 4293316964
-0.2950849235 -0.1353960335 0.5503760576 4293578089
-0.2956065238 -0.1350227743 0.5513489246 4292459608
-0.2952041328 -0.1342272162 0.5505983829 4288579683
-0.2957254350 -0.1338514239 0.5515707135 4283974173
-0.2957845628 -0.1332652122 0.5516809821 4283125107
-0.2958434224 -0.1326786578 0.5517907739 4287533238
-0.2963643968 -0.1322981417 0.5527624488 4287401128
-0.2964228988 -0.1317099780 0.5528715253 4287466921
-0.2964811325 -0.1311214566 0.5529801846 4288848045
-0.2965391576 -0.1305325925 0.5530883670 4289505975
-0.2970596254 -0.1301461011 0.5540591478 4290098364
-0.2975800633 -0.1297574341 0.5550298095 4291282638
-0.2971746325 -0.1289648116 0.5542736650 4291742927
-0.2981577516 -0.1287735701 0.5561072826 4292203478
-0.2982148230 -0.1281802356 0.5562137365 4292992214
-0.2987348139 -0.1277846694 0.5571836233 4292860628
-0.2987914979 -0.1271897256 0.5572893620 4291149492
-0.3002379239 -0.1271832585 0.5599871278 4289899425
-0.3012212217 -0.1269755661 0.5618211031 4290229162
-0.3661093414 -0.2101480812 0.6842643619 4289768357
-0.3657442331 -0.2091789842 0.6835819483 4288909390
-0.3649230599 -0.2079515308 0.6820471883 4289633113
-0.3641011715 -0.2067270726 0.6805110574 4290485038
-0.3623669446 -0.2049899399 0.6772697568 4290682417
-0.3615434170 -0.2037732899 0.6757305861 4290222878
-0.3588950634 -0.2015353441 0.6707807779 4290222878
-0.3019645214 -0.1689392626 0.5643765926 4290157854
-0.2979311347 -0.1660640389 0.5568382144 4290092061
-0.2966337502 -0.1647248864 0.5544133186 4290090781
-0.2957919240 -0.1636431813 0.5528399944 4290156574
-0.2949494720 -0.1625646055 0.5512654185 4290418981
-0.2945630550 -0.1617399305 0.5505431890 4290418981
-0.2946330011 -0.1611665040 0.5506739020 4290288158
-0.2942458391 -0.1603436768 0.5499502420 4290485537
-0.2938582301 -0.1595222354 0.5492258072 4290682656
-0.2934701741 -0.1587021649 0.5485005975 4290945828
-0.2935389280 -0.1581297815 0.5486291051 4291077414
-0.2931501567 -0.1573115736 0.5479024053 4291209000
-0.2932183743 -0.1567392796 0.5480298996 4291668781
-0.2928288281 -0.1559229493 0.5473018289 4291602988
-0.2924388349 -0.1551080197 0.5465729833 4291340070
-0.2925061882 -0.1545363218 0.5466988683 4291471656
-0.2921154797 -0.1537232846 0.5459685922 4291471656
-0.2921822667 -0.1531517059 0.5460934639 4291405863
-0.2922488749 -0.1525797248 0.5462179184 4291669035
-0.2923152447 -0.1520073414 0.5463419557 4291866414
-0.2923814058 -0.1514345855 0.5464656353 4291998000
-0.2924473286 -0.1508614421 0.5465888381 4292063793
-0.2925130427 -0.1502878964 0.5467116833 4292063791
-0.2925785482 -0.1497139782 0.5468341112 4291997998
-0.2926438153 -0.1491396725 0.5469560623 4292129075
-0.2922500670 -0.1483321190 0.5462201834 4292063282
-0.2923147976 -0.1477579474 0.5463411212 4292129075
-0.2923792899 -0.1471833885 0.5464617014 4292326454
-0.2924435735 -0.1466084570 0.5465818644 4291866414
-0.2925076485 -0.1460331529 0.5467015505 4291932207
-0.2925714850 -0.1454574615 0.5468208790 4291932977
-0.2926350832 -0.1448813975 0.5469397306 4292064563
-0.2926984727 -0.1443049461 0.5470582247 4292525120
-0.2927616239 -0.1437281370 0.5471762419 4292393534
-0.2928245366 -0.1431509554 0.5472939014 4292525384
-0.2924274504 -0.1423495710 0.5465517044 4293183314
-0.2924898565 -0.1417725533 0.5466682911 4294170727
-0.2925519943 -0.1411951631 0.5467844605 4294499692
-0.2926139235 -0.1406174004 0.5469002128 4294170984
-0.2922154367 -0.1398190856 0.5461554527 4293907812
-0.2922767997 -0.1392415017 0.5462701321 4293579615
-0.2927983403 -0.1388819367 0.5472448468 4293711201
-0.2928593457 -0.1383027136 0.5473589301 4293774946
-0.2933806777 -0.1379396915 0.5483332872 4293511774
-0.2934413254 -0.1373588294 0.5484466553 4293578586
-0.2935017347 -0.1367776245 0.5485595465 4293841758
-0.2940227687 -0.1364098638 0.5495333672 4293645923
-0.2940828204 -0.1358270347 0.5496456027 4293645923
-0.2941426337 -0.1352438331 0.5497574210 4293577315
-0.2946633399 -0.1348713487 0.5507306457 4293445729
-0.2942615747 -0.1340763867 0.5499796867 4289369450
-0.2952433228 -0.1339105964 0.5518146157 4284829733
-0.2953023612 -0.1333241612 0.5519249439 4281875551
-0.2953611910 -0.1327373683 0.5520349145 4286217889
-0.2954197824 -0.1321502328 0.5521444082 4288321979
-0.2954781353 -0.1315627396 0.5522534847 4287203498
-0.2955362499 -0.1309749037 0.5523620844 4289110463
-0.2955941260 -0.1303867102 0.5524702668 4291610597
-0.2961137295 -0.1300009936 0.5534414053 4292268519
-0.2961712182 -0.1294112056 0.5535488725 4292334312
-0.2962284684 -0.1288210601 0.5536558628 4292334813
-0.2972099483 -0.1286306828 0.5554902554 4292466399
-0.2977291942 -0.1282371581 0.5564607382 4292993246
-0.2977859974 -0.1276432276 0.5565668941 4293322211
-0.2978425324 -0.1270489693 0.5566725731 4291808191
-0.2992865741 -0.1270434409 0.5593715310 4290558124
-0.2998055816 -0.1266411692 0.5603415370 4289768860
-0.3007872403 -0.1264312118 0.5621762872 4291479478
-0.3635980189 -0.2098973393 0.6809842587 4290885019
-0.3636881113 -0.2091925293 0.6811529994 4288450678
-0.3633232415 -0.2082266062 0.6804696321 4289238329
-0.3625030220 -0.2070021927 0.6789334416 4289830466
-0.3616821170 -0.2057807744 0.6773959994 4290551330
-0.3599503934 -0.2040464729 0.6741526127 4290682916
-0.3582175076 -0.2023187280 0.6709070802 4290485287
-0.3555729389 -0.2000851631 0.6659540534 4290682666
-0.2991908193 -0.1677356809 0.5603557825 4290486819
-0.2969855964 -0.1658813506 0.5562255979 4290289440
-0.2952346802 -0.1642890126 0.5529462695 4289894934
-0.2939383984 -0.1629559994 0.5505184531 4289829141
-0.2940087020 -0.1623831689 0.5506501794 4290354212
-0.2936228812 -0.1615590602 0.5499275327 4290617384
-0.2932366133 -0.1607363224 0.5492041111 4290617378
-0.2933060527 -0.1601640433 0.5493341684 4290617378
-0.2929190397 -0.1593431681 0.5486093163 4290814242
-0.2929879725 -0.1587709785 0.5487384200 4290880035
-0.2921437025 -0.1577055454 0.5471572280 4290880037
-0.2926685810 -0.1573798507 0.5481402278 4291077416
-0.2922800481 -0.1565627009 0.5474125147 4291340588
-0.2918910980 -0.1557469517 0.5466840863 4291209002
-0.2919586003 -0.1551754326 0.5468105078 4290945830
-0.2915689051 -0.1543615758 0.5460806489 4290945830
-0.2916359007 -0.1537901610 0.5462061167 4291143207
-0.2912454307 -0.1529781967 0.5454748273 4291274793
-0.2913118601 -0.1524069011 0.5455992222 4291406633
-0.2913780808 -0.1518352032 0.5457232594 4291669805
-0.2914440930 -0.1512631178 0.5458468795 4291932723
-0.2915098667 -0.1506906450 0.5459700823 4291998516
-0.2915754318 -0.1501177847 0.5460928679 4292064311
-0.2916407585 -0.1495445520 0.5462152362 4292130104
-0.2917707860 -0.1483969092 0.5464587212 4292063541
-0.2918354571 -0.1478225142 0.5465798974 4292129073
-0.2918999195 -0.1472477317 0.5467005968 4292194866
-0.2915058136 -0.1464423239 0.5459624529 4292260659
-0.2915697098 -0.1458676904 0.5460821390 4292260659
-0.2916333973 -0.1452926844 0.5462014079 4292064563
-0.2916968465 -0.1447172910 0.5463202596 4292196149
-0.2917600870 -0.1441415399 0.5464386940 4292722499
-0.2918230891 -0.1435654014 0.5465567112 4292196155
-0.2918858826 -0.1429888904 0.5466743112 4292196159
-0.2914893925 -0.1421881020 0.5459317565 4293446226
-0.2915516496 -0.1416117549 0.5460482836 4294432868
-0.2916136384 -0.1410350502 0.5461644530 4294498661
-0.2916754186 -0.1404579729 0.5462801456 4294038369
-0.2917369902 -0.1398805231 0.5463954210 4293314646
-0.2917982936 -0.1393027157 0.5465102792 4293446232
-0.2923190296 -0.1389430165 0.5474855304 4294038369
-0.2923800051 -0.1383635700 0.5475997329 4293249900
-0.2929005325 -0.1380003989 0.5485746861 4293381486
-0.2929611504 -0.1374193281 0.5486881733 4293315927
-0.2930215001 -0.1368378848 0.5488012433 4293381720
-0.2930816412 -0.1362560838 0.5489138365 4293249635
-0.2936017513 -0.1358869225 0.5498879552 4293775979
-0.2936615050 -0.1353034824 0.5499998927 4293577315
-0.2937210500 -0.1347196996 0.5501114130 4293511522
-0.2937803566 -0.1341355741 0.5502224565 4290290039
-0.2942999899 -0.1337604076 0.5511956811 4284171290
-0.2943589091 -0.1331746429 0.5513060689 4281809501
-0.2944175899 -0.1325885355 0.5514159799 4283322740
-0.2944760323 -0.1320020705 0.5515254140 4285493388
-0.2945342660 -0.1314152628 0.5516344905 4286940834
-0.2945922315 -0.1308281124 0.5517430902 4288059818
-0.2946499884 -0.1302406043 0.5518512130 4291217882
-0.2951686978 -0.1298556626 0.5528227091 4293322231
-0.2956873477 -0.1294685304 0.5537940860 4293519610
-0.2962059379 -0.1290792227 0.5547653437 4293584631
-0.2967244685 -0.1286877096 0.5557364821 4293321459
-0.2977044880 -0.1284932345 0.5575720072 4293453797
-0.2972996831 -0.1276998669 0.5568138361 4293124832
-0.2982796431 -0.1275001019 0.5586492419 4292268493
-0.2992597520 -0.1272962987 0.5604848266 4291478977
-0.2983922958 -0.1263063699 0.5588601828 4289636773
-0.3007582128 -0.1266819984 0.5632913709 4290097324
-0.3611825407 -0.2089375556 0.6778703928 4289305452
-0.3603643775 -0.2077128142 0.6763349175 4288450143
-0.3599995077 -0.2067518085 0.6756500602 4289566765
-0.3591800630 -0.2055321932 0.6741121411 4289764144
-0.3574515283 -0.2037976980 0.6708680391 4290550300
-0.3511787951 -0.1994890571 0.6590952873 4290879265
-0.3539910316 -0.2003483921 0.6643732786 4290747428
-0.3018064499 -0.1701841354 0.5664328933 4290879014
-0.2973333001 -0.1670417637 0.5580375791 4290814757
-0.2955861986 -0.1654438674 0.5547586083 4290485792
-0.2942928374 -0.1641062796 0.5523312688 4289894166
-0.2934536040 -0.1630263776 0.5507562160 4289696787
-0.2930687964 -0.1622014642 0.5500339866 4290222107
-0.2926835418 -0.1613779217 0.5493109226 4290485279
-0.2927531600 -0.1608058363 0.5494415760 4290551070
-0.2923671603 -0.1599841565 0.5487171412 4290616863
-0.2924362421 -0.1594121456 0.5488467813 4290748451
-0.2925051153 -0.1588397324 0.5489760637 4290814244
