VERSION 0.7
FIELDS x y z rgba
SIZE 4 4 4 4
TYPE F F F U
COUNT 1 1 1 1
WIDTH 920
HEIGHT 1
VIEWPOINT 0.0 0.0 0.0 1.0 0.0 0.0 0.0
POINTS 920
DATA ascii
-0.3131704032 -0.1238624156 0.5734173059 4294105194
-0.3132261634 -0.1232472435 0.5735194087 4293711714
-0.3137527704 -0.1228161529 0.5744835734 4293843300
-0.3142792583 -0.1223828867 0.5754476190 4293908333
-0.3143344223 -0.1217648908 0.5755485892 4294105712
-0.3143892884 -0.1211465597 0.5756490827 4294038898
-0.3149153590 -0.1207086146 0.5766122937 4294038898
-0.3149698079 -0.1200887114 0.5767120123 4294038638
-0.3154955804 -0.1196473390 0.5776746869 4293775466
-0.3155495822 -0.1190258712 0.5777735710 4294038888
-0.3160750866 -0.1185810715 0.5787357688 4294038888
-0.3166004717 -0.1181340963 0.5796977282 4293184341
-0.3171257377 -0.1176849455 0.5806595683 4292526411
-0.3176509142 -0.1172336116 0.5816211700 4290950764
-0.3181760013 -0.1167801097 0.5825825334 4290556006
-0.3132584691 -0.1688507050 0.5747473836 4288515657
-0.3151863217 -0.1692473292 0.5782844424 4289629727
-0.3115513921 -0.1666603535 0.5716153383 4290024485
-0.3130154610 -0.1668054461 0.5743015409 4290419999
-0.3098416328 -0.1644825041 0.5684784055 4290222620
-0.3089857697 -0.1633982807 0.5669081211 4290156825
-0.3095214069 -0.1630505621 0.5678908229 4290156825
-0.3091287017 -0.1622135341 0.5671703219 4290156566
-0.3087355793 -0.1613778770 0.5664490461 4290222359
-0.3083420098 -0.1605435908 0.5657269359 4290550552
-0.3079479933 -0.1597106755 0.5650039911 4290747931
-0.3075535297 -0.1588791460 0.5642802715 4290747933
-0.3076233268 -0.1582880914 0.5644083619 4290813726
-0.3076928854 -0.1576966494 0.5645359755 4290879265
-0.3072973192 -0.1568674892 0.5638102293 4291010851
-0.3073663116 -0.1562761366 0.5639368296 4291208230
-0.3074350953 -0.1556843817 0.5640629530 4291208230
-0.3070384264 -0.1548576057 0.5633351803 4291207971
-0.3071066141 -0.1542659551 0.5634603500 4291142178
-0.3071745932 -0.1536739171 0.5635850430 4291140640
-0.3072423339 -0.1530814916 0.5637093186 4291140640
-0.3068442345 -0.1522576213 0.5629789233 4290945328
-0.3069114089 -0.1516653150 0.5631021261 4291011121
-0.3069783449 -0.1510726064 0.5632249713 4290290757
-0.3065791130 -0.1502511650 0.5624924898 4290027585
-0.3066454828 -0.1496585906 0.5626143217 4287330417
-0.3067116439 -0.1490656435 0.5627356172 4284435525
-0.3063113093 -0.1482466608 0.5620011687 4282727236
-0.3063769042 -0.1476538330 0.5621214509 4284043096
-0.3064422309 -0.1470606327 0.5622413754 4284044151
-0.3060407937 -0.1462441087 0.5615048409 4284307323
-0.3061055839 -0.1456510574 0.5616236925 4286282376
-0.3061701059 -0.1450576335 0.5617420673 4290164163
-0.3062343895 -0.1444638222 0.5618600249 4291545319
-0.3058315516 -0.1436503381 0.5611208677 4292334835
-0.3058952689 -0.1430566907 0.5612378120 4292204767
-0.3059587479 -0.1424626708 0.5613542795 4292270560
-0.3060219884 -0.1418682933 0.5614703298 4293058785
-0.3060849905 -0.1412735432 0.5615859032 4292927199
-0.3061477840 -0.1406784207 0.5617011189 4292596688
-0.3062103093 -0.1400829405 0.5618157983 4291675586
-0.3062725961 -0.1394870877 0.5619301200 4291805874
-0.3063346446 -0.1388908774 0.5620439649 4291937460
-0.3063964546 -0.1382943094 0.5621573329 4292726172
-0.3064580262 -0.1376973689 0.5622703433 4292923551
-0.3065193594 -0.1371000707 0.5623828173 4293317244
-0.3070484996 -0.1367108226 0.5633536577 4292922486
-0.3071094155 -0.1361119151 0.5634654760 4294039414
-0.3071701229 -0.1355126351 0.5635768175 4293710449
-0.3072305620 -0.1349129975 0.5636877418 4293314672
-0.3077591956 -0.1345177591 0.5646576285 4293906809
-0.3078192472 -0.1339165121 0.5647678375 4294236276
-0.3078790605 -0.1333149076 0.5648775101 4294170483
-0.3079386055 -0.1327129602 0.5649868250 4294039667
-0.3084667027 -0.1323117316 0.5659557581 4294237046
-0.3085258603 -0.1317081749 0.5660642385 4294302839
-0.3090537488 -0.1313035041 0.5670327544 4293513323
-0.3091124892 -0.1306983382 0.5671405792 4293446760
-0.3096401393 -0.1302902251 0.5681086779 4293644139
-0.3092292249 -0.1294869483 0.5673547387 4294433909
-0.3097565472 -0.1290763170 0.5683222413 4293907565
-0.3098143935 -0.1284688413 0.5684283376 4293710700
-0.3103414774 -0.1280547678 0.5693954229 4294368630
-0.3108684719 -0.1276385188 0.5703623295 4294039665
-0.3109257221 -0.1270281971 0.5704674125 4293973872
-0.3114524782 -0.1266084909 0.5714338422 4293973358
-0.3115093112 -0.1259965748 0.5715380907 4294170737
-0.3120358288 -0.1255734414 0.5725041032 4294366835
-0.3120922148 -0.1249599308 0.5726075768 4294235249
-0.3126184642 -0.1245333552 0.5735731125 4294170473
-0.3126744330 -0.1239182577 0.5736758113 4294170473
-0.3132004440 -0.1234882474 0.5746408701 4293579615
-0.3132559657 -0.1228715703 0.5747427940 4293711201
-0.3137817085 -0.1224381253 0.5757073760 4293776998
-0.3143073320 -0.1220025048 0.5766717196 4294040170
-0.3143622577 -0.1213829890 0.5767725110 4294236277
-0.3144169152 -0.1207631528 0.5768728256 4294499449
-0.3144713342 -0.1201429889 0.5769726634 4294433404
-0.3149963319 -0.1197014377 0.5779358745 4293907060
-0.3150503039 -0.1190797091 0.5780348778 4293775979
-0.3155750036 -0.1186347231 0.5789976120 4293973358
-0.3160996139 -0.1181875616 0.5799601078 4293710435
-0.3175664544 -0.1180886328 0.5826513767 4293184091
-0.3176197410 -0.1174609810 0.5827491879 4292264797
-0.3186154366 -0.1171796992 0.5845760107 4291738453
-0.3183838427 -0.1713134050 0.5853438973 4289301014
-0.3097365499 -0.1653951555 0.5694459677 4290156825
-0.3084913194 -0.1634699255 0.5671566725 4289959187
-0.3076362610 -0.1623884141 0.5655846000 4290024980
-0.3081707656 -0.1620410532 0.5665673018 4290221587
-0.3073146939 -0.1609631777 0.5649933815 4290353173
-0.3069215715 -0.1601303369 0.5642706752 4290550043
-0.3069917858 -0.1595398635 0.5643997788 4290615836
-0.3065979183 -0.1587089002 0.5636756420 4290747681
-0.3066675365 -0.1581185162 0.5638036728 4290747681
-0.3067369461 -0.1575277299 0.5639312267 4290747679
-0.3063419759 -0.1566991210 0.5632051229 4290945058
-0.3064108193 -0.1561084390 0.5633316636 4291273512
-0.3064794242 -0.1555173546 0.5634577870 4291273512
-0.3065478206 -0.1549258828 0.5635835528 4291272486
-0.3062192202 -0.1535087824 0.5629794002 4290485537
-0.3062868118 -0.1529170275 0.5631036758 4290222365
-0.3063541651 -0.1523248702 0.5632275343 4290289764
-0.3059563339 -0.1515020728 0.5624960661 4289763420
-0.3060231209 -0.1509100348 0.5626189113 4285949552
-0.3056244850 -0.1500891745 0.5618860126 4283646797
-0.3056907356 -0.1494972557 0.5620077848 4282202711
-0.3057567179 -0.1489049643 0.5621291399 4281676367
-0.3058224916 -0.1483123004 0.5622500181 4281874775
-0.3054224253 -0.1474944055 0.5615144968 4286348699
-0.3054876029 -0.1469018608 0.5616343617 4287862190
-0.3055525720 -0.1463089585 0.5617538095 4286151572
-0.3051514030 -0.1454935372 0.5610162616 4286479508
-0.3052158058 -0.1449007690 0.5611346364 4289111228
-0.3052799404 -0.1443076432 0.5612525940 4288781999
-0.3053438663 -0.1437141299 0.5613700747 4289768894
-0.3049412668 -0.1429017484 0.5606299043 4290098625
-0.3050046265 -0.1423083991 0.5607463717 4290953934
-0.3050677180 -0.1417146921 0.5608624220 4292597716
-0.3051306009 -0.1411205977 0.5609779954 4292202958
-0.3051932156 -0.1405261606 0.5610931516 4292070081
-0.3052556217 -0.1399313360 0.5612078309 4292793804
-0.3053177595 -0.1393361688 0.5613220930 4293318610
-0.3053796589 -0.1387406141 0.5614359379 4293647575
-0.3054413497 -0.1381447166 0.5615493059 4293645508
-0.3055027723 -0.1375484616 0.5616622567 4292198062
-0.3055639565 -0.1369518340 0.5617747307 4292591501
-0.3056249022 -0.1363548487 0.5618867874 4293315224
-0.3061530292 -0.1359650940 0.5628577471 4293907074
-0.3062135875 -0.1353664845 0.5629690289 4293314937
-0.3062739074 -0.1347675323 0.5630799532 4293512049
-0.3063339591 -0.1341682225 0.5631903410 4293709428
-0.3068615496 -0.1337724775 0.5641603470 4293907314
-0.3069212437 -0.1331715435 0.5642700791 4293907314
-0.3069806695 -0.1325702518 0.5643793344 4293710703
-0.3075078726 -0.1321697980 0.5653486252 4294171254
-0.3075669110 -0.1315669119 0.5654571056 4293973875
-0.3080939054 -0.1311630011 0.5664259791 4293118566
-0.3081525266 -0.1305584908 0.5665337443 4293709932
-0.3086792827 -0.1301511377 0.5675022006 4293709932
-0.3092640340 -0.1291342378 0.5685772896 4293973358
-0.3093218207 -0.1285265088 0.5686835051 4293710954
-0.3098481297 -0.1281122714 0.5696511269 4294434677
-0.3099054992 -0.1275029629 0.5697565675 4293776747
-0.3104315698 -0.1270852685 0.5707237124 4293645161
-0.3104885221 -0.1264743656 0.5708284378 4293710184
-0.3110143244 -0.1260532290 0.5717951059 4293907563
-0.3115400374 -0.1256299317 0.5727616549 4294103150
-0.3115963936 -0.1250161678 0.5728653073 4294168943
-0.3121218681 -0.1245894209 0.5738313198 4294170476
-0.3121778071 -0.1239740625 0.5739341974 4294236269
-0.3127030134 -0.1235438809 0.5748997927 4293644894
-0.3127585053 -0.1229269430 0.5750018358 4293908066
-0.3132834435 -0.1224933267 0.5759668946 4293843292
-0.3133385181 -0.1218748018 0.5760681629 4293974878
-0.3138631880 -0.1214377508 0.5770327449 4294368617
-0.3139178157 -0.1208176538 0.5771331787 4294565996
-0.3139721751 -0.1201972291 0.5772331357 4294565491
-0.3144963980 -0.1197554916 0.5781968832 4294170733
-0.3145503402 -0.1191335022 0.5782960057 4293580130
-0.3150742650 -0.1186883375 0.5792592764 4293580130
-0.3155980706 -0.1182409897 0.5802223086 4293449571
-0.3165922165 -0.1179667562 0.5820500255 4293186399
-0.3171159029 -0.1175141186 0.5830128193 4293316443
-0.3176394999 -0.1170593053 0.5839754343 4292658513
-0.3113307953 -0.1684983820 0.5735481381 4289039400
-0.3132523596 -0.1688971817 0.5770881176 4289827096
-0.3100911081 -0.1665580124 0.5712643266 4289892889
-0.3115505278 -0.1667042077 0.5739529133 4290155544
-0.3088492453 -0.1646266133 0.5689764619 4289826579
-0.3084586859 -0.1637870818 0.5682570338 4289958165
-0.3076051474 -0.1627042294 0.5666845441 4290155544
-0.3072136343 -0.1618683040 0.5659632683 4290221337
-0.3077472150 -0.1615195423 0.5669462681 4290418716
-0.3068921268 -0.1604425907 0.5653710365 4290550300
-0.3064993918 -0.1596098989 0.5646474957 4290550300
-0.3065693080 -0.1590187997 0.5647763014 4290616093
-0.3061757982 -0.1581879854 0.5640513897 4290681886
-0.3057818413 -0.1573585570 0.5633255839 4290747933
-0.3058508933 -0.1567680389 0.5634527802 4290747933
-0.3059196770 -0.1561771184 0.5635794997 4291142691
-0.3059882522 -0.1555858105 0.5637058020 4291208484
-0.3060565889 -0.1549941003 0.5638316870 4290747933
-0.3061246872 -0.1544019878 0.5639571548 4290879519
-0.3052647114 -0.1533433944 0.5623728633 4290747931
-0.3057961762 -0.1529844552 0.5633519888 4290879517
-0.3053993583 -0.1521608084 0.5626209378 4288844660
-0.3054663241 -0.1515689343 0.5627443194 4284831287
-0.3055330813 -0.1509766728 0.5628672838 4282529873
-0.3051351607 -0.1501554698 0.5621342063 4282003529
-0.3052013218 -0.1495633274 0.5622561574 4281939052
-0.3048026264 -0.1487440616 0.5615216494 4281675880
-0.3048682511 -0.1481520534 0.5616425276 4283584889
-0.3044687808 -0.1473347247 0.5609066486 4286940332
-0.3045338392 -0.1467428654 0.5610264540 4287596197
-0.3045986593 -0.1461506188 0.5611458421 4284043375
-0.3046632111 -0.1455579996 0.5612648129 4287269024
-0.3042623401 -0.1447436810 0.5605262518 4288321712
-0.3043263257 -0.1441512108 0.5606442094 4288389034
-0.3043901026 -0.1435583681 0.5607616901 4288323241
-0.3039881289 -0.1427465528 0.5600211024 4289503665
-0.3040513098 -0.1421538889 0.5601375699 4291806420
-0.3041142821 -0.1415608376 0.5602535605 4293122781
-0.3041770160 -0.1409674287 0.5603690743 4291214784
-0.3042395115 -0.1403736472 0.5604842305 4289569707
-0.3043017685 -0.1397795081 0.5605989099 4289372328
-0.3043637574 -0.1391849965 0.5607131720 4290490802
-0.3044255376 -0.1385901272 0.5608269572 4291214525
-0.3044870794 -0.1379949003 0.5609403253 4292991939
-0.3045483828 -0.1373993158 0.5610532165 4293189318
-0.3046094179 -0.1368033588 0.5611656904 4292727989
-0.3046702445 -0.1362070441 0.5612777472 4291872680
-0.3047308028 -0.1356103867 0.5613893270 4292659350
-0.3052578866 -0.1352201253 0.5623603463 4293054108
-0.3053180575 -0.1346218288 0.5624712110 4293709683
-0.3058449328 -0.1342281252 0.5634418130 4293643890
-0.3059047163 -0.1336282045 0.5635519624 4294432894
-0.3064313829 -0.1332310438 0.5645222068 4294301308
-0.3064907491 -0.1326295137 0.5646315813 4294695812
-0.3070172071 -0.1322288960 0.5656014085 4294564226
-0.3070761859 -0.1316257566 0.5657100677 4294170226
-0.3076023757 -0.1312216967 0.5666794777 4293907054
-0.3076609671 -0.1306169480 0.5667873621 4294302319
-0.3081869483 -0.1302094311 0.5677563548 4294565491
-0.3082451224 -0.1296030730 0.5678635240 4294697598
-0.3087708652 -0.1291921139 0.5688320994 4294039668
-0.3088286221 -0.1285841465 0.5689384937 4293775979
-0.3088861108 -0.1279758364 0.5690444112 4294433909
-0.3094114661 -0.1275601685 0.5700122118 4293776998
-0.3094685376 -0.1269502640 0.5701174140 4293842791
-0.3099936545 -0.1265311539 0.5710847378 4293645672
-0.3100503087 -0.1259196401 0.5711891651 4293645672
-0.3105751574 -0.1254970878 0.5721560717 4293907561
-0.3106313944 -0.1248840019 0.5722596645 4293973354
-0.3111560047 -0.1244580075 0.5732260942 4293973607
-0.3116804957 -0.1240298301 0.5741923451 4294039400
-0.3117361367 -0.1234138906 0.5742948651 4294039652
-0.3122603893 -0.1229822785 0.5752606392 4293908066
-0.3127845228 -0.1225484833 0.5762262344 4293776480
-0.3128395677 -0.1219297051 0.5763276219 4293842273
-0.3128943443 -0.1213105991 0.5764285326 4294105445
-0.3134180307 -0.1208721176 0.5773933530 4294434410
-0.3134723604 -0.1202514321 0.5774934292 4294368365
-0.3139957786 -0.1198095158 0.5784577131 4294039400
-0.3140496910 -0.1191872656 0.5785570145 4293907814
-0.3145728111 -0.1187419146 0.5795207620 4293710435
-0.3150958717 -0.1182943881 0.5804843307 4293644642
-0.3156187832 -0.1178446785 0.5814476609 4293907814
-0.3161416352 -0.1173927858 0.5824108720 4293447004
-0.3171341717 -0.1171122193 0.5842393637 4293315418
-0.3171869516 -0.1164824665 0.5843366385 4291542388
-0.3177094460 -0.1160240397 0.5852991939 4290358114
-0.3212837279 -0.1755595803 0.5930974483 4288843858
-0.3130610287 -0.1704243124 0.5779181123 4289235221
-0.3145187199 -0.1705727726 0.5806090832 4289498393
-0.3113640547 -0.1682232767 0.5747854710 4290089751
-0.3100531995 -0.1668791026 0.5723655820 4290023958
-0.3092029393 -0.1657872796 0.5707960129 4290155545
-0.3083520532 -0.1646986008 0.5692252517 4289958166
-0.3079622090 -0.1638587266 0.5685055852 4290023959
-0.3071101010 -0.1627754420 0.5669325590 4290089752
-0.3067192733 -0.1619391888 0.5662111044 4290155544
-0.3063279986 -0.1611043066 0.5654887557 4290287130
-0.3063984215 -0.1605128944 0.5656188130 4290418716
-0.3060063720 -0.1596798748 0.5648950934 4290484509
-0.3060762286 -0.1590885520 0.5650240183 4290550300
-0.3056834340 -0.1582574099 0.5642988682 4290550300
-0.3052901626 -0.1574276388 0.5635729432 4290550554
-0.3053591251 -0.1568368971 0.5637002587 4290616347
-0.3054278791 -0.1562457532 0.5638271570 4291076898
-0.3054963946 -0.1556542069 0.5639536381 4291076898
-0.3055646718 -0.1550622731 0.5640797019 4290682140
-0.3056327403 -0.1544699371 0.5642053485 4290484761
-0.3047741950 -0.1534109116 0.5626204610 4290156069
-0.3053048849 -0.1530518234 0.5636001229 4290156069
-0.3049087524 -0.1522278637 0.5628688335 4284568651
-0.3049756885 -0.1516357511 0.5629923940 4281739552
-0.3050423861 -0.1510432512 0.5631155372 4281544015
-0.3046451509 -0.1502217203 0.5623822212 4281938773
-0.3042474985 -0.1494015902 0.5616481304 4282795126
-0.3043133020 -0.1488097310 0.5617696047 4284242572
-0.3039148748 -0.1479915529 0.5610340834 4285690265
-0.3039800823 -0.1473998427 0.5611545444 4287664055
-0.3035809100 -0.1465836018 0.5604175925 4286544025
-0.3036455810 -0.1459920406 0.5605369806 4284043891
-0.3037100136 -0.1454000771 0.5606558919 4288782261
-0.3033097088 -0.1445863396 0.5599169731 4290361293
-0.3033735752 -0.1439945400 0.5600348711 4291020242
-0.3034372032 -0.1434023678 0.5601522923 4291349207
-0.3035005927 -0.1428098381 0.5602693558 4291545808
-0.3035637438 -0.1422169209 0.5603859425 4292927461
-0.3036266565 -0.1416236460 0.5605021119 4293650404
-0.3036893606 -0.1410299987 0.5606178045 4291610821
-0.3037517965 -0.1404359788 0.5607330799 4290622647
-0.3038139939 -0.1398416013 0.5608479381 4290162096
-0.3038759828 -0.1392468512 0.5609623194 4289372578
-0.3039377034 -0.1386517435 0.5610762835 4288912027
-0.3035336435 -0.1378448457 0.5603303909 4291150774
-0.3035947978 -0.1372499317 0.5604432821 4293256150
-0.3036557138 -0.1366546601 0.5605556965 4293913053
-0.3041822314 -0.1362676919 0.5615276694 4293189330
-0.3042427599 -0.1356707960 0.5616393685 4292923315
-0.3043030202 -0.1350735277 0.5617506504 4292199592
-0.3043630719 -0.1344759166 0.5618615150 4292723325
-0.3048890531 -0.1340829581 0.5628324747 4293315462
-0.3054150045 -0.1336878240 0.5638033748 4293972600
-0.3054744899 -0.1330873221 0.5639132261 4293643635
-0.3060002029 -0.1326887310 0.5648837090 4293972091
-0.3060593009 -0.1320866048 0.5649927855 4294235263
-0.3065847754 -0.1316845715 0.5659628510 4294236279
-0.3071102202 -0.1312803477 0.5669327974 4293973107
-0.3067019284 -0.1304767579 0.5661790967 4294039147
-0.3072270155 -0.1300700009 0.5671484470 4293841768
-0.3077520728 -0.1296610683 0.5681176782 4294237044
-0.3082770109 -0.1292499453 0.5690867305 4294368630
-0.3083347380 -0.1286417246 0.5691933036 4294368114
-0.3083921969 -0.1280331612 0.5692993402 4294565493
-0.3084494174 -0.1274242699 0.5694049597 4294105193
-0.3089737892 -0.1270071715 0.5703729987 4293973607
-0.3090305924 -0.1263966858 0.5704778433 4293710952
-0.3095547259 -0.1259761453 0.5714454055 4293908331
-0.3100787997 -0.1255534291 0.5724128485 4294105194
-0.3101350069 -0.1249400750 0.5725166202 4294105194
-0.3106588125 -0.1245139092 0.5734835863 4294105193
-0.3107145727 -0.1238989681 0.5735865235 4293973607
-0.3112381101 -0.1234693676 0.5745530128 4293842273
-0.3112934530 -0.1228528395 0.5746551752 4293710687
-0.3118167520 -0.1224197969 0.5756211281 4293776478
-0.3123399317 -0.1219845712 0.5765869617 4294039650
-0.3123946786 -0.1213652045 0.5766879916 4294171238
-0.3124491274 -0.1207455173 0.5767885447 4294302824
-0.3129718602 -0.1203055978 0.5777535439 4294237031
-0.3134945035 -0.1198635027 0.5787183642 4293973859
-0.3135483563 -0.1192409843 0.5788177848 4293842019
-0.3140707314 -0.1187954545 0.5797820687 4293710433
-0.3145929575 -0.1183477417 0.5807461143 4293776228
-0.3151151240 -0.1178978458 0.5817100406 4293907814
-0.3151681423 -0.1172712594 0.5818079710 4293906534
-0.3161590993 -0.1169915199 0.5836372375 4293577569
-0.3166809082 -0.1165350825 0.5846005082 4292002915
-0.3167333901 -0.1159047484 0.5846974254 4291147606
-0.3151668906 -0.1732187271 0.5830009580 4289762873
-0.3207646310 -0.1756360382 0.5933557153 4289236529
-0.3166981041 -0.1727584898 0.5858334303 4289431562
-0.3126294017 -0.1698964685 0.5783070326 4289957906
-0.3094795644 -0.1675486416 0.5724804401 4290089752
-0.3086312115 -0.1664550304 0.5709111094 4290155545
-0.3077821732 -0.1653645486 0.5693405867 4290155291
-0.3069325089 -0.1642771959 0.5677688122 4290023705
-0.3065431416 -0.1634387672 0.5670485497 4290023959
-0.3061533272 -0.1626017094 0.5663275123 4290023959
-0.3057630658 -0.1617660075 0.5656055808 4290089752
-0.3058336675 -0.1611747891 0.5657361746 4290221338
-0.3054426610 -0.1603409499 0.5650128722 4290287130
-0.3055126965 -0.1597498059 0.5651424527 4290418716
-0.3051209152 -0.1589178294 0.5644177198 4290550300
-0.3047286868 -0.1580872536 0.5636921525 4290550300
-0.3047978282 -0.1574966758 0.5638200641 4290550300
-0.3048667610 -0.1569057107 0.5639475584 4290747679
-0.3049354553 -0.1563143283 0.5640746355 4291076898
-0.3045417964 -0.1554866135 0.5633464456 4291142691
-0.3046099246 -0.1548953503 0.5634724498 4290813726
-0.3047454953 -0.1537116170 0.5637232661 4289893434
-0.3043504059 -0.1528868079 0.5629923940 4288380195
-0.3044175208 -0.1522948593 0.5631165504 4281806914
-0.3044843972 -0.1517025083 0.5632402897 4281017398
-0.3045510352 -0.1511097848 0.5633635521 4281480031
-0.3041545153 -0.1502879113 0.5626300573 4281545824
-0.3037575483 -0.1494674534 0.5618957281 4282466158
-0.3033601642 -0.1486484259 0.5611606240 4284768913
-0.3034255803 -0.1480568647 0.5612816215 4286808746
-0.3030274212 -0.1472397745 0.5605451465 4287466676
-0.3026288152 -0.1464241147 0.5598077774 4285097350
-0.3026933372 -0.1458332092 0.5599271655 4284439420
-0.3022939861 -0.1450195014 0.5591884255 4287730342
-0.3023579419 -0.1444287598 0.5593067408 4286677654
-0.3024216592 -0.1438376307 0.5594245791 4287334807
-0.3024851382 -0.1432461441 0.5595420599 4288782253
-0.3025483787 -0.1426542699 0.5596590042 4290099389
-0.3030755222 -0.1422799230 0.5606341362 4292270558
-0.3031384051 -0.1416863948 0.5607504249 4293388004
-0.3027367294 -0.1408764422 0.5600073934 4291743179
-0.3027990162 -0.1402831078 0.5601226687 4291148991
-0.3028610945 -0.1396893859 0.5602374673 4290820026
-0.3029229343 -0.1390953213 0.5603518486 4290360243
-0.3029845059 -0.1385008842 0.5604657531 4290228657
-0.3025810719 -0.1376945674 0.5597195029 4291677897
-0.3026420772 -0.1371003240 0.5598323345 4293059550
-0.3027028739 -0.1365057230 0.5599448085 4293980402
-0.3032284677 -0.1361195296 0.5609170794 4294177781
-0.3032888770 -0.1355232894 0.5610287786 4293253070
-0.3033490181 -0.1349267066 0.5611400604 4291279280
-0.3034089208 -0.1343297660 0.5612508655 4291211133
-0.3039340377 -0.1339375824 0.5622222424 4291934856
-0.3044590950 -0.1335432082 0.5631934404 4293578614
-0.3049840629 -0.1331466436 0.5641645789 4293249649
-0.3050432801 -0.1325455457 0.5642741323 4293643385
-0.3055680394 -0.1321455389 0.5652448535 4293972350
-0.3056268394 -0.1315428168 0.5653536320 4294104441
-0.3061513901 -0.1311393678 0.5663239360 4293907062
-0.3062098026 -0.1305350363 0.5664319396 4293908331
-0.3067341149 -0.1301281154 0.5674018264 4293710952
-0.3067921102 -0.1295221746 0.5675091147 4293974124
-0.3073161840 -0.1291118115 0.5684785843 4294500468
-0.3073737621 -0.1285042763 0.5685850978 4294302319
-0.3078976274 -0.1280904561 0.5695540905 4293841768
-0.3079547882 -0.1274813116 0.5696598887 4293644643
-0.3084783852 -0.1270640492 0.5706284642 4293578850
-0.3085351288 -0.1264533103 0.5707334280 4293447780
-0.3085916340 -0.1258422136 0.5708379149 4293645159
-0.3091148138 -0.1254202574 0.5718057156 4293973608
-0.3096379340 -0.1249961033 0.5727733970 4294039401
-0.3101609349 -0.1245697737 0.5737408400 4294039400
-0.3102166653 -0.1239545718 0.5738439560 4293907814
-0.3107394278 -0.1235247999 0.5748109818 4293710433
-0.3107947409 -0.1229080111 0.5749132633 4293578847
-0.3113172352 -0.1224747971 0.5758797526 4293644892
-0.3113721013 -0.1218564287 0.5759812593 4293842271
-0.3118943274 -0.1214197725 0.5769472718 4294039650
-0.3119487464 -0.1207998171 0.5770480037 4294039650
-0.3124707043 -0.1203597263 0.5780134797 4294039650
-0.3125247061 -0.1197381988 0.5781133771 4293908064
-0.3130463660 -0.1192946658 0.5790783763 4293710687
-0.3135679364 -0.1188489571 0.5800431967 4293710687
-0.3136213124 -0.1182246059 0.5801419020 4293776226
-0.3146107495 -0.1179509833 0.5819721818 4293842019
-0.3146637678 -0.1173241287 0.5820702314 4294169191
-0.3151848316 -0.1168706194 0.5830340981 4293577054
-0.3166425824 -0.1167603731 0.5857307315 4292791123
-0.3157581389 -0.1157852709 0.5840946436 4292856916
-0.3172159195 -0.1156678498 0.5867912769 4291937911
-0.3177366257 -0.1152046770 0.5877544880 4291674739
-0.3212366998 -0.1795645952 0.5954523683 4292334007
-0.3185603619 -0.1774124950 0.5904914141 4290491803
-0.3273607194 -0.1816393882 0.6068040133 4290028630
-0.3228470385 -0.1784700155 0.5984373093 4289568079
-0.3178715706 -0.1750649214 0.5892146826 4290090530
-0.3102105558 -0.1695679277 0.5750140548 4289562125
-0.3093648553 -0.1684684902 0.5734463930 4290022676
-0.3085184693 -0.1673721969 0.5718775392 4289827096
-0.3081313372 -0.1665275693 0.5711598992 4290024475
-0.3077437580 -0.1656843126 0.5704414845 4289957912
-0.3068956137 -0.1645956337 0.5688693523 4289892119
-0.3060468137 -0.1635100991 0.5672960281 4289958166
-0.3056577146 -0.1626726985 0.5665747523 4290023959
-0.3052681684 -0.1618366688 0.5658526421 4290155545
-0.3053387105 -0.1612452269 0.5659834146 4290287131
-0.3050183654 -0.1598196775 0.5653896332 4290287130
-0.3046272695 -0.1589873880 0.5646647215 4290352921
-0.3046967089 -0.1583960950 0.5647934079 4290550300
-0.3043048382 -0.1575656682 0.5640670657 4290616347
-0.3043737113 -0.1569744647 0.5641946793 4290879519
-0.3039810658 -0.1561459154 0.5634669065 4291142691
-0.3040494025 -0.1555548161 0.5635935068 4291142691
-0.3041174710 -0.1549633145 0.5637197495 4290879517
-0.3037237525 -0.1541371644 0.5629898906 4290353173
-0.3037912548 -0.1535457671 0.5631150603 4289762628
-0.3038585484 -0.1529539824 0.5632398129 4285617669
-0.3034637272 -0.1521302462 0.5625079274 4281084749
-0.3035304546 -0.1515385807 0.5626316071 4281282128
-0.3035969436 -0.1509465128 0.5627548695 4281020773
-0.3036632240 -0.1503540576 0.5628777146 4282007668
-0.3032669425 -0.1495332718 0.5621432066 4283125110
-0.3028702438 -0.1487139165 0.5614078641 4284704142
-0.3024731278 -0.1478959769 0.5606717467 4286545063
-0.3020755649 -0.1470794529 0.5599347949 4287071407
-0.3021402657 -0.1464886963 0.5600547194 4283979641
-0.3017419577 -0.1456741393 0.5593163967 4286085017
-0.3018060923 -0.1450835317 0.5594353080 4289375678
-0.3014070094 -0.1442709267 0.5586955547 4288980920
-0.3014705777 -0.1436804831 0.5588133931 4289307314
-0.3019971251 -0.1433094591 0.5597893596 4289307314
-0.3020603061 -0.1427173615 0.5599065423 4289638840
-0.3021232784 -0.1421248764 0.5600232482 4291744216
-0.3021860123 -0.1415320337 0.5601395369 4292269271
-0.3022485077 -0.1409388185 0.5602553487 4291413962
-0.3023107648 -0.1403452456 0.5603708029 4291478728
-0.3023727834 -0.1397513002 0.5604857206 4291412935
-0.3024345636 -0.1391569823 0.5606002808 4291545030
-0.3024961352 -0.1385623068 0.5607143641 4291545030
-0.3020933867 -0.1377556622 0.5599678159 4292664792
-0.3021543622 -0.1371611804 0.5600808263 4292993757
-0.3022150993 -0.1365663409 0.5601934195 4293387752
-0.3022755980 -0.1359711289 0.5603055358 4294308854
-0.3023358285 -0.1353755742 0.5604172349 4294766567
-0.3023958504 -0.1347796619 0.5605285168 4292990156
-0.3024556339 -0.1341833919 0.5606392622 4291146889
-0.3029798567 -0.1337919682 0.5616109967 4291212682
-0.3035040200 -0.1333983541 0.5625826120 4292986225
-0.3044929802 -0.1332059354 0.5644158125 4293380983
-0.3040871918 -0.1324021369 0.5636636019 4294170500
-0.3046110868 -0.1320028901 0.5646346807 4294170500
-0.3051348925 -0.1316014677 0.5656056404 4293973370
-0.3051934242 -0.1309981495 0.5657141209 4293775991
-0.3057170212 -0.1305932701 0.5666846633 4293974126
-0.3062405288 -0.1301862001 0.5676550865 4293908333
-0.3062984943 -0.1295800060 0.5677624941 4293908584
-0.3063561916 -0.1289734840 0.5678694844 4294237549
-0.3068793118 -0.1285616904 0.5688391328 4293776229
-0.3069366217 -0.1279535443 0.5689453483 4292986713
-0.3074595034 -0.1275383085 0.5699145794 4293447010
-0.3075163662 -0.1269285679 0.5700200200 4293973354
-0.3080390096 -0.1265098900 0.5709887743 4294039401
-0.3080954850 -0.1258985549 0.5710934401 4293776229
-0.3086178601 -0.1254764199 0.5720617771 4293776228
-0.3091401756 -0.1250520945 0.5730299354 4293776228
-0.3091960549 -0.1244379058 0.5731335282 4293842021
-0.3097181022 -0.1240101382 0.5741012096 4293842021
-0.3097735345 -0.1233943552 0.5742039680 4293776226
-0.3102953434 -0.1229631528 0.5751711726 4293710433
-0.3103503287 -0.1223457754 0.5752731562 4293579099
-0.3108718693 -0.1219111308 0.5762398243 4293579099
-0.3109264374 -0.1212921739 0.5763410330 4293842270
-0.3114477098 -0.1208540872 0.5773072243 4293710684
-0.3115018308 -0.1202335507 0.5774075389 4293842270
-0.3120228052 -0.1197920293 0.5783732533 4293842270
-0.3125436902 -0.1193483174 0.5793387890 4293579101
-0.3125972152 -0.1187249571 0.5794379711 4293579101
-0.3131178021 -0.1182778105 0.5804029703 4293776226
-0.3141057193 -0.1180040762 0.5822342038 4293776226
-0.3141586781 -0.1173769683 0.5823323727 4294432614
-0.3146789670 -0.1169232652 0.5832967758 4293906270
-0.3156667650 -0.1166401878 0.5851278305 4293316946
-0.3166546524 -0.1163530573 0.5869589448 4293711704
-0.3171747327 -0.1158909425 0.5879229903 4293711473
-0.3176947236 -0.1154266372 0.5888868570 4293777266
-0.3186825514 -0.1151292175 0.5907179713 4293712269
-0.3196704388 -0.1148277298 0.5925490856 4293514890
-0.3201902211 -0.1143550053 0.5935125351 4293253543
-0.3211780787 -0.1140463427 0.5953436494 4293582508
-0.3215524554 -0.1807755083 0.5972672701 4290753167
-0.3099428415 -0.1716900468 0.5757030249 4290092840
-0.3091000021 -0.1705852598 0.5741375089 4290155544
-0.3087152243 -0.1697357893 0.5734227896 4289366028
-0.3101652861 -0.1698929518 0.5761162043 4289365266
-0.3093211353 -0.1687921882 0.5745481849 4289562645
-0.3084762990 -0.1676945537 0.5729789734 4289498642
-0.3076308072 -0.1666000634 0.5714085102 4289564435
-0.3072439134 -0.1657564640 0.5706899166 4289629201
-0.3068566024 -0.1649142206 0.5699704885 4289629201
-0.3064688146 -0.1640733480 0.5692502260 4289760787
-0.3056210279 -0.1629887372 0.5676754713 4289958166
-0.3052322865 -0.1621514857 0.5669534206 4290221337
-0.3048430979 -0.1613156050 0.5662304759 4290352923
-0.3049133718 -0.1607235223 0.5663610101 4290287130
-0.3045234084 -0.1598895043 0.5656366944 4290221337
-0.3041329980 -0.1590568721 0.5649115443 4290155542
-0.3042023778 -0.1584653556 0.5650404096 4290484507
-0.3038112223 -0.1576346010 0.5643138289 4290616347
-0.3038800359 -0.1570431739 0.5644416213 4290813726
-0.3034881055 -0.1562142968 0.5637136698 4291011103
-0.3035563529 -0.1556229591 0.5638404489 4291011103
-0.3036243916 -0.1550312340 0.5639668107 4290813724
-0.3032313585 -0.1542047560 0.5632367730 4290287380
-0.3028378785 -0.1533796787 0.5625059009 4289171004
-0.3033660650 -0.1530211121 0.5634869933 4282920704
-0.3029719293 -0.1521970481 0.5627548695 4280953169
-0.3030385971 -0.1516051441 0.5628787279 4281084755
-0.3031050563 -0.1510128528 0.5630021691 4280494688
-0.3031712770 -0.1504201591 0.5631251931 4282007927
-0.3027757108 -0.1495990455 0.5623904467 4285559451
-0.3023797274 -0.1487793475 0.5616548657 4288520136
-0.3019832969 -0.1479610801 0.5609185696 4288124097
-0.3015864193 -0.1471442282 0.5601813793 4286610858
-0.3016510904 -0.1465532482 0.5603014827 4283650422
-0.3012534678 -0.1457383484 0.5595629215 4288387518
-0.3013175726 -0.1451475024 0.5596820116 4290954451
-0.3009191751 -0.1443345845 0.5589420199 4290954451
-0.3009827137 -0.1437438875 0.5590600371 4291412430
-0.3010460138 -0.1431528330 0.5591775775 4291478223
-0.3015716076 -0.1427803934 0.5601538420 4291414735
-0.3016345203 -0.1421876848 0.5602707267 4292072665
-0.3016971946 -0.1415946037 0.5603871346 4291940308
-0.3017596602 -0.1410011500 0.5605031848 4291084999
-0.3018218577 -0.1404073387 0.5606186986 4290557885
-0.3018838465 -0.1398131549 0.5607338548 4289899955
-0.3019455671 -0.1392185986 0.5608485341 4289835182
-0.3020070791 -0.1386236846 0.5609627366 4290822077
-0.3016050458 -0.1378167123 0.5602160096 4292664279
-0.3016659617 -0.1372219920 0.5603291392 4291611591
-0.3017266691 -0.1366268992 0.5604419112 4291610312
-0.3017871082 -0.1360314637 0.5605541468 4292860379
-0.3018473387 -0.1354356557 0.5606660247 4294043362
-0.3019073009 -0.1348395050 0.5607774258 4293122260
-0.3019670248 -0.1342429966 0.5608883500 4291082653
-0.3024904430 -0.1338514239 0.5618605614 4290885274
-0.3030138314 -0.1334576607 0.5628327131 4292525425
-0.3035371304 -0.1330617219 0.5638047457 4293249148
-0.3031319380 -0.1322585046 0.5630521178 4294170500
-0.3041192591 -0.1320616454 0.5648860335 4293841535
-0.3046422899 -0.1316600591 0.5658574700 4293578867
-0.3047007620 -0.1310565025 0.5659661293 4293710453
-0.3052235544 -0.1306514591 0.5669372082 4294039919
-0.3052816391 -0.1300462931 0.5670450330 4294039919
-0.3058041930 -0.1296377927 0.5680156946 4293974375
-0.3058618605 -0.1290310174 0.5681228042 4294105961
-0.3059192896 -0.1284238845 0.5682294369 4293513571
-0.3064414561 -0.1280106753 0.5691993833 4292987227
-0.3064984381 -0.1274019480 0.5693052411 4293973354
-0.3070203662 -0.1269852817 0.5702747107 4294894456
-0.3070769608 -0.1263749599 0.5703797936 4294697330
-0.3075986505 -0.1259548366 0.5713487864 4293776228
-0.3076548278 -0.1253429055 0.5714530945 4293644642
-0.3081762493 -0.1249193475 0.5724216700 4293644642
-0.3086976111 -0.1244936064 0.5733900666 4293644642
-0.3087531626 -0.1238788217 0.5734932423 4293710435
-0.3092742562 -0.1234496310 0.5744611621 4293776226
-0.3093293905 -0.1228332594 0.5745635629 4293776226
-0.3098502159 -0.1224006191 0.5755310059 4293710685
-0.3099049330 -0.1217826605 0.5756326318 4293644892
-0.3104254901 -0.1213465855 0.5765995383 4293842270
-0.3104797900 -0.1207270473 0.5767003298 4293644891
-0.3110000491 -0.1202875227 0.5776667595 4293842270
-0.3110539019 -0.1196664050 0.5777667761 4293908063
-0.3115739226 -0.1192234457 0.5787326694 4293513308
-0.3125603199 -0.1189558506 0.5805648565 4293513308
-0.3130802214 -0.1185075864 0.5815305114 4293776226
-0.3131333292 -0.1178814620 0.5816291571 4293776226
-0.3136529028 -0.1174297631 0.5825942755 4294235750
-0.3141723871 -0.1169758737 0.5835592151 4293972578
-0.3146917820 -0.1165198088 0.5845239162 4293315926
-0.3152110577 -0.1160615608 0.5854884386 4293381719
-0.3161972463 -0.1157721281 0.5873202682 4293578850
-0.3167163730 -0.1153085753 0.5882844925 4293710436
-0.3177025914 -0.1150119677 0.5901163816 4293973608
-0.3182215393 -0.1145431027 0.5910803080 4294039401
-0.3187403977 -0.1140720546 0.5920439959 4293909119
-0.3197265565 -0.1137651503 0.5938757658 4293909119
-0.3612841666 -0.2072681338 0.6724541783 4292463536
-0.3558911979 -0.2034381926 0.6624162793 4292068778
-0.3108152747 -0.1763858795 0.5785169601 4290751601
-0.3095197678 -0.1750106066 0.5761057138 4290487113
-0.3091380298 -0.1741554439 0.5753951669 4290289734
-0.3151596189 -0.1768960208 0.5866031051 4290552369
-0.3138634861 -0.1755194217 0.5841906071 4289960232
-0.3125664294 -0.1741476953 0.5817764401 4290091030
-0.3108107448 -0.1725267470 0.5785086155 4289762065
-0.3099696934 -0.1714188457 0.5769430995 4289628687
-0.3086699843 -0.1700617522 0.5745239854 4289562894
-0.3078275025 -0.1689609885 0.5729558468 4289365264
-0.3079006970 -0.1683644205 0.5730921030 4289365264
-0.3075153828 -0.1675177813 0.5723749399 4289498382
-0.3071296215 -0.1666724831 0.5716569424 4289169417
-0.3058264256 -0.1653328091 0.5692312717 4289366029
-0.3063568175 -0.1649859846 0.5702185035 4289431822
-0.3055109978 -0.1638986766 0.5686442256 4289694994
-0.3051233888 -0.1630597264 0.5679227710 4289892373
-0.3042763770 -0.1619778425 0.5663462281 4290221337
-0.3043468297 -0.1613859385 0.5664773583 4290418716
-0.3039578795 -0.1605511010 0.5657534003 4290287128
-0.3040277660 -0.1599592865 0.5658835173 4290221335
-0.3036380708 -0.1591263115 0.5651581287 4290221335
-0.3032479286 -0.1582947373 0.5644319654 4290484507
-0.3033169210 -0.1577034742 0.5645604134 4290682140
-0.3029260337 -0.1568737775 0.5638328195 4290879519
-0.3029944599 -0.1562826186 0.5639601946 4290945310
-0.3026027679 -0.1554547995 0.5632311702 4290879517
-0.3026706576 -0.1548637450 0.5633575320 4290682138
-0.3027383089 -0.1542722881 0.5634834170 4290221587
-0.3028057218 -0.1536804289 0.5636089444 4288118569
-0.3024126291 -0.1528555304 0.5628772378 4281934080
-0.3024794757 -0.1522637904 0.5630016923 4280756043
-0.3025461137 -0.1516716480 0.5631257296 4281150801
-0.3021519184 -0.1508491784 0.5623919964 4280757861
-0.3022179902 -0.1502571702 0.5625149608 4280165724
-0.3022838235 -0.1496647745 0.5626375079 4283388541
-0.3018885255 -0.1488447338 0.5619017482 4286612398
-0.3010317981 -0.1477997899 0.5603071451 4287269301
-0.3010966480 -0.1472089589 0.5604278445 4284703374
-0.3011612594 -0.1466177404 0.5605480671 4284439424
-0.3007643223 -0.1458025128 0.5598092675 4289834450
-0.3008283675 -0.1452114433 0.5599284768 4291480793
-0.3004306853 -0.1443981826 0.5591883063 4291875551
-0.3004941940 -0.1438072622 0.5593064427 4292268250
-0.3005574346 -0.1432159692 0.5594241619 4292268250
-0.3006204367 -0.1426243037 0.5595414639 4291151560
-0.3006832302 -0.1420322657 0.5596583486 4290691009
-0.3007457554 -0.1414398551 0.5597747564 4291151303
-0.3008080721 -0.1408470869 0.5598906875 4290888131
-0.3008701503 -0.1402539462 0.5600062609 4290493373
-0.3009319901 -0.1396604329 0.5601213574 4290164408
-0.3009935915 -0.1390665621 0.5602359772 4289967027
-0.3010549247 -0.1384723186 0.5603501797 4292072403
-0.3006535172 -0.1376659274 0.5596030354 4293058017
-0.3007143140 -0.1370718777 0.5597161651 4291544778
-0.3007748723 -0.1364774704 0.5598288774 4291675083
-0.3008351624 -0.1358826905 0.5599411726 4292530392
-0.3008952439 -0.1352875680 0.5600529909 4292859609
-0.3014180958 -0.1348993182 0.5610260963 4292267472
-0.3014777601 -0.1343025565 0.5611371994 4291478207
-0.3015372157 -0.1337054521 0.5612478852 4291215035
-0.3020597100 -0.1333124638 0.5622203350 4292919164
-0.3025821149 -0.1329172850 0.5631927252 4293445508
-0.3031044900 -0.1325199157 0.5641649961 4294367362
-0.3031632304 -0.1319186538 0.5642743111 4293775225
-0.3036853671 -0.1315178275 0.5652461648 4293709933
-0.3042074442 -0.1311148107 0.5662178993 4294170484
-0.3042656183 -0.1305106580 0.5663262010 4294236526
-0.3047874868 -0.1301041991 0.5672975183 4294104940
-0.3048452735 -0.1294984370 0.5674051046 4294105191
-0.3053668737 -0.1290885061 0.5683759451 4294039398
-0.3054242432 -0.1284811348 0.5684827566 4293513056
-0.3059456348 -0.1280677617 0.5694531798 4293249884
-0.3060025871 -0.1274587810 0.5695592165 4293842022
-0.3065237105 -0.1270419508 0.5705291629 4294894710
-0.3065802753 -0.1264313757 0.5706344247 4294763121
-0.3071011603 -0.1260110885 0.5716039538 4293644640
-0.3071572781 -0.1253989041 0.5717084408 4293513056
-0.3076779246 -0.1249751821 0.5726774931 4293513056
-0.3077336252 -0.1243614033 0.5727811456 4293513054
-0.3082540035 -0.1239342242 0.5737497211 4293513054
-0.3083092868 -0.1233188584 0.5738526583 4293513308
-0.3088293970 -0.1228882298 0.5748207569 4293644894
-0.3093494475 -0.1224554181 0.5757886767 4293776477
-0.3094041049 -0.1218372062 0.5758904219 4293776477
-0.3099238873 -0.1214009523 0.5768578649 4293908063
-0.3099781275 -0.1207811534 0.5769588351 4293776477
-0.3104976118 -0.1203414574 0.5779257417 4293908063
-0.3105514050 -0.1197200790 0.5780258775 4293908063
-0.3110706210 -0.1192769408 0.5789923072 4293644892
-0.3120554984 -0.1190092340 0.5808253884 4293579099
-0.3125745952 -0.1185607910 0.5817915797 4293710433
-0.3126276731 -0.1179343984 0.5818904042 4293710433
-0.3131464720 -0.1174825206 0.5828559995 4293907563
-0.3136651516 -0.1170284450 0.5838214755 4294104942
-0.3141837418 -0.1165721938 0.5847867131 4293513824
-0.3147022426 -0.1161137521 0.5857517719 4293119066
-0.3156868815 -0.1158242077 0.5875844955 4293513054
-0.3162052333 -0.1153604612 0.5885492563 4293710433
-0.3171899021 -0.1150637418 0.5903819799 4294170978
-0.3177080750 -0.1145946831 0.5913464427 4294631529
-0.3182261288 -0.1141234413 0.5923107266 4294499952
-0.3187440336 -0.1136500165 0.5932747126 4293973608
-0.3197286129 -0.1133398563 0.5951073170 4293975951
-0.3207131922 -0.1130256429 0.5969399214 4294568088
-0.3645244241 -0.2118265033 0.6798907518 4292136103
-0.3623366058 -0.2098042816 0.6758101583 4291214205
-0.3592356145 -0.2072642595 0.6700263619 4290358896
-0.3543087840 -0.2036874443 0.6608371139 4290881362
-0.3129676878 -0.1786238700 0.5837300420 4290946617
-0.3112193048 -0.1769810468 0.5804690123 4290815031
-0.3140342236 -0.1779310256 0.5857192278 4291077163
-0.3127412796 -0.1765503436 0.5833076835 4291077163
-0.3096207380 -0.1741470993 0.5774874687 4290682658
-0.3110662401 -0.1743154973 0.5801835060 4290090521
-0.3093139231 -0.1726925522 0.5769152045 4289827094
-0.3084745407 -0.1715846509 0.5753496289 4289103371
-0.3085486889 -0.1709864885 0.5754879117 4289234189
-0.3077081740 -0.1698830426 0.5739202499 4289431568
-0.3077816665 -0.1692857891 0.5740572810 4289431568
-0.3064826131 -0.1679361612 0.5716343522 4289563154
-0.3060977757 -0.1670909524 0.5709165931 4289629198
-0.3047971725 -0.1657493711 0.5684908032 4289431819
-0.3057845533 -0.1656526178 0.5703324080 4289497615
-0.3044827580 -0.1643164158 0.5679043531 4289629201
-0.3040960431 -0.1634775549 0.5671831369 4289760787
-0.3037089109 -0.1626400501 0.5664610267 4289892373
-0.3033213317 -0.1618039161 0.5657381415 4290221337
-0.3033916056 -0.1612126976 0.5658692122 4290418716
-0.3030032814 -0.1603784263 0.5651448965 4290287130
-0.3026144803 -0.1595455259 0.5644198060 4290287130
-0.3026838899 -0.1589548588 0.5645492077 4290221335
-0.3022943437 -0.1581238359 0.5638226271 4290352921
-0.3023631871 -0.1575332582 0.5639510751 4290747933
-0.3024317920 -0.1569422781 0.5640789866 4290879519
-0.3020411432 -0.1561136395 0.5633503795 4290813726
-0.3021091819 -0.1555227488 0.5634773374 4290879519
-0.3021770120 -0.1549314559 0.5636038184 4290616347
-0.3023119867 -0.1537476927 0.5638555884 4287460384
-0.3019195795 -0.1529224515 0.5631237030 4282591744
-0.3015267551 -0.1520986259 0.5623909831 4281412944
-0.3015932143 -0.1515071690 0.5625149608 4281018186
-0.3016594648 -0.1509153098 0.5626385212 4280823141
-0.3017255068 -0.1503230631 0.5627616644 4280165211
-0.3013312221 -0.1495021880 0.5620263219 4283586179
-0.3013966978 -0.1489100754 0.5621483922 4286415278
-0.3005414009 -0.1478646994 0.5605531931 4287138483
-0.3001458645 -0.1470481008 0.5598154068 4283256696
-0.3002103269 -0.1464575529 0.5599356890 4285294729
-0.3002745509 -0.1458666325 0.5600554347 4288189621
-0.3003385365 -0.1452753246 0.5601748228 4288651694
-0.2999415696 -0.1444617361 0.5594344139 4289507003
-0.2995441854 -0.1436495781 0.5586931705 4290558913
-0.2996072769 -0.1430589557 0.5588108897 4291480015
-0.3001311719 -0.1426871568 0.5597880483 4291283918
-0.3001939058 -0.1420948803 0.5599050522 4290954953
-0.3002564013 -0.1415022463 0.5600216389 4291546572
-0.3003186584 -0.1409092247 0.5601377487 4291809744
-0.3003807068 -0.1403158456 0.5602534413 4291612363
-0.3004424870 -0.1397221088 0.5603686571 4291349191
-0.3000424206 -0.1389142722 0.5596225262 4290888131
-0.3005653620 -0.1385335177 0.5605978370 4291875026
-0.3001646399 -0.1377267838 0.5598504543 4292795362
-0.2997635007 -0.1369215250 0.5591022372 4292795362
-0.2998239100 -0.1363277882 0.5592149496 4292333783
-0.2998840809 -0.1357337087 0.5593271852 4292070611
-0.2999440134 -0.1351392567 0.5594389439 4292267990
-0.3004659712 -0.1347517669 0.5604124665 4292136404
-0.3009878695 -0.1343620867 0.5613859296 4292334811
-0.3010472655 -0.1337647289 0.5614966750 4291216330
-0.3015689552 -0.1333715916 0.5624697208 4293509767
-0.3020905852 -0.1329762638 0.5634426475 4293904525
-0.3026121557 -0.1325787455 0.5644153953 4294761858
-0.3026708364 -0.1319772303 0.5645248890 4293906549
-0.3031921983 -0.1315762550 0.5654972792 4293380958
-0.3032504916 -0.1309731305 0.5656059980 4293578337
-0.3037716150 -0.1305686831 0.5665779710 4293446751
-0.3038295209 -0.1299639493 0.5666859746 4293709923
-0.3043504059 -0.1295560449 0.5676575303 4294368106
-0.3044078946 -0.1289496869 0.5677647591 4294170727
-0.3049285710 -0.1285383403 0.5687358379 4293381470
-0.3054491282 -0.1281248033 0.5697067976 4293184091
-0.3055060506 -0.1275155693 0.5698129535 4293381470
-0.3060263991 -0.1270985752 0.5707834959 4294565744
-0.3060829043 -0.1264877468 0.5708888769 4294631274
-0.3066030145 -0.1260672957 0.5718589425 4293775965
-0.3066590726 -0.1254548728 0.5719635487 4293447261
-0.3071789443 -0.1250309646 0.5729331374 4293578847
-0.3072345853 -0.1244169399 0.5730369091 4293644894
-0.3077541888 -0.1239895895 0.5740060210 4293644894
-0.3078094125 -0.1233739629 0.5741090775 4293513305
-0.3083287477 -0.1229431704 0.5750777125 4293579098
-0.3083835542 -0.1223259568 0.5751799345 4293776731
-0.3089026213 -0.1218917146 0.5761480331 4293776731
-0.3094215989 -0.1214552745 0.5771160126 4293842524
-0.3094757795 -0.1208352223 0.5772171021 4293842524
-0.3099944890 -0.1203953475 0.5781845450 4293776477
-0.3100482523 -0.1197737083 0.5782848001 4293710684
-0.3105666637 -0.1193303913 0.5792517662 4293776478
-0.3110849857 -0.1188848838 0.5802184939 4293710685
-0.3116032183 -0.1184371859 0.5811850429 4293579101
-0.3121213317 -0.1179873049 0.5821514130 4293644894
-0.3126393557 -0.1175352335 0.5831176043 4293447778
-0.3131572306 -0.1170809790 0.5840835571 4293776743
-0.3136750460 -0.1166245416 0.5850493312 4293578847
-0.3141927123 -0.1161659062 0.5860148668 4293118296
-0.3151758313 -0.1158762574 0.5878485441 4293381209
-0.3156933784 -0.1154123172 0.5888137817 4293644381
-0.3166764975 -0.1151154786 0.5906474590 4293842270
-0.3171938658 -0.1146462262 0.5916124582 4294565993
-0.3177111447 -0.1141747907 0.5925772190 4294960243
-0.3182282746 -0.1137011647 0.5935417414 4294170727
-0.3187452853 -0.1132253557 0.5945060849 4293711465
-0.3197282553 -0.1129119471 0.5963394642 4294040430
-0.3202451169 -0.1124308258 0.5973034501 4293780114
-0.3207618296 -0.1119475141 0.5982671976 4294635423
-0.3641059101 -0.2142908275 0.6805198789 4292596403
-0.3628336787 -0.2127886266 0.6781421304 4291148957
-0.3638345003 -0.2126200199 0.6800126433 4291146842
-0.3616511524 -0.2105930895 0.6759319305 4290817877
-0.3590114117 -0.2083104104 0.6709982157 4291407654
-0.3550046384 -0.2052483410 0.6635094881 4291341861
-0.3109338284 -0.1791228205 0.5811403990 4291472159
-0.3173858523 -0.1821806133 0.5931993127 4291406366
-0.3092656732 -0.1768773794 0.5780225992 4291339809
-0.3072891235 -0.1731944531 0.5743283629 4290155291
-0.3078197837 -0.1728543341 0.5753202438 4289826326
-0.3069820404 -0.1717464179 0.5737544894 4289629465
-0.3066736460 -0.1703002006 0.5731780529 4289235220
-0.3062907159 -0.1694515049 0.5724623799 4289103634
-0.3063639402 -0.1688558012 0.5725992322 4289432340
-0.3059802353 -0.1680089235 0.5718820691 4289695512
-0.3055960834 -0.1671634018 0.5711640716 4289563408
-0.3042977154 -0.1658212543 0.5687373877 4289826580
-0.3048264980 -0.1654763967 0.5697256923 4289760787
-0.3040551245 -0.1637948602 0.5682840347 4290023959
-0.3036687970 -0.1629561335 0.5675619245 4289892373
-0.3032820225 -0.1621187925 0.5668390393 4290221337
-0.3028948009 -0.1612828076 0.5661153793 4290352923
-0.3025071621 -0.1604482085 0.5653908253 4290221337
-0.3025768399 -0.1598568261 0.5655210614 4290418716
-0.3021884263 -0.1590240896 0.5647950768 4290089749
-0.3022575378 -0.1584327966 0.5649242997 4290155542
-0.3018683493 -0.1576019377 0.5641968846 4290681886
-0.3014787436 -0.1567724645 0.5634686947 4290813472
-0.3015469611 -0.1561817527 0.5635961890 4290616347
-0.3016149700 -0.1555906385 0.5637233257 4290682140
-0.3016827404 -0.1549991220 0.5638499856 4290550554
-0.3012917042 -0.1541725397 0.5631191134 4290155796
-0.3009002209 -0.1533473730 0.5623874664 4287789353
-0.3014259040 -0.1529893279 0.5633699298 4282986496
-0.3010337651 -0.1521651745 0.5626370311 4281544017
-0.3011001945 -0.1515734792 0.5627611876 4281017673
-0.3011663854 -0.1509813964 0.5628849268 4280822371
-0.3007731736 -0.1501596719 0.5621499419 4280822371
-0.3008387983 -0.1495677084 0.5622726083 4283980940
-0.3004448116 -0.1487479210 0.5615362525 4286217902
-0.3000503778 -0.1479295641 0.5607990623 4285954719
-0.2996555269 -0.1471126229 0.5600610971 4282533483
-0.2997199595 -0.1465218514 0.5601814985 4287597737
-0.2997841239 -0.1459306926 0.5603014231 4288913597
-0.2993882000 -0.1451162398 0.5595614314 4288323242
-0.2989918292 -0.1443032324 0.5588206053 4287862691
-0.2990550995 -0.1437127441 0.5589389205 4287598741
-0.2991181612 -0.1431218982 0.5590567589 4287927706
-0.2991809845 -0.1425306797 0.5591741800 4289309877
-0.2992435694 -0.1419390887 0.5592911243 4289178291
-0.2993059158 -0.1413471103 0.5594076514 4288322461
-0.2993680537 -0.1407547742 0.5595237613 4288585633
-0.2994299233 -0.1401620805 0.5596394539 4289177763
-0.2994915843 -0.1395690143 0.5597546697 4290427830
-0.2995529771 -0.1389755756 0.5598694682 4291546059
-0.2996141613 -0.1383817643 0.5599837899 4291677645
-0.2996751070 -0.1377876103 0.5600976944 4290887365
-0.2992746830 -0.1369820237 0.5593492389 4291150537
