VERSION 0.7
FIELDS x y z rgba
SIZE 4 4 4 4
TYPE F F F U
COUNT 1 1 1 1
WIDTH 920
HEIGHT 1
VIEWPOINT 0.0 0.0 0.0 1.0 0.0 0.0 0.0
POINTS 920
DATA ascii
-0.2789039314 -0.1443144530 0.5736740828 4288586006
-0.2789637744 -0.1437079012 0.5737972260 4288783132
-0.2794500589 -0.1433197707 0.5747974515 4289046304
-0.2795095742 -0.1427115053 0.5749198198 4289111845
-0.2799956799 -0.1423198134 0.5759196877 4289111845
-0.2800548077 -0.1417098492 0.5760413408 4288980521
-0.2805407345 -0.1413145959 0.5770407915 4289046314
-0.2805995047 -0.1407029331 0.5771616697 4289111855
-0.2810852230 -0.1403041035 0.5781607628 4289111855
-0.2815708816 -0.1399030387 0.5791597366 4289177651
-0.2816291451 -0.1392883658 0.5792795420 4289309237
-0.2821145952 -0.1388837397 0.5802780986 4289309753
-0.2826000154 -0.1384768635 0.5812765360 4289309753
-0.2830853760 -0.1380677372 0.5822748542 4289177926
-0.2835706472 -0.1376563609 0.5832729936 4289177926
-0.2840558887 -0.1372427493 0.5842710733 4289507667
-0.2845410407 -0.1368268877 0.5852689743 4289968218
-0.2850261331 -0.1364087611 0.5862668157 4290297711
-0.2859392166 -0.1361922771 0.5881448984 4290889848
-0.2864242792 -0.1357687265 0.5891425610 4291284892
-0.2873374820 -0.1355449259 0.5910209417 4292205994
-0.2885360122 -0.1714504808 0.5948451161 4286809126
-0.2898736596 -0.1715813428 0.5976027846 4287072298
-0.2874077559 -0.1694634110 0.5925191641 4287203084
-0.2866314650 -0.1683491468 0.5909187198 4287137291
-0.2850088477 -0.1667432785 0.5875735283 4287202319
-0.2838081419 -0.1653907150 0.5850981474 4287136526
-0.2830296755 -0.1642887592 0.5834932923 4287203088
-0.2822505832 -0.1631900221 0.5818871260 4286939916
-0.2818941474 -0.1623382270 0.5811523199 4286808843
-0.2811139226 -0.1612450033 0.5795437694 4286940429
-0.2807565629 -0.1603969187 0.5788070560 4287071249
-0.2803987563 -0.1595502347 0.5780694485 4286939663
-0.2800405622 -0.1587049514 0.5773309469 4286939396
-0.2792581916 -0.1576219052 0.5757179856 4287202568
-0.2788990438 -0.1567803621 0.5749775767 4287202065
-0.2793874145 -0.1564149261 0.5759844184 4287070479
-0.2786035836 -0.1553379446 0.5743684769 4286939661
-0.2786674798 -0.1547352374 0.5745001435 4286808075
-0.2787311077 -0.1541321278 0.5746313930 4286676742
-0.2783702016 -0.1532949209 0.5738873482 4286742535
-0.2784333229 -0.1526919156 0.5740174651 4287071751
-0.2780717015 -0.1518566459 0.5732719302 4287334923
-0.2781342566 -0.1512537301 0.5734009147 4287467274
-0.2781966329 -0.1506504118 0.5735294819 4287664653
-0.2782587707 -0.1500466764 0.5736576319 4287664650
-0.2783206999 -0.1494425535 0.5737852454 4287862029
-0.2783823907 -0.1488380283 0.5739124417 4287993867
-0.2784438431 -0.1482330859 0.5740391612 4287928074
-0.2785050869 -0.1476277560 0.5741654634 4288059912
-0.2785661221 -0.1470220238 0.5742912292 4288323084
-0.2786269188 -0.1464158893 0.5744165778 4288454416
-0.2786875069 -0.1458093673 0.5745414495 4288454416
-0.2787478566 -0.1452024579 0.5746659040 4288454418
-0.2788079679 -0.1445951313 0.5747898221 4288520211
-0.2788678706 -0.1439874321 0.5749133229 4288848924
-0.2793533802 -0.1435982287 0.5759142637 4289046303
-0.2794129252 -0.1429888159 0.5760369897 4288980772
-0.2798982561 -0.1425960511 0.5770375729 4288914979
-0.2799574137 -0.1419849396 0.5771595240 4288980521
-0.2804425657 -0.1415885985 0.5781596899 4289112107
-0.2805013657 -0.1409757733 0.5782809258 4289177649
-0.2809863091 -0.1405758858 0.5792806745 4289177649
-0.2814711928 -0.1401737481 0.5802803636 4289046581
-0.2819560468 -0.1397693455 0.5812798738 4289178167
-0.2824408412 -0.1393627077 0.5822793245 4289309755
-0.2829255462 -0.1389538199 0.5832786560 4289441341
-0.2834102213 -0.1385426819 0.5842778087 4289310541
-0.2838948369 -0.1381292939 0.5852769017 4289376334
-0.2843793631 -0.1377136558 0.5862758160 4289968232
-0.2848638296 -0.1372957677 0.5872746110 4290494576
-0.2853482664 -0.1368756145 0.5882732868 4290823816
-0.2862598598 -0.1366571933 0.5901526213 4291613332
-0.2888362110 -0.1720227748 0.5968306065 4286744114
-0.2876410484 -0.1706505865 0.5943610072 4286546735
-0.2893980742 -0.1710285693 0.5979916453 4286940429
-0.2865141034 -0.1686664075 0.5920323730 4287072015
-0.2857387960 -0.1675539911 0.5904303789 4287202316
-0.2845407128 -0.1661981940 0.5879547000 4287004937
-0.2833417952 -0.1648474038 0.5854773521 4287071502
-0.2825644314 -0.1637464166 0.5838710666 4287137295
-0.2822089195 -0.1628924906 0.5831364989 4286940174
-0.2814304233 -0.1617970169 0.5815278292 4286940174
-0.2810739875 -0.1609468013 0.5807912946 4287269141
-0.2802943587 -0.1598568559 0.5791803598 4287334934
-0.2799369693 -0.1590103507 0.5784418583 4287268877
-0.2795791924 -0.1581652462 0.5777025819 4287334670
-0.2787978947 -0.1570831835 0.5760881901 4287268626
-0.2792855203 -0.1567167193 0.5770957470 4287137040
-0.2785032988 -0.1556383967 0.5754794478 4287137295
-0.2785672247 -0.1550345570 0.5756114721 4287137295
-0.2786308825 -0.1544303149 0.5757430792 4287005707
-0.2782708108 -0.1535918713 0.5749990344 4287137293
-0.2783339620 -0.1529877186 0.5751295090 4287532302
-0.2779731452 -0.1521512121 0.5743839741 4287729681
-0.2780357599 -0.1515471637 0.5745133162 4287927312
-0.2780981362 -0.1509426981 0.5746422410 4288058898
-0.2781603038 -0.1503378302 0.5747706890 4287927822
-0.2782222629 -0.1497325599 0.5748987198 4287993615
-0.2782839835 -0.1491268724 0.5750262737 4288125455
-0.2783454955 -0.1485207975 0.5751533508 4288059662
-0.2784067690 -0.1479143202 0.5752799511 4288191244
-0.2784678042 -0.1473074406 0.5754061341 4288388623
-0.2785286307 -0.1467001587 0.5755317807 4288454418
-0.2785892487 -0.1460924894 0.5756570101 4288520211
-0.2786496282 -0.1454844028 0.5757817626 4288454418
-0.2787097692 -0.1448759437 0.5759060979 4288586004
-0.2787697017 -0.1442670822 0.5760298967 4288914718
-0.2792544365 -0.1438768208 0.5770315528 4289046304
-0.2793140113 -0.1432662457 0.5771546364 4288914981
-0.2797985673 -0.1428724229 0.5781558752 4288914981
-0.2802830935 -0.1424763352 0.5791570544 4288980523
-0.2803421319 -0.1418627352 0.5792790651 4289112109
-0.2808264494 -0.1414630860 0.5802798271 4289112626
-0.2808851302 -0.1408477724 0.5804011226 4289112626
-0.2813692689 -0.1404445618 0.5814014673 4289178169
-0.2818533480 -0.1400390863 0.5824016929 4289309755
-0.2823373377 -0.1396313757 0.5834018588 4289572673
-0.2828212976 -0.1392214000 0.5844018459 4289704259
-0.2833051980 -0.1388091743 0.5854017138 4289574743
-0.2837890387 -0.1383946985 0.5864014626 4289772122
-0.2846989930 -0.1381848454 0.5882817507 4290494338
-0.2851827741 -0.1377649307 0.5892814398 4291086475
-0.2860928774 -0.1375477463 0.5911619663 4291547303
-0.2891325951 -0.1725953817 0.5988173485 4287468114
-0.2880096436 -0.1705995649 0.5964916348 4286874141
-0.2872367799 -0.1694808155 0.5948909521 4287005727
-0.2864633203 -0.1683652401 0.5932890773 4287268112
-0.2848464847 -0.1667595059 0.5899404883 4287070733
-0.2840715647 -0.1656521559 0.5883355141 4287004939
-0.2828744650 -0.1643031538 0.5858561993 4287268111
-0.2825198770 -0.1634470820 0.5851218700 4287005454
-0.2817430794 -0.1623493582 0.5835130811 4287202833
-0.2809657156 -0.1612548679 0.5819030404 4287466518
-0.2806096673 -0.1604048163 0.5811656713 4287466518
-0.2798311412 -0.1593158543 0.5795532465 4287400978
-0.2794741690 -0.1584695280 0.5788139701 4287269392
-0.2791167796 -0.1576246023 0.5780737996 4287335185
-0.2791813612 -0.1570186317 0.5782074928 4287269392
-0.2784007788 -0.1559389830 0.5765908957 4287335185
-0.2784647048 -0.1553340107 0.5767232776 4287335185
-0.2785284221 -0.1547286212 0.5768552423 4287335183
-0.2781691849 -0.1538889557 0.5761111975 4287466769
-0.2782323360 -0.1532836556 0.5762420297 4287664401
-0.2778723538 -0.1524459124 0.5754964948 4287730194
-0.2779349983 -0.1518407166 0.5756261945 4288059411
-0.2779974341 -0.1512351185 0.5757554770 4288125204
-0.2780596316 -0.1506291032 0.5758842826 4288124689
-0.2781215906 -0.1500226855 0.5760126710 4288124689
-0.2781833410 -0.1494158506 0.5761405230 4288256530
-0.2782448828 -0.1488086283 0.5762679577 4288256530
-0.2783061862 -0.1482010037 0.5763949752 4288453907
-0.2783672512 -0.1475929767 0.5765214562 4288585493
-0.2784281075 -0.1469845474 0.5766474605 4288586006
-0.2784887552 -0.1463757157 0.5767730474 4288586006
-0.2785491645 -0.1457664818 0.5768981576 4288651545
-0.2790333927 -0.1453777999 0.5779010653 4288848924
-0.2790934443 -0.1447668672 0.5780254602 4288980513
-0.2791532576 -0.1441555321 0.5781493187 4289112099
-0.2792128623 -0.1435437948 0.5782727599 4289046312
-0.2796966434 -0.1431488991 0.5792747140 4289046312
-0.2801803648 -0.1427517384 0.5802765489 4289111855
-0.2806640565 -0.1423523426 0.5812783241 4289243441
-0.2807230055 -0.1417362541 0.5814003944 4289309751
-0.2812065184 -0.1413332820 0.5824017525 4289375544
-0.2816899419 -0.1409280598 0.5834029913 4289441341
-0.2821733356 -0.1405205727 0.5844041109 4289572927
-0.2830817103 -0.1403215379 0.5862854123 4289901639
-0.2827147841 -0.1394890994 0.5855255127 4290230604
-0.2836231291 -0.1392846107 0.5874067545 4290035044
-0.2841062546 -0.1388681233 0.5884073973 4290429802
-0.2845893502 -0.1384493709 0.5894079208 4291086236
-0.2854978442 -0.1382343769 0.5912894607 4292007338
-0.2885849774 -0.1726656705 0.5990611911 4288059754
-0.2886551321 -0.1720418930 0.5992068052 4286612308
-0.2878845334 -0.1709186137 0.5976071358 4286413865
-0.2871133089 -0.1697985381 0.5960062146 4286413865
-0.2863414586 -0.1686816365 0.5944039822 4286807825
-0.2855689824 -0.1675679386 0.5928004384 4286676239
-0.2843752205 -0.1662115604 0.5903223157 4287136525
-0.2836014032 -0.1651051790 0.5887159705 4287202318
-0.2828269601 -0.1640020013 0.5871083736 4286874123
-0.2820519209 -0.1629020423 0.5854994655 4287203088
-0.2812762558 -0.1618053019 0.5838893056 4287532564
-0.2809211314 -0.1609530896 0.5831521153 4287335185
-0.2805655897 -0.1601022929 0.5824140906 4287335444
-0.2797882855 -0.1590134203 0.5808005333 4287401237
-0.2794318199 -0.1581663340 0.5800605416 4287335696
-0.2794965208 -0.1575583220 0.5801948309 4287269903
-0.2787176669 -0.1564764231 0.5785780549 4287269903
-0.2783599794 -0.1556335837 0.5778355598 4287269903
-0.2784237266 -0.1550270617 0.5779678822 4287335694
-0.2784872353 -0.1544201225 0.5780997276 4287467280
-0.2781284750 -0.1535797119 0.5773550272 4287598606
-0.2781914771 -0.1529728621 0.5774857402 4287598606
-0.2778320014 -0.1521344036 0.5767395496 4287927825
-0.2778944373 -0.1515276432 0.5768691897 4288059411
-0.2779566646 -0.1509204954 0.5769983530 4288059411
-0.2780186832 -0.1503129303 0.5771270394 4288125204
-0.2780804634 -0.1497049630 0.5772553086 4288322068
-0.2781420052 -0.1490965784 0.5773831010 4288387861
-0.2782033384 -0.1484878063 0.5775104165 4288519702
-0.2782644629 -0.1478786319 0.5776372552 4288717081
-0.2783253491 -0.1472690403 0.5777636766 4288717339
-0.2783859968 -0.1466590613 0.5778895617 4288717339
-0.2784464359 -0.1460486799 0.5780150294 4288848925
-0.2789298892 -0.1456589401 0.5790186524 4288980511
-0.2789899707 -0.1450468451 0.5791433454 4289111845
-0.2794732749 -0.1446535140 0.5801465511 4289177638
-0.2795329690 -0.1440397054 0.5802705288 4289177900
-0.2795924544 -0.1434254944 0.5803939700 4289243693
-0.2800754309 -0.1430272758 0.5813965797 4289243442
-0.2805583179 -0.1426267922 0.5823990107 4289375028
-0.2810412049 -0.1422240585 0.5834013820 4289507132
-0.2811000049 -0.1416054964 0.5835235119 4289572925
-0.2815826833 -0.1411991864 0.5845254064 4289572673
-0.2824894488 -0.1410023421 0.5864077210 4289704259
-0.2829720974 -0.1405905932 0.5874096155 4290164813
-0.2834546566 -0.1401765943 0.5884113908 4290559571
-0.2839371860 -0.1397603303 0.5894130468 4290298476
-0.2844196260 -0.1393418163 0.5904145241 4290824820
-0.2849020362 -0.1389210373 0.5914158821 4291481261
-0.2877541482 -0.1752273142 0.5987169147 4288322954
-0.2878251076 -0.1746051461 0.5988645554 4287993989
-0.2878958583 -0.1739825159 0.5990117192 4287993981
-0.2879663706 -0.1733594239 0.5991584659 4287730809
-0.2876174152 -0.1724844426 0.5984324217 4287269740
-0.2876873910 -0.1718613505 0.5985780358 4286743396
-0.2877571583 -0.1712377965 0.5987231731 4286414151
-0.2869875431 -0.1701163799 0.5971218944 4285953600
-0.2862173319 -0.1689981520 0.5955193043 4285889307
-0.2858662605 -0.1681300104 0.5947888494 4286020893
-0.2850948870 -0.1670172662 0.5931838751 4286480903
-0.2843228877 -0.1659077257 0.5915776491 4286546696
-0.2835502923 -0.1648013890 0.5899701118 4286743300
-0.2831972241 -0.1639415026 0.5892355442 4286940679
-0.2824234962 -0.1628406942 0.5876256227 4287268877
-0.2816491127 -0.1617431045 0.5860144496 4287400463
-0.2808741331 -0.1606487483 0.5844020247 4287531535
-0.2800985575 -0.1595576257 0.5827882886 4287597328
-0.2801636755 -0.1589470506 0.5829237700 4287335445
-0.2798078358 -0.1580983251 0.5821833611 4287335445
-0.2794515789 -0.1572510004 0.5814421177 4287138833
-0.2790949047 -0.1564050913 0.5806999803 4287270419
-0.2783167362 -0.1553256214 0.5790809393 4287467533
-0.2783803046 -0.1547175348 0.5792131424 4287401740
-0.2780223787 -0.1538759023 0.5784684420 4287533067
-0.2780853808 -0.1532679051 0.5785995722 4287730446
-0.2781481743 -0.1526595056 0.5787302256 4287927571
-0.2777892351 -0.1518203020 0.5779833198 4287927571
-0.2778514624 -0.1512120068 0.5781128407 4288059157
-0.2779135108 -0.1506032944 0.5782419443 4288256536
-0.2779753208 -0.1499941796 0.5783705115 4288453909
-0.2780368924 -0.1493846625 0.5784986615 4288519702
-0.2780982554 -0.1487747282 0.5786263347 4288716559
-0.2781594098 -0.1481644064 0.5787535310 4288913938
-0.2782202959 -0.1475536674 0.5788802505 4288849184
-0.2782810032 -0.1469425410 0.5790065527 4288849184
-0.2783414423 -0.1463309973 0.5791323185 4288980008
-0.2788241506 -0.1459401995 0.5801366568 4289111594
-0.2788842618 -0.1453269422 0.5802617073 4289242921
-0.2793667614 -0.1449325532 0.5812656879 4289374507
-0.2794264853 -0.1443175673 0.5813899636 4289375530
-0.2799088359 -0.1439196020 0.5823935270 4289507116
-0.2799682021 -0.1433029175 0.5825170279 4289376049
-0.2804503441 -0.1429013610 0.5835201740 4289507635
-0.2809324265 -0.1424975544 0.5845232606 4289704762
-0.2814144492 -0.1420914978 0.5855261683 4289704762
-0.2818964124 -0.1416831762 0.5865290165 4290032708
-0.2823783457 -0.1412726045 0.5875317454 4290164294
-0.2832836509 -0.1410706490 0.5894153714 4290360919
-0.2837655246 -0.1406546235 0.5904179811 4290755677
-0.2842473686 -0.1402363330 0.5914204717 4289969526
-0.2851528227 -0.1400238574 0.5933044553 4290627456
-0.2865738273 -0.1769048274 0.5976421237 4288125583
-0.2866452336 -0.1762847304 0.5977910757 4287796612
-0.2867164612 -0.1756641716 0.5979396105 4287467647
-0.2867874503 -0.1750431508 0.5980876684 4287204214
-0.2868582308 -0.1744216681 0.5982352495 4286875249
-0.2869287729 -0.1737997234 0.5983824134 4286743912
-0.2869991362 -0.1731773317 0.5985291004 4286612326
-0.2870692611 -0.1725544780 0.5986753702 4286414177
-0.2871391475 -0.1719311625 0.5988211632 4286216798
-0.2867901921 -0.1710576713 0.5980933309 4286217041
-0.2864407599 -0.1701855510 0.5973646641 4286019662
-0.2860909402 -0.1693148017 0.5966351032 4286020141
-0.2857407033 -0.1684454232 0.5959047079 4286020141
-0.2853900194 -0.1675774157 0.5951733589 4286086158
-0.2846197486 -0.1664656401 0.5935670137 4286086158
-0.2842681408 -0.1656013131 0.5928336978 4286414594
-0.2826579809 -0.1640083641 0.5894758105 4286611973
-0.2835636735 -0.1638768166 0.5913645625 4287071751
-0.2815325260 -0.1620506346 0.5871286392 4287269130
-0.2811788321 -0.1611955315 0.5863910317 4287465740
-0.2808247507 -0.1603418291 0.5856525898 4287465740
-0.2800503671 -0.1592507809 0.5840376616 4287335947
-0.2801153064 -0.1586386561 0.5841730833 4287270154
-0.2793399096 -0.1575522572 0.5825560093 4287204363
-0.2789840400 -0.1567051113 0.5818138719 4287204363
-0.2790480554 -0.1560944617 0.5819473267 4287204108
-0.2786914706 -0.1552492380 0.5812036991 4287204108
-0.2783344686 -0.1544054449 0.5804591775 4287400976
-0.2783975899 -0.1537953913 0.5805908442 4287664148
-0.2784605026 -0.1531849205 0.5807220936 4287664148
-0.2781024873 -0.1523435712 0.5799753666 4287598355
-0.2781648636 -0.1517331898 0.5801054835 4287730194
-0.2782270014 -0.1511224210 0.5802350640 4287861780
-0.2782889307 -0.1505112201 0.5803642273 4287928072
-0.2783506215 -0.1498996317 0.5804929137 4288125451
-0.2784121037 -0.1492876261 0.5806211233 4288454661
-0.2784733772 -0.1486752182 0.5807488561 4288586247
-0.2785344124 -0.1480624080 0.5808761716 4288586768
-0.2785952091 -0.1474491954 0.5810029507 4288784147
-0.2786557972 -0.1468355805 0.5811293125 4289046304
-0.2787161469 -0.1462215632 0.5812551379 4289177890
-0.2791980207 -0.1458274424 0.5822601318 4289309224
-0.2792580128 -0.1452116966 0.5823851824 4289309224
-0.2797397077 -0.1448139846 0.5833897591 4289309739
-0.2797993124 -0.1441965252 0.5835140944 4289375532
-0.2802808285 -0.1437952220 0.5845182538 4289507381
-0.2807622552 -0.1433916688 0.5855222940 4289638967
-0.2812436521 -0.1429858655 0.5865262747 4289835578
-0.2817250192 -0.1425777972 0.5875300765 4289638199
-0.2822062969 -0.1421674639 0.5885338187 4289769538
-0.2826875150 -0.1417548656 0.5895373821 4290098503
-0.2831687033 -0.1413400173 0.5905408263 4290229852
-0.2836498022 -0.1409229189 0.5915442109 4290624610
-0.2841308415 -0.1405035406 0.5925474167 4289969536
-0.2850347161 -0.1402900666 0.5944324136 4290824845
-0.2849769592 -0.1783130616 0.5956916809 4288059279
-0.2850487232 -0.1776959449 0.5958417654 4287730314
-0.2851202786 -0.1770783663 0.5959913135 4287401601
-0.2851916552 -0.1764603257 0.5961405039 4287072636
-0.2856798470 -0.1760989130 0.5971609354 4286743409
-0.2857508659 -0.1754790395 0.5973094106 4286480237
-0.2858216763 -0.1748587042 0.5974574685 4286348904
-0.2858922780 -0.1742379069 0.5976049900 4286151525
-0.2859626412 -0.1736166626 0.5977521539 4286218079
-0.2860328257 -0.1729949564 0.5978987813 4286086493
-0.2861027718 -0.1723727882 0.5980449915 4285954398
-0.2861724794 -0.1717501581 0.5981907845 4285888605
-0.2862420082 -0.1711270809 0.5983360410 4286216539
-0.2858933210 -0.1702546477 0.5976071954 4286150746
-0.2859622836 -0.1696315706 0.5977513790 4286084675
-0.2856128514 -0.1687609553 0.5970209837 4285887296
-0.2852630317 -0.1678917259 0.5962896943 4285953568
-0.2849127650 -0.1670238674 0.5955575109 4285821982
-0.2845620811 -0.1661573946 0.5948244929 4286085380
-0.2837923765 -0.1650488675 0.5932155848 4286282759
-0.2830221057 -0.1639435738 0.5916054249 4286677507
-0.2826699615 -0.1630830914 0.5908693671 4286874886
-0.2818985283 -0.1619833112 0.5892568231 4287137545
-0.2815454602 -0.1611265540 0.5885187984 4287203338
-0.2811919749 -0.1602711827 0.5877798796 4287335437
-0.2804189026 -0.1591793001 0.5861639380 4287203851
-0.2800644934 -0.1583276689 0.5854231119 4287072522
-0.2797096670 -0.1574774384 0.5846813917 4287072522
-0.2797738612 -0.1568638235 0.5848156214 4287072777
-0.2789987624 -0.1557812691 0.5831953883 4287072777
-0.2790623307 -0.1551686376 0.5833283067 4287203851
-0.2787059546 -0.1543231905 0.5825833678 4287401230
-0.2783491611 -0.1534791589 0.5818375349 4287467023
-0.2784118652 -0.1528671235 0.5819686055 4287467023
-0.2780543566 -0.1520250440 0.5812212825 4287598608
-0.2781165242 -0.1514131129 0.5813512206 4287664401
-0.2781784832 -0.1508007795 0.5814807415 4287730443
-0.2782402039 -0.1501880288 0.5816097856 4287927822
-0.2787221074 -0.1498008221 0.5826171041 4288323084
-0.2787834704 -0.1491863430 0.5827454329 4288388877
-0.2788446248 -0.1485714465 0.5828732252 4288651797
-0.2789055407 -0.1479561478 0.5830006003 4288783383
-0.2789662480 -0.1473404616 0.5831274390 4288914718
-0.2790267169 -0.1467243582 0.5832538605 4288980511
-0.2790869772 -0.1461078525 0.5833797455 4289046306
-0.2795680165 -0.1457104087 0.5843853354 4289112099
-0.2796278894 -0.1450921744 0.5845105052 4289177898
-0.2801087499 -0.1446911395 0.5855156183 4289309484
-0.2801682651 -0.1440711915 0.5856400132 4289309237
-0.2810703218 -0.1438822746 0.5875256062 4289440823
-0.2815510333 -0.1434744596 0.5885304809 4289638202
-0.2820316851 -0.1430643648 0.5895351768 4289572409
-0.2825122774 -0.1426520348 0.5905397534 4289572674
-0.2829928100 -0.1422374249 0.5915442109 4289835846
-0.2838951349 -0.1420315951 0.5934303403 4289966937
-0.2843756378 -0.1416115314 0.5944347382 4290164316
-0.2844340503 -0.1409800351 0.5945568681 4289903243
-0.2853364348 -0.1407646090 0.5964431763 4290824345
-0.2833824456 -0.1797070354 0.5937371254 4288125332
-0.2834545672 -0.1790929139 0.5938882232 4287730314
-0.2835264802 -0.1784783304 0.5940389037 4287401349
-0.2835981846 -0.1778632849 0.5941891074 4287138429
-0.2836696804 -0.1772477627 0.5943388939 4286941050
-0.2837409377 -0.1766317785 0.5944882631 4286743409
-0.2838120162 -0.1760153323 0.5946371555 4286480237
-0.2842991054 -0.1756556183 0.5956577063 4286283111
-0.2843698561 -0.1750373393 0.5958059430 4286283111
-0.2844403982 -0.1744185984 0.5959537029 4286348386
-0.2845107019 -0.1737994105 0.5961010456 4286282593
-0.2845807970 -0.1731797606 0.5962479115 4286218081
-0.2846506834 -0.1725596488 0.5963943005 4286152288
-0.2847203314 -0.1719390750 0.5965402722 4286085984
-0.2852067649 -0.1715688854 0.5975593925 4286020191
-0.2852760851 -0.1709464937 0.5977046490 4286151007
-0.2849280238 -0.1700746417 0.5969753861 4286085214
-0.2849968076 -0.1694522649 0.5971195102 4286018641
-0.2846480310 -0.1685822457 0.5963887572 4285755469
-0.2847162783 -0.1679598838 0.5965317488 4285887286
-0.2843667269 -0.1670917124 0.5957993865 4285689907
-0.2844344378 -0.1664693654 0.5959412456 4285821718
-0.2836664021 -0.1653595120 0.5943320394 4285953304
-0.2833155990 -0.1644954830 0.5935971141 4286216714
-0.2829643786 -0.1636328548 0.5928612351 4286414093
-0.2821947038 -0.1625308394 0.5912485719 4286677002
-0.2814243734 -0.1614320427 0.5896346569 4286808588
-0.2810717225 -0.1605754495 0.5888957381 4287072015
-0.2807186544 -0.1597202569 0.5881559849 4287006222
-0.2803651690 -0.1588664651 0.5874153972 4286940425
-0.2800112665 -0.1580140889 0.5866738558 4287072011
-0.2800755799 -0.1573984176 0.5868086815 4287138058
-0.2793022096 -0.1563135982 0.5851882696 4287138058
-0.2793658972 -0.1556989104 0.5853217244 4287138057
-0.2790104449 -0.1548512876 0.5845769644 4287138057
-0.2790735960 -0.1542366892 0.5847092867 4287269643
-0.2791365087 -0.1536216736 0.5848411322 4287401229
-0.2787800133 -0.1527764946 0.5840942264 4287532816
-0.2788423896 -0.1521615684 0.5842249393 4287532816
-0.2789045572 -0.1515462399 0.5843551755 4287532815
-0.2789665163 -0.1509304941 0.5844849348 4287730194
-0.2790282369 -0.1503143311 0.5846142769 4288059157
-0.2790897191 -0.1496977657 0.5847430825 4288322329
-0.2791509926 -0.1490807980 0.5848714709 4288585244
-0.2792120278 -0.1484634131 0.5849993825 4288716830
-0.2792728543 -0.1478456408 0.5851267576 4288848422
-0.2793334424 -0.1472274512 0.5852537155 4288980008
-0.2793937922 -0.1466088593 0.5853801966 4288914728
-0.2798741460 -0.1462094039 0.5863866210 4288914728
-0.2799341381 -0.1455890983 0.5865123272 4289046316
-0.2804143131 -0.1451860517 0.5875183344 4289177902
-0.2813149393 -0.1449974775 0.5894052982 4289046063
-0.2813745141 -0.1443731636 0.5895301104 4289177649
-0.2818545103 -0.1439633369 0.5905358195 4289375028
-0.2823344767 -0.1435512453 0.5915414691 4289440821
-0.2828143835 -0.1431368887 0.5925469398 4289309504
-0.2832942307 -0.1427202672 0.5935522914 4289177918
-0.2837739885 -0.1423013657 0.5945575237 4288914516
-0.2842537165 -0.1418802142 0.5955626369 4289177688
-0.2847333848 -0.1414567977 0.5965675712 4289442187
-0.2852129638 -0.1410311162 0.5975723863 4290429082
-0.2814483047 -0.1802102178 0.5910601616 4287927953
-0.2819350660 -0.1798640341 0.5920823812 4287664521
-0.2820070982 -0.1792519838 0.5922336578 4287269763
-0.2820789218 -0.1786394566 0.5923845172 4286875256
-0.2821505368 -0.1780264676 0.5925349593 4286677877
-0.2822219431 -0.1774130166 0.5926849246 4286480237
-0.2822931409 -0.1767990887 0.5928344131 4286414444
-0.2823641300 -0.1761846989 0.5929834843 4286413927
-0.2828502655 -0.1758280396 0.5940043926 4286413927
-0.2829209268 -0.1752118319 0.5941528082 4286414179
-0.2829913795 -0.1745951474 0.5943007469 4286348386
-0.2830616236 -0.1739780158 0.5944482684 4286282593
-0.2831316590 -0.1733604074 0.5945953727 4286282593
-0.2832014859 -0.1727423519 0.5947419405 4285954659
-0.2832710743 -0.1721238494 0.5948881507 4285954659
-0.2833404541 -0.1715048850 0.5950338244 4286020189
-0.2838257849 -0.1711363941 0.5960530639 4285954396
-0.2838948369 -0.1705156118 0.5961980820 4286085466
-0.2839636803 -0.1698943824 0.5963426232 4286019673
-0.2840322852 -0.1692726910 0.5964867473 4285953367
-0.2841006815 -0.1686505526 0.5966303349 4285755988
-0.2841688693 -0.1680279672 0.5967735648 4285821256
-0.2842368186 -0.1674049348 0.5969162583 4285689670
-0.2838876843 -0.1665368974 0.5961830616 4285821230
-0.2835381329 -0.1656702608 0.5954489708 4285755437
-0.2831881642 -0.1648050100 0.5947140455 4285887260
-0.2828377783 -0.1639411449 0.5939781666 4285887260
-0.2824869752 -0.1630786657 0.5932414532 4285953556
-0.2813010514 -0.1617376655 0.5907509327 4286019349
-0.2822015882 -0.1615969837 0.5926421285 4286348292
-0.2810145020 -0.1602615267 0.5901492238 4286282499
-0.2806619406 -0.1594055891 0.5894088149 4286414081
-0.2803089619 -0.1585510522 0.5886675119 4286677253
-0.2803734243 -0.1579333097 0.5888028741 4286874632
-0.2804376483 -0.1573151350 0.5889377594 4286940425
-0.2800836265 -0.1564630121 0.5881942511 4286874632
-0.2797291875 -0.1556123197 0.5874499083 4286874632
-0.2797925472 -0.1549947113 0.5875830054 4287137804
-0.2798556983 -0.1543767005 0.5877156258 4287335183
-0.2799186110 -0.1537582725 0.5878477097 4287400976
-0.2795628011 -0.1529105157 0.5871005058 4287269390
-0.2796251774 -0.1522921771 0.5872315168 4287335436
-0.2796873450 -0.1516734362 0.5873620510 4287532815
-0.2797492743 -0.1510542631 0.5874921083 4287796239
-0.2798109651 -0.1504346877 0.5876216888 4288059411
-0.2798724473 -0.1498147100 0.5877507925 4288452884
-0.2799336910 -0.1491943151 0.5878794193 4288650263
-0.2799946964 -0.1485735178 0.5880075693 4288782118
-0.2804747522 -0.1481738091 0.5890156627 4288913704
-0.2805353999 -0.1475512683 0.5891430378 4288848426
-0.2805958390 -0.1469283253 0.5892699361 4288914219
-0.2806560099 -0.1463049948 0.5893963575 4288914728
-0.2811355889 -0.1458990127 0.5904034972 4288914728
-0.2811954021 -0.1452739388 0.5905290842 4289112107
-0.2816748023 -0.1448643506 0.5915358067 4288914728
-0.2821541131 -0.1444525123 0.5925424099 4288652074
-0.2826333642 -0.1440383941 0.5935488939 4288520488
-0.2826925218 -0.1434089392 0.5936731696 4288125754
-0.2831715941 -0.1429912299 0.5946791768 4287730996
-0.2836505771 -0.1425712556 0.5956851244 4287730005
-0.2841295302 -0.1421490163 0.5966909528 4288387935
-0.2846083939 -0.1417245120 0.5976966023 4288916104
-0.2850871980 -0.1412977427 0.5987021327 4289968792
-0.2851453722 -0.1406612396 0.5988242626 4290954936
-0.2807595432 -0.1815027744 0.5909922123 4287927955
-0.2804184258 -0.1806264073 0.5902741551 4287598730
-0.2804905772 -0.1800168902 0.5904260874 4287269765
-0.2805625498 -0.1794068962 0.5905775428 4286875257
-0.2806342840 -0.1787964255 0.5907285810 4286546292
-0.2807058394 -0.1781854928 0.5908791423 4286414446
-0.2811912894 -0.1778360158 0.5919010043 4286217067
-0.2812625170 -0.1772232503 0.5920509696 4286283111
-0.2813335359 -0.1766100079 0.5922004580 4286283111
-0.2814043164 -0.1759963185 0.5923494697 4286282595
-0.2814749181 -0.1753821671 0.5924980640 4286282595
-0.2815453112 -0.1747675389 0.5926462412 4286413666
-0.2820302248 -0.1744089425 0.5936669707 4286347873
-0.2821002901 -0.1737924963 0.5938144326 4286151007
-0.2821701169 -0.1731756032 0.5939614773 4286151007
-0.2822397649 -0.1725582331 0.5941080451 4285954146
-0.2823091745 -0.1719404161 0.5942541957 4285888353
-0.2823783755 -0.1713221520 0.5943998694 4285888603
-0.2824473679 -0.1707034260 0.5945450664 4285822810
-0.2829315960 -0.1703343689 0.5955643654 4285953879
-0.2830002606 -0.1697138250 0.5957089067 4285953879
-0.2826530337 -0.1688445359 0.5949779749 4285887576
-0.2827211618 -0.1682239920 0.5951213837 4285755990
-0.2827890515 -0.1676030159 0.5952643156 4285821266
-0.2828567326 -0.1669815928 0.5954067707 4285689680
-0.2829242051 -0.1663597226 0.5955487490 4285558334
-0.2829914391 -0.1657374054 0.5956903100 4285426748
-0.2826422155 -0.1648718268 0.5949552059 4285426988
-0.2822925448 -0.1640076488 0.5942191482 4285361195
-0.2823589444 -0.1633858383 0.5943589211 4285295905
-0.2815919816 -0.1622834653 0.5927444696 4285295905
-0.2820743918 -0.1619017720 0.5937599540 4285689867
-0.2813065052 -0.1608031243 0.5921435952 4285689867
-0.2809548676 -0.1599450260 0.5914033651 4286019337
-0.2806028128 -0.1590883285 0.5906623006 4286414095
-0.2806673944 -0.1584685296 0.5907981992 4286611721
-0.2807317376 -0.1578482836 0.5909336805 4286611721
-0.2803786397 -0.1569940001 0.5901904106 4286677766
-0.2804424465 -0.1563738286 0.5903246999 4286743559
-0.2800886035 -0.1555214673 0.5895798802 4286940936
-0.2801518738 -0.1549013853 0.5897130370 4287072522
-0.2802149057 -0.1542808861 0.5898457766 4287203851
-0.2798600197 -0.1534309536 0.5890987515 4287203851
-0.2799225152 -0.1528105438 0.5892302990 4287335436
-0.2799847722 -0.1521897167 0.5893613696 4287467022
-0.2800468206 -0.1515684724 0.5894919634 4287599119
-0.2801086307 -0.1509468108 0.5896220803 4287796498
-0.2801702321 -0.1503247470 0.5897517204 4288189716
-0.2802315950 -0.1497022659 0.5898808837 4288255509
-0.2802927196 -0.1490793824 0.5900095701 4288256026
-0.2803536355 -0.1484560966 0.5901377797 4288321819
-0.2808328569 -0.1480530500 0.5911465287 4288125461
-0.2808933854 -0.1474280208 0.5912739635 4288191254
-0.2813723981 -0.1470213532 0.5922822952 4288192026
-0.2814325690 -0.1463945955 0.5924088955 4288257819
-0.2814925015 -0.1457674205 0.5925350785 4287796776
-0.2819711864 -0.1453558356 0.5935426950 4287665190
-0.2824498117 -0.1449419707 0.5945501924 4287335989
-0.2825092375 -0.1443117410 0.5946752429 4287138610
-0.2829876542 -0.1438942701 0.5956823230 4286941503
-0.2834660113 -0.1434745491 0.5966892838 4286809917
-0.2835249007 -0.1428412497 0.5968132019 4287269462
-0.2840030491 -0.1424179226 0.5978196859 4288453736
-0.2844811380 -0.1419923306 0.5988260508 4288981385
-0.2845394909 -0.1413559765 0.5989488959 4289968280
-0.2850173414 -0.1409267932 0.5999547839 4291020469
-0.2789047062 -0.1813800335 0.5884636045 4287730063
-0.2793896794 -0.1810404509 0.5894868374 4287401098
-0.2790490687 -0.1801655740 0.5887681842 4287137666
-0.2791209221 -0.1795576364 0.5889198184 4286808701
-0.2791925967 -0.1789492369 0.5890710354 4286479986
-0.2792640328 -0.1783403754 0.5892217755 4286282607
-0.2793352902 -0.1777310371 0.5893720984 4286151272
-0.2798196375 -0.1773832440 0.5903940797 4286151272
-0.2798905969 -0.1767720729 0.5905437469 4286283111
-0.2799613178 -0.1761604398 0.5906929374 4286217318
-0.2800318301 -0.1755483449 0.5908417106 4286282341
-0.2801021338 -0.1749357879 0.5909900665 4286282341
-0.2805860639 -0.1745802611 0.5920111537 4286347877
-0.2806560695 -0.1739658713 0.5921587944 4286282084
-0.2807258368 -0.1733510345 0.5923060179 4286084963
-0.2807953954 -0.1727357358 0.5924528241 4286084963
-0.2808647454 -0.1721199751 0.5925990939 4286151777
-0.2809338868 -0.1715037525 0.5927450061 4286020191
-0.2810027897 -0.1708870828 0.5928903818 4286085214
-0.2814860642 -0.1705210954 0.5939100385 4286019421
-0.2815546691 -0.1699026227 0.5940547585 4285887835
-0.2816230357 -0.1692836732 0.5941990614 4285887835
-0.2816911936 -0.1686642915 0.5943428278 4285821529
-0.2817591429 -0.1680444628 0.5944861770 4285689943
-0.2818268538 -0.1674241722 0.5946291089 4285755988
-0.2818943560 -0.1668034494 0.5947715044 4285624402
-0.2819616497 -0.1661822647 0.5949134827 4285558343
-0.2820287347 -0.1655606478 0.5950550437 4285295171
-0.2820955813 -0.1649385840 0.5951960683 4285164088
-0.2817466557 -0.1640740782 0.5944598317 4285098295
-0.2818129659 -0.1634520590 0.5945997834 4284966958
-0.2814632952 -0.1625894308 0.5938619971 4284769579
-0.2815290689 -0.1619674414 0.5940007567 4285097505
-0.2811786830 -0.1611067057 0.5932614803 4285097505
-0.2808278501 -0.1602473706 0.5925213099 4285426713
-0.2804766297 -0.1593894362 0.5917802453 4285821471
-0.2805412412 -0.1587684900 0.5919165611 4285887761
-0.2806056142 -0.1581470966 0.5920523405 4285887761
-0.2806697488 -0.1575252861 0.5921877027 4285954312
-0.2807336748 -0.1569030583 0.5923225880 4286151691
-0.2803807557 -0.1560485214 0.5915779471 4286283273
-0.2804441452 -0.1554263681 0.5917117000 4286349066
-0.2805072963 -0.1548037827 0.5918449759 4286545928
-0.2801533341 -0.1539516896 0.5910981297 4286677514
-0.2802159488 -0.1533292085 0.5912302136 4286875147
-0.2802783251 -0.1527062953 0.5913618803 4287072526
-0.2803404927 -0.1520829648 0.5914930105 4287138317
-0.2804024220 -0.1514592320 0.5916236639 4287335696
-0.2804641426 -0.1508350819 0.5917539001 4287400467
-0.2805256248 -0.1502105147 0.5918835998 4287729432
-0.2805868685 -0.1495855451 0.5920128226 4288058655
-0.2806478739 -0.1489601731 0.5921415687 4288256034
-0.2807086706 -0.1483343840 0.5922698379 4287993628
-0.2811870575 -0.1479279846 0.5932791233 4287598870
-0.2812474668 -0.1473004669 0.5934066176 4287072791
-0.2813076675 -0.1466725320 0.5935336351 4286743826
-0.2813676298 -0.1460441947 0.5936601162 4286085419
-0.2818455100 -0.1456315219 0.5946684480 4286282798
-0.2823233604 -0.1452165842 0.5956766605 4286217290
-0.2823827863 -0.1445851773 0.5958020687 4286414669
-0.2828604281 -0.1441666335 0.5968098044 4286743894
-0.2829194665 -0.1435334980 0.5969344378 4287138652
-0.2833968997 -0.1431113482 0.5979417562 4287862375
-0.2834555805 -0.1424764842 0.5980655551 4288980856
-0.2839327753 -0.1420507431 0.5990723968 4289375893
-0.2839910686 -0.1414141506 0.5991953611 4290362788
-0.2770546377 -0.1812511086 0.5859332681 4287402642
-0.2775385082 -0.1809154898 0.5869565010 4287203719
-0.2776104808 -0.1803101003 0.5871087313 4286874754
-0.2780942619 -0.1799708456 0.5881318450 4286611322
-0.2781659365 -0.1793636084 0.5882834196 4286413943
-0.2782374024 -0.1787559092 0.5884345770 4286216814
-0.2778963447 -0.1778838038 0.5877133608 4286085228
-0.2779673040 -0.1772760749 0.5878633857 4286085479
-0.2784505785 -0.1769299805 0.5888854265 4286151272
-0.2785212100 -0.1763204038 0.5890348554 4286217319
-0.2785916626 -0.1757103801 0.5891838074 4286151526
-0.2786618769 -0.1750998795 0.5893323421 4286281829
-0.2791448236 -0.1747474223 0.5903537273 4286281829
-0.2792147398 -0.1741350889 0.5905015469 4286347624
-0.2792844474 -0.1735223085 0.5906489491 4286281831
-0.2793539464 -0.1729090661 0.5907959342 4286084965
-0.2794232070 -0.1722953767 0.5909424424 4286019172
-0.2794922888 -0.1716812104 0.5910885334 4286085465
-0.2795611322 -0.1710666120 0.5912341475 4286019672
-0.2796297669 -0.1704515368 0.5913792849 4286019423
-0.2801119685 -0.1700872630 0.5923990607 4286085216
-0.2801802754 -0.1694703847 0.5925434828 4286019170
-0.2802483737 -0.1688530594 0.5926875472 4285887584
-0.2807303071 -0.1684837788 0.5937067866 4285822044
-0.2807980776 -0.1678646356 0.5938500762 4285690458
-0.2808656096 -0.1672450602 0.5939929485 4285821780
-0.2809329331 -0.1666250229 0.5941353440 4285624401
-0.2814145088 -0.1662493795 0.5951537490 4285559113
-0.2814815044 -0.1656275392 0.5952954292 4285295941
-0.2811336219 -0.1647622585 0.5945597291 4285098812
-0.2812000811 -0.1641404480 0.5947002769 4284967226
-0.2812663317 -0.1635181904 0.5948403478 4284769845
-0.2813323438 -0.1628955156 0.5949800014 4284375087
-0.2809830904 -0.1620330513 0.5942413807 4284176678
-0.2810485661 -0.1614104062 0.5943798423 4283979299
-0.2806985676 -0.1605498344 0.5936396718 4284176668
-0.2807635069 -0.1599272341 0.5937770009 4284374047
-0.2804127932 -0.1590685695 0.5930352807 4284505619
-0.2804771960 -0.1584460437 0.5931714773 4284439826
-0.2805413604 -0.1578230858 0.5933071971 4284506638
-0.2806053162 -0.1571996957 0.5934424400 4284704017
-0.2806690335 -0.1565758884 0.5935772061 4285427474
-0.2803166509 -0.1557206213 0.5928319097 4285493267
-0.2803798020 -0.1550968885 0.5929655433 4285624842
-0.2800266743 -0.1542435437 0.5922186971 4285756428
-0.2805055082 -0.1538481712 0.5932313204 4286085378
-0.2801517248 -0.1529958397 0.5924831629 4286282757
-0.2802139223 -0.1523713619 0.5926146507 4286415362
-0.2802758515 -0.1517464668 0.5927456617 4286546948
-0.2803376019 -0.1511211693 0.5928762555 4286742537
-0.2803990841 -0.1504954398 0.5930063128 4286676744
-0.2804603577 -0.1498693228 0.5931358933 4286412826
-0.2805214226 -0.1492427737 0.5932649970 4286083861
-0.2809991241 -0.1488366574 0.5942752957 4285754906
-0.2810598016 -0.1482083648 0.5944036245 4285491734
-0.2811202407 -0.1475796700 0.5945314765 4285163799
-0.2811804712 -0.1469505727 0.5946587920 4285098006
-0.2812404335 -0.1463210732 0.5947856307 4285098542
-0.2817175388 -0.1459073275 0.5957946777 4285690679
-0.2817771435 -0.1452760845 0.5959206820 4286020691
-0.2822540700 -0.1448587328 0.5969293118 4286612828
-0.2823132873 -0.1442257613 0.5970545411 4287205227
-0.2823722661 -0.1435923874 0.5971792936 4287863157
-0.2828488350 -0.1431700885 0.5981871486 4288586369
-0.2829074264 -0.1425349861 0.5983110666 4289310092
-0.2833837569 -0.1421090961 0.5993185043 4289770398
-0.2830239236 -0.1412636042 0.5985574722 4290691500
-0.2761029601 -0.1810537875 0.5852953792 4287270802
-0.2757638693 -0.1801819354 0.5845765471 4287401351
-0.2762465477 -0.1798466444 0.5855997205 4286875007
-0.2767291963 -0.1795091033 0.5866228938 4286677880
-0.2768005729 -0.1789034605 0.5867742300 4286546294
-0.2764603794 -0.1780324131 0.5860530138 4286151533
-0.2765312195 -0.1774267405 0.5862032175 4286019947
-0.2766018808 -0.1768206060 0.5863530040 4286151276
-0.2770840526 -0.1764762104 0.5873751640 4285953897
-0.2771544158 -0.1758682430 0.5875242949 4286151274
-0.2772245705 -0.1752598137 0.5876730084 4286151274
-0.2772945166 -0.1746509075 0.5878212452 4286216551
-0.2777763605 -0.1743001640 0.5888426900 4286150758
-0.2778459787 -0.1736894399 0.5889903307 4286084962
-0.2779154181 -0.1730782539 0.5891374350 4286150755
-0.2779846191 -0.1724666208 0.5892841816 4286085216
-0.2780536115 -0.1718545258 0.5894303918 4286019423
-0.2781223953 -0.1712419689 0.5895762444 4285887584
-0.2781909406 -0.1706289649 0.5897215605 4285953377
-0.2786721587 -0.1702677608 0.5907416940 4285953379
-0.2787404060 -0.1696529388 0.5908863544 4285953379
-0.2788084447 -0.1690376699 0.5910305381 4285953377
-0.2788762450 -0.1684219539 0.5911743045 4285953377
-0.2793571055 -0.1680543870 0.5921936631 4285821783
-0.2794246078 -0.1674368531 0.5923367143 4285624404
-0.2794918716 -0.1668188870 0.5924793482 4285756241
-0.2799724638 -0.1664463133 0.5934981108 4285690448
-0.2800393999 -0.1658265442 0.5936400294 4285624651
-0.2801061273 -0.1652063131 0.5937814713 4285427272
-0.2801726460 -0.1645856500 0.5939224362 4285295171
-0.2802389264 -0.1639645398 0.5940629244 4285031999
-0.2803049684 -0.1633429825 0.5942029953 4284834618
-0.2803708315 -0.1627209932 0.5943425894 4284571446
-0.2804364562 -0.1620985717 0.5944816470 4284111914
-0.2805018425 -0.1614757031 0.5946202874 4283848742
-0.2801525891 -0.1606148183 0.5938799381 4283585056
-0.2802174687 -0.1599920094 0.5940174460 4283190298
-0.2802821100 -0.1593687683 0.5941544771 4282992153
-0.2803465128 -0.1587450951 0.5942910314 4282992153
-0.2804107070 -0.1581209898 0.5944271088 4282992666
-0.2800597847 -0.1572634727 0.5936831832 4283124252
-0.2805384099 -0.1568714976 0.5946978331 4283321623
-0.2801868618 -0.1560149789 0.5939525962 4283321623
-0.2802500427 -0.1553900987 0.5940865278 4283453446
-0.2803130150 -0.1547648013 0.5942200422 4283782411
-0.2803757787 -0.1541390717 0.5943530798 4284112384
-0.2800228298 -0.1532855034 0.5936048627 4284243969
-0.2800850272 -0.1526598781 0.5937367678 4284112896
-0.2801470160 -0.1520338207 0.5938681364 4283915520
-0.2802087665 -0.1514073610 0.5939990282 4283652100
-0.2802702785 -0.1507804841 0.5941294432 4283388928
-0.2803315818 -0.1501531899 0.5942593813 4282993420
-0.2803926468 -0.1495254934 0.5943888426 4283125006
-0.2804534733 -0.1488973796 0.5945178270 4283387940
-0.2809302807 -0.1484888494 0.5955285430 4283716905
-0.2809907496 -0.1478589922 0.5956566930 4284440377
-0.2810509801 -0.1472287327 0.5957844257 4285098307
-0.2811109722 -0.1465980560 0.5959115624 4285822545
-0.2811707556 -0.1459669918 0.5960382819 4286283096
-0.2812303007 -0.1453355104 0.5961645246 4286678372
-0.2817063034 -0.1449180096 0.5971736312 4287270509
-0.2817654610 -0.1442847997 0.5972990394 4287994232
-0.2818244100 -0.1436512023 0.5974239111 4288783748
-0.2818830907 -0.1430171877 0.5975483060 4289507980
-0.2823586166 -0.1425934136 0.5985563993 4290165910
-0.2824169099 -0.1419576854 0.5986799598 4290429611
-0.2824749947 -0.1413215548 0.5988030434 4291021748
-0.2748137712 -0.1799848974 0.5839373469 4287664523
-0.2748851776 -0.1793826967 0.5840890408 4287203972
-0.2749563456 -0.1787800193 0.5842402577 4287071873
-0.2754378319 -0.1784428060 0.5852633119 4286874494
-0.2755087018 -0.1778382808 0.5854139328 4286479990
-0.2759900689 -0.1774974465 0.5864368081 4286282611
-0.2760606706 -0.1768910885 0.5865867734 4286413679
-0.2757201195 -0.1760219485 0.5858631730 4286216300
-0.2762012184 -0.1756770015 0.5868853927 4286347883
-0.2762711644 -0.1750692576 0.5870340466 4286347883
-0.2763409317 -0.1744610667 0.5871822834 4286413417
-0.2764104605 -0.1738523990 0.5873300433 4286347624
-0.2768912315 -0.1735010892 0.5883516073 4286347622
-0.2769604623 -0.1728906035 0.5884987116 4286347622
-0.2770294845 -0.1722796708 0.5886453986 4286281829
-0.2770982981 -0.1716682613 0.5887916088 4286216036
-0.2771669030 -0.1710564196 0.5889373422 4286084965
-0.2772352993 -0.1704441160 0.5890826583 4286150758
-0.2773034573 -0.1698313504 0.5892275572 4286084963
-0.2777835727 -0.1694695801 0.5902476907 4286019170
-0.2778514326 -0.1688550115 0.5903918743 4286150755
-0.2779190540 -0.1682399958 0.5905355811 4286084962
-0.2779864967 -0.1676245183 0.5906788707 4285953628
-0.2784662545 -0.1672563851 0.5916982889 4285822042
-0.2785333395 -0.1666391045 0.5918408632 4285887574
-0.2786002159 -0.1660213917 0.5919829607 4285821781
-0.2786668837 -0.1654032171 0.5921245813 4285821780
-0.2787333429 -0.1647846103 0.5922657847 4285624401
-0.2787995636 -0.1641655564 0.5924065113 4285361481
-0.2788655758 -0.1635460705 0.5925467610 4285098309
-0.2793445885 -0.1631675065 0.5935646296 4284900928
-0.2794102728 -0.1625462174 0.5937041640 4284769342
-0.2794757187 -0.1619244814 0.5938432217 4284374835
-0.2795409262 -0.1613023281 0.5939818621 4284177456
-0.2796059549 -0.1606797278 0.5941199660 4284045354
-0.2796707451 -0.1600566953 0.5942576528 4283650596
-0.2797352970 -0.1594332308 0.5943948030 4283321631
-0.2797996402 -0.1588093340 0.5945315361 4283255838
-0.2798637748 -0.1581850052 0.5946677923 4283255840
-0.2799276710 -0.1575602591 0.5948035717 4283321633
-0.2799913287 -0.1569350809 0.5949388742 4282795035
-0.2800547779 -0.1563094705 0.5950736403 4282597656
-0.2801179886 -0.1556834430 0.5952079892 4282597395
-0.2801809907 -0.1550569832 0.5953418612 4282597395
-0.2802437842 -0.1544301063 0.5954752564 4282663188
-0.2798916698 -0.1535752863 0.5947270989 4282794774
-0.2799538970 -0.1529484987 0.5948593020 4282860569
-0.2800158858 -0.1523212940 0.5949910283 4282860569
-0.2804925740 -0.1519184113 0.5960039496 4282664718
-0.2805542350 -0.1512894332 0.5961349010 4282927890
-0.2806156278 -0.1506600529 0.5962653756 4283322399
-0.2806768119 -0.1500302702 0.5963953733 4284046122
-0.2807377577 -0.1494000554 0.5965248942 4284638269
-0.2807984650 -0.1487694532 0.5966538787 4285098820
-0.2808589637 -0.1481384188 0.5967824459 4285888084
-0.2809191942 -0.1475069970 0.5969104767 4286546014
-0.2809792161 -0.1468751580 0.5970379710 4286612324
-0.2810390294 -0.1462429166 0.5971650481 4287138668
-0.2810985744 -0.1456102729 0.5972915888 4287862395
-0.2811579108 -0.1449772418 0.5974176526 4288454532
-0.2812169790 -0.1443437934 0.5975431800 4288981133
-0.2812758386 -0.1437099576 0.5976682305 4289639063
-0.2813344598 -0.1430757046 0.5977928042 4290297245
-0.2813928723 -0.1424410790 0.5979169011 4290889382
-0.2735263705 -0.1789182276 0.5825766921 4288059282
-0.2735972703 -0.1783171445 0.5827276707 4287664270
-0.2740776241 -0.1779816449 0.5837507844 4287335305
-0.2741482258 -0.1773787290 0.5839011669 4287006081
-0.2742186189 -0.1767753363 0.5840510726 4286808702
-0.2742888033 -0.1761714965 0.5842005610 4286677369
-0.2743587792 -0.1755671799 0.5843495727 4286479990
-0.2748387456 -0.1752239466 0.5853718519 4286676850
-0.2749084234 -0.1746178120 0.5855202675 4286545264
-0.2745674551 -0.1737514883 0.5847941041 4286479210
-0.2750471532 -0.1734041572 0.5858157277 4286479210
-0.2755268216 -0.1730545461 0.5868373513 4286479210
-0.2755957544 -0.1724456698 0.5869842172 4286413417
-0.2756645083 -0.1718363315 0.5871306062 4286412649
-0.2757330239 -0.1712265462 0.5872765779 4286346856
-0.2758013308 -0.1706162989 0.5874220729 4286282090
-0.2758694589 -0.1700056046 0.5875671506 4286282090
-0.2759373486 -0.1693944633 0.5877117515 4286150758
-0.2764163613 -0.1690344065 0.5887320042 4286216551
-0.2764839232 -0.1684214324 0.5888759494 4286282341
-0.2765513062 -0.1678080261 0.5890194178 4286216548
-0.2766184509 -0.1671941727 0.5891624093 4286019423
-0.2770971060 -0.1668277532 0.5901818871 4286019423
-0.2771639228 -0.1662120968 0.5903242230 4285953630
-0.2772305310 -0.1655959785 0.5904660821 4285953630
-0.2772969306 -0.1649794281 0.5906074643 4285953630
-0.2777752280 -0.1646066606 0.5916262269 4285887837
-0.2774290442 -0.1637450010 0.5908889174 4285624661
-0.2774947882 -0.1631271243 0.5910289288 4285361489
-0.2779727280 -0.1627502888 0.5920468569 4285164363
-0.2780381441 -0.1621306092 0.5921861529 4284966984
-0.2781033218 -0.1615105122 0.5923249722 4285032767
-0.2781682909 -0.1608899683 0.5924633741 4284901181
-0.2782330215 -0.1602689922 0.5926012397 4284638009
-0.2782975435 -0.1596475840 0.5927386880 4284309044
-0.2787748277 -0.1592616737 0.5937552452 4284045874
-0.2788390219 -0.1586384922 0.5938919187 4283980081
-0.2789029777 -0.1580148637 0.5940281749 4283979826
-0.2789666951 -0.1573908031 0.5941638947 4283914033
-0.2790302038 -0.1567663252 0.5942991376 4283585070
-0.2790934741 -0.1561414301 0.5944339037 4283387691
-0.2791565359 -0.1555160880 0.5945682526 4283387693
-0.2792193592 -0.1548903435 0.5947020650 4283519279
-0.2792819738 -0.1542641670 0.5948354006 4283650612
-0.2793443501 -0.1536375731 0.5949682593 4283847991
-0.2789925635 -0.1527838707 0.5942190289 4284111165
-0.2790544033 -0.1521573663 0.5943506956 4284176958
-0.2795301378 -0.1517552733 0.5953639746 4284308803
-0.2795916200 -0.1511270106 0.5954948664 4284506182
-0.2796528637 -0.1504983306 0.5956253409 4285032777
-0.2797138691 -0.1498692483 0.5957552791 4285756500
-0.2797746658 -0.1492397338 0.5958847404 4286151256
-0.2798352242 -0.1486098319 0.5960137248 4286480221
-0.2798955441 -0.1479795128 0.5961422324 4287072875
-0.2799556553 -0.1473487765 0.5962702036 4287599219
-0.2796006799 -0.1465002894 0.5955141783 4287993727
-0.2796602249 -0.1458696872 0.5956410170 4288520071
-0.2797195315 -0.1452386826 0.5957673192 4289178261
-0.2797785997 -0.1446072906 0.5958931446 4289704605
-0.2798374593 -0.1439754814 0.5960184932 4290230949
-0.2798960805 -0.1433432847 0.5961433649 4290691500
-0.2799544632 -0.1427106857 0.5962677002 4291283637
-0.2727903128 -0.1769186556 0.5823866725 4287796369
-0.2728604078 -0.1763168722 0.5825363398 4287533197
-0.2729302943 -0.1757146269 0.5826855302 4287401351
-0.2730000019 -0.1751119196 0.5828343034 4287072386
-0.2730694711 -0.1745087504 0.5829826593 4286809466
-0.2735482454 -0.1741658598 0.5840048194 4286546294
-0.2732078135 -0.1733010411 0.5832780004 4286480241
-0.2736864090 -0.1729554087 0.5842997432 4286480241
-0.2737551630 -0.1723495126 0.5844465494 4286611055
-0.2742336392 -0.1720002443 0.5854680538 4286611055
-0.2743020952 -0.1713925153 0.5856142044 4286413676
-0.2743703425 -0.1707843393 0.5857598782 4286347883
-0.2744383514 -0.1701757014 0.5859051347 4286413419
-0.2745061815 -0.1695666164 0.5860499144 4286347626
-0.2749842405 -0.1692096293 0.5870705247 4286347624
-0.2750517428 -0.1685987413 0.5872146487 4286347624
