VERSION 0.7
FIELDS x y z rgba
SIZE 4 4 4 4
TYPE F F F U
COUNT 1 1 1 1
WIDTH 920
HEIGHT 1
VIEWPOINT 0.0 0.0 0.0 1.0 0.0 0.0 0.0
POINTS 920
DATA ascii
-0.3106630743 -0.1626778096 0.6219488382 4287928960
-0.3081202805 -0.1606609076 0.6168581247 4287731581
-0.3055760860 -0.1586545855 0.6117646694 4287731797
-0.3025951087 -0.1564337909 0.6057967544 4287402832
-0.3004835248 -0.1546737701 0.6015693545 4287337531
-0.2983707786 -0.1529225409 0.5973395705 4287140152
-0.2971281707 -0.1516247541 0.5948519111 4287533619
-0.2958847582 -0.1503320932 0.5923625827 4287533619
-0.2955122888 -0.1494855136 0.5916169286 4287664938
-0.2947034538 -0.1484208256 0.5899975896 4287467559
-0.2934579253 -0.1471407861 0.5875040889 4287335447
-0.2930839062 -0.1463013291 0.5867552757 4287203861
-0.2922732234 -0.1452465355 0.5851323009 4287663119
-0.2918982804 -0.1444109082 0.5843816400 4287992084
-0.2915228903 -0.1435767412 0.5836301446 4288189201
-0.2911471128 -0.1427440345 0.5828777552 4288320787
-0.2907708883 -0.1419128031 0.5821245909 4288517650
-0.2903942466 -0.1410830468 0.5813705921 4288517650
-0.2904539704 -0.1404659897 0.5814901590 4288321040
-0.2900766134 -0.1396382451 0.5807346106 4288452626
-0.2896988094 -0.1388119906 0.5799782872 4288518417
-0.2897576392 -0.1381956488 0.5800960660 4288518417
-0.2893791199 -0.1373714209 0.5793382525 4288649235
-0.2894373834 -0.1367552727 0.5794548988 4288649235
-0.2890581191 -0.1359331012 0.5786955953 4288518419
-0.2891158164 -0.1353171319 0.5788111091 4288386833
-0.2887358069 -0.1344970167 0.5780503154 4288649235
-0.2883553803 -0.1336783916 0.5772887468 4288780821
-0.2884121835 -0.1330631971 0.5774024725 4288780562
-0.2880310118 -0.1322466582 0.5766393542 4288977941
-0.2880872786 -0.1316316724 0.5767519474 4288912146
-0.2881432772 -0.1310163140 0.5768640637 4288912146
-0.2881990373 -0.1304006130 0.5769757032 4288977939
-0.2878164947 -0.1295873076 0.5762098432 4289043732
-0.2878716886 -0.1289718300 0.5763203502 4289043732
-0.2879266441 -0.1283559948 0.5764303803 4289043732
-0.2879813612 -0.1277398169 0.5765399337 4289175059
-0.2880358100 -0.1271232665 0.5766489506 4289175059
-0.2880900502 -0.1265063882 0.5767575502 4288913177
-0.2881440222 -0.1258891523 0.5768656135 4288847384
-0.2881977856 -0.1252715737 0.5769731998 4288978454
-0.2882512808 -0.1246536523 0.5770803094 4289044247
-0.2883045077 -0.1240353808 0.5771868825 4289044247
-0.2883575261 -0.1234167740 0.5772930384 4289044247
-0.2884102762 -0.1227978244 0.5773986578 4288847384
-0.2884627879 -0.1221785322 0.5775038004 4288650005
-0.2885150611 -0.1215589046 0.5776084065 4288781591
-0.2885670960 -0.1209389418 0.5777125955 4288978970
-0.2890581489 -0.1205017790 0.5786957145 4289044761
-0.2891097665 -0.1198802069 0.5787990093 4288847382
-0.2891611159 -0.1192582995 0.5789018273 4288913177
-0.2892122269 -0.1186360568 0.5790041089 4289044763
-0.2897026837 -0.1181928441 0.5799860358 4288782104
-0.2897533774 -0.1175690070 0.5800874829 4288321553
-0.2898038030 -0.1169448346 0.5801884532 4288452884
-0.2902938128 -0.1164968535 0.5811694860 4288584470
-0.2907837331 -0.1160466522 0.5821503401 4288387346
-0.2912735641 -0.1155942306 0.5831309557 4288453139
-0.2913232148 -0.1149659231 0.5832303166 4288388114
-0.2918127477 -0.1145100072 0.5842103958 4288124942
-0.2918619514 -0.1138801128 0.5843089223 4288388116
-0.2923512161 -0.1134207174 0.5852884054 4289111839
-0.2924000025 -0.1127892360 0.5853860378 4288914979
-0.2928889394 -0.1123263463 0.5863649249 4288914979
-0.2929372787 -0.1116932854 0.5864617229 4288653102
-0.2934259474 -0.1112269163 0.5874400139 4288455723
-0.2939144969 -0.1107583344 0.5884181261 4288652854
-0.2944029272 -0.1102875322 0.5893959403 4289244991
-0.2953320444 -0.1099786609 0.5912560225 4289770312
-0.2958202958 -0.1095024720 0.5922335386 4290033484
-0.2967493832 -0.1091863066 0.5940935612 4289772632
-0.2976784706 -0.1088660136 0.5959536433 4289970011
-0.3096684217 -0.1625183225 0.6213390827 4288980632
-0.3079989851 -0.1609555483 0.6179894209 4287401600
-0.3058940172 -0.1591735929 0.6137659550 4287862882
-0.3029186726 -0.1569500566 0.6077960134 4287204952
-0.3008111417 -0.1551874876 0.6035673022 4287074357
-0.2987024486 -0.1534336954 0.5993362665 4286811185
-0.2974623144 -0.1521335542 0.5968480110 4287664940
-0.2962214053 -0.1508385241 0.5943581462 4287533354
-0.2954147756 -0.1497692019 0.5927396417 4287533350
-0.2946075201 -0.1487031579 0.5911199450 4287467557
-0.2937996686 -0.1476404220 0.5894989967 4287335712
-0.2925558388 -0.1463631839 0.5870033503 4287269919
-0.2921821177 -0.1455248445 0.5862534642 4287467023
-0.2918079793 -0.1446879655 0.5855027437 4287664402
-0.2914334238 -0.1438525468 0.5847512484 4288123919
-0.2910584509 -0.1430185884 0.5839988589 4288123919
-0.2906830609 -0.1421861053 0.5832456350 4288255248
-0.2903072536 -0.1413550824 0.5824915767 4288255248
-0.2899310291 -0.1405255347 0.5817366838 4288452110
-0.2899904549 -0.1399078667 0.5818559527 4288583696
-0.2896134853 -0.1390803456 0.5810995698 4288714266
-0.2892360985 -0.1382543147 0.5803423524 4288714266
-0.2892946303 -0.1376373619 0.5804597735 4288649489
-0.2889164984 -0.1368133724 0.5797010660 4288583696
-0.2889744639 -0.1361965984 0.5798174143 4288714769
-0.2885956168 -0.1353746653 0.5790572166 4288714769
-0.2882163227 -0.1345542222 0.5782962441 4288648976
-0.2882733941 -0.1339382231 0.5784107447 4288714769
-0.2878933847 -0.1331198364 0.5776482821 4288781075
-0.2879498899 -0.1325040460 0.5777616501 4288715282
-0.2875691354 -0.1316877455 0.5769976974 4288846868
-0.2876251042 -0.1310721636 0.5771099329 4288846868
-0.2876808047 -0.1304562092 0.5772217512 4288846866
-0.2877362669 -0.1298399121 0.5773330331 4288978452
-0.2873541415 -0.1290268600 0.5765662789 4289110038
-0.2874090374 -0.1284107864 0.5766764283 4289110038
-0.2874636948 -0.1277943552 0.5767861009 4288781589
-0.2875181139 -0.1271775812 0.5768952966 4288650003
-0.2875722945 -0.1265604496 0.5770040154 4289110040
-0.2876262367 -0.1259429753 0.5771121979 4288978454
-0.2876799107 -0.1253251433 0.5772199631 4288978454
-0.2877333760 -0.1247069761 0.5773271918 4289044247
-0.2877865732 -0.1240884662 0.5774339437 4289044247
-0.2878395319 -0.1234696135 0.5775401592 4289110040
-0.2878922224 -0.1228504181 0.5776459575 4288913429
-0.2879447043 -0.1222308800 0.5777512193 4288847636
-0.2884352803 -0.1217961088 0.5787355304 4288847384
-0.2884873152 -0.1211749539 0.5788399577 4288715798
-0.2885391116 -0.1205534637 0.5789439082 4288781592
-0.2885906696 -0.1199316382 0.5790473223 4288650006
-0.2886419892 -0.1193094850 0.5791502595 4288913178
-0.2886930406 -0.1186869964 0.5792527199 4288715799
-0.2891826630 -0.1182436123 0.5802351832 4288715796
-0.2892332971 -0.1176195219 0.5803367496 4288452624
-0.2897226512 -0.1171726361 0.5813186169 4288912146
-0.2902119160 -0.1167235300 0.5823003054 4288780560
-0.2902619541 -0.1160965636 0.5824006796 4288387091
-0.2907509506 -0.1156439632 0.5833818316 4288518677
-0.2908005416 -0.1150154024 0.5834813714 4288585753
-0.2912892401 -0.1145593151 0.5844619274 4288519960
-0.2913384140 -0.1139291599 0.5845605731 4288717600
-0.2918268144 -0.1134695783 0.5855405927 4289507116
-0.2918755710 -0.1128378436 0.5856383443 4289375028
-0.2923636734 -0.1123747751 0.5866177678 4289111856
-0.2928516865 -0.1119094864 0.5875969529 4288849715
-0.2933395803 -0.1114419848 0.5885758996 4288586543
-0.2938273847 -0.1109722555 0.5895546079 4288653365
-0.2943150401 -0.1105003133 0.5905330777 4289442881
-0.2948026061 -0.1100261584 0.5915113688 4289443406
-0.2957301140 -0.1097130403 0.5933723450 4289706578
-0.2962174714 -0.1092334911 0.5943502784 4289378660
-0.2975851595 -0.1090744212 0.5970944762 4289970797
-0.3091081381 -0.1625865996 0.6216001511 4290757557
-0.3074417710 -0.1610231996 0.6182492375 4287731079
-0.3057744205 -0.1594667286 0.6148962379 4287467871
-0.3036722243 -0.1576919109 0.6106688380 4287402078
-0.3015688658 -0.1559258550 0.6064390540 4286876727
-0.2994642854 -0.1541686058 0.6022069454 4286613555
-0.2977926731 -0.1526426673 0.5988453627 4287533354
-0.2965542376 -0.1513452679 0.5963549018 4287401768
-0.2953149974 -0.1500530094 0.5938628912 4287336224
-0.2945093513 -0.1489856392 0.5922427773 4287204638
-0.2937031090 -0.1479215473 0.5906214714 4287138586
-0.2924616635 -0.1466428638 0.5881250501 4287138586
-0.2920887768 -0.1458032727 0.5873751640 4287401230
-0.2917154431 -0.1449651420 0.5866243839 4287664402
-0.2913417220 -0.1441284716 0.5858728290 4288058130
-0.2905326188 -0.1430790722 0.5842458010 4287992337
-0.2905929983 -0.1424595118 0.5843671560 4288123410
-0.2902179956 -0.1416272372 0.5836130977 4288123410
-0.2898425758 -0.1407964379 0.5828581452 4288386317
-0.2899020314 -0.1401776075 0.5829777122 4288583696
-0.2895258963 -0.1393488348 0.5822213292 4288780311
-0.2891493142 -0.1385215372 0.5814640522 4288714518
-0.2887723446 -0.1376957297 0.5807059407 4288648974
-0.2888305783 -0.1370781660 0.5808231235 4288648974
-0.2884528637 -0.1362544149 0.5800635219 4288780301
-0.2885105312 -0.1356370300 0.5801795125 4288780301
-0.2881320715 -0.1348153353 0.5794184208 4288780301
-0.2877531946 -0.1339951307 0.5786565542 4288780301
-0.2878099978 -0.1333785206 0.5787707567 4288780560
-0.2874303758 -0.1325603873 0.5780073404 4288780560
-0.2874866128 -0.1319439858 0.5781204104 4288780814
-0.2875425816 -0.1313272268 0.5782330036 4288846607
-0.2875983417 -0.1307101101 0.5783451200 4288846607
-0.2876538336 -0.1300926208 0.5784566998 4289043986
-0.2872725129 -0.1292783171 0.5776898861 4289241365
-0.2873274386 -0.1286610514 0.5778003931 4289175572
-0.2873821557 -0.1280434430 0.5779103637 4288978193
-0.2874366045 -0.1274254918 0.5780198574 4288846607
-0.2874908149 -0.1268071681 0.5781288743 4288912659
-0.2875447571 -0.1261885166 0.5782373548 4288846866
-0.2875984907 -0.1255695075 0.5783454180 4288978454
-0.2876519561 -0.1249501482 0.5784529448 4289044247
-0.2877051830 -0.1243304536 0.5785599947 4289110040
-0.2877581716 -0.1237104088 0.5786665678 4289175833
-0.2878109217 -0.1230900288 0.5787726045 4289175831
-0.2878634036 -0.1224692985 0.5788781643 4289044245
-0.2879156768 -0.1218482405 0.5789832473 4288650003
-0.2884052992 -0.1214110702 0.5799678564 4288584210
-0.2884571254 -0.1207883880 0.5800721049 4288584212
-0.2885087132 -0.1201653704 0.5801758170 4288321040
-0.2885600626 -0.1195420250 0.5802790523 4288518419
-0.2886111438 -0.1189183444 0.5803818107 4288452626
-0.2891000211 -0.1184738353 0.5813648701 4288715796
-0.2895887792 -0.1180271059 0.5823478103 4288781589
-0.2896392643 -0.1174005419 0.5824493170 4288781841
-0.2896895111 -0.1167736501 0.5825503469 4288781841
-0.2901778221 -0.1163221449 0.5835323334 4288519702
-0.2902276516 -0.1156936511 0.5836325288 4288651288
-0.2907156944 -0.1152386516 0.5846139193 4288717339
-0.2907650769 -0.1146085709 0.5847132206 4288651546
-0.2912528217 -0.1141500771 0.5856940746 4288783393
-0.2913017571 -0.1135184020 0.5857924819 4289375530
-0.2917892337 -0.1130564213 0.5867727995 4289112626
-0.2922765911 -0.1125922129 0.5877528191 4288981040
-0.2927638292 -0.1121257916 0.5887326598 4288916024
-0.2928119898 -0.1114899963 0.5888294578 4288916024
-0.2932989299 -0.1110200807 0.5898087025 4289179969
-0.2942248881 -0.1107131988 0.5916707516 4289772106
-0.2947116792 -0.1102378890 0.5926496983 4289902937
-0.2956376374 -0.1099237055 0.5945116878 4289968730
-0.2961242497 -0.1094430014 0.5954902768 4289247092
-0.2974895835 -0.1092829257 0.5982359052 4290497159
-0.3068838716 -0.1610907912 0.6185087562 4289047457
-0.3056525290 -0.1597599834 0.6160269976 4287402344
-0.3039873242 -0.1582088917 0.6126708984 4287007586
-0.3023211360 -0.1566647440 0.6093127728 4287008325
-0.2997875214 -0.1546804905 0.6042063832 4286679360
-0.2981191576 -0.1531520933 0.6008439064 4287269927
-0.2968832254 -0.1518523395 0.5983529091 4287138341
-0.2956464589 -0.1505577117 0.5958603621 4287073304
-0.2948425412 -0.1494880617 0.5942400098 4286941718
-0.2936042845 -0.1482027918 0.5917444229 4286941205
-0.2927990258 -0.1471406519 0.5901214480 4287006998
-0.2919931710 -0.1460818201 0.5884972811 4287335185
-0.2916206717 -0.1452424377 0.5877465606 4287466771
-0.2912477553 -0.1444045156 0.5869949460 4287860498
-0.2908744216 -0.1435680538 0.5862424970 4287794705
-0.2900664508 -0.1425196975 0.5846140385 4287926291
-0.2896921635 -0.1416870952 0.5838597417 4288057877
-0.2893174887 -0.1408559829 0.5831046104 4288320270
-0.2893769145 -0.1402368993 0.5832243562 4288517649
-0.2894360721 -0.1396174282 0.5833435655 4288649235
-0.2886256576 -0.1385801733 0.5817102194 4288583442
-0.2886841595 -0.1379618198 0.5818281174 4288714508
-0.2883075774 -0.1371362507 0.5810691714 4288714508
-0.2883655429 -0.1365180761 0.5811859965 4288780299
-0.2879882157 -0.1356945485 0.5804255009 4288780299
-0.2876105011 -0.1348725259 0.5796642303 4288846092
-0.2876675427 -0.1342551112 0.5797792077 4288780299
-0.2872890830 -0.1334351450 0.5790164471 4288780301
-0.2873455882 -0.1328179240 0.5791302919 4288846094
-0.2869663835 -0.1320000440 0.5783660412 4288715021
-0.2870223224 -0.1313830465 0.5784787536 4288846607
-0.2870779932 -0.1307656765 0.5785909891 4288977680
-0.2871334553 -0.1301479489 0.5787027478 4289109266
-0.2871886492 -0.1295298785 0.5788140297 4289306645
-0.2868077457 -0.1287158281 0.5780463219 4289240852
-0.2868623734 -0.1280979663 0.5781564713 4288978193
-0.2869167924 -0.1274797618 0.5782660842 4288846607
-0.2869709432 -0.1268612146 0.5783752203 4288846355
-0.2870248556 -0.1262423098 0.5784838796 4288846355
-0.2870785296 -0.1256230623 0.5785920620 4288912661
-0.2871319354 -0.1250034571 0.5786997080 4289110040
-0.2871851325 -0.1243835166 0.5788069367 4289241626
-0.2872380614 -0.1237632260 0.5789136291 4289307419
-0.2872907519 -0.1231426001 0.5790197849 4289241626
-0.2873432040 -0.1225216314 0.5791255236 4289044247
-0.2878321707 -0.1220855787 0.5801109672 4288847382
-0.2878842056 -0.1214629859 0.5802158713 4288715796
-0.2879359722 -0.1208400577 0.5803202391 4288452624
-0.2879875004 -0.1202167869 0.5804240704 4288057866
-0.2880387902 -0.1195931956 0.5805274248 4288255758
-0.2880898416 -0.1189692616 0.5806303024 4288255758
-0.2890151143 -0.1187041625 0.5824951530 4288387344
-0.2890658081 -0.1180776805 0.5825973153 4288584723
-0.2891162336 -0.1174508631 0.5826990008 4288388114
-0.2891664207 -0.1168237180 0.5828001499 4288519700
-0.2896538973 -0.1163720414 0.5837826133 4288519962
-0.2901412845 -0.1159181371 0.5847648978 4288651548
-0.2901908755 -0.1152881160 0.5848648548 4288848927
-0.2906779647 -0.1148307174 0.5858466029 4288783134
-0.2907271385 -0.1141991094 0.5859456658 4288848933
-0.2912139297 -0.1137382090 0.5869268179 4289309484
-0.2917006314 -0.1132750958 0.5879077315 4289178680
-0.2917491794 -0.1126406267 0.5880055428 4289112887
-0.2922355831 -0.1121740192 0.5889858603 4288982077
-0.2927218974 -0.1117051840 0.5899659991 4289311042
-0.2932080626 -0.1112341359 0.5909458399 4289640015
-0.2941324711 -0.1109261736 0.5928089619 4289968980
-0.2946185172 -0.1104497239 0.5937885046 4290099554
-0.2955428958 -0.1101344600 0.5956515670 4290033761
-0.3050962090 -0.1598269790 0.6162853241 4288257662
-0.3038663566 -0.1585007310 0.6138010621 4286547044
-0.3022033572 -0.1569550484 0.6104418635 4286942546
-0.3005393445 -0.1554162949 0.6070806384 4286679374
-0.2988743484 -0.1538845152 0.6037173867 4287204138
-0.2972083688 -0.1523597091 0.6003521681 4287072552
-0.2959741056 -0.1510627121 0.5978589654 4287139095
-0.2938734591 -0.1493310183 0.5936157107 4287007509
-0.2952347994 -0.1493601650 0.5963656306 4287006998
-0.2926995754 -0.1474206746 0.5912445188 4287138584
-0.2923284173 -0.1465776563 0.5904948115 4287401238
-0.2915236652 -0.1455198675 0.5888692141 4287532824
-0.2911515534 -0.1446806788 0.5881175399 4287597842
-0.2907790542 -0.1438429654 0.5873650908 4287663635
-0.2904061079 -0.1430067122 0.5866117477 4287926293
-0.2895992100 -0.1419594139 0.5849819183 4287992086
-0.2892253697 -0.1411270350 0.5842267275 4288057869
-0.2892847955 -0.1405067891 0.5843467712 4288189455
-0.2889102101 -0.1396764368 0.5835900903 4288386833
-0.2885351777 -0.1388475597 0.5828325748 4288452626
-0.2881597579 -0.1380201727 0.5820742249 4288714767
-0.2882179916 -0.1374011934 0.5821918249 4288648974
-0.2878417969 -0.1365758479 0.5814319849 4288649228
-0.2878994644 -0.1359570622 0.5815484524 4288715021
-0.2875225544 -0.1351337880 0.5807870626 4288780560
-0.2871452272 -0.1343120039 0.5800248981 4288714767
-0.2872020006 -0.1336939782 0.5801395774 4288649487
-0.2868239582 -0.1328742504 0.5793759227 4288715280
-0.2868801355 -0.1322564334 0.5794894695 4288715280
-0.2869361043 -0.1316382587 0.5796024799 4288846866
-0.2869918346 -0.1310197115 0.5797150135 4288978452
-0.2870472968 -0.1304008216 0.5798271298 4289044245
-0.2866675556 -0.1295849234 0.5790599585 4289175831
-0.2867224514 -0.1289662421 0.5791708827 4289044245
-0.2867771387 -0.1283472031 0.5792813301 4288912659
-0.2868315578 -0.1277278215 0.5793913007 4288846866
-0.2868857384 -0.1271080822 0.5795007348 4288846868
-0.2869396806 -0.1264880002 0.5796096921 4288846868
-0.2869933844 -0.1258675605 0.5797181726 4288978200
-0.2870468497 -0.1252467781 0.5798261166 4289175579
-0.2871000469 -0.1246256456 0.5799336433 4289307165
-0.2871530056 -0.1240041628 0.5800406337 4289307165
-0.2872057259 -0.1233823448 0.5801470876 4289044763
-0.2872582078 -0.1227601841 0.5802531242 4288847384
-0.2873104215 -0.1221376881 0.5803586245 4288847382
-0.2877984643 -0.1216992363 0.5813444257 4288715796
-0.2878502905 -0.1210751161 0.5814490914 4288058379
-0.2879018486 -0.1204506606 0.5815532207 4287861000
-0.2879531682 -0.1198258623 0.5816568732 4288387344
-0.2884405851 -0.1193813458 0.5826414824 4288321551
-0.2884914875 -0.1187549382 0.5827443004 4287795979
-0.2889786661 -0.1183069125 0.5837283731 4287795979
-0.2890291214 -0.1176788956 0.5838302970 4287664912
-0.2890793383 -0.1170505583 0.5839317441 4287993877
-0.2895660698 -0.1165977493 0.5849149227 4288388124
-0.2896158695 -0.1159678027 0.5850154757 4288651296
-0.2901023030 -0.1155114993 0.5859980583 4288914466
-0.2901516557 -0.1148799583 0.5860977769 4288980259
-0.2906378210 -0.1144201532 0.5870798230 4288849705
-0.2911238670 -0.1139581203 0.5880616307 4289178670
-0.2916097939 -0.1134938672 0.5890432000 4289113150
-0.2916583419 -0.1128581911 0.5891412497 4289047357
-0.2921440005 -0.1123904437 0.5901222825 4288850754
-0.2926295102 -0.1119204760 0.5911030173 4289245512
-0.2931149304 -0.1114482805 0.5920835137 4289705812
-0.2940377891 -0.1111392528 0.5939476490 4289771605
-0.2945230603 -0.1106616557 0.5949278474 4289770338
-0.2954458892 -0.1103453189 0.5967919827 4289770338
-0.3037430942 -0.1587926894 0.6149317026 4287270264
-0.3020832837 -0.1572454721 0.6115713716 4286678875
-0.3008541167 -0.1559288949 0.6090828776 4286349910
-0.2991923988 -0.1543946564 0.6057187319 4286678059
-0.2979615331 -0.1530892551 0.6032268405 4286480680
-0.2962979376 -0.1515680403 0.5998588800 4286613267
-0.2954973876 -0.1504938453 0.5982381701 4286679060
-0.2942641377 -0.1492038369 0.5957413912 4286678292
-0.2930300832 -0.1479189992 0.5932430625 4286875671
-0.2922275364 -0.1468565464 0.5916182995 4287204377
-0.2914243937 -0.1457974017 0.5899923444 4287335963
-0.2910531163 -0.1449569762 0.5892406702 4287532816
-0.2906814218 -0.1441179961 0.5884881616 4287664402
-0.2903093100 -0.1432804912 0.5877348185 4287729682
-0.2899367809 -0.1424444467 0.5869806409 4287663889
-0.2891309857 -0.1413982064 0.5853493214 4287794956
-0.2891904414 -0.1407767981 0.5854697227 4287860749
-0.2888166904 -0.1399451792 0.5847129822 4288058128
-0.2884424925 -0.1391150504 0.5839554071 4288321300
-0.2880678773 -0.1382864118 0.5831969976 4288649487
-0.2881261110 -0.1376662701 0.5833149552 4288583694
-0.2877507806 -0.1368396580 0.5825550556 4288583696
-0.2873750329 -0.1360145509 0.5817943215 4288649489
-0.2874323726 -0.1353951544 0.5819104314 4288715282
-0.2870558798 -0.1345721185 0.5811482072 4288715282
-0.2871126831 -0.1339529157 0.5812632442 4288715282
-0.2867354453 -0.1331319362 0.5804995298 4288781075
-0.2867916822 -0.1325129420 0.5806133151 4288715796
-0.2868476808 -0.1318935901 0.5807266831 4288781589
-0.2864693701 -0.1310752630 0.5799608231 4288913175
-0.2865248024 -0.1304561198 0.5800730586 4288978968
-0.2865799963 -0.1298366189 0.5801847577 4288913175
-0.2866349220 -0.1292167604 0.5802959800 4288847382
-0.2862552404 -0.1284017116 0.5795273185 4288847382
-0.2863096297 -0.1277820766 0.5796374083 4288781589
-0.2863637507 -0.1271620989 0.5797470212 4288912407
-0.2864176333 -0.1265417635 0.5798560977 4289043993
-0.2864712775 -0.1259210855 0.5799646974 4289044763
-0.2865246832 -0.1253000647 0.5800728202 4289176349
-0.2865778506 -0.1246786863 0.5801804662 4289242143
-0.2866307795 -0.1240569651 0.5802875757 4289110557
-0.2866834402 -0.1234349012 0.5803942084 4288913435
-0.2867358625 -0.1228124946 0.5805003643 4288847642
-0.2867880464 -0.1221897453 0.5806059837 4288782104
-0.2872752249 -0.1217511296 0.5815923214 4288650518
-0.2873269916 -0.1211267635 0.5816971064 4287861770
-0.2878139317 -0.1206846312 0.5826829076 4287730184
-0.2883007824 -0.1202402785 0.5836685300 4288256530
-0.2883519530 -0.1196130067 0.5837721229 4288059151
-0.2884028554 -0.1189853996 0.5838752389 4287269380
-0.2884535491 -0.1183574647 0.5839778185 4287072001
-0.2885039449 -0.1177292019 0.5840798616 4287204110
-0.2885541320 -0.1171006039 0.5841814280 4287796247
-0.2890399992 -0.1166476235 0.5851650834 4288388125
-0.2895257771 -0.1161924154 0.5861485600 4288782883
-0.2895753384 -0.1155609414 0.5862489343 4289046052
-0.2900608480 -0.1151022315 0.5872318149 4289046052
-0.2905462384 -0.1146412939 0.5882144570 4288915244
-0.2910315096 -0.1141781360 0.5891969204 4289112623
-0.2915166616 -0.1137127429 0.5901791453 4288981566
-0.2915652692 -0.1130758524 0.5902774930 4289047359
-0.2920501232 -0.1126069725 0.5912591815 4288916292
-0.2925348878 -0.1121358573 0.5922405720 4289376843
-0.2930195332 -0.1116625220 0.5932217240 4289968731
-0.2939408422 -0.1113524213 0.5950869322 4290034524
-0.2948621511 -0.1110381857 0.5969521403 4290230638
-0.2957834899 -0.1107198074 0.5988173485 4290625396
-0.3031868935 -0.1588591337 0.6151889563 4289046938
-0.3019609451 -0.1575360149 0.6127014160 4286678117
-0.3007341623 -0.1562180072 0.6102122068 4285691222
-0.2995065749 -0.1549051106 0.6077213287 4286283313
-0.2982782125 -0.1535973400 0.6052288413 4285954348
-0.2966178954 -0.1520736516 0.6018599868 4286218513
-0.2953878343 -0.1507770717 0.5993641019 4286415892
-0.2945882976 -0.1497048289 0.5977417231 4286480915
-0.2933567464 -0.1484176219 0.5952428579 4286678294
-0.2925558984 -0.1473528892 0.5936178565 4286875671
-0.2913228571 -0.1460750699 0.5911159515 4287007257
-0.2909524143 -0.1452333778 0.5903642774 4287335949
-0.2905815244 -0.1443931460 0.5896117091 4287467535
-0.2902102470 -0.1435543895 0.5888583660 4287598095
-0.2898385227 -0.1427170932 0.5881041288 4287532302
-0.2890343666 -0.1416695118 0.5864723921 4287729165
-0.2886617184 -0.1408360898 0.5857163072 4287729165
-0.2887209058 -0.1402140558 0.5858363509 4287860751
-0.2883475423 -0.1393826604 0.5850787759 4288189716
-0.2879737318 -0.1385527700 0.5843203068 4288649487
-0.2880320251 -0.1379314512 0.5844385624 4288583694
-0.2876574993 -0.1371035874 0.5836786628 4288583696
-0.2877152264 -0.1364824623 0.5837957859 4288649489
-0.2873399556 -0.1356566548 0.5830343366 4288715282
-0.2869642675 -0.1348323524 0.5822720528 4288781075
-0.2870211005 -0.1342119724 0.5823873281 4288781073
-0.2866446972 -0.1333897412 0.5816236138 4288846866
-0.2867009640 -0.1327695698 0.5817377567 4288912659
-0.2867569625 -0.1321490258 0.5818514228 4288912659
-0.2868127525 -0.1315281391 0.5819646120 4288978968
-0.2864349484 -0.1307091266 0.5811980367 4288978968
-0.2864901721 -0.1300884485 0.5813100338 4288847382
-0.2865451276 -0.1294674128 0.5814216137 4288913175
-0.2861662805 -0.1286510825 0.5806528926 4288979222
-0.2862206995 -0.1280302703 0.5807632804 4288979222
-0.2862748504 -0.1274091154 0.5808731318 4288847384
-0.2863287628 -0.1267875880 0.5809825659 4289044763
-0.2863824368 -0.1261657327 0.5810914636 4289242142
-0.2864358723 -0.1255435050 0.5811998844 4289242142
-0.2864890695 -0.1249209493 0.5813078284 4289111069
-0.2865419984 -0.1242980435 0.5814152360 4288979483
-0.2865947187 -0.1236747876 0.5815221667 4288979228
-0.2866471410 -0.1230511889 0.5816285610 4289045021
-0.2866993546 -0.1224272549 0.5817345381 4288914205
-0.2871857882 -0.1219875216 0.5827215314 4288848412
-0.2876721323 -0.1215455607 0.5837083459 4288256530
-0.2877237499 -0.1209187135 0.5838130713 4288059151
-0.2877751291 -0.1202915311 0.5839173198 4288124944
-0.2882610261 -0.1198447719 0.5849032402 4287993358
-0.2883119881 -0.1192159727 0.5850066543 4287335686
-0.2883626819 -0.1185868382 0.5851095319 4287269893
-0.2884131372 -0.1179573685 0.5852118731 4287401489
-0.2884633243 -0.1173275709 0.5853137374 4287993626
-0.2885132730 -0.1166974530 0.5854150653 4288585504
-0.2889981866 -0.1162420660 0.5863990188 4288914469
-0.2894830406 -0.1157844514 0.5873827934 4288980774
-0.2895323634 -0.1151514500 0.5874828696 4288980774
-0.2900169194 -0.1146903336 0.5884660482 4288915504
-0.2905013561 -0.1142269894 0.5894490480 4289112883
-0.2909856737 -0.1137614176 0.5904317498 4288981825
-0.2914699018 -0.1132936180 0.5914142728 4289179204
-0.2919540107 -0.1128235906 0.5923965573 4289113673
-0.2924380004 -0.1123513430 0.5933786035 4289442638
-0.2929218709 -0.1118768677 0.5943604708 4290034274
-0.2938416004 -0.1115656942 0.5962266326 4290297446
-0.2951973975 -0.1114149466 0.5989776254 4290757764
-0.3014063537 -0.1576018482 0.6129574776 4288191366
-0.3006119430 -0.1565072238 0.6113419533 4285954404
-0.2993867695 -0.1551928818 0.6088503599 4286414402
-0.2981607914 -0.1538836658 0.6063570976 4285822265
-0.2969340086 -0.1525795907 0.6038622856 4286086933
-0.2957064509 -0.1512806416 0.6013658047 4286415898
-0.2949086130 -0.1502061188 0.5997433066 4286415890
-0.2936795652 -0.1489165425 0.5972438455 4286547476
-0.2928804159 -0.1478495449 0.5956186652 4286875925
-0.2916498780 -0.1465693563 0.5931161642 4286875925
-0.2912803292 -0.1457254887 0.5923646092 4287138570
-0.2909103632 -0.1448830664 0.5916122198 4287335949
-0.2901089191 -0.1438284069 0.5899823904 4287532302
-0.2897380292 -0.1429898590 0.5892280936 4287598095
-0.2893667221 -0.1421527863 0.5884730220 4287728912
-0.2889949977 -0.1413171738 0.5877170563 4287663119
-0.2886228859 -0.1404830515 0.5869602561 4287794704
-0.2882503271 -0.1396504045 0.5862026215 4287992083
-0.2878773510 -0.1388192326 0.5854441524 4288583181
-0.2879356742 -0.1381967515 0.5855627060 4288714767
-0.2875619829 -0.1373676360 0.5848027468 4288649487
-0.2871878445 -0.1365400106 0.5840418935 4288649487
-0.2872452736 -0.1359182596 0.5841587186 4288715280
-0.2868704200 -0.1350927055 0.5833963752 4288846866
-0.2869272828 -0.1344711483 0.5835120082 4288846866
-0.2865516841 -0.1336476505 0.5827481747 4288846866
-0.2866079807 -0.1330263019 0.5828626752 4288912659
-0.2862316668 -0.1322048903 0.5820973516 4288978452
-0.2862873673 -0.1315837502 0.5822106600 4288979222
-0.2863428593 -0.1309622377 0.5823234916 4288979222
-0.2859654725 -0.1301434934 0.5815560222 4288913429
-0.2860203981 -0.1295222044 0.5816677213 4288979222
-0.2860750854 -0.1289005727 0.5817788839 4289241624
-0.2861295044 -0.1282785833 0.5818896294 4289307417
-0.2861836851 -0.1276562363 0.5819998384 4288913690
-0.2862376571 -0.1270335317 0.5821095109 4289111069
-0.2862913609 -0.1264104694 0.5822187066 4289242655
-0.2863447964 -0.1257870793 0.5823274255 4289176862
-0.2863980234 -0.1251633167 0.5824356675 4289111069
-0.2864509821 -0.1245392263 0.5825433731 4288979483
-0.2865037322 -0.1239147782 0.5826506019 4288979483
-0.2869897187 -0.1234765127 0.5836389661 4289111069
-0.2866084278 -0.1226648614 0.5828635693 4289045791
-0.2866604030 -0.1220393926 0.5829693079 4288914205
-0.2871459126 -0.1215972602 0.5839565992 4288585240
-0.2876313031 -0.1211529002 0.5849437714 4288519447
-0.2876827121 -0.1205245182 0.5850482583 4288256275
-0.2877338529 -0.1198958009 0.5851523280 4288322068
-0.2877847552 -0.1192667484 0.5852558017 4288190482
-0.2878354192 -0.1186373681 0.5853587985 4288387861
-0.2883200347 -0.1181856394 0.5863443613 4288124950
-0.2883702517 -0.1175546423 0.5864465237 4288453915
-0.2884202302 -0.1169233173 0.5865481496 4288716836
-0.2889043987 -0.1164668053 0.5875327587 4288980008
-0.2889539301 -0.1158338711 0.5876334906 4288915246
-0.2894378006 -0.1153738499 0.5886175632 4288915246
-0.2899215817 -0.1149116009 0.5896013975 4288784440
-0.2904052436 -0.1144471243 0.5905849934 4289047612
-0.2908888161 -0.1139804125 0.5915684104 4289245000
-0.2913722694 -0.1135114804 0.5925515890 4289442379
-0.2918556035 -0.1130403131 0.5935344696 4289442640
-0.2923388183 -0.1125669256 0.5945172310 4289508433
-0.2932570279 -0.1122578606 0.5963845253 4289837163
-0.2937400639 -0.1117790565 0.5973668694 4290363507
-0.3004874587 -0.1567965597 0.6124721766 4287402113
-0.2992646694 -0.1554807872 0.6099798083 4286545741
-0.2980411053 -0.1541701257 0.6074858904 4285756225
-0.2972462773 -0.1530858278 0.6058658361 4285823763
-0.2960212231 -0.1517845094 0.6033688188 4286152728
-0.2952250838 -0.1507077068 0.6017460823 4286218511
-0.2939985096 -0.1494157612 0.5992460251 4286284304
-0.2932010889 -0.1483464986 0.5976206660 4286546958
-0.2924030423 -0.1472805291 0.5959940553 4286612751
-0.2916044295 -0.1462178826 0.5943661928 4287006984
-0.2908051908 -0.1451585591 0.5927371383 4287204363
-0.2904356122 -0.1443163455 0.5919839144 4287532303
-0.2900656462 -0.1434756070 0.5912297964 4287598096
-0.2896952629 -0.1426363438 0.5904748440 4287663121
-0.2893244624 -0.1417985559 0.5897190571 4287597328
-0.2889532149 -0.1409622282 0.5889623761 4287794704
-0.2885815799 -0.1401273906 0.5882048607 4288057876
-0.2882095277 -0.1392940432 0.5874465108 4288452108
-0.2878370583 -0.1384621710 0.5866873264 4288649487
-0.2874641716 -0.1376317888 0.5859273076 4288715282
-0.2875219584 -0.1370083243 0.5860450864 4288649489
-0.2867171764 -0.1359755248 0.5844047666 4288781075
-0.2867743075 -0.1353531629 0.5845211744 4288912661
-0.2868312001 -0.1347304434 0.5846371055 4288846866
-0.2864564359 -0.1339056790 0.5838732719 4288912659
-0.2865127623 -0.1332831532 0.5839880705 4288978452
-0.2861372530 -0.1324604750 0.5832226872 4289044245
-0.2861930132 -0.1318381578 0.5833363533 4289045015
-0.2862485051 -0.1312154680 0.5834494829 4289045015
-0.2863037884 -0.1305924356 0.5835621357 4288979222
-0.2859269083 -0.1297729909 0.5827939510 4289045015
-0.2859815955 -0.1291501671 0.5829054713 4289307415
-0.2860360742 -0.1285270005 0.5830164552 4289373208
-0.2860902846 -0.1279034615 0.5831269622 4289045276
-0.2861442566 -0.1272795796 0.5832369924 4289176862
-0.2861979902 -0.1266553402 0.5833464861 4289176860
-0.2862514853 -0.1260307431 0.5834555030 4289111067
-0.2863047123 -0.1254058033 0.5835640430 4289045274
-0.2863577306 -0.1247805133 0.5836720467 4288979481
-0.2864104807 -0.1241548806 0.5837795734 4289045276
-0.2868956923 -0.1237155050 0.5847685933 4289111069
-0.2869480550 -0.1230882332 0.5848752856 4289110814
-0.2870001197 -0.1224606261 0.5849814415 4288979228
-0.2870519757 -0.1218326688 0.5850871205 4288716826
-0.2871035635 -0.1212043762 0.5851923227 4288848412
-0.2875880301 -0.1207576171 0.5861797929 4288453654
-0.2876392007 -0.1201277003 0.5862841010 4288651033
-0.2876901329 -0.1194974482 0.5863878727 4288651033
-0.2877408266 -0.1188668609 0.5864911675 4288716826
-0.2877912521 -0.1182359457 0.5865939260 4288651033
-0.2882749140 -0.1177818179 0.5875797868 4288716826
-0.2883249223 -0.1171492860 0.5876817107 4288651558
-0.2888083160 -0.1166916415 0.5886669755 4288848937
-0.2888578773 -0.1160575077 0.5887680054 4288915254
-0.2893409729 -0.1155963540 0.5897527337 4288915254
-0.2898239791 -0.1151329726 0.5907372236 4288784448
-0.2903068662 -0.1146673560 0.5917214751 4288981827
-0.2907896638 -0.1141995117 0.5927055478 4289507920
-0.2912723422 -0.1137294397 0.5936893225 4289705299
-0.2917549014 -0.1132571325 0.5946729183 4289902940
-0.2922373414 -0.1127825975 0.5956562757 4290034526
-0.2931539714 -0.1124724597 0.5975246429 4290429056
-0.2991403043 -0.1557687968 0.6111097932 4287795822
-0.2979191542 -0.1544567049 0.6086151004 4285690446
-0.2975547016 -0.1535923630 0.6078705192 4285954348
-0.2963321209 -0.1522886902 0.6053729653 4285691176
-0.2951087654 -0.1509901434 0.6028738022 4286086155
-0.2943136394 -0.1499152929 0.6012494564 4286086155
-0.2935179174 -0.1488437504 0.5996238589 4286282757
-0.2927215695 -0.1477755159 0.5979970694 4286348550
-0.2919246554 -0.1467105895 0.5963690281 4286808336
-0.2911271155 -0.1456489861 0.5947397351 4287071508
-0.2907584906 -0.1448045820 0.5939866304 4287400467
-0.2903894186 -0.1439616680 0.5932326913 4287400467
-0.2895902693 -0.1429081708 0.5916001201 4287532554
-0.2892203033 -0.1420691162 0.5908442736 4287598347
-0.2888498902 -0.1412315518 0.5900875926 4287599109
-0.2884790599 -0.1403954476 0.5893300772 4288059660
-0.2885378599 -0.1397691369 0.5894501805 4288518671
-0.2881662846 -0.1389350742 0.5886911154 4288452878
-0.2873641551 -0.1378960758 0.5870524049 4288452624
-0.2874219418 -0.1372714192 0.5871704817 4288584210
-0.2870491445 -0.1364418268 0.5864089131 4288781589
-0.2866759300 -0.1356137395 0.5856465101 4288847382
-0.2867328525 -0.1349898428 0.5857627392 4288913175
-0.2863589227 -0.1341638267 0.5849988461 4288913175
-0.2864152491 -0.1335401088 0.5851139426 4289110038
-0.2860405743 -0.1327161640 0.5843484998 4289044245
-0.2860963643 -0.1320926696 0.5844624639 4289175572
-0.2861519158 -0.1314688176 0.5845759511 4289307158
-0.2862071991 -0.1308445930 0.5846889019 4289372697
-0.2858311534 -0.1300238818 0.5839206576 4289372697
-0.2858858705 -0.1293998808 0.5840324759 4289373210
-0.2859403789 -0.1287755221 0.5841438174 4289439003
-0.2859946191 -0.1281508058 0.5842546225 4289307415
-0.2860486209 -0.1275257319 0.5843649507 4289307415
-0.2861023843 -0.1269003004 0.5844747424 4289242140
-0.2861558795 -0.1262745261 0.5845840573 4289176347
-0.2862091660 -0.1256483942 0.5846928954 4289110556
-0.2862621844 -0.1250219196 0.5848012567 4289176349
-0.2867467999 -0.1245827153 0.5857912898 4289242142
-0.2867994308 -0.1239546016 0.5858987570 4289110556
-0.2868517935 -0.1233261377 0.5860057473 4289044763
-0.2869039178 -0.1226973310 0.5861122012 4289110556
-0.2869557738 -0.1220681816 0.5862181783 4289045021
-0.2870073915 -0.1214386970 0.5863236189 4289045021
-0.2870587707 -0.1208088696 0.5864285827 4288980000
-0.2875422835 -0.1203596964 0.5874163508 4288914207
-0.2875932455 -0.1197282448 0.5875204206 4288979232
-0.2876439393 -0.1190964654 0.5876240134 4289045025
-0.2876943946 -0.1184643432 0.5877270699 4288651284
-0.2881773114 -0.1180090904 0.5887135863 4288585491
-0.2882273197 -0.1173753589 0.5888158083 4288388903
-0.2887099385 -0.1169165820 0.5898017287 4288783661
-0.2887595296 -0.1162812412 0.5899030566 4288718143
-0.2892418802 -0.1158189550 0.5908883810 4288981315
-0.2897241116 -0.1153544411 0.5918735266 4289047367
-0.2906393707 -0.1150591597 0.5937433243 4288981574
-0.2911214530 -0.1145892292 0.5947281718 4289310539
-0.2916034460 -0.1141170561 0.5957127810 4289902676
-0.2920852900 -0.1136426553 0.5966972113 4290099818
-0.2925670445 -0.1131660268 0.5976813436 4290231404
-0.2977949083 -0.1547434032 0.6097447872 4286743912
-0.2970033288 -0.1536563933 0.6081239581 4285822772
-0.2966391742 -0.1527931541 0.6073783636 4285625393
-0.2954182923 -0.1514922529 0.6048786044 4285691918
-0.2946248949 -0.1504151225 0.6032540798 4285428746
-0.2934025526 -0.1491236091 0.6007512808 4285888515
-0.2930362523 -0.1482707858 0.6000012755 4286020101
-0.2922410369 -0.1472035944 0.5983730555 4286413580
-0.2914452255 -0.1461397111 0.5967435837 4286610959
-0.2910774648 -0.1452931166 0.5959905982 4286939661
-0.2902805507 -0.1442349553 0.5943588614 4287005454
-0.2899118960 -0.1433922350 0.5936040282 4287071751
-0.2895428240 -0.1425510049 0.5928483605 4287203337
-0.2891733348 -0.1417112350 0.5920917988 4287401732
-0.2888034284 -0.1408729404 0.5913344026 4287796490
-0.2884331048 -0.1400361359 0.5905761719 4288124426
-0.2880623639 -0.1392008066 0.5898171067 4288190219
-0.2876912355 -0.1383669823 0.5890571475 4288386831
-0.2873196602 -0.1375346333 0.5882963538 4288584210
-0.2869476974 -0.1367037892 0.5875347853 4288781589
-0.2870049775 -0.1360781491 0.5876520276 4288847382
-0.2866322696 -0.1352493614 0.5868889093 4288913175
-0.2866889536 -0.1346239150 0.5870049596 4288913175
-0.2863155305 -0.1337971985 0.5862403512 4289045015
-0.2859416604 -0.1329719871 0.5854748487 4288979222
-0.2859974802 -0.1323473006 0.5855891109 4289175831
-0.2860530317 -0.1317222565 0.5857028961 4289241624
-0.2861083746 -0.1310968548 0.5858162045 4289241624
-0.2857331336 -0.1302748919 0.5850479007 4289241624
-0.2857878804 -0.1296496987 0.5851600170 4289307417
-0.2858424187 -0.1290241480 0.5852716565 4289307417
-0.2858966887 -0.1283982545 0.5853827596 4289241622
-0.2859507203 -0.1277719885 0.5854933858 4289241622
-0.2860044837 -0.1271453798 0.5856035352 4289110808
-0.2864888608 -0.1267089546 0.5865952373 4289045015
-0.2865422368 -0.1260806918 0.5867045522 4289110554
-0.2865953445 -0.1254520714 0.5868133307 4289176347
-0.2866482437 -0.1248231083 0.5869216323 4289176347
-0.2867008746 -0.1241938025 0.5870293975 4289110554
-0.2867532670 -0.1235641465 0.5871366858 4289176347
-0.2868054211 -0.1229341477 0.5872434378 4289110554
-0.2868573070 -0.1223037988 0.5873497128 4289045276
-0.2869089544 -0.1216731146 0.5874554515 4289045276
-0.2869603634 -0.1210420951 0.5875607133 4289045021
-0.2870115042 -0.1204107329 0.5876654387 4288979228
-0.2874940932 -0.1199591532 0.5886535048 4288979228
-0.2875448167 -0.1193261668 0.5887573957 4288979228
-0.2875953019 -0.1186928451 0.5888607502 4288519962
-0.2880774140 -0.1182364598 0.5898479223 4288717341
-0.2881274819 -0.1176015288 0.5899503827 4288586030
-0.2886093259 -0.1171416193 0.5909369588 4289046581
-0.2890910506 -0.1166794822 0.5919233561 4288850242
-0.2891404927 -0.1160416529 0.5920245647 4289113414
-0.2900542319 -0.1157485023 0.5938954949 4289245257
-0.2905356586 -0.1152796671 0.5948811769 4289442636
-0.2910169661 -0.1148085892 0.5958666801 4289837145
-0.2914981544 -0.1143352836 0.5968519449 4290297696
-0.2924118042 -0.1140284240 0.5987226963 4290165625
-0.2928928435 -0.1135496870 0.5997076631 4290691969
-0.2968783975 -0.1539418548 0.6092537045 4287138905
-0.2965150774 -0.1530773640 0.6085081100 4285230908
-0.2952966392 -0.1517750174 0.6060076356 4285625884
-0.2949322760 -0.1509152651 0.6052598953 4285296919
-0.2941399813 -0.1498391628 0.6036339402 4285362435
-0.2933470607 -0.1487663686 0.6020066738 4285888779
-0.2925535440 -0.1476968825 0.6003782749 4286085130
-0.2917594314 -0.1466307193 0.5987485647 4286216716
-0.2909647226 -0.1455678791 0.5971176624 4286479373
-0.2901694179 -0.1445083767 0.5954855680 4286610959
-0.2906577289 -0.1440888047 0.5964876413 4286611462
-0.2898615003 -0.1430331618 0.5948536396 4286874634
-0.2894929051 -0.1421912014 0.5940971971 4287269893
-0.2886956036 -0.1411413103 0.5924609303 4287401479
-0.2883260846 -0.1403032541 0.5917026997 4287795207
-0.2879561782 -0.1394666731 0.5909435749 4287926793
-0.2875858545 -0.1386315674 0.5901835561 4288321038
-0.2872151434 -0.1377979666 0.5894227624 4288518417
-0.2868439853 -0.1369658560 0.5886610746 4288715796
-0.2869012654 -0.1363390386 0.5887786746 4288847382
-0.2865293920 -0.1355089843 0.5880154967 4288847382
-0.2865861356 -0.1348823607 0.5881319046 4288847382
-0.2862135172 -0.1340543777 0.5873672366 4289044761
-0.2862696648 -0.1334279478 0.5874824524 4289044761
-0.2858963013 -0.1326020509 0.5867162943 4289044761
-0.2859519124 -0.1319758296 0.5868303776 4289110554
-0.2860072553 -0.1313492358 0.5869439840 4289110808
-0.2856328487 -0.1305260062 0.5861756206 4289110808
-0.2856876254 -0.1298996359 0.5862880349 4289176601
-0.2857421935 -0.1292728931 0.5863999724 4289176601
-0.2857964933 -0.1286458075 0.5865114331 4289110806
-0.2858505249 -0.1280183643 0.5866223574 4289176599
-0.2863342762 -0.1275821179 0.5876150727 4289110806
-0.2863879204 -0.1269530207 0.5877251625 4289110806
-0.2864413261 -0.1263235658 0.5878347754 4289176601
-0.2864944935 -0.1256937683 0.5879438519 4289110808
-0.2865473926 -0.1250636131 0.5880524516 4289110808
-0.2866000831 -0.1244331077 0.5881605148 4289176601
-0.2862220705 -0.1236163676 0.5873848200 4289176347
-0.2862741649 -0.1229861230 0.5874916911 4289110554
-0.2863260210 -0.1223555282 0.5875980854 4289045276
-0.2868082523 -0.1219076440 0.5885877609 4289045276
-0.2868596911 -0.1212754175 0.5886933208 4288979483
-0.2869108617 -0.1206428558 0.5887983441 4289045276
-0.2869617939 -0.1200099587 0.5889028311 4289111069
-0.2874433994 -0.1195559651 0.5898911953 4288979483
-0.2874939144 -0.1189214438 0.5899948478 4288651047
-0.2879752517 -0.1184639335 0.5909826756 4288914219
-0.2880253494 -0.1178277954 0.5910854340 4288717878
-0.2885064185 -0.1173667610 0.5920727253 4289112636
-0.2889873683 -0.1169034913 0.5930597782 4289047880
-0.2894682288 -0.1164379865 0.5940465927 4289376845
-0.2899489999 -0.1159702390 0.5950331688 4289640536
-0.2904296219 -0.1155002639 0.5960195661 4290035294
-0.2913417816 -0.1151987165 0.5978914499 4290231667
-0.2918222845 -0.1147233099 0.5988775492 4290626425
-0.2959622741 -0.1531410217 0.6087611914 4286349403
-0.2951726913 -0.1520579010 0.6071371436 4285428012
-0.2948091626 -0.1511968821 0.6063893437 4284967461
-0.2944452167 -0.1503373086 0.6056407690 4285230862
-0.2936539948 -0.1492622495 0.6040133238 4285296655
-0.2928622067 -0.1481904835 0.6023846865 4285625094
-0.2920697927 -0.1471220404 0.6007547975 4285822473
-0.2917038798 -0.1462710798 0.6000021696 4286084617
-0.2909103930 -0.1452083588 0.5983700156 4286281996
-0.2905435562 -0.1443612576 0.5976154804 4286348039
-0.2901763022 -0.1435156316 0.5968601108 4286545418
-0.2893811762 -0.1424610466 0.5952246189 4286875143
-0.2890130281 -0.1416192949 0.5944673419 4286940936
-0.2886444330 -0.1407790333 0.5937092304 4287268865
-0.2882754505 -0.1399402618 0.5929502249 4287597830
-0.2879060209 -0.1391029656 0.5921903849 4288057866
-0.2875362039 -0.1382671595 0.5914297104 4288321038
-0.2871659696 -0.1374328583 0.5906682014 4288518417
-0.2867953181 -0.1366000473 0.5899057984 4288650003
-0.2868524194 -0.1359716654 0.5900232196 4288715796
-0.2864810228 -0.1351409256 0.5892593265 4288715796
-0.2861092389 -0.1343116760 0.5884945989 4288782102
-0.2861654162 -0.1336840689 0.5886101723 4288847895
-0.2857928872 -0.1328569055 0.5878438950 4288913688
-0.2858484983 -0.1322294921 0.5879583359 4288913688
-0.2859039009 -0.1316017210 0.5880722404 4289045015
-0.2859590352 -0.1309735775 0.5881856680 4289110808
-0.2855851054 -0.1301496625 0.5874165297 4289176601
-0.2860685885 -0.1297162324 0.5884109735 4289176601
-0.2861229777 -0.1290870011 0.5885229111 4289176601
-0.2861771584 -0.1284574270 0.5886343122 4289242394
-0.2862310708 -0.1278274953 0.5887451768 4289111321
-0.2862847447 -0.1271972060 0.5888556242 4289111321
-0.2863381803 -0.1265665591 0.5889654756 4289111321
-0.2863913476 -0.1259355545 0.5890749097 4289045528
-0.2864443064 -0.1253042072 0.5891837478 4289045528
-0.2864969969 -0.1246725172 0.5892921686 4289111321
-0.2861198187 -0.1238545030 0.5885163546 4289111069
-0.2861719429 -0.1232230663 0.5886235833 4289111069
-0.2862237990 -0.1225912794 0.5887302756 4289045021
-0.2867052555 -0.1221422702 0.5897205472 4288979228
-0.2867567241 -0.1215088516 0.5898264050 4288979228
-0.2868079245 -0.1208750904 0.5899317265 4289110814
-0.2868588865 -0.1202409863 0.5900365114 4289176862
-0.2873397171 -0.1197858751 0.5910255909 4289176862
-0.2873902619 -0.1191501468 0.5911294818 4288847919
-0.2878708243 -0.1186915040 0.5921179652 4289111091
-0.2883512974 -0.1182306260 0.5931062698 4288915256
-0.2884012163 -0.1175919995 0.5932089686 4289375807
-0.2888814211 -0.1171275973 0.5941966772 4289376845
-0.2893615067 -0.1166609526 0.5951841474 4289771603
-0.2902721465 -0.1163647249 0.5970572233 4290100592
-0.2907520831 -0.1158926487 0.5980443954 4290626936
-0.2954087555 -0.1532046199 0.6090139747 4287599732
-0.2950464785 -0.1523409039 0.6082670689 4285822784
-0.2946837544 -0.1514786184 0.6075193286 4284770096
-0.2943206131 -0.1506177932 0.6067706943 4285361947
-0.2939570546 -0.1497584134 0.6060211658 4285296154
-0.2931669652 -0.1486843675 0.6043923497 4285361670
-0.2923762798 -0.1476136446 0.6027622223 4285559049
-0.2915849984 -0.1465462446 0.6011309028 4285690117
-0.2912195027 -0.1456954926 0.6003773808 4285821703
-0.2908535898 -0.1448462009 0.5996230245 4286085126
-0.2904872298 -0.1439983845 0.5988677740 4286216712
-0.2901204824 -0.1431520283 0.5981116891 4286414342
-0.2893265784 -0.1420975775 0.5964750051 4286414342
-0.2889589071 -0.1412551105 0.5957170129 4286742272
-0.2885908186 -0.1404141337 0.5949581265 4287071233
-0.2882223427 -0.1395746469 0.5941984653 4287531525
-0.2878534198 -0.1387366503 0.5934379101 4287860490
-0.2874840796 -0.1379001439 0.5926765203 4287992075
-0.2871143520 -0.1370651275 0.5919142365 4288189454
-0.2867442071 -0.1362316161 0.5911511779 4288386831
-0.2868010700 -0.1356016845 0.5912684202 4288452624
-0.2864301801 -0.1347702295 0.5905038118 4288584212
-0.2860589027 -0.1339402944 0.5897383094 4288650005
-0.2856872082 -0.1331118643 0.5889720321 4288650516
-0.2857428491 -0.1324832737 0.5890867710 4288716309
-0.2857982516 -0.1318543255 0.5892009735 4288913429
-0.2858534157 -0.1312250048 0.5893146992 4289045015
-0.2859083414 -0.1305953115 0.5894279480 4289241622
-0.2859629989 -0.1299652606 0.5895406604 4289241622
-0.2860174477 -0.1293348521 0.5896528959 4289111067
-0.2860716283 -0.1287040859 0.5897645950 4289045274
-0.2861255705 -0.1280729622 0.5898758173 4289045528
-0.2861792743 -0.1274414808 0.5899865031 4289111321
-0.2862327397 -0.1268096566 0.5900967121 4289045528
-0.2858573794 -0.1259885728 0.5893228650 4288979735
-0.2859102488 -0.1253569871 0.5894318819 4289045274
-0.2859628797 -0.1247250363 0.5895404220 4289045274
-0.2860152721 -0.1240927503 0.5896484256 4289176862
-0.2860674262 -0.1234601066 0.5897558928 4289111069
-0.2861193120 -0.1228271276 0.5898628831 4289045021
-0.2865999937 -0.1223770007 0.5908538699 4288913435
-0.2866514921 -0.1217423752 0.5909600258 4288979228
-0.2867027223 -0.1211074218 0.5910655856 4289110814
-0.2867536843 -0.1204721183 0.5911706686 4289308448
-0.2872337699 -0.1200158745 0.5921604037 4289440034
-0.2872843146 -0.1193789467 0.5922646523 4288980018
-0.2877641022 -0.1189191788 0.5932537913 4289177397
-0.2882438004 -0.1184571683 0.5942426920 4289047862
-0.2887233794 -0.1179929152 0.5952314734 4289508413
-0.2892028689 -0.1175264269 0.5962199569 4289311568
-0.2896822691 -0.1170576960 0.5972082615 4289837912
-0.2905913889 -0.1167594492 0.5990825295 4290494598
-0.2945339978 -0.1564825326 0.6086040735 4287598980
-0.2945985794 -0.1558404863 0.6087375879 4287072636
-0.2946629226 -0.1551980376 0.6088705659 4286548075
-0.2947270274 -0.1545551568 0.6090030074 4286416489
-0.2947909236 -0.1539118588 0.6091350317 4286415971
-0.2948545516 -0.1532681435 0.6092665195 4286481764
-0.2944929898 -0.1524040997 0.6085193753 4286020171
-0.2941310108 -0.1515414864 0.6077714562 4284835897
-0.2937686145 -0.1506803334 0.6070225835 4284901407
-0.2938310206 -0.1500377506 0.6071515679 4285032993
-0.2934678793 -0.1491785645 0.6064011455 4285164302
-0.2926788926 -0.1481055617 0.6047708988 4285295888
-0.2918893099 -0.1470358670 0.6031393409 4285361672
-0.2910991609 -0.1459695101 0.6015065908 4285493258
-0.2911597192 -0.1453314424 0.6016317606 4285756680
-0.2907943130 -0.1444814205 0.6008766890 4285822473
-0.2904284596 -0.1436328739 0.6001207232 4285888517
-0.2900622189 -0.1427858025 0.5993639231 4285954310
-0.2892695069 -0.1417314857 0.5977259874 4286413056
-0.2889023423 -0.1408883035 0.5969672799 4286742016
-0.2885347605 -0.1400466114 0.5962077379 4287137028
-0.2881667614 -0.1392064095 0.5954473019 4287400200
-0.2877983451 -0.1383676976 0.5946860313 4287662857
-0.2874295115 -0.1375304908 0.5939239264 4287860236
-0.2870602906 -0.1366947740 0.5931609869 4288057869
-0.2866906226 -0.1358605474 0.5923971534 4288255248
-0.2863205671 -0.1350278407 0.5916324854 4288452626
-0.2863768935 -0.1343969256 0.5917488933 4288518419
