VERSION 0.7
FIELDS x y z rgba
SIZE 4 4 4 4
TYPE F F F U
COUNT 1 1 1 1
WIDTH 920
HEIGHT 1
VIEWPOINT 0.0 0.0 0.0 1.0 0.0 0.0 0.0
POINTS 920
DATA ascii
-0.2955682576 -0.1354640126 0.5582157969 4287335685
-0.2947123945 -0.1344533265 0.5565994382 4287467014
-0.2943136394 -0.1336538196 0.5558463335 4287598600
-0.2934566736 -0.1326488554 0.5542278290 4287794956
-0.2935148776 -0.1320592761 0.5543377399 4287860749
-0.2931148708 -0.1312642246 0.5535823107 4287729414
-0.2927717865 -0.1298818886 0.5529343486 4287532035
-0.2923706174 -0.1290904135 0.5521766543 4287532035
-0.2924273908 -0.1285018474 0.5522838831 4287532803
-0.2924839258 -0.1279129386 0.5523906350 4287861768
-0.2925402224 -0.1273236871 0.5524969697 4288125191
-0.2921376526 -0.1265354604 0.5517367125 4288256777
-0.2921933830 -0.1259464622 0.5518419147 4288323333
-0.2917900681 -0.1251603365 0.5510802269 4288652298
-0.2913863659 -0.1243757308 0.5503177643 4289047055
-0.2914412022 -0.1237875745 0.5504213572 4289178641
-0.2914958000 -0.1231990978 0.5505244732 4289310230
-0.2915501595 -0.1226102859 0.5506271124 4290033953
-0.2916042805 -0.1220211387 0.5507293344 4290494252
-0.2911988497 -0.1212404445 0.5499636531 4290165287
-0.2912523746 -0.1206515729 0.5500647426 4290756662
-0.2913056910 -0.1200623885 0.5501654148 4290888248
-0.2913587689 -0.1194728762 0.5502656698 4291216697
-0.2914115787 -0.1188830361 0.5503654480 4291150904
-0.2910044491 -0.1181063056 0.5495964885 4291414076
-0.2910566926 -0.1175167635 0.5496951938 4291874627
-0.2911087275 -0.1169269010 0.5497934222 4291940166
-0.2911604941 -0.1163367257 0.5498911738 4291808580
-0.2912120223 -0.1157462373 0.5499885082 4291742789
-0.2912633121 -0.1151554361 0.5500853658 4291874375
-0.2913143337 -0.1145643219 0.5501817465 4291939913
-0.2913651168 -0.1139729023 0.5502777100 4292005706
-0.2918760478 -0.1135602891 0.5512426496 4292071242
-0.2923868895 -0.1131455004 0.5522074103 4292268621
-0.2924371064 -0.1125512794 0.5523022413 4292465999
-0.2924870551 -0.1119567603 0.5523965955 4292597585
-0.2925367951 -0.1113619357 0.5524904728 4292532050
-0.2930470109 -0.1109412462 0.5534541607 4292663636
-0.2930963337 -0.1103448793 0.5535472631 4292992343
-0.2936062813 -0.1099207699 0.5545104146 4292794964
-0.2936551571 -0.1093228608 0.5546026826 4292400206
-0.2941648662 -0.1088953465 0.5555653572 4292202827
-0.2937521636 -0.1081261635 0.5547859073 4291939653
-0.2942615151 -0.1076961756 0.5557478666 4292005446
-0.2947707772 -0.1072640046 0.5567096472 4292072004
-0.2952799201 -0.1068296656 0.5576712489 4291808832
-0.2953275144 -0.1062271744 0.5577611327 4291677246
-0.2953748405 -0.1056243852 0.5578504801 4291874625
-0.2958835363 -0.1051854119 0.5588111877 4292005698
-0.2959304154 -0.1045811027 0.5588998199 4291545147
-0.2978707254 -0.1040166989 0.5625642538 4291412785
-0.3585174382 -0.1744606793 0.6785261035 4288058465
-0.3581377864 -0.1735228300 0.6778076291 4287400535
-0.3582134247 -0.1728062183 0.6779506803 4288320826
-0.3582887352 -0.1720891595 0.6780932546 4287991861
-0.3579078615 -0.1711536050 0.6773724556 4287531550
-0.3570704758 -0.1700023115 0.6757876277 4287531550
-0.3562324345 -0.1688542366 0.6742015481 4287662861
-0.3549375236 -0.1674940735 0.6717507839 4287597068
-0.3513601720 -0.1650671065 0.6649803519 4287925513
-0.3441298306 -0.1609466821 0.6512962580 4287859720
-0.2953548133 -0.1375139356 0.5589852333 4287597828
-0.2958715260 -0.1371323615 0.5599631667 4287466242
-0.2959315479 -0.1365378797 0.5600767136 4287270144
-0.2950777411 -0.1355234683 0.5584608316 4287270144
-0.2946802080 -0.1347212344 0.5577085018 4287335426
-0.2938252985 -0.1337125301 0.5560904741 4287401219
-0.2934268415 -0.1329141855 0.5553363562 4287925515
-0.2930279672 -0.1321173310 0.5545814633 4287991308
-0.2930859029 -0.1315271556 0.5546911359 4287664391
-0.2926862836 -0.1307323575 0.5539348125 4287598598
-0.2922862470 -0.1299390495 0.5531777143 4287729416
-0.2923433185 -0.1293496788 0.5532856584 4287729416
-0.2919425368 -0.1285584569 0.5525271893 4287730184
-0.2919990122 -0.1279693097 0.5526340604 4287927563
-0.2915974855 -0.1271801740 0.5518741608 4288125192
-0.2916534245 -0.1265912652 0.5519800186 4288190985
-0.2917090952 -0.1260020286 0.5520853996 4288323335
-0.2913065255 -0.1252155751 0.5513234735 4288586507
-0.2913616300 -0.1246265993 0.5514277816 4288915470
-0.2905001044 -0.1236472279 0.5497972965 4289178642
-0.2905545831 -0.1230594292 0.5499003530 4289573148
-0.2906088233 -0.1224713027 0.5500029922 4289967906
-0.2906627953 -0.1218828559 0.5501051545 4289902373
-0.2907165587 -0.1212940738 0.5502068996 4289573408
-0.2907700539 -0.1207049638 0.5503081679 4290756662
-0.2908233404 -0.1201155335 0.5504089594 4291611971
-0.2908763587 -0.1195257828 0.5505093336 4292203592
-0.2909291387 -0.1189357042 0.5506092310 4291677248
-0.2905227244 -0.1181586385 0.5498400331 4291479867
-0.2905749381 -0.1175688580 0.5499388576 4291808832
-0.2906269133 -0.1169787571 0.5500372648 4291808580
-0.2906786501 -0.1163883358 0.5501351357 4292269131
-0.2907301188 -0.1157976091 0.5502325892 4292071499
-0.2907813787 -0.1152065620 0.5503295660 4292137292
-0.2908323705 -0.1146152020 0.5504261255 4292071499
-0.2904236019 -0.1138434038 0.5496524572 4292005706
-0.2913932502 -0.1136107594 0.5514876246 4292071242
-0.2914435863 -0.1130175367 0.5515828729 4292268621
-0.2914936841 -0.1124240085 0.5516777039 4292597585
-0.2920033932 -0.1120065674 0.5526423454 4292860757
-0.2920530736 -0.1114114895 0.5527363420 4293057369
-0.2921024859 -0.1108161137 0.5528299212 4292859990
-0.2926117480 -0.1103940159 0.5537937284 4292532303
-0.2926607728 -0.1097970977 0.5538865328 4292400717
-0.2931697667 -0.1093715802 0.5548498631 4292203338
-0.2932183743 -0.1087731272 0.5549417734 4292137545
-0.2932667136 -0.1081743762 0.5550332665 4291940418
-0.2933147848 -0.1075753346 0.5551242828 4291940418
-0.2938231528 -0.1071439311 0.5560864210 4291941439
-0.2938708365 -0.1065433547 0.5561766624 4291809853
-0.2943789065 -0.1061085463 0.5571382642 4291743809
-0.2944261432 -0.1055064499 0.5572276115 4291941188
-0.2949339449 -0.1050682366 0.5581886768 4291808582
-0.2945198417 -0.1043013930 0.5574049354 4291545410
-0.2954882681 -0.1040229946 0.5592377782 4291742010
-0.2964567244 -0.1037405431 0.5610706806 4291149873
-0.2969640791 -0.1032936275 0.5620309114 4290492770
-0.2979325354 -0.1030039936 0.5638638139 4292532353
-0.3565554619 -0.1738714278 0.6762343645 4287597112
-0.3561762273 -0.1729359478 0.6755151153 4287926077
-0.3562514782 -0.1722217798 0.6756578684 4288123688
-0.3563264608 -0.1715071648 0.6758000851 4287926309
-0.3559460044 -0.1705739796 0.6750784516 4287729181
-0.3551098108 -0.1694249660 0.6734925508 4287400216
-0.3533622026 -0.1678465605 0.6701781154 4287465227
-0.3520690203 -0.1664904058 0.6677255034 4287596813
-0.3480417132 -0.1638525128 0.6600873470 4287597318
-0.3030042946 -0.1420111209 0.5746705532 4287268353
-0.2980531752 -0.1390625834 0.5652803779 4287335426
-0.2962906063 -0.1376158595 0.5619375110 4287335426
-0.2945270538 -0.1361761242 0.5585927963 4287269892
-0.2941305637 -0.1353729963 0.5578408241 4287335685
-0.2937336564 -0.1345713586 0.5570880175 4287400966
-0.2933363318 -0.1337711960 0.5563344955 4287400966
-0.2924822867 -0.1327654123 0.5547147393 4287859209
-0.2920840383 -0.1319691390 0.5539594293 4287990795
-0.2916853726 -0.1311743706 0.5532033443 4287730184
-0.2921994030 -0.1307898015 0.5541782379 4287664391
-0.2918000817 -0.1299961805 0.5534209013 4287861002
-0.2914003432 -0.1292040497 0.5526627898 4287926795
-0.2914570272 -0.1286150068 0.5527702570 4287927563
-0.2905996442 -0.1276243031 0.5511441827 4288059149
-0.2911126614 -0.1272361726 0.5521171689 4288125705
-0.2907114625 -0.1264482141 0.5513562560 4288257291
-0.2907670140 -0.1258596629 0.5514615774 4288191749
-0.2908223271 -0.1252707839 0.5515664816 4288454921
-0.2904200554 -0.1244855151 0.5508035421 4288586507
-0.2900173664 -0.1237017736 0.5500398278 4289047058
-0.2900717854 -0.1231137365 0.5501430631 4289770529
-0.2901259661 -0.1225253716 0.5502458215 4289902115
-0.2901799083 -0.1219366789 0.5503481030 4289704996
-0.2897758484 -0.1211562604 0.5495817661 4289770789
-0.2898292243 -0.1205678433 0.5496830344 4291216192
-0.2898823619 -0.1199790984 0.5497838259 4292334673
-0.2899352610 -0.1193900332 0.5498841405 4292203855
-0.2899879217 -0.1188006476 0.5499839783 4291414339
-0.2900403440 -0.1182109416 0.5500833988 4291414339
-0.2900925279 -0.1176209152 0.5501824021 4291677511
-0.2901444435 -0.1170305684 0.5502808690 4291874120
-0.2901961505 -0.1164399087 0.5503789186 4292071499
-0.2897890806 -0.1156659201 0.5496068597 4292005706
-0.2898401916 -0.1150755584 0.5497038364 4291939913
-0.2898910642 -0.1144848913 0.5498002768 4292005449
-0.2904004753 -0.1140741259 0.5507664084 4291873863
-0.2909097970 -0.1136611849 0.5517323613 4291873862
-0.2909601033 -0.1130677164 0.5518277884 4292005448
-0.2910101414 -0.1124739423 0.5519227386 4292334413
-0.2910599709 -0.1118798628 0.5520172119 4292465999
-0.2915686965 -0.1114610136 0.5529820323 4292596046
-0.2920773327 -0.1110399812 0.5539467335 4292530253
-0.2921265662 -0.1104431152 0.5540400743 4292071493
-0.2921755314 -0.1098459512 0.5541329384 4292137286
-0.2926837206 -0.1094202623 0.5550968051 4291940936
-0.2922727168 -0.1086507216 0.5543172956 4291875143
-0.2927805781 -0.1082225516 0.5552805066 4291875141
-0.2928286195 -0.1076232567 0.5553715825 4291875141
-0.2933362126 -0.1071916819 0.5563342571 4291809851
-0.2933838367 -0.1065908521 0.5564245582 4292007230
-0.2934311926 -0.1059897393 0.5565144420 4292072772
-0.2934783101 -0.1053883284 0.5566037893 4291809600
-0.2944453359 -0.1051151231 0.5584377646 4291611203
-0.2935718000 -0.1041846499 0.5567810535 4291742789
-0.2949987948 -0.1040694490 0.5594875216 4292004928
-0.2955054045 -0.1036254689 0.5604482889 4291346998
-0.2960118949 -0.1031793132 0.5614089370 4290689345
-0.2969787121 -0.1028905138 0.5632425547 4291610447
-0.3549756408 -0.1742160320 0.6746592522 4287137402
-0.3550513089 -0.1735033989 0.6748030186 4287859494
-0.3546725512 -0.1725693792 0.6740832329 4287727908
-0.3542933464 -0.1716367155 0.6733624935 4287466007
-0.3539136648 -0.1707054228 0.6726409197 4287466007
-0.3535335064 -0.1697755158 0.6719183922 4287531800
-0.3526983857 -0.1686296761 0.6703311801 4287400214
-0.3509534001 -0.1670542806 0.6670146585 4287531535
-0.3487526774 -0.1652702838 0.6628320217 4287334156
-0.3442767859 -0.1624221951 0.6543252468 4286939648
-0.2993140221 -0.1405777037 0.5688699484 4287268610
-0.2966454625 -0.1386979520 0.5637981296 4287401221
-0.2962509096 -0.1378878802 0.5630482435 4287401221
-0.2931249440 -0.1358139366 0.5571070910 4287204361
-0.2922737300 -0.1348023564 0.5554893017 4287204361
-0.2918772697 -0.1340031475 0.5547357798 4287400716
-0.2919358313 -0.1334135532 0.5548471212 4287400716
-0.2915385962 -0.1326164007 0.5540921688 4287793418
-0.2911986411 -0.1312319189 0.5534460545 4287532803
-0.2912560701 -0.1306427568 0.5535551906 4287467010
-0.2908574045 -0.1298497319 0.5527974367 4287663621
-0.2909142673 -0.1292608082 0.5529055595 4287795207
-0.2909708917 -0.1286715269 0.5530132055 4287861770
-0.2905711234 -0.1278811544 0.5522534251 4287993356
-0.2901709676 -0.1270922869 0.5514928699 4288125705
-0.2902266979 -0.1265038401 0.5515987873 4288323084
-0.2902822196 -0.1259150505 0.5517042875 4288125956
-0.2903375030 -0.1253259331 0.5518093705 4288389128
-0.2899359465 -0.1245403439 0.5510461330 4288783886
-0.2895339727 -0.1237562746 0.5502821803 4288915472
-0.2895883322 -0.1231680065 0.5503855348 4289178393
-0.2896424830 -0.1225794032 0.5504884124 4290033702
-0.2896963954 -0.1219904646 0.5505908728 4290231340
-0.2892930508 -0.1212097257 0.5498242974 4289573410
-0.2893463671 -0.1206210628 0.5499256849 4290229562
-0.2893994749 -0.1200320795 0.5500265956 4291545422
-0.2894523442 -0.1194427758 0.5501270294 4291019591
-0.2895049453 -0.1188531443 0.5502270460 4290493247
-0.2895573378 -0.1182631999 0.5503265858 4290953798
-0.2896094620 -0.1176729277 0.5504257083 4291414349
-0.2896613777 -0.1170823425 0.5505242944 4291940434
-0.2897130251 -0.1164914370 0.5506224632 4292006227
-0.2897644341 -0.1159002185 0.5507201552 4292137296
-0.2893577516 -0.1151265278 0.5499472618 4291874124
-0.2898665071 -0.1147168428 0.5509142280 4291808327
-0.2899171710 -0.1141246855 0.5510104895 4291742534
-0.2899676263 -0.1135322154 0.5511063337 4291742534
-0.2904759645 -0.1131178588 0.5520725250 4291874120
-0.2905259728 -0.1125238389 0.5521675944 4291940685
-0.2905757427 -0.1119295135 0.5522621870 4291874892
-0.2906252742 -0.1113348901 0.5523563027 4292332103
-0.2906745672 -0.1107399538 0.5524499416 4292463689
-0.2911821306 -0.1103184447 0.5534146428 4291939907
-0.2916896343 -0.1098947600 0.5543792248 4292071493
-0.2917383313 -0.1092970520 0.5544717312 4291874890
-0.2922455370 -0.1088699475 0.5554357767 4291611718
-0.2922938168 -0.1082706973 0.5555275083 4291612230
-0.2923418283 -0.1076711491 0.5556187630 4291809609
-0.2923896015 -0.1070713103 0.5557095408 4292007232
-0.2924371064 -0.1064711735 0.5557998419 4291809853
-0.2929435074 -0.1060369462 0.5567622781 4291941186
-0.2934498191 -0.1056005433 0.5577245951 4291809600
-0.2934967279 -0.1049976498 0.5578137040 4291742789
-0.2940027714 -0.1045578420 0.5587754846 4291808582
-0.2945086658 -0.1041158587 0.5597370267 4291808319
-0.2950145006 -0.1036716998 0.5606983304 4291676733
-0.2955201864 -0.1032253578 0.5616594553 4291347251
-0.2964854240 -0.1029364392 0.5634939671 4290952493
-0.2965312302 -0.1023261622 0.5635810494 4291285360
-0.3529452085 -0.1743328422 0.6722192764 4288847480
-0.3530208170 -0.1736231297 0.6723632216 4287136862
-0.3526428640 -0.1726910025 0.6716433764 4287596071
-0.3527177870 -0.1719813049 0.6717861295 4287464485
-0.3523389995 -0.1710510105 0.6710646749 4287268361
-0.3519597352 -0.1701220870 0.6703423262 4287531533
-0.3515799940 -0.1691945344 0.6696190834 4287663119
-0.3507460654 -0.1680509895 0.6680307388 4287663119
-0.3485499322 -0.1662611812 0.6638479829 4287465739
-0.3449907601 -0.1638333797 0.6570692658 4287334153
-0.3005672395 -0.1421009451 0.5724601746 4287399946
-0.2974502444 -0.1399978697 0.5665235519 4287202567
-0.2938774824 -0.1376944333 0.5597189069 4287334407
-0.2930288613 -0.1366767287 0.5581026077 4287400200
-0.2926340401 -0.1358733177 0.5573506355 4287465993
-0.2922388017 -0.1350713819 0.5565978885 4287531786
-0.2918431461 -0.1342709213 0.5558443069 4287597577
-0.2914470732 -0.1334719509 0.5550899506 4287597577
-0.2910505831 -0.1326744705 0.5543347597 4287531784
-0.2906536758 -0.1318784654 0.5535787940 4287663370
-0.2907112837 -0.1312894225 0.5536885858 4287466509
-0.2907686830 -0.1307000369 0.5537978411 4287532302
-0.2903707027 -0.1299066842 0.5530399084 4287598345
-0.2904275358 -0.1293175071 0.5531480908 4287729931
-0.2904841006 -0.1287280023 0.5532559156 4287862022
-0.2900850773 -0.1279373020 0.5524958968 4287993608
-0.2901411057 -0.1273480356 0.5526025891 4288125956
-0.2897413373 -0.1265594363 0.5518411398 4288323335
-0.2897967994 -0.1259704083 0.5519468188 4287994368
-0.2898520231 -0.1253810376 0.5520520210 4288389126
-0.2899070084 -0.1247913390 0.5521567464 4288652300
-0.2895058393 -0.1240060255 0.5513926744 4289244437
-0.2891042531 -0.1232222244 0.5506278276 4289770787
-0.2891583741 -0.1226333827 0.5507308841 4289507615
-0.2892122269 -0.1220442131 0.5508334637 4289507617
-0.2892658412 -0.1214547083 0.5509355664 4289639203
-0.2888628840 -0.1206742451 0.5501680970 4289705265
-0.2889159620 -0.1200850233 0.5502691865 4290626367
-0.2889687717 -0.1194954738 0.5503697395 4290755916
-0.2890213430 -0.1189056039 0.5504699349 4290755916
-0.2890736759 -0.1183154136 0.5505695939 4292267876
-0.2886690199 -0.1175389215 0.5497988462 4292333669
-0.2887207866 -0.1169490293 0.5498974919 4291610198
-0.2887723148 -0.1163588166 0.5499956012 4291807577
-0.2888236046 -0.1157682911 0.5500932932 4291873619
-0.2888746560 -0.1151774451 0.5501905084 4291873619
-0.2893826067 -0.1147676036 0.5511579514 4291479362
-0.2894332409 -0.1141752005 0.5512543917 4291808327
-0.2894836366 -0.1135824844 0.5513503551 4291874627
-0.2895337939 -0.1129894704 0.5514459014 4291611455
-0.2895836830 -0.1123961359 0.5515409112 4291808327
-0.2900908887 -0.1119791269 0.5525069833 4291939913
-0.2901403904 -0.1113842502 0.5526012182 4291873609
-0.2901896238 -0.1107890680 0.5526949763 4291873609
-0.2906964123 -0.1103673950 0.5536602139 4291939653
-0.2907452285 -0.1097706705 0.5537531972 4291873860
-0.2912517488 -0.1093455777 0.5547178984 4291808319
-0.2913001478 -0.1087473109 0.5548101068 4291874112
-0.2913483083 -0.1081487536 0.5549018383 4292071491
-0.2913962007 -0.1075498983 0.5549930334 4292203077
-0.2914438546 -0.1069507450 0.5550838113 4292203077
-0.2914912403 -0.1063513011 0.5551740527 4292334663
-0.2919967771 -0.1059178412 0.5561369061 4292400456
-0.2925022244 -0.1054822057 0.5570995808 4292137284
-0.2925490141 -0.1048800051 0.5571886897 4291874114
-0.2930541635 -0.1044409573 0.5581508279 4291808321
-0.2935592234 -0.1039997339 0.5591127276 4291873860
-0.2940641642 -0.1035563350 0.5600744486 4291873860
-0.2950277925 -0.1032713726 0.5619097948 4291674941
-0.2950736880 -0.1026630104 0.5619971752 4291411769
-0.2960372567 -0.1023717970 0.5638324022 4290888759
-0.2960827649 -0.1017609835 0.5639190674 4292730963
-0.3509945273 -0.1737368405 0.6699211597 4287597917
-0.3506173790 -0.1728066206 0.6692012548 4286939987
-0.3506922424 -0.1720998287 0.6693441868 4287530531
-0.3503142297 -0.1711714417 0.6686226726 4287398945
-0.3503884375 -0.1704646647 0.6687643528 4287531535
-0.3500095904 -0.1695381105 0.6680412292 4287465742
-0.3496302664 -0.1686129421 0.6673172712 4287399949
-0.3487975001 -0.1674716622 0.6657278538 4287465742
-0.3466048539 -0.1656838506 0.6615428329 4287399947
-0.3412387669 -0.1623951197 0.6513009667 4287268361
-0.2987023592 -0.1415186524 0.5701143742 4287334154
-0.2960437238 -0.1396312565 0.5650399923 4287399947
-0.2942906618 -0.1381803304 0.5616940260 4287070981
-0.2929901779 -0.1369483620 0.5592118502 4287268360
-0.2921425104 -0.1359326392 0.5575940013 4287465739
-0.2917479873 -0.1351303756 0.5568410158 4287597325
-0.2908992171 -0.1341203600 0.5552210212 4287531532
-0.2909576893 -0.1335302889 0.5553326011 4287465739
-0.2905619144 -0.1327324808 0.5545771718 4287465993
-0.2901657224 -0.1319361627 0.5538210273 4287531786
-0.2902233005 -0.1313468814 0.5539308786 4287334153
-0.2902806401 -0.1307572573 0.5540403128 4287465739
-0.2898833752 -0.1299635768 0.5532821417 4287532554
-0.2899401486 -0.1293741763 0.5533905029 4287664140
-0.2899966836 -0.1287844330 0.5534983873 4287730182
-0.2895983756 -0.1279934049 0.5527381301 4287861768
-0.2896543443 -0.1274039000 0.5528450012 4288059652
-0.2897101045 -0.1268140525 0.5529513955 4288191238
-0.2893107235 -0.1260257065 0.5521891117 4288060163
-0.2889109254 -0.1252388805 0.5514260530 4288191749
-0.2889657915 -0.1246498749 0.5515307784 4288520460
-0.2890203893 -0.1240605265 0.5516350269 4289441562
-0.2886195481 -0.1232764050 0.5508699417 4289836323
-0.2886736095 -0.1226873249 0.5509731174 4289244186
-0.2887274325 -0.1220979169 0.5510758162 4289310238
-0.2887810171 -0.1215081736 0.5511780977 4290033961
-0.2883787751 -0.1207273826 0.5504103899 4290363193
-0.2884317935 -0.1201379225 0.5505115390 4290165814
-0.2884845734 -0.1195481345 0.5506122708 4290493261
-0.2885370851 -0.1189580262 0.5507125854 4292006500
-0.2881334722 -0.1181805953 0.5499421954 4293124217
-0.2881854475 -0.1175907776 0.5500414371 4292795252
-0.2882371843 -0.1170006394 0.5501401424 4292269157
-0.2882886827 -0.1164101809 0.5502384305 4292400743
-0.2883399129 -0.1158194169 0.5503362417 4292138074
-0.2888472378 -0.1154106557 0.5513045192 4291940695
-0.2888980806 -0.1148183197 0.5514015555 4291545925
-0.2889486551 -0.1142256707 0.5514981151 4291677511
-0.2889990211 -0.1136327162 0.5515941978 4291808832
-0.2890491188 -0.1130394563 0.5516898632 4291677246
-0.2895556986 -0.1126235202 0.5526567101 4291808582
-0.2896054089 -0.1120287031 0.5527515411 4291742789
-0.2896548510 -0.1114335805 0.5528459549 4291742277
-0.2901609838 -0.1110129729 0.5538119674 4291610691
-0.2902100086 -0.1104163080 0.5539055467 4291610688
-0.2902587950 -0.1098193303 0.5539987087 4291676481
-0.2907645106 -0.1093940660 0.5549638867 4291676733
-0.2903556228 -0.1086244881 0.5541834831 4291874112
-0.2908609807 -0.1081967428 0.5551480651 4292071489
-0.2909088433 -0.1075976342 0.5552393794 4292137282
-0.2909564674 -0.1069982350 0.5553302765 4292071489
-0.2910038233 -0.1063985378 0.5554206967 4292532040
-0.2915085852 -0.1059649065 0.5563840270 4292597833
-0.2915554941 -0.1053636819 0.5564736128 4292137282
-0.2920599580 -0.1049266309 0.5574364066 4291808319
-0.2921064496 -0.1043238938 0.5575252175 4291874112
-0.2926106453 -0.1038834304 0.5584874749 4291939907
-0.2935726941 -0.1036024243 0.5603236556 4291874114
-0.2945347726 -0.1033173427 0.5621599555 4291740988
-0.2950387597 -0.1028684601 0.5631218553 4291412023
-0.2950844169 -0.1022586152 0.5632089972 4290888248
-0.2960463464 -0.1019641608 0.5650449991 4291875143
-0.3489724994 -0.1738445461 0.6674767733 4288717469
-0.3490476608 -0.1731402129 0.6676205397 4287005767
-0.3486708999 -0.1722123474 0.6668999195 4286939974
-0.3487454355 -0.1715080291 0.6670424342 4287530268
-0.3488196731 -0.1708032489 0.6671844721 4287464475
-0.3484416902 -0.1698776782 0.6664615273 4287663121
-0.3480632603 -0.1689535081 0.6657376885 4287399949
-0.3472322524 -0.1678121984 0.6641482115 4287136777
-0.3468527794 -0.1668917090 0.6634224057 4287268363
-0.3437589705 -0.1646725535 0.6575049162 4287334156
-0.3040184975 -0.1449893862 0.5814936161 4287136777
-0.2972939014 -0.1411505789 0.5686315298 4287136775
-0.2946396470 -0.1392642260 0.5635547638 4287399947
-0.2933420837 -0.1380275190 0.5610729456 4287005189
-0.2920437157 -0.1367959678 0.5585895777 4287136775
-0.2907446027 -0.1355695724 0.5561047196 4287399947
-0.2898976207 -0.1345585734 0.5544847846 4287531533
-0.2913153470 -0.1345975399 0.5571964383 4287399946
-0.2900145054 -0.1333801895 0.5547083020 4287334153
-0.2896193564 -0.1325829774 0.5539525151 4287334153
-0.2901304364 -0.1322003752 0.5549300909 4287334153
-0.2897346616 -0.1314042956 0.5541730523 4287136774
-0.2897919416 -0.1308144331 0.5542826056 4287334153
-0.2893953919 -0.1300204247 0.5535241365 4287531784
-0.2889984548 -0.1292279214 0.5527648926 4287729163
-0.2890548706 -0.1286388636 0.5528727770 4287861000
-0.2891110182 -0.1280494630 0.5529802442 4287926793
-0.2887130082 -0.1272596270 0.5522189736 4287993605
-0.2887686193 -0.1266704649 0.5523253083 4288059398
-0.2883698940 -0.1258827299 0.5515626669 4288257031
-0.2884249389 -0.1252938211 0.5516679287 4288125445
-0.2884797454 -0.1247045696 0.5517727733 4288323083
-0.2880799472 -0.1239195317 0.5510081053 4289178392
-0.2881341875 -0.1233305410 0.5511118174 4289375772
-0.2881882191 -0.1227412224 0.5512151718 4288915221
-0.2882419825 -0.1221515760 0.5513179898 4289243932
-0.2878407836 -0.1213698536 0.5505506396 4289967655
-0.2878940105 -0.1207804754 0.5506524444 4290362676
-0.2879469693 -0.1201907769 0.5507537723 4290560055
-0.2879997194 -0.1196007505 0.5508546233 4291085913
-0.2880522013 -0.1190103963 0.5509550571 4292467566
-0.2876493037 -0.1182326451 0.5501844287 4292269684
-0.2877012491 -0.1176425889 0.5502837300 4292203891
-0.2877529263 -0.1170522049 0.5503826141 4292402285
-0.2878043950 -0.1164615080 0.5504810214 4292204906
-0.2883110642 -0.1160538420 0.5514501333 4292072794
-0.2883620858 -0.1154615730 0.5515477657 4291678036
-0.2884128988 -0.1148689985 0.5516449213 4291545925
-0.2884634435 -0.1142761111 0.5517416000 4291480132
-0.2885137498 -0.1136829108 0.5518378615 4291610940
-0.2885638177 -0.1130893975 0.5519335866 4291676733
-0.2890695930 -0.1126732975 0.5529009700 4291874114
-0.2891192436 -0.1120782346 0.5529959798 4291545149
-0.2891686559 -0.1114828661 0.5530904531 4291610690
-0.2892178297 -0.1108871922 0.5531845093 4291544897
-0.2897229791 -0.1104651764 0.5541507602 4291479356
-0.2897717357 -0.1098679528 0.5542439818 4291545149
-0.2898202240 -0.1092704386 0.5543367267 4291676733
-0.2903249562 -0.1088437513 0.5553021431 4291939905
-0.2903730571 -0.1082446948 0.5553940535 4292071744
-0.2904208601 -0.1076453403 0.5554855466 4292137537
-0.2904684544 -0.1070456877 0.5555765629 4292005949
-0.2909725606 -0.1066131070 0.5565407872 4292663879
-0.2910197079 -0.1060119271 0.5566309690 4292795465
-0.2910665870 -0.1054104567 0.5567206144 4292203328
-0.2911132574 -0.1048086956 0.5568098426 4291742779
-0.2920737863 -0.1045338213 0.5586470962 4291808572
-0.2925772369 -0.1040922329 0.5596100092 4291874112
-0.2935377955 -0.1038101688 0.5614472628 4291874112
-0.2940410674 -0.1033632830 0.5624098778 4291807292
-0.2936294973 -0.1025945991 0.5616226792 4291478327
-0.2945898771 -0.1023041084 0.5634595752 4291216697
-0.2950927317 -0.1018516347 0.5644214153 4291282490
-0.3470298052 -0.1732448041 0.6651740670 4287467655
-0.3471046090 -0.1725429296 0.6653174758 4287268926
-0.3467282653 -0.1716174334 0.6645960808 4287005754
-0.3468024433 -0.1709155738 0.6647382379 4287333140
-0.3468763232 -0.1702132672 0.6648798585 4287464726
-0.3464987874 -0.1692900658 0.6641561985 4287663119
-0.3461207747 -0.1683682650 0.6634316444 4287334154
-0.3452909291 -0.1672292352 0.6618410349 4287005189
-0.3444604278 -0.1660934389 0.6602491736 4287136775
-0.3404684365 -0.1634434760 0.6525974870 4287136775
-0.3007946312 -0.1437572986 0.5765522122 4287005189
-0.2963396013 -0.1409970224 0.5680129528 4287070982
-0.2936897874 -0.1391107887 0.5629338622 4287268361
-0.2923943698 -0.1378744990 0.5604508519 4287070981
-0.2915501893 -0.1368555278 0.5588327646 4287136774
-0.2911575139 -0.1360511333 0.5580800772 4287334153
-0.2903122306 -0.1350378841 0.5564598441 4287399946
-0.2894663215 -0.1340279579 0.5548384786 4287334153
-0.2899769843 -0.1336468458 0.5558173060 4287268360
-0.2891301811 -0.1326408088 0.5541941524 4287268360
-0.2892453671 -0.1314616650 0.5544149876 4287137028
-0.2893026173 -0.1308715641 0.5545246601 4287268614
-0.2889067829 -0.1300772429 0.5537660122 4287531784
-0.2885105610 -0.1292844117 0.5530065298 4287729163
-0.2885669172 -0.1286951154 0.5531145334 4287730184
-0.2881699502 -0.1279043704 0.5523536205 4287795977
-0.2882257700 -0.1273153126 0.5524606109 4287927813
-0.2882813215 -0.1267259121 0.5525671244 4288059399
-0.2878832817 -0.1259378493 0.5518041849 4288125191
-0.2879382968 -0.1253487021 0.5519096255 4288059398
-0.2879930735 -0.1247592196 0.5520145893 4288059911
-0.2880476117 -0.1241694018 0.5521191359 4288652048
-0.2876482010 -0.1233846322 0.5513535738 4288652049
-0.2877021730 -0.1227950752 0.5514569879 4288783635
-0.2877559066 -0.1222051904 0.5515599847 4289178393
-0.2873554230 -0.1214231476 0.5507923961 4289309979
-0.2874085903 -0.1208335310 0.5508943200 4289508135
-0.2874615192 -0.1202435866 0.5509957671 4290823995
-0.2875142395 -0.1196533218 0.5510967970 4291349344
-0.2875666618 -0.1190627292 0.5511972904 4292138860
-0.2876188755 -0.1184718162 0.5512973666 4291414890
-0.2872163951 -0.1176943555 0.5505259037 4291678062
-0.2872680426 -0.1171037331 0.5506249070 4292401772
-0.2873194516 -0.1165127978 0.5507234335 4292007014
-0.2878253162 -0.1161049604 0.5516930819 4291874900
-0.2878763080 -0.1155124605 0.5517908335 4291545935
-0.2879270613 -0.1149196401 0.5518881083 4291874120
-0.2879775763 -0.1143265069 0.5519849062 4291874120
-0.2880278528 -0.1137330607 0.5520812869 4291611451
-0.2880778909 -0.1131393015 0.5521771908 4291479865
-0.2881276608 -0.1125452444 0.5522726178 4291611451
-0.2886324525 -0.1121277288 0.5532401800 4291414072
-0.2886818349 -0.1115321144 0.5533347726 4291479102
-0.2887309492 -0.1109361947 0.5534289479 4291413309
-0.2887798250 -0.1103399694 0.5535226464 4291413563
-0.2892840207 -0.1099165380 0.5544890761 4291545149
-0.2893324792 -0.1093187705 0.5545819402 4291676733
-0.2893806994 -0.1087207049 0.5546743274 4291874112
-0.2898844481 -0.1082926095 0.5556399226 4292005951
-0.2894763649 -0.1075236723 0.5548577309 4292005951
-0.2895238101 -0.1069247201 0.5549486876 4291940156
-0.2895710468 -0.1063254625 0.5550391674 4292532293
-0.2900740802 -0.1058924198 0.5560034513 4292729672
-0.2905770540 -0.1054571941 0.5569674969 4292269121
-0.2910798788 -0.1050197855 0.5579313040 4291742779
-0.2911263108 -0.1044165343 0.5580202937 4291676986
-0.2916288674 -0.1039757133 0.5589835644 4291676733
-0.2921313345 -0.1035327166 0.5599466562 4291676733
-0.2935467064 -0.1034091786 0.5626596212 4291676217
-0.2931358814 -0.1026401743 0.5618721843 4291544631
-0.2955102324 -0.1022128612 0.5664231777 4291281977
-0.2960123122 -0.1017561182 0.5673856139 4291217257
-0.3450909257 -0.1726444066 0.6628688574 4286612346
-0.3451653719 -0.1719450057 0.6630119085 4287203381
-0.3447894454 -0.1710218787 0.6622897983 4286742830
-0.3448632658 -0.1703224927 0.6624315381 4287267598
-0.3444865048 -0.1694011986 0.6617078781 4287464977
-0.3445596695 -0.1687018275 0.6618484259 4287531533
-0.3437315822 -0.1675627828 0.6602577567 4287268361
-0.3429028392 -0.1664269567 0.6586658359 4287005189
-0.3407213688 -0.1646410227 0.6544755697 4287005189
-0.3362847567 -0.1617794931 0.6459535360 4287005189
-0.2989319265 -0.1431718618 0.5742042661 4287005189
-0.2953861654 -0.1408432126 0.5673933625 4287136775
-0.2931918502 -0.1391712129 0.5631784201 4287136775
-0.2918986976 -0.1379344165 0.5606944561 4287005188
-0.2910560071 -0.1369150281 0.5590757132 4287070981
-0.2906640470 -0.1361103207 0.5583228469 4287202567
-0.2902716696 -0.1353070736 0.5575691462 4287268360
-0.2898788750 -0.1345053166 0.5568146706 4287334153
-0.2894856632 -0.1337050498 0.5560593605 4287268360
-0.2890920341 -0.1329062581 0.5553032756 4287268360
-0.2891497910 -0.1323157102 0.5554141998 4287268360
-0.2883035541 -0.1313131601 0.5537886620 4287334153
-0.2888126373 -0.1309286505 0.5547665954 4287399946
-0.2884175479 -0.1301340014 0.5540076494 4287597577
-0.2880220413 -0.1293408424 0.5532479286 4287663370
-0.2880783379 -0.1287513226 0.5533561110 4287598600
-0.2876820862 -0.1279602498 0.5525949597 4287730186
-0.2877378464 -0.1273709536 0.5527020693 4287861770
-0.2877933681 -0.1267813295 0.5528087020 4287927563
-0.2873960733 -0.1259929389 0.5520455241 4287730693
-0.2874510288 -0.1254035532 0.5521511436 4287796486
-0.2875057459 -0.1248138323 0.5522562265 4287862279
-0.2875602543 -0.1242237762 0.5523608923 4288322830
-0.2871615589 -0.1234386861 0.5515950918 4288191498
-0.2872154713 -0.1228488907 0.5516986847 4288717842
-0.2872691751 -0.1222587600 0.5518018007 4289112346
-0.2868694365 -0.1214763969 0.5510339737 4288849174
-0.2869225740 -0.1208865419 0.5511360168 4289837613
-0.2869754434 -0.1202963591 0.5512375832 4291021887
-0.2870281041 -0.1197058558 0.5513387322 4291020633
-0.2870804965 -0.1191150174 0.5514394045 4291941735
-0.2871326804 -0.1185238659 0.5515395999 4291874924
-0.2867309153 -0.1177460849 0.5507678390 4291677545
-0.2872362733 -0.1173405945 0.5517386198 4291677272
-0.2872877419 -0.1167484820 0.5518374443 4291414100
-0.2873389423 -0.1161560491 0.5519357920 4291479113
-0.2873899043 -0.1155632958 0.5520336628 4291084355
-0.2874405980 -0.1149702370 0.5521311164 4291610691
-0.2870368958 -0.1141961664 0.5513556600 4291676484
-0.2875413001 -0.1137831733 0.5523245335 4291545662
-0.2875913084 -0.1131891683 0.5524205565 4291216697
-0.2876410484 -0.1125948653 0.5525161028 4291282488
-0.2881450355 -0.1121771857 0.5534841418 4291282488
-0.2881943583 -0.1115813181 0.5535789132 4291282236
-0.2882434428 -0.1109851524 0.5536732078 4291282236
-0.2882922590 -0.1103886813 0.5537670255 4291348029
-0.2887956500 -0.1099650860 0.5547339320 4291413822
-0.2888440788 -0.1093670651 0.5548269749 4291479867
-0.2888922393 -0.1087687537 0.5549194813 4291545660
-0.2889401615 -0.1081701368 0.5550115108 4291676986
-0.2889878452 -0.1075712293 0.5551031232 4291742779
-0.2890352607 -0.1069720164 0.5551941991 4291808570
-0.2890824378 -0.1063725203 0.5552847981 4292071742
-0.2895846963 -0.1059392914 0.5562495589 4292400707
-0.2896314263 -0.1053382605 0.5563393831 4292203328
-0.2901334167 -0.1049016193 0.5573035479 4291808572
-0.2906352580 -0.1044628024 0.5582675338 4291545400
-0.2911370099 -0.1040218025 0.5592313409 4291545147
-0.2916386724 -0.1035786197 0.5601949096 4291610940
-0.2921401858 -0.1031332538 0.5611582994 4291348279
-0.2926416099 -0.1026857123 0.5621214509 4291282486
-0.2931429148 -0.1022359878 0.5630843639 4291281975
-0.2941000760 -0.1019421369 0.5649229288 4291413561
-0.2946012318 -0.1014871076 0.5658856034 4291019853
-0.2955583632 -0.1011860445 0.5677241087 4292072541
-0.3431558907 -0.1720433831 0.6605612040 4286414454
-0.3432299793 -0.1713464409 0.6607038379 4287072299
-0.3428544700 -0.1704256833 0.6599810123 4286677541
-0.3429279327 -0.1697287560 0.6601223946 4287202316
-0.3425515890 -0.1688098460 0.6593979597 4287136523
-0.3421747684 -0.1678923219 0.6586725712 4287334156
-0.3417975008 -0.1669761837 0.6579463482 4287202570
-0.3405201137 -0.1656238586 0.6554874182 4287005191
-0.3378921151 -0.1636229753 0.6504286528 4287005191
-0.3303125203 -0.1592461318 0.6358382702 4287005191
-0.2979733944 -0.1430178881 0.5735867023 4287005191
-0.2944336236 -0.1406891793 0.5667728186 4287136775
-0.2926932871 -0.1392316073 0.5634227395 4287070982
-0.2914023995 -0.1379942894 0.5609378219 4286939396
-0.2901107073 -0.1367621273 0.5584513545 4287070982
-0.2897193730 -0.1359580010 0.5576980710 4287136775
-0.2893276215 -0.1351553649 0.5569439530 4287136775
-0.2893862128 -0.1345638037 0.5570567250 4287202567
-0.2889937162 -0.1337631941 0.5563012362 4287268360
-0.2886008024 -0.1329640895 0.5555449128 4287334153
-0.2886585295 -0.1323733032 0.5556559563 4287465739
-0.2882648706 -0.1315762550 0.5548982024 4287465740
-0.2878708243 -0.1307807118 0.5541396737 4287531533
-0.2879276574 -0.1301907152 0.5542491078 4287466763
-0.2875328660 -0.1293972433 0.5534891486 4287532556
-0.2875891328 -0.1288074702 0.5535974503 4287532554
-0.2871935964 -0.1280160844 0.5528360605 4287598347
-0.2872493267 -0.1274265498 0.5529432893 4287664138
-0.2873047888 -0.1268366873 0.5530501008 4287795724
-0.2869082093 -0.1260479689 0.5522866845 4287533064
-0.2869631350 -0.1254583597 0.5523924232 4287598857
-0.2870177925 -0.1248683929 0.5524976850 4287664902
-0.2870722413 -0.1242780983 0.5526024699 4288322832
-0.2866742909 -0.1234926879 0.5518363714 4288125453
-0.2867281735 -0.1229026541 0.5519401431 4288520211
-0.2867818177 -0.1223122850 0.5520433784 4288914969
-0.2863827944 -0.1215296015 0.5512753129 4288980762
-0.2864358723 -0.1209395081 0.5513774753 4289903153
-0.2864887118 -0.1203490868 0.5514792204 4290955841
-0.2865413129 -0.1197583377 0.5515804887 4290822992
-0.2861409485 -0.1189790070 0.5508097410 4291349336
-0.2861929834 -0.1183885485 0.5509099364 4291808606
-0.2862447798 -0.1177977696 0.5510096550 4291348055
-0.2867493331 -0.1173921227 0.5519809127 4290886724
-0.2868007421 -0.1167997643 0.5520798564 4290755138
-0.2868519127 -0.1162070855 0.5521783233 4290952256
-0.2869028151 -0.1156140938 0.5522763133 4290425912
-0.2865001857 -0.1148390844 0.5515012741 4290886714
-0.2865505219 -0.1142463982 0.5515981913 4290755128
-0.2870541215 -0.1138332412 0.5525676012 4290953271
-0.2871040702 -0.1132389978 0.5526637435 4290755892
-0.2871537805 -0.1126444414 0.5527594090 4290755892
-0.2876569331 -0.1122265980 0.5537279844 4291150650
-0.2877062261 -0.1116304919 0.5538228750 4291084857
-0.2877552807 -0.1110340804 0.5539172888 4291216443
-0.2878040671 -0.1104373634 0.5540112257 4291282490
-0.2883066535 -0.1100135893 0.5549786091 4291348283
-0.2879009247 -0.1092430204 0.5541976094 4291414074
-0.2884031534 -0.1088167652 0.5551643968 4291414074
-0.2884510458 -0.1082179025 0.5552566051 4291414327
-0.2884986699 -0.1076187417 0.5553482771 4291480120
-0.2885460556 -0.1070192829 0.5554395318 4291545398
-0.2890476882 -0.1065871194 0.5564050674 4291676984
-0.2890946269 -0.1059861332 0.5564954877 4291940158
-0.2895959616 -0.1055505499 0.5574605465 4292005951
-0.2896425128 -0.1049480289 0.5575501323 4291808317
-0.2905983329 -0.1046728417 0.5593900084 4291479352
-0.2910993397 -0.1042307094 0.5603544712 4291479352
-0.2916002572 -0.1037864015 0.5613186955 4291545145
-0.2911910713 -0.1030179709 0.5605310202 4291151418
-0.2921466827 -0.1027312130 0.5623705387 4291151418
-0.2926471829 -0.1022813022 0.5633339882 4291084596
-0.2931475639 -0.1018292159 0.5642971992 4291413561
-0.2941030860 -0.1015321165 0.5661365390 4291085635
-0.2946033180 -0.1010747179 0.5670994520 4291348807
-0.3415989578 -0.1723619103 0.6589730978 4287993738
-0.3412247002 -0.1714417040 0.6582510471 4286809464
-0.3412984312 -0.1707472354 0.6583933234 4287137828
-0.3409233391 -0.1698288471 0.6576697230 4286808863
-0.3409964442 -0.1691343933 0.6578107476 4287202316
-0.3406205177 -0.1682178676 0.6570855379 4286939144
-0.3402441144 -0.1673027277 0.6563594341 4287202316
-0.3394182920 -0.1661691666 0.6547663808 4287070730
-0.3385918438 -0.1650388241 0.6531720757 4286939144
-0.3346206546 -0.1623859555 0.6455112696 4286939144
-0.3059387803 -0.1478113681 0.5901815295 4286873605
-0.2970157266 -0.1428636760 0.5729682446 4286807812
-0.2916842103 -0.1396740526 0.5626832843 4286873605
-0.2935426831 -0.1399348229 0.5662684441 4286939398
-0.2904558182 -0.1378407329 0.5603136420 4287005189
-0.2896159887 -0.1368214339 0.5586935282 4287070982
-0.2887755632 -0.1358054578 0.5570722818 4287136775
-0.2888343334 -0.1352140158 0.5571857095 4287070982
-0.2884429097 -0.1344125420 0.5564305782 4287070982
-0.2880510390 -0.1336125433 0.5556746125 4287202568
-0.2881089449 -0.1330218762 0.5557863116 4287399947
-0.2877736688 -0.1316334903 0.5551395416 4287465739
-0.2873803377 -0.1308376044 0.5543807745 4287531532
-0.2874371111 -0.1302473843 0.5544903278 4287597579
-0.2870430648 -0.1294535846 0.5537301302 4287597579
-0.2870992720 -0.1288635880 0.5538386106 4287597579
-0.2867044806 -0.1280718595 0.5530769825 4287663372
-0.2863092422 -0.1272816658 0.5523145795 4287598347
-0.2863645852 -0.1266924888 0.5524213314 4287729933
-0.2864196897 -0.1261029691 0.5525276661 4287532552
-0.2864745855 -0.1255131066 0.5526334643 4287729931
-0.2860779762 -0.1247261837 0.5518684387 4287533318
-0.2861323059 -0.1241365820 0.5519732237 4288191248
-0.2861863673 -0.1235466450 0.5520775318 4288125453
-0.2862402201 -0.1229563728 0.5521813631 4288322832
-0.2858422399 -0.1221727654 0.5514136553 4288651797
-0.2858955264 -0.1215827614 0.5515164137 4289112348
-0.2859485447 -0.1209924296 0.5516187549 4289046817
-0.2855495512 -0.1202115640 0.5508490205 4290033712
-0.2856020033 -0.1196215078 0.5509502292 4290296381
-0.2856542468 -0.1190311313 0.5510510206 4290296381
-0.2852541804 -0.1182530299 0.5502792597 4290493500
-0.2853058577 -0.1176629364 0.5503789783 4290559293
-0.2858095467 -0.1172580644 0.5513505936 4290689846
-0.2858608067 -0.1166664064 0.5514494777 4290689846
-0.2859118581 -0.1160744280 0.5515479445 4290821434
-0.2859626412 -0.1154821292 0.5516459346 4290558262
-0.2860131860 -0.1148895174 0.5517434478 4290755639
-0.2856108844 -0.1141157448 0.5509673357 4290163502
-0.2861135900 -0.1137033552 0.5519371033 4290558513
-0.2861633897 -0.1131098121 0.5520332456 4290361134
-0.2862129807 -0.1125159562 0.5521288514 4290426416
-0.2862623334 -0.1119217873 0.5522240400 4290952760
-0.2867644429 -0.1115034670 0.5531926751 4290887732
-0.2868133783 -0.1109077483 0.5532870293 4291019318
-0.2868620455 -0.1103117317 0.5533809662 4291085109
-0.2873637378 -0.1098887324 0.5543487668 4291085109
-0.2874119878 -0.1092911586 0.5544418693 4291216948
-0.2874600291 -0.1086932942 0.5545344949 4291216948
-0.2875077724 -0.1080951244 0.5546266437 4291151151
-0.2875553071 -0.1074966565 0.5547183156 4291216944
-0.2880562246 -0.1070665047 0.5556846261 4291348273
-0.2881033123 -0.1064665094 0.5557754636 4291348273
-0.2886039317 -0.1060329303 0.5567412376 4291545398
-0.2886506021 -0.1054314002 0.5568312407 4291676984
-0.2896048725 -0.1051592305 0.5586721301 4291611193
-0.2901051939 -0.1047191024 0.5596372485 4291413814
-0.2910594642 -0.1044397280 0.5614781380 4291348021
-0.2911055088 -0.1038322970 0.5615669489 4291348021
-0.2921053767 -0.1029367670 0.5634957552 4290954552
-0.2926051319 -0.1024857238 0.5644598603 4291019056
-0.2931047678 -0.1020324975 0.5654237270 4291216435
-0.2940587997 -0.1017343327 0.5672640800 4291283006
-0.2950128317 -0.1014320850 0.5691044927 4291217213
-0.3396711946 -0.1717572212 0.6566612124 4287335548
-0.3397449553 -0.1710647643 0.6568037868 4287203962
-0.3393707275 -0.1701473743 0.6560803056 4287072542
-0.3389960527 -0.1692313701 0.6553559303 4286809370
-0.3390688002 -0.1685393900 0.6554965973 4287070732
-0.3386932909 -0.1676252484 0.6547706723 4286939146
-0.3383173347 -0.1667124778 0.6540438533 4287136523
-0.3374927044 -0.1655812114 0.6524496675 4287004937
-0.3362191319 -0.1642341912 0.6499875784 4286807558
-0.3313576281 -0.1611477435 0.6405891776 4286873351
-0.3036212921 -0.1470066905 0.5869686007 4286676226
-0.2960589230 -0.1427092254 0.5723488331 4286413056
-0.2929798365 -0.1405957043 0.5663962364 4286610433
-0.2912454605 -0.1391378343 0.5630432963 4286939398
-0.2899589837 -0.1379004121 0.5605562329 4287070982
-0.2895695865 -0.1370932460 0.5598034263 4287070982
-0.2887307405 -0.1360759288 0.5581817627 4287202568
-0.2883404195 -0.1352726370 0.5574272275 4287136775
-0.2883989215 -0.1346806139 0.5575402975 4287136774
-0.2880078852 -0.1338793635 0.5567843318 4287202567
-0.2880658209 -0.1332875490 0.5568963289 4287334153
-0.2876740396 -0.1324883550 0.5561389327 4287399946
-0.2872818410 -0.1316906661 0.5553807020 4287334407
-0.2873388827 -0.1310996264 0.5554910302 4287465993
-0.2869459391 -0.1303039938 0.5547313690 4287531784
-0.2865526080 -0.1295098811 0.5539709330 4287597577
-0.2866087854 -0.1289196461 0.5540795326 4287597577
-0.2862147093 -0.1281276047 0.5533176661 4287663370
-0.2862703204 -0.1275376081 0.5534251928 4287794956
-0.2858754992 -0.1267476678 0.5526619554 4287860749
-0.2859305739 -0.1261579096 0.5527684093 4287401221
-0.2859853804 -0.1255678236 0.5528743863 4287927565
-0.2855895162 -0.1247805730 0.5521090627 4287598596
-0.2856437862 -0.1241907328 0.5522139668 4288059147
-0.2856978178 -0.1236005574 0.5523184538 4288125194
-0.2857516110 -0.1230100542 0.5524224639 4288454159
-0.2853543758 -0.1222261190 0.5516544580 4288388877
-0.2854076028 -0.1216358766 0.5517573953 4288849428
-0.2854605913 -0.1210453063 0.5518598557 4289046046
-0.2850623131 -0.1202641204 0.5510898232 4289243425
-0.2851147354 -0.1196738258 0.5511912107 4289769514
-0.2851669192 -0.1190832108 0.5512921214 4289835307
-0.2847675979 -0.1183047816 0.5505201221 4289835812
-0.2852706015 -0.1179010123 0.5514925718 4289901605
-0.2853220701 -0.1173094288 0.5515920520 4290164775
-0.2853733301 -0.1167175248 0.5516911149 4290362154
-0.2854243219 -0.1161253005 0.5517897010 4290164784
-0.2854750752 -0.1155327633 0.5518878102 4290230577
-0.2855255902 -0.1149399132 0.5519854426 4290625078
-0.2851239741 -0.1141658202 0.5512090921 4289703976
-0.2856258750 -0.1137532666 0.5521793962 4290229802
-0.2856756747 -0.1131594777 0.5522755980 4290164009
-0.2857252061 -0.1125653759 0.5523713827 4290293803
-0.2857744992 -0.1119709685 0.5524666905 4290820147
-0.2858235538 -0.1113762483 0.5525615215 4290624558
-0.2863246799 -0.1109565124 0.5535303354 4290690351
-0.2863733172 -0.1103602499 0.5536243320 4290690349
-0.2868742049 -0.1099370793 0.5545926690 4290756142
-0.2869224250 -0.1093392670 0.5546858907 4290887981
-0.2869704068 -0.1087411493 0.5547786355 4290887981
-0.2870181501 -0.1081427336 0.5548709035 4290888233
-0.2870656252 -0.1075440198 0.5549626946 4290954026
-0.2871128619 -0.1069450080 0.5550540090 4291150894
-0.2876127660 -0.1065134481 0.5560204983 4291282480
-0.2881125808 -0.1060796902 0.5569867492 4291348019
-0.2881592214 -0.1054779142 0.5570768714 4291348019
-0.2886587679 -0.1050407365 0.5580426455 4291413814
-0.2891581953 -0.1046013758 0.5590081215 4291348021
-0.2901108265 -0.1043228358 0.5608497858 4291216433
-0.2901567221 -0.1037161052 0.5609385371 4291150640
-0.2911092639 -0.1034313068 0.5627800226 4290757425
-0.2911548316 -0.1028221026 0.5628680587 4290757425
-0.2916537225 -0.1023718268 0.5638325214 4291019308
-0.2921524644 -0.1019193679 0.5647967458 4290953515
-0.2926511168 -0.1014647186 0.5657607317 4291217465
-0.2931496501 -0.1010078937 0.5667245388 4291085879
-0.3381202817 -0.1720687151 0.6550694704 4290296768
-0.3377473056 -0.1711518764 0.6543468237 4288123783
-0.3378207088 -0.1704618782 0.6544890404 4287202681
-0.3374468982 -0.1695468873 0.6537648439 4287533093
-0.3370726109 -0.1686332524 0.6530396938 4287006749
-0.3371450305 -0.1679437608 0.6531800032 4286940176
-0.3367699385 -0.1670319885 0.6524533033 4286808590
-0.3363943696 -0.1661216021 0.6517257094 4286677002
-0.3351235092 -0.1647726446 0.6492635608 4286611209
-0.3338518143 -0.1634287387 0.6467998028 4286479623
-0.3281031251 -0.1599083394 0.6356623769 4286611209
-0.3017570376 -0.1464184374 0.5846198201 4286414085
-0.2946552336 -0.1423382312 0.5708608627 4286150913
-0.2920291722 -0.1404410452 0.5657731891 4286413824
-0.2907457054 -0.1391979754 0.5632866621 4286808580
-0.2894614935 -0.1379600465 0.5607985854 4286874372
-0.2890728116 -0.1371525526 0.5600455999 4286940165
-0.2882354856 -0.1361348182 0.5584233403 4286874886
-0.2882942259 -0.1355419904 0.5585371852 4286874886
-0.2879043221 -0.1347389370 0.5577817559 4287006471
-0.2879625261 -0.1341463178 0.5578945875 4287138057
-0.2875718772 -0.1333453208 0.5571377277 4287400196
-0.2871808112 -0.1325458139 0.5563800931 4287400196
-0.2867893577 -0.1317477822 0.5556216240 4287268612
-0.2872952521 -0.1313617676 0.5566017628 4287465991
-0.2869031131 -0.1305648983 0.5558420420 4287531786
-0.2865105867 -0.1297695190 0.5550815463 4287465993
-0.2861176431 -0.1289756596 0.5543202758 4287531786
-0.2857242823 -0.1281833053 0.5535581708 4287663372
-0.2857798636 -0.1275930703 0.5536658764 4287663623
-0.2858351767 -0.1270024925 0.5537730455 4287663623
-0.2854407728 -0.1262128204 0.5530089140 4287664389
-0.2854955494 -0.1256224811 0.5531150699 4287730182
-0.2851004303 -0.1248349175 0.5523495078 4287795975
-0.2851546407 -0.1242448390 0.5524545908 4287861768
-0.2852086127 -0.1236544326 0.5525591373 4288256780
-0.2852623761 -0.1230636835 0.5526632667 4288454159
-0.2853158712 -0.1224726066 0.5527669787 4288519952
-0.2849190533 -0.1216889545 0.5519981384 4288914710
-0.2849719822 -0.1210981458 0.5521007180 4288914205
-0.2845744193 -0.1203166321 0.5513305068 4289374756
-0.2846268117 -0.1197260991 0.5514320135 4289572390
-0.2846789658 -0.1191352457 0.5515330434 4289901355
-0.2842803597 -0.1183564961 0.5507607460 4289967148
-0.2847825587 -0.1179525629 0.5517337322 4289703976
-0.2848339975 -0.1173607409 0.5518333316 4289835560
-0.2848851979 -0.1167685986 0.5519325137 4289769767
-0.2849361300 -0.1161761358 0.5520312786 4289769767
-0.2845359147 -0.1154004708 0.5512558818 4289769767
-0.2845863104 -0.1148083135 0.5513535142 4290032937
-0.2846364677 -0.1142158434 0.5514506698 4290098730
-0.2851375341 -0.1138031334 0.5524214506 4290032937
-0.2851872742 -0.1132090986 0.5525177717 4289835558
-0.2852367759 -0.1126147509 0.5526136756 4289901351
-0.2852860391 -0.1120201051 0.5527091026 4290230316
-0.2853350341 -0.1114251390 0.5528040528 4290690091
-0.2858353555 -0.1110052392 0.5537734032 4290755884
-0.2858839631 -0.1104087234 0.5538675785 4290821677
-0.2859323323 -0.1098119095 0.5539612174 4290821677
-0.2864322066 -0.1093873307 0.5549297333 4290821675
-0.2864801586 -0.1087889671 0.5550225973 4290887468
-0.2865278423 -0.1081903055 0.5551149845 4291019054
-0.2865752876 -0.1075913385 0.5552068949 4291019054
-0.2866224647 -0.1069920808 0.5552983284 4291150894
-0.2871215940 -0.1065603420 0.5562652946 4291085101
-0.2876205742 -0.1061264127 0.5572320819 4291150894
-0.2881194949 -0.1056903005 0.5581986308 4291216687
-0.2890706658 -0.1054169759 0.5600414276 4291150894
-0.2891169786 -0.1048115194 0.5601311326 4291019308
-0.2896155715 -0.1043688506 0.5610970855 4291085101
-0.2896614373 -0.1037618667 0.5611860156 4291085101
-0.2901597321 -0.1033157706 0.5621513724 4290887478
-0.2906579077 -0.1028674915 0.5631165504 4290887478
-0.2911559939 -0.1024170294 0.5640814900 4291084847
-0.2916539311 -0.1019643843 0.5650462508 4291084847
