VERSION 0.7
FIELDS x y z rgba
SIZE 4 4 4 4
TYPE F F F U
COUNT 1 1 1 1
WIDTH 920
HEIGHT 1
VIEWPOINT 0.0 0.0 0.0 1.0 0.0 0.0 0.0
POINTS 920
DATA ascii
-0.2928245366 -0.1431509554 0.5472939014 4290688801
-0.2928872406 -0.1425733864 0.5474110842 4290820387
-0.2924898565 -0.1417725533 0.5466682911 4290688801
-0.2930119932 -0.1414171606 0.5476441979 4290754594
-0.2930740118 -0.1408385038 0.5477601290 4290886692
-0.2926756144 -0.1400392801 0.5470155478 4290952485
-0.2931973636 -0.1396800578 0.5479906797 4291280433
-0.2932586968 -0.1391002983 0.5481052995 4291477812
-0.2933198214 -0.1385201812 0.5482195020 4291674676
-0.2929201126 -0.1377231330 0.5474724770 4292069434
-0.2929806709 -0.1371432096 0.5475856662 4292202812
-0.2930409908 -0.1365629137 0.5476984382 4293058121
-0.2931010723 -0.1359822452 0.5478107333 4293190812
-0.2931609452 -0.1354012340 0.5479226112 4293848742
-0.2936815917 -0.1350318491 0.5488957167 4294375872
-0.2937410772 -0.1344492286 0.5490068793 4294639044
-0.2938003540 -0.1338662356 0.5491176248 4294967244
-0.2938593626 -0.1332828999 0.5492279530 4294967245
-0.2939181328 -0.1326992065 0.5493378043 4294835406
-0.2939766943 -0.1321151555 0.5494472384 4294309062
-0.2944965959 -0.1317372620 0.5504189730 4293719999
-0.2945547700 -0.1311516017 0.5505276918 4293917378
-0.2941509187 -0.1303609461 0.5497729182 4294311096
-0.2946704030 -0.1299792528 0.5507438183 4294770623
-0.2947278619 -0.1293925643 0.5508512259 4294901696
-0.2947850823 -0.1288055331 0.5509581566 4294770622
-0.2943799496 -0.1280171871 0.5502009392 4293652618
-0.2953610420 -0.1278304905 0.5520346165 4291942000
-0.2958799601 -0.1274406463 0.5530044436 4291874138
-0.2959363759 -0.1268504113 0.5531099439 4291282001
-0.2964550853 -0.1264571249 0.5540794134 4291150401
-0.2969737053 -0.1260616481 0.5550487041 4290953022
-0.2979549170 -0.1258594245 0.5568826199 4289770314
-0.2984735072 -0.1254586726 0.5578518510 4289901900
-0.3608166277 -0.1970291734 0.6757749915 4287797121
-0.3604455590 -0.1960764825 0.6750800014 4287006021
-0.3591612577 -0.1946304590 0.6726746559 4287269193
-0.3574195802 -0.1929428726 0.6694126725 4287796749
-0.3543070257 -0.1905253679 0.6635831594 4287862542
-0.3023271859 -0.1619445533 0.5662298203 4288256012
-0.3051381111 -0.1628152877 0.5714944601 4288387598
-0.3010965884 -0.1600322574 0.5639250875 4288453137
-0.2993379831 -0.1584746540 0.5606313944 4288518930
-0.2980354130 -0.1571648717 0.5581918359 4288584460
-0.2962747812 -0.1556198895 0.5548943281 4288584460
-0.2954277396 -0.1545602083 0.5533078909 4288715282
-0.2950374782 -0.1537420750 0.5525769591 4288715282
-0.2941892445 -0.1526878923 0.5509883165 4288847369
-0.2937980294 -0.1518734694 0.5502555370 4288978955
-0.2934063673 -0.1510604471 0.5495220423 4288979220
-0.2930142879 -0.1502488405 0.5487877131 4288979220
-0.2926868796 -0.1488628238 0.5481745005 4289241873
-0.2922936082 -0.1480545700 0.5474379063 4289373713
-0.2923581600 -0.1474788934 0.5475588441 4289439506
-0.2919641435 -0.1466725767 0.5468208790 4289439506
-0.2920281589 -0.1460970491 0.5469408035 4289571092
-0.2920919359 -0.1455211341 0.5470602512 4289767956
-0.2917600870 -0.1441415399 0.5464386940 4289768211
-0.2922819555 -0.1437911391 0.5474160910 4290031383
-0.2923448384 -0.1432137191 0.5475338697 4290359835
-0.2919484377 -0.1424120218 0.5467914939 4290557214
-0.2920107841 -0.1418347657 0.5469081998 4290623005
-0.2920728922 -0.1412571520 0.5470245481 4290557212
-0.2921347618 -0.1406791657 0.5471404195 4290754591
-0.2921964228 -0.1401008070 0.5472558737 4291017763
-0.2922578454 -0.1395220906 0.5473709106 4291215145
-0.2923190296 -0.1389430165 0.5474855304 4291478317
-0.2923800051 -0.1383635700 0.5475997329 4291478063
-0.2924407125 -0.1377837658 0.5477134585 4291543856
-0.2925012410 -0.1372035891 0.5478268266 4291873344
-0.2925615013 -0.1366230696 0.5479397178 4292333895
-0.2926813662 -0.1354609430 0.5481641889 4292992872
-0.2928002775 -0.1342973858 0.5483869314 4293914770
-0.2928594053 -0.1337150782 0.5484976172 4294047147
-0.2933788598 -0.1333417445 0.5494704843 4294047147
-0.2934376001 -0.1327578276 0.5495805144 4294047414
-0.2934961021 -0.1321735531 0.5496900678 4294179000
-0.2935543656 -0.1315889210 0.5497992039 4293850294
-0.2931514680 -0.1307982951 0.5490446687 4293323950
-0.2936702073 -0.1304186285 0.5500161648 4293585829
-0.2937277555 -0.1298329681 0.5501239896 4293914794
-0.2937850952 -0.1292469651 0.5502313375 4294178720
-0.2938421965 -0.1286606193 0.5503382683 4294441892
-0.2943604290 -0.1282749772 0.5513088703 4294178720
-0.2948785722 -0.1278871745 0.5522793531 4292599688
-0.2949351370 -0.1272979528 0.5523852706 4291350614
-0.2954531014 -0.1269066930 0.5533553362 4291153235
-0.2964327335 -0.1267106235 0.5551900864 4291349569
-0.2969506383 -0.1263140738 0.5561600924 4291217983
-0.2974684834 -0.1259153336 0.5571299791 4290559796
-0.2970622778 -0.1251252294 0.5563691854 4290099245
-0.2975797951 -0.1247239709 0.5573384762 4289836125
-0.3592258990 -0.1973185241 0.6741981506 4288060285
-0.3584002554 -0.1961176395 0.6726486087 4286086495
-0.3575739264 -0.1949198246 0.6710976958 4287203133
-0.3562912643 -0.1934776753 0.6686904430 4287334719
-0.3531848490 -0.1910542995 0.6628602743 4287730444
-0.3022145927 -0.1628518999 0.5671988726 4287796237
-0.3077562749 -0.1651963443 0.5775995255 4288124174
-0.2991629839 -0.1599598378 0.5614715815 4288255760
-0.2978638113 -0.1586440504 0.5590332747 4288452626
-0.2970200181 -0.1575752795 0.5574496984 4288452626
-0.2961755991 -0.1565096825 0.5558648705 4288518667
-0.2953305542 -0.1554472744 0.5542788506 4288584460
-0.2944848239 -0.1543880701 0.5526915789 4288781075
-0.2940951586 -0.1535705030 0.5519602895 4288781075
-0.2927915156 -0.1522792131 0.5495135784 4288847115
-0.2933145463 -0.1519396007 0.5504951477 4288978701
-0.2929235995 -0.1511262506 0.5497614145 4288979218
-0.2929892838 -0.1505491883 0.5498847365 4288979218
-0.2921403944 -0.1495038122 0.5482915044 4289110287
-0.2917481661 -0.1486947089 0.5475553870 4289241873
-0.2918128967 -0.1481191814 0.5476768613 4289373713
-0.2918773890 -0.1475432813 0.5477979183 4289505299
-0.2914840877 -0.1467366517 0.5470597744 4289505299
-0.2915480435 -0.1461608857 0.5471798182 4289571092
-0.2916117907 -0.1455847472 0.5472994447 4289702163
-0.2916752994 -0.1450082362 0.5474185944 4289767956
-0.2912805974 -0.1442046165 0.5466778278 4289636370
-0.2913435400 -0.1436282545 0.5467960238 4289833749
-0.2918644547 -0.1432764381 0.5477736592 4290097176
-0.2914687991 -0.1424744129 0.5470310450 4290228762
-0.2915310860 -0.1418969482 0.5471479297 4290359835
-0.2915931344 -0.1413190961 0.5472644567 4290425628
-0.2916549742 -0.1407408863 0.5473804474 4290623007
-0.2917165756 -0.1401623040 0.5474960804 4290820386
-0.2917779386 -0.1395833641 0.5476112962 4291148581
-0.2918390930 -0.1390040517 0.5477260351 4291477546
-0.2919000089 -0.1384243667 0.5478403568 4291412270
-0.2915016413 -0.1376276016 0.5470927358 4291543856
-0.2915619910 -0.1370481104 0.5472059846 4291873342
-0.2916221321 -0.1364682764 0.5473188758 4292070721
-0.2916820347 -0.1358880699 0.5474312901 4292071503
-0.2922011614 -0.1355205923 0.5484055877 4292532054
-0.2922606766 -0.1349387616 0.5485172868 4292335461
-0.2923199832 -0.1343565732 0.5486285686 4292927598
-0.2923790514 -0.1337740421 0.5487394333 4292994688
-0.2924379110 -0.1331911385 0.5488498807 4293126274
-0.2924965024 -0.1326079071 0.5489598513 4293257868
-0.2925548553 -0.1320243031 0.5490694046 4293323661
-0.2926129997 -0.1314403713 0.5491785407 4293061004
-0.2926709056 -0.1308560818 0.5492872000 4292732039
-0.2922683060 -0.1300666183 0.5485315919 4292797060
-0.2927860022 -0.1296864599 0.5495032072 4292797060
-0.2933036387 -0.1293041259 0.5504747033 4292796808
-0.2933606803 -0.1287175417 0.5505818129 4293125773
-0.2929568589 -0.1279294640 0.5498238802 4293586576
-0.2934740782 -0.1275433451 0.5507946014 4293060232
-0.2939912081 -0.1271550357 0.5517651439 4292073821
-0.2940473855 -0.1265661716 0.5518705845 4291547477
-0.2945643067 -0.1261744201 0.5528407693 4291414851
-0.2950811684 -0.1257804930 0.5538107753 4291283265
-0.2960591018 -0.1255799830 0.5556461811 4291217465
-0.2961146533 -0.1249860749 0.5557504892 4290756914
-0.2966313064 -0.1245855913 0.5567201376 4289836097
-0.3013563454 -0.1253132969 0.5655881166 4291546007
-0.3577228487 -0.1969033480 0.6727796197 4285889359
-0.3573530614 -0.1959530860 0.6720842123 4285889359
-0.3565280735 -0.1947556883 0.6705325842 4287269167
-0.3547926545 -0.1930663288 0.6672687531 4287334960
-0.3526011407 -0.1911369711 0.6631470919 4287533324
-0.3490430713 -0.1884788573 0.6564553380 4287664910
-0.2972337902 -0.1598813832 0.5590161085 4287795726
-0.2991240323 -0.1602730900 0.5625711679 4287927312
-0.2964609861 -0.1582267284 0.5575627089 4288321041
-0.2965294421 -0.1576436311 0.5576914549 4288386834
-0.2956864834 -0.1565776020 0.5561060905 4288715278
-0.2948428690 -0.1555147618 0.5545194745 4288715278
-0.2944544256 -0.1546945870 0.5537889004 4288846355
-0.2936096489 -0.1536372453 0.5522001386 4288912148
-0.2932202518 -0.1528207660 0.5514677763 4288912908
-0.2928304374 -0.1520056874 0.5507346392 4288978701
-0.2928963900 -0.1514278799 0.5508586764 4288913678
-0.2920494974 -0.1503797621 0.5492658615 4288979471
-0.2916584015 -0.1495689154 0.5485303402 4289110287
-0.2908103466 -0.1485263258 0.5469353795 4289241873
-0.2913315296 -0.1481837630 0.5479155779 4289439506
-0.2909392715 -0.1473762691 0.5471778512 4289571092
-0.2910034060 -0.1468006670 0.5472984314 4289636372
-0.2910673022 -0.1462246925 0.5474186540 4289636372
-0.2906739414 -0.1454196870 0.5466788411 4289636372
-0.2907373011 -0.1448438466 0.5467979908 4289636372
-0.2908004522 -0.1442676336 0.5469167829 4289702163
-0.2908633649 -0.1436910480 0.5470350981 4289767956
-0.2909260392 -0.1431140900 0.5471529961 4289965335
-0.2909885049 -0.1425367743 0.5472704768 4290096921
-0.2910507619 -0.1419590712 0.5473874807 4290097176
-0.2906550467 -0.1411587000 0.5466432571 4290228762
-0.2907167077 -0.1405811608 0.5467593074 4290491934
-0.2907781899 -0.1400032640 0.5468748808 4290689313
-0.2908394039 -0.1394250095 0.5469900370 4291017247
-0.2909004092 -0.1388463825 0.5471047759 4291346212
-0.2909611762 -0.1382673830 0.5472190976 4291280938
-0.2910217345 -0.1376880407 0.5473329425 4291412524
-0.2906236649 -0.1368923932 0.5465842485 4291676217
-0.2906836569 -0.1363132447 0.5466970801 4291742010
-0.2907434106 -0.1357337236 0.5468094945 4291742274
-0.2912616134 -0.1353670210 0.5477840900 4292202825
-0.2913210094 -0.1347858757 0.5478958488 4292203857
-0.2913801968 -0.1342043728 0.5480070710 4292598615
-0.2914391160 -0.1336225122 0.5481179357 4292730720
-0.2914978266 -0.1330403090 0.5482283235 4292928099
-0.2915562987 -0.1324577481 0.5483382940 4292863084
-0.2916145325 -0.1318748444 0.5484477878 4292797291
-0.2916725278 -0.1312915832 0.5485568643 4292403051
-0.2917302847 -0.1307079792 0.5486655235 4292139879
-0.2917878032 -0.1301240325 0.5487737060 4292336744
-0.2918451130 -0.1295397282 0.5488814712 4292205158
-0.2923618555 -0.1291581690 0.5498533249 4291940980
-0.2924187779 -0.1285722703 0.5499603748 4292269945
-0.2920155823 -0.1277847886 0.5492020845 4293125759
-0.2929918468 -0.1275997609 0.5510382056 4293323138
-0.2930481434 -0.1270119101 0.5511440635 4292796515
-0.2935643196 -0.1266222000 0.5521148443 4292006999
-0.2936202288 -0.1260327548 0.5522199869 4291545927
-0.2941361964 -0.1256395876 0.5531904101 4291151169
-0.2951124907 -0.1254399419 0.5550265312 4291480120
-0.2947074473 -0.1246519461 0.5542647839 4291282741
-0.2961442471 -0.1246408373 0.5569670200 4290560046
-0.2971206903 -0.1244309247 0.5588033795 4289770530
-0.2980972230 -0.1242169738 0.5606399775 4289834333
-0.3556835055 -0.1969354451 0.6703444719 4286810242
-0.3553144634 -0.1959870905 0.6696489453 4285626688
-0.3544910550 -0.1947906017 0.6680970788 4286284618
-0.3536669612 -0.1935971826 0.6665439606 4287269151
-0.3514798284 -0.1916639656 0.6624219418 4287400737
-0.3479287624 -0.1889989674 0.6557293534 4287598860
-0.3025781214 -0.1637303829 0.5702585578 4287598860
-0.2990133464 -0.1611752957 0.5635401607 4287663888
-0.2977193296 -0.1598543674 0.5611013770 4287795474
-0.2964244783 -0.1585384011 0.5586609840 4288189454
-0.2951287627 -0.1572273970 0.5562189817 4288321040
-0.2942870259 -0.1561627388 0.5546326041 4288780812
-0.2938996255 -0.1553417295 0.5539025068 4288846605
-0.2935117781 -0.1545221210 0.5531715155 4288911635
-0.2926683426 -0.1534652561 0.5515819788 4288977428
-0.2922795415 -0.1526493430 0.5508491993 4288912908
-0.2918903232 -0.1518348455 0.5501156449 4288978701
-0.2915006578 -0.1510217488 0.5493812561 4288979723
-0.2911106050 -0.1502100825 0.5486460924 4289045516
-0.2916314304 -0.1498681456 0.5496277213 4289241614
-0.2907849252 -0.1488242298 0.5480323434 4289373200
-0.2903936803 -0.1480159163 0.5472949743 4289570579
-0.2904579937 -0.1474404633 0.5474161506 4289636372
-0.2900660038 -0.1466340870 0.5466774106 4289570579
-0.2901297510 -0.1460587829 0.5467975736 4289570579
-0.2901932895 -0.1454831064 0.5469173193 4289636370
-0.2898002267 -0.1446792036 0.5461764932 4289636370
-0.2898631990 -0.1441036761 0.5462952256 4289636370
-0.2899259627 -0.1435277760 0.5464134812 4289767956
-0.2899885178 -0.1429515034 0.5465313792 4290030870
-0.2900508344 -0.1423748583 0.5466488004 4290030870
-0.2901129127 -0.1417978406 0.5467658043 4290030870
-0.2901747823 -0.1412204504 0.5468823910 4290162456
-0.2897793651 -0.1404212117 0.5461371541 4290425628
-0.2898406684 -0.1398440003 0.5462527275 4290557214
-0.2899017632 -0.1392664164 0.5463678837 4290820120
-0.2899626195 -0.1386884749 0.5464825630 4291149085
-0.2900232375 -0.1381101608 0.5465968251 4291083558
-0.2900836468 -0.1375314891 0.5467106700 4291149351
-0.2901438177 -0.1369524598 0.5468240976 4291215666
-0.2902037799 -0.1363730729 0.5469370484 4291281459
-0.2902635038 -0.1357933283 0.5470495820 4291479356
-0.2903229892 -0.1352132112 0.5471616983 4292071493
-0.2903822362 -0.1346327513 0.5472733974 4291808580
-0.2908993661 -0.1342633814 0.5482480526 4291940166
-0.2909582555 -0.1336812824 0.5483590364 4292006476
-0.2910169065 -0.1330988556 0.5484695435 4292401234
-0.2906169593 -0.1323073655 0.5477157831 4292730209
-0.2911335230 -0.1319329143 0.5486893058 4292861795
-0.2911914885 -0.1313494295 0.5487985611 4292402022
-0.2912491858 -0.1307655871 0.5489073396 4292270436
-0.2913066745 -0.1301814020 0.5490157008 4292139355
-0.2913639247 -0.1295968741 0.5491235852 4292270941
-0.2914209664 -0.1290119886 0.5492310524 4292138351
-0.2914777398 -0.1284267753 0.5493380427 4292204144
-0.2919933796 -0.1280425489 0.5503098965 4292796014
-0.2925089896 -0.1276561320 0.5512816310 4292927600
-0.2930245101 -0.1272675246 0.5522531867 4292532832
-0.2930805981 -0.1266781688 0.5523589253 4292072281
-0.2935959399 -0.1262861192 0.5533301234 4291743306
-0.2945707440 -0.1260885894 0.5551673174 4291414341
-0.2932474613 -0.1249081120 0.5526733994 4291479867
-0.2937623262 -0.1245122775 0.5536437631 4291348281
-0.2951967418 -0.1245021150 0.5563471317 4291349033
-0.2961715162 -0.1242930591 0.5581842661 4290691103
-0.2966864109 -0.1238878891 0.5591546893 4289768764
-0.2981213927 -0.1238628179 0.5618590713 4290492487
-0.2986363173 -0.1234514117 0.5628295541 4291811247
-0.3541859984 -0.1965176612 0.6689223647 4285362531
-0.3533643782 -0.1953203082 0.6673706770 4285823797
-0.3520889580 -0.1938764900 0.6649618745 4286152762
-0.3503593802 -0.1921889186 0.6616953611 4287072273
-0.3481753170 -0.1902602613 0.6575704813 4287269652
-0.3042716384 -0.1656306237 0.5746531487 4287467020
-0.2998073399 -0.1625713557 0.5662217736 4287532813
-0.2971553802 -0.1605097800 0.5612132549 4287663888
-0.2945019007 -0.1584585160 0.5562018752 4287729681
-0.2936624885 -0.1573906541 0.5546165705 4288254477
-0.2932764292 -0.1565683335 0.5538874269 4288451856
-0.2928899527 -0.1557473987 0.5531575084 4288846094
-0.2925030291 -0.1549278647 0.5524267554 4288780301
-0.2916613817 -0.1538700610 0.5508372188 4288846096
-0.2917279303 -0.1532929987 0.5509628654 4288911889
-0.2913397253 -0.1524776667 0.5502297282 4288978190
-0.2909511030 -0.1516637504 0.5494957566 4289109776
-0.2910167575 -0.1510873139 0.5496197343 4289176587
-0.2906273901 -0.1502753049 0.5488843918 4289242380
-0.2902375758 -0.1494647264 0.5481482148 4289504527
-0.2903023958 -0.1488889307 0.5482705832 4289570320
-0.2899118364 -0.1480802745 0.5475329757 4289636113
-0.2899760902 -0.1475046128 0.5476543307 4289636113
-0.2895847857 -0.1466979086 0.5469152927 4289636113
-0.2896485031 -0.1461223811 0.5470356345 4289636113
-0.2897119820 -0.1455464810 0.5471555591 4289701906
-0.2893196344 -0.1447422653 0.5464144945 4289767699
-0.2893825769 -0.1441665143 0.5465334058 4289570319
-0.2894452810 -0.1435903907 0.5466518402 4289767698
-0.2895077765 -0.1430138797 0.5467698574 4289833491
-0.2895700336 -0.1424370110 0.5468874574 4289833491
-0.2896320820 -0.1418597698 0.5470046401 4289899284
-0.2896938920 -0.1412821561 0.5471213460 4290030870
-0.2892991900 -0.1404825896 0.5463759303 4290162456
-0.2893604636 -0.1399051547 0.5464916229 4290228249
-0.2894214988 -0.1393273473 0.5466068983 4290294292
-0.2894822955 -0.1387491673 0.5467217565 4290557464
-0.2895428836 -0.1381706297 0.5468361378 4290689058
-0.2896032333 -0.1375917345 0.5469501615 4290754851
-0.2896633744 -0.1370124817 0.5470637083 4290755115
-0.2897232771 -0.1364328563 0.5471768379 4290952494
-0.2897829413 -0.1358528733 0.5472895503 4291281977
-0.2898423970 -0.1352725476 0.5474017859 4291808321
-0.2899015844 -0.1346918494 0.5475136042 4291413309
-0.2899605632 -0.1341108084 0.5476250052 4291281723
-0.2900193334 -0.1335293949 0.5477359891 4291348031
-0.2905353606 -0.1331573427 0.5487105846 4291874375
-0.2905937433 -0.1325743198 0.5488208532 4292203606
-0.2901941836 -0.1317830831 0.5480661988 4292466778
-0.2902520001 -0.1312002838 0.5481753945 4292400993
-0.2907674909 -0.1308231503 0.5491489768 4292203614
-0.2908249199 -0.1302387267 0.5492574573 4292072540
-0.2908821404 -0.1296539605 0.5493654609 4292401505
-0.2909390926 -0.1290688515 0.5494731069 4292401508
-0.2909958363 -0.1284833997 0.5495802164 4292269922
-0.2905939817 -0.1276961863 0.5488212705 4292269660
-0.2915670276 -0.1275119632 0.5506590009 4292072281
-0.2920816839 -0.1271241307 0.5516309738 4291940693
-0.2921376526 -0.1265354604 0.5517367125 4292006486
-0.2926520705 -0.1261441857 0.5527082682 4291744070
-0.2936252356 -0.1259475052 0.5545461774 4291744070
-0.2932218611 -0.1251592040 0.5537843704 4291611969
-0.2928180993 -0.1243724003 0.5530217886 4291217211
-0.2951681912 -0.1247512102 0.5574601889 4291349035
-0.2956823707 -0.1243480667 0.5584312677 4291151656
-0.2971149087 -0.1243270561 0.5611367822 4290820658
-0.2967104912 -0.1235352159 0.5603730083 4290425900
-0.3526062965 -0.1967938840 0.6673387289 4286415210
-0.3522385657 -0.1958479583 0.6666427851 4285494108
-0.3514180779 -0.1946527958 0.6650899053 4285955627
-0.3492397666 -0.1927118301 0.6609672904 4285824041
-0.3470601141 -0.1907792985 0.6568421125 4287006222
-0.3430687487 -0.1878638268 0.6492880583 4287203601
-0.3005953729 -0.1639734060 0.5689034462 4287335437
-0.2974962592 -0.1616572738 0.5630381107 4287467023
-0.2953012586 -0.1598435640 0.5588839054 4287860749
-0.2944640517 -0.1587712020 0.5572993755 4287926542
-0.2936262190 -0.1577019989 0.5557137132 4288320009
-0.2927877307 -0.1566359997 0.5541267991 4288517388
-0.2924019396 -0.1558147371 0.5533966422 4288648715
-0.2920157313 -0.1549948901 0.5526657104 4288648715
-0.2916291058 -0.1541764289 0.5519339442 4288648974
-0.2912420332 -0.1533593684 0.5512014031 4288780560
-0.2908545434 -0.1525437236 0.5504680276 4288912397
-0.2904666066 -0.1517294645 0.5497338772 4289109776
-0.2900782526 -0.1509166360 0.5489988923 4289241612
-0.2901435494 -0.1503404826 0.5491224527 4289373198
-0.2897544503 -0.1495295763 0.5483860373 4289570320
-0.2889106870 -0.1484866142 0.5467891097 4289570320
-0.2894293666 -0.1481445879 0.5477707982 4289570320
-0.2890391052 -0.1473370343 0.5470321774 4289636113
-0.2891029716 -0.1467616707 0.5471530557 4289636113
-0.2891666293 -0.1461859345 0.5472735167 4289636113
-0.2892300785 -0.1456098109 0.5473936200 4289832721
-0.2888384163 -0.1448052675 0.5466523767 4289832721
-0.2884463370 -0.1440021545 0.5459102988 4289766928
-0.2889639735 -0.1436529458 0.5468899608 4289832721
-0.2885712385 -0.1428509057 0.5461467505 4289832721
-0.2886333764 -0.1422747076 0.5462642908 4289898514
-0.2886952758 -0.1416981518 0.5463814139 4290030354
-0.2887569368 -0.1411212236 0.5464981794 4290096147
-0.2883628309 -0.1403222531 0.5457522869 4290096147
-0.2884239554 -0.1397454888 0.5458679795 4290096147
-0.2889405787 -0.1393882185 0.5468457341 4290096663
-0.2890013456 -0.1388098300 0.5469607115 4290359835
-0.2890619040 -0.1382310688 0.5470753312 4290557474
-0.2891221941 -0.1376519352 0.5471894741 4290754853
-0.2887261510 -0.1368562430 0.5464398861 4290755114
-0.2887859046 -0.1362773180 0.5465530157 4290952493
-0.2888454497 -0.1356980205 0.5466656685 4291150389
-0.2889047563 -0.1351183653 0.5467779040 4291479354
-0.2889638245 -0.1345383674 0.5468897223 4291281977
-0.2894792557 -0.1341696233 0.5478652120 4291216184
-0.2895379663 -0.1335879862 0.5479763150 4291348029
-0.2895964086 -0.1330060065 0.5480869412 4291676994
-0.2896546721 -0.1324236691 0.5481972098 4291809097
-0.2897126675 -0.1318409741 0.5483069420 4292006476
-0.2897704542 -0.1312579364 0.5484163165 4292072530
-0.2898279727 -0.1306745559 0.5485252142 4292006737
-0.2898852825 -0.1300908178 0.5486336350 4291940697
-0.2903996706 -0.1297110021 0.5496072173 4292138076
-0.2899991870 -0.1289223135 0.5488492250 4292072784
-0.2905133069 -0.1285399795 0.5498222113 4291941198
-0.2901121676 -0.1277524382 0.5490630865 4291808847
-0.2910836637 -0.1275681555 0.5509017110 4291677261
-0.2911397219 -0.1269805133 0.5510078073 4291677772
-0.2916534245 -0.1265912652 0.5519800186 4292072530
-0.2917090952 -0.1260020286 0.5520853996 4291744579
-0.2922225893 -0.1256093383 0.5530571938 4291612993
-0.2922778726 -0.1250185072 0.5531618595 4291480896
-0.2918747365 -0.1242323071 0.5523988605 4291283517
-0.2937625945 -0.1244181320 0.5559718013 4291217198
-0.2942757905 -0.1240166873 0.5569431186 4291282991
-0.2952473760 -0.1238052920 0.5587819219 4291544367
-0.2957605422 -0.1233985424 0.5597530603 4290754851
-0.2971908450 -0.1233703718 0.5624600649 4289572933
-0.2963278592 -0.1223890111 0.5608268380 4291020379
-0.3506622612 -0.1961211562 0.6650574803 4285954647
-0.3498435020 -0.1949260235 0.6635046005 4285823061
-0.3490240276 -0.1937339604 0.6619504094 4286020640
-0.3468489945 -0.1917957664 0.6578253508 4285823261
-0.3433174491 -0.1891194880 0.6511274576 4286940174
-0.3018293381 -0.1656293571 0.5724421144 4287071760
-0.2978329360 -0.1628087312 0.5648626685 4287203599
-0.2956426442 -0.1609884351 0.5607085824 4287466771
-0.2943553925 -0.1596671939 0.5582672358 4287794954
-0.2930672765 -0.1583509296 0.5558242202 4287926540
-0.2917782962 -0.1570396274 0.5533795953 4288385545
-0.2922984064 -0.1567036062 0.5543659925 4288517131
-0.2914607227 -0.1556403488 0.5527772903 4288582924
-0.2910751104 -0.1548210680 0.5520459414 4288582924
-0.2902362943 -0.1537633091 0.5504550338 4288583181
-0.2907554805 -0.1534256786 0.5514397621 4288648974
-0.2899157107 -0.1523716301 0.5498470664 4288846607
-0.2899814844 -0.1517951488 0.5499718189 4288978193
-0.2895938456 -0.1509819776 0.5492365956 4289175310
-0.2892057896 -0.1501702368 0.5485005975 4289241103
-0.2883639038 -0.1491254419 0.5469039083 4289372687
-0.2888818979 -0.1487845778 0.5478863120 4289504273
-0.2884926498 -0.1479761899 0.5471481085 4289570066
-0.2885566950 -0.1474009752 0.5472695827 4289635859
-0.2881667316 -0.1465945393 0.5465299487 4289636113
-0.2882302403 -0.1460194737 0.5466504097 4289636113
-0.2882935107 -0.1454440355 0.5467703938 4289766929
-0.2883565724 -0.1448682100 0.5468900204 4289832722
-0.2879652083 -0.1440647840 0.5461477637 4289832721
-0.2880277336 -0.1434891224 0.5462663174 4289832721
-0.2880900204 -0.1429130882 0.5463844538 4289832721
-0.2881520987 -0.1423366666 0.5465021729 4289898514
-0.2877593338 -0.1415362954 0.5457572937 4290030354
-0.2878208458 -0.1409600526 0.5458739996 4290096147
-0.2878821492 -0.1403834373 0.5459902287 4290161427
-0.2879432440 -0.1398064494 0.5461061001 4290161427
-0.2880040705 -0.1392291039 0.5462214947 4289899544
-0.2880646884 -0.1386513859 0.5463364720 4290162716
-0.2881250978 -0.1380733103 0.5464509726 4290425886
-0.2881852686 -0.1374948770 0.5465651155 4290689058
-0.2882452011 -0.1369160712 0.5466787815 4290886439
-0.2883048952 -0.1363369077 0.5467920303 4291149611
-0.2883643806 -0.1357573867 0.5469048619 4291281459
-0.2884236574 -0.1351775080 0.5470172167 4291413045
-0.2884826660 -0.1345972717 0.5471291542 4290953271
-0.2885414660 -0.1340166777 0.5472406745 4291216443
-0.2886000276 -0.1334357262 0.5473517179 4291480132
-0.2886583507 -0.1328544319 0.5474624038 4291611718
-0.2887164652 -0.1322727799 0.5475725532 4291611718
-0.2887743413 -0.1316907853 0.5476823449 4291809097
-0.2888319790 -0.1311084330 0.5477916598 4292006476
-0.2893457413 -0.1307319254 0.5487660766 4292138062
-0.2894030213 -0.1301479638 0.5488746762 4291874387
-0.2894600332 -0.1295636445 0.5489827991 4291874387
-0.2895168364 -0.1289789975 0.5490905643 4291809350
-0.2895734012 -0.1283939928 0.5491977930 4291677764
-0.2900865376 -0.1280102432 0.5501710176 4291676491
-0.2901427150 -0.1274236292 0.5502775908 4291676491
-0.2906556726 -0.1270364225 0.5512503982 4291611973
-0.2911685407 -0.1266470253 0.5522231460 4291743559
-0.2912241817 -0.1260575503 0.5523286462 4291678788
-0.2908223271 -0.1252707839 0.5515664816 4291415616
-0.2922494709 -0.1252696812 0.5542731881 4291219005
-0.2918471098 -0.1244822294 0.5535101295 4291219005
-0.2928169370 -0.1242788509 0.5553494692 4291414327
-0.2937868536 -0.1240714341 0.5571889877 4291414327
-0.2942991853 -0.1236676425 0.5581606627 4291544110
-0.2943536639 -0.1230702624 0.5582639575 4290886180
-0.2962393463 -0.1232344285 0.5618402958 4289966644
-0.2967516184 -0.1228222102 0.5628118515 4290229816
-0.3495390117 -0.1966437101 0.6643265486 4286020725
-0.3487220407 -0.1954477131 0.6627737880 4286019921
-0.3479043841 -0.1942547858 0.6612197757 4285756749
-0.3466352820 -0.1928141862 0.6588077545 4285954585
-0.3440126777 -0.1906289309 0.6538232565 4285691413
-0.3377807140 -0.1864623129 0.6419789791 4286874129
-0.2995186746 -0.1647083461 0.5692589283 4287005715
-0.2959798276 -0.1621372849 0.5625330806 4287203601
-0.2942442298 -0.1605651826 0.5592344403 4287466773
-0.2929589748 -0.1592451930 0.5567917228 4287794696
-0.2921243906 -0.1581746489 0.5552054644 4287926282
-0.2912891507 -0.1571072936 0.5536180139 4288385543
-0.2909049988 -0.1562857926 0.5528879166 4288517129
-0.2905203998 -0.1554656923 0.5521569848 4288516877
-0.2901353836 -0.1546469927 0.5514252186 4288582670
-0.2897499502 -0.1538296789 0.5506926775 4288583181
-0.2893640697 -0.1530137807 0.5499593019 4288648974
-0.2894300222 -0.1524374634 0.5500845909 4288715021
-0.2885910571 -0.1513862014 0.5484901071 4288780814
-0.2886563540 -0.1508108974 0.5486142039 4288911885
-0.2882688940 -0.1499997377 0.5478778481 4289043471
-0.2878810167 -0.1491899937 0.5471405983 4289044237
-0.2883982062 -0.1488490105 0.5481235981 4289241616
-0.2880096734 -0.1480402946 0.5473851562 4289570066
-0.2880736589 -0.1474648714 0.5475067496 4289635859
-0.2876844108 -0.1466581076 0.5467669368 4289570066
-0.2877478600 -0.1460828185 0.5468875170 4289570066
-0.2873578370 -0.1452780217 0.5461462736 4289636113
-0.2874207497 -0.1447028816 0.5462658405 4289767699
-0.2874834538 -0.1441273689 0.5463849902 4289701135
-0.2875459194 -0.1435514838 0.5465037227 4289701135
-0.2876081467 -0.1429752111 0.5466220379 4289832721
-0.2876701653 -0.1423985809 0.5467398763 4289898514
-0.2872781456 -0.1415978819 0.5459948182 4289964561
-0.2873395979 -0.1410214156 0.5461116433 4289964561
-0.2874008417 -0.1404445767 0.5462280512 4290161427
-0.2874618769 -0.1398673654 0.5463440418 4290095634
-0.2875226736 -0.1392897964 0.5464595556 4289767958
-0.2875832617 -0.1387118548 0.5465747118 4290031130
-0.2876436114 -0.1381335557 0.5466893911 4290228762
-0.2877037227 -0.1375548840 0.5468036532 4290426141
-0.2877635956 -0.1369758546 0.5469174981 4290689313
-0.2878232598 -0.1363964677 0.5470308661 4291018278
-0.2878827155 -0.1358167082 0.5471438169 4291149873
-0.2879419029 -0.1352366060 0.5472563505 4291347252
-0.2880008817 -0.1346561313 0.5473684669 4291347778
-0.2880596220 -0.1340753138 0.5474801064 4291874122
-0.2881181538 -0.1334941387 0.5475913286 4292137813
-0.2881764472 -0.1329126060 0.5477020741 4291940434
-0.2882345021 -0.1323307306 0.5478124022 4291611469
-0.2882923186 -0.1317484826 0.5479223132 4291545676
-0.2883498967 -0.1311659068 0.5480318069 4291743055
-0.2884072661 -0.1305829734 0.5481408238 4291874641
-0.2889201045 -0.1302050650 0.5491154790 4291874124
-0.2889770865 -0.1296205223 0.5492237806 4291874124
-0.2890338302 -0.1290356219 0.5493316650 4291743041
-0.2890903354 -0.1284503937 0.5494390726 4291611455
-0.2891466320 -0.1278648078 0.5495460033 4291544906
-0.2892026603 -0.1272788942 0.5496525168 4291544906
-0.2897147238 -0.1268924624 0.5506257415 4291348797
-0.2902266979 -0.1265038401 0.5515987873 4291085625
-0.2907386422 -0.1261130422 0.5525717735 4290955583
-0.2912504971 -0.1257200390 0.5535445809 4290955583
-0.2922740281 -0.1249274686 0.5554898977 4291284798
-0.2927857041 -0.1245279014 0.5564623475 4291414072
-0.2942109704 -0.1245128289 0.5591711998 4291414072
-0.2938087881 -0.1237221956 0.5584068298 4291478063
-0.2948316336 -0.1229077205 0.5603507757 4290689335
-0.2980860472 -0.1236349419 0.5665360689 4290426163
-0.2967686653 -0.1224618703 0.5640323162 4290297698
-0.3476014733 -0.1959673464 0.6620415449 4285560954
-0.3467856050 -0.1947735548 0.6604877114 4286284602
-0.3455191851 -0.1933310926 0.6580756903 4286087223
-0.3433518708 -0.1913918108 0.6539477706 4286480403
-0.3402829766 -0.1889610589 0.6481027603 4286480403
-0.3029958904 -0.1676141322 0.5770857930 4286939916
-0.2976637781 -0.1640345752 0.5669302940 4287203088
-0.2945810556 -0.1617123932 0.5610589385 4287531533
-0.2932987511 -0.1603877991 0.5586166978 4287663119
-0.2920156121 -0.1590681821 0.5561727881 4287794954
-0.2911823690 -0.1579981148 0.5545858145 4287794954
-0.2903485000 -0.1569312215 0.5529975891 4287992840
-0.2899649441 -0.1561103016 0.5522670746 4288256012
-0.2895809412 -0.1552907676 0.5515357256 4288321292
-0.2896476984 -0.1547136307 0.5516628623 4288321292
-0.2888116837 -0.1536559165 0.5500705838 4288517388
-0.2893291712 -0.1533189714 0.5510562062 4288648974
-0.2884922028 -0.1522649676 0.5494621396 4288846094
-0.2885577977 -0.1516889334 0.5495870113 4288846094
-0.2881714404 -0.1508760452 0.5488511920 4288781065
-0.2882364690 -0.1503001302 0.5489750504 4288912651
-0.2878493965 -0.1494891644 0.5482378006 4288978190
-0.2874619067 -0.1486796141 0.5474997759 4289241362
-0.2879781723 -0.1483372152 0.5484830737 4289635859
-0.2875900269 -0.1475287080 0.5477437973 4289701652
-0.2876537442 -0.1469526738 0.5478651524 4289701138
-0.2872648537 -0.1461461186 0.5471245050 4289569552
-0.2873280346 -0.1455702335 0.5472448468 4289372941
-0.2869384289 -0.1447656304 0.5465027690 4289570320
-0.2865483761 -0.1439624727 0.5457598567 4289701905
-0.2870634794 -0.1436137855 0.5467409492 4289636112
-0.2866727710 -0.1428116858 0.5459968448 4289832975
-0.2867346406 -0.1422357410 0.5461146832 4289898768
-0.2867963016 -0.1416594237 0.5462321043 4289964046
-0.2868577242 -0.1410827190 0.5463490486 4289964046
-0.2864656448 -0.1402836889 0.5456023216 4290096145
-0.2865265310 -0.1397071779 0.5457183123 4290161938
-0.2865871787 -0.1391302943 0.5458338261 4289833753
-0.2866476178 -0.1385530382 0.5459489226 4290031132
-0.2867078185 -0.1379754245 0.5460635424 4290162454
-0.2867677808 -0.1373974383 0.5461778045 4290425626
-0.2868275344 -0.1368190944 0.5462915897 4290491168
-0.2868870497 -0.1362403929 0.5464049578 4290951719
-0.2869463563 -0.1356613338 0.5465178490 4291281458
-0.2870054245 -0.1350819170 0.5466303825 4291742009
-0.2870642543 -0.1345021278 0.5467424393 4292006227
-0.2871228755 -0.1339219958 0.5468540788 4292532571
-0.2871812284 -0.1333415061 0.5469652414 4292729716
-0.2872394025 -0.1327606738 0.5470759869 4292663923
-0.2872973084 -0.1321794689 0.5471863151 4292335463
-0.2873550057 -0.1315979362 0.5472961664 4292532842
-0.2878672183 -0.1312233359 0.5482717156 4292269662
-0.2879245281 -0.1306401789 0.5483809114 4291940697
-0.2884365618 -0.1302621216 0.5493561029 4292071503
-0.2884934843 -0.1296773404 0.5494645238 4291742538
-0.2885501981 -0.1290922165 0.5495725274 4291808327
-0.2886066735 -0.1285067499 0.5496801138 4291676741
-0.2886629105 -0.1279209256 0.5497872233 4291479869
-0.2887189090 -0.1273347735 0.5498938560 4291479869
-0.2892301381 -0.1269481927 0.5508675575 4291216695
-0.2892857492 -0.1263604313 0.5509734750 4291085109
-0.2897967994 -0.1259704083 0.5519468188 4291216697
-0.2903077602 -0.1255781800 0.5529199839 4291414076
-0.2903628349 -0.1249875575 0.5530248880 4291676996
-0.2908735871 -0.1245918795 0.5539976954 4291611203
-0.2913842797 -0.1241940111 0.5549703240 4291545662
-0.2918948829 -0.1237939522 0.5559428334 4291545662
-0.2928615808 -0.1235842034 0.5577840209 4291414072
-0.2933721542 -0.1231788322 0.5587564111 4291019314
-0.2947953045 -0.1231525466 0.5614669919 4290624047
-0.2957623005 -0.1229306385 0.5633087158 4290689840
-0.2967293859 -0.1227046773 0.5651506186 4290166065
-0.2963267863 -0.1219111159 0.5643838644 4291481925
-0.3455841243 -0.1959758997 0.6595945954 4286416250
-0.3452187777 -0.1950366497 0.6588973403 4285297769
-0.3448529840 -0.1940986812 0.6581991315 4286218545
-0.3431393206 -0.1924064755 0.6549283862 4285889580
-0.3405260444 -0.1902190149 0.6499405503 4286611474
-0.3329683542 -0.1852911711 0.6355157495 4286611474
-0.2997877598 -0.1661909968 0.5721859932 4286873868
-0.2958127856 -0.1633601040 0.5645992160 4287268626
-0.2936343551 -0.1615343988 0.5604413748 4287531535
-0.2919043899 -0.1599636972 0.5571395159 4287531535
-0.2910731435 -0.1588909030 0.5555529594 4287663370
-0.2902412713 -0.1578212976 0.5539652109 4287729163
-0.2894087434 -0.1567548811 0.5523762107 4287861000
-0.2890257835 -0.1559345424 0.5516452789 4288189965
-0.2890926898 -0.1553575844 0.5517730117 4287992073
-0.2887089849 -0.1545391381 0.5510406494 4288057866
-0.2883248627 -0.1537220776 0.5503074527 4288320011
-0.2888415158 -0.1533850133 0.5512936115 4288451597
-0.2880060375 -0.1523305923 0.5496989489 4288648715
-0.2880715430 -0.1517543495 0.5498239994 4288714508
-0.2876859009 -0.1509411186 0.5490879416 4288780811
-0.2877508998 -0.1503649950 0.5492119789 4288912397
-0.2873645127 -0.1495537162 0.5484745502 4289043724
-0.2869777381 -0.1487438381 0.5477362871 4289241103
-0.2870418429 -0.1481683552 0.5478586555 4289438482
-0.2871057391 -0.1475924999 0.5479806066 4289438482
-0.2871693969 -0.1470162421 0.5481021404 4289569552
-0.2867812216 -0.1462093592 0.5473612547 4289503759
-0.2868443727 -0.1456332505 0.5474817753 4289372687
-0.2869072855 -0.1450567693 0.5476018190 4289570066
-0.2860661149 -0.1440248489 0.5459963679 4289504527
-0.2861283720 -0.1434494257 0.5461152196 4289504527
-0.2861904204 -0.1428736299 0.5462335944 4289701135
-0.2862522602 -0.1422974467 0.5463516116 4289832721
-0.2863138318 -0.1417209059 0.5464692116 4289964561
-0.2863752246 -0.1411439925 0.5465863347 4289964561
-0.2859838605 -0.1403446347 0.5458393693 4290030354
-0.2860446870 -0.1397679001 0.5459554791 4290161940
-0.2861053050 -0.1391907781 0.5460711122 4289899797
-0.2861656845 -0.1386132985 0.5461863875 4290031383
-0.2862258255 -0.1380354613 0.5463011861 4290096915
-0.2862857580 -0.1374572515 0.5464155674 4290162708
-0.2863454521 -0.1368786842 0.5465295315 4290293789
-0.2864049375 -0.1362997591 0.5466430187 4290820133
-0.2864641845 -0.1357204616 0.5467560887 4291084077
-0.2865231931 -0.1351408213 0.5468687415 4291742007
-0.2865819633 -0.1345608085 0.5469809771 4292532317
-0.2866405249 -0.1339804530 0.5470927358 4293453419
-0.2866988778 -0.1333997250 0.5472040772 4293650571
-0.2867569625 -0.1328186542 0.5473149419 4293584778
-0.2868148386 -0.1322372258 0.5474253893 4293255811
-0.2868724763 -0.1316554546 0.5475354195 4293255811
-0.2869298756 -0.1310733259 0.5476449728 4292729719
-0.2874411643 -0.1306973249 0.5486208200 4292269168
-0.2874981761 -0.1301135868 0.5487296581 4292005973
-0.2880092561 -0.1297341138 0.5497051477 4291611215
-0.2876115441 -0.1289450526 0.5489460230 4291611973
-0.2881223559 -0.1285630465 0.5499209762 4291480387
-0.2881785333 -0.1279769987 0.5500282049 4291545658
-0.2882345021 -0.1273906082 0.5501350164 4291479865
-0.2887449265 -0.1270038933 0.5511092544 4291085107
-0.2888004780 -0.1264158934 0.5512152910 4290953521
-0.2893107235 -0.1260257065 0.5521891117 4291216697
-0.2893658876 -0.1254361123 0.5522944331 4291282490
-0.2898758948 -0.1250424683 0.5532678962 4291479869
-0.2899307013 -0.1244512722 0.5533724427 4291677248
-0.2908957303 -0.1242486164 0.5552143455 4291808317
-0.2914055288 -0.1238484010 0.5561873913 4291676731
-0.2919152677 -0.1234459952 0.5571602583 4291348019
-0.2924249172 -0.1230413988 0.5581330061 4291084847
-0.2933900952 -0.1228253320 0.5599751472 4290690089
-0.2943553329 -0.1226052046 0.5618174672 4290624296
-0.2948649526 -0.1221921667 0.5627901554 4290033963
-0.2953744829 -0.1217769310 0.5637626052 4290626100
-0.3441026211 -0.1955503076 0.6581621766 4285889629
-0.3432896137 -0.1943587363 0.6566071510 4285560664
-0.3424758911 -0.1931702346 0.6550507545 4286350118
-0.3407647610 -0.1914809197 0.6517779231 4285955360
-0.3368101120 -0.1885429770 0.6442138553 4286743058
-0.2974147201 -0.1658577770 0.5688626170 4286545679
-0.2925498784 -0.1625231206 0.5595576763 4286873872
-0.2944145203 -0.1629333198 0.5631241798 4287268630
-0.2913417816 -0.1606136858 0.5572469831 4287334674
-0.2923084795 -0.1605254263 0.5590959787 4287203088
-0.2901315689 -0.1587133706 0.5549321771 4287531786
-0.2897502482 -0.1578890234 0.5542029142 4287597579
-0.2889192104 -0.1568221748 0.5526133180 4287794696
-0.2885369360 -0.1560015082 0.5518822074 4288123661
-0.2886038125 -0.1554243267 0.5520100594 4288188684
-0.2882207930 -0.1546055675 0.5512775183 4288188684
-0.2882871330 -0.1540284902 0.5514043570 4288254220
-0.2879033685 -0.1532116234 0.5506703854 4288320013
-0.2875191867 -0.1523961574 0.5499355793 4288451338
-0.2875846624 -0.1518197060 0.5500607491 4288714510
-0.2871997356 -0.1510061622 0.5493245125 4288912398
-0.2872646749 -0.1504298151 0.5494487286 4288978191
-0.2868790030 -0.1496182084 0.5487110615 4289043724
-0.2864929140 -0.1488080174 0.5479726195 4289175310
-0.2865569890 -0.1482323110 0.5480951071 4289306896
-0.2861701548 -0.1474240571 0.5473552346 4289306896
-0.2862336934 -0.1468484998 0.5474767685 4289437966
-0.2858461142 -0.1460421979 0.5467354655 4289372173
-0.2859090865 -0.1454667896 0.5468559265 4289241101
-0.2855832279 -0.1440871805 0.5462326407 4289372687
-0.2856454551 -0.1435115337 0.5463516712 4289438480
-0.2857074440 -0.1429355145 0.5464702249 4289569550
-0.2857692242 -0.1423591226 0.5465883613 4289701136
-0.2858307660 -0.1417823434 0.5467060804 4289898514
-0.2858920693 -0.1412052065 0.5468233824 4290030100
-0.2855014503 -0.1404055357 0.5460761786 4289899285
-0.2855622172 -0.1398285627 0.5461924672 4290030871
-0.2856227756 -0.1392512321 0.5463082790 4289833491
-0.2856830955 -0.1386735290 0.5464236736 4289965077
-0.2857432067 -0.1380954534 0.5465386510 4290161940
-0.2858030796 -0.1375170201 0.5466531515 4290227733
-0.2858627439 -0.1369382292 0.5467672348 4290424348
-0.2854697406 -0.1361433119 0.5460155606 4291016485
-0.2855288386 -0.1355647147 0.5461286306 4290952232
-0.2855877280 -0.1349857450 0.5462412238 4291675955
-0.2856463790 -0.1344064325 0.5463533998 4292203865
-0.2861575782 -0.1340388507 0.5473312140 4293388139
-0.2862158716 -0.1334578991 0.5474426746 4293585554
-0.2862738967 -0.1328765899 0.5475537181 4293717140
-0.2863317430 -0.1322949380 0.5476642847 4293650838
-0.2863893211 -0.1317129284 0.5477744341 4293716631
-0.2864466906 -0.1311305761 0.5478841662 4293387148
-0.2869571447 -0.1307544261 0.5488605499 4292795011
-0.2870141268 -0.1301704496 0.5489695072 4292466275
-0.2875244021 -0.1297908425 0.5499454737 4291808345
-0.2876373827 -0.1286193132 0.5501616001 4291545925
-0.2876935303 -0.1280330271 0.5502690077 4291545911
-0.2877494395 -0.1274464130 0.5503759384 4291545911
-0.2882590592 -0.1270595342 0.5513507128 4291150900
-0.2883145809 -0.1264712960 0.5514568686 4291216693
-0.2888239920 -0.1260809749 0.5524312258 4291347770
-0.2888791561 -0.1254911274 0.5525367260 4291281977
-0.2893883288 -0.1250973344 0.5535106659 4291545145
-0.2903518677 -0.1248968169 0.5553535819 4292137282
-0.2908610106 -0.1244977117 0.5563274026 4292465984
-0.2913700938 -0.1240964085 0.5573011041 4292005433
-0.2909698188 -0.1233075783 0.5565355420 4291413294
-0.2923880517 -0.1232872307 0.5592481494 4291215915
-0.2915324867 -0.1223069280 0.5576117039 4290821929
-0.2934056818 -0.1224692762 0.5611945987 4290558757
-0.2939144075 -0.1220570058 0.5621675849 4290099492
-0.2944230437 -0.1216425374 0.5631404519 4290033699
-0.3425401449 -0.1958062798 0.6565684676 4287271054
-0.3421761394 -0.1948694736 0.6558707356 4286218574
-0.3413642347 -0.1936801076 0.6543145180 4285889609
-0.3401041627 -0.1922408789 0.6518992186 4286218522
-0.3379479647 -0.1903023869 0.6477662921 4286152729
-0.3331041038 -0.1868653595 0.6384817958 4286743058
-0.3004923463 -0.1679307967 0.5759727359 4286479886
-0.2956366837 -0.1645876020 0.5666655898 4286873618
-0.2930186391 -0.1625060588 0.5616474748 4287202583
-0.2903991342 -0.1604348272 0.5566264391 4287203088
-0.2895711362 -0.1593607068 0.5550394058 4287071502
-0.2887425125 -0.1582897604 0.5534511209 4287399946
-0.2883616984 -0.1574668884 0.5527212024 4287597325
-0.2879804671 -0.1566454172 0.5519904494 4287860490
-0.2880474925 -0.1560684144 0.5521188974 4288057869
-0.2876655161 -0.1552488357 0.5513867736 4288386064
-0.2873492837 -0.1538542509 0.5507805943 4288254220
-0.2874152064 -0.1532774568 0.5509070158 4288188427
-0.2870317400 -0.1524616778 0.5501719713 4288320009
-0.2870971560 -0.1518850029 0.5502973199 4288583181
-0.2867129445 -0.1510711312 0.5495609045 4288911885
-0.2867778242 -0.1504945755 0.5496852398 4288977678
-0.2863928676 -0.1496826410 0.5489473939 4289241103
-0.2860074937 -0.1488721222 0.5482087135 4289241103
-0.2856217027 -0.1480630338 0.5474692583 4289306126
-0.2856853902 -0.1474876404 0.5475913286 4289174540
-0.2857488394 -0.1469118595 0.5477129817 4289240333
-0.2853620052 -0.1461052448 0.5469714403 4289174540
-0.2854249179 -0.1455295980 0.5470920801 4289109515
-0.2854876220 -0.1449535787 0.5472123027 4289372687
-0.2850997150 -0.1441494524 0.5464687347 4289438480
-0.2851618826 -0.1435735822 0.5465878844 4289438480
-0.2852238119 -0.1429973394 0.5467066169 4289504273
-0.2852855325 -0.1424207240 0.5468249321 4289570066
-0.2848962545 -0.1416196525 0.5460787416 4289767699
-0.2849574387 -0.1410432011 0.5461959839 4289833492
-0.2850183845 -0.1404663771 0.5463128090 4289899285
-0.2850791216 -0.1398891807 0.5464292169 4289965078
-0.2851396203 -0.1393116266 0.5465452075 4289767445
-0.2847486436 -0.1385141760 0.5457957983 4289833238
-0.2848085761 -0.1379368007 0.5459107161 4290095636
-0.2848683298 -0.1373590529 0.5460252166 4290029843
-0.2849278450 -0.1367809474 0.5461392403 4290161174
-0.2849871218 -0.1362024844 0.5462529063 4290555932
-0.2850461602 -0.1356236488 0.5463660955 4290228762
-0.2851049900 -0.1350444704 0.5464788675 4290820899
-0.2851635814 -0.1344649196 0.5465911627 4291480396
-0.2852219641 -0.1338850260 0.5467030406 4292664670
-0.2852801085 -0.1333047599 0.5468145013 4292665220
-0.2853380144 -0.1327241510 0.5469254851 4292928392
-0.2853957117 -0.1321431845 0.5470360518 4293323152
-0.2854531705 -0.1315618753 0.5471462011 4293915289
-0.2859628499 -0.1311877817 0.5481231809 4294177683
-0.2860199511 -0.1306048334 0.5482326150 4293782925
-0.2865294516 -0.1302272826 0.5492091775 4293058422
-0.2865861654 -0.1296427250 0.5493178964 4292268906
-0.2866426408 -0.1290578246 0.5494261384 4291940685
-0.2871517837 -0.1286755353 0.5504021049 4291677513
-0.2872079015 -0.1280890107 0.5505096316 4291480888
-0.2872637510 -0.1275021583 0.5506166816 4291283509
-0.2877725661 -0.1271151304 0.5515919328 4291216693
-0.2878280580 -0.1265266687 0.5516983271 4291414072
-0.2883366644 -0.1261361837 0.5526731610 4291347516
-0.2883917391 -0.1255461127 0.5527787805 4291281723
-0.2889001369 -0.1251521707 0.5537532568 4291611193
-0.2889548540 -0.1245604903 0.5538581014 4292203330
-0.2894630134 -0.1241630837 0.5548321605 4292531775
-0.2908786833 -0.1241508573 0.5575456619 4292137017
-0.2904791534 -0.1233617067 0.5567798018 4291544880
-0.2914410532 -0.1231495440 0.5586235523 4291281708
-0.2924030721 -0.1229333282 0.5604675412 4290690602
-0.2929110527 -0.1225230917 0.5614411831 4290427430
-0.2929647267 -0.1219216287 0.5615441203 4290165275
-0.3406171203 -0.1951224059 0.6542753577 4286020726
-0.3402534723 -0.1941879243 0.6535767913 4286481217
-0.3394427001 -0.1930007637 0.6520194411 4285954873
-0.3377377689 -0.1913105696 0.6487445235 4286085904
-0.3342443109 -0.1886183769 0.6420341134 4286349076
-0.2963331640 -0.1665921807 0.5692123771 4286545681
-0.2977452576 -0.1667505801 0.5719248056 4286479888
-0.2942389250 -0.1641589105 0.5651896000 4286939411
-0.2920724750 -0.1623268872 0.5610282421 4287070997
-0.2907995284 -0.1609987766 0.5585830808 4287071502
-0.2899731994 -0.1599224359 0.5569958091 4287005709
-0.2891462445 -0.1588492692 0.5554074049 4287399946
-0.2883186638 -0.1577792764 0.5538176894 4287663118
-0.2879382372 -0.1569565833 0.5530869961 4287926283
-0.2875573933 -0.1561352760 0.5523554087 4288123662
-0.2876241505 -0.1555576622 0.5524836183 4288320271
-0.2872425616 -0.1547382623 0.5517506599 4288254478
-0.2868605256 -0.1539202482 0.5510168672 4288254220
-0.2869264185 -0.1533432454 0.5511434078 4288188427
-0.2865436673 -0.1525271386 0.5504081845 4288385802
-0.2866090238 -0.1519502401 0.5505337119 4288583181
-0.2862255275 -0.1511360556 0.5497971177 4288780301
-0.2858416140 -0.1503232867 0.5490596294 4288780301
-0.2859061062 -0.1497470289 0.5491834879 4289043724
-0.2855214179 -0.1489361972 0.5484446287 4289175310
-0.2851363420 -0.1481267810 0.5477049351 4289241103
-0.2851999700 -0.1475511640 0.5478271842 4289175310
-0.2852633893 -0.1469751596 0.5479490161 4289241103
-0.2848772705 -0.1461682320 0.5472072959 4289109517
-0.2849401236 -0.1455923617 0.5473280549 4288977929
-0.2845532596 -0.1447874010 0.5465849042 4289175308
-0.2846155763 -0.1442116797 0.5467046499 4289372687
-0.2846776843 -0.1436355859 0.5468239188 4289438480
-0.2847395837 -0.1430591345 0.5469428301 4289570066
-0.2848012447 -0.1424822807 0.5470612645 4289701652
-0.2844126821 -0.1416808963 0.5463148952 4289767445
-0.2844738066 -0.1411042213 0.5464323163 4289833238
-0.2845346928 -0.1405271739 0.5465492606 4289899285
-0.2845953703 -0.1399497539 0.5466658473 4289833492
-0.2846558392 -0.1393719614 0.5467819571 4289964824
-0.2842655778 -0.1385741979 0.5460323095 4289899031
-0.2843254805 -0.1379965991 0.5461474061 4290095634
-0.2843851745 -0.1374186277 0.5462620258 4290029841
-0.2844446301 -0.1368402988 0.5463762283 4290029843
-0.2845038474 -0.1362615973 0.5464900136 4290490394
-0.2845628560 -0.1356825531 0.5466033816 4290096921
-0.2846216261 -0.1351031363 0.5467162728 4290557472
-0.2846801877 -0.1345233619 0.5468287468 4291085638
-0.2847385108 -0.1339432299 0.5469407439 4292006740
-0.2847965956 -0.1333627403 0.5470523238 4291744372
-0.2848544717 -0.1327819079 0.5471634865 4292073337
-0.2849121094 -0.1322007179 0.5472742319 4292730497
-0.2849695086 -0.1316191703 0.5473845005 4293651599
-0.2850266993 -0.1310372651 0.5474942923 4294243472
-0.2855354249 -0.1306617707 0.5484715104 4294309265
-0.2855922282 -0.1300782412 0.5485806465 4293847687
-0.2861007750 -0.1296992749 0.5495575070 4292860792
-0.2861572206 -0.1291141361 0.5496658683 4292269911
-0.2862134278 -0.1285286546 0.5497738123 4291940946
-0.2867216170 -0.1281449497 0.5507500172 4291480634
-0.2867774367 -0.1275578588 0.5508572459 4291151669
-0.2872854471 -0.1271706820 0.5518330336 4291216695
