VERSION 0.7
FIELDS x y z rgba
SIZE 4 4 4 4
TYPE F F F U
COUNT 1 1 1 1
WIDTH 920
HEIGHT 1
VIEWPOINT 0.0 0.0 0.0 1.0 0.0 0.0 0.0
POINTS 920
DATA ascii
-0.2784358859 -0.1311605871 0.5861009955 4281945492
-0.2784900367 -0.1305347681 0.5862149596 4281945492
-0.2789646983 -0.1301048100 0.5872141123 4281944983
-0.2794393003 -0.1296726167 0.5882131457 4282010776
-0.2794928849 -0.1290438026 0.5883259177 4281945494
-0.2799672484 -0.1286080480 0.5893244743 4281813908
-0.2804415226 -0.1281700134 0.5903227925 4281748115
-0.2809157073 -0.1277297437 0.5913209319 4281748115
-0.2809685767 -0.1270966530 0.5914322138 4281748115
-0.2814425230 -0.1266528070 0.5924298763 4281682322
-0.2819163799 -0.1262067109 0.5934273601 4281682320
-0.2823901474 -0.1257583648 0.5944246054 4281813906
-0.2824422717 -0.1251209974 0.5945343375 4281484941
-0.2829158008 -0.1246690899 0.5955311060 4281419148
-0.2829675078 -0.1240300760 0.5956399441 4281353355
-0.2830189764 -0.1233907193 0.5957482457 4281353355
-0.2834920585 -0.1229339465 0.5967440605 4281419146
-0.2839650214 -0.1224749163 0.5977396965 4281419146
-0.2840158939 -0.1218326092 0.5978468060 4281353353
-0.2840665281 -0.1211899519 0.5979533195 4281287560
-0.2841168940 -0.1205469593 0.5980593562 4281353093
-0.2841670215 -0.1199036241 0.5981648564 4281221507
-0.2842168808 -0.1192599460 0.5982698798 4281090434
-0.2846888900 -0.1187921762 0.5992634296 4281024641
-0.2847383320 -0.1181468666 0.5993674994 4280958846
-0.2847875357 -0.1175012216 0.5994710326 4280958846
-0.2848364711 -0.1168552414 0.5995740294 4281090173
-0.2848851383 -0.1162089333 0.5996765494 4281090173
-0.2849335670 -0.1155622900 0.5997784734 4281024633
-0.2849817574 -0.1149153188 0.5998798609 4281024633
-0.2850296795 -0.1142680198 0.5999807715 4281025142
-0.2850773335 -0.1136204004 0.6000810862 4281025142
-0.2851247489 -0.1129724532 0.6001808643 4280893556
-0.2851719260 -0.1123241782 0.6002801657 4280827763
-0.2852188051 -0.1116755903 0.6003788710 4280958836
-0.2848422229 -0.1108619496 0.5995861292 4281090422
-0.2848885357 -0.1102136895 0.5996836424 4281221757
-0.2849345803 -0.1095651090 0.5997806191 4281221757
-0.2849803865 -0.1089162156 0.5998769999 4281155964
-0.2854494452 -0.1084278822 0.6008643508 4281155964
-0.2854948044 -0.1077774018 0.6009598374 4281287552
-0.2851162553 -0.1069676727 0.6001629829 4281287552
-0.2851610184 -0.1063175350 0.6002572775 4281221761
-0.2852055430 -0.1056670994 0.6003509760 4281221761
-0.2852497995 -0.1050163582 0.6004440784 4281221761
-0.2852937877 -0.1043653190 0.6005367041 4281353347
-0.2849135399 -0.1035598665 0.5997362733 4281418886
-0.2849569619 -0.1029091924 0.5998276472 4281418886
-0.2850001156 -0.1022582203 0.5999184847 4281550474
-0.2850430012 -0.1016069576 0.6000087857 4281616267
-0.2855098546 -0.1011056304 0.6009914875 4281747853
-0.2855522633 -0.1004528105 0.6010807753 4281813646
-0.2855944335 -0.0997997001 0.6011695862 4281747602
-0.2856363356 -0.0991463065 0.6012577415 4281879188
-0.2856779695 -0.0984926149 0.6013454199 4281879699
-0.2861438990 -0.0979840234 0.6023261547 4281945492
-0.2866096795 -0.0974732041 0.6033065915 4282142358
-0.2866506577 -0.0968167260 0.6033928394 4282273944
-0.2866913378 -0.0961599648 0.6034785509 4282406045
-0.2867317796 -0.0955029279 0.6035636663 4282603424
-0.2871968150 -0.0949861184 0.6045424938 4282866083
-0.2872367799 -0.0943275541 0.6046265960 4282931876
-0.2877014279 -0.0938072801 0.6056047082 4282800799
-0.2881659269 -0.0932847783 0.6065825224 4283063971
-0.2882052064 -0.0926234424 0.6066651940 4283722404
-0.2886693776 -0.0920974761 0.6076422334 4284051369
-0.2887081504 -0.0914346352 0.6077238917 4285038513
-0.2891719341 -0.0909052044 0.6087000966 4286946510
-0.2896355689 -0.0903735533 0.6096760035 4290693096
-0.2794700861 -0.1647138000 0.5896565318 4292732400
-0.2795365751 -0.1640976667 0.5897967815 4291679712
-0.2800182998 -0.1637240201 0.5908131599 4290561233
-0.2800844312 -0.1631060988 0.5909526944 4289113787
-0.2801503539 -0.1624877453 0.5910918117 4287994793
-0.2798002958 -0.1616287827 0.5903532505 4286678933
-0.2798656821 -0.1610104740 0.5904911757 4285888647
-0.2799308300 -0.1603917331 0.5906286836 4285888647
-0.2799957693 -0.1597725600 0.5907656550 4285362043
-0.2800604999 -0.1591529548 0.5909022093 4283783011
-0.2797087729 -0.1582973599 0.5901601315 4283125335
-0.2793566287 -0.1574431807 0.5894171000 4282138440
-0.2785876393 -0.1563567072 0.5877946019 4282072643
-0.2778180540 -0.1552734971 0.5861708522 4282401608
-0.2766312361 -0.1539617032 0.5836668015 4282466886
-0.2737768292 -0.1517312378 0.5776442289 4282730058
-0.2721712887 -0.1502033770 0.5742566586 4283519061
-0.2705647647 -0.1486825198 0.5708670616 4284374370
-0.2693742514 -0.1473968178 0.5683552623 4286281855
-0.2690171599 -0.1465707719 0.5676018000 4287202957
-0.2690768242 -0.1459724903 0.5677276850 4286808714
-0.2691362500 -0.1453738213 0.5678530931 4285492854
-0.2696128488 -0.1449992061 0.5688586235 4282795087
-0.2700893879 -0.1446223259 0.5698640943 4281479227
-0.2709834576 -0.1444658041 0.5717504621 4284374632
-0.2718776464 -0.1443051696 0.5736371279 4286545801
-0.2727719843 -0.1441404074 0.5755240917 4284374632
-0.2745020688 -0.1444111317 0.5791744590 4283716702
-0.2758147418 -0.1444551349 0.5819441080 4283914079
-0.2767097652 -0.1442752033 0.5838325024 4284769388
-0.2776049078 -0.1440911442 0.5857211351 4283783263
-0.2780819833 -0.1436868906 0.5867277980 4282927954
-0.2789773047 -0.1434955001 0.5886167884 4282665295
-0.2790360153 -0.1428715736 0.5887407064 4284178534
-0.2786760926 -0.1420339942 0.5879812837 4285691771
-0.2787342668 -0.1414102167 0.5881040096 4284968048
-0.2792108357 -0.1409974545 0.5891095400 4284704876
-0.2788499594 -0.1401615143 0.5883480906 4286481287
-0.2793262005 -0.1397460848 0.5893529654 4287599006
-0.2793835402 -0.1391198188 0.5894739032 4287072662
-0.2794406414 -0.1384931803 0.5895944238 4284837242
-0.2794975042 -0.1378661394 0.5897144079 4281876557
-0.2791350186 -0.1370329708 0.5889495611 4281482856
-0.2791913450 -0.1364061236 0.5890684128 4282601337
-0.2788281143 -0.1355750263 0.5883020163 4282207894
-0.2784644961 -0.1347454339 0.5875348449 4282142101
-0.2781004906 -0.1339173466 0.5867667794 4282405791
-0.2781555951 -0.1332918108 0.5868830681 4282142619
-0.2777908742 -0.1324658096 0.5861135125 4281748881
-0.2778454125 -0.1318404973 0.5862286091 4281748881
-0.2778997421 -0.1312147975 0.5863432288 4281879699
-0.2783737183 -0.1307860017 0.5873432755 4281879699
-0.2784276307 -0.1301586330 0.5874570608 4281944981
-0.2789013684 -0.1297262758 0.5884565711 4281879188
-0.2793750167 -0.1292916536 0.5894559026 4282208153
-0.2798485756 -0.1288547814 0.5904551148 4282142360
-0.2799018025 -0.1282231212 0.5905673504 4282010774
-0.2803751230 -0.1277826726 0.5915660262 4281944981
-0.2804279327 -0.1271493435 0.5916774869 4281945233
-0.2809009850 -0.1267053485 0.5926756263 4281945233
-0.2813739777 -0.1262590736 0.5936735868 4281945230
-0.2818468809 -0.1258105636 0.5946713686 4281945230
-0.2818989754 -0.1251729578 0.5947812200 4281682310
-0.2823716104 -0.1247208789 0.5957784653 4281550724
-0.2824232578 -0.1240816191 0.5958874226 4281484672
-0.2824746668 -0.1234420091 0.5959959030 4281418879
-0.2829468846 -0.1229850650 0.5969922543 4281418876
-0.2834189832 -0.1225258708 0.5979883671 4281353083
-0.2834698260 -0.1218833104 0.5980955958 4281353337
-0.2835203707 -0.1212404072 0.5982022882 4281353337
-0.2835707068 -0.1205971614 0.5983084440 4281352054
-0.2836207747 -0.1199535728 0.5984140635 4281286261
-0.2836705744 -0.1193096414 0.5985192060 4281023600
-0.2837201357 -0.1186653748 0.5986237526 4280826221
-0.2841911018 -0.1181961372 0.5996174216 4280760683
-0.2842402458 -0.1175502390 0.5997211337 4280760683
-0.2842891216 -0.1169040054 0.5998242497 4280825964
-0.2843377590 -0.1162574440 0.5999268889 4280760171
-0.2843861282 -0.1156105474 0.6000289321 4280891756
-0.2844342589 -0.1149633229 0.6001304984 4281089135
-0.2844821215 -0.1143157706 0.6002314687 4281221232
-0.2845297456 -0.1136678979 0.6003319621 4281221232
-0.2845771015 -0.1130196899 0.6004318595 4281155439
-0.2846242189 -0.1123711690 0.6005312204 4281155439
-0.2842487097 -0.1115565598 0.5997389555 4281352305
-0.2842952311 -0.1109083593 0.5998371243 4281483891
-0.2843414843 -0.1102598384 0.5999347568 4281484151
-0.2843874991 -0.1096109971 0.6000317931 4281418358
-0.2848559022 -0.1091237515 0.6010200977 4281352565
-0.2849014401 -0.1084733233 0.6011162400 4281418358
-0.2849467695 -0.1078225896 0.6012117863 4281287544
-0.2849918008 -0.1071715355 0.6013068557 4281353337
-0.2846136987 -0.1063621417 0.6005090475 4281353085
-0.2846581638 -0.1057114452 0.6006028652 4281353085
-0.2847023606 -0.1050604433 0.6006961465 4281418879
-0.2847463191 -0.1044091433 0.6007888913 4281484672
-0.2843668461 -0.1036033630 0.5999882221 4281418627
-0.2844101787 -0.1029524282 0.6000797153 4281484420
-0.2844533026 -0.1023012027 0.6001706123 4281616008
-0.2844961286 -0.1016496718 0.6002610326 4281747594
-0.2845387161 -0.1009978577 0.6003508568 4281813387
-0.2850045264 -0.1004950702 0.6013336778 4281944973
-0.2850466371 -0.0998416990 0.6014225483 4281813646
-0.2850884795 -0.0991880372 0.6015108228 4281945232
-0.2855537534 -0.0986804962 0.6024925113 4282011025
-0.2855951488 -0.0980252922 0.6025798321 4282076818
-0.2856362760 -0.0973698050 0.6026666164 4282208404
-0.2861009836 -0.0968575254 0.6036471128 4282405783
-0.2861416340 -0.0962004960 0.6037328839 4282603162
-0.2861820459 -0.0955431908 0.6038181186 4282800541
-0.2862221599 -0.0948856100 0.6039028168 4282997407
-0.2866861224 -0.0943673477 0.6048817039 4283392165
-0.2871499360 -0.0938468650 0.6058602929 4283326622
-0.2871893644 -0.0931865126 0.6059435010 4283326622
-0.2872285545 -0.0925258845 0.6060261726 4283787675
-0.2876917720 -0.0920006782 0.6070035696 4284642984
-0.2877304852 -0.0913385376 0.6070852280 4286814656
-0.2881933451 -0.0908098742 0.6080617905 4289577962
-0.2886560559 -0.0902789906 0.6090380549 4292140021
-0.2780988812 -0.1642906219 0.5881416798 4292863473
-0.2785796225 -0.1639200449 0.5891584158 4291744992
-0.2786457241 -0.1633041799 0.5892981291 4290692819
-0.2782968283 -0.1624457836 0.5885602832 4288719029
-0.2783623934 -0.1618299484 0.5886989236 4287139482
-0.2784277201 -0.1612136960 0.5888370872 4285494657
-0.2784928381 -0.1605970114 0.5889748335 4285428096
-0.2785577476 -0.1599798799 0.5891120434 4284835959
-0.2786224186 -0.1593623310 0.5892488360 4284309868
-0.2786868513 -0.1587443501 0.5893851519 4281941320
-0.2783356607 -0.1578902751 0.5886424184 4282664782
-0.2779840529 -0.1570376307 0.5878988504 4282335817
-0.2772164345 -0.1559525877 0.5862753987 4282138436
-0.2760324776 -0.1546379328 0.5837715268 4282401608
-0.2748477459 -0.1533283889 0.5812659860 4282467401
-0.2728304267 -0.1515619010 0.5769996047 4282533194
-0.2712279558 -0.1500343829 0.5736105442 4282927437
-0.2696245015 -0.1485138535 0.5702195168 4283059023
-0.2688524425 -0.1474568546 0.5685867071 4283979613
-0.2684960961 -0.1466304958 0.5678330064 4284440164
-0.2685556710 -0.1460319906 0.5679590702 4284637802
-0.2686150670 -0.1454330981 0.5680846572 4284703595
-0.2686742246 -0.1448338032 0.5682097673 4282992720
-0.2691498101 -0.1444577426 0.5692155361 4281611067
-0.2700420618 -0.1443020999 0.5711026192 4284769388
-0.2705176771 -0.1439206004 0.5721084476 4285624697
-0.2718270421 -0.1439784765 0.5748776197 4283453528
-0.2731367648 -0.1440303773 0.5776474476 4283914079
-0.2744467854 -0.1440763026 0.5804179311 4284572009
-0.2753399312 -0.1438981891 0.5823068023 4284900974
-0.2762331963 -0.1437159479 0.5841959715 4285229939
-0.2767092288 -0.1433134079 0.5852027535 4286151041
-0.2771852314 -0.1429086179 0.5862094164 4286480774
-0.2772436440 -0.1422872692 0.5863329172 4287270290
-0.2773018181 -0.1416655332 0.5864559412 4287796634
-0.2773597538 -0.1410434097 0.5865784883 4286151809
-0.2774174511 -0.1404208839 0.5867005587 4285691258
-0.2778928280 -0.1400085241 0.5877058506 4288125599
-0.2779501677 -0.1393842846 0.5878271461 4288651179
-0.2780072689 -0.1387596726 0.5879479051 4288453800
-0.2780641317 -0.1381346732 0.5880681276 4286152589
-0.2785390019 -0.1377160698 0.5890724063 4283323490
-0.2781771719 -0.1368835121 0.5883072019 4281417063
-0.2782333195 -0.1362573653 0.5884259939 4282338165
-0.2778707743 -0.1354268938 0.5876592398 4281878157
-0.2779263854 -0.1348009259 0.5877768397 4281943950
-0.2779817581 -0.1341746002 0.5878939629 4282142873
-0.2776181698 -0.1333467662 0.5871250033 4282011287
-0.2776730061 -0.1327206343 0.5872409344 4281945745
-0.2777275741 -0.1320941299 0.5873563886 4281945745
-0.2777819335 -0.1314672530 0.5874713063 4281945492
-0.2778360248 -0.1308400035 0.5875857472 4282011285
-0.2783090472 -0.1304087937 0.5885860920 4282208153
-0.2787819803 -0.1299753338 0.5895863175 4282273946
-0.2788355350 -0.1293451041 0.5896995664 4282207640
-0.2793082297 -0.1289080679 0.5906992555 4282207640
-0.2793613970 -0.1282761693 0.5908116698 4282010515
-0.2798338532 -0.1278355569 0.5918108821 4281813136
-0.2798866034 -0.1272019893 0.5919224024 4281878926
-0.2803587914 -0.1267578155 0.5929210782 4281813133
-0.2804111540 -0.1261225790 0.5930317640 4281549695
-0.2808831036 -0.1256748438 0.5940299034 4281220730
-0.2813549638 -0.1252248585 0.5950278044 4281089395
-0.2822467387 -0.1249585599 0.5969138145 4280957809
-0.2822984159 -0.1243181005 0.5970231295 4280957547
-0.2823498547 -0.1236772910 0.5971319079 4280891754
-0.2824010253 -0.1230361313 0.5972401500 4280957799
-0.2824519575 -0.1223946288 0.5973478556 4280957799
-0.2829230428 -0.1219339520 0.5983440876 4280958052
-0.2829735577 -0.1212908030 0.5984508991 4280958052
-0.2830238044 -0.1206473038 0.5985572338 4280956258
-0.2830738127 -0.1200034693 0.5986629725 4281022051
-0.2831235826 -0.1193592921 0.5987682343 4280957023
-0.2831730843 -0.1187147722 0.5988729596 4280759644
-0.2832223475 -0.1180699170 0.5989771485 4280562265
-0.2836922705 -0.1175992042 0.5999709368 4280364886
-0.2837411165 -0.1169527248 0.6000741720 4280232789
-0.2837896943 -0.1163059026 0.6001769304 4280035410
-0.2838380039 -0.1156587526 0.6002791524 4279969363
-0.2838860750 -0.1150112748 0.6003807783 4280429914
-0.2839339077 -0.1143634692 0.6004819274 4280825185
-0.2839814425 -0.1137153357 0.6005825400 4281088357
-0.2840287685 -0.1130668819 0.6006825566 4281022564
-0.2840758264 -0.1124181002 0.6007820964 4281022564
-0.2837010622 -0.1116031706 0.5999895334 4281153637
-0.2837475538 -0.1109547094 0.6000878215 4281153637
-0.2842154503 -0.1104698330 0.6010773778 4280892008
-0.2842614651 -0.1098197773 0.6011747122 4280957801
-0.2843072414 -0.1091694087 0.6012715101 4281154926
-0.2843527496 -0.1085187197 0.6013677716 4281352305
-0.2843980193 -0.1078677252 0.6014634967 4281418100
-0.2844430208 -0.1072164178 0.6015586257 4281483893
-0.2844877541 -0.1065647975 0.6016532779 4281549946
-0.2841100991 -0.1057557389 0.6008545160 4281615739
-0.2841542363 -0.1051044762 0.6009479165 4281681280
-0.2841981351 -0.1044529155 0.6010407805 4281681280
-0.2838194370 -0.1036468148 0.6002398729 4281615490
-0.2838627398 -0.1029956266 0.6003314257 4281681283
-0.2839058042 -0.1023441330 0.6004225016 4281813385
-0.2839486003 -0.1016923487 0.6005129814 4281879178
-0.2839911282 -0.1010402665 0.6006029248 4281944973
-0.2844560742 -0.1005372778 0.6015862226 4282010766
-0.2844981253 -0.0998836458 0.6016752124 4281879691
-0.2849627435 -0.0993771628 0.6026577950 4282077070
-0.2850043476 -0.0987219810 0.6027457714 4282208656
-0.2850456834 -0.0980665162 0.6028332114 4282274449
-0.2850867808 -0.0974107608 0.6029201150 4282405522
-0.2851276100 -0.0967547223 0.6030064225 4282537108
-0.2855912447 -0.0962409899 0.6039870381 4282668694
-0.2856315970 -0.0955834165 0.6040723324 4282800280
-0.2856716812 -0.0949255675 0.6041570902 4282931350
-0.2857114971 -0.0942674428 0.6042413116 4283194522
-0.2861743867 -0.0937477276 0.6052202582 4282997392
-0.2862137258 -0.0930880830 0.6053034663 4283589529
-0.2866762578 -0.0925648883 0.6062816381 4285760687
-0.2867151201 -0.0919037238 0.6063638926 4287931856
-0.2867537439 -0.0912422985 0.6064454913 4289971940
-0.2876393199 -0.0908481926 0.6083183885 4291814143
-0.2765977383 -0.1650914699 0.5863441825 4292533991
-0.2766640782 -0.1644794494 0.5864848495 4291415510
-0.2767302394 -0.1638669968 0.5866250992 4289836480
-0.2767961621 -0.1632540971 0.5867648721 4287928483
-0.2768618762 -0.1626407653 0.5869041681 4285954693
-0.2769273818 -0.1620269865 0.5870429873 4284902005
-0.2765786052 -0.1611715108 0.5863037109 4284836212
-0.2766435742 -0.1605577916 0.5864413977 4284902005
-0.2767083347 -0.1599436402 0.5865786672 4284836210
-0.2767728567 -0.1593290567 0.5867154598 4284309866
-0.2768371701 -0.1587140411 0.5868517756 4284178021
-0.2764867544 -0.1578619331 0.5861089230 4282730575
-0.2765505314 -0.1572469920 0.5862441659 4282664782
-0.2757846713 -0.1561619639 0.5846205950 4282862161
-0.2750181854 -0.1550801992 0.5829958320 4282335817
-0.2742511332 -0.1540017128 0.5813697577 4282533196
-0.2730684578 -0.1526944488 0.5788626671 4283124563
-0.2710548341 -0.1509300470 0.5745941401 4283256149
-0.2698704302 -0.1496349126 0.5720833540 4283387989
-0.2686852217 -0.1483449340 0.5695708990 4283585368
-0.2679146230 -0.1472884566 0.5679373741 4284242785
-0.2675589025 -0.1464627087 0.5671833158 4284045406
-0.2672027946 -0.1456384212 0.5664283633 4283584857
-0.2672619224 -0.1450411677 0.5665537119 4283387478
-0.2673208416 -0.1444435269 0.5666785836 4282663501
-0.2677953541 -0.1440691948 0.5676845312 4281545020
-0.2682698369 -0.1436925977 0.5686903596 4285558647
-0.2691603005 -0.1435355991 0.5705779791 4286940300
-0.2704670131 -0.1435953975 0.5733480453 4286808714
-0.2717740238 -0.1436492205 0.5761187077 4287598230
-0.2730813920 -0.1436970383 0.5788900852 4288256419
-0.2743890285 -0.1437388659 0.5816621184 4288716970
-0.2752805352 -0.1435575038 0.5835519433 4288454568
-0.2757556140 -0.1431557685 0.5845590234 4288915119
-0.2762306333 -0.1427517682 0.5855660439 4288717738
-0.2762888968 -0.1421311349 0.5856894851 4288717738
-0.2763469219 -0.1415100992 0.5858125091 4288520618
-0.2764047086 -0.1408886760 0.5859349966 4287599516
-0.2764622569 -0.1402668655 0.5860570073 4287862688
-0.2769366503 -0.1398552954 0.5870626569 4289639099
-0.2769938409 -0.1392317712 0.5871838927 4289573055
-0.2770507932 -0.1386078596 0.5873046517 4289638848
-0.2771075070 -0.1379835606 0.5874248743 4289244868
-0.2775814235 -0.1375657469 0.5884294510 4287863215
-0.2772202492 -0.1367338300 0.5876638293 4283062145
-0.2772762775 -0.1361083835 0.5877826214 4282667387
-0.2773320675 -0.1354825646 0.5879008770 4282142609
-0.2773875892 -0.1348563731 0.5880185962 4281813644
-0.2774429023 -0.1342298090 0.5881358385 4281682836
-0.2774980068 -0.1336028576 0.5882526040 4281682836
-0.2771348357 -0.1327752769 0.5874827504 4281879952
-0.2771893442 -0.1321485341 0.5875983238 4281879952
-0.2772436440 -0.1315214336 0.5877134204 4281945484
-0.2772977054 -0.1308939457 0.5878279805 4281945484
-0.2777698338 -0.1304625869 0.5888288617 4281944720
-0.2778234780 -0.1298334301 0.5889425874 4281681548
-0.2782953978 -0.1293984950 0.5899429917 4281483640
-0.2787672281 -0.1289612949 0.5909431577 4281286261
-0.2788203061 -0.1283291429 0.5910556912 4281219951
-0.2792918980 -0.1278883815 0.5920553803 4281483123
-0.2793445885 -0.1272545755 0.5921670794 4281943928
-0.2798159122 -0.1268102378 0.5931662321 4282470272
-0.2798682153 -0.1261747628 0.5932770967 4283259786
-0.2803393006 -0.1257268637 0.5942757130 4283983509
-0.2803911567 -0.1250897199 0.5943856835 4285101730
-0.2812812030 -0.1248242781 0.5962724090 4285693867
-0.2813327312 -0.1241845340 0.5963816643 4286417327
-0.2813840210 -0.1235444322 0.5964903831 4286680499
-0.2814350724 -0.1229039803 0.5965986252 4286943924
-0.2814858854 -0.1222631782 0.5967063308 4287207096
-0.2819560170 -0.1218032911 0.5977029204 4287338940
-0.2820063829 -0.1211608425 0.5978097320 4287470526
-0.2820565104 -0.1205180585 0.5979160070 4287403705
-0.2821063995 -0.1198749244 0.5980217457 4287469498
-0.2821560204 -0.1192314550 0.5981269479 4287272889
-0.2822054029 -0.1185876429 0.5982316136 4286878131
-0.2822545469 -0.1179434955 0.5983358026 4286351787
-0.2827235162 -0.1174735650 0.5993299484 4285759650
-0.2827722430 -0.1168277860 0.5994331837 4285035927
-0.2828206718 -0.1161816791 0.5995358825 4284443790
-0.2828688920 -0.1155352369 0.5996380448 4283456895
-0.2829168141 -0.1148884669 0.5997397304 4282535793
-0.2829645276 -0.1142413691 0.5998408198 4281812583
-0.2830119729 -0.1135939434 0.5999413729 4281352032
-0.2830591500 -0.1129461974 0.6000413895 4281352032
-0.2831060886 -0.1122981235 0.6001408696 4281812583
-0.2827320099 -0.1114838272 0.5993479490 4282075755
-0.2827783823 -0.1108360812 0.5994461775 4282404720
-0.2832453549 -0.1103519797 0.6004360914 4282602105
-0.2832912505 -0.1097026318 0.6005334258 4282733691
-0.2833369076 -0.1090529710 0.6006302238 4282865279
-0.2833822966 -0.1084029898 0.6007264256 4282865279
-0.2834274471 -0.1077527031 0.6008221507 4282536061
-0.2834723294 -0.1071021035 0.6009172797 4282075510
-0.2835169435 -0.1064511985 0.6010118723 4281549684
-0.2831399739 -0.1056427807 0.6002127528 4281286512
-0.2831840217 -0.1049922258 0.6003060937 4281220722
-0.2832278013 -0.1043413728 0.6003989577 4281154929
-0.2832713425 -0.1036902219 0.6004912257 4281154677
-0.2833146155 -0.1030387655 0.6005828977 4281220470
-0.2833576202 -0.1023870185 0.6006740928 4281286523
-0.2834003568 -0.1017349735 0.6007646918 4281418109
-0.2834428549 -0.1010826305 0.6008547544 4281483904
-0.2839069068 -0.1005794480 0.6018385291 4281483904
-0.2839489579 -0.0999255478 0.6019276381 4281616004
-0.2844126821 -0.0994188711 0.6029106975 4281747590
-0.2844542563 -0.0987634212 0.6029987931 4282207625
-0.2844955623 -0.0981076956 0.6030863523 4282470797
-0.2845366001 -0.0974516720 0.6031733751 4282602123
-0.2845773697 -0.0967953727 0.6032598019 4282470537
-0.2850401700 -0.0962814316 0.6042408347 4282601347
-0.2850804627 -0.0956235975 0.6043263078 4282930312
-0.2851205170 -0.0949654877 0.6044111848 4283588489
-0.2851602733 -0.0943070948 0.6044954658 4284772763
-0.2851997912 -0.0936484337 0.6045792103 4286221225
-0.2852390409 -0.0929894969 0.6046624184 4287800257
-0.2852780223 -0.0923302844 0.6047450304 4289511124
-0.2853167355 -0.0916708112 0.6048271060 4290826984
-0.2853551805 -0.0910110623 0.6049085855 4291879924
-0.2749657333 -0.1671013236 0.5842602253 4292928749
-0.2754450142 -0.1667423099 0.5852786303 4292270819
-0.2750993967 -0.1658836156 0.5845442414 4291086545
-0.2751659155 -0.1652740985 0.5846855640 4289507513
-0.2752321959 -0.1646641344 0.5848264098 4287928481
-0.2752982974 -0.1640537232 0.5849668384 4286283656
-0.2753641605 -0.1634428799 0.5851068497 4284902005
-0.2754298151 -0.1628316045 0.5852463245 4284375661
-0.2750822306 -0.1619766802 0.5845077634 4284244075
-0.2751473486 -0.1613654494 0.5846461654 4284375661
-0.2752122879 -0.1607537866 0.5847840905 4284375661
-0.2752769589 -0.1601416916 0.5849215388 4284112489
-0.2749280334 -0.1592896283 0.5841801167 4284506988
-0.2745786607 -0.1584389657 0.5834378004 4284178023
-0.2746425271 -0.1578274220 0.5835734606 4284046435
-0.2742924392 -0.1569786817 0.5828295946 4282993747
-0.2743557692 -0.1563672125 0.5829641819 4282927954
-0.2735910714 -0.1552854627 0.5813392997 4283651677
-0.2728257775 -0.1542069763 0.5797131062 4283716700
-0.2720598578 -0.1531317830 0.5780857205 4283848286
-0.2712933719 -0.1520598680 0.5764570236 4283848286
-0.2696977258 -0.1505287886 0.5730665326 4283782493
-0.2689298689 -0.1494653076 0.5714349151 4283651161
-0.2677469254 -0.1481757611 0.5689213872 4283124817
-0.2669777870 -0.1471198052 0.5672870874 4282663753
-0.2662080824 -0.1460671574 0.5656515360 4282334788
-0.2658525109 -0.1452444345 0.5648959875 4282203202
-0.2659113705 -0.1446488202 0.5650210977 4282334788
-0.2659700513 -0.1440528035 0.5651457310 4282137157
-0.2660284936 -0.1434563994 0.5652699471 4281939778
-0.2669169307 -0.1433053464 0.5671577454 4286677385
-0.2678055167 -0.1431501806 0.5690459013 4289045933
-0.2691095471 -0.1432118863 0.5718167424 4289309107
-0.2708292902 -0.1434876919 0.5754709244 4289440693
-0.2733804584 -0.1441939175 0.5808917880 4289309877
-0.2721924186 -0.1429246813 0.5783673525 4289375670
-0.2743288279 -0.1433988214 0.5829069018 4288915119
-0.2748029530 -0.1429978907 0.5839143395 4289375670
-0.2752770185 -0.1425946802 0.5849216580 4289573306
-0.2753351033 -0.1419747472 0.5850450993 4290099650
-0.2753929794 -0.1413544267 0.5851680636 4290428615
-0.2754506171 -0.1407337040 0.5852904916 4290165443
-0.2755080163 -0.1401126087 0.5854125023 4290100422
-0.2755652070 -0.1394911110 0.5855339766 4290758352
-0.2756221294 -0.1388692409 0.5856549740 4290230985
-0.2760953009 -0.1384558082 0.5866603851 4289375676
-0.2761518657 -0.1378322244 0.5867805481 4287994801
-0.2762081921 -0.1372082531 0.5869002938 4286481562
-0.2762643099 -0.1365838945 0.5870195031 4282667126
-0.2763201594 -0.1359591633 0.5871381760 4282469747
-0.2763758004 -0.1353340596 0.5872564316 4282142599
-0.2764312029 -0.1347085685 0.5873741508 4282208392
-0.2764863670 -0.1340827197 0.5874913931 4281550472
-0.2765413225 -0.1334564835 0.5876080990 4281484679
-0.2770132124 -0.1330302209 0.5886107683 4281550211
-0.2770677507 -0.1324022859 0.5887266994 4281418625
-0.2771220505 -0.1317739934 0.5888420939 4281155190
-0.2771761119 -0.1311453432 0.5889569521 4281023604
-0.2772299647 -0.1305163056 0.5890713334 4281615226
-0.2772835493 -0.1298869103 0.5891852379 4282273156
-0.2777545750 -0.1294518113 0.5901861191 4283325567
-0.2778077722 -0.1288207471 0.5902991295 4284312462
-0.2782785594 -0.1283820719 0.5912994742 4285759650
-0.2783313692 -0.1277493387 0.5914116502 4287075510
-0.2788019180 -0.1273070872 0.5924115181 4288194243
-0.2792723775 -0.1268626004 0.5934111476 4288983759
-0.2793245912 -0.1262268722 0.5935221314 4289641689
-0.2802130282 -0.1259668171 0.5954099298 4290036447
-0.2802649438 -0.1253284812 0.5955201983 4290365409
-0.2803165913 -0.1246897951 0.5956299901 4290694374
-0.2803680003 -0.1240507513 0.5957391858 4290957282
-0.2804191411 -0.1234113574 0.5958479047 4290957282
-0.2804700732 -0.1227716133 0.5959560871 4291022560
-0.2805207372 -0.1221315265 0.5960637331 4291088353
-0.2805711627 -0.1214910895 0.5961709023 4291023075
-0.2806213200 -0.1208503097 0.5962775350 4291023075
-0.2806712687 -0.1202091798 0.5963835716 4290956519
-0.2807209492 -0.1195677146 0.5964891315 4291022312
-0.2811894417 -0.1191034168 0.5974846482 4291088105
-0.2812386751 -0.1184603125 0.5975893140 4290956519
-0.2817068994 -0.1179924607 0.5985841751 4290759140
-0.2817557156 -0.1173477247 0.5986879468 4290693347
-0.2818042934 -0.1167026535 0.5987911224 4290627554
-0.2818526328 -0.1160572544 0.5988938212 4290430175
-0.2819007039 -0.1154115200 0.5989959836 4289838038
-0.2819485366 -0.1147654653 0.5990976095 4289245901
-0.2819961011 -0.1141190752 0.5991986394 4288588229
-0.2820433974 -0.1134723574 0.5992991924 4287864506
-0.2820904851 -0.1128253117 0.5993992090 4286943404
-0.2821372747 -0.1121779531 0.5994986892 4285956509
-0.2821838260 -0.1115302667 0.5995975733 4284903821
-0.2822301388 -0.1108822599 0.5996959805 4284311684
-0.2822761834 -0.1102339402 0.5997938514 4284378247
-0.2823219895 -0.1095853001 0.5998911262 4284444040
-0.2823675275 -0.1089363471 0.5999878645 4284641421
-0.2824127972 -0.1082870737 0.6000840664 4285036179
-0.2824578285 -0.1076374948 0.6001797915 4285496476
-0.2825025916 -0.1069876105 0.6002748609 4285825441
-0.2825470865 -0.1063374132 0.6003694534 4285891236
-0.2825913429 -0.1056869105 0.6004635096 4285891236
-0.2826353312 -0.1050361022 0.6005569696 4285759908
-0.2826790810 -0.1043849885 0.6006498933 4285628322
-0.2827225626 -0.1037335768 0.6007422805 4285430945
-0.2827657759 -0.1030818671 0.6008341312 4285101980
-0.2828087211 -0.1024298519 0.6009253860 4284773017
-0.2828514278 -0.1017775461 0.6010161638 4284444052
-0.2828938663 -0.1011249498 0.6011062860 4284246673
-0.2837781310 -0.1007710770 0.6029852033 4284180880
-0.2838201821 -0.1001159474 0.6030745506 4283851410
-0.2838619351 -0.0994605273 0.6031633019 4283785617
-0.2839034796 -0.0988048166 0.6032515764 4283851663
-0.2839447260 -0.0981488228 0.6033391953 4283917456
-0.2839857042 -0.0974925458 0.6034263372 4284246669
-0.2840264440 -0.0968359783 0.6035128832 4284904599
-0.2840669155 -0.0961791351 0.6035988331 4285891485
-0.2841071188 -0.0955220088 0.6036842465 4286746794
-0.2841470540 -0.0948646069 0.6037691236 4288720320
-0.2841867208 -0.0942069292 0.6038534045 4289641422
-0.2842261195 -0.0935489759 0.6039371490 4290562522
-0.2842652798 -0.0928907469 0.6040203571 4291417831
-0.2843041420 -0.0922322497 0.6041029096 4292273139
-0.2734026611 -0.1684854329 0.5823131800 4292336614
-0.2734699547 -0.1678797603 0.5824565291 4291218133
-0.2735370398 -0.1672736257 0.5825994015 4290033859
-0.2736038864 -0.1666670442 0.5827417970 4288717999
-0.2736705542 -0.1660600305 0.5828837752 4287270553
-0.2733253539 -0.1652037650 0.5821485519 4285823107
-0.2733915150 -0.1645967811 0.5822894573 4284836212
-0.2734574378 -0.1639893502 0.5824298263 4284836212
-0.2731112242 -0.1631354243 0.5816924572 4284573040
-0.2731766105 -0.1625280231 0.5818317533 4284769906
-0.2732418180 -0.1619202048 0.5819705725 4284967285
-0.2728945613 -0.1610686332 0.5812309980 4284572527
-0.2729592025 -0.1604608595 0.5813686848 4284177769
-0.2730236650 -0.1598526537 0.5815059543 4284177769
-0.2726753950 -0.1590034664 0.5807641745 4284243562
-0.2723266780 -0.1581556946 0.5800215006 4284177251
-0.2723903060 -0.1575480402 0.5801569819 4284177251
-0.2724536955 -0.1569399536 0.5802920461 4284308837
-0.2721039653 -0.1560945958 0.5795471668 4283716700
-0.2717538476 -0.1552506387 0.5788013935 4283519321
-0.2718164027 -0.1546431482 0.5789346695 4284243044
-0.2710523605 -0.1535670310 0.5773073435 4284308837
-0.2707010210 -0.1527273804 0.5765590072 4284177251
-0.2699358761 -0.1516569108 0.5749294162 4284308837
-0.2691701651 -0.1505897343 0.5732985139 4284177251
-0.2684038281 -0.1495258361 0.5716663599 4284177505
-0.2672232687 -0.1482357979 0.5691518784 4283453782
-0.2664556801 -0.1471794397 0.5675170422 4282203202
-0.2656875253 -0.1461264044 0.5658808947 4281808444
-0.2653326988 -0.1453033537 0.5651252270 4282005823
-0.2649774849 -0.1444817781 0.5643686056 4282203202
-0.2650359869 -0.1438864768 0.5644932389 4282335049
-0.2655084729 -0.1435146928 0.5654996037 4282598221
-0.2659809291 -0.1431406289 0.5665058494 4286940559
-0.2668677568 -0.1429863572 0.5683946609 4288651177
-0.2681691945 -0.1430490613 0.5711665750 4288651947
-0.2694709599 -0.1431057602 0.5739391446 4288651947
-0.2711876929 -0.1433757097 0.5775955915 4289046451
-0.2724901736 -0.1434194893 0.5803696513 4289507002
-0.2733781040 -0.1432399005 0.5822609067 4289573308
-0.2738512456 -0.1428397596 0.5832686424 4289639101
-0.2743243575 -0.1424373537 0.5842762589 4289770685
-0.2743822932 -0.1418181211 0.5843997002 4289902271
-0.2744399905 -0.1411985159 0.5845226049 4289771457
-0.2744974792 -0.1405785084 0.5846450329 4289705664
-0.2745547295 -0.1399581134 0.5847669840 4289442492
-0.2746117711 -0.1393373311 0.5848884583 4288916148
-0.2746685743 -0.1387161613 0.5850093961 4287402656
-0.2747251391 -0.1380946040 0.5851298571 4285757831
-0.2751971781 -0.1376806349 0.5861352682 4284244854
-0.2752533555 -0.1370573789 0.5862549543 4283586924
-0.2753093243 -0.1364337355 0.5863741040 4282272103
-0.2753650248 -0.1358097196 0.5864928365 4282272103
-0.2754205167 -0.1351853162 0.5866109729 4281746798
-0.2754757702 -0.1345605403 0.5867286921 4281352040
-0.2755308151 -0.1339353919 0.5868458748 4281220719
-0.2755855918 -0.1333098710 0.5869625807 4281352305
-0.2756401598 -0.1326839775 0.5870787501 4282207100
-0.2761109173 -0.1322571784 0.5880814791 4283457167
-0.2761650980 -0.1316296011 0.5881968141 4284969885
-0.2762190104 -0.1310016513 0.5883116722 4286219952
-0.2762727141 -0.1303733289 0.5884260535 4287404475
-0.2767429352 -0.1299403310 0.5894275904 4288193991
-0.2767962217 -0.1293103397 0.5895410776 4289640657
-0.2772662342 -0.1288737655 0.5905421376 4290298587
-0.2773191333 -0.1282420903 0.5906547904 4290890978
-0.2777888775 -0.1278019547 0.5916553140 4291088357
-0.2778413892 -0.1271686107 0.5917671323 4291219941
-0.2778936327 -0.1265349090 0.5918784142 4291417320
-0.2787803113 -0.1262789369 0.5937669277 4291548906
-0.2788322568 -0.1256426126 0.5938774943 4291614699
-0.2788839340 -0.1250059456 0.5939875841 4291812076
-0.2793529332 -0.1245550960 0.5949864984 4291877869
-0.2794041932 -0.1239167601 0.5950957537 4292008938
-0.2794552445 -0.1232780740 0.5952044129 4292008938
-0.2795060277 -0.1226390451 0.5953125954 4292074731
-0.2795565426 -0.1219996586 0.5954201818 4292074731
-0.2796068490 -0.1213599369 0.5955272913 4292008938
-0.2796568871 -0.1207198650 0.5956339240 4292008938
-0.2797066867 -0.1200794503 0.5957399607 4292074220
-0.2797562182 -0.1194386929 0.5958455205 4292008427
-0.2798055410 -0.1187976003 0.5959504843 4291942635
-0.2798545957 -0.1181561649 0.5960549712 4291811049
-0.2803217769 -0.1176900491 0.5970500708 4291548134
-0.2803704143 -0.1170469895 0.5971536040 4291482341
-0.2808373272 -0.1165773273 0.5981481075 4291482343
-0.2808855176 -0.1159326360 0.5982507467 4291416550
-0.2809334695 -0.1152876094 0.5983528495 4291153378
-0.2809811532 -0.1146422625 0.5984544754 4291087585
-0.2810285985 -0.1139965802 0.5985555053 4291153380
-0.2810758054 -0.1133505777 0.5986559987 4291219173
-0.2815417051 -0.1128722057 0.5996483564 4291087587
-0.2815884650 -0.1122245938 0.5997479558 4290692829
-0.2812158763 -0.1114106178 0.5989543200 4290035669
-0.2812620401 -0.1107633188 0.5990527272 4289706704
-0.2813079655 -0.1101157069 0.5991505384 4289048267
-0.2813536525 -0.1094677821 0.5992478132 4288653509
-0.2813990712 -0.1088195369 0.5993445516 4288061372
-0.2814442217 -0.1081709787 0.5994407535 4287666614
-0.2814891338 -0.1075221077 0.5995363593 4287337649
-0.2815337777 -0.1068729311 0.5996314883 4287074477
-0.2815781832 -0.1062234491 0.5997260213 4286679719
-0.2816223204 -0.1055736542 0.5998200178 4286416547
-0.2816661894 -0.1049235538 0.5999134779 4286350754
-0.2817098200 -0.1042731553 0.6000064015 4286284961
-0.2817531824 -0.1036224589 0.6000987887 4286284961
-0.2817963064 -0.1029714569 0.6001905799 4286350754
-0.2818391323 -0.1023201570 0.6002818346 4286350754
-0.2818817198 -0.1016685590 0.6003725529 4286350754
-0.2827643752 -0.1013177633 0.6022524834 4286482595
-0.2828065753 -0.1006636396 0.6023423076 4286679974
-0.2828485072 -0.1000092179 0.6024316549 4287140007
-0.2828901708 -0.0993545130 0.6025204062 4287468972
-0.2829315960 -0.0986995101 0.6026086211 4287996084
-0.2829727232 -0.0980442315 0.6026962399 4288522428
-0.2830136120 -0.0973886624 0.6027833223 4289049283
-0.2830542326 -0.0967328101 0.6028698683 4289773006
-0.2830946147 -0.0960766748 0.6029558182 4290562264
-0.2831346989 -0.0954202637 0.6030412316 4291088608
-0.2831745446 -0.0947635695 0.6031260490 4291614948
-0.2832141221 -0.0941065997 0.6032103300 4292009706
-0.2832534015 -0.0934493616 0.6032940745 4292601069
-0.2721840441 -0.1707147509 0.5810923576 4292336612
-0.2722519934 -0.1701115668 0.5812373757 4291086545
-0.2719096243 -0.1692526340 0.5805064440 4290231236
-0.2719770372 -0.1686494648 0.5806503892 4288454827
-0.2720442414 -0.1680458486 0.5807938576 4287007381
-0.2721112669 -0.1674417704 0.5809369087 4286020486
-0.2721780539 -0.1668372601 0.5810795426 4285691521
-0.2722446620 -0.1662323028 0.5812216997 4285362556
-0.2719002962 -0.1653770804 0.5804865360 4285033591
-0.2715555429 -0.1645232439 0.5797505379 4285099384
-0.2716213167 -0.1639187932 0.5798909068 4285757314
-0.2716868520 -0.1633138955 0.5800308585 4285757055
-0.2713410854 -0.1624623984 0.5792926550 4285493883
-0.2709949017 -0.1616123021 0.5785535574 4285362297
-0.2710596025 -0.1610079408 0.5786917210 4285099125
-0.2707127035 -0.1601597369 0.5779511333 4284375402
-0.2707768977 -0.1595554203 0.5780881643 4283849058
-0.2708408833 -0.1589506716 0.5782247782 4283585886
-0.2709046602 -0.1583454907 0.5783609152 4283322714
-0.2701446116 -0.1572604477 0.5767382979 4283454300
-0.2702077627 -0.1566562653 0.5768731236 4283783265
-0.2702707052 -0.1560516506 0.5770074725 4284243044
-0.2703334391 -0.1554466188 0.5771414042 4284374630
-0.2699837387 -0.1546051353 0.5763948560 4283979872
-0.2700459361 -0.1540001929 0.5765276551 4284308837
-0.2696955502 -0.1531606317 0.5757795572 4284243044
-0.2693447471 -0.1523225158 0.5750306249 4284111458
-0.2685809731 -0.1512534916 0.5734000802 4284308837
-0.2682292759 -0.1504191756 0.5726492405 4284177251
-0.2674644291 -0.1493558139 0.5710163116 4284309091
-0.2671118379 -0.1485253274 0.5702635050 4283848540
-0.2663458884 -0.1474676430 0.5686283112 4282401094
-0.2655793726 -0.1464132667 0.5669918656 4281940543
-0.2648122609 -0.1453622133 0.5653541088 4282072129
-0.2644577920 -0.1445403248 0.5645973682 4282137922
-0.2641029060 -0.1437199116 0.5638397336 4282006084
-0.2645744383 -0.1433489174 0.5648463964 4282335049
-0.2650459409 -0.1429756731 0.5658529997 4285295734
-0.2659309804 -0.1428222954 0.5677424669 4285756285
-0.2672298253 -0.1428859681 0.5705153942 4285230711
-0.2685289681 -0.1429436654 0.5732890368 4285099125
-0.2698284388 -0.1429953575 0.5760633349 4285428090
-0.2711282372 -0.1430410445 0.5788382888 4285625469
-0.2724283338 -0.1430807263 0.5816138983 4285362556
-0.2729005218 -0.1426813900 0.5826219320 4285494142
-0.2733726501 -0.1422797740 0.5836299062 4285560703
-0.2734304368 -0.1416612566 0.5837532878 4285626496
-0.2734879851 -0.1410423517 0.5838761330 4285626498
-0.2735453248 -0.1404230595 0.5839985609 4286021256
-0.2736024261 -0.1398033649 0.5841204524 4286152842
-0.2736593187 -0.1391832978 0.5842418671 4285692291
-0.2737159431 -0.1385628432 0.5843628049 4285297278
-0.2737723589 -0.1379420012 0.5844832659 4284573555
-0.2742434442 -0.1375288367 0.5854889750 4284047475
-0.2742994726 -0.1369062811 0.5856086016 4283850096
-0.2743552923 -0.1362833530 0.5857277513 4283587701
-0.2744108737 -0.1356600374 0.5858464241 4283982459
-0.2744662166 -0.1350363493 0.5859645605 4284509833
-0.2745213211 -0.1344122887 0.5860822201 4285101970
-0.2745761871 -0.1337878406 0.5861994028 4286089124
-0.2746308446 -0.1331630349 0.5863160491 4287207605
-0.2746852636 -0.1325378418 0.5864322186 4288785612
-0.2751550674 -0.1321118474 0.5874352455 4289772507
-0.2752090991 -0.1314849854 0.5875505805 4290430175
-0.2752628624 -0.1308577359 0.5876653790 4291022312
-0.2753164172 -0.1302301288 0.5877797008 4291679975
-0.2757857144 -0.1297979206 0.5887815952 4291943147
-0.2758388519 -0.1291686445 0.5888950825 4291746538
-0.2763079107 -0.1287328601 0.5898964405 4292141296
-0.2763606608 -0.1281019002 0.5900090337 4292666870
-0.2794535756 -0.1162779927 0.5966122150 4292601075
-0.2795015872 -0.1156349704 0.5967146754 4292403696
-0.2795493305 -0.1149916202 0.5968166590 4292337905
-0.2795968354 -0.1143479422 0.5969180465 4292206319
-0.2796440721 -0.1137039363 0.5970189571 4291877099
-0.2796910703 -0.1130596027 0.5971192718 4291679720
-0.2797378302 -0.1124149486 0.5972190499 4291548134
-0.2802025378 -0.1119370386 0.5982111692 4291416548
-0.2802488506 -0.1112907752 0.5983100533 4291416548
-0.2802949250 -0.1106441915 0.5984084010 4291284962
-0.2803407311 -0.1099972948 0.5985062122 4291285732
-0.2803862691 -0.1093500704 0.5986034274 4291285732
-0.2804315686 -0.1087025404 0.5987001657 4291285987
-0.2804766297 -0.1080546975 0.5987963080 4291285987
-0.2805214226 -0.1074065417 0.5988919735 4291285987
-0.2805659473 -0.1067580730 0.5989870429 4291154401
-0.2806102335 -0.1061092988 0.5990815759 4290891229
-0.2806542516 -0.1054602191 0.5991755724 4290759643
-0.2806980014 -0.1048108339 0.5992689729 4290693848
-0.2807415128 -0.1041611433 0.5993618965 4290628055
-0.2807847559 -0.1035111547 0.5994542241 4290562262
-0.2808277607 -0.1028608680 0.5995460153 4290628055
-0.2808704972 -0.1022102833 0.5996372700 4290758871
-0.2809129655 -0.1015594006 0.5997279286 4290824664
-0.2817938626 -0.1012094393 0.6016085744 4290956250
-0.2818359435 -0.1005560234 0.6016983986 4291022043
-0.2818777859 -0.0999023169 0.6017876863 4291153368
-0.2819193304 -0.0992483199 0.6018764377 4291219161
-0.2819606364 -0.0985940397 0.6019646525 4291351262
-0.2820017040 -0.0979394689 0.6020522714 4291351262
-0.2820424736 -0.0972846076 0.6021392941 4291613921
-0.2816632092 -0.0964856744 0.6013296247 4292008679
-0.2817034125 -0.0958312303 0.6014154553 4292271851
-0.2817433476 -0.0951765031 0.6015006900 4292469230
-0.2704872191 -0.1732693911 0.5788422823 4292665577
-0.2705559134 -0.1726700813 0.5789892673 4291744475
-0.2706243694 -0.1720703244 0.5791357756 4290494408
-0.2702837288 -0.1712110937 0.5784068108 4289244341
-0.2703517079 -0.1706113219 0.5785522461 4287994017
-0.2708285749 -0.1702683121 0.5795727372 4286743950
-0.2704870105 -0.1694104522 0.5788418651 4285691262
-0.2705543637 -0.1688093394 0.5789859891 4285033332
-0.2702120841 -0.1679532975 0.5782535076 4285165177
-0.2702789307 -0.1673521996 0.5783964992 4285296763
-0.2703455687 -0.1667506546 0.5785391331 4285494142
-0.2704119682 -0.1661486626 0.5786812305 4285428349
-0.2700683773 -0.1652954072 0.5779459476 4285494140
-0.2701342702 -0.1646934450 0.5780869722 4285428347
-0.2697899640 -0.1638420522 0.5773501396 4285165175
-0.2694452107 -0.1629920453 0.5766124129 4285230968
-0.2695102990 -0.1623905897 0.5767516494 4285691262
-0.2691648602 -0.1615424603 0.5760124326 4285296504
-0.2692294121 -0.1609410644 0.5761505961 4284704367
-0.2692937851 -0.1603392363 0.5762882829 4283980644
-0.2689473033 -0.1594934762 0.5755468607 4283651679
-0.2690111399 -0.1588916928 0.5756834745 4283914851
-0.2690747678 -0.1582894921 0.5758196115 4284243816
-0.2691381574 -0.1576868743 0.5759552717 4284243816
-0.2687903643 -0.1568440050 0.5752109885 4284309609
-0.2688532472 -0.1562414467 0.5753455758 4284309609
-0.2689159214 -0.1556384712 0.5754796863 4284243816
-0.2689783871 -0.1550350636 0.5756133795 4284506988
-0.2690406442 -0.1544312537 0.5757465959 4284112230
-0.2691026628 -0.1538270116 0.5758793354 4284112230
-0.2687529325 -0.1529880762 0.5751308799 4284046437
-0.2688144147 -0.1523839384 0.5752624869 4284046437
-0.2680522203 -0.1513145119 0.5736313462 4284112228
-0.2677012384 -0.1504798830 0.5728803277 4283914849
-0.2673498988 -0.1496466994 0.5721284151 4284046435
-0.2665860951 -0.1485853195 0.5704938769 4283783263
-0.2658217251 -0.1475272328 0.5688580871 4282664012
-0.2650567591 -0.1464724690 0.5672210455 4281874496
-0.2642911971 -0.1454210132 0.5655828118 4281940289
-0.2635250688 -0.1443728805 0.5639432669 4281940289
-0.2631708384 -0.1435530782 0.5631852150 4282071877
-0.2632288039 -0.1429588199 0.5633093119 4282203463
-0.2636992335 -0.1425873190 0.5643160343 4284308839
-0.2641696334 -0.1422135532 0.5653226376 4284440425
-0.2658785582 -0.1425013691 0.5689797401 4284441195
-0.2671750486 -0.1425609738 0.5717542171 4284572781
-0.2684718370 -0.1426145732 0.5745293498 4284835953
-0.2701820433 -0.1428806484 0.5781891942 4284901746
-0.2710663378 -0.1427037865 0.5800815821 4284638831
-0.2719507813 -0.1425227672 0.5819742680 4285296761
-0.2724219263 -0.1421219558 0.5829825401 4285955461
-0.2724795640 -0.1415041536 0.5831058621 4286613391
-0.2725369632 -0.1408859640 0.5832287073 4287402909
-0.2725941539 -0.1402673721 0.5833510756 4288258218
-0.2726511061 -0.1396483928 0.5834729671 4288981939
-0.2727078199 -0.1390290409 0.5835943818 4289113525
-0.2727643251 -0.1384092867 0.5837152600 4289048247
-0.2728205919 -0.1377891600 0.5838356614 4288785075
-0.2732906938 -0.1373767853 0.5848417282 4288719035
-0.2733465731 -0.1367549449 0.5849612951 4288521656
-0.2734022439 -0.1361327320 0.5850804448 4288851395
-0.2734576762 -0.1355101317 0.5851990581 4289246153
-0.2735128701 -0.1348871440 0.5853171349 4289969872
-0.2735678256 -0.1342637986 0.5854347944 4290562009
-0.2736225724 -0.1336400658 0.5855519176 4290957022
-0.2740917206 -0.1332174987 0.5865558982 4291417573
-0.2741460800 -0.1325920820 0.5866721869 4291812076
-0.2742001712 -0.1319662929 0.5867879987 4292009455
-0.2742540538 -0.1313401312 0.5869032741 4292403696
-0.2784018219 -0.1114820167 0.5957794785 4292667122
-0.2784478664 -0.1108383983 0.5958780646 4292535536
-0.2789112031 -0.1103596687 0.5968695879 4292403950
-0.2789568305 -0.1097144410 0.5969672203 4292272364
-0.2790021896 -0.1090689078 0.5970642567 4292140778
-0.2790473104 -0.1084230542 0.5971608162 4292009192
-0.2790921628 -0.1077768877 0.5972568393 4291877606
-0.2791367471 -0.1071304083 0.5973522663 4291811813
-0.2787631750 -0.1063242182 0.5965527892 4291746020
-0.2788071930 -0.1056780964 0.5966470242 4291746020
-0.2788509727 -0.1050316691 0.5967407227 4291746020
-0.2793126404 -0.1045414358 0.5977286696 4291877606
-0.2793559730 -0.1038934290 0.5978213549 4291877606
-0.2793990374 -0.1032451242 0.5979135633 4291877606
-0.2794418633 -0.1025965214 0.5980051756 4291943399
-0.2794844210 -0.1019476205 0.5980962515 4292009192
-0.2799451649 -0.1014500633 0.5990822911 4292074985
-0.2804057896 -0.1009502709 0.6000680327 4292074985
-0.2804477215 -0.1002985463 0.6001577377 4292074985
-0.2804893553 -0.0996465236 0.6002468467 4292337390
-0.2805307508 -0.0989942104 0.6003354192 4292468976
-0.2801531255 -0.0981948376 0.5995272994 4292666609
-0.2680454850 -0.1746697277 0.5749835968 4292402405
-0.2685219347 -0.1743402183 0.5760056376 4291283924
-0.2685908079 -0.1737447977 0.5761533976 4289836478
-0.2686595023 -0.1731489152 0.5763007402 4288520618
-0.2687279880 -0.1725525856 0.5764476061 4287073172
-0.2692041695 -0.1722167283 0.5774690509 4286020484
-0.2692723572 -0.1716185808 0.5776153207 4285033332
-0.2693403363 -0.1710199714 0.5777611732 4284375402
-0.2694081068 -0.1704209149 0.5779065490 4284178023
-0.2690673769 -0.1695640981 0.5771756768 4284441195
-0.2687262595 -0.1687086523 0.5764439106 4284901492
-0.2687932253 -0.1681100577 0.5765875578 4285296250
-0.2684513628 -0.1672564447 0.5758542418 4285033589
-0.2685178220 -0.1666578650 0.5759968162 4285428347
-0.2685840726 -0.1660588533 0.5761389136 4285296761
-0.2686501145 -0.1654593945 0.5762805939 4284836210
-0.2683069408 -0.1646085680 0.5755444169 4284770417
-0.2679633498 -0.1637591273 0.5748074055 4285033589
-0.2680285871 -0.1631601751 0.5749473572 4285164918
-0.2676842809 -0.1623126119 0.5742087960 4285296504
-0.2677489817 -0.1617137045 0.5743476152 4285888641
-0.2674039900 -0.1608680040 0.5736075044 4286151813
-0.2674681842 -0.1602691561 0.5737451911 4286612364
-0.2675321698 -0.1596698612 0.5738824606 4287007122
-0.2675959170 -0.1590701491 0.5740192533 4287533466
-0.2676594853 -0.1584700048 0.5741556287 4288059810
-0.2677228451 -0.1578694284 0.5742914677 4287862431
-0.2677859664 -0.1572684348 0.5744269490 4287204501
-0.2678489089 -0.1566670090 0.5745619535 4286020484
-0.2679116130 -0.1560651660 0.5746964812 4285296761
-0.2679741383 -0.1554629058 0.5748305321 4284638320
-0.2680364251 -0.1548602134 0.5749641657 4284506734
-0.2680985034 -0.1542571038 0.5750973225 4284243562
-0.2681603730 -0.1536535770 0.5752300620 4284046183
-0.2682220340 -0.1530496329 0.5753622651 4284046437
-0.2678726017 -0.1522118151 0.5746127367 4283980644
-0.2675227821 -0.1513754427 0.5738623738 4284046437
-0.2671725750 -0.1505405158 0.5731111169 4283914851
-0.2668219507 -0.1497070193 0.5723590255 4283980644
-0.2664709389 -0.1488749832 0.5716060400 4283849058
-0.2657082081 -0.1478155702 0.5699698925 4282927956
-0.2645334899 -0.1465315819 0.5674500465 4281677889
-0.2637695074 -0.1454797387 0.5658112168 4281941059
-0.2630049288 -0.1444312036 0.5641710758 4281941059
-0.2626514435 -0.1436111033 0.5634128451 4281677119
-0.2622975707 -0.1427924633 0.5626537800 4282598221
-0.2623551786 -0.1421985328 0.5627773404 4284901746
-0.2632364631 -0.1420488209 0.5646677613 4285033332
-0.2645299137 -0.1421163380 0.5674424171 4285428090
-0.2658237219 -0.1421778500 0.5702176690 4285888641
-0.2675300241 -0.1424528658 0.5738779306 4286810000
-0.2688245475 -0.1425014585 0.5766547322 4287796895
-0.2697069645 -0.1423264146 0.5785475969 4288652204
-0.2705895007 -0.1421472281 0.5804407597 4289375927
-0.2710596025 -0.1417481452 0.5814492106 4289771455
-0.2711170018 -0.1411319971 0.5815722942 4290363592
-0.2715869248 -0.1407293230 0.5825803280 4290889938
