VERSION 0.7
FIELDS x y z rgba
SIZE 4 4 4 4
TYPE F F F U
COUNT 1 1 1 1
WIDTH 920
HEIGHT 1
VIEWPOINT 0.0 0.0 0.0 1.0 0.0 0.0 0.0
POINTS 920
DATA ascii
-0.2426343262 -0.1615699530 0.5437947512 4284112230
-0.2423031032 -0.1607460231 0.5430524349 4284046437
-0.2419714928 -0.1599234790 0.5423092246 4283980644
-0.2420330495 -0.1593614668 0.5424471498 4284046437
-0.2417007685 -0.1585408151 0.5417024493 4284178023
-0.2413681000 -0.1577215642 0.5409568548 4284243816
-0.2414288968 -0.1571601033 0.5410931706 4283980644
-0.2414895147 -0.1565982103 0.5412290096 4284046437
-0.2411558926 -0.1557813585 0.5404812694 4284178023
-0.2412160337 -0.1552195400 0.5406160355 4284309609
-0.2408817410 -0.1544045955 0.5398668647 4284309609
-0.2409414053 -0.1538428664 0.5400005579 4284441195
-0.2406064570 -0.1530298442 0.5392498374 4284638574
-0.2406656444 -0.1524682045 0.5393825173 4284638574
-0.2403300107 -0.1516571194 0.5386303067 4284638574
-0.2403887361 -0.1510955691 0.5387619138 4284704367
-0.2404472679 -0.1505336016 0.5388931036 4284770160
-0.2401106805 -0.1497249752 0.5381387472 4284967539
-0.2401687354 -0.1491631269 0.5382688642 4285230968
-0.2402265966 -0.1486008614 0.5383985043 4285428347
-0.2402842641 -0.1480381936 0.5385277867 4285823105
-0.2403417528 -0.1474751234 0.5386565924 4286283656
-0.2403990328 -0.1469116360 0.5387849808 4286612110
-0.2404561341 -0.1463477612 0.5389129519 4286941075
-0.2405130416 -0.1457834840 0.5390405059 4287073174
-0.2405697554 -0.1452188045 0.5391675830 4287270553
-0.2410220355 -0.1448916495 0.5401812792 4287665311
-0.2410784513 -0.1443252414 0.5403077006 4288191655
-0.2411346734 -0.1437584311 0.5404337049 4288652204
-0.2411906868 -0.1431912333 0.5405592918 4288915376
-0.2412465215 -0.1426236480 0.5406844020 4289310134
-0.2413021624 -0.1420556605 0.5408090949 4289375927
-0.2417539060 -0.1417195946 0.5418215394 4289441722
-0.2422056496 -0.1413812935 0.5428339839 4289639101
-0.2422608733 -0.1408102661 0.5429577827 4289705664
-0.2427124828 -0.1404683590 0.5439699292 4289771457
-0.2431640774 -0.1401242018 0.5449820757 4289903041
-0.2436156571 -0.1397777945 0.5459941030 4290166213
-0.2436703593 -0.1392024010 0.5461167097 4290561486
-0.2441217899 -0.1388523877 0.5471284986 4290627279
-0.2441761643 -0.1382752955 0.5472503304 4290824403
-0.2446274757 -0.1379217058 0.5482618213 4290890196
-0.2446815372 -0.1373428851 0.5483829975 4291021782
-0.2451326847 -0.1369857043 0.5493941307 4291284954
-0.2451864332 -0.1364051849 0.5495145321 4291548381
-0.2456374317 -0.1360444278 0.5505253673 4291679967
-0.2460884154 -0.1356814057 0.5515360832 4291811553
-0.2465393543 -0.1353161037 0.5525467396 4292008932
-0.2469902635 -0.1349485517 0.5535573363 4292271849
-0.2478389442 -0.1347950995 0.5554593801 4292206056
-0.2482898533 -0.1344220638 0.5564699769 4292271849
-0.2439543158 -0.1786882430 0.5481175184 4292600554
-0.2440219671 -0.1781286448 0.5482695103 4292271589
-0.2440894544 -0.1775685698 0.5484211445 4292205026
-0.2441567481 -0.1770080179 0.5485723615 4292007647
-0.2438337505 -0.1761651635 0.5478466153 4291612889
-0.2439005971 -0.1756045967 0.5479968190 4291283924
-0.2439672649 -0.1750435680 0.5481466055 4291086799
-0.2440337688 -0.1744820774 0.5482960343 4290955213
-0.2441000789 -0.1739201248 0.5484450459 4290955213
-0.2441662103 -0.1733577251 0.5485936403 4290692041
-0.2442321777 -0.1727948636 0.5487418175 4290428356
-0.2442979515 -0.1722315401 0.5488896370 4290099391
-0.2439725697 -0.1713931113 0.5481585264 4289704633
-0.2440378815 -0.1708297879 0.5483052731 4289178289
-0.2441030294 -0.1702660173 0.5484516621 4288455077
-0.2441679835 -0.1697017848 0.5485975742 4287928733
-0.2442327440 -0.1691371053 0.5487431288 4287007120
-0.2442973405 -0.1685719937 0.5488882065 4286546569
-0.2439701408 -0.1677371711 0.5481531024 4285888639
-0.2440342754 -0.1671720594 0.5482971668 4285230709
-0.2437064052 -0.1663390845 0.5475605130 4284770158
-0.2433781326 -0.1655074805 0.5468229651 4284506986
-0.2430494875 -0.1646772474 0.5460845828 4284243814
-0.2431125790 -0.1641130894 0.5462263227 4284046435
-0.2427832633 -0.1632847041 0.5454863906 4284178021
-0.2428458780 -0.1627205908 0.5456270576 4284178021
-0.2425158769 -0.1618940681 0.5448856354 4284112228
-0.2421855032 -0.1610689461 0.5441433191 4284046435
-0.2422473580 -0.1605053395 0.5442823172 4283980642
-0.2423090339 -0.1599413157 0.5444208980 4283914849
-0.2423705161 -0.1593768597 0.5445590615 4283914849
-0.2420389056 -0.1585545689 0.5438139439 4284046435
-0.2417068928 -0.1577336937 0.5430679917 4284046437
-0.2413745075 -0.1569142342 0.5423212051 4284243816
-0.2410417348 -0.1560961753 0.5415735245 4284243816
-0.2407085747 -0.1552795172 0.5408249497 4284243816
-0.2411618531 -0.1549699008 0.5418434143 4284375402
-0.2408281267 -0.1541542560 0.5410935879 4284441195
-0.2404940128 -0.1533400416 0.5403429270 4284572011
-0.2405532300 -0.1527772844 0.5404759645 4284835183
-0.2406122535 -0.1522141099 0.5406085253 4284835183
-0.2402771860 -0.1514023244 0.5398557186 4284900976
-0.2403357327 -0.1508392543 0.5399872661 4285032562
-0.2403940856 -0.1502757668 0.5401183963 4285164148
-0.2404522598 -0.1497118771 0.5402490497 4285229941
-0.2401159555 -0.1489030719 0.5394934416 4285427320
-0.2401736379 -0.1483392864 0.5396230817 4285690492
-0.2402311414 -0.1477750987 0.5397523046 4285953664
-0.2402884513 -0.1472104937 0.5398810506 4286217606
-0.2403455675 -0.1466455013 0.5400093794 4286349192
-0.2404024899 -0.1460801065 0.5401372313 4286481035
-0.2408540547 -0.1457532346 0.5411518216 4286744207
-0.2409106791 -0.1451861113 0.5412790775 4287204758
-0.2409671098 -0.1446185708 0.5414058566 4287599516
-0.2410233617 -0.1440506428 0.5415322185 4287928481
-0.2414746135 -0.1437175423 0.5425460935 4288125860
-0.2415305525 -0.1431478858 0.5426717997 4288454825
-0.2415862978 -0.1425778419 0.5427970290 4288520618
-0.2416418344 -0.1420073956 0.5429218411 4288652974
-0.2420927584 -0.1416680366 0.5439350009 4288916146
-0.2425436676 -0.1413264275 0.5449481010 4289047732
-0.2425988019 -0.1407529414 0.5450719595 4289179318
-0.2430495769 -0.1404077411 0.5460847616 4289376697
-0.2435003370 -0.1400602758 0.5470975041 4289442490
-0.2439510822 -0.1397105455 0.5481102467 4289376444
-0.2440056801 -0.1391326785 0.5482329130 4289442237
-0.2440600693 -0.1385544389 0.5483551025 4289573823
-0.2445105463 -0.1381997913 0.5493672490 4289836995
-0.2446185052 -0.1370394975 0.5496098399 4290297546
-0.2450687289 -0.1366799474 0.5506213903 4290626766
-0.2455189228 -0.1363181174 0.5516328812 4290955731
-0.2459690720 -0.1359540224 0.5526443124 4290824145
-0.2460223883 -0.1353693306 0.5527640581 4291021524
-0.2464723885 -0.1350016594 0.5537751317 4291482075
-0.2469223589 -0.1346317083 0.5547861457 4292074212
-0.2425247133 -0.1792994142 0.5462687016 4292337384
-0.2425924093 -0.1787423491 0.5464211702 4292205798
-0.2426599413 -0.1781848222 0.5465732813 4292205280
-0.2427272797 -0.1776268184 0.5467249751 4291942108
-0.2427944541 -0.1770683676 0.5468762517 4291678936
-0.2428614646 -0.1765094399 0.5470271707 4291415764
-0.2429282814 -0.1759500504 0.5471776724 4291086799
-0.2426055223 -0.1751091331 0.5464506745 4290823627
-0.2426718920 -0.1745497286 0.5466001630 4290626248
-0.2427380830 -0.1739898473 0.5467492342 4290494662
-0.2431938201 -0.1737079024 0.5477758050 4290165697
-0.2432597727 -0.1731462181 0.5479243398 4289770939
-0.2429355830 -0.1723075062 0.5471941233 4289309873
-0.2430010736 -0.1717458218 0.5473416448 4288651943
-0.2430663705 -0.1711836755 0.5474886894 4287928220
-0.2431314886 -0.1706210673 0.5476353765 4287336083
-0.2431964278 -0.1700580269 0.5477816463 4286810252
-0.2432612032 -0.1694945246 0.5479275584 4286481287
-0.2433257848 -0.1689305753 0.5480729938 4286546569
-0.2433901727 -0.1683661789 0.5482180715 4286414983
-0.2434543967 -0.1678013206 0.5483627319 4286217604
-0.2435184419 -0.1672360301 0.5485069752 4286020225
-0.2431913018 -0.1664027721 0.5477701426 4285691260
-0.2428637892 -0.1655708700 0.5470324159 4285362295
-0.2429270744 -0.1650060564 0.5471749306 4284835951
-0.2425988913 -0.1641760170 0.5464357138 4284375400
-0.2426616997 -0.1636112332 0.5465772152 4284243814
-0.2427243292 -0.1630460173 0.5467182994 4284178021
-0.2423951775 -0.1622183025 0.5459769368 4284046435
-0.2420656532 -0.1613919735 0.5452346802 4283980642
-0.2421275228 -0.1608272791 0.5453740358 4283914849
-0.2421892136 -0.1602621526 0.5455129743 4283849056
-0.2422507256 -0.1596965939 0.5456514955 4283849056
-0.2419199497 -0.1588731110 0.5449064970 4283914849
-0.2419809848 -0.1583076119 0.5450439453 4284046435
-0.2416495383 -0.1574860215 0.5442973971 4284112228
-0.2417100966 -0.1569205821 0.5444337726 4284112230
-0.2409854978 -0.1558470726 0.5428016782 4283980644
-0.2410454750 -0.1552826315 0.5429368019 4283980644
-0.2407125980 -0.1544657797 0.5421870351 4284112230
-0.2407721132 -0.1539014131 0.5423210859 4284309607
-0.2404385656 -0.1530864835 0.5415697694 4284506986
-0.2404976040 -0.1525221914 0.5417027473 4284637802
-0.2405564487 -0.1519574970 0.5418353081 4284703595
-0.2406151146 -0.1513924003 0.5419674516 4284769390
-0.2406735867 -0.1508268714 0.5420991182 4284835183
-0.2407318652 -0.1502609402 0.5422304273 4284835183
-0.2403964996 -0.1494499892 0.5414750576 4284966769
-0.2404543012 -0.1488841623 0.5416052341 4285229939
-0.2405119091 -0.1483179331 0.5417349935 4285427318
-0.2405693382 -0.1477512866 0.5418643355 4285296504
-0.2406265587 -0.1471842378 0.5419932008 4285559676
-0.2406835854 -0.1466167867 0.5421217084 4285822848
-0.2407404333 -0.1460489333 0.5422497392 4286086020
-0.2407970726 -0.1454806775 0.5423772931 4286349192
-0.2408535331 -0.1449120343 0.5425044298 4286678157
-0.2409097850 -0.1443429738 0.5426311493 4286941586
-0.2413602173 -0.1440088302 0.5436457396 4287138965
-0.2414161861 -0.1434380412 0.5437718034 4287204758
-0.2418664992 -0.1431003064 0.5447860956 4287402137
-0.2419221550 -0.1425278038 0.5449114442 4287862688
-0.2419776171 -0.1419548988 0.5450363755 4288257446
-0.2424277067 -0.1416122466 0.5460501909 4288454825
-0.2424828559 -0.1410376132 0.5461744070 4288520618
-0.2429328114 -0.1406913698 0.5471878648 4288717997
-0.2429876477 -0.1401150227 0.5473114252 4288849583
-0.2434374839 -0.1397651881 0.5483246446 4288586928
-0.2438872904 -0.1394130737 0.5493377447 4288586928
-0.2439416945 -0.1388336867 0.5494603515 4288850100
-0.2439959049 -0.1382539123 0.5495824218 4289244858
-0.2440499216 -0.1376737654 0.5497040749 4289442237
-0.2444993556 -0.1373154074 0.5507164001 4289573823
-0.2445530295 -0.1367335469 0.5508373380 4289639871
-0.2450023144 -0.1363715976 0.5518493056 4289705664
-0.2454515696 -0.1360073835 0.5528612137 4289508285
-0.2455048114 -0.1354224980 0.5529811382 4290232008
-0.2459539175 -0.1350546926 0.5539926887 4291284694
-0.2460068315 -0.1344680935 0.5541118979 4292271589
-0.2410984039 -0.1799017340 0.5444179773 4292468970
-0.2411661297 -0.1793472171 0.5445709229 4292140005
-0.2412336767 -0.1787922382 0.5447234511 4291811040
-0.2413010746 -0.1782367826 0.5448756218 4291613661
-0.2413682789 -0.1776808649 0.5450273752 4291613143
-0.2414353192 -0.1771244854 0.5451787710 4291415764
-0.2418904603 -0.1768515110 0.5462065339 4291152592
-0.2419572622 -0.1762932986 0.5463573337 4290889420
-0.2420238853 -0.1757346392 0.5465077758 4290626248
-0.2420903444 -0.1751755178 0.5466578603 4290231490
-0.2421566099 -0.1746159345 0.5468075275 4289902525
-0.2422227114 -0.1740558892 0.5469567776 4289573560
-0.2418997288 -0.1732168943 0.5462274551 4288981421
-0.2419653684 -0.1726568490 0.5463756919 4288389284
-0.2420308441 -0.1720963269 0.5465235114 4287862427
-0.2420961261 -0.1715353578 0.5466709137 4287336083
-0.2421612293 -0.1709739417 0.5468179584 4286875532
-0.2422261685 -0.1704120636 0.5469645262 4286612360
-0.2422909141 -0.1698497385 0.5471107364 4286415494
-0.2423554808 -0.1692869663 0.5472565889 4286283908
-0.2424198687 -0.1687237322 0.5474019647 4286349190
-0.2424840778 -0.1681600660 0.5475469232 4286349190
-0.2425481081 -0.1675959378 0.5476915240 4286349190
-0.2426119596 -0.1670313776 0.5478357077 4286349190
-0.2426756173 -0.1664663553 0.5479794741 4286151811
-0.2427391112 -0.1659009010 0.5481228232 4286020225
-0.2424120456 -0.1650691926 0.5473842621 4285625467
-0.2424750626 -0.1645037532 0.5475265980 4285033330
-0.2421473265 -0.1636738926 0.5467865467 4284704365
-0.2422098815 -0.1631084979 0.5469277501 4284572779
-0.2422722429 -0.1625426561 0.5470685959 4284309607
-0.2423344105 -0.1619763821 0.5472089648 4284046435
-0.2420054376 -0.1611493379 0.5464661717 4283914849
-0.2420671433 -0.1605831087 0.5466054678 4283849056
-0.2421286702 -0.1600164473 0.5467444062 4283717470
-0.2417987436 -0.1591917574 0.5459994078 4283717470
-0.2418597937 -0.1586251557 0.5461372733 4283979874
-0.2415291965 -0.1578023732 0.5453907251 4283979874
-0.2415897697 -0.1572358161 0.5455275178 4283979874
-0.2412585020 -0.1564149261 0.5447794795 4283914081
-0.2413185984 -0.1558484584 0.5449151993 4283848288
-0.2413785160 -0.1552815586 0.5450505018 4283914081
-0.2406543493 -0.1542119235 0.5434153080 4284177253
-0.2407136858 -0.1536460221 0.5435492992 4284308839
-0.2403807044 -0.1528303921 0.5427973866 4284243816
-0.2404395789 -0.1522645950 0.5429303050 4284243816
-0.2404982448 -0.1516983658 0.5430628061 4284243816
-0.2405567318 -0.1511317343 0.5431948900 4284243816
-0.2406150252 -0.1505646855 0.5433264971 4284309609
-0.2406731397 -0.1499972194 0.5434576869 4284375402
-0.2407310456 -0.1494293511 0.5435884595 4284572781
-0.2403959632 -0.1486182213 0.5428318381 4284704367
-0.2404534072 -0.1480504721 0.5429615378 4284704365
-0.2405106425 -0.1474822909 0.5430907607 4284835951
-0.2405676991 -0.1469137222 0.5432196259 4285099125
-0.2406245470 -0.1463447511 0.5433480144 4285230711
-0.2406812161 -0.1457753628 0.5434759259 4285362297
-0.2407376766 -0.1452055871 0.5436034203 4285625469
-0.2407939583 -0.1446354091 0.5437304974 4285954434
-0.2412435710 -0.1443002224 0.5447458029 4286151813
-0.2412995547 -0.1437283158 0.5448721647 4286414985
-0.2417490482 -0.1433895379 0.5458871722 4286546571
-0.2418047190 -0.1428159028 0.5460128784 4286875793
-0.2418601960 -0.1422418654 0.5461381674 4287204758
-0.2419154644 -0.1416674256 0.5462629795 4287336344
-0.2423646301 -0.1413224041 0.5472772121 4287336344
-0.2428137809 -0.1409751028 0.5482914448 4287467930
-0.2428686321 -0.1403976232 0.5484153032 4287599516
-0.2433176488 -0.1400467306 0.5494291782 4287797412
-0.2433721870 -0.1394675374 0.5495523214 4287534240
-0.2434265167 -0.1388879418 0.5496750474 4287665826
-0.2434806675 -0.1383079737 0.5497972965 4288060584
-0.2439292967 -0.1379508376 0.5508103967 4288257963
-0.2443779111 -0.1375914216 0.5518233776 4288389549
-0.2440367341 -0.1367870718 0.5510529876 4288521390
-0.2444851100 -0.1364250034 0.5520654321 4288587183
-0.2449334562 -0.1360606849 0.5530778170 4288718769
-0.2449866384 -0.1354755759 0.5531979203 4289705664
-0.2454348207 -0.1351076514 0.5542099476 4291087315
-0.2454876751 -0.1345208436 0.5543292761 4292205796
-0.2400619388 -0.1807863414 0.5434405208 4292534763
-0.2401297987 -0.1802334785 0.5435941219 4292271591
-0.2401974946 -0.1796801388 0.5437473655 4292008419
-0.2402650267 -0.1791263372 0.5439002514 4291679454
-0.2403323799 -0.1785720736 0.5440527201 4291350489
-0.2403995693 -0.1780173481 0.5442048311 4291153110
-0.2404665798 -0.1774621457 0.5443565249 4291086799
-0.2405334264 -0.1769064963 0.5445078015 4290823627
-0.2406000942 -0.1763503700 0.5446587205 4290626248
-0.2410541326 -0.1760768741 0.5456866026 4290363076
-0.2411205620 -0.1755189300 0.5458369851 4289968318
-0.2411868125 -0.1749605238 0.5459869504 4289441974
-0.2412528843 -0.1744016558 0.5461364985 4288784044
-0.2413187921 -0.1738423407 0.5462856889 4288257700
-0.2409964502 -0.1730039716 0.5455560088 4287731354
-0.2410618961 -0.1724446416 0.5457041264 4287205010
-0.2411271632 -0.1718848497 0.5458518863 4286678153
-0.2411922514 -0.1713245958 0.5459992290 4286480774
-0.2412571609 -0.1707639098 0.5461462140 4286480774
-0.2413219064 -0.1702027619 0.5462927222 4286480774
-0.2413864583 -0.1696411520 0.5464388728 4286480774
-0.2414508313 -0.1690791100 0.5465846062 4286414981
-0.2415150404 -0.1685166061 0.5467299819 4286283397
-0.2415790558 -0.1679536551 0.5468748808 4286283397
-0.2416428924 -0.1673902571 0.5470193624 4286151811
-0.2417065501 -0.1668264270 0.5471634865 4286086018
-0.2417700291 -0.1662621349 0.5473071933 4286086018
-0.2418333143 -0.1656974107 0.5474504828 4286151811
-0.2418964356 -0.1651322246 0.5475933552 4285954432
-0.2419593632 -0.1645666212 0.5477358103 4285559674
-0.2416323721 -0.1637364626 0.5469955802 4285428088
-0.2416948378 -0.1631708890 0.5471369624 4285164916
-0.2417571098 -0.1626048684 0.5472779274 4284835951
-0.2414291650 -0.1617770493 0.5465355515 4284506986
-0.2414909750 -0.1612110734 0.5466755033 4284243814
-0.2415526062 -0.1606446654 0.5468149781 4283914849
-0.2416140288 -0.1600778103 0.5469540954 4283717470
-0.2412848622 -0.1592528373 0.5462089181 4283585884
-0.2413458228 -0.1586860418 0.5463469028 4283716702
-0.2414066046 -0.1581188291 0.5464844704 4283716702
-0.2410764694 -0.1572962403 0.5457371473 4283716702
-0.2411367744 -0.1567290872 0.5458736420 4283716702
-0.2411968857 -0.1561615020 0.5460097790 4283716702
-0.2408657968 -0.1553413123 0.5452602506 4283716702
-0.2409254462 -0.1547738165 0.5453952551 4283651679
-0.2409849018 -0.1542058736 0.5455298424 4283717472
-0.2406528592 -0.1533881277 0.5447782278 4283783265
-0.2407118380 -0.1528202742 0.5449117422 4283783265
-0.2407706231 -0.1522520185 0.5450447798 4283849058
-0.2408292294 -0.1516833454 0.5451774597 4283914851
-0.2408876270 -0.1511142552 0.5453096628 4283980644
-0.2409458458 -0.1505447477 0.5454414487 4284046437
-0.2406120002 -0.1497309655 0.5446857214 4284178023
-0.2402777672 -0.1489186287 0.5439291000 4284309609
-0.2403352112 -0.1483497471 0.5440591574 4284309607
-0.2403924763 -0.1477804631 0.5441887379 4284375400
-0.2404495329 -0.1472107619 0.5443179607 4284572779
-0.2405064106 -0.1466406584 0.5444466472 4284704365
-0.2405630797 -0.1460701674 0.5445749760 4284770158
-0.2406195700 -0.1454992592 0.5447028279 4284967537
-0.2406758517 -0.1449279487 0.5448302627 4285164918
-0.2407319546 -0.1443562359 0.5449572206 4285296504
-0.2411806583 -0.1440186799 0.5459730029 4285428347
-0.2412364483 -0.1434452534 0.5460993052 4285494140
-0.2416850179 -0.1431041062 0.5471147895 4285757312
-0.2417405099 -0.1425289363 0.5472403765 4286020484
-0.2417958081 -0.1419533640 0.5473655462 4286086279
-0.2418508977 -0.1413774043 0.5474902391 4286086279
-0.2422991246 -0.1410299987 0.5485049486 4286152072
-0.2427473366 -0.1406803280 0.5495195985 4286283658
-0.2428020090 -0.1401013136 0.5496433377 4286546831
-0.2428564727 -0.1395219266 0.5497666597 4286349452
-0.2429107428 -0.1389421225 0.5498895049 4286284173
-0.2429648042 -0.1383619457 0.5500118732 4286613138
-0.2434125394 -0.1380046904 0.5510254502 4286942358
-0.2434662879 -0.1374228001 0.5511471033 4287337116
-0.2435198277 -0.1368405223 0.5512683392 4287863460
-0.2439673096 -0.1364783496 0.5522812605 4288324011
-0.2440205216 -0.1358943582 0.5524017811 4288389804
-0.2440735400 -0.1353099942 0.5525217652 4289442492
-0.2449151278 -0.1351605505 0.5544269085 4290626764
-0.2449679077 -0.1345735341 0.5545463562 4291679452
-0.2450204641 -0.1339861304 0.5546653867 4292600554
-0.2390266806 -0.1816658527 0.5424608588 4292534763
-0.2390946895 -0.1811146587 0.5426151752 4292337384
-0.2391625196 -0.1805629879 0.5427691340 4292074212
-0.2392301708 -0.1800108403 0.5429226756 4291745247
-0.2392976731 -0.1794582307 0.5430758595 4291482075
-0.2393649966 -0.1789051592 0.5432286263 4291153110
-0.2394321561 -0.1783516109 0.5433810353 4290954961
-0.2394991368 -0.1777976006 0.5435330272 4290757582
-0.2395659536 -0.1772431284 0.5436846614 4290560455
-0.2396325916 -0.1766881943 0.5438359380 4290231490
-0.2396990508 -0.1761327982 0.5439867377 4289968318
-0.2397653461 -0.1755769402 0.5441372395 4289507767
-0.2402182966 -0.1753029078 0.5451651812 4288849837
-0.2402843535 -0.1747452319 0.5453150868 4288257700
-0.2399632037 -0.1739065945 0.5445862412 4287730843
-0.2400287986 -0.1733489037 0.5447351336 4287072913
-0.2404814810 -0.1730694324 0.5457624197 4286941327
-0.2401594818 -0.1722321361 0.5450316668 4286678155
-0.2402245551 -0.1716730744 0.5451793671 4286283395
-0.2402894497 -0.1711135507 0.5453266501 4286151809
-0.2403541654 -0.1705535799 0.5454735160 4286283395
-0.2404187173 -0.1699931473 0.5456199646 4286349188
-0.2404830754 -0.1694322824 0.5457660556 4286283395
-0.2405472547 -0.1688709557 0.5459117293 4286217602
-0.2406112701 -0.1683091819 0.5460569859 4286086531
-0.2406750917 -0.1677469611 0.5462018251 4286152324
-0.2407387495 -0.1671842933 0.5463463068 4286020738
-0.2408022135 -0.1666211784 0.5464903116 4285823359
-0.2408654988 -0.1660576165 0.5466339588 4285889152
-0.2409286052 -0.1654936075 0.5467771888 4285954945
-0.2409915328 -0.1649291664 0.5469199419 4285757053
-0.2410542667 -0.1643642783 0.5470623374 4285493881
-0.2411168218 -0.1637989581 0.5472043157 4285625467
-0.2411791980 -0.1632331908 0.5473458767 4285493881
-0.2412413955 -0.1626669765 0.5474870205 4285296502
-0.2409141958 -0.1618388891 0.5467444658 4284967537
-0.2409759164 -0.1612727195 0.5468845367 4284638572
-0.2410374582 -0.1607061177 0.5470241904 4284243814
-0.2410988063 -0.1601390839 0.5471634269 4283914849
-0.2407703847 -0.1593138278 0.5464180708 4283651677
-0.2408312559 -0.1587468535 0.5465562344 4283650909
-0.2408919632 -0.1581794471 0.5466939807 4283585116
-0.2405625731 -0.1573565751 0.5459464788 4283519321
-0.2406227887 -0.1567892283 0.5460831523 4283453528
-0.2406828254 -0.1562214643 0.5462194085 4283322712
-0.2407426834 -0.1556532681 0.5463551879 4283322712
-0.2404120564 -0.1548333019 0.5456048846 4283256921
-0.2404714227 -0.1542651802 0.5457396507 4283191128
-0.2405306101 -0.1536966413 0.5458739400 4283322714
-0.2401990443 -0.1528791040 0.5451214314 4283322714
-0.2406484187 -0.1525583118 0.5461412668 4283388505
-0.2403162718 -0.1517417878 0.5453875065 4283454298
-0.2403745949 -0.1511725038 0.5455198884 4283585884
-0.2404327393 -0.1506028026 0.5456517935 4283717470
-0.2404906750 -0.1500326991 0.5457833409 4283783265
-0.2405484319 -0.1494621783 0.5459143519 4283783265
-0.2406059951 -0.1488912404 0.5460450053 4283783263
-0.2406633645 -0.1483199000 0.5461751819 4283849056
-0.2407205254 -0.1477481574 0.5463049412 4284046435
-0.2407775074 -0.1471759975 0.5464342833 4284178021
-0.2408342957 -0.1466034353 0.5465631485 4284309607
-0.2408908904 -0.1460304707 0.5466915965 4284375400
-0.2409472913 -0.1454571038 0.5468195677 4284506988
-0.2410034835 -0.1448833346 0.5469471216 4284572781
-0.2410594821 -0.1443091631 0.5470741987 4284507245
-0.2415073514 -0.1439683139 0.5480906367 4284573038
-0.2411709130 -0.1431596279 0.5473270416 4284704624
-0.2412263155 -0.1425842643 0.5474528074 4285033589
-0.2412815392 -0.1420084983 0.5475781560 4285165175
-0.2417289615 -0.1416623145 0.5485935807 4285165175
-0.2417838722 -0.1410848349 0.5487181544 4285296761
-0.2422311753 -0.1407350451 0.5497332811 4285494140
-0.2422857732 -0.1401558369 0.5498571992 4285494143
-0.2423401624 -0.1395762265 0.5499806404 4285625729
-0.2423943579 -0.1389962435 0.5501036644 4285954694
-0.2424483597 -0.1384158581 0.5502261519 4286481038
-0.2425021380 -0.1378350854 0.5503482223 4287007381
-0.2429488599 -0.1374763995 0.5513620377 4287402139
-0.2430023253 -0.1368939131 0.5514833927 4287863460
-0.2434488833 -0.1365316212 0.5524968505 4288455597
-0.2435020357 -0.1359474212 0.5526174307 4288521388
-0.2435549796 -0.1353628486 0.5527375937 4289245111
-0.2440012693 -0.1349956393 0.5537504554 4290297799
-0.2440538853 -0.1344093531 0.5538698435 4291153108
-0.2441062927 -0.1338227093 0.5539888144 4292008417
-0.2379926592 -0.1825402975 0.5414790511 4292534763
-0.2380607873 -0.1819907576 0.5416340232 4292337384
-0.2381287515 -0.1814407557 0.5417886376 4292140005
-0.2381965518 -0.1808902770 0.5419428945 4291942626
-0.2378792614 -0.1800479740 0.5412210226 4291613661
-0.2379465997 -0.1794974506 0.5413742661 4291284696
-0.2383989245 -0.1792360097 0.5424033403 4291152340
-0.2384660393 -0.1786836535 0.5425560474 4290757582
-0.2385330051 -0.1781308353 0.5427083969 4290362824
-0.2385997772 -0.1775775552 0.5428603292 4290165445
-0.2386664003 -0.1770237982 0.5430119038 4290099391
-0.2387328297 -0.1764695942 0.5431630611 4289638840
-0.2387991101 -0.1759149134 0.5433138609 4289113009
-0.2388651967 -0.1753597856 0.5434642434 4288455079
-0.2389311194 -0.1748041809 0.5436142087 4287599770
-0.2389968783 -0.1742481291 0.5437638164 4287139219
-0.2390624583 -0.1736916155 0.5439130068 4286941327
-0.2391278595 -0.1731346399 0.5440618396 4286546569
-0.2391930819 -0.1725772172 0.5442102551 4286414983
-0.2392581403 -0.1720193326 0.5443582535 4286546569
-0.2393230200 -0.1714609861 0.5445058346 4286414981
-0.2393877208 -0.1709021926 0.5446530581 4286349188
-0.2398390919 -0.1706181467 0.5456799865 4286349188
-0.2399035394 -0.1700575352 0.5458266735 4286217602
-0.2395807654 -0.1692230999 0.5450922847 4286217602
-0.2396447659 -0.1686625034 0.5452378988 4286283395
-0.2397085726 -0.1681014597 0.5453830957 4286152322
-0.2397722155 -0.1675399691 0.5455278754 4286218115
-0.2398356646 -0.1669780314 0.5456722379 4286020736
-0.2398989499 -0.1664156467 0.5458161831 4285757564
-0.2399620414 -0.1658528149 0.5459597707 4285823357
-0.2400249690 -0.1652895361 0.5461028814 4285823357
-0.2400877029 -0.1647258252 0.5462456346 4285625978
-0.2401502579 -0.1641616672 0.5463879704 4285362806
-0.2402126193 -0.1635970622 0.5465298891 4285559672
-0.2402748168 -0.1630320251 0.5466713309 4285493879
-0.2403368205 -0.1624665558 0.5468124151 4285428086
-0.2403986305 -0.1619006395 0.5469530821 4285164914
-0.2400718033 -0.1610736549 0.5462095141 4284835949
-0.2401331663 -0.1605077833 0.5463491082 4284506984
-0.2401943356 -0.1599414796 0.5464882255 4284178019
-0.2402553111 -0.1593747437 0.5466269851 4283980640
-0.2399272472 -0.1585506052 0.5458806157 4283717472
-0.2399877608 -0.1579839289 0.5460182428 4283454300
-0.2400480956 -0.1574168354 0.5461555123 4283191126
-0.2401082218 -0.1568492949 0.5462923646 4282993747
-0.2401681840 -0.1562813371 0.5464287400 4282993747
-0.2402279526 -0.1557129622 0.5465647578 4282927954
-0.2398980707 -0.1548926979 0.5458142161 4282862163
-0.2399573624 -0.1543243974 0.5459491014 4282862163
-0.2400164753 -0.1537556648 0.5460835695 4282862163
-0.2400753796 -0.1531865150 0.5462176204 4282862163
-0.2401341051 -0.1526169628 0.5463512540 4282796368
-0.2401926368 -0.1520469785 0.5464844108 4282862161
-0.2402509898 -0.1514765769 0.5466171503 4282993747
-0.2403091341 -0.1509057581 0.5467494726 4283125333
-0.2399768829 -0.1500904858 0.5459935069 4283125335
-0.2400345653 -0.1495197713 0.5461247563 4283125335
-0.2400920391 -0.1489486545 0.5462555289 4283059540
-0.2401493341 -0.1483771205 0.5463858843 4283256919
-0.2402064353 -0.1478051692 0.5465157628 4283388505
-0.2402633280 -0.1472328305 0.5466452241 4283454298
-0.2403200418 -0.1466600746 0.5467742682 4283585884
-0.2403765619 -0.1460869163 0.5469028354 4283651677
-0.2404328734 -0.1455133557 0.5470309854 4283717983
-0.2404889911 -0.1449393779 0.5471586585 4283915362
-0.2405449301 -0.1443650126 0.5472859144 4283783522
-0.2409918755 -0.1440240592 0.5483028293 4283717729
-0.2406561971 -0.1432150900 0.5475390553 4283783522
-0.2411029339 -0.1428714544 0.5485554934 4283980901
-0.2411581576 -0.1422945559 0.5486811399 4284178280
-0.2412131876 -0.1417172700 0.5488063693 4284244073
-0.2412680238 -0.1411395818 0.5489311218 4284441452
-0.2413226515 -0.1405614913 0.5490553975 4284704624
-0.2413770854 -0.1399830282 0.5491792560 4285033592
-0.2414313257 -0.1394041628 0.5493026376 4285494143
-0.2414853573 -0.1388249099 0.5494256020 4286152072
-0.2415391803 -0.1382452697 0.5495480299 4286875795
-0.2423772067 -0.1381122023 0.5514547229 4287467932
-0.2424308062 -0.1375299096 0.5515766740 4287665311
-0.2424842119 -0.1369472295 0.5516981483 4287994276
-0.2425374091 -0.1363641620 0.5518192053 4288454827
-0.2425903976 -0.1357807070 0.5519397855 4288521388
-0.2426431775 -0.1351968795 0.5520598888 4289179318
-0.2426957637 -0.1346126646 0.5521795154 4290034627
-0.2431409359 -0.1342449486 0.5531923771 4290824143
-0.2431931943 -0.1336590350 0.5533112288 4291679452
-0.2370281219 -0.1828617752 0.5406507254 4292403177
-0.2370962203 -0.1823134273 0.5408060551 4292205798
-0.2367803752 -0.1814704984 0.5400856733 4292008419
-0.2368480265 -0.1809221059 0.5402399302 4291876833
-0.2369155139 -0.1803732365 0.5403938890 4291482075
-0.2369828224 -0.1798238903 0.5405474305 4291087315
-0.2370499671 -0.1792740822 0.5407005548 4290758350
-0.2371169478 -0.1787238121 0.5408533812 4290494408
-0.2371837646 -0.1781730801 0.5410057306 4290231236
-0.2372504026 -0.1776218712 0.5411577821 4289836478
-0.2373168766 -0.1770702153 0.5413093567 4289507513
-0.2373831868 -0.1765180826 0.5414606333 4289375668
-0.2374493182 -0.1759654880 0.5416114330 4288783531
-0.2375152707 -0.1754124314 0.5417619348 4288126114
-0.2379661202 -0.1751423180 0.5427902937 4287468184
-0.2380318493 -0.1745874435 0.5429401994 4286678668
-0.2380973995 -0.1740321219 0.5430897474 4286481289
-0.2381627858 -0.1734763235 0.5432388783 4286480774
-0.2382279932 -0.1729200780 0.5433875918 4286283395
-0.2382930219 -0.1723633856 0.5435359478 4286217602
-0.2383578867 -0.1718062162 0.5436838865 4286414981
-0.2384225726 -0.1712486148 0.5438314080 4286414981
-0.2384870797 -0.1706905365 0.5439785123 4286217602
-0.2389374077 -0.1704073250 0.5450057387 4286086016
-0.2382294536 -0.1692986637 0.5433909297 4286020223
-0.2382933348 -0.1687401533 0.5435366035 4286020223
-0.2383570224 -0.1681811810 0.5436819196 4286151809
-0.2384205461 -0.1676217765 0.5438268185 4286283908
-0.2384838909 -0.1670619100 0.5439713001 4286218115
-0.2385470569 -0.1665016115 0.5441153646 4286020736
-0.2386100441 -0.1659408659 0.5442590117 4285757564
-0.2386728376 -0.1653796732 0.5444023013 4285823357
-0.2387354672 -0.1648180336 0.5445451140 4285889150
-0.2387979180 -0.1642559618 0.5446875691 4285691771
-0.2388601750 -0.1636934429 0.5448296070 4285494392
-0.2389222682 -0.1631304920 0.5449711680 4285559672
-0.2389841676 -0.1625670940 0.5451123714 4285493879
-0.2390458882 -0.1620032638 0.5452531576 4285362293
-0.2391074151 -0.1614390016 0.5453935266 4285164914
-0.2391687781 -0.1608742923 0.5455334783 4284835949
-0.2392299473 -0.1603091508 0.5456730127 4284638570
-0.2392909229 -0.1597435921 0.5458120704 4284441191
-0.2393517196 -0.1591775864 0.5459507704 4284243812
-0.2394123375 -0.1586111486 0.5460890532 4283849058
-0.2394727767 -0.1580442935 0.5462268591 4283585886
-0.2391447872 -0.1572217643 0.5454787612 4283256919
-0.2392047495 -0.1566549689 0.5456155539 4282993747
-0.2392645180 -0.1560877413 0.5457518697 4282862161
-0.2393241078 -0.1555200964 0.5458877683 4282796368
-0.2393835038 -0.1549520195 0.5460232496 4282730577
-0.2394427210 -0.1543835253 0.5461583138 4282598991
-0.2395017445 -0.1538146138 0.5462929606 4282598991
-0.2395605743 -0.1532452852 0.5464271307 4282467405
-0.2396192104 -0.1526755244 0.5465608835 4282335817
-0.2396776676 -0.1521053463 0.5466942191 4282335817
-0.2397359312 -0.1515347660 0.5468271375 4282401610
-0.2397940010 -0.1509637535 0.5469595790 4282533196
-0.2398518771 -0.1503923386 0.5470916033 4282533198
-0.2395201027 -0.1495772898 0.5463348627 4282467405
-0.2395775020 -0.1490059793 0.5464657545 4282533196
-0.2396347225 -0.1484342515 0.5465962887 4282533196
-0.2396917343 -0.1478621215 0.5467263460 4282598989
-0.2397485524 -0.1472895741 0.5468559265 4282664782
-0.2398051918 -0.1467166245 0.5469850898 4282664782
-0.2398616225 -0.1461432725 0.5471138358 4282796368
-0.2399178594 -0.1455695182 0.5472421050 4282993747
-0.2399739176 -0.1449953467 0.5473699570 4283125333
-0.2400297672 -0.1444207877 0.5474973321 4282993749
-0.2400854230 -0.1438458264 0.5476242900 4282862163
-0.2405313551 -0.1435034275 0.5486414433 4282796627
-0.2405866981 -0.1429267228 0.5487676859 4282994006
-0.2406418622 -0.1423496306 0.5488935113 4283257178
-0.2406968176 -0.1417721361 0.5490188599 4283388764
-0.2407515645 -0.1411942542 0.5491437316 4283783522
-0.2408061326 -0.1406159699 0.5492681861 4284244073
-0.2408604920 -0.1400372982 0.5493921638 4284836213
-0.2409146428 -0.1394582391 0.5495157242 4285296764
-0.2409685999 -0.1388787925 0.5496388078 4286020486
-0.2410223633 -0.1382989436 0.5497614145 4286744209
-0.2414672822 -0.1379422843 0.5507762432 4287336346
-0.2415207177 -0.1373607218 0.5508981347 4287599518
-0.2415739596 -0.1367787868 0.5510196090 4287994276
-0.2416269928 -0.1361964643 0.5511405468 4288389034
-0.2416798323 -0.1356137544 0.5512610674 4288455595
-0.2417324632 -0.1350306571 0.5513811111 4289113525
-0.2417848855 -0.1344471872 0.5515006781 4289903041
-0.2418370992 -0.1338633299 0.5516198277 4290692557
-0.2418891191 -0.1332791001 0.5517384410 4291613659
-0.2419409305 -0.1326944977 0.5518566370 4292600554
-0.2356823385 -0.1828841418 0.5389463902 4292337384
-0.2357502729 -0.1823378652 0.5391017795 4292140005
-0.2362008691 -0.1820862591 0.5401321650 4291942626
-0.2358856499 -0.1812439263 0.5394113660 4291679454
-0.2359530926 -0.1806962490 0.5395655632 4291482075
-0.2360203713 -0.1801481098 0.5397194028 4291021524
-0.2360874861 -0.1795994937 0.5398728848 4290691787
-0.2357710600 -0.1787597537 0.5391492844 4290297029
-0.2358377278 -0.1782110929 0.5393017530 4289968064
-0.2362878025 -0.1779508591 0.5403310061 4289704892
-0.2363542467 -0.1774003804 0.5404829383 4289375927
-0.2364205122 -0.1768494248 0.5406344533 4288981169
-0.2364866287 -0.1762980223 0.5407856107 4288586152
-0.2365525514 -0.1757461578 0.5409364104 4287994015
-0.2366183102 -0.1751938313 0.5410867929 4287336596
-0.2366839051 -0.1746410429 0.5412367582 4286810252
-0.2367493361 -0.1740877926 0.5413863659 4286283908
-0.2368145734 -0.1735340953 0.5415355563 4286152322
-0.2368796617 -0.1729799211 0.5416843891 4286151809
-0.2369445562 -0.1724253148 0.5418328047 4286020223
-0.2370092869 -0.1718702316 0.5419808030 4286217602
-0.2370738536 -0.1713147014 0.5421284437 4286283395
-0.2375231981 -0.1710359305 0.5431560278 4286217857
-0.2375875115 -0.1704785973 0.5433030725 4286086271
-0.2376516461 -0.1699208021 0.5434497595 4286020478
-0.2377156019 -0.1693625599 0.5435960293 4286020478
-0.2377793938 -0.1688038707 0.5437418818 4286217087
-0.2378430068 -0.1682447344 0.5438873172 4286217087
-0.2379064411 -0.1676851362 0.5440323949 4286218115
-0.2379696816 -0.1671251059 0.5441769958 4286152322
-0.2376469672 -0.1662946641 0.5434390306 4286020736
-0.2377097756 -0.1657346487 0.5435826182 4285954943
-0.2377723902 -0.1651741862 0.5437258482 4285954943
-0.2378348261 -0.1646132767 0.5438686013 4285954943
-0.2378970832 -0.1640519351 0.5440109968 4285757564
-0.2379591614 -0.1634901464 0.5441529155 4285428599
-0.2380210459 -0.1629279256 0.5442944765 4285625465
-0.2380827665 -0.1623652577 0.5444356203 4285559672
-0.2381442934 -0.1618021578 0.5445762873 4285493879
-0.2382056415 -0.1612386256 0.5447165966 4285230707
-0.2382668108 -0.1606746614 0.5448564887 4284901742
-0.2383278012 -0.1601102501 0.5449959040 4284638570
-0.2383885980 -0.1595454067 0.5451349616 4284506984
-0.2384492159 -0.1589801461 0.5452736020 4284309605
-0.2385096550 -0.1584144384 0.5454117656 4283783522
-0.2385699004 -0.1578483135 0.5455495715 4283520350
-0.2382425815 -0.1570264250 0.5448010564 4283454298
-0.2383023500 -0.1564603597 0.5449377298 4283256919
-0.2383619398 -0.1558938771 0.5450739861 4282993747
-0.2384213507 -0.1553269625 0.5452098846 4282862161
-0.2384805679 -0.1547596306 0.5453453064 4282730577
-0.2385396063 -0.1541918665 0.5454802513 4282533198
-0.2385984510 -0.1536236852 0.5456148386 4282533198
-0.2386571020 -0.1530550867 0.5457489491 4282335819
-0.2387155741 -0.1524860710 0.5458826423 4282072645
-0.2387738526 -0.1519166231 0.5460159183 4282006852
-0.2388319373 -0.1513467729 0.5461487770 4282072645
-0.2388898283 -0.1507765055 0.5462811589 4282204231
-0.2389475405 -0.1502058208 0.5464131236 4282204233
-0.2390050441 -0.1496347338 0.5465446115 4282138440
-0.2390623689 -0.1490632147 0.5466757417 4282203463
-0.2391194999 -0.1484913081 0.5468063354 4282137670
-0.2391764373 -0.1479189694 0.5469365716 4282137668
-0.2392331958 -0.1473462433 0.5470663309 4282137668
-0.2389006466 -0.1465344429 0.5463058949 4282137668
-0.2389569134 -0.1459618211 0.5464345813 4282203461
-0.2390129864 -0.1453888118 0.5465627909 4282270024
-0.2390688658 -0.1448153853 0.5466905832 4282335817
-0.2391245514 -0.1442415565 0.5468178988 4282335817
-0.2395695895 -0.1439013183 0.5478355885 4282401610
-0.2396249622 -0.1433257610 0.5479622483 4282533196
-0.2396801561 -0.1427498013 0.5480884314 4282927954
-0.2397351414 -0.1421734542 0.5482141376 4283322712
-0.2397899330 -0.1415967047 0.5483394861 4283651677
-0.2398445308 -0.1410195529 0.5484642982 4284178534
-0.2398989201 -0.1404420137 0.5485886931 4284770671
-0.2399531156 -0.1398640871 0.5487126112 4285362556
-0.2400071174 -0.1392857581 0.5488361120 4285691521
-0.2400609106 -0.1387070417 0.5489591360 4286217865
-0.2401145101 -0.1381279528 0.5490816832 4286744209
-0.2405584157 -0.1377721131 0.5500968099 4287204760
-0.2406117022 -0.1371912956 0.5502186418 4287599518
-0.2406647801 -0.1366100907 0.5503399968 4288125862
-0.2407176644 -0.1360285133 0.5504609346 4288586413
-0.2407703400 -0.1354465485 0.5505813956 4288783790
-0.2408228070 -0.1348641962 0.5507013798 4289441720
-0.2408750802 -0.1342814565 0.5508209467 4290100420
-0.2409271449 -0.1336983591 0.5509399772 4290824143
-0.2405878007 -0.1328987777 0.5501639843 4291679452
-0.2406393737 -0.1323158592 0.5502819419 4292468968
-0.2347893119 -0.1826550812 0.5382714272 4292337129
-0.2348570377 -0.1821095347 0.5384266973 4292008164
-0.2349245995 -0.1815635264 0.5385815501 4291679452
-0.2349920124 -0.1810170412 0.5387361050 4291284694
-0.2350592464 -0.1804700941 0.5388902426 4291283924
-0.2351263165 -0.1799226701 0.5390440226 4291020752
-0.2348107994 -0.1790831238 0.5383206606 4290625994
-0.2348774225 -0.1785356551 0.5384734273 4290165443
-0.2349438965 -0.1779877245 0.5386257768 4289836732
-0.2350101918 -0.1774393320 0.5387777686 4289507767
-0.2350763232 -0.1768904626 0.5389294028 4288915628
-0.2351422757 -0.1763411462 0.5390806198 4288323491
-0.2352080792 -0.1757913679 0.5392314792 4287994015
-0.2352737039 -0.1752411127 0.5393819213 4287467671
-0.2353391498 -0.1746904105 0.5395319462 4286875534
-0.2357878387 -0.1744228601 0.5405606031 4286546569
-0.2358530611 -0.1738703400 0.5407101512 4286546569
-0.2359181046 -0.1733173728 0.5408592820 4286546569
-0.2359829843 -0.1727639288 0.5410079956 4286414983
-0.2360477000 -0.1722100377 0.5411563516 4286283397
-0.2361122370 -0.1716556996 0.5413042903 4286349190
-0.2361765951 -0.1711008996 0.5414518714 4286283397
-0.2362407744 -0.1705456376 0.5415989757 4286217604
-0.2366890311 -0.1702663451 0.5426266193 4286217604
-0.2367529720 -0.1697092801 0.5427732468 4286020225
-0.2368167341 -0.1691517681 0.5429194570 4286086018
-0.2368803322 -0.1685938090 0.5430652499 4286283397
-0.2369437516 -0.1680354029 0.5432106256 4286217604
-0.2370069921 -0.1674765348 0.5433555841 4286349188
-0.2370700538 -0.1669172347 0.5435001850 4286217602
-0.2367479801 -0.1660874188 0.5427618027 4286086016
-0.2368105799 -0.1655281335 0.5429053307 4285954430
-0.2368730158 -0.1649684012 0.5430484414 4285954430
-0.2369352579 -0.1644082218 0.5431911349 4285954430
-0.2369973212 -0.1638476104 0.5433334112 4285823357
-0.2370592207 -0.1632865667 0.5434753299 4285625978
-0.2371209264 -0.1627250761 0.5436167717 4285560185
-0.2371824533 -0.1621631384 0.5437578559 4285428599
-0.2372438014 -0.1616007686 0.5438984632 4285297013
-0.2373049557 -0.1610379666 0.5440387130 4285033841
-0.2373659462 -0.1604747325 0.5441785455 4284836462
-0.2374267429 -0.1599110663 0.5443179011 4284704876
-0.2374873608 -0.1593469530 0.5444568992 4284573290
-0.2375477999 -0.1587824225 0.5445954204 4284244325
-0.2376080453 -0.1582174599 0.5447335839 4284112226
-0.2376681119 -0.1576520652 0.5448712707 4283914847
-0.2373414487 -0.1568308175 0.5441223383 4283651675
-0.2374010384 -0.1562654823 0.5442590117 4283520089
-0.2374604493 -0.1556997299 0.5443952084 4283388503
-0.2375196815 -0.1551335454 0.5445309877 4283256917
-0.2375787199 -0.1545669436 0.5446663499 4282993745
-0.2376375794 -0.1539999247 0.5448012352 4282862159
-0.2376962453 -0.1534324735 0.5449357629 4282862161
-0.2377547175 -0.1528646201 0.5450698137 4282664782
-0.2378130108 -0.1522963345 0.5452034473 4282401610
-0.2378711104 -0.1517276317 0.5453366637 4282138438
-0.2379290164 -0.1511585116 0.5454694033 4282072645
-0.2379867435 -0.1505889893 0.5456017256 4282204231
-0.2380442768 -0.1500190347 0.5457336307 4282335817
-0.2381016165 -0.1494486779 0.5458651185 4282401610
-0.2381587625 -0.1488779187 0.5459961295 4282204231
-0.2382157296 -0.1483067423 0.5461267233 4282204231
-0.2382724881 -0.1477351487 0.5462568402 4282270024
-0.2383290678 -0.1471631527 0.5463865399 4282401610
-0.2383854538 -0.1465907395 0.5465158224 4282335817
-0.2380532920 -0.1457801163 0.5457543135 4282335817
-0.2381092012 -0.1452078372 0.5458824635 4282467403
-0.2381649166 -0.1446351558 0.5460101962 4282664782
-0.2382204235 -0.1440620720 0.5461374521 4282665295
-0.2386644483 -0.1437226683 0.5471554399 4282862674
-0.2387196720 -0.1431478560 0.5472820401 4283060053
-0.2387746871 -0.1425726265 0.5474081635 4283520604
-0.2388295084 -0.1419970244 0.5475338697 4283981155
-0.2388841361 -0.1414210051 0.5476590991 4284310120
-0.2389385700 -0.1408445984 0.5477838516 4284770671
-0.2389927953 -0.1402678043 0.5479081869 4285362808
-0.2390468270 -0.1396906078 0.5480320454 4285560450
-0.2391006649 -0.1391130388 0.5481554866 4286021001
-0.2391542941 -0.1385350674 0.5482784510 4286415759
-0.2392077297 -0.1379567087 0.5484009385 4286810517
-0.2396506518 -0.1376017034 0.5494163632 4287337116
-0.2397037745 -0.1370216310 0.5495381355 4287797667
-0.2397566885 -0.1364411712 0.5496594906 4288192425
-0.2398094088 -0.1358603239 0.5497803092 4288587183
-0.2398619205 -0.1352790892 0.5499007106 4288981939
-0.2399142385 -0.1346974820 0.5500206947 4289705662
-0.2399663478 -0.1341155022 0.5501401424 4290363592
-0.2396279871 -0.1333160102 0.5493644476 4291087315
-0.2396796048 -0.1327342093 0.5494827628 4291942624
-0.2397310287 -0.1321520507 0.5496006608 4292468968
-0.2333132327 -0.1837575585 0.5362528563 4292469228
-0.2333811224 -0.1832150370 0.5364089012 4292402924
-0.2334488630 -0.1826720536 0.5365645885 4292271338
-0.2335164398 -0.1821285933 0.5367199183 4291942371
-0.2332028002 -0.1812884510 0.5359990001 4291613406
-0.2332699448 -0.1807449311 0.5361533165 4291284694
-0.2337181866 -0.1804953963 0.5371835828 4290889936
-0.2337851077 -0.1799500585 0.5373374224 4290757580
-0.2338518649 -0.1794042587 0.5374908447 4290428615
-0.2335368693 -0.1785662174 0.5367668271 4290034111
-0.2336031795 -0.1780203581 0.5369192958 4289639353
-0.2336693406 -0.1774740517 0.5370713472 4289244595
-0.2333534062 -0.1766381860 0.5363451838 4288784044
-0.2338011414 -0.1763800383 0.5373742580 4288126112
-0.2338667959 -0.1758323461 0.5375251770 4287533975
-0.2339322865 -0.1752841771 0.5376756787 4287072913
-0.2339975983 -0.1747355610 0.5378258228 4286743948
-0.2340627462 -0.1741864830 0.5379755497 4286480776
-0.2348928601 -0.1742043793 0.5398834944 4286349190
-0.2349578738 -0.1736525893 0.5400329232 4286349190
-0.2350227237 -0.1731003374 0.5401819944 4286349190
-0.2350874096 -0.1725476384 0.5403306484 4286349190
-0.2347689420 -0.1717143506 0.5395986438 4286217604
-0.2348331660 -0.1711616367 0.5397462845 4286349190
-0.2348972261 -0.1706084609 0.5398935676 4286283397
-0.2353444248 -0.1703322530 0.5409213901 4286151811
-0.2354082316 -0.1697772890 0.5410680771 4286151811
-0.2354718745 -0.1692218632 0.5412143469 4286086018
-0.2355353534 -0.1686659753 0.5413601995 4286020225
-0.2355986536 -0.1681096554 0.5415056944 4286217604
-0.2356617749 -0.1675528735 0.5416507721 4286217604
-0.2357247174 -0.1669956595 0.5417954326 4286283395
-0.2357874811 -0.1664379984 0.5419397354 4286217602
-0.2362341881 -0.1661500484 0.5429664254 4286217602
-0.2362967134 -0.1655905843 0.5431101322 4286151809
-0.2363590449 -0.1650306731 0.5432534218 4286020223
-0.2360367775 -0.1642028838 0.5425127149 4285888637
-0.2360986620 -0.1636430025 0.5426549315 4285757051
-0.2361603677 -0.1630826890 0.5427967310 4285625465
-0.2362218797 -0.1625219285 0.5429381728 4285560185
-0.2362832278 -0.1619607359 0.5430791378 4285494392
-0.2363443822 -0.1613990963 0.5432197452 4285297013
-0.2364053577 -0.1608370245 0.5433598757 4285033841
-0.2364661694 -0.1602745205 0.5434995890 4284836462
-0.2365267724 -0.1597115844 0.5436389446 4284770669
-0.2365872115 -0.1591482162 0.5437778234 4284573290
-0.2366474569 -0.1585844159 0.5439163446 4284244325
-0.2363220155 -0.1577628255 0.5431683064 4284244325
-0.2363817990 -0.1571990848 0.5433056951 4284046946
-0.2364414036 -0.1566349119 0.5434427261 4283783774
-0.2368866205 -0.1563249230 0.5444660187 4283717981
-0.2365600467 -0.1555052996 0.5437154174 4283652188
-0.2366191000 -0.1549398601 0.5438511372 4283586395
-0.2366779596 -0.1543740034 0.5439863801 4283323223
-0.2367366254 -0.1538077146 0.5441212654 4283060051
-0.2371814102 -0.1534909904 0.5451435447 4283125331
-0.2368534207 -0.1526738852 0.5443897247 4283059538
-0.2369115353 -0.1521063298 0.5445232391 4282862161
-0.2369694561 -0.1515383720 0.5446563959 4282664782
-0.2370271981 -0.1509699970 0.5447891355 4282664782
-0.2370847464 -0.1504012048 0.5449213982 4282730575
-0.2371421009 -0.1498319954 0.5450531840 4282796368
-0.2371992618 -0.1492623687 0.5451846123 4282862161
-0.2372562438 -0.1486923397 0.5453155637 4282599502
-0.2373130322 -0.1481219083 0.5454460979 4282599502
-0.2373696268 -0.1475510597 0.5455761552 4282665295
-0.2374260277 -0.1469797939 0.5457057953 4282731088
-0.2374822497 -0.1464081258 0.5458350182 4282731088
-0.2375382632 -0.1458360702 0.5459637642 4282796881
-0.2375940830 -0.1452635825 0.5460920334 4283060053
-0.2376497239 -0.1446907073 0.5462199450 4283257432
-0.2377051562 -0.1441174299 0.5463473201 4283454557
-0.2377603948 -0.1435437500 0.5464743376 4283651936
-0.2378154546 -0.1429696828 0.5466008186 4283915108
-0.2378703058 -0.1423951983 0.5467269421 4284375659
-0.2379249632 -0.1418203264 0.5468525290 4284902003
-0.2383676469 -0.1414754838 0.5478700399 4285099382
-0.2384219915 -0.1408988684 0.5479949713 4285428347
-0.2384761572 -0.1403218806 0.5481194258 4285888898
-0.2385301143 -0.1397444904 0.5482434630 4285823877
-0.2385838628 -0.1391667128 0.5483670235 4286350221
-0.2386374325 -0.1385885477 0.5484901071 4286744979
-0.2386907935 -0.1380099803 0.5486127734 4287139737
-0.2387439460 -0.1374310404 0.5487349629 4287731874
-0.2387969196 -0.1368517131 0.5488566756 4288192425
-0.2388496697 -0.1362719834 0.5489779115 4288587183
-0.2385131419 -0.1354708970 0.5482044220 4288981941
-0.2385654151 -0.1348913610 0.5483245850 4289376697
-0.2386174947 -0.1343114376 0.5484442711 4290100420
-0.2386693656 -0.1337311417 0.5485634804 4290824143
-0.2387210280 -0.1331504732 0.5486822724 4291482073
-0.2387724966 -0.1325694174 0.5488005280 4292205796
-0.2324238420 -0.1835255772 0.5355758667 4292402924
-0.2324915379 -0.1829837859 0.5357318521 4292205545
-0.2325590700 -0.1824415326 0.5358874798 4291942373
-0.2318662107 -0.1813043654 0.5342909098 4291613406
-0.2319332063 -0.1807629317 0.5344452858 4291284441
-0.2323803604 -0.1805164814 0.5354756713 4290889938
-0.2324471325 -0.1799732298 0.5356295109 4290429387
-0.2332748324 -0.1800168306 0.5375367999 4290297283
-0.2325801849 -0.1788853109 0.5359361172 4289836732
-0.2326464653 -0.1783406585 0.5360888243 4289441974
-0.2327125669 -0.1777955443 0.5362411737 4289113009
-0.2327785194 -0.1772499532 0.5363931656 4288652456
-0.2332253903 -0.1769931167 0.5374228954 4288060319
-0.2325287312 -0.1758690923 0.5358175635 4287467924
-0.2325940728 -0.1753230095 0.5359681249 4286875787
-0.2322778404 -0.1744899601 0.5352394581 4286480776
-0.2323427498 -0.1739438623 0.5353890061 4286283397
-0.2335523516 -0.1742514670 0.5381762981 4286217604
-0.2336172462 -0.1737017632 0.5383257866 4286283397
-0.2336819619 -0.1731515974 0.5384749174 4286217604
