VERSION 0.7
FIELDS x y z rgba
SIZE 4 4 4 4
TYPE F F F U
COUNT 1 1 1 1
WIDTH 920
HEIGHT 1
VIEWPOINT 0.0 0.0 0.0 1.0 0.0 0.0 0.0
POINTS 920
DATA ascii
-0.2657195628 -0.1794871092 0.5699942708 4284705141
-0.2657901049 -0.1789012700 0.5701455474 4284770934
-0.2662669420 -0.1785876304 0.5711684227 4285099899
-0.2663371861 -0.1779999584 0.5713191032 4285231485
-0.2664072216 -0.1774118245 0.5714693666 4285231485
-0.2664770782 -0.1768232435 0.5716192126 4285363071
-0.2669536769 -0.1765032411 0.5726415515 4285691008
-0.2670232356 -0.1759128273 0.5727908015 4285559422
-0.2674997449 -0.1755892038 0.5738129616 4285559422
-0.2679762840 -0.1752633303 0.5748351812 4285493629
-0.2676381171 -0.1744042635 0.5741097331 4285559422
-0.2681144476 -0.1740756631 0.5751315355 4285822594
-0.2681832314 -0.1734811515 0.5752791166 4285888900
-0.2686595023 -0.1731489152 0.5763007402 4286020486
-0.2687279880 -0.1725525856 0.5764476061 4286152072
-0.2687962651 -0.1719557941 0.5765941143 4286349451
-0.2688643634 -0.1713585407 0.5767401457 4286546828
-0.2689322233 -0.1707608402 0.5768857598 4286875793
-0.2689999044 -0.1701626927 0.5770309567 4287205528
-0.2690673769 -0.1695640981 0.5771756768 4287600286
-0.2691346407 -0.1689650416 0.5773199797 4287995044
-0.2692017257 -0.1683655381 0.5774638057 4288258216
-0.2692685723 -0.1677656025 0.5776072741 4288717997
-0.2693352401 -0.1671652049 0.5777502060 4288849583
-0.2694016695 -0.1665643603 0.5778927803 4289178548
-0.2694679201 -0.1659630835 0.5780348778 4289639099
-0.2695339620 -0.1653613597 0.5781764984 4290099650
-0.2695997655 -0.1647591889 0.5783177018 4290362822
-0.2696653903 -0.1641565710 0.5784584880 4290495178
-0.2697308064 -0.1635535359 0.5785987973 4290692557
-0.2697960138 -0.1629500389 0.5787386298 4290889936
-0.2698609829 -0.1623461246 0.5788780451 4291021522
-0.2699257731 -0.1617417634 0.5790169835 4291218901
-0.2699903250 -0.1611369699 0.5791555047 4291416280
-0.2704644799 -0.1607753336 0.5801725984 4291547866
-0.2705287337 -0.1601687670 0.5803104043 4291613659
-0.2705927789 -0.1595617533 0.5804477334 4291679452
-0.2706565857 -0.1589543074 0.5805846453 4291679452
-0.2707201838 -0.1583464444 0.5807210803 4291679454
-0.2707835734 -0.1577381492 0.5808570385 4291679454
-0.2708467543 -0.1571294218 0.5809925795 4291811040
-0.2709096968 -0.1565202773 0.5811276436 4291942626
-0.2709724605 -0.1559107006 0.5812622309 4292074212
-0.2710349858 -0.1553007066 0.5813963413 4292140005
-0.2710973024 -0.1546902955 0.5815300345 4292270821
-0.2711593807 -0.1540794522 0.5816632509 4292205028
-0.2712212801 -0.1534681916 0.5817959309 4292139235
-0.2712829113 -0.1528565139 0.5819282532 4292073442
-0.2709332407 -0.1520137638 0.5811781287 4292073442
-0.2709943652 -0.1514021754 0.5813092589 4292073442
-0.2710552812 -0.1507901847 0.5814399123 4292139235
-0.2711159587 -0.1501777768 0.5815700889 4292139235
-0.2711764276 -0.1495649666 0.5816997886 4292073442
-0.2712366879 -0.1489517540 0.5818290710 4292073442
-0.2712967098 -0.1483381093 0.5819578171 4291876833
-0.2713565230 -0.1477240771 0.5820860863 4291942626
-0.2718279660 -0.1473328620 0.5830973983 4291942626
-0.2714754641 -0.1464947909 0.5823412538 4292008419
-0.2715346217 -0.1458795369 0.5824681520 4291942626
-0.2715935409 -0.1452638805 0.5825945139 4291942626
-0.2716522217 -0.1446478367 0.5827203989 4291942626
-0.2717106938 -0.1440313756 0.5828458071 4291942626
-0.2717689276 -0.1434145421 0.5829707384 4291942626
-0.2718269527 -0.1427972913 0.5830952525 4291942626
-0.2718847394 -0.1421796530 0.5832191706 4292008419
-0.2719423175 -0.1415616274 0.5833426714 4292008419
-0.2724123895 -0.1411570758 0.5843510628 4291942626
-0.2724696100 -0.1405373216 0.5844737887 4291942626
-0.2725265622 -0.1399171799 0.5845959783 4292008419
-0.2725833058 -0.1392966509 0.5847176909 4291942626
-0.2726398408 -0.1386757344 0.5848389268 4292008417
-0.2722829282 -0.1378452480 0.5840733647 4292074210
-0.2727521658 -0.1374327391 0.5850799084 4292074210
-0.2728079855 -0.1368106753 0.5851996541 4292008417
-0.2728635967 -0.1361882240 0.5853189230 4292008417
-0.2725054324 -0.1353599876 0.5845506191 4292008417
-0.2725605071 -0.1347377151 0.5846687555 4292074210
-0.2726153135 -0.1341150850 0.5847862959 4292140003
-0.2726698816 -0.1334920675 0.5849034190 4292271589
-0.2731381059 -0.1330702901 0.5859077573 4292271589
-0.2731922865 -0.1324455887 0.5860239863 4292271589
-0.2732462585 -0.1318205148 0.5861397982 4292337382
-0.2732999921 -0.1311950535 0.5862550139 4292337382
-0.2733534873 -0.1305692494 0.5863698125 4292403175
-0.2738210261 -0.1301399469 0.5873726606 4292403175
-0.2738741338 -0.1295124441 0.5874865651 4292468968
-0.2743414044 -0.1290795654 0.5884889364 4292731372
-0.2743941247 -0.1284503937 0.5886020660 4292731372
-0.2744466066 -0.1278208494 0.5887145996 4292797163
-0.2744988501 -0.1271909475 0.5888266563 4292862956
-0.2745508552 -0.1265607029 0.5889382362 4292928749
-0.2746025920 -0.1259300858 0.5890492797 4292928749
-0.2746541202 -0.1252991110 0.5891597867 4292928749
-0.2747054100 -0.1246677861 0.5892697573 4292994542
-0.2747564614 -0.1240361109 0.5893792510 4293191921
-0.2748072445 -0.1234040782 0.5894882679 4293323507
-0.2748578191 -0.1227717027 0.5895966887 4293389300
-0.2749081254 -0.1221389696 0.5897046328 4293389300
-0.2749582231 -0.1215059012 0.5898120999 4293455093
-0.2750080526 -0.1208724827 0.5899189711 4293520886
-0.2750576437 -0.1202387139 0.5900253654 4293652472
-0.2751069963 -0.1196046099 0.5901312232 4293784058
-0.2751561105 -0.1189701706 0.5902366042 4293784826
-0.2752049565 -0.1183353812 0.5903413892 4293850619
-0.2768317759 -0.1078184843 0.5938310623 4293785341
-0.2772932947 -0.1073373482 0.5948210955 4293324790
-0.2773376703 -0.1066935211 0.5949162245 4292929519
-0.2773817778 -0.1060493886 0.5950108171 4292797933
-0.2774256170 -0.1054049507 0.5951048732 4292468968
-0.2774692178 -0.1047602072 0.5951983929 4291942624
-0.2775125504 -0.1041151583 0.5952913761 4291284694
-0.2775556445 -0.1034698114 0.5953838229 4290495178
-0.2780159116 -0.1029787809 0.5963711143 4289770685
-0.2780585587 -0.1023318693 0.5964626074 4288520618
-0.2789360881 -0.1019900069 0.5983449817 4287073172
-0.2789783180 -0.1013405547 0.5984356403 4286217863
-0.2790203393 -0.1006908044 0.5985257030 4285954691
-0.2786443233 -0.0998910069 0.5977191329 4285823105
-0.2786857188 -0.0992416441 0.5978079438 4285822848
-0.2787269056 -0.0985919982 0.5978962779 4285757055
-0.2787677944 -0.0979420617 0.5979840159 4285625469
-0.2788084447 -0.0972918421 0.5980712175 4285428090
-0.2788488269 -0.0966413394 0.5981578231 4285164918
-0.2788889706 -0.0959905535 0.5982438922 4284704367
-0.2789288163 -0.0953394920 0.5983294249 4284375402
-0.2789684236 -0.0946881473 0.5984143615 4284309609
-0.2794260681 -0.0941775143 0.5993961096 4284244073
-0.2794652283 -0.0935246423 0.5994800329 4283915108
-0.2795041203 -0.0928714946 0.5995634794 4283849315
-0.2799611986 -0.0923561305 0.6005439758 4283915108
-0.2799996138 -0.0917014629 0.6006264091 4283717729
-0.2800377607 -0.0910465270 0.6007082462 4283717729
-0.2796570063 -0.0902562141 0.5998914838 4283980901
-0.2801132798 -0.0897358581 0.6008701921 4284046694
-0.2801506519 -0.0890801325 0.6009503603 4284112489
-0.2806065679 -0.0885563120 0.6019283533 4284046696
-0.2806434631 -0.0878990814 0.6020074487 4284244073
-0.2806800902 -0.0872415900 0.6020860076 4284507245
-0.2807164490 -0.0865838453 0.6021640301 4284836210
-0.2807525396 -0.0859258473 0.6022414565 4285165175
-0.2803692818 -0.0851403251 0.6014193296 4285296761
-0.2812430561 -0.0847353712 0.6032936573 4285428347
-0.2812784016 -0.0840756297 0.6033694744 4285362554
-0.2813134789 -0.0834156424 0.6034447551 4285757312
-0.2809289992 -0.0826320797 0.6026200056 4286152070
-0.2813828290 -0.0820949376 0.6035935283 4286349449
-0.2814171016 -0.0814342201 0.6036670208 4286547082
-0.2814511061 -0.0807732642 0.6037399769 4286876047
-0.2814848423 -0.0801120624 0.6038123369 4287139219
-0.2815183103 -0.0794506297 0.6038841009 4287205012
-0.2819710970 -0.0789063796 0.6048554182 4287205528
-0.2820040882 -0.0782434940 0.6049261689 4287337114
-0.2824564874 -0.0776958242 0.6058965921 4287402907
-0.2824889719 -0.0770314857 0.6059662700 4287534493
-0.2825211883 -0.0763669163 0.6060353518 4287666079
-0.2825531065 -0.0757021308 0.6061038971 4287797665
-0.2825847864 -0.0750371143 0.6061717868 4287995044
-0.2830361128 -0.0744823813 0.6071399450 4288126630
-0.2830672860 -0.0738159344 0.6072068214 4288389802
-0.2830981910 -0.0731492639 0.6072731018 4288652974
-0.2822886407 -0.0722673014 0.6055365801 4288916146
-0.2831591368 -0.0718152821 0.6074038744 4289179318
-0.2836093903 -0.0712535307 0.6083696485 4289574076
-0.2840594351 -0.0706895813 0.6093350649 4289837248
-0.2836687863 -0.0699162856 0.6084970832 4289969347
-0.2836980820 -0.0692473501 0.6085599661 4290232519
-0.2837271094 -0.0685782135 0.6086221933 4290626248
-0.2837558389 -0.0679088682 0.6086838245 4290889420
-0.2837843001 -0.0672393218 0.6087449193 4291021520
-0.2838124931 -0.0665695742 0.6088053584 4291218899
-0.2838403881 -0.0658996254 0.6088652015 4291350485
-0.2842885852 -0.0653261170 0.6098266244 4291547864
-0.2838954031 -0.0645591468 0.6089831591 4292007901
-0.2843430936 -0.0639832616 0.6099435687 4292205280
-0.2839492857 -0.0632178932 0.6090987921 4292008417
-0.2839758098 -0.0625469834 0.6091556549 4292074210
-0.2840020359 -0.0618758872 0.6092119813 4292271589
-0.2840279937 -0.0612046048 0.6092676520 4292403175
-0.2840536833 -0.0605331361 0.6093227863 4292468968
-0.2844999731 -0.0599501729 0.6102800369 4292534761
-0.2845251262 -0.0592773519 0.6103340387 4292732140
-0.2849709392 -0.0586910471 0.6112903953 4292797933
-0.2849955857 -0.0580168776 0.6113432646 4292666347
-0.2850199640 -0.0573425330 0.6113954782 4292732140
-0.2850440443 -0.0566680171 0.6114471555 4292995310
-0.2846467793 -0.0559106208 0.6105949879 4293258482
-0.2846702635 -0.0552367643 0.6106453538 4293324275
-0.2846934497 -0.0545627400 0.6106951237 4293390068
-0.2842952013 -0.0538088381 0.6098408103 4293521908
-0.2847390175 -0.0532142036 0.6107928753 4293653494
-0.2847613990 -0.0525396951 0.6108408570 4293850102
-0.2847834826 -0.0518650301 0.6108881831 4293981688
-0.2603592575 -0.2304013073 0.5598297119 4292666094
-0.2608403265 -0.2302038521 0.5608640909 4292073443
-0.2609261572 -0.2296562344 0.5610486269 4291218134
-0.2602208853 -0.2284138054 0.5595321655 4289507516
-0.2603061497 -0.2278667688 0.5597155094 4287994277
-0.2607870102 -0.2276646644 0.5607494712 4287993763
-0.2608720958 -0.2271157205 0.5609324574 4287204247
-0.2609570622 -0.2265662402 0.5611150861 4285954180
-0.2610418499 -0.2260162234 0.5612974167 4285033078
-0.2607302666 -0.2251235396 0.5606274605 4285229941
-0.2608146369 -0.2245732844 0.5608088374 4286151043
-0.2608988583 -0.2240225077 0.5609899163 4287137938
-0.2601896524 -0.2227919400 0.5594649911 4287730075
-0.2598765492 -0.2219029814 0.5587917566 4287927456
-0.2599599361 -0.2213531286 0.5589710474 4287927456
-0.2592491210 -0.2201285213 0.5574426651 4287927456
-0.2585376501 -0.2189067602 0.5559128523 4287598491
-0.2586200833 -0.2183586806 0.5560900569 4287532698
-0.2587023377 -0.2178100795 0.5562669039 4287795870
-0.2587844133 -0.2172609419 0.5564434528 4287466905
-0.2580710649 -0.2160455137 0.5549095869 4287072147
-0.2577548325 -0.2151649892 0.5542296171 4287203733
-0.2578361034 -0.2146168351 0.5544043183 4287137940
-0.2583152056 -0.2143985182 0.5554345250 4287203733
-0.2583962679 -0.2138484716 0.5556088686 4287203733
-0.2580789030 -0.2129692584 0.5549264550 4287006354
-0.2581595480 -0.2124190480 0.5550997853 4286808975
-0.2582400143 -0.2118683010 0.5552728176 4286940561
-0.2583203018 -0.2113170475 0.5554454923 4287137940
-0.2587992251 -0.2110905349 0.5564752817 4287664284
-0.2588793337 -0.2105374038 0.5566475391 4287664284
-0.2593583167 -0.2103073150 0.5576774478 4287795870
-0.2590390742 -0.2094296068 0.5569910407 4287927456
-0.2587194443 -0.2085530907 0.5563037395 4288124835
-0.2587988079 -0.2079987675 0.5564743280 4288519593
-0.2592774630 -0.2077640593 0.5575036407 4288848558
-0.2589569986 -0.2068885863 0.5568144917 4288980144
-0.2590358555 -0.2063327432 0.5569840670 4289374902
-0.2591145337 -0.2057763785 0.5571532249 4289638074
-0.2591930628 -0.2052195221 0.5573220849 4289835451
-0.2588712871 -0.2043463141 0.5566302538 4290164416
-0.2589493692 -0.2037892938 0.5567981005 4290361795
-0.2594276369 -0.2035458833 0.5578264594 4290230209
-0.2595054805 -0.2029870003 0.5579938889 4290098625
-0.2595831752 -0.2024276108 0.5581609607 4289967039
-0.2596606910 -0.2018677294 0.5583276153 4289572798
-0.2597380579 -0.2013073415 0.5584939718 4289375419
-0.2598152459 -0.2007464468 0.5586599112 4288717489
-0.2598922551 -0.2001850605 0.5588254929 4287862180
-0.2603702843 -0.1999312341 0.5598533750 4287270043
-0.2604470849 -0.1993679702 0.5600185394 4287006871
-0.2605237067 -0.1988042295 0.5601832867 4286612113
-0.2606001496 -0.1982399672 0.5603476167 4286019976
-0.2606764138 -0.1976752281 0.5605116487 4286019974
-0.2607525289 -0.1971099824 0.5606752634 4286283146
-0.2608284354 -0.1965442598 0.5608385205 4286677904
-0.2609041929 -0.1959780306 0.5610014200 4286612111
-0.2609797716 -0.1954112947 0.5611639619 4285954694
-0.2610551715 -0.1948440820 0.5613260865 4285428350
-0.2603257000 -0.1936776936 0.5597575307 4285296764
-0.2612054646 -0.1937081814 0.5616492033 4285296764
-0.2604751587 -0.1925443113 0.5600789189 4285099385
-0.2613550425 -0.1925703287 0.5619708300 4285559936
-0.2610267401 -0.1917048246 0.5612649322 4286283658
-0.2611009777 -0.1911355555 0.5614244938 4287007381
-0.2611750066 -0.1905658096 0.5615837574 4287599518
-0.2616520524 -0.1902887672 0.5626094341 4288323241
-0.2617258430 -0.1897171587 0.5627681613 4288981172
-0.2622028589 -0.1894365251 0.5637938380 4289375930
-0.2626799047 -0.1891536266 0.5648195744 4289507516
-0.2631570101 -0.1888684928 0.5658454299 4289507516
-0.2632304132 -0.1882923096 0.5660033226 4289179320
-0.2633036375 -0.1877156496 0.5661607981 4288652976
-0.2633766830 -0.1871384978 0.5663178563 4287995046
-0.2634495497 -0.1865608841 0.5664744973 4287468702
-0.2635222375 -0.1859827787 0.5666307807 4286876310
-0.2639990151 -0.1856885552 0.5676559806 4286284173
-0.2640714347 -0.1851086169 0.5678116679 4285363071
-0.2641436458 -0.1845281869 0.5679669976 4285034106
-0.2642157078 -0.1839472950 0.5681218505 4284507762
-0.2642875314 -0.1833659261 0.5682763457 4284178797
-0.2639543712 -0.1825041622 0.5675599575 4284309869
-0.2640257478 -0.1819227338 0.5677134395 4284507248
-0.2640969157 -0.1813408434 0.5678664446 4284770419
-0.2641679049 -0.1807584763 0.5680190921 4284902005
-0.2642386854 -0.1801756322 0.5681713223 4284967798
-0.2647146881 -0.1798677742 0.5691947937 4285296763
-0.2647852004 -0.1792831123 0.5693464279 4285559935
-0.2648555338 -0.1786979735 0.5694976449 4285757314
-0.2653313577 -0.1783851385 0.5705208182 4285954693
-0.2654014230 -0.1777981669 0.5706714392 4286152072
-0.2654712796 -0.1772107482 0.5708216429 4286481037
-0.2655409276 -0.1766228527 0.5709714293 4286941588
-0.2656103969 -0.1760345101 0.5711207986 4287138967
-0.2660859227 -0.1757139564 0.5721432567 4287467932
-0.2661550939 -0.1751237810 0.5722919703 4287994276
-0.2666305304 -0.1747996211 0.5733142495 4288257448
-0.2666994035 -0.1742076278 0.5734624267 4288520620
-0.2671747506 -0.1738798320 0.5744845271 4288849585
-0.2672433555 -0.1732860059 0.5746319890 4289112757
-0.2677186131 -0.1729545891 0.5756539106 4289441722
-0.2677869201 -0.1723589599 0.5758007765 4289836478
-0.2678550184 -0.1717628688 0.5759472251 4289968064
-0.2679229081 -0.1711663306 0.5760931969 4290362822
-0.2679906189 -0.1705693305 0.5762387514 4290625994
-0.2680581212 -0.1699718833 0.5763838887 4290823373
-0.2681253850 -0.1693739891 0.5765286088 4291020752
-0.2681924701 -0.1687756479 0.5766728520 4291153108
-0.2682593763 -0.1681768596 0.5768166780 4291284694
-0.2683260441 -0.1675776094 0.5769600272 4291283924
-0.2679846287 -0.1667241603 0.5762258768 4291283924
-0.2684587836 -0.1663777828 0.5772454739 4291284694
-0.2681167424 -0.1655252725 0.5765100121 4291482073
-0.2681825161 -0.1649251580 0.5766513944 4291613659
-0.2682480514 -0.1643246114 0.5767923594 4291679452
-0.2683134079 -0.1637236327 0.5769328475 4291745245
-0.2683785260 -0.1631222069 0.5770728588 4291811038
-0.2684434652 -0.1625203341 0.5772125125 4291745245
-0.2685081661 -0.1619180441 0.5773516297 4291745245
-0.2685726881 -0.1613153070 0.5774903297 4291811038
-0.2686369717 -0.1607121378 0.5776286125 4291876831
-0.2691100240 -0.1603522301 0.5786457658 4291876831
-0.2691740096 -0.1597472876 0.5787833333 4291811038
-0.2692377567 -0.1591418982 0.5789204240 4291811038
-0.2693013251 -0.1585360914 0.5790570974 4291811038
-0.2697740197 -0.1581698656 0.5800734758 4292139233
-0.2698372304 -0.1575622708 0.5802094340 4292007647
-0.2694906890 -0.1567160934 0.5794642568 4292007647
-0.2695533931 -0.1561085731 0.5795990825 4292073440
-0.2696158588 -0.1555006355 0.5797334313 4292073440
-0.2696781158 -0.1548922658 0.5798673034 4292139233
-0.2697401643 -0.1542834938 0.5800006986 4292139233
-0.2698020041 -0.1536742896 0.5801336765 4292073440
-0.2698636353 -0.1530646682 0.5802661777 4291876831
-0.2699250281 -0.1524546295 0.5803982019 4291876831
-0.2695758939 -0.1516133994 0.5796474814 4291942624
-0.2696367800 -0.1510034651 0.5797783732 4292008417
-0.2696974277 -0.1503931135 0.5799087882 4292074210
-0.2697578669 -0.1497823447 0.5800387263 4292205796
-0.2698180676 -0.1491711736 0.5801682472 4292205796
-0.2698780596 -0.1485596001 0.5802972317 4292205796
-0.2699378431 -0.1479476094 0.5804257393 4292271589
-0.2699974179 -0.1473352015 0.5805538297 4292337382
-0.2704677880 -0.1469457299 0.5815652609 4292403175
-0.2701158524 -0.1461092085 0.5808085203 4292403175
-0.2701747417 -0.1454955935 0.5809351206 4292403175
-0.2702334225 -0.1448815912 0.5810613036 4292403175
-0.2702918649 -0.1442671865 0.5811869502 4292403175
-0.2703500688 -0.1436523795 0.5813121796 4292403175
-0.2704080939 -0.1430371851 0.5814368725 4292534761
-0.2708775401 -0.1426383704 0.5824462771 4292534761
-0.2705233991 -0.1418056041 0.5816848278 4292600554
-0.2705807388 -0.1411892176 0.5818080902 4292666347
-0.2706378400 -0.1405724436 0.5819308758 4292666347
-0.2711067200 -0.1401683092 0.5829390883 4292732140
-0.2711634636 -0.1395498216 0.5830610991 4292732140
-0.2712199688 -0.1389309466 0.5831825733 4292732140
-0.2712762356 -0.1383116692 0.5833035707 4292798444
-0.2713322937 -0.1376920342 0.5834240913 4292798444
-0.2713881135 -0.1370719969 0.5835441351 4292929517
-0.2714436948 -0.1364515871 0.5836637020 4292929517
-0.2714990675 -0.1358307898 0.5837827325 4292995310
-0.2711414993 -0.1350041330 0.5830138922 4292995310
-0.2711963058 -0.1343835145 0.5831317306 4293061103
-0.2712509036 -0.1337625384 0.5832490921 4293126896
-0.2717182040 -0.1333438307 0.5842539072 4293192689
-0.2717724144 -0.1327211559 0.5843704939 4293192689
-0.2718263865 -0.1320981085 0.5844865441 4293258482
-0.2722933292 -0.1316744983 0.5854905248 4293324275
-0.2727601826 -0.1312486231 0.5864943862 4293390068
-0.2728136182 -0.1306225806 0.5866093040 4293455861
-0.2728668153 -0.1299961507 0.5867236853 4293718519
-0.2729197741 -0.1293693781 0.5868375897 4293784312
-0.2729725242 -0.1287422180 0.5869509578 4293718519
-0.2730250061 -0.1281147152 0.5870638490 4293784312
-0.2730772793 -0.1274868399 0.5871762037 4293850105
-0.2731292844 -0.1268586069 0.5872880816 4293850105
-0.2760029435 -0.1057742462 0.5934670568 4293719548
-0.2760466337 -0.1051314920 0.5935609937 4293521656
-0.2760900259 -0.1044884324 0.5936543345 4293192691
-0.2761332095 -0.1038450748 0.5937471390 4292929519
-0.2761760950 -0.1032014117 0.5938394070 4292271589
-0.2762187719 -0.1025574505 0.5939311385 4291613659
-0.2766778469 -0.1020669118 0.5949182510 4290889936
-0.2775535583 -0.1017268673 0.5968012214 4289902271
-0.2775956392 -0.1010790989 0.5968917012 4288783790
-0.2776374519 -0.1004310399 0.5969815850 4287862688
-0.2776790261 -0.0997826904 0.5970709920 4286941586
-0.2777203321 -0.0991340503 0.5971598029 4286415242
-0.2777613997 -0.0984851196 0.5972480774 4286152070
-0.2778021991 -0.0978358984 0.5973358154 4286020484
-0.2778427303 -0.0971863940 0.5974229574 4285954691
-0.2778829932 -0.0965366066 0.5975096226 4285757312
-0.2779230177 -0.0958865434 0.5975956321 4285559933
-0.2779627740 -0.0952361971 0.5976811647 4285428347
-0.2780022919 -0.0945855677 0.5977661014 4285362554
-0.2780415416 -0.0939346626 0.5978504419 4285099382
-0.2784980536 -0.0934235528 0.5988320708 4284836210
-0.2785368264 -0.0927711204 0.5989154577 4284836210
-0.2789930105 -0.0922565311 0.5998963714 4285033589
-0.2790313363 -0.0916025862 0.5999787450 4284967796
-0.2790693641 -0.0909483656 0.6000605822 4284836210
-0.2791071832 -0.0902938768 0.6001418233 4284836210
-0.2791447043 -0.0896391273 0.6002225280 4284902003
-0.2791819572 -0.0889841169 0.6003026366 4285033591
-0.2792189717 -0.0883288458 0.6003822088 4285099384
-0.2796737552 -0.0878045559 0.6013600826 4285362556
-0.2797102630 -0.0871477872 0.6014386415 4285428349
-0.2797465324 -0.0864907578 0.6015166044 4285625728
-0.2789461017 -0.0855768695 0.5997955203 4285823107
-0.2802365422 -0.0853032544 0.6025701761 4285888898
-0.2802720368 -0.0846444815 0.6026465893 4285954691
-0.2803072929 -0.0839854553 0.6027223468 4285954691
-0.2795054615 -0.0830774531 0.6009982228 4286283656
-0.2799585462 -0.0825432912 0.6019724607 4286546828
-0.2799929380 -0.0818845183 0.6020464301 4286744207
-0.2800270617 -0.0812254995 0.6021198034 4286810770
-0.2804795504 -0.0806866735 0.6030927896 4287073942
-0.2805131972 -0.0800261945 0.6031650901 4287402905
-0.2805465758 -0.0793654770 0.6032368541 4287534491
-0.2809984684 -0.0788219944 0.6042085290 4287534493
-0.2814501822 -0.0782763064 0.6051798463 4287666079
-0.2814828455 -0.0776129141 0.6052500606 4287863458
-0.2815152407 -0.0769492909 0.6053197384 4288126630
-0.2815473676 -0.0762854442 0.6053888202 4288324009
-0.2815792263 -0.0756213665 0.6054573059 4288455595
-0.2816108167 -0.0749570727 0.6055251956 4288718767
-0.2816421390 -0.0742925480 0.6055925488 4288981939
-0.2820923328 -0.0737373680 0.6065605879 4289376697
-0.2812847495 -0.0728542656 0.6048240662 4289639869
-0.2817344368 -0.0722976625 0.6057910323 4289903041
-0.2817646563 -0.0716322735 0.6058560014 4290166213
-0.2826332748 -0.0711778775 0.6077237129 4290429898
-0.2826630473 -0.0705100745 0.6077877283 4290693070
-0.2826925218 -0.0698420629 0.6078511477 4290890449
-0.2823022902 -0.0690712184 0.6070120335 4291022035
-0.2823311687 -0.0684037805 0.6070741415 4291481557
-0.2823598087 -0.0677361488 0.6071357131 4291678936
-0.2823881507 -0.0670683086 0.6071966290 4291745243
-0.2824162245 -0.0664002672 0.6072570086 4291811036
-0.2824440300 -0.0657320321 0.6073167920 4291876831
-0.2828912735 -0.0651602745 0.6082784534 4292008417
-0.2829185426 -0.0644906536 0.6083371043 4292336612
-0.2829455435 -0.0638208389 0.6083952188 4292468198
-0.2825524509 -0.0630571395 0.6075499058 4292140003
-0.2825788558 -0.0623879395 0.6076067090 4292205796
-0.2826049924 -0.0617185533 0.6076629162 4292337382
-0.2826308608 -0.0610489845 0.6077185273 4292403175
-0.2826564312 -0.0603792295 0.6077735424 4292403177
-0.2826817632 -0.0597092956 0.6078279614 4292534763
-0.2831268609 -0.0591269061 0.6087850332 4292666349
-0.2835717499 -0.0585423484 0.6097416282 4292732142
-0.2835962772 -0.0578698926 0.6097944379 4292600556
-0.2836205661 -0.0571972616 0.6098465919 4292666349
-0.2828041017 -0.0563569777 0.6080910563 4292863726
-0.2832480073 -0.0557687394 0.6090455055 4293061105
-0.2832713723 -0.0550965965 0.6090958118 4293126896
-0.2832944989 -0.0544242896 0.6091454625 4293258482
-0.2833173275 -0.0537518151 0.6091945767 4293390068
-0.2829194963 -0.0530004278 0.6083391309 4293587447
-0.2833621502 -0.0524063855 0.6092909575 4293718517
-0.2833841443 -0.0517334342 0.6093382239 4293784310
-0.2834058404 -0.0510603264 0.6093848944 4293981688
-0.2592683136 -0.2312268913 0.5588184595 4292863473
-0.2593542039 -0.2306824028 0.5590035915 4292599787
-0.2590456605 -0.2297876328 0.5583385825 4291744478
-0.2591311336 -0.2292428911 0.5585228205 4290231238
-0.2596110106 -0.2290457040 0.5595571399 4288981171
-0.2596963346 -0.2284990698 0.5597410202 4287599518
-0.2597814798 -0.2279518843 0.5599245429 4286810002
-0.2594715655 -0.2270585597 0.5592565536 4287862177
-0.2595563233 -0.2265111357 0.5594391823 4287993763
-0.2596409023 -0.2259631753 0.5596215129 4287994017
-0.2597253323 -0.2254146785 0.5598035455 4287730845
-0.2598096132 -0.2248656452 0.5599851608 4287335317
-0.2594981790 -0.2239746451 0.5593138933 4286216836
-0.2595820427 -0.2234253883 0.5594946742 4285822078
-0.2596657276 -0.2228755951 0.5596750379 4286874766
-0.2593533397 -0.2219863534 0.5590016842 4287795870
-0.2586444318 -0.2207601964 0.5574737787 4287861663
-0.2583310604 -0.2198740989 0.5567983985 4288388007
-0.2580173314 -0.2189891636 0.5561221242 4288585386
-0.2577031553 -0.2181053758 0.5554449558 4288519593
-0.2573885918 -0.2172227651 0.5547669530 4288453800
-0.2570736110 -0.2163413018 0.5540880561 4288256421
-0.2563613951 -0.2151280046 0.5525529981 4288322214
-0.2568393946 -0.2149140686 0.5535832644 4288651179
-0.2561262548 -0.2137039602 0.5520461798 4288782765
-0.2566040754 -0.2134881467 0.5530760884 4289374902
-0.2566846609 -0.2129404992 0.5532497764 4289967039
-0.2563676238 -0.2120635509 0.5525664687 4289967039
-0.2560501993 -0.2111877799 0.5518822670 4289901246
-0.2569254935 -0.2112944424 0.5537688732 4290098625
-0.2566076219 -0.2104185075 0.5530837178 4290361797
-0.2570852637 -0.2101945132 0.5541132092 4290427335
-0.2575629950 -0.2099683136 0.5551428795 4290427335
-0.2576425970 -0.2094162107 0.5553144813 4290624969
-0.2577220500 -0.2088636011 0.5554856658 4290690762
-0.2570044100 -0.2076665461 0.5539389253 4290624969
-0.2570832968 -0.2071146220 0.5541089177 4290690762
-0.2571620047 -0.2065622061 0.5542786121 4290624969
-0.2576393783 -0.2063286602 0.5553075075 4290296004
-0.2573189437 -0.2054558247 0.5546168685 4290032832
-0.2573971748 -0.2049018741 0.5547854900 4289967039
-0.2574752271 -0.2043474317 0.5549536943 4289638074
-0.2575531304 -0.2037924677 0.5551216006 4289506488
-0.2572314441 -0.2029219121 0.5544282794 4289374900
-0.2573088706 -0.2023668140 0.5545951724 4289111728
-0.2573861480 -0.2018112093 0.5547617674 4288782765
-0.2574632764 -0.2012551129 0.5549279451 4288585386
-0.2579401433 -0.2010101527 0.5559557676 4288388781
-0.2584170699 -0.2007629722 0.5569837093 4288454574
-0.2584939003 -0.2002036422 0.5571493506 4288322988
-0.2581703365 -0.1993347704 0.5564519167 4287730851
-0.2586471140 -0.1990834922 0.5574795604 4287533726
-0.2587234378 -0.1985226721 0.5576440692 4287928484
-0.2592002451 -0.1982678026 0.5586717725 4288060070
-0.2592763603 -0.1977051198 0.5588358045 4287731105
-0.2593522966 -0.1971419454 0.5589994788 4287599519
-0.2594280839 -0.1965782642 0.5591627955 4287599519
-0.2599047720 -0.1963170618 0.5601902604 4287665312
-0.2599803209 -0.1957515329 0.5603531003 4287665312
-0.2596543431 -0.1948843002 0.5596505404 4287599519
-0.2597294450 -0.1943186522 0.5598123670 4287796898
-0.2590012252 -0.1931535900 0.5582427979 4288454828
-0.2598790824 -0.1931858957 0.5601348877 4289046965
-0.2599536180 -0.1926187873 0.5602955818 4289442237
-0.2600280046 -0.1920512021 0.5604558587 4289573823
-0.2601021826 -0.1914831102 0.5606157780 4289705664
-0.2601762116 -0.1909145415 0.5607753396 4289508285
-0.2606523037 -0.1906396896 0.5618014932 4288850355
-0.2607260644 -0.1900692731 0.5619604588 4287995046
-0.2612021267 -0.1897908002 0.5629866123 4287205275
-0.2612756789 -0.1892185360 0.5631450415 4286744724
-0.2617517114 -0.1889364570 0.5641711354 4286021001
-0.2622278035 -0.1886521280 0.5651972890 4285494657
-0.2623010278 -0.1880766600 0.5653550625 4285165947
-0.2623740435 -0.1875006855 0.5655124784 4285100154
-0.2624468803 -0.1869242489 0.5656694770 4284902775
-0.2625195384 -0.1863473356 0.5658260584 4284902775
-0.2629953921 -0.1860552877 0.5668516755 4285100154
-0.2630677819 -0.1854765266 0.5670077801 4285100154
-0.2631400228 -0.1848972738 0.5671634078 4285363071
-0.2632120550 -0.1843175590 0.5673186779 4285692036
-0.2632838786 -0.1837373674 0.5674735308 4286086794
-0.2633555532 -0.1831566989 0.5676279664 4286349966
-0.2634270191 -0.1825755537 0.5677819848 4286744209
-0.2634982765 -0.1819939315 0.5679355860 4287204760
-0.2631651163 -0.1811336130 0.5672175288 4287731104
-0.2632359266 -0.1805519462 0.5673701167 4288060069
-0.2633065283 -0.1799698174 0.5675222874 4288652206
-0.2637814879 -0.1796627641 0.5685460567 4288849585
-0.2638518214 -0.1790788025 0.5686976314 4289244341
-0.2639219761 -0.1784943789 0.5688487887 4289573306
-0.2639918923 -0.1779094785 0.5689995289 4289836478
-0.2640616596 -0.1773241162 0.5691499114 4290099650
-0.2641312182 -0.1767382920 0.5692998171 4290494408
-0.2646057904 -0.1764221787 0.5703226924 4290823373
-0.2646750808 -0.1758345366 0.5704720020 4291152338
-0.2647441626 -0.1752464324 0.5706208944 4291349717
-0.2652185559 -0.1749253273 0.5716434717 4291547096
-0.2652873695 -0.1743354052 0.5717917085 4291547096
-0.2657617033 -0.1740106791 0.5728141069 4291744475
-0.2658301890 -0.1734189391 0.5729617476 4291941854
-0.2663044631 -0.1730905771 0.5739839673 4292007647
-0.2663726807 -0.1724970192 0.5741309524 4292270819
-0.2664406896 -0.1719029993 0.5742775798 4292073440
-0.2665084898 -0.1713085175 0.5744237304 4292007647
-0.2665761113 -0.1707135886 0.5745694637 4292139233
-0.2666435242 -0.1701182127 0.5747147202 4292270819
-0.2667107284 -0.1695223749 0.5748596191 4292205028
-0.2667777240 -0.1689261049 0.5750040412 4292205028
-0.2668445408 -0.1683293730 0.5751479864 4292205028
-0.2669111192 -0.1677321941 0.5752915740 4292139235
-0.2669775188 -0.1671345681 0.5754346251 4292008417
-0.2666366398 -0.1662826240 0.5746999383 4291942624
-0.2671096921 -0.1659379750 0.5757195354 4291942624
-0.2671754956 -0.1653390229 0.5758613348 4292008417
-0.2668336928 -0.1644884944 0.5751246214 4292074210
-0.2668989599 -0.1638895720 0.5752652884 4292140003
-0.2669640183 -0.1632902026 0.5754055381 4292140003
-0.2670288682 -0.1626904011 0.5755453110 4292205796
-0.2670935094 -0.1620901674 0.5756846666 4292205796
-0.2671579719 -0.1614894867 0.5758235455 4292140003
-0.2672221959 -0.1608883888 0.5759620070 4292140003
-0.2672862113 -0.1602868438 0.5760999918 4292205796
-0.2673500180 -0.1596848667 0.5762375593 4292337382
-0.2678219080 -0.1593253464 0.5772545934 4292403175
-0.2678853869 -0.1587215811 0.5773914456 4292534761
-0.2679486573 -0.1581174135 0.5775278211 4292600554
-0.2684202790 -0.1577529013 0.5785443783 4292797163
-0.2684832513 -0.1571469456 0.5786800385 4292731370
-0.2681372464 -0.1563023031 0.5779342651 4292797163
-0.2681996524 -0.1556964219 0.5780688524 4292862956
-0.2682618797 -0.1550901085 0.5782029033 4292862956
-0.2683238983 -0.1544833779 0.5783365369 4292994542
-0.2683856785 -0.1538762301 0.5784697533 4293061105
-0.2684472501 -0.1532686651 0.5786024332 4293126898
-0.2680992782 -0.1524279714 0.5778524876 4293061105
-0.2681603432 -0.1518204957 0.5779840350 4293126898
-0.2682211697 -0.1512126029 0.5781151652 4293192691
-0.2682817876 -0.1506043077 0.5782458186 4293192691
-0.2683421969 -0.1499955952 0.5783759952 4293258484
-0.2684023678 -0.1493864805 0.5785056949 4293324277
-0.2684623301 -0.1487769485 0.5786349177 4293390070
-0.2685220540 -0.1481669992 0.5787637234 4293390070
-0.2685815990 -0.1475566626 0.5788919926 4293455863
-0.2686409056 -0.1469459087 0.5790198445 4293390070
-0.2691102028 -0.1465581656 0.5800313950 4293390068
-0.2691691518 -0.1459456682 0.5801584721 4293390068
-0.2688174844 -0.1451112330 0.5794004798 4293455861
-0.2688758969 -0.1444988847 0.5795263648 4293521654
-0.2689341009 -0.1438861191 0.5796518326 4293587447
-0.2689920962 -0.1432729661 0.5797767639 4293587447
-0.2690498531 -0.1426594108 0.5799012780 4293521654
-0.2691073716 -0.1420454681 0.5800252557 4293587447
-0.2695756257 -0.1416470557 0.5810344815 4293587447
-0.2692217529 -0.1408164054 0.5802718401 4293653240
-0.2692786157 -0.1402012855 0.5803943872 4293850619
-0.2697464526 -0.1397988796 0.5814027190 4293850619
-0.2747991979 -0.1029327065 0.5922932029 4293455863
-0.2748416662 -0.1022904366 0.5923847556 4292863726
-0.2757156193 -0.1019554287 0.5942684412 4292600554
-0.2757577002 -0.1013106182 0.5943591595 4292074210
-0.2762155533 -0.1008173525 0.5953459740 4291350487
-0.2762571871 -0.1001709774 0.5954357386 4290560971
-0.2762985826 -0.0995243192 0.5955249667 4289639869
-0.2763397396 -0.0988773704 0.5956136584 4288586411
-0.2763806283 -0.0982301310 0.5957017541 4287862688
-0.2764212489 -0.0975826085 0.5957893133 4287270551
-0.2764616013 -0.0969347954 0.5958763361 4286810000
-0.2765017152 -0.0962867066 0.5959628224 4286349449
-0.2765415907 -0.0956383273 0.5960487127 4286020484
-0.2765811682 -0.0949896723 0.5961340666 4285954691
-0.2766205072 -0.0943407416 0.5962188244 4285823105
-0.2766596079 -0.0936915353 0.5963031054 4285823875
-0.2771151364 -0.0931821764 0.5972849131 4285560703
-0.2775705159 -0.0926705897 0.5982664824 4285429117
-0.2776089311 -0.0920186117 0.5983492732 4285560703
-0.2776471078 -0.0913663581 0.5984315276 4285494910
-0.2776849866 -0.0907138363 0.5985131860 4285363324
-0.2777226269 -0.0900610536 0.5985943079 4285429117
-0.2777599990 -0.0894080028 0.5986748338 4285626496
-0.2777971029 -0.0887546837 0.5987548232 4285954693
-0.2778339684 -0.0881011114 0.5988342762 4286086279
-0.2782877684 -0.0875785798 0.5998123884 4286349451
-0.2783241570 -0.0869235024 0.5998908281 4286349451
-0.2783602476 -0.0862681791 0.5999686122 4286415244
-0.2775613368 -0.0853558853 0.5982466936 4286481037
-0.2788491249 -0.0850841254 0.6010223627 4286415242
-0.2788845003 -0.0844270587 0.6010985970 4286415242
-0.2789196074 -0.0837697387 0.6011742353 4286284426
-0.2785368562 -0.0829877481 0.6003492475 4286613391
-0.2789890468 -0.0824543610 0.6013238430 4286942356
-0.2786056399 -0.0816738531 0.6004975438 4287139735
-0.2782218754 -0.0808950737 0.5996704102 4287271321
-0.2790911496 -0.0804794654 0.6015440226 4287534493
-0.2791246772 -0.0798206925 0.6016162038 4287797665
-0.2791579068 -0.0791616812 0.6016878486 4287929251
-0.2791908979 -0.0785024315 0.6017589569 4288258216
-0.2800595760 -0.0780760124 0.6036313176 4288521388
-0.2800921202 -0.0774143264 0.6037014127 4288916146
-0.2801243961 -0.0767524168 0.6037709713 4289310904
-0.2801563740 -0.0760902688 0.6038399339 4289639869
-0.2801881135 -0.0754279047 0.6039083004 4289771455
-0.2802195549 -0.0747653097 0.6039761305 4290034627
-0.2802507579 -0.0741024911 0.6040433049 4290363592
-0.2802816629 -0.0734394565 0.6041099429 4290560971
-0.2803122997 -0.0727762058 0.6041759849 4290824143
-0.2803426683 -0.0721127316 0.6042414308 4291022035
-0.2807912230 -0.0715556890 0.6052082777 4291153621
-0.2812396288 -0.0709964484 0.6061747074 4291351000
-0.2812692523 -0.0703303590 0.6062386036 4291614172
-0.2812986374 -0.0696640611 0.6063019037 4291811551
-0.2809090912 -0.0688948706 0.6054623127 4291877344
-0.2809378505 -0.0682291538 0.6055243015 4292073440
-0.2809663713 -0.0675632283 0.6055857539 4292270819
-0.2809945941 -0.0668970942 0.6056466103 4292271589
-0.2810225487 -0.0662307665 0.6057068706 4292205796
-0.2814691067 -0.0656619519 0.6066693068 4292140003
-0.2814965546 -0.0649942383 0.6067284942 4292205796
-0.2815237045 -0.0643263310 0.6067870259 4292468198
-0.2815506160 -0.0636582300 0.6068450212 4292533991
-0.2811582386 -0.0628961995 0.6059992909 4292205798
-0.2811845243 -0.0622287132 0.6060559750 4292205798
-0.2812105715 -0.0615610406 0.6061120629 4292337384
-0.2812363207 -0.0608931817 0.6061676145 4292403177
-0.2812618017 -0.0602251440 0.6062225103 4292403177
-0.2812869847 -0.0595569238 0.6062768102 4292534763
-0.2821504176 -0.0590640493 0.6081377864 4292666349
-0.2821751237 -0.0583934784 0.6081910729 4292797935
-0.2821995616 -0.0577227362 0.6082437634 4292600301
-0.2822237313 -0.0570518188 0.6082958579 4292731887
-0.2822476327 -0.0563807301 0.6083473563 4292863726
-0.2810129821 -0.0554611385 0.6056861877 4292929519
-0.2818751037 -0.0549562648 0.6075444221 4293061103
-0.2818981409 -0.0542856716 0.6075940132 4293126896
-0.2819208503 -0.0536149181 0.6076430678 4293258482
-0.2819433212 -0.0529440008 0.6076914668 4293455861
-0.2819654942 -0.0522729233 0.6077392697 4293652726
-0.2819873989 -0.0516016893 0.6077864766 4293718519
-0.2820090055 -0.0509302989 0.6078330278 4293850103
-0.2579572499 -0.2306097001 0.5573268533 4292599787
-0.2576494217 -0.2297160178 0.5566617846 4291810271
-0.2581281662 -0.2295232117 0.5576961040 4290099653
-0.2582134008 -0.2289791554 0.5578802824 4287994277
-0.2582984865 -0.2284345627 0.5580641031 4286481038
-0.2579895556 -0.2275420427 0.5573966503 4285822594
-0.2584682405 -0.2273437679 0.5584308505 4285822594
-0.2581587434 -0.2264518291 0.5577621460 4286348938
-0.2582431138 -0.2259059250 0.5579444766 4286875282
-0.2583273351 -0.2253594697 0.5581263900 4287138708
-0.2584114075 -0.2248124927 0.5583080649 4286875536
-0.2584953308 -0.2242649943 0.5584893823 4287466903
-0.2585791051 -0.2237169445 0.5586703420 4287072145
-0.2586627305 -0.2231683731 0.5588510036 4285887871
-0.2583511472 -0.2222793847 0.5581778884 4284835183
-0.2576440275 -0.2210525125 0.5566501021 4285493111
-0.2573315203 -0.2201666534 0.5559749603 4287335315
-0.2574140429 -0.2196193188 0.5561531782 4288782763
-0.2571008503 -0.2187349498 0.5554765463 4288651177
-0.2567872405 -0.2178517282 0.5547990203 4288848556
-0.2564732432 -0.2169696689 0.5541206002 4289506486
-0.2561588585 -0.2160887718 0.5534412861 4290230209
-0.2550519407 -0.2145427763 0.5510498285 4290888139
-0.2551326454 -0.2139982134 0.5512241721 4291348690
-0.2544206083 -0.2127902359 0.5496857762 4291809241
-0.2548971772 -0.2125769258 0.5507154465 4292269792
-0.2549772859 -0.2120316625 0.5508885384 4292335585
-0.2546605766 -0.2111569792 0.5502042770 4292203999
-0.2543434799 -0.2102834880 0.5495191216 4292138206
-0.2544228733 -0.2097383887 0.5496906638 4291875034
-0.2552961707 -0.2098454833 0.5515775084 4291480276
-0.2557726800 -0.2096231580 0.5526069999 4291282899
-0.2562492490 -0.2093986124 0.5536366701 4290953934
-0.2567259371 -0.2091718614 0.5546665192 4290559176
-0.2560100853 -0.2079740614 0.5531198978 4290296004
-0.2560889125 -0.2074233443 0.5532901883 4290032832
-0.2557697892 -0.2065508813 0.5526007414 4289703867
-0.2562460601 -0.2063203901 0.5536296964 4289769660
-0.2563243806 -0.2057681382 0.5537989736 4290164418
-0.2560044229 -0.2048967332 0.5531076193 4290493383
-0.2560822964 -0.2043443471 0.5532759428 4291085520
-0.2561600208 -0.2037914544 0.5534438491 4291546071
-0.2562375665 -0.2032380551 0.5536113977 4291677657
-0.2563149631 -0.2026841491 0.5537786484 4291940829
-0.2563922107 -0.2021297514 0.5539454818 4292204001
-0.2564692795 -0.2015748471 0.5541120172 4292204515
-0.2565461695 -0.2010194361 0.5542781353 4292138722
-0.2566229105 -0.2004635483 0.5544438958 4291941856
-0.2570986748 -0.2002180368 0.5554718971 4291415512
-0.2575745583 -0.1999703050 0.5564999580 4290494410
-0.2576510012 -0.1994111836 0.5566651821 4289441722
-0.2577273250 -0.1988515556 0.5568300486 4288717999
-0.2578034401 -0.1982914209 0.5569944978 4288520620
-0.2578794062 -0.1977308095 0.5571586490 4288783792
-0.2579551935 -0.1971696913 0.5573223829 4288915378
-0.2584308386 -0.1969128996 0.5583500862 4289046964
-0.2585064173 -0.1963499337 0.5585133433 4289178550
-0.2585818172 -0.1957864612 0.5586761832 4289375416
-0.2586570084 -0.1952225119 0.5588387251 4289507002
-0.2587320805 -0.1946580559 0.5590008497 4289507002
-0.2588069439 -0.1940931231 0.5591626167 4288980658
-0.2588816285 -0.1935276836 0.5593240261 4288256936
-0.2585552931 -0.1926630586 0.5586189032 4287730592
-0.2590304911 -0.1923953593 0.5596456528 4287007381
-0.2595057487 -0.1921254098 0.5606724620 4286481037
-0.2591786683 -0.1912610829 0.5599657297 4285954693
-0.2592524588 -0.1906932145 0.5601252317 4285757314
-0.2597275376 -0.1904191673 0.5611516237 4285757314
-0.2598011196 -0.1898494512 0.5613105893 4285888900
-0.2602761686 -0.1895717978 0.5623369217 4286152072
-0.2607512772 -0.1892919093 0.5633634329 4286283658
-0.2612264156 -0.1890097558 0.5643900037 4286612623
-0.2612996101 -0.1884354651 0.5645481348 4286941588
-0.2613726258 -0.1878606826 0.5647058487 4287402139
-0.2614454329 -0.1872854233 0.5648632050 4287928483
-0.2615180910 -0.1867096871 0.5650201440 4288389034
-0.2619929910 -0.1864198297 0.5660462379 4288849585
-0.2620653808 -0.1858422458 0.5662026405 4289244343
-0.2621375918 -0.1852641851 0.5663586259 4289507515
-0.2622095942 -0.1846856326 0.5665141940 4289902273
-0.2622814178 -0.1841066182 0.5666694045 4290428617
-0.2623530626 -0.1835271269 0.5668241978 4290889168
-0.2624245286 -0.1829471588 0.5669785738 4291020754
-0.2628990114 -0.1826468557 0.5680037141 4291086547
-0.2625668943 -0.1817858070 0.5672861338 4291283926
-0.2626377642 -0.1812044233 0.5674393177 4291547098
-0.2623049319 -0.1803451180 0.5667201877 4291744477
-0.2623753548 -0.1797636896 0.5668722987 4291678684
-0.2624455690 -0.1791817993 0.5670239925 4291744477
-0.2625155747 -0.1785994321 0.5671752691 4291810268
-0.2629894018 -0.1782904714 0.5681989789 4291941854
-0.2630591393 -0.1777062863 0.5683496594 4292007647
-0.2631286979 -0.1771216244 0.5684999824 4292139233
-0.2631980777 -0.1765365154 0.5686498284 4292205026
-0.2632672489 -0.1759509295 0.5687992573 4292270819
-0.2633362114 -0.1753648967 0.5689483285 4292468198
-0.2638096213 -0.1750468612 0.5699711442 4292468198
-0.2642830312 -0.1747265756 0.5709939599 4292533991
-0.2643516362 -0.1741373539 0.5711421967 4292533991
-0.2644200623 -0.1735476702 0.5712899566 4292599784
-0.2644882798 -0.1729575396 0.5714373589 4292599784
-0.2649614215 -0.1726309061 0.5724596381 4292534761
-0.2650293410 -0.1720389575 0.5726063848 4292534761
-0.2650970519 -0.1714465469 0.5727526546 4292534761
-0.2651645839 -0.1708536744 0.5728985667 4292600554
-0.2652319074 -0.1702603698 0.5730440021 4292666347
-0.2652990222 -0.1696666032 0.5731890202 4292732140
-0.2653659582 -0.1690723747 0.5733336210 4292863726
-0.2654326558 -0.1684777141 0.5734777451 4292929519
-0.2654991746 -0.1678826064 0.5736215115 4292995312
-0.2655655146 -0.1672870368 0.5737647414 4293126898
-0.2656316161 -0.1666910350 0.5739076138 4293126898
-0.2656975389 -0.1660945863 0.5740500093 4293258484
-0.2657632232 -0.1654976904 0.5741919875 4293258484
-0.2658287287 -0.1649003625 0.5743334889 4293324277
-0.2658940256 -0.1643025726 0.5744745731 4293390070
-0.2659591138 -0.1637043655 0.5746151805 4293390070
-0.2660240233 -0.1631057113 0.5747553706 4293390068
-0.2656818330 -0.1622581333 0.5740160942 4293521654
-0.2657462060 -0.1616595238 0.5741551518 4293587447
-0.2658103704 -0.1610604674 0.5742937922 4293587447
-0.2658743262 -0.1604609936 0.5744320154 4293653240
-0.2659380734 -0.1598610729 0.5745697021 4293719033
-0.2660016119 -0.1592607349 0.5747070312 4293719033
-0.2660649419 -0.1586599648 0.5748438239 4293784826
-0.2661280930 -0.1580587626 0.5749802589 4293850873
-0.2665986419 -0.1576982588 0.5759968758 4293850873
-0.2738821507 -0.1021779329 0.5917332172 4293719033
-0.2743393183 -0.1016899273 0.5927209258 4293192689
-0.2743812501 -0.1010468081 0.5928115249 4292666345
-0.2744229138 -0.1004033983 0.5929015279 4292205794
-0.2744643092 -0.0997596979 0.5929909945 4291745243
-0.2745054662 -0.0991157070 0.5930799246 4291416278
-0.2745463848 -0.0984714255 0.5931683183 4291020752
-0.2750024498 -0.0979748517 0.5941536427 4290560201
-0.2750429213 -0.0973290205 0.5942410827 4289903041
-0.2750831246 -0.0966829062 0.5943279266 4289442490
-0.2751230597 -0.0960365087 0.5944142342 4288916146
-0.2751627564 -0.0953898281 0.5945000052 4288324009
-0.2752021849 -0.0947428718 0.5945851803 4287928481
-0.2752413452 -0.0940956399 0.5946698189 4287467930
-0.2752802670 -0.0934481323 0.5947539210 4287204758
-0.2757348120 -0.0929405317 0.5957359672 4287007379
-0.2757732868 -0.0922914967 0.5958190560 4286679186
-0.2758114934 -0.0916421935 0.5959016085 4286679186
-0.2762655020 -0.0911298618 0.5968825221 4286613393
-0.2763032317 -0.0904790387 0.5969640613 4286350221
-0.2763406932 -0.0898279548 0.5970450044 4286284428
-0.2763779163 -0.0891766027 0.5971254110 4286613393
-0.2764148712 -0.0885249898 0.5972052813 4286547598
-0.2768679261 -0.0880054533 0.5981841087 4286744977
-0.2769044042 -0.0873523429 0.5982629061 4286876563
-0.2769406438 -0.0866989642 0.5983411670 4286876563
-0.2769765854 -0.0860453397 0.5984188914 4286810770
-0.2774288654 -0.0855198652 0.5993959904 4286744977
-0.2774643600 -0.0848647505 0.5994727015 4286876563
-0.2774995863 -0.0842093825 0.5995488167 4287205528
-0.2775345445 -0.0835537687 0.5996243358 4287534493
-0.2775692344 -0.0828979015 0.5996993184 4287731872
-0.2776036561 -0.0822417960 0.5997737050 4287995044
-0.2768040895 -0.0813404471 0.5980461836 4288258216
-0.2776717246 -0.0809288546 0.5999207497 4288455595
-0.2777053714 -0.0802720189 0.5999934673 4288652974
-0.2777387500 -0.0796149522 0.6000655293 4288981939
-0.2781889141 -0.0790762007 0.6010381579 4289376697
-0.2786389291 -0.0785352439 0.6020104289 4289968066
-0.2786715925 -0.0778754950 0.6020810008 4290165445
-0.2787039876 -0.0772155151 0.6021510363 4290362824
-0.2787361443 -0.0765553042 0.6022204161 4290560203
-0.2787680030 -0.0758948699 0.6022892594 4290823375
-0.2787995934 -0.0752342120 0.6023575068 4291086547
-0.2788309157 -0.0745733231 0.6024252176 4291283924
-0.2788619697 -0.0739122182 0.6024923325 4291481303
-0.2788927555 -0.0732508972 0.6025588512 4291744475
-0.2789232731 -0.0725893527 0.6026247740 4291876061
-0.2789535224 -0.0719275922 0.6026901007 4292007647
-0.2794011235 -0.0713723004 0.6036571860 4292073440
-0.2794308662 -0.0707091168 0.6037214398 4292139487
-0.2794603705 -0.0700457320 0.6037851572 4292139487
-0.2794895768 -0.0693821311 0.6038482189 4292271073
-0.2795184851 -0.0687183291 0.6039107442 4292336866
-0.2795471549 -0.0680543184 0.6039726734 4292205798
-0.2795755565 -0.0673900992 0.6040340066 4292205798
-0.2796036601 -0.0667256862 0.6040947437 4292336614
-0.2796314955 -0.0660610721 0.6041548848 4292336614
-0.2796590626 -0.0653962567 0.6042144895 4292336614
-0.2801044285 -0.0648280084 0.6051766872 4292270821
-0.2801314890 -0.0641618147 0.6052351594 4292140005
-0.2801582813 -0.0634954274 0.6052930355 4292140005
-0.2801848054 -0.0628288463 0.6053503156 4292140003
-0.2797928154 -0.0620693006 0.6045033932 4292205796
-0.2798187435 -0.0614033416 0.6045594215 4292468198
-0.2798443735 -0.0607372001 0.6046148539 4292402405
-0.2798697650 -0.0600708760 0.6046696901 4292402405
-0.2803132236 -0.0594931692 0.6056278348 4292533991
-0.2803380787 -0.0588254891 0.6056815386 4292665577
-0.2803626657 -0.0581576340 0.6057346463 4292665577
-0.2803869843 -0.0574896000 0.6057871580 4292600556
-0.2804110050 -0.0568213984 0.6058390737 4292666349
-0.2804347575 -0.0561530255 0.6058903933 4292732142
-0.2800396383 -0.0554016680 0.6050367355 4292797935
-0.2804814577 -0.0548157692 0.6059912443 4292929521
-0.2805043757 -0.0541468970 0.6060407758 4293126900
-0.2801083028 -0.0533980392 0.6051850915 4293324277
-0.2805493772 -0.0528086573 0.6061379910 4293390070
-0.2805714607 -0.0521393009 0.6061857343 4293521654
-0.2805932760 -0.0514697842 0.6062328815 4293587447
-0.2806147933 -0.0508001149 0.6062793732 4293784312
-0.2806360424 -0.0501302928 0.6063252687 4293915898
-0.2565635145 -0.2305327952 0.5556489825 4292797682
-0.2566488087 -0.2299918681 0.5558336973 4292205545
-0.2567339838 -0.2294504046 0.5560181737 4291087062
-0.2560335994 -0.2282083780 0.5545013547 4289179065
-0.2569038570 -0.2283658683 0.5563860536 4287336347
-0.2569885850 -0.2278227806 0.5565695167 4286020487
-0.2570731342 -0.2272791713 0.5567526817 4285559936
-0.2575507760 -0.2270817012 0.5577871203 4285757315
-0.2572418451 -0.2261903286 0.5571180582 4285954693
-0.2573259771 -0.2256451100 0.5573002696 4285428349
-0.2574099898 -0.2250993550 0.5574821830 4285954434
-0.2574938238 -0.2245530635 0.5576637387 4285691262
-0.2575775087 -0.2240062356 0.5578449965 4285296504
-0.2576610446 -0.2234588712 0.5580258965 4285757055
-0.2577444315 -0.2229109854 0.5582064986 4286151813
-0.2578276694 -0.2223625630 0.5583868027 4285230711
-0.2575163841 -0.2214744538 0.5577126145 4284703597
