VERSION 0.7
FIELDS x y z rgba
SIZE 4 4 4 4
TYPE F F F U
COUNT 1 1 1 1
WIDTH 920
HEIGHT 1
VIEWPOINT 0.0 0.0 0.0 1.0 0.0 0.0 0.0
POINTS 920
DATA ascii
-0.2685655355 -0.1211153269 0.5816422105 4290296768
-0.2686148584 -0.1204912066 0.5817490220 4289112494
-0.2682518959 -0.1196829006 0.5809629560 4288520357
-0.2683006823 -0.1190590560 0.5810685754 4287994013
-0.2679370046 -0.1182529479 0.5802809596 4286875534
-0.2679852545 -0.1176293865 0.5803854465 4285625467
-0.2676208615 -0.1168254763 0.5795962811 4284638320
-0.2676685452 -0.1162022054 0.5796995759 4284835699
-0.2677159905 -0.1155785993 0.5798023343 4284770160
-0.2673506141 -0.1147775352 0.5790110230 4284704367
-0.2673975229 -0.1141542345 0.5791125894 4285033332
-0.2670314610 -0.1133553982 0.5783197880 4286349192
-0.2666650116 -0.1125581712 0.5775261521 4288059556
-0.2667110264 -0.1119358167 0.5776258111 4289046451
-0.2667568326 -0.1113131419 0.5777249932 4289572795
-0.2672154009 -0.1108614951 0.5787181258 4289309623
-0.2672607601 -0.1102372110 0.5788164139 4287994017
-0.2677190602 -0.1097820327 0.5798089504 4286546571
-0.2681772411 -0.1093246117 0.5808012486 4286217352
-0.2686353326 -0.1088649333 0.5817933083 4286875282
-0.2690933049 -0.1084030122 0.5827851892 4289243830
-0.2667987943 -0.1309053749 0.5792090893 4291613659
-0.2668516934 -0.1302876621 0.5793240070 4291218901
-0.2669043839 -0.1296695918 0.5794383883 4290824143
-0.2669568658 -0.1290511638 0.5795522928 4290297799
-0.2670090795 -0.1284323633 0.5796656609 4289639099
-0.2670610845 -0.1278131902 0.5797785521 4288849583
-0.2671128511 -0.1271936744 0.5798909068 4288455079
-0.2671643794 -0.1265737861 0.5800028443 4288060321
-0.2672156990 -0.1259535402 0.5801141858 4287862942
-0.2672667503 -0.1253329366 0.5802250504 4287994528
-0.2673175931 -0.1247119904 0.5803354383 4288060321
-0.2673681974 -0.1240906790 0.5804452896 4288060321
-0.2674185634 -0.1234690249 0.5805546641 4288323493
-0.2674687207 -0.1228470132 0.5806635022 4288652458
-0.2671076953 -0.1220369041 0.5798797011 4289244082
-0.2671572864 -0.1214151531 0.5799873471 4290033598
-0.2672066391 -0.1207930595 0.5800945163 4290691526
-0.2672557533 -0.1201706156 0.5802011490 4290428354
-0.2673046291 -0.1195478365 0.5803073049 4289704631
-0.2673532963 -0.1189247146 0.5804129243 4289046701
-0.2669903040 -0.1181192473 0.5796248913 4288191392
-0.2670384049 -0.1174964085 0.5797293186 4287336083
-0.2666747272 -0.1166931465 0.5789397955 4286349192
-0.2667222917 -0.1160705984 0.5790430307 4285230711
-0.2667695880 -0.1154477149 0.5791457295 4284704367
-0.2664049268 -0.1146473065 0.5783540606 4284967539
-0.2664516866 -0.1140247285 0.5784555674 4285033332
-0.2660863101 -0.1132265478 0.5776623487 4284901746
-0.2657205760 -0.1124299690 0.5768683553 4285493629
-0.2653544247 -0.1116349921 0.5760734677 4286743696
-0.2654000223 -0.1110140085 0.5761724710 4287862177
-0.2658575773 -0.1105641201 0.5771657825 4289243830
-0.2654905021 -0.1097710803 0.5763688684 4289441209
-0.2655353844 -0.1091491356 0.5764663219 4288914865
-0.2659924030 -0.1086954027 0.5774585009 4288059556
-0.2664493322 -0.1082394272 0.5784505010 4286480524
-0.2669061720 -0.1077812016 0.5794422626 4286151559
-0.2677754760 -0.1074863449 0.5813294649 4287533212
-0.2682321668 -0.1070226580 0.5823209286 4290033598
-0.2651411891 -0.1291243285 0.5770018101 4291679452
-0.2651933432 -0.1285085082 0.5771152973 4291416280
-0.2652452588 -0.1278923303 0.5772283077 4290955729
-0.2652969658 -0.1272757798 0.5773407817 4290495178
-0.2653484344 -0.1266588867 0.5774527788 4290033857
-0.2653996646 -0.1260416359 0.5775642991 4289178548
-0.2654506564 -0.1254240125 0.5776752830 4288323493
-0.2655014396 -0.1248060465 0.5777857900 4287928735
-0.2655519843 -0.1241877228 0.5778958201 4287731356
-0.2660121918 -0.1237597391 0.5788972974 4287731356
-0.2660623491 -0.1231397539 0.5790064335 4287862942
-0.2661122680 -0.1225194186 0.5791150928 4287994528
-0.2661619484 -0.1218987405 0.5792232156 4288191907
-0.2658012211 -0.1210908443 0.5784381628 4288191907
-0.2658503652 -0.1204704270 0.5785451531 4288586663
-0.2658992708 -0.1198496670 0.5786515474 4289178800
-0.2663583755 -0.1194125637 0.5796506405 4289376179
-0.2664068937 -0.1187901646 0.5797562003 4289178800
-0.2664551735 -0.1181674227 0.5798612833 4288784042
-0.2660925686 -0.1173632294 0.5790721774 4288455077
-0.2657295763 -0.1165606230 0.5782822967 4288322982
-0.2657770216 -0.1159387901 0.5783854723 4287007122
-0.2658241987 -0.1153166369 0.5784881711 4285691262
-0.2658711374 -0.1146941483 0.5785903335 4284770160
-0.2659178674 -0.1140713319 0.5786920190 4284638574
-0.2655532658 -0.1132728383 0.5778985620 4284770160
-0.2651882768 -0.1124759465 0.5771042705 4284704367
-0.2648229003 -0.1116806641 0.5763091445 4284835953
-0.2644571662 -0.1108869910 0.5755132437 4285427836
-0.2645024061 -0.1102664098 0.5756116509 4287599005
-0.2641359568 -0.1094749942 0.5748142600 4289243830
-0.2641806602 -0.1088547409 0.5749114752 4289704381
-0.2638135254 -0.1080655977 0.5741125941 4289309623
-0.2646809518 -0.1077809334 0.5760002136 4288388521
-0.2651366889 -0.1073254347 0.5769920349 4287138454
-0.2660040855 -0.1070333794 0.5788796544 4285954180
-0.2668715417 -0.1067371368 0.5807673931 4286217606
-0.2673271000 -0.1062729657 0.5817587972 4287796638
-0.2673705518 -0.1056437716 0.5818533897 4289967805
-0.2639456987 -0.1269343346 0.5757918954 4291547866
-0.2639969587 -0.1263191104 0.5759037137 4291415510
-0.2640479803 -0.1257035285 0.5760149956 4290823373
-0.2640987635 -0.1250875890 0.5761258006 4290165443
-0.2641493082 -0.1244712919 0.5762360692 4289310134
-0.2641996443 -0.1238546446 0.5763458610 4288454825
-0.2646588087 -0.1234284192 0.5773475170 4288125860
-0.2647087276 -0.1228101179 0.5774564743 4288060321
-0.2647584379 -0.1221914589 0.5775648952 4287731356
-0.2648079395 -0.1215724647 0.5776728392 4287797149
-0.2644478083 -0.1207661703 0.5768872499 4287928735
-0.2644967437 -0.1201474369 0.5769940019 4287928735
-0.2645454407 -0.1195283607 0.5771002173 4287862942
-0.2650035024 -0.1190930083 0.5780994892 4288060321
-0.2650518119 -0.1184722930 0.5782048702 4288323493
-0.2650998831 -0.1178512350 0.5783097148 4288520870
-0.2651477158 -0.1172298416 0.5784140825 4288586663
-0.2651953101 -0.1166081131 0.5785179138 4288520872
-0.2648327351 -0.1158067808 0.5777269602 4288652458
-0.2652898133 -0.1153636575 0.5787240863 4288060321
-0.2653367221 -0.1147409305 0.5788263679 4286218117
-0.2649731934 -0.1139414981 0.5780333281 4284968050
-0.2646092772 -0.1131436601 0.5772395134 4284968050
-0.2642450035 -0.1123474240 0.5764448047 4284968050
-0.2638803422 -0.1115527973 0.5756493211 4284836464
-0.2635152936 -0.1107597724 0.5748530030 4284638574
-0.2631498873 -0.1099683642 0.5740558505 4284901746
-0.2631946802 -0.1093491614 0.5741535425 4286283399
-0.2628285885 -0.1085600182 0.5733548999 4288322982
-0.2628728449 -0.1079411507 0.5734514594 4289507256
-0.2629168630 -0.1073219776 0.5735474825 4289638842
-0.2637823820 -0.1070359349 0.5754356384 4289309877
-0.2642370164 -0.1065799519 0.5764274001 4288520361
-0.2651025355 -0.1062865183 0.5783154964 4286743950
-0.2655570209 -0.1058250740 0.5793069601 4286086020
-0.2656002343 -0.1051985472 0.5794012547 4285757053
-0.2660544217 -0.1047335863 0.5803920627 4287401878
-0.2665085196 -0.1042663753 0.5813826323 4290099391
-0.2626989484 -0.1253650486 0.5744639635 4291679452
-0.2627495229 -0.1247507855 0.5745745897 4291416280
-0.2627998590 -0.1241361722 0.5746846795 4290889936
-0.2628499568 -0.1235212013 0.5747942328 4290100420
-0.2633080781 -0.1230967343 0.5757960081 4289442490
-0.2633577883 -0.1224801093 0.5759047866 4288586665
-0.2634072900 -0.1218631342 0.5760129690 4287336598
-0.2634565532 -0.1212458163 0.5761207342 4287205012
-0.2635055780 -0.1206281558 0.5762279630 4287402391
-0.2635543942 -0.1200101450 0.5763346553 4287468184
-0.2636029720 -0.1193917915 0.5764408708 4287402391
-0.2636512816 -0.1187731028 0.5765465498 4287533977
-0.2641082406 -0.1183372512 0.5775457621 4287533977
-0.2641561627 -0.1177169234 0.5776506066 4287468184
-0.2642038763 -0.1170962527 0.5777549744 4287468184
-0.2638422847 -0.1162949502 0.5769642591 4287665563
-0.2638894618 -0.1156745702 0.5770673752 4287994528
-0.2643455863 -0.1152322441 0.5780647993 4288520872
-0.2643923461 -0.1146102399 0.5781670809 4288455079
-0.2640295327 -0.1138114631 0.5773736835 4287205012
-0.2640757561 -0.1131897718 0.5774747729 4285625980
-0.2633027434 -0.1122187003 0.5757843852 4284639085
-0.2629387677 -0.1114247292 0.5749884844 4284573292
-0.2625744343 -0.1106323674 0.5741917491 4284573292
-0.2622097135 -0.1098416150 0.5733941793 4284507499
-0.2622543871 -0.1092231423 0.5734918714 4284507245
-0.2618890107 -0.1084346548 0.5726928115 4285362554
-0.2615232170 -0.1076477915 0.5718929768 4287138965
-0.2619770467 -0.1071980745 0.5728853345 4288849583
-0.2620206773 -0.1065793186 0.5729808211 4289573306
-0.2624742389 -0.1061260700 0.5739725828 4289441720
-0.2629276514 -0.1056705788 0.5749641657 4288849326
-0.2633810043 -0.1052128449 0.5759554505 4287928224
-0.2638342083 -0.1047528684 0.5769465566 4286414983
-0.2642873228 -0.1042906418 0.5779374242 4285559674
-0.2647403181 -0.1038261726 0.5789280534 4285757053
-0.2651932240 -0.1033594534 0.5799184442 4287599257
-0.2656460106 -0.1028904989 0.5809085369 4290165697
-0.2615029216 -0.1231873930 0.5732408762 4291482073
-0.2615526021 -0.1225737557 0.5733497143 4291153108
-0.2616020441 -0.1219597682 0.5734580755 4290297797
-0.2616512477 -0.1213454381 0.5735659599 4289047730
-0.2617002130 -0.1207307577 0.5736733079 4288455079
-0.2621566653 -0.1203028262 0.5746738911 4287665563
-0.2622052729 -0.1196865067 0.5747804046 4287204758
-0.2622536123 -0.1190698370 0.5748864412 4287270551
-0.2627096772 -0.1186370477 0.5758861899 4287336344
-0.2627576292 -0.1180187464 0.5759913325 4287138965
-0.2628053725 -0.1174001023 0.5760959387 4287073426
-0.2632610500 -0.1169624552 0.5770947933 4287139219
-0.2633083761 -0.1163421795 0.5771985650 4287533464
-0.2633554935 -0.1157215685 0.5773018599 4287401878
-0.2634023428 -0.1151006296 0.5774045587 4287665050
-0.2630405426 -0.1143018678 0.5766114593 4288388773
-0.2630868554 -0.1136812270 0.5767130256 4288651947
-0.2627243698 -0.1128847077 0.5759183764 4287730845
-0.2623614669 -0.1120897830 0.5751228929 4286349703
-0.2619982362 -0.1112964675 0.5743265748 4285494394
-0.2616345882 -0.1105047613 0.5735294819 4284704878
-0.2612705827 -0.1097146720 0.5727314949 4284704878
-0.2613151371 -0.1090969294 0.5728291869 4284507245
-0.2609504461 -0.1083091050 0.5720297098 4284178280
-0.2609944344 -0.1076916978 0.5721262097 4284507245
-0.2610382140 -0.1070739850 0.5722221732 4285494140
-0.2610817552 -0.1064559519 0.5723176003 4287139219
-0.2611250579 -0.1058376208 0.5724125504 4288849837
-0.2615774870 -0.1053838953 0.5734042525 4288849326
-0.2616203725 -0.1047639772 0.5734983087 4288586154
-0.2620725036 -0.1043067351 0.5744894147 4287994017
-0.2625245452 -0.1038472503 0.5754803419 4287599259
-0.2629764676 -0.1033855155 0.5764709711 4286546569
-0.2638379633 -0.1030816063 0.5783594847 4285691260
-0.2642897367 -0.1026144177 0.5793498158 4286086018
-0.2647413909 -0.1021449789 0.5803399086 4287665050
-0.2651929259 -0.1016732976 0.5813297033 4290494662
-0.2602572441 -0.1216289476 0.5719025731 4291679450
-0.2603062391 -0.1210163012 0.5720102191 4291087313
-0.2603549957 -0.1204033121 0.5721173882 4290232004
-0.2604035437 -0.1197899729 0.5722240806 4289310902
-0.2608588040 -0.1193625033 0.5732244849 4288520618
-0.2609069347 -0.1187475249 0.5733302832 4287928481
-0.2613619566 -0.1183165014 0.5743301511 4287467930
-0.2618168890 -0.1178832203 0.5753298402 4287402137
-0.2618645132 -0.1172652990 0.5754344463 4287402391
-0.2619118690 -0.1166470498 0.5755385756 4287270805
-0.2619590163 -0.1160284579 0.5756421685 4287204499
-0.2620058954 -0.1154095381 0.5757452250 4287270292
-0.2620525658 -0.1147902906 0.5758477449 4287007122
-0.2616913915 -0.1139931455 0.5750540495 4287270294
-0.2617375255 -0.1133742034 0.5751554370 4288322982
-0.2613756359 -0.1125793010 0.5743602514 4288915119
-0.2614212334 -0.1119606644 0.5744603872 4288257187
-0.2610586882 -0.1111680120 0.5736637115 4287072913
-0.2606957555 -0.1103769690 0.5728662014 4285625467
-0.2607404888 -0.1097593009 0.5729644895 4284835951
-0.2603768706 -0.1089705229 0.5721654892 4284638831
-0.2604210675 -0.1083531901 0.5722625852 4284902003
-0.2600567639 -0.1075666845 0.5714620352 4284836210
-0.2601004243 -0.1069497019 0.5715579987 4284507245
-0.2601438463 -0.1063324064 0.5716533661 4284770671
-0.2601870298 -0.1057148054 0.5717482567 4285823359
-0.2602299750 -0.1050968915 0.5718426704 4286809743
-0.2598640621 -0.1043146625 0.5710386038 4288191396
-0.2603151202 -0.1038601547 0.5720298290 4288783533
-0.2607660890 -0.1034034118 0.5730207562 4288849326
-0.2612169385 -0.1029444188 0.5740114450 4288717740
-0.2616676688 -0.1024831831 0.5750019550 4287994017
-0.2621183097 -0.1020197049 0.5759921670 4286414983
-0.2629778087 -0.1017121673 0.5778808594 4285493881
-0.2634282708 -0.1012432277 0.5788707733 4285822846
-0.2634695172 -0.1006158143 0.5789613724 4288059808
-0.2635104954 -0.0999880955 0.5790514350 4290823114
-0.2590124607 -0.1200755015 0.5705597401 4291482073
-0.2594668269 -0.1196510941 0.5715606809 4290955729
-0.2595149875 -0.1190381497 0.5716667771 4290363590
-0.2599691451 -0.1186101809 0.5726671815 4289442488
-0.2604231834 -0.1181799620 0.5736673474 4288126628
-0.2608771622 -0.1177474782 0.5746673942 4287271319
-0.2609246373 -0.1171302944 0.5747720003 4287073942
-0.2609718740 -0.1165127680 0.5748760104 4286810770
-0.2610188723 -0.1158949137 0.5749796033 4287007379
-0.2610656619 -0.1152767241 0.5750826001 4287007379
-0.2611121833 -0.1146581993 0.5751851201 4286810000
-0.2607516944 -0.1138617173 0.5743910074 4286810000
-0.2603908479 -0.1130668297 0.5735961199 4286941586
-0.2604365349 -0.1124492511 0.5736967921 4287402137
-0.2600750029 -0.1116566136 0.5729003549 4288125603
-0.2601201534 -0.1110393554 0.5729997754 4288388775
-0.2601650655 -0.1104217768 0.5730987191 4288059810
-0.2598025203 -0.1096320376 0.5723001361 4286546571
-0.2598468959 -0.1090147942 0.5723978877 4285493883
-0.2594836950 -0.1082273275 0.5715978146 4284835953
-0.2591201067 -0.1074414849 0.5707969069 4284900976
-0.2591636479 -0.1068252325 0.5708928108 4285098355
-0.2592069209 -0.1062086672 0.5709881783 4284637804
-0.2592499852 -0.1055917963 0.5710830092 4284703597
-0.2588851154 -0.1048095673 0.5702793002 4285822848
-0.2589276433 -0.1041930541 0.5703729391 4287007122
-0.2585620880 -0.1034131274 0.5695676804 4288388521
-0.2590119541 -0.1029591262 0.5705586672 4288914865
-0.2594617307 -0.1025028750 0.5715494752 4289309877
-0.2595033646 -0.1018841937 0.5716411471 4289112498
-0.2595447600 -0.1012652069 0.5717323422 4288783533
-0.2604022324 -0.1009624228 0.5736212134 4287665052
-0.2608515024 -0.1004981771 0.5746108294 4286480776
-0.2608923614 -0.0998753905 0.5747008920 4285691260
-0.2613413334 -0.0994076356 0.5756898522 4286217606
-0.2613817751 -0.0987832844 0.5757789612 4288454568
-0.2618304491 -0.0983120278 0.5767673254 4291152081
-0.2581738830 -0.1187134236 0.5701073408 4291613657
-0.2590323389 -0.1184726357 0.5720030665 4291153106
-0.2594854534 -0.1180432141 0.5730035901 4290100418
-0.2595329285 -0.1174280569 0.5731084347 4289113523
-0.2599858046 -0.1169950813 0.5741084814 4288258216
-0.2600328922 -0.1163782850 0.5742124915 4287402907
-0.2600797713 -0.1157611609 0.5743160248 4286613391
-0.2601264119 -0.1151437014 0.5744190216 4286810770
-0.2597669363 -0.1143472418 0.5736252069 4286876047
-0.2598130405 -0.1137300804 0.5737270117 4286678668
-0.2594528794 -0.1129358560 0.5729316473 4286349703
-0.2594984472 -0.1123190075 0.5730322599 4286283910
-0.2591376007 -0.1115270332 0.5722354650 4286875793
-0.2591826320 -0.1109105051 0.5723348856 4287599516
-0.2592274249 -0.1102936566 0.5724338293 4288849326
-0.2588655949 -0.1095045879 0.5716348290 4288454568
-0.2589098513 -0.1088880673 0.5717325211 4287599257
-0.2585473359 -0.1081012636 0.5709320307 4286151811
-0.2585910559 -0.1074850932 0.5710285902 4285361525
-0.2582278848 -0.1067005694 0.5702266097 4285032560
-0.2582710385 -0.1060847417 0.5703219175 4284769390
-0.2583139837 -0.1054686010 0.5704167485 4284966769
-0.2579498291 -0.1046870425 0.5696126223 4284770160
-0.2575852871 -0.1039071158 0.5688076615 4284901746
-0.2576273978 -0.1032920033 0.5689005852 4286151813
-0.2576692700 -0.1026765928 0.5689930320 4287665052
-0.2577108741 -0.1020608917 0.5690849423 4288454568
-0.2577522695 -0.1014448851 0.5691763163 4288849326
-0.2577934265 -0.1008285806 0.5692672133 4289309877
-0.2578343153 -0.1002119854 0.5693575740 4289178291
-0.2582823932 -0.0997524336 0.5703469515 4288586152
-0.2587303221 -0.0992906466 0.5713361502 4287665050
-0.2591781616 -0.0988266096 0.5723250508 4286349192
-0.2596258819 -0.0983603373 0.5733137131 4285757055
-0.2596658468 -0.0977383927 0.5734019876 4286546571
-0.2601132989 -0.0972686186 0.5743899941 4288520361
-0.2605606019 -0.0967966020 0.5753777623 4291020493
-0.2581913769 -0.1171082780 0.5715478063 4291087315
-0.2582384348 -0.1164944768 0.5716519356 4290232006
-0.2586900890 -0.1160619706 0.5726517439 4289179318
-0.2587367594 -0.1154465377 0.5727550983 4288455595
-0.2583782077 -0.1146510690 0.5719614029 4287600286
-0.2584243417 -0.1140359342 0.5720635056 4286744977
-0.2584702671 -0.1134204715 0.5721651316 4286481805
-0.2581107318 -0.1126278713 0.5713692307 4286613391
-0.2581560910 -0.1120127216 0.5714696646 4286416012
-0.2582012117 -0.1113972515 0.5715695620 4286349449
-0.2578407228 -0.1106075495 0.5707715154 4286678414
-0.2578853071 -0.1099923998 0.5708702207 4287928224
-0.2579296827 -0.1093769372 0.5709684491 4288520361
-0.2579737902 -0.1087611541 0.5710661411 4288717738
-0.2580176890 -0.1081450582 0.5711632967 4288191394
-0.2576555908 -0.1073595732 0.5703617334 4287072143
-0.2576989532 -0.1067438200 0.5704576969 4285624697
-0.2573361695 -0.1059606224 0.5696546435 4285098353
-0.2573789954 -0.1053452268 0.5697494745 4285361525
-0.2578276098 -0.1048947051 0.5707425475 4285164916
-0.2566517293 -0.1037850678 0.5681395531 4284967537
-0.2570998669 -0.1033339426 0.5691315532 4284901746
-0.2567354739 -0.1025560275 0.5683248639 4285559676
-0.2567769587 -0.1019410565 0.5684167743 4286612364
-0.2568182349 -0.1013257876 0.5685080886 4287730845
-0.2564528584 -0.1005508676 0.5676992536 4288520359
-0.2564935684 -0.0999359861 0.5677894354 4289375668
-0.2565340698 -0.0993208066 0.5678790808 4289309877
-0.2565743327 -0.0987053439 0.5679681897 4288980912
-0.2570210397 -0.0982450396 0.5689570308 4288257189
-0.2570608854 -0.0976280198 0.5690452456 4287599259
-0.2575072944 -0.0971642062 0.5700334311 4286414985
-0.2579535842 -0.0966981649 0.5710213780 4285362297
-0.2583997548 -0.0962298736 0.5720090866 4286349192
-0.2588458359 -0.0957593545 0.5729964972 4288191396
-0.2592917681 -0.0952865928 0.5739836693 4290955211
-0.2573499680 -0.1157452986 0.5710893273 4291218901
-0.2573964596 -0.1151315644 0.5711924434 4290627279
-0.2570385337 -0.1143377200 0.5703981519 4289508798
-0.2570844591 -0.1137242839 0.5705000758 4288390315
-0.2571301758 -0.1131105199 0.5706015229 4287600799
-0.2571756244 -0.1124964282 0.5707024336 4287205528
-0.2568164468 -0.1117061004 0.5699053407 4286679184
-0.2568613589 -0.1110923290 0.5700049996 4286217863
-0.2569060624 -0.1104782373 0.5701042414 4286217863
-0.2569505274 -0.1098638251 0.5702028871 4286744207
-0.2569947839 -0.1092490926 0.5703010559 4287336344
-0.2570387721 -0.1086340398 0.5703987479 4288059808
-0.2570825517 -0.1080186814 0.5704958439 4288849324
-0.2567211688 -0.1072338670 0.5696939230 4288782761
-0.2567644119 -0.1066188440 0.5697898269 4287401108
-0.2564023435 -0.1058363244 0.5689864159 4286216834
-0.2564450502 -0.1052216589 0.5690811276 4285493111
-0.2568926811 -0.1047719419 0.5700745583 4285229939
-0.2565297186 -0.1039914042 0.5692690611 4285164146
-0.2561663985 -0.1032125205 0.5684627891 4285099123
-0.2558026910 -0.1024352685 0.5676556826 4285099123
-0.2558440864 -0.1018210351 0.5677475333 4284770158
-0.2558852434 -0.1012065038 0.5678388476 4285625467
-0.2555205524 -0.1004322618 0.5670296550 4286809741
-0.2555611730 -0.0998181179 0.5671197772 4288191394
-0.2551958561 -0.0990462154 0.5663090348 4289178291
-0.2552359104 -0.0984324589 0.5663979650 4289441463
-0.2548699081 -0.0976629034 0.5655857921 4289244084
-0.2549094558 -0.0970495492 0.5656735301 4289178291
-0.2553547323 -0.0965894759 0.5666616559 4288717740
-0.2557998896 -0.0961271599 0.5676495433 4287599259
-0.2566510439 -0.0958142132 0.5695382953 4286743950
-0.2570960522 -0.0953464508 0.5705257654 4286217606
-0.2575409114 -0.0948764458 0.5715129972 4285954945
-0.2579856813 -0.0944041982 0.5724999905 4288323493
-0.2584303021 -0.0939297229 0.5734866858 4290823627
-0.2557472587 -0.1134122834 0.5689349771 4290890451
-0.2557927668 -0.1128002182 0.5690361857 4289837763
-0.2558380365 -0.1121878326 0.5691368580 4288718769
-0.2554794550 -0.1113991290 0.5683392286 4287797667
-0.2555242181 -0.1107870638 0.5684387684 4286876563
-0.2559724450 -0.1103487238 0.5694358945 4286416012
-0.2560167909 -0.1097350493 0.5695345402 4286744207
-0.2560608983 -0.1091210544 0.5696327090 4286217863
-0.2561047971 -0.1085067391 0.5697302818 4286283399
-0.2561484277 -0.1078921109 0.5698273778 4287533466
-0.2557877600 -0.1071079671 0.5690250397 4288717740
-0.2558308840 -0.1064936817 0.5691209435 4288783533
-0.2554695308 -0.1057118252 0.5683171153 4288322980
-0.2559163868 -0.1052641943 0.5693112016 4287533464
-0.2559587955 -0.1046489850 0.5694055557 4285822076
-0.2551921308 -0.1037047729 0.5677000284 4284900974
-0.2548294365 -0.1029275283 0.5668931603 4284703595
-0.2544663846 -0.1021519303 0.5660855174 4285164146
-0.2545076013 -0.1015394107 0.5661771894 4284966767
-0.2545485795 -0.1009265929 0.5662683249 4285032560
-0.2545893192 -0.1003134772 0.5663589835 4285296502
-0.2542249858 -0.0995415673 0.5655485392 4286349190
-0.2542651892 -0.0989288390 0.5656379461 4287270294
-0.2539002299 -0.0981592759 0.5648260117 4288520361
-0.2535348833 -0.0973913744 0.5640133023 4289112498
-0.2535742521 -0.0967797413 0.5641008615 4289046705
-0.2540185153 -0.0963214412 0.5650891662 4288783533
-0.2540574670 -0.0957082659 0.5651758313 4288915119
-0.2549067140 -0.0953981355 0.5670650601 4288783533
-0.2553506196 -0.0949331298 0.5680525899 4287796638
-0.2561998069 -0.0946155861 0.5699416995 4286875534
-0.2566435635 -0.0941451266 0.5709288716 4285625467
-0.2570872009 -0.0936724246 0.5719157457 4285954432
-0.2579362690 -0.0933442563 0.5738046169 4288191394
-0.2583797276 -0.0928661004 0.5747910738 4290494662
-0.2545031309 -0.1118788943 0.5675696135 4290758865
-0.2545479834 -0.1112678796 0.5676696301 4290035142
-0.2545925677 -0.1106565520 0.5677691102 4288850353
-0.2546369731 -0.1100448966 0.5678680539 4287600286
-0.2550840974 -0.1096060798 0.5688651800 4287139735
-0.2551280856 -0.1089928225 0.5689632893 4286679184
-0.2551718354 -0.1083792448 0.5690608621 4286217863
-0.2548121512 -0.1075951084 0.5682587624 4285954691
-0.2552586496 -0.1071511507 0.5692544580 4286546828
-0.2544950545 -0.1062000319 0.5675516129 4287862688
-0.2545377314 -0.1055871472 0.5676468015 4288915119
-0.2549836636 -0.1051403135 0.5686412454 4288980912
-0.2546224296 -0.1043604612 0.5678356290 4288519589
-0.2542608082 -0.1035822406 0.5670292377 4286677385
-0.2538988590 -0.1028056666 0.5662220120 4284637802
-0.2535365224 -0.1020307466 0.5654139519 4284243044
-0.2535776198 -0.1014189646 0.5655056238 4284966767
-0.2536184788 -0.1008068845 0.5655966997 4285229939
-0.2532551587 -0.1000349671 0.5647865534 4284835181
-0.2532954812 -0.0994232744 0.5648764372 4284900974
-0.2529315352 -0.0986536965 0.5640648007 4285625469
-0.2529713213 -0.0980423987 0.5641534925 4286414985
-0.2526067197 -0.0972751752 0.5633403659 4287730843
-0.2526459694 -0.0966642871 0.5634279251 4288849324
-0.2526849806 -0.0960531086 0.5635149479 4289046703
-0.2527237833 -0.0954416543 0.5636014342 4289046703
-0.2531667352 -0.0949816406 0.5645893216 4289309877
-0.2536095977 -0.0945193917 0.5655769110 4289178291
-0.2544568777 -0.0942046717 0.5674664378 4288322980
-0.2553041577 -0.0938857570 0.5693560243 4287796636
-0.2553421259 -0.0932670310 0.5694406629 4286546569
-0.2561892867 -0.0929416791 0.5713299513 4285559674
-0.2566316724 -0.0924662873 0.5723164678 4285823359
-0.2570739388 -0.0919886604 0.5733028054 4287533977
-0.2575160563 -0.0915087909 0.5742887855 4290099904
-0.2532599866 -0.1103506833 0.5661997199 4290824143
-0.2533041835 -0.1097407341 0.5662984848 4289771455
-0.2537502646 -0.1093036905 0.5672957897 4288324009
-0.2537940443 -0.1086921394 0.5673936605 4287073942
-0.2538376153 -0.1080802754 0.5674910545 4286546830
-0.2534786165 -0.1072977781 0.5666884184 4286152072
-0.2539240420 -0.1068555936 0.5676842928 4285625728
-0.2539669275 -0.1062427908 0.5677801371 4285559935
-0.2540095448 -0.1056296751 0.5678754449 4286546828
-0.2536493242 -0.1048498228 0.5670701265 4288125860
-0.2536914349 -0.1042370647 0.5671642423 4289045935
-0.2533305585 -0.1034595221 0.5663574338 4288914349
-0.2529692948 -0.1026836261 0.5655498505 4288059038
-0.2530105710 -0.1020719111 0.5656421185 4286480006
-0.2530516088 -0.1014598906 0.5657338500 4285229939
-0.2526893914 -0.1006869972 0.5649240613 4284900974
-0.2527298927 -0.1000753641 0.5650146008 4285295734
-0.2523670197 -0.0993048027 0.5642033815 4285493113
-0.2524070144 -0.0986935645 0.5642927289 4284572781
-0.2520434856 -0.0979253501 0.5634800196 4284638574
-0.2520829141 -0.0973145142 0.5635681748 4285559674
-0.2517187297 -0.0965486616 0.5627539754 4287007120
-0.2517576218 -0.0959382281 0.5628409386 4288191394
-0.2517963052 -0.0953275114 0.5629274249 4288783531
-0.2518347502 -0.0947165191 0.5630133748 4289046703
-0.2522765994 -0.0942560509 0.5640011430 4289112496
-0.2531220317 -0.0939431787 0.5658912659 4288191394
-0.2535637021 -0.0934772566 0.5668786764 4288125601
-0.2540052533 -0.0930090994 0.5678658485 4287533977
-0.2540428042 -0.0923918188 0.5679498315 4287205012
-0.2548880279 -0.0920660719 0.5698394179 4286941840
-0.2553292215 -0.0915912092 0.5708257556 4285954945
-0.2557702959 -0.0911141038 0.5718118548 4285889152
-0.2562112510 -0.0906347707 0.5727976561 4287205012
-0.2562478781 -0.0900112167 0.5728795528 4289705146
-0.2562842965 -0.0893874094 0.5729609728 4292007901
-0.2524191737 -0.1090009660 0.5657246113 4291021522
-0.2528641224 -0.1085634455 0.5667219162 4290232006
-0.2529075742 -0.1079523191 0.5668192506 4289179318
-0.2529507577 -0.1073408797 0.5669161081 4287402907
-0.2525921762 -0.1065597162 0.5661123991 4286546830
-0.2526348531 -0.1059486195 0.5662080050 4286349451
-0.2526772916 -0.1053372175 0.5663031340 4285888898
-0.2523177266 -0.1045590118 0.5654972792 4285888898
-0.2523596287 -0.1039479673 0.5655912161 4287335317
-0.2519994080 -0.1031720713 0.5647838712 4288453798
-0.2520408034 -0.1025613993 0.5648766160 4288980140
-0.2516798973 -0.1017878205 0.5640677810 4288388003
-0.2517207563 -0.1011775210 0.5641593337 4287401108
-0.2517613769 -0.1005669236 0.5642504096 4285493111
-0.2513995171 -0.0997963622 0.5634394288 4284637804
-0.2514396012 -0.0991861522 0.5635292530 4284506218
-0.2510771155 -0.0984179378 0.5627167821 4285690490
-0.2511166632 -0.0978081301 0.5628054738 4285229939
-0.2511560023 -0.0971980318 0.5628936291 4284638572
-0.2507925332 -0.0964328572 0.5620790124 4284835951
-0.2508313358 -0.0958231688 0.5621659756 4285954430
-0.2508699000 -0.0952131972 0.5622524023 4287401876
-0.2505054772 -0.0944510996 0.5614356399 4288454566
-0.2509463131 -0.0939924195 0.5624236465 4289112496
-0.2513870299 -0.0935314968 0.5634114146 4288915630
-0.2518276274 -0.0930683464 0.5643988848 4288652458
-0.2522681355 -0.0926029533 0.5653861165 4288652458
-0.2527084947 -0.0921353251 0.5663731098 4288455079
-0.2527456582 -0.0915194973 0.5664563775 4287928735
-0.2531857193 -0.0910483822 0.5674426556 4287599770
-0.2536256909 -0.0905750245 0.5684286952 4286941840
-0.2540655136 -0.0900994390 0.5694144368 4286020738
-0.2545052171 -0.0896216184 0.5703999400 4285823359
-0.2545413971 -0.0890005156 0.5704810023 4287139219
-0.2549808025 -0.0885192081 0.5714657903 4289507254
-0.2550165653 -0.0878965929 0.5715458989 4291875802
-0.2515779436 -0.1076527536 0.5652463436 4291021522
-0.2516209781 -0.1070430279 0.5653429627 4289903041
-0.2516637444 -0.1064329818 0.5654391050 4288521388
-0.2517063022 -0.1058226302 0.5655347109 4287271321
-0.2513477504 -0.1050444320 0.5647290945 4286087047
-0.2513897717 -0.1044344380 0.5648235679 4285429117
-0.2510305643 -0.1036585420 0.5640164614 4285691258
-0.2506709695 -0.1028843001 0.5632085800 4286151809
-0.2507121861 -0.1022753417 0.5633011460 4287401876
-0.2507531643 -0.1016660854 0.5633931756 4288520357
-0.2507938743 -0.1010565311 0.5634846687 4288716968
-0.2504330575 -0.1002859622 0.5626739860 4288322210
-0.2504732609 -0.0996767879 0.5627643466 4287137936
-0.2501117885 -0.0989085659 0.5619521141 4284966767
-0.2501514554 -0.0982997939 0.5620412827 4284572009
-0.2501909137 -0.0976907238 0.5621299148 4285098353
-0.2498284578 -0.0969255418 0.5613155961 4285624186
-0.2498673797 -0.0963168815 0.5614030361 4285229428
-0.2495042831 -0.0955540687 0.5605872273 4284768877
-0.2495426834 -0.0949458256 0.5606734753 4285295221
-0.2495808303 -0.0943372995 0.5607591867 4286611081
-0.2496187538 -0.0937284902 0.5608444214 4288058527
-0.2496564388 -0.0931194127 0.5609290600 4288849322
-0.2500959933 -0.0926590264 0.5619166493 4289309873
-0.2505353987 -0.0921963975 0.5629039407 4289573047
-0.2509747148 -0.0917315409 0.5638909936 4289375668
-0.2510116398 -0.0911184251 0.5639739037 4289375668
-0.2514506280 -0.0906500742 0.5649603009 4288849324
-0.2518895268 -0.0901794881 0.5659464002 4288586152
-0.2523283064 -0.0897066742 0.5669322014 4288125601
-0.2527669370 -0.0892316177 0.5679177642 4287467671
-0.2528029084 -0.0886132270 0.5679985881 4286217604
-0.2536438406 -0.0882748142 0.5698879957 4285823359
-0.2540821135 -0.0877930596 0.5708727241 4287073426
-0.2545202672 -0.0873090774 0.5718570948 4289112755
-0.2545554936 -0.0866856948 0.5719362497 4291218131
-0.2503364682 -0.1061365157 0.5638640523 4291021520
-0.2503788471 -0.1055278704 0.5639594793 4289903039
-0.2500209212 -0.1047513261 0.5631533265 4288455593
-0.2500627637 -0.1041430458 0.5632475615 4287205526
-0.2501043677 -0.1035344601 0.5633413196 4285822846
-0.2497455180 -0.1027608886 0.5625330210 4285033330
-0.2497866005 -0.1021526754 0.5626255274 4285428088
-0.2494270802 -0.1013814360 0.5618157387 4287072913
-0.2494676411 -0.1007735953 0.5619071126 4288059808
-0.2495079637 -0.1001654640 0.5619978905 4288322980
-0.2491474897 -0.0993972346 0.5611860156 4288651175
-0.2491872907 -0.0987894982 0.5612756014 4288651175
-0.2488261610 -0.0980236158 0.5604622364 4286282627
-0.2488654405 -0.0974162742 0.5605506897 4284637802
-0.2489044815 -0.0968086496 0.5606386065 4284374119
-0.2485423982 -0.0960458219 0.5598230958 4285426807
-0.2489818484 -0.0955925360 0.5608128905 4285624186
-0.2490201890 -0.0949840546 0.5608992577 4284703084
-0.2490583062 -0.0943752974 0.5609850883 4284703084
-0.2486950457 -0.0936152637 0.5601668954 4285689979
-0.2487326264 -0.0930069312 0.5602515340 4287664534
-0.2487699687 -0.0923983231 0.5603356361 4288322464
-0.2488070875 -0.0917894393 0.5604192615 4289178287
-0.2492453307 -0.0913273543 0.5614063144 4289704631
-0.2496834397 -0.0908630267 0.5623931885 4289902012
-0.2497199625 -0.0902513713 0.5624754429 4289375668
-0.2497562617 -0.0896394402 0.5625571609 4289178287
-0.2501938939 -0.0891703814 0.5635429621 4288783529
-0.2502297759 -0.0885569379 0.5636237264 4287665048
-0.2506671250 -0.0880843922 0.5646088123 4287665048
-0.2511043549 -0.0876096189 0.5655936599 4287402391
-0.2523450851 -0.0874109939 0.5683883429 4286612875
-0.2527821660 -0.0869297758 0.5693728328 4285757566
-0.2528171837 -0.0863091201 0.5694516897 4286152324
-0.2528519630 -0.0856882036 0.5695300102 4288388773
-0.2528864741 -0.0850670263 0.5696077943 4290691528
-0.2490960360 -0.1046255678 0.5624772310 4291218899
-0.2487384975 -0.1038513333 0.5616698861 4289771453
-0.2487799227 -0.1032444686 0.5617634058 4288520872
-0.2488211095 -0.1026372984 0.5618564487 4287402391
-0.2484626174 -0.1018660590 0.5610468984 4285954945
-0.2485032827 -0.1012592614 0.5611387491 4285231222
-0.2485437095 -0.1006521732 0.5612300634 4285888639
-0.2485839128 -0.1000447869 0.5613208413 4287204499
-0.2482241690 -0.0992772430 0.5605084896 4288059810
-0.2482638508 -0.0986702442 0.5605981350 4288520361
-0.2479034662 -0.0979050547 0.5597842932 4289769658
-0.2475427091 -0.0971415266 0.5589696765 4288190626
-0.2475815713 -0.0965356231 0.5590574741 4285624699
-0.2472201735 -0.0957744569 0.5582413673 4284374632
-0.2476585954 -0.0953229591 0.5592314005 4284966256
-0.2476967722 -0.0947162136 0.5593175888 4285163635
-0.2477346957 -0.0941091776 0.5594032407 4284834670
-0.2477723956 -0.0935018733 0.5594883561 4284834670
-0.2478098720 -0.0928942859 0.5595729947 4285361778
-0.2478471100 -0.0922864228 0.5596570373 4286546052
-0.2474836558 -0.0915301815 0.5588363409 4287993499
-0.2475203574 -0.0909227580 0.5589192510 4288848808
-0.2479574233 -0.0904612094 0.5599061251 4289507252
-0.2479937226 -0.0898522660 0.5599881411 4289441459
-0.2476290911 -0.0890988857 0.5591647625 4289178287
-0.2480656207 -0.0886335820 0.5601504445 4289112494
-0.2481012046 -0.0880238414 0.5602308512 4288717736
-0.2485374361 -0.0875550583 0.5612158775 4288388771
-0.2489735335 -0.0870840475 0.5622006059 4287994528
-0.2498105019 -0.0867500454 0.5640905499 4287599770
-0.2506474555 -0.0864118412 0.5659804344 4287007633
-0.2510832846 -0.0859321654 0.5669645667 4286415496
-0.2511178553 -0.0853139684 0.5670426488 4286218117
-0.2511521876 -0.0846955180 0.5671201348 4286481289
-0.2511862516 -0.0840768144 0.5671970844 4287994528
-0.2516213953 -0.0835911781 0.5681797266 4289902525
-0.2516550720 -0.0829709843 0.5682557225 4292271073
-0.2474581897 -0.1029541567 0.5601838231 4291416278
-0.2474991977 -0.1023487076 0.5602766275 4289968832
-0.2475399822 -0.1017429605 0.5603688955 4288586665
-0.2471818477 -0.1009740531 0.5595582128 4287270805
-0.2472220957 -0.1003686860 0.5596493483 4286152324
-0.2472621202 -0.0997630209 0.5597399473 4285362808
-0.2469030470 -0.0989971384 0.5589270592 4286217604
-0.2469425350 -0.0983918682 0.5590164661 4288059808
-0.2465828061 -0.0976283327 0.5582021475 4289374898
-0.2466217875 -0.0970234647 0.5582903624 4289309105
-0.2466605306 -0.0964183137 0.5583781004 4289440691
-0.2466990501 -0.0958128721 0.5584653020 4287795866
-0.2467373461 -0.0952071473 0.5585519671 4284769131
-0.2467753887 -0.0946011469 0.5586380959 4284242787
-0.2464138418 -0.0938427672 0.5578196645 4285756026
-0.2464513779 -0.0932371914 0.5579046011 4285953405
-0.2464886755 -0.0926313326 0.5579890609 4285032301
-0.2465257496 -0.0920252055 0.5580729246 4285295473
-0.2465625852 -0.0914188027 0.5581563115 4285953916
-0.2465991825 -0.0908121318 0.5582392216 4286940811
-0.2466355562 -0.0902051926 0.5583215356 4288388257
-0.2466716915 -0.0895979851 0.5584033132 4289309359
-0.2463077456 -0.0888462737 0.5575794578 4289309359
-0.2463433444 -0.0882395208 0.5576600432 4289309359
-0.2463787198 -0.0876325071 0.5577401519 4289046703
-0.2464138716 -0.0870252252 0.5578197241 4288849324
-0.2472489327 -0.0866982639 0.5597100854 4288651945
-0.2476838529 -0.0862277970 0.5606946349 4288454566
-0.2485188395 -0.0858934149 0.5625848174 4287994274
-0.2485533208 -0.0852801725 0.5626628995 4287533723
-0.2489878684 -0.0848030224 0.5636466146 4287204758
-0.2494222820 -0.0843236297 0.5646300316 4287204758
-0.2494561672 -0.0837076530 0.5647066832 4285888641
-0.2494897991 -0.0830914304 0.5647828579 4286086020
-0.2499237210 -0.0826073363 0.5657651424 4287204501
-0.2499569207 -0.0819896236 0.5658403039 4289112498
-0.2499898970 -0.0813716650 0.5659149289 4291086545
-0.2462206334 -0.1014557704 0.5587871671 4291547864
-0.2462609857 -0.1008514538 0.5588787794 4290297797
-0.2463011295 -0.1002468318 0.5589698553 4288520872
-0.2459430695 -0.0994809419 0.5581572652 4286612875
-0.2459826767 -0.0988767147 0.5582472086 4285691773
-0.2456239760 -0.0981131792 0.5574331284 4286086531
-0.2460612208 -0.0976673886 0.5584254265 4288059808
-0.2461001426 -0.0970622897 0.5585137606 4288915117
-0.2453422844 -0.0961447433 0.5567938089 4289243312
-0.2457789630 -0.0956961364 0.5577848554 4289506484
-0.2458171397 -0.0950911641 0.5578715205 4288914347
-0.2458550781 -0.0944859087 0.5579575896 4286282627
-0.2454942614 -0.0937282220 0.5571387410 4284571752
-0.2455316931 -0.0931233913 0.5572236776 4284834924
-0.2455688864 -0.0925182924 0.5573080778 4286216575
-0.2452071309 -0.0917637050 0.5564870834 4285756024
-0.2452437878 -0.0911590382 0.5565702915 4284966508
-0.2452802360 -0.0905540958 0.5566530228 4285163887
-0.2453164309 -0.0899488926 0.5567351580 4286545799
-0.2453524023 -0.0893434137 0.5568168163 4287795866
-0.2453881502 -0.0887376815 0.5568979383 4288190624
-0.2450245917 -0.0879883692 0.5560728312 4288980140
-0.2446606904 -0.0872407779 0.5552469492 4288783533
-0.2446956038 -0.0866362229 0.5553262234 4288849326
-0.2451295406 -0.0861717537 0.5563110113 4288980912
-0.2459626347 -0.0858444124 0.5582016706 4288915119
-0.2459970266 -0.0852361321 0.5582797527 4288651947
-0.2460311800 -0.0846275911 0.5583572388 4288257189
-0.2464645654 -0.0841551945 0.5593407750 4287862688
-0.2468978167 -0.0836805701 0.5603240132 4287731102
-0.2473309338 -0.0832037106 0.5613070130 4287336087
-0.2473643124 -0.0825912058 0.5613827705 4286414985
-0.2477971315 -0.0821108818 0.5623649955 4285954180
-0.2482298017 -0.0816283375 0.5633469224 4286085766
-0.2486623526 -0.0811435729 0.5643286109 4286809489
-0.2486949414 -0.0805271119 0.5644025207 4288059556
-0.2487272769 -0.0799104124 0.5644758940 4289836478
-0.2495592535 -0.0795484334 0.5663640499 4291744475
-0.2450238913 -0.0993595943 0.5574764013 4290494660
-0.2446662039 -0.0985960588 0.5566626191 4288455077
-0.2447054088 -0.0979932621 0.5567517877 4286810252
-0.2451416999 -0.0975482836 0.5577444434 4285822844
-0.2451805025 -0.0969439372 0.5578327775 4286414981
-0.2448216528 -0.0961831585 0.5570163131 4288191394
-0.2448599488 -0.0955792218 0.5571033955 4289507254
-0.2448980063 -0.0949750021 0.5571900010 4289769656
-0.2445382178 -0.0942173004 0.5563714504 4289638070
-0.2441780716 -0.0934612826 0.5555520058 4288124831
-0.2442153245 -0.0928581953 0.5556367636 4285427318
-0.2442523390 -0.0922548249 0.5557209849 4283650650
-0.2442891300 -0.0916511789 0.5558047295 4284834924
-0.2439277619 -0.0908989757 0.5549825430 4285624440
-0.2439640313 -0.0902957767 0.5550650358 4285361268
-0.2440000772 -0.0896923095 0.5551470518 4284834924
-0.2440358847 -0.0890885741 0.5552285314 4285558647
-0.2436732948 -0.0883402228 0.5544036031 4286743180
-0.2437085807 -0.0877369493 0.5544838905 4287927454
-0.2433453649 -0.0869910344 0.5536574721 4288782763
-0.2429818064 -0.0862468332 0.5528302789 4288848556
-0.2434146702 -0.0857851505 0.5538151264 4288980142
-0.2442458570 -0.0854606479 0.5557062626 4289045935
-0.2438815385 -0.0847166702 0.5548773408 4288980912
-0.2439154238 -0.0841118470 0.5549544692 4288915119
-0.2443476915 -0.0836432204 0.5559379458 4288585900
-0.2447798401 -0.0831723735 0.5569211841 4288322728
-0.2452118546 -0.0826992914 0.5579040647 4287599005
-0.2452449799 -0.0820905045 0.5579794645 4287204247
-0.2460755110 -0.0817464516 0.5598690510 4286809489
-0.2465071380 -0.0812666938 0.5608510971 4286414731
-0.2469386309 -0.0807847157 0.5618328452 4285954180
-0.2469710112 -0.0801709890 0.5619065166 4285756801
-0.2474021912 -0.0796855465 0.5628875494 4286217606
-0.2482323200 -0.0793254152 0.5647762418 4286941329
-0.2482641339 -0.0787080005 0.5648486018 4288520872
-0.2486949116 -0.0782158896 0.5658286810 4290297283
-0.2437488139 -0.0984752178 0.5559803247 4291744729
-0.2437878996 -0.0978731737 0.5560694933 4290034111
-0.2438267618 -0.0972708464 0.5561581254 4288257700
-0.2442619354 -0.0968254134 0.5571507215 4286547082
-0.2439038157 -0.0960653275 0.5563338995 4286151811
-0.2439419925 -0.0954621360 0.5564209819 4287336085
-0.2439799309 -0.0948586687 0.5565075278 4288651945
-0.2436208874 -0.0941016600 0.5556885600 4289309875
-0.2432614714 -0.0933463350 0.5548687577 4289441461
-0.2432986200 -0.0927439928 0.5549534559 4289441461
-0.2433355302 -0.0921413749 0.5550376177 4286545799
-0.2429751903 -0.0913891569 0.5542157292 4284308837
-0.2430115789 -0.0907869786 0.5542987585 4283979615
-0.2430477440 -0.0901845321 0.5543812513 4285558647
-0.2430836707 -0.0895818174 0.5544632077 4285427061
-0.2427221239 -0.0888334438 0.5536385179 4284900717
-0.2427575290 -0.0882311836 0.5537192822 4285032562
-0.2427927107 -0.0876286626 0.5537995100 4285624699
-0.2424302399 -0.0868834481 0.5529727340 4287006352
-0.2424649000 -0.0862813890 0.5530517697 4287598489
-0.2424993366 -0.0856790692 0.5531303287 4288256417
-0.2429311275 -0.0852159709 0.5541152358 4288716968
-0.2421698570 -0.0843351930 0.5523787737 4288914349
-0.2418058217 -0.0835956112 0.5515484810 4288980142
-0.2422369868 -0.0831307694 0.5525318980 4288849326
-0.2422702014 -0.0825281814 0.5526076555 4288783533
-0.2427010536 -0.0820598677 0.5535904169 4287796384
-0.2431317866 -0.0815893337 0.5545729399 4287467419
-0.2439603657 -0.0812491179 0.5564628839 4287270040
-0.2443908900 -0.0807731375 0.5574448705 4287270040
-0.2444231957 -0.0801643729 0.5575186014 4287072661
-0.2452515513 -0.0798145086 0.5594080091 4286809489
-0.2460798621 -0.0794604346 0.5612973571 4286678157
-0.2465099096 -0.0789745674 0.5622782707 4286480778
-0.2465415448 -0.0783598870 0.5623504519 4286020227
-0.2469712645 -0.0778705701 0.5633305907 4286480778
-0.2474008501 -0.0773790330 0.5643104911 4287533466
-0.2474318594 -0.0767616555 0.5643811822 4288980912
-0.2474626154 -0.0761440545 0.5644513369 4290691787
-0.2429102212 -0.0971513242 0.5554748178 4291678936
-0.2429487407 -0.0965494588 0.5555628538 4289902525
-0.2429870367 -0.0959473103 0.5556504130 4288125601
-0.2426293045 -0.0951895937 0.5548323989 4286612362
-0.2426670790 -0.0945878625 0.5549187660 4286283399
-0.2427046150 -0.0939858481 0.5550045967 4287599259
-0.2427419424 -0.0933835506 0.5550899506 4288849326
-0.2423829734 -0.0926296264 0.5542691350 4289244084
-0.2424197793 -0.0920277610 0.5543532372 4289572277
-0.2424563468 -0.0914256275 0.5544369221 4288256417
-0.2420964688 -0.0906748176 0.5536139011 4285163889
-0.2421325147 -0.0900731236 0.5536963940 4284242787
-0.2421683520 -0.0894711614 0.5537782907 4285229682
-0.2422039360 -0.0888689384 0.5538597107 4285558647
-0.2426357716 -0.0884109065 0.5548471808 4284769388
-0.2426709682 -0.0878071710 0.5549276471 4284900974
-0.2423093468 -0.0870606750 0.5541007519 4285229939
-0.2419473827 -0.0863159001 0.5532730222 4286216834
-0.2419817746 -0.0857133567 0.5533516407 4287203729
-0.2416191846 -0.0849710256 0.5525224805 4287861659
-0.2408594340 -0.0840918869 0.5507851243 4288256417
-0.2400992513 -0.0832164437 0.5490468144 4288453796
-0.2401324362 -0.0826178342 0.5491226912 4288519591
-0.2401653826 -0.0820189714 0.5491980314 4288716970
-0.2401981056 -0.0814198628 0.5492728353 4288059556
-0.2406276762 -0.0809541047 0.5502551794 4287730591
-0.2414542437 -0.0806187168 0.5521453619 4287533212
-0.2414864302 -0.0800159052 0.5522189140 4287664798
-0.2419156283 -0.0795434713 0.5532003641 4287204501
-0.2431392521 -0.0793280527 0.5559985042 4286875536
-0.2439656258 -0.0789778158 0.5578882098 4287072915
-0.2443945855 -0.0784957409 0.5588691235 4287072915
-0.2444259524 -0.0778847933 0.5589408875 4286743696
-0.2452520728 -0.0775249079 0.5608299971 4286480524
-0.2456806153 -0.0770361573 0.5618100166 4286348938
-0.2457114309 -0.0764215365 0.5618804693 4286217352
-0.2457420081 -0.0758066773 0.5619503856 4286348938
-0.2461700290 -0.0753132552 0.5629291534 4287335833
-0.2462001741 -0.0746969506 0.5629980564 4289046703
-0.2466278672 -0.0742000937 0.5639761090 4290888907
-0.2420713454 -0.0958291218 0.5549659729 4291218131
-0.2417143285 -0.0950720981 0.5541475415 4289639099
-0.2417519987 -0.0944711193 0.5542338490 4287402137
-0.2417894304 -0.0938698575 0.5543196797 4285691519
-0.2414315045 -0.0931159183 0.5534991026 4286152070
-0.2414684147 -0.0925150886 0.5535837412 4287665309
-0.2415051162 -0.0919139832 0.5536678433 4288651945
-0.2415415794 -0.0913126022 0.5537514687 4289309875
-0.2411824316 -0.0905624852 0.5529280901 4289244082
-0.2412183732 -0.0899615511 0.5530105233 4286414983
-0.2412540913 -0.0893603489 0.5530923605 4284045665
-0.2412895858 -0.0887588784 0.5531737208 4284177251
-0.2417204529 -0.0883016586 0.5541615486 4285229939
-0.2417555451 -0.0876986757 0.5542420149 4284966767
-0.2417903990 -0.0870954320 0.5543219447 4285229939
-0.2410334647 -0.0862088054 0.5525865555 4284966767
-0.2410677373 -0.0856070146 0.5526651740 4285558906
-0.2411018014 -0.0850049704 0.5527432561 4286545801
-0.2403437048 -0.0841254890 0.5510052443 4287269011
-0.2395851761 -0.0832497105 0.5492662787 4287926941
-0.2388261855 -0.0823776424 0.5475262403 4288387492
-0.2388589829 -0.0817805305 0.5476014614 4288519078
-0.2388915569 -0.0811831728 0.5476760864 4288454314
-0.2389239073 -0.0805855766 0.5477502346 4288322728
-0.2397485673 -0.0802530348 0.5496408343 4288256935
-0.2397805601 -0.0796529725 0.5497142076 4288256935
-0.2398123145 -0.0790526643 0.5497869849 4288125349
-0.2410331368 -0.0788411424 0.5525858402 4287796384
-0.2418575585 -0.0784947425 0.5544759035 4287401626
-0.2422854155 -0.0780164525 0.5554567575 4287006868
-0.2423165441 -0.0774092451 0.5555281043 4287072661
-0.2431407273 -0.0770532042 0.5574176311 4287072661
-0.2435681671 -0.0765682459 0.5583975911 4286941075
-0.2435987443 -0.0759573579 0.5584676862 4286875282
-0.2436290830 -0.0753462464 0.5585371852 4286677903
-0.2440560162 -0.0748566166 0.5595160127 4286217352
-0.2444828153 -0.0743647739 0.5604944825 4286085766
-0.2445125282 -0.0737509876 0.5605626106 4286414731
-0.2445420027 -0.0731369779 0.5606301427 4287862427
-0.2449682802 -0.0726404861 0.5616074204 4289309873
-0.2449973226 -0.0720250383 0.5616739988 4290823112
-0.2450261414 -0.0714093745 0.5617400408 4292073179
-0.2408380061 -0.0943542048 0.5535479784 4290889936
-0.2408753335 -0.0937536955 0.5536337495 4288850353
-0.2405181378 -0.0930004567 0.5528127551 4286942356
-0.2405549437 -0.0924003795 0.5528973341 4285692289
-0.2405915260 -0.0918000266 0.5529814363 4286546569
-0.2406278700 -0.0911994055 0.5530650020 4288454566
-0.2402694672 -0.0904499888 0.5522412062 4288980910
-0.2403053194 -0.0898498073 0.5523235798 4289178289
-0.2403409183 -0.0892493650 0.5524054766 4287862429
-0.2403763086 -0.0886486471 0.5524867773 4284375400
-0.2404114604 -0.0880476683 0.5525676012 4283585884
-0.2404463887 -0.0874464288 0.5526478887 4284441193
-0.2404810786 -0.0868449286 0.5527275801 4285361525
-0.2401206195 -0.0861015543 0.5518990755 4285361525
-0.2401548028 -0.0855005234 0.5519776344 4285164146
-0.2401887476 -0.0848992392 0.5520557165 4285164146
-0.2390371561 -0.0838817582 0.5494088531 4285822076
-0.2386753261 -0.0831452757 0.5485771894 4286348420
-0.2379179448 -0.0822738558 0.5468364358 4287137936
-0.2379506379 -0.0816775039 0.5469115973 4288256417
-0.2379831225 -0.0810809135 0.5469862223 4287994017
-0.2388061136 -0.0807514638 0.5488777757 4288059810
-0.2384428084 -0.0800196975 0.5480427742 4288059556
-0.2384746373 -0.0794213861 0.5481159687 4287927970
-0.2392973155 -0.0790842697 0.5500068069 4287927970
-0.2397243828 -0.0786132216 0.5509883761 4287862177
-0.2397556752 -0.0780112222 0.5510603189 4287467419
-0.2401824296 -0.0775367171 0.5520411730 4287006868
-0.2394218445 -0.0766797662 0.5502930284 4286941075
-0.2410355508 -0.0765810534 0.5540019870 4286941075
-0.2410660684 -0.0759751350 0.5540721416 4286875282
-0.2414922416 -0.0754927471 0.5550516844 4286809489
-0.2419182658 -0.0750081390 0.5560308695 4286809489
-0.2423441708 -0.0745213106 0.5570097566 4286743696
-0.2427699268 -0.0740322694 0.5579883456 4286677903
-0.2427994609 -0.0734212399 0.5580562353 4286677903
-0.2432248890 -0.0729287565 0.5590340495 4286480776
-0.2432539910 -0.0723162815 0.5591009259 4286546569
-0.2436790913 -0.0718203709 0.5600779653 4286546569
-0.2437077612 -0.0712064654 0.5601438880 4287072913
-0.2441325188 -0.0707071200 0.5611201525 4288322978
