VERSION 0.7
FIELDS x y z rgba
SIZE 4 4 4 4
TYPE F F F U
COUNT 1 1 1 1
WIDTH 920
HEIGHT 1
VIEWPOINT 0.0 0.0 0.0 1.0 0.0 0.0 0.0
POINTS 920
DATA ascii
-0.2720092237 -0.1047440022 0.5876867175 4288061372
-0.2720523477 -0.1041075364 0.5877798200 4287336621
-0.2720952034 -0.1034707725 0.5878724456 4286481312
-0.2725526392 -0.1029904634 0.5888607502 4285757330
-0.2730099857 -0.1025079116 0.5898488760 4284902021
-0.2734671831 -0.1020231172 0.5908367038 4284110958
-0.2735092342 -0.1013822407 0.5909275413 4283058270
-0.2735510468 -0.1007410735 0.5910178423 4282987591
-0.2740077376 -0.1002515033 0.5920045376 4282527040
-0.2740491033 -0.0996087790 0.5920938849 4283574072
-0.2740902007 -0.0989657566 0.5921826959 4283639865
-0.2741310298 -0.0983224511 0.5922709703 4284950576
-0.2745870352 -0.0978268534 0.5932561755 4284950576
-0.2746274471 -0.0971819982 0.5933434367 4286588202
-0.2750831246 -0.0966829062 0.5943279266 4286719788
-0.2751230597 -0.0960365087 0.5944142342 4287963428
-0.2751627564 -0.0953898281 0.5945000052 4287831842
-0.2752021849 -0.0947428718 0.5945851803 4288159777
-0.2752413452 -0.0940956399 0.5946698189 4288093984
-0.2752802670 -0.0934481323 0.5947539210 4287963425
-0.2757348120 -0.0929405317 0.5957359672 4287831839
-0.2757732868 -0.0922914967 0.5958190560 4287897886
-0.2753954828 -0.0915039703 0.5950028300 4288095265
-0.2754333615 -0.0908553749 0.5950846672 4288291364
-0.2750548720 -0.0900702477 0.5942668915 4288159778
-0.2755083442 -0.0895573869 0.5952466726 4288027942
-0.2755454481 -0.0889079943 0.5953268409 4287962149
-0.2751660049 -0.0881250277 0.5945070386 4288358445
-0.2752025425 -0.0874760970 0.5945859551 4288226859
-0.2748224139 -0.0866955519 0.5937647223 4288160553
-0.2748583853 -0.0860470980 0.5938423872 4288292139
-0.2748940587 -0.0853983834 0.5939195156 4288554797
-0.2749294937 -0.0847494155 0.5939960480 4288489004
-0.2749646604 -0.0841002017 0.5940720439 4288488491
-0.2745829225 -0.0833242983 0.5932472348 4288554284
-0.2742007971 -0.0825501159 0.5924216509 4288620590
-0.2738183141 -0.0817776620 0.5915952325 4288817969
-0.2738522589 -0.0811304227 0.5916686654 4288884528
-0.2734690905 -0.0803604424 0.5908408165 4288884528
-0.2735024989 -0.0797137022 0.5909129381 4288949806
-0.2731186450 -0.0789462104 0.5900836587 4288949806
-0.2731514573 -0.0782999918 0.5901545286 4289080877
-0.2727669477 -0.0775349885 0.5893237591 4289080877
-0.2723820806 -0.0767717212 0.5884922147 4288687662
-0.2719968259 -0.0760102123 0.5876598954 4288885041
-0.2716112435 -0.0752504468 0.5868268013 4289933099
-0.2720598280 -0.0747216493 0.5877959728 4290262064
-0.2716735899 -0.0739634186 0.5869615674 4290589755
-0.2717044055 -0.0733195692 0.5870280862 4290918720
-0.2717349231 -0.0726755038 0.5870940089 4291116852
-0.2717651725 -0.0720312223 0.5871593952 4291248438
-0.2717951834 -0.0713867247 0.5872242451 4291119441
-0.2718249261 -0.0707420185 0.5872884989 4291645785
-0.2722719908 -0.0702047721 0.5882543921 4290621374
-0.2655617893 -0.1542677134 0.5751368403 4292731111
-0.2656232715 -0.1536642611 0.5752699971 4292204767
-0.2656845152 -0.1530603766 0.5754026771 4291349717
-0.2657455802 -0.1524560899 0.5755348802 4290428615
-0.2658064067 -0.1518513858 0.5756666660 4290033859
-0.2658670247 -0.1512462646 0.5757979751 4289178550
-0.2659274340 -0.1506407410 0.5759288073 4287927971
-0.2655796707 -0.1498046815 0.5751756430 4286348939
-0.2656395733 -0.1491992474 0.5753053427 4285164667
-0.2656992376 -0.1485934108 0.5754345655 4284046186
-0.2657586932 -0.1479871720 0.5755633116 4283585894
-0.2658179402 -0.1473805159 0.5756915808 4283125343
-0.2654685378 -0.1465480030 0.5749348998 4282731363
-0.2655272484 -0.1459414810 0.5750620365 4282205019
-0.2655857503 -0.1453345567 0.5751887560 4281810263
-0.2652353346 -0.1445045769 0.5744298697 4281876056
-0.2648845315 -0.1436760575 0.5736700892 4281941855
-0.2649421990 -0.1430698186 0.5737949610 4282270820
-0.2645906806 -0.1422433108 0.5730336905 4282468717
-0.2642387748 -0.1414182931 0.5722715855 4282666096
-0.2638864815 -0.1405947655 0.5715085864 4282600567
-0.2635337710 -0.1397727132 0.5707446933 4282140016
-0.2627713978 -0.1387360543 0.5690935850 4281679730
-0.2620084286 -0.1377027631 0.5674412251 4281416558
-0.2616543770 -0.1368870735 0.5666744113 4281153648
-0.2608903646 -0.1358595937 0.5650197864 4281087855
-0.2597161531 -0.1346231699 0.5624767542 4281088368
-0.2593606710 -0.1338148117 0.5617069006 4281219954
-0.2585949898 -0.1327975094 0.5600486398 4281089136
-0.2582386434 -0.1319931149 0.5592768788 4281286515
-0.2574719191 -0.1309816688 0.5576163530 4281418109
-0.2571147382 -0.1301812679 0.5568427444 4281549695
-0.2563469708 -0.1291756928 0.5551800132 4281549447
-0.2559889257 -0.1283792853 0.5544045568 4281549447
-0.2556304932 -0.1275844127 0.5536282659 4281746575
-0.2552716732 -0.1267910600 0.5528511405 4282009747
-0.2545019686 -0.1257963628 0.5511841774 4282009747
-0.2545528710 -0.1252089888 0.5512944460 4282338712
-0.2541928887 -0.1244202629 0.5505148172 4282404501
-0.2542432547 -0.1238331348 0.5506239533 4282667673
-0.2547042370 -0.1234447733 0.5516222715 4282997659
-0.2547542751 -0.1228559986 0.5517306328 4282734487
-0.2556260228 -0.1226612926 0.5536186099 4282471566
-0.2556757629 -0.1220699325 0.5537263155 4283129496
-0.2565475404 -0.1218688339 0.5556144118 4286151083
-0.2574194372 -0.1216635853 0.5575026274 4290032870
-0.2582913935 -0.1214541793 0.5593911409 4292137454
-0.2591634691 -0.1212406233 0.5612797737 4292137454
-0.2600356340 -0.1210229099 0.5631686449 4292792815
-0.2609078586 -0.1208010390 0.5650576949 4292792815
-0.2617801726 -0.1205750033 0.5669469237 4292400626
-0.2626525760 -0.1203448176 0.5688363314 4292334833
-0.2635250688 -0.1201104596 0.5707258582 4291481570
-0.2643976212 -0.1198719367 0.5726155639 4291349984
-0.2648583353 -0.1194434911 0.5736134052 4291808481
-0.2653189898 -0.1190127879 0.5746110082 4291940067
-0.2661916018 -0.1187636778 0.5765008330 4291940843
-0.2666521370 -0.1183275133 0.5774982572 4292006636
-0.2667003870 -0.1177071631 0.5776027441 4292071150
-0.2671606839 -0.1172674447 0.5785996318 4291873771
-0.2676208615 -0.1168254763 0.5795962811 4291611876
-0.2680809796 -0.1163812503 0.5805928111 4291611876
-0.2681285143 -0.1157566831 0.5806956887 4291677669
-0.2685883641 -0.1153089106 0.5816916227 4291677669
-0.2686354816 -0.1146827266 0.5817936659 4291480803
-0.2690950632 -0.1142314076 0.5827890038 4291480803
-0.2691417634 -0.1136035994 0.5828901529 4291349987
-0.2696011066 -0.1131487414 0.5838849545 4291284194
-0.2696473897 -0.1125193164 0.5839852095 4291284194
-0.2696934342 -0.1118895710 0.5840849280 4291218401
-0.2697392404 -0.1112595052 0.5841841102 4291218147
-0.2697847784 -0.1106291190 0.5842827559 4291218147
-0.2702433169 -0.1101668626 0.5852758288 4291283940
-0.2702884674 -0.1095348746 0.5853735805 4291283940
-0.2707467079 -0.1090690866 0.5863660574 4291218660
-0.2707914412 -0.1084354967 0.5864629149 4291218660
-0.2708359063 -0.1078016013 0.5865592360 4291611360
-0.2708801329 -0.1071673855 0.5866550207 4291545567
-0.2709241211 -0.1065328643 0.5867502689 4291086561
-0.2709678411 -0.1058980376 0.5868449807 4291020768
-0.2714250982 -0.1054236069 0.5878352523 4290889956
-0.2714684010 -0.1047871932 0.5879290104 4290889956
-0.2715114653 -0.1041504815 0.5880222917 4290757857
-0.2715542614 -0.1035134643 0.5881149769 4290560478
-0.2715968192 -0.1028761491 0.5882071853 4290625242
-0.2724672854 -0.1025502309 0.5900923610 4290362070
-0.2725094855 -0.1019103751 0.5901837349 4290229709
-0.2729656398 -0.1014241278 0.5911716223 4289769158
-0.2730073929 -0.1007826999 0.5912620425 4289437619
-0.2730488777 -0.1001409888 0.5913519263 4288384931
-0.2735045254 -0.0996499658 0.5923387408 4287856010
-0.2735455632 -0.0990066901 0.5924276114 4287132287
-0.2735863626 -0.0983631313 0.5925160050 4286078059
-0.2736269236 -0.0977192819 0.5926038027 4285222750
-0.2740818560 -0.0972222313 0.5935890675 4286396490
-0.2741219401 -0.0965768322 0.5936759114 4285606974
-0.2741617858 -0.0959311575 0.5937621593 4286585641
-0.2746161819 -0.0954293534 0.5947462916 4286322469
-0.2746555805 -0.0947821438 0.5948316455 4286586146
-0.2746947110 -0.0941346511 0.5949163437 4286454560
-0.2751486003 -0.0936281011 0.5958993435 4287047716
-0.2751872540 -0.0929790810 0.5959830880 4287245095
-0.2752256691 -0.0923297927 0.5960662961 4287572001
-0.2748486698 -0.0915419459 0.5952497721 4287308829
-0.2748864889 -0.0908930898 0.5953317285 4287767072
-0.2745087743 -0.0901076496 0.5945137143 4287898658
-0.2745460570 -0.0894592479 0.5945944190 4287636262
-0.2749984562 -0.0889449418 0.5955742002 4287504676
-0.2746198177 -0.0881616548 0.5947541595 4288096037
-0.2746562958 -0.0875124633 0.5948331356 4288227623
-0.2742769420 -0.0867316052 0.5940116048 4288161831
-0.2743128538 -0.0860828832 0.5940893888 4288161831
-0.2743485272 -0.0854339153 0.5941665769 4288554795
-0.2743839025 -0.0847846866 0.5942432284 4288489002
-0.2744190395 -0.0841352120 0.5943193436 4288422698
-0.2740380764 -0.0833589956 0.5934942365 4288488491
-0.2736567259 -0.0825845003 0.5926683545 4288817456
-0.2732750177 -0.0818117261 0.5918416977 4288817456
-0.2733089626 -0.0811642259 0.5919151902 4288687408
-0.2733426094 -0.0805164799 0.5919880867 4288753201
-0.2729599178 -0.0797469392 0.5911592841 4288949551
-0.2729930282 -0.0790997073 0.5912309289 4289015344
-0.2726096511 -0.0783326477 0.5904006958 4289474610
-0.2726421654 -0.0776859373 0.5904710889 4289474610
-0.2722581327 -0.0769213736 0.5896393657 4288359210
-0.2718737423 -0.0761585683 0.5888068676 4288951347
-0.2719053626 -0.0755131468 0.5888754129 4289671724
-0.2719367445 -0.0748675019 0.5889433622 4289934896
-0.2715513706 -0.0741079673 0.5881087184 4290590781
-0.2715821564 -0.0734628737 0.5881754160 4290985539
-0.2716127038 -0.0728175566 0.5882415771 4290919732
-0.2716429830 -0.0721720159 0.5883071423 4291577662
-0.2716729939 -0.0715262666 0.5883721113 4290858326
-0.2717027366 -0.0708803087 0.5884365439 4292174186
-0.2717322409 -0.0702341348 0.5885004401 4291806161
-0.2642156780 -0.1538558304 0.5736013055 4292797417
-0.2642768919 -0.1532540172 0.5737342238 4292402659
-0.2643378973 -0.1526517868 0.5738666058 4291941854
-0.2643986940 -0.1520491391 0.5739986300 4291283924
-0.2644592524 -0.1514460742 0.5741301179 4290823375
-0.2645196319 -0.1508425921 0.5742611289 4290362824
-0.2645797729 -0.1502387077 0.5743917227 4289441723
-0.2646397054 -0.1496344060 0.5745218396 4287862691
-0.2642922103 -0.1488004178 0.5737674236 4286349198
-0.2643516064 -0.1481962204 0.5738964081 4284967545
-0.2648182213 -0.1478190422 0.5749093890 4284309615
-0.2644698024 -0.1469866335 0.5741530061 4283783271
-0.2645285726 -0.1463812292 0.5742805600 4283783790
-0.2645871341 -0.1457754225 0.5744076967 4283257446
-0.2646454573 -0.1451692134 0.5745342970 4282796643
-0.2642956972 -0.1443398446 0.5737750530 4282204506
-0.2643535137 -0.1437337697 0.5739005208 4281875802
-0.2640030682 -0.1429064274 0.5731397271 4282204767
-0.2636522055 -0.1420805603 0.5723780394 4282337385
-0.2637091875 -0.1414751709 0.5725017190 4282666350
-0.2629493475 -0.1404332668 0.5708521008 4282797944
-0.2625972927 -0.1396118551 0.5700878501 4282403186
-0.2622448802 -0.1387919188 0.5693227649 4282008947
-0.2614834905 -0.1377582401 0.5676698685 4281614189
-0.2611302137 -0.1369422525 0.5669028759 4281219694
-0.2603677809 -0.1359143853 0.5652476549 4281153901
-0.2596047819 -0.1348899007 0.5635912418 4281219439
-0.2588412166 -0.1338688135 0.5619335771 4281285232
-0.2580771148 -0.1328511238 0.5602747202 4281285493
-0.2573124468 -0.1318368316 0.5586146712 4281417079
-0.2569563985 -0.1310345978 0.5578416586 4281482874
-0.2561906874 -0.1300261766 0.5561794043 4281417081
-0.2558337748 -0.1292279363 0.5554045439 4281286012
-0.2554764748 -0.1284312308 0.5546288490 4281351805
-0.2547093034 -0.1274311692 0.5529633760 4281548932
-0.2543511689 -0.1266384721 0.5521858335 4281746311
-0.2539926171 -0.1258473098 0.5514074564 4281878157
-0.2536337078 -0.1250576973 0.5506283045 4282207122
-0.2536842525 -0.1244707033 0.5507379770 4282207892
-0.2537345588 -0.1238833591 0.5508472323 4282273685
-0.2537846565 -0.1232956648 0.5509560108 4282536856
-0.2538345456 -0.1227076277 0.5510643125 4282865821
-0.2538842261 -0.1221192479 0.5511721373 4283260061
-0.2543438971 -0.1217268482 0.5521700382 4283457440
-0.2543931901 -0.1211368293 0.5522770882 4283194509
-0.2552630603 -0.1209353209 0.5541655421 4284839334
-0.2561330199 -0.1207296625 0.5560541749 4289704407
-0.2565925121 -0.1203273237 0.5570517182 4292072955
-0.2574625611 -0.1201143116 0.5589405894 4292730611
-0.2600732744 -0.1194503233 0.5646082759 4292600311
-0.2609436512 -0.1192206666 0.5664978623 4292205804
-0.2618141174 -0.1189868525 0.5683876276 4292140011
-0.2622735798 -0.1185630336 0.5693851113 4292073957
-0.2631441355 -0.1183218434 0.5712749958 4292073957
-0.2636034787 -0.1178925559 0.5722722411 4292204266
-0.2640627921 -0.1174610257 0.5732693672 4292335852
-0.2649333775 -0.1172092408 0.5751593709 4292205807
-0.2653925717 -0.1167722419 0.5761562586 4292008428
-0.2658516765 -0.1163329855 0.5771529675 4291941092
-0.2658990622 -0.1157123595 0.5772558451 4291941092
-0.2663579285 -0.1152695566 0.5782520175 4291941092
-0.2668166757 -0.1148245037 0.5792479515 4291875299
-0.2668635249 -0.1142009646 0.5793496370 4291744226
-0.2677339017 -0.1139276400 0.5812392235 4291744226
-0.2677804232 -0.1133015156 0.5813401937 4291482083
-0.2682387233 -0.1128484160 0.5823351741 4291482083
-0.2682847977 -0.1122206822 0.5824351907 4291482083
-0.2683306634 -0.1115926206 0.5825347304 4291416290
-0.2687885165 -0.1111346930 0.5835287571 4291350497
-0.2688339651 -0.1105050296 0.5836274028 4291284704
-0.2688791454 -0.1098750457 0.5837255120 4291415008
-0.2693365812 -0.1094122976 0.5847185254 4291415008
-0.2693813443 -0.1087807119 0.5848157406 4291415008
-0.2698384821 -0.1083144322 0.5858081579 4291415008
-0.2698828280 -0.1076812595 0.5859044194 4291742945
-0.2699269354 -0.1070477664 0.5860002041 4291677152
-0.2699708045 -0.1064139679 0.5860953927 4291283424
-0.2700144053 -0.1057798639 0.5861901045 4291217631
-0.2700577676 -0.1051454470 0.5862842798 4291087076
-0.2705138922 -0.1046705320 0.5872744918 4291152869
-0.2705568373 -0.1040345430 0.5873677135 4291283942
-0.2705995440 -0.1033982486 0.5874603987 4291349735
-0.2710551620 -0.1029185355 0.5884495378 4291546085
-0.2715106905 -0.1024365872 0.5894384384 4291348706
-0.2719660699 -0.1019523963 0.5904271007 4291413470
-0.2720079720 -0.1013119891 0.5905180573 4291281884
-0.2720496058 -0.1006712839 0.5906084180 4291216855
-0.2720910013 -0.1000302956 0.5906982422 4291019476
-0.2725456953 -0.0995400548 0.5916854143 4290559690
-0.2725866437 -0.0988975018 0.5917742848 4290296518
-0.2726273239 -0.0982546657 0.5918626189 4290294462
-0.2730815113 -0.0977596566 0.5928486586 4289504946
-0.2731217444 -0.0971152708 0.5929360390 4289566628
-0.2731617391 -0.0964705944 0.5930228233 4288448147
-0.2732014656 -0.0958256423 0.5931090713 4287393916
-0.2736549675 -0.0953246206 0.5940935612 4286209642
-0.2741082907 -0.0948213637 0.5950777531 4285223512
-0.2741473913 -0.0941736177 0.5951626301 4284170824
-0.2741862237 -0.0935255885 0.5952469110 4284493106
-0.2742247880 -0.0928772911 0.5953306556 4284953657
-0.2742630839 -0.0922287256 0.5954138041 4286981933
-0.2743011415 -0.0915798768 0.5954964161 4286652968
-0.2739245296 -0.0907934085 0.5946788192 4287699488
-0.2739620209 -0.0901450142 0.5947601795 4287831074
-0.2739992440 -0.0894963518 0.5948410034 4287634720
-0.2740361989 -0.0888474211 0.5949212313 4287700513
-0.2740729153 -0.0881982371 0.5950009227 4288096807
-0.2741093636 -0.0875487849 0.5950800776 4288228393
-0.2737307847 -0.0867676139 0.5942582488 4288423977
-0.2737666667 -0.0861186311 0.5943360925 4288226598
-0.2733874321 -0.0853399038 0.5935127735 4288554793
-0.2738376260 -0.0848199129 0.5944901705 4288620586
-0.2738727033 -0.0841701776 0.5945663452 4288423979
-0.2734925449 -0.0833936483 0.5937409401 4288423979
-0.2731119990 -0.0826188400 0.5929148197 4288293163
-0.2727310658 -0.0818457529 0.5920878649 4288358956
-0.2727649510 -0.0811979920 0.5921614170 4288556335
-0.2727985978 -0.0805499852 0.5922344327 4288687921
-0.2728319466 -0.0799017474 0.5923068523 4288818737
-0.2724497318 -0.0791326389 0.5914770961 4288884530
-0.2720671594 -0.0783652663 0.5906465650 4289212212
-0.2720996439 -0.0777182952 0.5907170773 4289146419
-0.2717163861 -0.0769534260 0.5898850560 4288950320
-0.2721638381 -0.0764236599 0.5908563733 4288950320
-0.2717799544 -0.0756603107 0.5900230408 4289278506
-0.2718113363 -0.0750134140 0.5900911689 4289804850
-0.2714267969 -0.0742525831 0.5892563462 4290459193
-0.2714576125 -0.0736062303 0.5893232226 4291314502
-0.2710724175 -0.0728479326 0.5884869695 4291183166
-0.2711026669 -0.0722021386 0.5885526538 4291446338
-0.2711326480 -0.0715561211 0.5886177421 4290138457
-0.2711623609 -0.0709098950 0.5886822343 4293164935
-0.2716077268 -0.0703712255 0.5896491408 4293253864
-0.2628722191 -0.1534435004 0.5720640421 4293060589
-0.2629331648 -0.1528433263 0.5721967220 4292731624
-0.2629939020 -0.1522427350 0.5723288655 4292402405
-0.2630544305 -0.1516417265 0.5724605918 4292007647
-0.2631147504 -0.1510403156 0.5725919008 4291678684
-0.2631748617 -0.1504384726 0.5727226734 4291020754
-0.2632347643 -0.1498362273 0.5728530288 4290297032
-0.2632944286 -0.1492335796 0.5729829073 4289375930
-0.2633538842 -0.1486305147 0.5731123090 4288191656
-0.2634131312 -0.1480270326 0.5732412338 4286546831
-0.2634721696 -0.1474231631 0.5733696818 4285362303
-0.2635309994 -0.1468188763 0.5734977126 4284506994
-0.2631828189 -0.1459885538 0.5727400184 4283981168
-0.2632411420 -0.1453843862 0.5728669167 4283652203
-0.2632992268 -0.1447798312 0.5729932785 4283454827
-0.2629500329 -0.1439520419 0.5722334385 4282796897
-0.2630076110 -0.1433476210 0.5723586679 4282138974
-0.2630649507 -0.1427427977 0.5724834800 4282138974
-0.2627147436 -0.1419175714 0.5717213750 4282139236
-0.2623641789 -0.1410938054 0.5709584951 4282402408
-0.2620131969 -0.1402715296 0.5701946616 4282666356
-0.2616618276 -0.1394507587 0.5694300532 4282600563
-0.2613100708 -0.1386314631 0.5686645508 4282403704
-0.2609579265 -0.1378136575 0.5678982139 4281877360
-0.2606053948 -0.1369973570 0.5671309829 4281417073
-0.2598445415 -0.1359691024 0.5654752254 4281482866
-0.2590831220 -0.1349442303 0.5638182163 4281417333
-0.2587292492 -0.1341343224 0.5630481243 4281219954
-0.2579667866 -0.1331153065 0.5613888502 4281219702
-0.2572037876 -0.1320996732 0.5597283840 4281351288
-0.2564402223 -0.1310874671 0.5580667257 4281351288
-0.2556761205 -0.1300786585 0.5564038754 4281219702
-0.2553199530 -0.1292801201 0.5556287766 4281219447
-0.2549634278 -0.1284831017 0.5548529029 4281285240
-0.2546065152 -0.1276876181 0.5540761948 4281351805
-0.2538404465 -0.1266896725 0.5524090528 4281549184
-0.2534826696 -0.1258982122 0.5516304970 4281681031
-0.2531245053 -0.1251082867 0.5508510470 4281878410
-0.2527659833 -0.1243199110 0.5500708222 4281944720
-0.2528161705 -0.1237333044 0.5501800179 4282273685
-0.2528661191 -0.1231463477 0.5502887368 4282273685
-0.2525066137 -0.1223607212 0.5495063663 4282339478
-0.2525560558 -0.1217740178 0.5496139526 4282668443
-0.2521958649 -0.1209905595 0.5488301516 4282602650
-0.2526542842 -0.1205995902 0.5498277545 4283062158
-0.2531126440 -0.1202063709 0.5508252382 4282733193
-0.2535709441 -0.1198109016 0.5518225431 4284375185
-0.2544388771 -0.1196057945 0.5537114143 4287467456
-0.2548971176 -0.1192048788 0.5547086000 4291021271
-0.2553552985 -0.1188017204 0.5557057261 4292797682
-0.2646383643 -0.1141623333 0.5759075284 4292994032
-0.2650958598 -0.1137187108 0.5769031644 4292928241
-0.2655532658 -0.1132728383 0.5778985620 4292928241
-0.2660105526 -0.1128247082 0.5788937211 4292796912
-0.2664677799 -0.1123743355 0.5798887014 4292796912
-0.2665135860 -0.1117492542 0.5799884796 4292600303
-0.2669705451 -0.1112953350 0.5809828639 4292468717
-0.2670159638 -0.1106686443 0.5810816884 4292271340
-0.2670611441 -0.1100416332 0.5811799765 4292139754
-0.2675176263 -0.1095828936 0.5821734071 4292204777
-0.2679740191 -0.1091219112 0.5831666589 4292073191
-0.2680186033 -0.1084920168 0.5832636952 4292006885
-0.2680629492 -0.1078618094 0.5833601952 4291941092
-0.2685188949 -0.1073960140 0.5843523741 4291810017
-0.2685627937 -0.1067642123 0.5844479799 4291744224
-0.2686064839 -0.1061321050 0.5845429897 4291677922
-0.2686499059 -0.1054996923 0.5846375227 4291612129
-0.2691051960 -0.1050278172 0.5856283307 4291546596
-0.2691482008 -0.1043938175 0.5857219100 4291415010
-0.2700154483 -0.1040773168 0.5876091719 4291152354
-0.2700580955 -0.1034407690 0.5877019763 4291152354
-0.2701004744 -0.1028039306 0.5877942443 4291611876
-0.2705550492 -0.1023227647 0.5887835026 4291677669
-0.2710095048 -0.1018393561 0.5897724628 4291808226
-0.2710512877 -0.1011996791 0.5898634195 4291742433
-0.2710928023 -0.1005596966 0.5899537802 4291546334
-0.2711340785 -0.0999194235 0.5900435448 4291480541
-0.2711750865 -0.0992788672 0.5901328325 4291022297
-0.2716286778 -0.0987881422 0.5911199450 4290890711
-0.2716692686 -0.0981460288 0.5912082195 4290890701
-0.2717095912 -0.0975036249 0.5912960172 4290693322
-0.2721626461 -0.0970081389 0.5922819376 4291216591
-0.2722025216 -0.0963641927 0.5923687220 4290821833
-0.2722421587 -0.0957199633 0.5924549699 4290491588
-0.2726947069 -0.0952197239 0.5934398174 4289833658
-0.2731471062 -0.0947172418 0.5944243670 4288914096
-0.2731860876 -0.0940702185 0.5945091844 4287992994
-0.2732248008 -0.0934229195 0.5945934653 4287397769
-0.2732632756 -0.0927753448 0.5946771502 4286476667
-0.2733014822 -0.0921274945 0.5947602987 4286337370
-0.2733394504 -0.0914793760 0.5948429108 4285153096
-0.2733771503 -0.0908309892 0.5949249268 4285739063
-0.2730009258 -0.0900458992 0.5941062570 4285475891
-0.2730380595 -0.0893979594 0.5941870213 4285540395
-0.2730749249 -0.0887497514 0.5942672491 4285474602
-0.2731115222 -0.0881012902 0.5943469405 4286719013
-0.2731478810 -0.0874525607 0.5944260359 4286850599
-0.2727700472 -0.0866720602 0.5936037898 4287701544
-0.2728058100 -0.0860238075 0.5936816335 4287898923
-0.2728413343 -0.0853752941 0.5937589407 4288620590
-0.2728765905 -0.0847265348 0.5938356519 4288686383
-0.2729115784 -0.0840775222 0.5939118266 4288162345
-0.2729463279 -0.0834282562 0.5939874053 4288030759
-0.2725665569 -0.0826531351 0.5931609869 4287966249
-0.2726007402 -0.0820043683 0.5932353139 4288097835
-0.2722202837 -0.0812317207 0.5924074054 4288687662
-0.2722538710 -0.0805834532 0.5924804807 4288753455
-0.2722872198 -0.0799349472 0.5925530195 4288949553
-0.2719057798 -0.0791655257 0.5917229652 4288949553
-0.2715240121 -0.0783978477 0.5908921361 4288753714
-0.2715564370 -0.0777506158 0.5909627080 4288753714
-0.2711739838 -0.0769854337 0.5901304483 4289080363
-0.2716205418 -0.0764554515 0.5911022425 4289606707
-0.2712374628 -0.0756917968 0.5902685523 4289673519
-0.2712688148 -0.0750446394 0.5903367996 4289936691
-0.2708850801 -0.0742834955 0.5895016789 4290327607
-0.2709158361 -0.0736368895 0.5895686746 4291380295
-0.2709463537 -0.0729900524 0.5896350741 4291184199
-0.2709766328 -0.0723430067 0.5897009373 4291710543
-0.2710066140 -0.0716957375 0.5897661448 4290669939
-0.2710363269 -0.0710482597 0.5898308754 4294749105
-0.2620576024 -0.1520682722 0.5716730356 4292797933
-0.2617128193 -0.1512338817 0.5709209442 4292468968
-0.2617728710 -0.1506340951 0.5710519552 4292468970
-0.2618327439 -0.1500339210 0.5711824894 4291613661
-0.2618923783 -0.1494333148 0.5713126063 4290889683
-0.2619517744 -0.1488323063 0.5714421868 4290165960
-0.2620109916 -0.1482308954 0.5715713501 4289375676
-0.2620700002 -0.1476290673 0.5717000961 4287928230
-0.2621287704 -0.1470268369 0.5718283057 4286546577
-0.2621873319 -0.1464242041 0.5719560981 4285230717
-0.2618397474 -0.1455954462 0.5711978078 4284835961
-0.2618978024 -0.1449929327 0.5713244081 4284112238
-0.2619556189 -0.1443900317 0.5714505911 4283849583
-0.2620132267 -0.1437867284 0.5715762973 4283520618
-0.2616643310 -0.1429610401 0.5708151460 4282797158
-0.2621278167 -0.1425789297 0.5718262196 4282402400
-0.2617782950 -0.1417543292 0.5710637569 4282139236
-0.2614283860 -0.1409312040 0.5703004599 4282270822
-0.2614847422 -0.1403277963 0.5704233646 4282337391
-0.2607273757 -0.1392894089 0.5687711835 4282600563
-0.2607831359 -0.1386871040 0.5688928366 4282667130
-0.2604317367 -0.1378690004 0.5681262612 4282206579
-0.2596729398 -0.1368379146 0.5664709806 4281746036
-0.2597277761 -0.1362372935 0.5665906072 4281943415
-0.2589680254 -0.1352110952 0.5649331808 4281877369
-0.2586149871 -0.1343999356 0.5641630292 4281416818
-0.2578541934 -0.1333795786 0.5625033975 4281153654
-0.2566854358 -0.1321528703 0.5599537492 4281219447
-0.2563309669 -0.1313490868 0.5591804981 4281350775
-0.2555685043 -0.1303389519 0.5575172305 4281219189
-0.2548055053 -0.1293322295 0.5558527708 4281153396
-0.2544497550 -0.1285349131 0.5550766587 4281219189
-0.2536857128 -0.1275341064 0.5534099936 4281154424
-0.2533290982 -0.1267407984 0.5526320338 4281220217
-0.2525640726 -0.1257458925 0.5509631038 4281352064
-0.2522065938 -0.1249566302 0.5501832962 4281549443
-0.2518487573 -0.1241689026 0.5494026542 4281681547
-0.2514905334 -0.1233827323 0.5486211777 4282010512
-0.2515402734 -0.1227974519 0.5487297177 4282076306
-0.2515897751 -0.1222118288 0.5488377213 4282142099
-0.2512305677 -0.1214284152 0.5480541587 4282536859
-0.2512795925 -0.1208430603 0.5481610298 4282668445
-0.2509196997 -0.1200618148 0.5473759770 4282536081
-0.2513769567 -0.1196713150 0.5483734012 4282733460
-0.2518341243 -0.1192785650 0.5493707061 4282798732
-0.2522912323 -0.1188835725 0.5503678918 4283193490
-0.2527482808 -0.1184863374 0.5513649583 4286870395
-0.2532052398 -0.1180868521 0.5523618460 4289567908
-0.2536621690 -0.1176851168 0.5533585548 4291805132
-0.2545282245 -0.1174699962 0.5552478433 4293384164
-0.2672013342 -0.1064803377 0.5828939676 4292666862
-0.2672448158 -0.1058499292 0.5829888582 4292796653
-0.2676992714 -0.1053810865 0.5839802623 4292796653
-0.2677423358 -0.1047490910 0.5840741992 4292664815
-0.2681965232 -0.1042767242 0.5850649476 4292467436
-0.2682391405 -0.1036431566 0.5851579905 4292073707
-0.2686930299 -0.1031672731 0.5861480832 4291942121
-0.2687352300 -0.1025321260 0.5862401724 4291744996
-0.2691887915 -0.1020527184 0.5872296095 4291744996
-0.2696422637 -0.1015710756 0.5882188082 4292006369
-0.2696838379 -0.1009330899 0.5883095264 4291808990
-0.2697252035 -0.1002948135 0.5883997679 4291677404
-0.2697663009 -0.0996562392 0.5884894133 4291677404
-0.2698071301 -0.0990173742 0.5885785222 4291350238
-0.2702597082 -0.0985284224 0.5895658135 4291218652
-0.2707121670 -0.0980372205 0.5905528069 4291678431
-0.2707524002 -0.0973955467 0.5906405449 4291612638
-0.2712045312 -0.0969008431 0.5916268826 4291743197
-0.2712442875 -0.0962576196 0.5917136073 4291480025
-0.2712838054 -0.0956141129 0.5917998552 4291545046
-0.2717354298 -0.0951146558 0.5927850008 4291347667
-0.2721869051 -0.0946129635 0.5937699080 4291412943
-0.2722257674 -0.0939666629 0.5938546658 4291083978
-0.2722643912 -0.0933200791 0.5939389467 4290886851
-0.2723027468 -0.0926732272 0.5940226316 4290228921
-0.2723408639 -0.0920261070 0.5941057801 4289307818
-0.2723787129 -0.0913787112 0.5941883326 4288255130
-0.2724162936 -0.0907310471 0.5942703485 4287332486
-0.2724536359 -0.0900831148 0.5943517685 4286148212
-0.2724907100 -0.0894349143 0.5944326520 4285225570
-0.2725275457 -0.0887864530 0.5945129991 4284370261
-0.2725641131 -0.0881377310 0.5945927501 4285609017
-0.2721873820 -0.0873561874 0.5937709212 4285214259
-0.2722233534 -0.0867079273 0.5938494802 4285933357
-0.2726722360 -0.0861900076 0.5948286653 4286130736
-0.2727077603 -0.0855402499 0.5949061513 4287505965
-0.2723297775 -0.0847616270 0.5940815806 4287637551
-0.2723647356 -0.0841123536 0.5941578746 4288292393
-0.2719860971 -0.0833361819 0.5933318138 4288358186
-0.2720204592 -0.0826874003 0.5934067965 4288554535
-0.2720545828 -0.0820383728 0.5934812427 4288620328
-0.2716749310 -0.0812654048 0.5926530957 4288751914
-0.2717084885 -0.0806168839 0.5927262306 4288817707
-0.2713281810 -0.0798463970 0.5918965936 4288883758
-0.2713611424 -0.0791983828 0.5919685364 4288883758
-0.2709801495 -0.0784303918 0.5911374092 4288818737
-0.2710125446 -0.0777828991 0.5912081003 4288884530
-0.2706308961 -0.0770174041 0.5903754830 4289539372
-0.2710765898 -0.0764872134 0.5913477540 4289868337
-0.2706943154 -0.0757232457 0.5905138254 4289409578
-0.2707256079 -0.0750758275 0.5905821323 4290067508
-0.2703426778 -0.0743143782 0.5897467136 4290722881
-0.2703734040 -0.0736675039 0.5898138285 4291051846
-0.2704038918 -0.0730204061 0.5898802876 4290332748
-0.2704341114 -0.0723730996 0.5899462104 4292635503
-0.2704640627 -0.0717255697 0.5900115371 4293044909
-0.2704937458 -0.0710778236 0.5900763273 4294957532
-0.2613022327 -0.1500936002 0.5714097023 4292732142
-0.2613618076 -0.1494927853 0.5715399384 4292139750
-0.2614211440 -0.1488915682 0.5716697574 4291284441
-0.2614802718 -0.1482899338 0.5717990398 4290429134
-0.2615391910 -0.1476878971 0.5719279051 4289442239
-0.2607880235 -0.1466300786 0.5702852011 4288257965
-0.2608463168 -0.1460290998 0.5704127550 4286678933
-0.2609044313 -0.1454277188 0.5705397725 4286020233
-0.2609623075 -0.1448259354 0.5706663728 4284770166
-0.2610200047 -0.1442237496 0.5707924962 4284113008
-0.2606720626 -0.1433981508 0.5700316429 4283981422
-0.2611346841 -0.1430181861 0.5710433125 4283455084
-0.2607861459 -0.1421936750 0.5702810884 4282928740
-0.2608428597 -0.1415908337 0.5704051256 4282402660
-0.2604936063 -0.1407683492 0.5696414113 4282271074
-0.2605498135 -0.1401656717 0.5697643161 4281942373
-0.2606057823 -0.1395625919 0.5698867440 4282337131
-0.2602555454 -0.1387427002 0.5691208243 4282601335
-0.2599048913 -0.1379242837 0.5683540702 4282338163
-0.2595538795 -0.1371073723 0.5675864220 4281943667
-0.2592024505 -0.1362919658 0.5668179393 4282141046
-0.2584442794 -0.1352653801 0.5651599765 4282075001
-0.2580920160 -0.1344539225 0.5643896461 4281548657
-0.2573328018 -0.1334331781 0.5627294183 4281219447
-0.2565730512 -0.1324158311 0.5610679984 4281153654
-0.2558127344 -0.1314019114 0.5594053864 4281088116
-0.2550518811 -0.1303913891 0.5577415228 4281022323
-0.2542904615 -0.1293842793 0.5560765266 4280890737
-0.2539354265 -0.1285866648 0.5553001761 4280956530
-0.2531729937 -0.1275854707 0.5536329150 4280957045
-0.2524100244 -0.1265877038 0.5519644022 4280957045
-0.2516465187 -0.1255933642 0.5502947569 4281154939
-0.2512897253 -0.1248047426 0.5495145321 4281352318
-0.2509325445 -0.1240176708 0.5487335324 4281483650
-0.2509824336 -0.1234325245 0.5488426089 4281615236
-0.2506245971 -0.1226476058 0.5480601192 4281878410
-0.2506739795 -0.1220627204 0.5481680632 4282141582
-0.2503154576 -0.1212799624 0.5473840833 4282338963
-0.2499565780 -0.1204987615 0.5465992689 4282207377
-0.2500051558 -0.1199147478 0.5467054844 4282075025
-0.2500534952 -0.1193303913 0.5468112230 4282009232
-0.2501016259 -0.1187456995 0.5469164848 4282404243
-0.2505576313 -0.1183534339 0.5479136109 4282733208
-0.2506054044 -0.1177671105 0.5480180979 4288890969
-0.2510611713 -0.1173713058 0.5490148067 4289483106
-0.2515169084 -0.1169732511 0.5500113964 4289550956
-0.2519725561 -0.1165729538 0.5510078073 4291656332
-0.2524281442 -0.1161704138 0.5520040393 4292913078
-0.2532922029 -0.1159526408 0.5538935065 4294623696
-0.2541563213 -0.1157307103 0.5557832122 4294959336
-0.2546118498 -0.1153195128 0.5567793250 4294962163
-0.2678252161 -0.1017823741 0.5856739879 4292731887
-0.2682776451 -0.1013024896 0.5866633654 4292665066
-0.2683190703 -0.1006662026 0.5867539644 4292401894
-0.2687712014 -0.1001828089 0.5877426863 4292400868
-0.2688121796 -0.0995449647 0.5878322721 4292335075
-0.2688529193 -0.0989068225 0.5879213810 4292203489
-0.2688934207 -0.0982683972 0.5880098939 4292006110
-0.2693448663 -0.0977789685 0.5889971256 4292334564
-0.2693849206 -0.0971389860 0.5890846848 4292334564
-0.2698360384 -0.0966460556 0.5900712013 4291876582
-0.2698756456 -0.0960045308 0.5901578069 4291679203
-0.2703264356 -0.0955080986 0.5911436677 4291679714
-0.2707771361 -0.0950094238 0.5921291709 4291548128
-0.2708160877 -0.0943651050 0.5922144055 4291809757
-0.2708548009 -0.0937205032 0.5922990441 4291678171
-0.2708932459 -0.0930756330 0.5923831463 4291874264
-0.2709314525 -0.0924304873 0.5924666524 4291676885
-0.2709693909 -0.0917850658 0.5925496221 4291347918
-0.2710070908 -0.0911393762 0.5926320553 4290953160
-0.2710445225 -0.0904934183 0.5927139521 4290689472
-0.2710817158 -0.0898471922 0.5927952528 4290294714
-0.2711186409 -0.0892007053 0.5928759575 4289503657
-0.2711552978 -0.0885539502 0.5929561257 4288187797
-0.2711917162 -0.0879069343 0.5930357575 4287461242
-0.2712278664 -0.0872596577 0.5931148529 4286211175
-0.2708514929 -0.0864804983 0.5922918320 4285550159
-0.2712993920 -0.0859643370 0.5932712555 4284629057
-0.2713347673 -0.0853162929 0.5933486223 4285606961
-0.2713698745 -0.0846680030 0.5934253931 4285475375
-0.2714047432 -0.0840194523 0.5935016274 4287504427
-0.2710268199 -0.0832439587 0.5926752090 4287701806
-0.2710611224 -0.0825958997 0.5927501917 4288619307
-0.2706825137 -0.0818228647 0.5919222832 4288685100
-0.2707162201 -0.0811753124 0.5919960141 4288358443
-0.2707496881 -0.0805275142 0.5920692086 4288555822
-0.2707828879 -0.0798794776 0.5921418071 4288819248
-0.2704029977 -0.0791104212 0.5913110375 4288819248
-0.2704356313 -0.0784628987 0.5913823843 4289145390
-0.2708809376 -0.0779339448 0.5923561454 4289145390
-0.2705000937 -0.0771671534 0.5915234089 4289408815
-0.2705319524 -0.0765189379 0.5915930271 4289803573
-0.2701504529 -0.0757546574 0.5907588005 4289738807
-0.2701817453 -0.0751069784 0.5908271670 4290330944
-0.2702127397 -0.0744590759 0.5908949971 4290134856
-0.2702434957 -0.0738109425 0.5909622312 4290924372
-0.2702739835 -0.0731626004 0.5910289288 4291261819
-0.2698909044 -0.0724031553 0.5901912451 4294683055
-0.2699208260 -0.0717553645 0.5902566314 4294762208
-0.2600230873 -0.1490891725 0.5699968338 4292798193
-0.2600821555 -0.1484896094 0.5701264143 4292074470
-0.2601410449 -0.1478896290 0.5702554584 4291350749
-0.2601997256 -0.1472892463 0.5703840852 4290429647
-0.2602581680 -0.1466884464 0.5705122352 4289508032
-0.2599121928 -0.1458604187 0.5697538257 4288060586
-0.2599701285 -0.1452597529 0.5698807836 4287204761
-0.2600278556 -0.1446586847 0.5700073242 4285625729
-0.2600853741 -0.1440572143 0.5701334476 4284441971
-0.2601426542 -0.1434553564 0.5702590346 4284178799
-0.2601997554 -0.1428530961 0.5703841448 4283849582
-0.2598518729 -0.1420292109 0.5696215630 4283389031
-0.2595035732 -0.1412068158 0.5688580871 4282863208
-0.2595598400 -0.1406052411 0.5689814091 4282534243
-0.2596158981 -0.1400032938 0.5691042542 4281876834
-0.2592666149 -0.1391834617 0.5683386326 4281942627
-0.2597273290 -0.1387982070 0.5693485737 4282403438
-0.2589721680 -0.1377639025 0.5676931739 4282469231
-0.2586218119 -0.1369476318 0.5669251084 4282206579
-0.2582710683 -0.1361328512 0.5661562681 4282403958
-0.2579199076 -0.1353195906 0.5653865337 4282337911
-0.2575683892 -0.1345078349 0.5646159649 4281877360
-0.2568107843 -0.1334867030 0.5629552007 4281482872
-0.2560526133 -0.1324689835 0.5612931848 4281285493
-0.2552938759 -0.1314546615 0.5596299767 4281088114
-0.2549405396 -0.1306518018 0.5588554740 4280890735
-0.2541808188 -0.1296433657 0.5571900010 4280824944
-0.2530143857 -0.1284322143 0.5546331406 4280890737
-0.2522534728 -0.1274315715 0.5529651046 4280891252
-0.2514919937 -0.1264343709 0.5512958765 4280891252
-0.2511363328 -0.1256439090 0.5505162477 4280693873
-0.2507803142 -0.1248549968 0.5497357845 4281154424
-0.2504239082 -0.1240676269 0.5489545465 4281745791
-0.2500671446 -0.1232818067 0.5481724143 4281679998
-0.2497099787 -0.1224975437 0.5473895073 4281483389
-0.2493524402 -0.1217148304 0.5466057658 4281680768
-0.2494013906 -0.1211312860 0.5467130542 4281812867
-0.2490431815 -0.1203507408 0.5459278226 4282076039
-0.2490916103 -0.1197674647 0.5460339785 4281354374
-0.2491398305 -0.1191838458 0.5461396575 4281617546
-0.2487806529 -0.1184061021 0.5453523397 4281616014
-0.2488283515 -0.1178227589 0.5454568863 4282208151
-0.2488758415 -0.1172390878 0.5455610156 4289740627
-0.2493305057 -0.1168460101 0.5465576649 4290595936
-0.2497851253 -0.1164506823 0.5475542545 4290794344
-0.2502396703 -0.1160531119 0.5485506058 4290004828
-0.2502864897 -0.1154652387 0.5486533046 4289879408
-0.2507408261 -0.1150641367 0.5496492386 4291261061
-0.2516028583 -0.1148469299 0.5515389442 4293170335
-0.2524649799 -0.1146255508 0.5534287691 4294947517
-0.2529192567 -0.1142157912 0.5544245839 4294630371
-0.2674894333 -0.0986448079 0.5863639116 4293058797
-0.2679400742 -0.0981584042 0.5873517394 4292795625
-0.2679801881 -0.0975204185 0.5874396563 4292797415
-0.2684305310 -0.0970305055 0.5884268284 4292468450
-0.2684701979 -0.0963909701 0.5885138512 4292532966
-0.2689202130 -0.0958975628 0.5895003080 4292269794
-0.2693700790 -0.0954019129 0.5904864669 4292465380
-0.2694091201 -0.0947595760 0.5905720592 4292202208
-0.2694479227 -0.0941169634 0.5906571150 4292333794
-0.2698972821 -0.0936165601 0.5916421413 4292268001
-0.2699356377 -0.0929724127 0.5917261839 4292203748
-0.2699737251 -0.0923279896 0.5918096900 4292203748
-0.2700115740 -0.0916832983 0.5918926597 4291810271
-0.2700491548 -0.0910383388 0.5919750333 4291481306
-0.2700864971 -0.0903931037 0.5920568705 4291414481
-0.2701235712 -0.0897476077 0.5921381712 4291480274
-0.2701604068 -0.0891018435 0.5922188759 4291544519
-0.2701969743 -0.0884558186 0.5922990441 4290952382
-0.2702332735 -0.0878095254 0.5923786759 4289769137
-0.2698579431 -0.0870303139 0.5915558934 4288979621
-0.2703051269 -0.0865161717 0.5925361514 4288319379
-0.2703406513 -0.0858691111 0.5926140547 4287266691
-0.2703759372 -0.0852217972 0.5926914215 4287063661
-0.2704109550 -0.0845742300 0.5927681923 4286010973
-0.2704457343 -0.0839264095 0.5928443670 4286398282
-0.2700685561 -0.0831515864 0.5920175314 4285608766
-0.2701027393 -0.0825042576 0.5920925140 4286130225
-0.2701366842 -0.0818566829 0.5921669006 4286130225
-0.2697585225 -0.0810850710 0.5913379192 4286522924
-0.2697918713 -0.0804380029 0.5914110541 4286720303
-0.2698249817 -0.0797906965 0.5914836526 4287835184
-0.2698578537 -0.0791431442 0.5915556550 4288164149
-0.2703024745 -0.0786152035 0.5925303698 4288884276
-0.2703348696 -0.0779661983 0.5926013589 4288950069
-0.2699548304 -0.0771991014 0.5917682648 4289081907
-0.2699866295 -0.0765506253 0.5918380022 4289674044
-0.2696059346 -0.0757860318 0.5910034776 4290004553
-0.2696371675 -0.0751380920 0.5910719633 4290201932
-0.2696681619 -0.0744899288 0.5911398530 4289746266
-0.2696988881 -0.0738415346 0.5912072062 4292443779
-0.2697293162 -0.0731929243 0.5912739635 4293376190
-0.2693470418 -0.0724331737 0.5904359221 4294956764
-0.2583428025 -0.1478565335 0.5676957369 4292732400
-0.2584013343 -0.1472591460 0.5678243637 4292206058
-0.2588628829 -0.1468901485 0.5688385367 4291219163
-0.2589210868 -0.1462910026 0.5689664483 4290298061
-0.2585756779 -0.1454645395 0.5682074428 4289245373
-0.2586333752 -0.1448655277 0.5683342218 4288586414
-0.2586908340 -0.1442661136 0.5684605241 4286941589
-0.2587481141 -0.1436663121 0.5685863495 4285428350
-0.2588051558 -0.1430661082 0.5687116981 4284836213
-0.2588619888 -0.1424655020 0.5688365698 4284244594
-0.2589186132 -0.1418645084 0.5689610243 4283784043
-0.2585709989 -0.1410427392 0.5681971312 4283389293
-0.2586270869 -0.1404418945 0.5683203936 4282994535
-0.2586829662 -0.1398406625 0.5684432387 4282402406
-0.2583343685 -0.1390214860 0.5676771998 4282007648
-0.2583897412 -0.1384204179 0.5677988529 4282205546
-0.2580404282 -0.1376032829 0.5670312643 4282600304
-0.2576907575 -0.1367876530 0.5662628412 4282600565
-0.2573406696 -0.1359735131 0.5654935837 4282797944
-0.2569901943 -0.1351608932 0.5647234321 4282732153
-0.2570441365 -0.1345616728 0.5648419857 4282403188
-0.2562881112 -0.1335401684 0.5631806254 4281746296
-0.2555315197 -0.1325220466 0.5615180731 4281417331
-0.2547743917 -0.1315073520 0.5598542690 4281154161
-0.2544218302 -0.1307041943 0.5590795279 4281022575
-0.2536636591 -0.1296953708 0.5574135184 4280890737
-0.2529049516 -0.1286899894 0.5557463169 4280956530
-0.2517403364 -0.1274827272 0.5531870723 4280825459
-0.2509804368 -0.1264851540 0.5515173078 4280759666
-0.2506255805 -0.1256943941 0.5507374406 4281022323
-0.2502703071 -0.1249051839 0.5499567986 4280890737
-0.2499146610 -0.1241175160 0.5491752625 4281087855
-0.2495586574 -0.1233314052 0.5483929515 4281153648
-0.2492022663 -0.1225468367 0.5476098061 4281351540
-0.2484395504 -0.1215652004 0.5459337831 4281548919
-0.2484883517 -0.1209823862 0.5460410118 4281483640
-0.2481308281 -0.1202025041 0.5452554226 4281812605
-0.2477729470 -0.1194241866 0.5444689393 4281547891
-0.2478209436 -0.1188422590 0.5445744395 4281547891
-0.2474623770 -0.1180661246 0.5437865257 4281613704
-0.2475098670 -0.1174844801 0.5438908339 4282205841
-0.2475571334 -0.1169025004 0.5439947248 4288363853
-0.2476041913 -0.1163201928 0.5440981388 4289087576
-0.2480576783 -0.1159275919 0.5450946689 4289547108
-0.2481043786 -0.1153436601 0.5451972485 4289941866
-0.2485576570 -0.1149475351 0.5461933017 4289812849
-0.2490108758 -0.1145491600 0.5471892357 4289747056
-0.2494640201 -0.1141485423 0.5481849909 4290926441
-0.2499171048 -0.1137456819 0.5491806269 4291518578
-0.2503701150 -0.1133405715 0.5501760840 4292247188
-0.2508230209 -0.1129332185 0.5511713624 4294615736
-0.2516831458 -0.1127059981 0.5530614257 4293579739
-0.2521359921 -0.1122931913 0.5540565848 4294698220
-0.2684147060 -0.0952955633 0.5898281932 4293256685
-0.2684536278 -0.0946539566 0.5899137855 4292861927
-0.2684923410 -0.0940120667 0.5899987817 4292665829
-0.2685307860 -0.0933699012 0.5900833011 4292402657
-0.2685689628 -0.0927274674 0.5901672244 4292664550
-0.2686069012 -0.0920847505 0.5902505517 4292467171
-0.2686445713 -0.0914417654 0.5903333426 4292400357
-0.2686820030 -0.0907985121 0.5904155970 4292268771
-0.2687191963 -0.0901549906 0.5904973149 4292137444
-0.2687561214 -0.0895112008 0.5905784369 4291940065
-0.2687927783 -0.0888671502 0.5906590223 4291350489
-0.2688291967 -0.0882228389 0.5907390118 4291284696
-0.2688653469 -0.0875782594 0.5908184648 4291414221
-0.2693117857 -0.0870661512 0.5917994976 4291282635
-0.2689369023 -0.0862883329 0.5909757018 4291411399
-0.2689722776 -0.0856429860 0.5910534859 4290819262
-0.2690074146 -0.0849973857 0.5911306739 4290095282
-0.2690422833 -0.0843515247 0.5912073255 4289174180
-0.2690769136 -0.0837054253 0.5912833810 4287596687
-0.2691112757 -0.0830590725 0.5913589001 4286412413
-0.2691453695 -0.0824124739 0.5914338231 4286013028
-0.2691792250 -0.0817656294 0.5915082097 4285420891
-0.2688017786 -0.0809946954 0.5906788111 4286266437
-0.2688350677 -0.0803483501 0.5907519460 4285674300
-0.2688680887 -0.0797017738 0.5908244848 4286850865
-0.2689008415 -0.0790549591 0.5908964872 4286982451
-0.2693445683 -0.0785277933 0.5918715000 4287572528
-0.2693768442 -0.0778795183 0.5919424891 4287704114
-0.2694088817 -0.0772310048 0.5920128822 4288623157
-0.2694406509 -0.0765822679 0.5920826793 4288952122
-0.2690607607 -0.0758173764 0.5912478566 4289348939
-0.2690919340 -0.0751691684 0.5913164020 4290204248
-0.2691228986 -0.0745207444 0.5913844109 4289817711
-0.2687420249 -0.0737591386 0.5905475020 4292186259
-0.2687723935 -0.0731112584 0.5906141996 4292659148
-0.2688024938 -0.0724631622 0.5906803608 4294501352
-0.2570099831 -0.1474536061 0.5661486387 4292863473
-0.2570682466 -0.1468578577 0.5662770271 4292337390
-0.2575287223 -0.1464906037 0.5672913194 4291942632
-0.2575866580 -0.1458931267 0.5674189925 4291153116
-0.2572418153 -0.1450682282 0.5666593909 4290100428
-0.2572992742 -0.1444708705 0.5667858720 4289311166
-0.2573564947 -0.1438731253 0.5669119358 4288390064
-0.2574135065 -0.1432749778 0.5670375228 4286876825
-0.2574703097 -0.1426764280 0.5671626329 4285232000
-0.2575268745 -0.1420774907 0.5672873259 4283784300
-0.2575832605 -0.1414781511 0.5674114823 4283389542
-0.2576394081 -0.1408784240 0.5675352216 4283324009
-0.2576953471 -0.1402783096 0.5676584244 4282863458
-0.2577510774 -0.1396778077 0.5677812099 4282863208
-0.2574031651 -0.1388592571 0.5670147538 4282336864
-0.2574583590 -0.1382589191 0.5671363473 4282007650
-0.2571097314 -0.1374424249 0.5663684011 4282007650
-0.2571644187 -0.1368422508 0.5664888620 4282270571
-0.2568151057 -0.1360278130 0.5657193661 4282731122
-0.2564654052 -0.1352148801 0.5649490356 4282796665
-0.2561153173 -0.1344034672 0.5641778708 4282467700
-0.2557648420 -0.1335935593 0.5634058118 4282206072
-0.2550098300 -0.1325750649 0.5617426634 4281877107
-0.2542542815 -0.1315599829 0.5600783229 4281613937
-0.2539024949 -0.1307565123 0.5593033433 4281350765
-0.2531459033 -0.1297473162 0.5576367974 4281153135
-0.2523888052 -0.1287415475 0.5559689999 4281087342
-0.2512265742 -0.1275338382 0.5534088016 4280956018
-0.2504682839 -0.1265358627 0.5517384410 4280956018
-0.2501141727 -0.1257448196 0.5509583950 4280758898
-0.2497596741 -0.1249553114 0.5501775146 4280824691
-0.2489999235 -0.1239657775 0.5485038757 4280956018
-0.2486446053 -0.1231803149 0.5477211475 4281087604
-0.2482888997 -0.1223964095 0.5469375849 4281087863
-0.2479328066 -0.1216140613 0.5461532474 4281153656
-0.2475763559 -0.1208332703 0.5453680158 4281286014
-0.2472195327 -0.1200540513 0.5445819497 4281483393
-0.2472676784 -0.1194722429 0.5446880460 4281680770
-0.2469101846 -0.1186951995 0.5439005494 4281614977
-0.2469578236 -0.1181136742 0.5440055132 4282139262
-0.2465996742 -0.1173388213 0.5432165265 4282599813
-0.2466468066 -0.1167575866 0.5433203578 4284172665
-0.2466937155 -0.1161760092 0.5434237123 4284370044
-0.2467404306 -0.1155941114 0.5435265899 4287774054
-0.2471928149 -0.1152010411 0.5445231199 4288168812
-0.2472391576 -0.1146175191 0.5446252227 4288957277
-0.2472852767 -0.1140336767 0.5447268486 4289549414
-0.2477373183 -0.1136357859 0.5457226038 4290728803
-0.2481892854 -0.1132356599 0.5467181802 4290728803
-0.2486411780 -0.1128332838 0.5477136374 4289943398
-0.2486866415 -0.1122452617 0.5478137732 4290272363
-0.2491383255 -0.1118393615 0.5488087535 4291261061
-0.2495899200 -0.1114312187 0.5498035550 4293037472
-0.2504480183 -0.1112013459 0.5516937971 4294750913
-0.2508995533 -0.1107877493 0.5526884198 4294953432
-0.2513509989 -0.1103719100 0.5536828637 4294962164
-0.2671286464 -0.0937634185 0.5884383321 4293190892
-0.2671669424 -0.0931229666 0.5885226727 4292993513
-0.2672049701 -0.0924822390 0.5886064172 4292730341
-0.2672427297 -0.0918412358 0.5886896253 4292598755
-0.2672802508 -0.0911999643 0.5887722969 4292401376
-0.2673175335 -0.0905584171 0.5888544321 4292203997
-0.2673545480 -0.0899166092 0.5889359713 4292072152
-0.2673912942 -0.0892745331 0.5890169144 4291874773
-0.2674278319 -0.0886321962 0.5890973806 4291808980
-0.2674640715 -0.0879895911 0.5891772509 4291808980
-0.2679097354 -0.0874804929 0.5901589394 4291940314
-0.2679455280 -0.0868363827 0.5902377963 4291677142
-0.2675713301 -0.0860602334 0.5894134641 4291545297
-0.2676065564 -0.0854166001 0.5894910693 4291413711
-0.2676415443 -0.0847727135 0.5895681381 4291413195
-0.2676762640 -0.0841285735 0.5896446109 4291150023
-0.2677107453 -0.0834841877 0.5897205472 4290688705
-0.2677449584 -0.0828395486 0.5897959471 4290162361
-0.2677789032 -0.0821946636 0.5898707509 4289438122
-0.2678126097 -0.0815495402 0.5899449587 4288517020
-0.2678460479 -0.0809041709 0.5900186300 4287397768
-0.2678792477 -0.0802585632 0.5900917649 4286147701
-0.2679121792 -0.0796127096 0.5901643038 4284963427
-0.2683551610 -0.0790875554 0.5911401510 4284239704
-0.2683876157 -0.0784402415 0.5912116170 4284107348
-0.2684198320 -0.0777926967 0.5912826061 4283909969
-0.2684517801 -0.0771449208 0.5913529396 4284632406
-0.2684834599 -0.0764969140 0.5914227366 4285092957
-0.2681043148 -0.0757327005 0.5905875564 4285816937
-0.2681354284 -0.0750852227 0.5906561017 4286738039
-0.2681662738 -0.0744375288 0.5907240510 4287989389
-0.2681968808 -0.0737896115 0.5907914639 4289831593
-0.2678164542 -0.0730294660 0.5899534225 4291674824
