VERSION 0.7
FIELDS x y z rgba
SIZE 4 4 4 4
TYPE F F F U
COUNT 1 1 1 1
WIDTH 920
HEIGHT 1
VIEWPOINT 0.0 0.0 0.0 1.0 0.0 0.0 0.0
POINTS 920
DATA ascii
-0.3287193775 -0.1000943333 0.6508615017 4292271324
-0.3257168531 -0.1094524488 0.6463379264 4293060840
-0.3257645071 -0.1087502241 0.6464323997 4292534496
-0.3253667355 -0.1079000831 0.6456431150 4292139738
-0.3254137337 -0.1071982011 0.6457363367 4291547088
-0.3259056509 -0.1066417098 0.6467124820 4291349709
-0.3250615299 -0.1056488156 0.6450374722 4291218123
-0.3251075745 -0.1049469933 0.6451288462 4291086537
-0.3251533210 -0.1042448729 0.6452196240 4290889158
-0.3251987696 -0.1035424620 0.6453098059 4290691779
-0.3256894648 -0.1029806286 0.6462835073 4290625986
-0.3257343769 -0.1022766680 0.6463726759 4290757572
-0.3257789910 -0.1015724167 0.6464611888 4290494400
-0.3258233368 -0.1008678749 0.6465491652 4290033849
-0.3263131380 -0.1003000662 0.6475211382 4289902776
-0.3268027902 -0.0997300521 0.6484927535 4291481808
-0.3239120245 -0.1140964627 0.6441761851 4292994534
-0.3239615262 -0.1133980602 0.6442746520 4292599776
-0.3235668838 -0.1125449538 0.6434897780 4291941846
-0.3236157298 -0.1118468717 0.6435869336 4291612881
-0.3236642778 -0.1111484766 0.6436834931 4291152328
-0.3232685030 -0.1102982610 0.6428964138 4290823363
-0.3233164251 -0.1096002012 0.6429916620 4290625984
-0.3233640194 -0.1089018285 0.6430863738 4290494398
-0.3229671121 -0.1080545187 0.6422970295 4290362812
-0.3225697875 -0.1072088182 0.6415068507 4290297019
-0.3226163983 -0.1065114513 0.6415995359 4290559423
-0.3222182989 -0.1056680307 0.6408078074 4290559423
-0.3227087557 -0.1051158085 0.6417832375 4290362814
-0.3227545023 -0.1044175476 0.6418741941 4290297021
-0.3227999806 -0.1037189811 0.6419646144 4290099642
-0.3232898116 -0.1031620279 0.6429387927 4289968056
-0.3233347535 -0.1024619117 0.6430281401 4290099642
-0.3238241971 -0.1019014791 0.6440015435 4290362814
-0.3238686025 -0.1011998281 0.6440898180 4290033849
-0.3239127100 -0.1004978791 0.6441775560 4289902263
-0.3244015276 -0.0999327302 0.6451496482 4290100155
-0.3248901665 -0.0993653685 0.6461214423 4291744980
-0.3212642968 -0.1176830009 0.6403248906 4292928739
-0.3213151693 -0.1169900820 0.6404263377 4292402395
-0.3218084276 -0.1164570227 0.6414094567 4291810258
-0.3223015368 -0.1159217283 0.6423922777 4291152328
-0.3219089210 -0.1150676385 0.6416097879 4290560191
-0.3215158880 -0.1142151430 0.6408263445 4290297019
-0.3215653598 -0.1135205999 0.6409249306 4290099640
-0.3216145337 -0.1128257364 0.6410229802 4289902261
-0.3212203383 -0.1119761094 0.6402373314 4290033847
-0.3212688863 -0.1112815738 0.6403340697 4290033847
-0.3208739460 -0.1104341820 0.6395468712 4290099126
-0.3209218383 -0.1097399816 0.6396423578 4289901747
-0.3209694326 -0.1090454683 0.6397372484 4289835954
-0.3205733597 -0.1082009822 0.6389477849 4289770161
-0.3206203282 -0.1075068191 0.6390413642 4289770161
-0.3206669986 -0.1068123430 0.6391344070 4289901747
-0.3202697933 -0.1059707925 0.6383427382 4290493630
-0.3207594752 -0.1054224893 0.6393187642 4290493630
-0.3208052814 -0.1047271118 0.6394100189 4290362044
-0.3204070330 -0.1038875505 0.6386162639 4290098872
-0.3208960295 -0.1033354774 0.6395909190 4289770677
-0.3209409714 -0.1026392132 0.6396804452 4289639091
-0.3214295506 -0.1020836607 0.6406543255 4289704884
-0.3214739859 -0.1013858542 0.6407428384 4289968056
-0.3219621778 -0.1008268297 0.6417158842 4290560193
-0.3224502206 -0.1002655923 0.6426886320 4291020744
-0.3224938810 -0.0995649993 0.6427756548 4291876053
-0.3229815066 -0.0990002975 0.6437475681 4293126120
-0.2995910048 -0.2017466277 0.5984517932 4293715949
-0.2996731400 -0.2011368424 0.5986158848 4293386984
-0.2997550964 -0.2005265653 0.5987795591 4292992224
-0.2994078696 -0.1996297687 0.5980859995 4292729052
-0.2999183834 -0.1993044913 0.5991057158 4292727764
-0.2987121642 -0.1978399456 0.5966962576 4292464592
-0.2992222309 -0.1975136697 0.5977151394 4292594121
-0.2993029058 -0.1969026476 0.5978763103 4292462535
-0.2993834019 -0.1962911338 0.5980371237 4292658118
-0.2994636595 -0.1956791282 0.5981974602 4292658118
-0.2995437384 -0.1950666308 0.5983573794 4292918724
-0.2991937101 -0.1941746473 0.5976582170 4292721345
-0.2992732525 -0.1935620457 0.5978170633 4291803330
-0.2989224792 -0.1926717311 0.5971163511 4291474365
-0.2990014851 -0.1920590401 0.5972741842 4290753211
-0.2990802526 -0.1914458573 0.5974315405 4290490039
-0.2991588414 -0.1908321977 0.5975885391 4289965489
-0.2992372215 -0.1902180463 0.5977450609 4289570731
-0.2993153632 -0.1896034181 0.5979012251 4288914601
-0.2993933260 -0.1889883131 0.5980569124 4288519843
-0.2994710505 -0.1883727312 0.5982121825 4287930024
-0.2995485663 -0.1877566576 0.5983670354 4287995817
-0.3000569940 -0.1874093711 0.5993826389 4287996335
-0.3001341820 -0.1867914647 0.5995368361 4288127921
-0.3006424904 -0.1864405721 0.6005522609 4288455597
-0.3011508286 -0.1860874146 0.6015676856 4288455597
-0.3007960320 -0.1852005869 0.6008589268 4288718767
-0.3013041615 -0.1848447174 0.6018739343 4288981939
-0.3013804853 -0.1842226535 0.6020264030 4289376695
-0.3014566004 -0.1836001128 0.6021784544 4289771453
-0.3015325069 -0.1829771101 0.6023300886 4290232517
-0.3016081750 -0.1823536307 0.6024812460 4290758861
-0.3016836345 -0.1817296743 0.6026319861 4291351000
-0.3017588854 -0.1811052710 0.6027822495 4291877344
-0.3018338978 -0.1804803908 0.6029320955 4292337893
-0.3019086719 -0.1798550487 0.6030815244 4292666858
-0.3024158776 -0.1794860065 0.6040946841 4292930284
-0.3190044761 -0.1220705360 0.6372314692 4293258219
-0.3190570772 -0.1213825345 0.6373365521 4292797155
-0.3191094100 -0.1206941977 0.6374410391 4292336604
-0.3191614449 -0.1200055256 0.6375449896 4292007639
-0.3187716901 -0.1191514879 0.6367664337 4291678674
-0.3188230991 -0.1184630916 0.6368691325 4291349709
-0.3188742399 -0.1177743673 0.6369712949 4291086537
-0.3189250827 -0.1170853153 0.6370728612 4291020742
-0.3189756572 -0.1163959354 0.6371738315 4290494398
-0.3194677830 -0.1158664823 0.6381569505 4289968054
-0.3195178509 -0.1151754931 0.6382569671 4289704882
-0.3191256523 -0.1143258289 0.6374734640 4289573296
-0.3191750646 -0.1136351526 0.6375722289 4289639089
-0.3187820911 -0.1127877161 0.6367871761 4289704882
-0.3188308775 -0.1120973527 0.6368846297 4289704882
-0.3188793659 -0.1114066765 0.6369815469 4289704368
-0.3189276159 -0.1107156873 0.6370778680 4289770161
-0.3189755380 -0.1100243852 0.6371736526 4289901747
-0.3185807168 -0.1091811284 0.6363849640 4289901747
-0.3186280131 -0.1084901616 0.6364794374 4289901493
-0.3182324171 -0.1076491699 0.6356891990 4289835700
-0.3182790875 -0.1069585532 0.6357824206 4289901493
-0.3183254600 -0.1062676385 0.6358750463 4290033079
-0.3188143373 -0.1057232544 0.6368516088 4289901493
-0.3188602030 -0.1050307751 0.6369432211 4289835700
-0.3189057708 -0.1043379977 0.6370342970 4289638321
-0.3189510703 -0.1036449224 0.6371247768 4289506735
-0.3189960718 -0.1029515490 0.6372146606 4289835700
-0.3194838762 -0.1023999155 0.6381890774 4290625216
-0.3195283711 -0.1017049998 0.6382779479 4291612111
-0.3200157881 -0.1011498943 0.6392515898 4292335834
-0.3205030262 -0.1005925685 0.6402249336 4293126120
-0.2987271249 -0.2075925320 0.5980530381 4293518058
-0.2983842492 -0.2066905349 0.5973665714 4293450208
-0.2984679341 -0.2060845941 0.5975341201 4293055450
-0.2981243134 -0.2051841915 0.5968461633 4293575624
-0.2982074618 -0.2045781016 0.5970126390 4292983487
-0.2978630662 -0.2036792785 0.5963231921 4292980403
-0.2975182533 -0.2027816921 0.5956328511 4292388266
-0.2976005673 -0.2021758258 0.5957976580 4292450462
-0.2972549796 -0.2012798488 0.5951057673 4291924118
-0.2969089746 -0.2003851086 0.5944130421 4291594124
-0.2965624928 -0.1994916201 0.5937194228 4291133573
-0.2966436744 -0.1988863796 0.5938819051 4290870141
-0.2971528172 -0.1985667497 0.5949012041 4290475383
-0.2968053818 -0.1976743937 0.5942056775 4290342253
-0.2964575291 -0.1967832893 0.5935092568 4290079081
-0.2965377569 -0.1961769313 0.5936698914 4290142303
-0.2966178060 -0.1955700964 0.5938301086 4289944924
-0.2971263826 -0.1952444911 0.5948482752 4290141018
-0.2972061038 -0.1946357936 0.5950079560 4290075225
-0.2972856462 -0.1940266043 0.5951671600 4289943119
-0.2973649502 -0.1934169233 0.5953259468 4289811533
-0.2970148623 -0.1925285310 0.5946250558 4289156441
-0.2970936596 -0.1919187605 0.5947827697 4289090648
-0.2971722186 -0.1913084984 0.5949401259 4288500829
-0.2972505987 -0.1906977594 0.5950970054 4288435036
-0.2973287702 -0.1900865287 0.5952534676 4287648092
-0.2974067032 -0.1894748211 0.5954095721 4287187541
-0.2974844575 -0.1888626367 0.5955651999 4285613915
-0.2975620031 -0.1882499754 0.5957204103 4285087571
-0.2976393104 -0.1876368225 0.5958752036 4283253605
-0.2977164090 -0.1870232075 0.5960295796 4283319398
-0.2977932990 -0.1864091158 0.5961835384 4282666096
-0.2983004451 -0.1860630214 0.5971987844 4282797682
-0.2983770072 -0.1854470819 0.5973520875 4282797934
-0.2980227172 -0.1845639646 0.5966427922 4282732141
-0.2985295355 -0.1842138022 0.5976574421 4282797682
-0.2986054718 -0.1835964471 0.5978094339 4282929268
-0.2986811697 -0.1829786152 0.5979610085 4283126901
-0.2983255684 -0.1820971817 0.5972490907 4283258487
-0.2984007299 -0.1814793050 0.5973995924 4283455866
-0.2984756827 -0.1808609664 0.5975496173 4283719038
-0.2985504270 -0.1802421659 0.5976992846 4284376968
-0.2986249328 -0.1796229035 0.5978484154 4284969105
-0.2982676029 -0.1787444949 0.5971330404 4285495449
-0.2987733185 -0.1783829927 0.5981454849 4286021793
-0.2988471687 -0.1777623296 0.5982933640 4286482342
-0.2989208102 -0.1771412194 0.5984407663 4286811307
-0.2989942133 -0.1765196472 0.5985877514 4287336881
-0.2994995713 -0.1761518121 0.5995994806 4287929018
-0.2995726466 -0.1755284369 0.5997457504 4288586948
-0.3000778854 -0.1751569808 0.6007572412 4289113292
-0.3005831242 -0.1747832745 0.6017687321 4289442257
-0.3010883331 -0.1744073182 0.6027801633 4289902808
-0.3011608124 -0.1737794131 0.6029252410 4290428893
-0.3016658723 -0.1733998358 0.6039364338 4290889444
-0.3013051152 -0.1725222468 0.6032141447 4291284455
-0.3013769090 -0.1718929857 0.6033579111 4291547627
-0.3018816113 -0.1715093404 0.6043682694 4291679209
-0.3019530475 -0.1708782762 0.6045113206 4291745002
-0.3024576008 -0.1704910249 0.6055214405 4292205806
-0.3025286794 -0.1698581725 0.6056637764 4292403185
-0.3025995493 -0.1692248583 0.6058056355 4292732400
-0.3031038046 -0.1688326448 0.6068151593 4292929779
-0.3176729679 -0.1260710508 0.6359826922 4293323501
-0.3177271187 -0.1253857911 0.6360911131 4292797155
-0.3173408508 -0.1245274767 0.6353178024 4292205018
-0.3173943758 -0.1238424778 0.6354249120 4291678674
-0.3170073330 -0.1229863167 0.6346500516 4291218123
-0.3166198730 -0.1221317127 0.6338743567 4291085767
-0.3166724145 -0.1214475855 0.6339795589 4290756802
-0.3167246580 -0.1207631156 0.6340841651 4290362298
-0.3167766631 -0.1200783104 0.6341882348 4290296505
-0.3168283701 -0.1193931699 0.6342917681 4290362298
-0.3164390624 -0.1185425892 0.6335123777 4290428091
-0.3164901435 -0.1178577319 0.6336146593 4290230712
-0.3165409565 -0.1171725392 0.6337163448 4289967540
-0.3165914714 -0.1164870262 0.6338174939 4289836468
-0.3166416883 -0.1158011854 0.6339180470 4289441710
-0.3171327412 -0.1152753383 0.6349011064 4289112745
-0.3171824813 -0.1145878881 0.6350007057 4289244331
-0.3167907298 -0.1137417033 0.6342164278 4289441710
-0.3168398440 -0.1130545661 0.6343147159 4289573296
-0.3168886602 -0.1123671085 0.6344124675 4289573298
-0.3169372082 -0.1116793379 0.6345096827 4289573298
-0.3169854581 -0.1109912544 0.6346063018 4289704884
-0.3170334399 -0.1103028506 0.6347023249 4289639091
-0.3170811534 -0.1096141413 0.6347978115 4289835700
-0.3171285391 -0.1089251190 0.6348927617 4289835700
-0.3167339265 -0.1080850437 0.6341027021 4289704114
-0.3167806864 -0.1073963642 0.6341963410 4289572528
-0.3168271780 -0.1067073867 0.6342894435 4289440942
-0.3168734014 -0.1060181037 0.6343818903 4289375149
-0.3173613250 -0.1054754183 0.6353587508 4289835443
-0.3174070120 -0.1047845781 0.6354502439 4290493373
-0.3174524009 -0.1040934324 0.6355411410 4291348682
-0.3174975216 -0.1034019962 0.6356314421 4292072405
-0.3175423741 -0.1027102694 0.6357212067 4292862178
-0.2997162938 -0.2134212255 0.6013705134 4293781481
-0.2985264361 -0.2119084448 0.5989831090 4293320930
-0.2973356545 -0.2104003131 0.5965938568 4292988624
-0.2965694368 -0.2091969699 0.5950564742 4292462280
-0.2962281704 -0.2082958519 0.5943716764 4291737786
-0.2958864570 -0.2073959410 0.5936860442 4290816684
-0.2951184511 -0.2061997056 0.5921450853 4290680730
-0.2947757244 -0.2053031027 0.5914574265 4290022800
-0.2948586941 -0.2047035396 0.5916239023 4290805378
-0.2949414253 -0.2041034698 0.5917899013 4290410620
-0.2945976555 -0.2032088190 0.5911001563 4291454301
-0.2946799099 -0.2026086152 0.5912652016 4290993750
-0.2947619557 -0.2020079046 0.5914297700 4291645518
-0.2944171131 -0.2011152208 0.5907378793 4291513932
-0.2944986224 -0.2005143762 0.5909014344 4292298313
-0.2945799530 -0.1999130398 0.5910646319 4292364106
-0.2942340374 -0.1990223378 0.5903705955 4292494667
-0.2943148613 -0.1984208822 0.5905327201 4292363081
-0.2948227525 -0.1981060356 0.5915517807 4292297802
-0.2944758832 -0.1972164810 0.5908558369 4292363595
-0.2949836254 -0.1968988925 0.5918745399 4292626253
-0.2946361005 -0.1960100979 0.5911772847 4292692046
-0.2947159111 -0.1954061687 0.5913374424 4292561485
-0.2947955132 -0.1948017478 0.5914971232 4292758864
-0.2953028977 -0.1944787055 0.5925151706 4292432722
-0.2953822017 -0.1938724220 0.5926743150 4292366929
-0.2954612970 -0.1932656616 0.5928330421 4292694104
-0.2955402136 -0.1926584244 0.5929913521 4292562518
-0.2956188917 -0.1920506805 0.5931492448 4292038995
-0.2956973910 -0.1914424747 0.5933067203 4291973202
-0.2957756519 -0.1908337623 0.5934637785 4292563021
-0.2958537340 -0.1902245879 0.5936204195 4292760400
-0.2959315777 -0.1896149069 0.5937766433 4292236634
-0.2960092425 -0.1890047640 0.5939324498 4292039255
-0.2960866690 -0.1883941442 0.5940878391 4289548636
-0.2961639166 -0.1877830327 0.5942427516 4288627534
-0.2962409258 -0.1871714443 0.5943973064 4283651204
-0.2963177264 -0.1865593940 0.5945514441 4283651204
-0.2963943183 -0.1859468520 0.5947051048 4283322256
-0.2964707017 -0.1853338480 0.5948583484 4283388049
-0.2965468764 -0.1847203672 0.5950112343 4283192466
-0.2966228426 -0.1841064095 0.5951635838 4283126673
-0.2962685823 -0.1832260489 0.5944527984 4283520404
-0.2963440120 -0.1826120466 0.5946041346 4283388818
-0.2959889770 -0.1817334145 0.5938917994 4283388819
-0.2960638702 -0.1811193675 0.5940420628 4283388819
-0.2957080901 -0.1802424937 0.5933282375 4283323026
-0.2957824469 -0.1796284169 0.5934773684 4283257233
-0.2958565652 -0.1790138632 0.5936260819 4283125647
-0.2954997122 -0.1781391799 0.5929100513 4282994061
-0.2955732942 -0.1775246114 0.5930576921 4282533510
-0.2956466377 -0.1769095808 0.5932049155 4282467717
-0.2957198024 -0.1762940884 0.5933516622 4282598535
-0.2962239087 -0.1759342253 0.5943631530 4282861707
-0.2962967157 -0.1753169298 0.5945092440 4283124879
-0.2963692844 -0.1746991873 0.5946548581 4283388051
-0.2968731821 -0.1743343621 0.5956658721 4283519635
-0.2969454229 -0.1737148017 0.5958108306 4283519635
-0.2974491715 -0.1733463854 0.5968216062 4283324306
-0.2979528904 -0.1729757190 0.5978323221 4283324306
-0.2980246842 -0.1723529994 0.5979763865 4283521166
-0.2980962396 -0.1717298329 0.5981199741 4283784338
-0.2981675863 -0.1711062193 0.5982630849 4284310932
-0.2982387245 -0.1704821587 0.5984057784 4284771483
-0.2983095944 -0.1698576510 0.5985480547 4285100699
-0.2983802557 -0.1692326963 0.5986898541 4285298078
-0.2984507084 -0.1686073095 0.5988311768 4285759132
-0.2985209227 -0.1679814756 0.5989720225 4286219683
-0.2985908985 -0.1673551947 0.5991124511 4286680226
-0.2990934849 -0.1669701189 0.6001209021 4287074984
-0.2995960414 -0.1665827781 0.6011292338 4287404198
-0.2996655405 -0.1659533530 0.6012687087 4287667370
-0.3001679480 -0.1655624211 0.6022767425 4288062126
-0.3002370894 -0.1649312228 0.6024154425 4288588470
-0.3003059924 -0.1642995924 0.6025537252 4289377212
-0.3003746569 -0.1636675149 0.6026914716 4289706177
-0.3004430830 -0.1630350202 0.6028288007 4290296519
-0.3005112708 -0.1624020934 0.6029655933 4290691277
-0.3010129631 -0.1620021611 0.6039722562 4290889944
-0.3010807931 -0.1613674611 0.6041083336 4291087323
-0.3011483848 -0.1607323289 0.6042439938 4291088608
-0.3012157381 -0.1600967646 0.6043791175 4291417573
-0.3012828529 -0.1594607830 0.6045137644 4292073183
-0.3013497293 -0.1588243693 0.6046479344 4292467941
-0.3014163673 -0.1581875384 0.6047816873 4292797163
-0.3010483682 -0.1573232710 0.6040432453 4293191921
-0.3015701771 -0.1522175670 0.6050902605 4293847274
-0.3016343117 -0.1515775025 0.6052189469 4294040795
-0.3016982079 -0.1509370208 0.6053471565 4293382865
-0.3017618656 -0.1502961516 0.6054748893 4293054160
-0.3018252850 -0.1496548653 0.6056021452 4293448918
-0.3018884361 -0.1490131766 0.6057288647 4292795089
-0.3023870885 -0.1485851705 0.6067293286 4293189847
-0.3028856516 -0.1481549293 0.6077297330 4294634729
-0.3158951104 -0.1298702657 0.6338327527 4293127403
-0.3155118823 -0.1290093362 0.6330638528 4292469473
-0.3155671358 -0.1283284277 0.6331747174 4292008922
-0.3151831329 -0.1274696290 0.6324042082 4291480779
-0.3147987127 -0.1266123652 0.6316328645 4291283400
-0.3148529828 -0.1259322762 0.6317417622 4291086021
-0.3149069846 -0.1252518445 0.6318501234 4290888642
-0.3149607182 -0.1245710626 0.6319578886 4290625470
-0.3150141537 -0.1238899380 0.6320651770 4290493884
-0.3146279156 -0.1230366230 0.6312901378 4290296505
-0.3142412305 -0.1221848652 0.6305143237 4290099126
-0.3138541281 -0.1213346720 0.6297376156 4289835954
-0.3139062822 -0.1206550226 0.6298422217 4289506989
-0.3139581084 -0.1199750379 0.6299462318 4289112231
-0.3144494891 -0.1194617972 0.6309321523 4288849059
-0.3145008683 -0.1187801883 0.6310352683 4288717473
-0.3141120076 -0.1179330721 0.6302550435 4288980645
-0.3141627610 -0.1172517538 0.6303568482 4289177770
-0.3142132461 -0.1165701076 0.6304581165 4289243563
-0.3147035539 -0.1160504371 0.6314419508 4289243563
-0.3147535324 -0.1153671816 0.6315422654 4289309356
-0.3148032427 -0.1146835983 0.6316419840 4289506735
-0.3148526549 -0.1139996946 0.6317411661 4289572528
-0.3144613802 -0.1131569818 0.6309560537 4289638321
-0.3145101666 -0.1124733910 0.6310539246 4289835700
-0.3145586848 -0.1117894873 0.6311512589 4290033079
-0.3146069348 -0.1111052632 0.6312480569 4290164665
-0.3150955737 -0.1105753779 0.6322284937 4290098872
-0.3151432872 -0.1098895743 0.6323242784 4289901493
-0.3151907325 -0.1092034578 0.6324194670 4289835954
-0.3152379096 -0.1085170284 0.6325141191 4289901747
-0.3152847886 -0.1078302935 0.6326081753 4290033333
-0.3148903847 -0.1069934070 0.6318168044 4290230712
-0.3149366379 -0.1063070223 0.6319096088 4290888642
-0.3154237568 -0.1057682708 0.6328870058 4291678158
-0.3154695034 -0.1050803214 0.6329787970 4292797155
-0.3038217127 -0.2202219516 0.6109694242 4293256685
-0.3026383817 -0.2186880410 0.6085898280 4293120477
-0.3023020625 -0.2177695930 0.6079135537 4292001996
-0.3011171222 -0.2162431926 0.6055306196 4291863729
-0.2995069921 -0.2144177258 0.6022927761 4290811041
-0.2983200550 -0.2129014581 0.5999059081 4291460487
-0.2967077196 -0.2110878527 0.5966635942 4290605178
-0.2955188155 -0.2095817327 0.5942727923 4291451748
-0.2943289876 -0.2080802917 0.5918800831 4291056990
-0.2939879298 -0.2071823031 0.5911942124 4291186263
-0.2936464250 -0.2062855363 0.5905074477 4291186263
-0.2928794026 -0.2050923258 0.5889649987 4291054670
-0.2925368845 -0.2041988820 0.5882762671 4290923084
-0.2926192880 -0.2036025822 0.5884419680 4291578442
-0.2927014828 -0.2030057907 0.5886072516 4291907407
-0.2927834690 -0.2024084926 0.5887721181 4292106069
-0.2924396098 -0.2015173584 0.5880806446 4291974483
-0.2925210893 -0.2009199411 0.5882444978 4292301649
-0.2926023901 -0.2003220022 0.5884079933 4292433235
-0.2926834822 -0.1997235864 0.5885710716 4292629588
-0.2927643657 -0.1991246641 0.5887337327 4292563795
-0.2928450704 -0.1985252351 0.5888959765 4292366418
-0.2929255664 -0.1979253292 0.5890578628 4292103246
-0.2930058539 -0.1973249167 0.5892193317 4292366418
-0.2935125828 -0.1970103681 0.5902383327 4292432211
-0.2935926020 -0.1964080930 0.5903992057 4292759377
-0.2936724126 -0.1958053410 0.5905597210 4292693584
-0.2933250368 -0.1949183643 0.5898612142 4292759377
-0.2934043407 -0.1943154931 0.5900206566 4292759377
-0.2939106226 -0.1939941049 0.5910387635 4292497488
-0.2939896286 -0.1933893859 0.5911976099 4292497488
-0.2940684259 -0.1927841753 0.5913560987 4292233551
-0.2941470146 -0.1921784878 0.5915141106 4292167758
-0.2942253947 -0.1915723085 0.5916717649 4291644235
-0.2943035662 -0.1909656525 0.5918289423 4291578442
-0.2943815291 -0.1903585047 0.5919857621 4291905602
-0.2944593132 -0.1897508800 0.5921421647 4291971395
-0.2945368588 -0.1891427636 0.5922980905 4291513164
-0.2946141958 -0.1885341853 0.5924536586 4291381578
-0.2946913540 -0.1879251152 0.5926087499 4289218384
-0.2947682738 -0.1873155683 0.5927634835 4288297282
-0.2948449850 -0.1867055446 0.5929177403 4283124088
-0.2949215174 -0.1860950589 0.5930716395 4283058295
-0.2949978113 -0.1854840815 0.5932250619 4282664577
-0.2950738966 -0.1848726422 0.5933780670 4282598784
-0.2951497734 -0.1842607111 0.5935306549 4282468479
-0.2952254117 -0.1836483330 0.5936827660 4282402686
-0.2948716581 -0.1827694327 0.5929713845 4282336639
-0.2945174575 -0.1818918437 0.5922591090 4282402432
-0.2945922613 -0.1812798232 0.5924094915 4282534020
-0.2942372859 -0.1804039925 0.5916957259 4282599813
-0.2943115532 -0.1797919422 0.5918450356 4282731399
-0.2939558625 -0.1789178550 0.5911297202 4282731399
-0.2940295637 -0.1783057749 0.5912780166 4282797190
-0.2936730981 -0.1774334460 0.5905611515 4282797190
-0.2937462926 -0.1768213511 0.5907083154 4282928519
-0.2938192785 -0.1762087941 0.5908550620 4282928519
-0.2938920259 -0.1755957752 0.5910013318 4282928265
-0.2943949401 -0.1752385050 0.5920127630 4282994058
-0.2944673598 -0.1746236831 0.5921583772 4282994058
-0.2945395708 -0.1740083992 0.5923035741 4282994058
-0.2946115434 -0.1733926833 0.5924482942 4283059851
-0.2946833074 -0.1727765054 0.5925926566 4283125644
-0.2951857746 -0.1724115610 0.5936030746 4283389581
-0.2956882417 -0.1720443815 0.5946134925 4283323788
-0.2957595587 -0.1714250594 0.5947569013 4283257481
-0.2958306372 -0.1708052754 0.5948998332 4283060102
-0.2959015071 -0.1701850593 0.5950422883 4282994309
-0.2959721386 -0.1695643961 0.5951843262 4282928516
-0.2960425317 -0.1689432859 0.5953259468 4282863237
-0.2961127162 -0.1683217287 0.5954670906 4282929030
-0.2961826921 -0.1676997244 0.5956077576 4282599552
-0.2962524295 -0.1670772880 0.5957480073 4282665345
-0.2963219285 -0.1664544195 0.5958877802 4282665344
-0.2968232632 -0.1660728455 0.5968959332 4282731137
-0.2968924046 -0.1654481888 0.5970349908 4282928002
-0.2969613373 -0.1648231000 0.5971736312 4282993795
-0.2970300317 -0.1641975641 0.5973117352 4282994309
-0.2970984876 -0.1635715961 0.5974494219 4283191688
-0.2975992858 -0.1631823927 0.5984565020 4282536314
-0.2976673841 -0.1625546515 0.5985934138 4282667900
-0.2977352738 -0.1619264930 0.5987299085 4283649668
-0.2978028953 -0.1612978876 0.5988659263 4283847047
-0.2978703082 -0.1606688648 0.5990015268 4284110221
-0.2979374826 -0.1600394100 0.5991365910 4284307600
-0.2980044186 -0.1594095379 0.5992711782 4284833415
-0.2980711162 -0.1587792337 0.5994053483 4285228173
-0.2981376052 -0.1581485122 0.5995389819 4285558146
-0.2982038260 -0.1575173736 0.5996721983 4286018697
-0.2982698381 -0.1568858176 0.5998049378 4286283910
-0.2979019582 -0.1560267210 0.5990651846 4286876047
-0.2979674041 -0.1553952396 0.5991967320 4287795609
-0.2980326116 -0.1547633410 0.5993278623 4288321953
-0.2980975509 -0.1541310251 0.5994584560 4290090661
-0.2981622815 -0.1534983069 0.5995886326 4290617005
-0.2986608446 -0.1530876905 0.6005912423 4291729825
-0.2987251878 -0.1524532139 0.6007206440 4291927204
-0.2987892926 -0.1518183500 0.6008495092 4292973208
-0.2988531590 -0.1511830539 0.6009779572 4292117899
-0.2993512452 -0.1507661939 0.6019795537 4292113009
-0.2989801466 -0.1499112695 0.6012333035 4291915630
-0.2990432680 -0.1492747813 0.6013602614 4292243312
-0.2991061509 -0.1486378759 0.6014867425 4292177519
-0.2996036410 -0.1482156962 0.6024871469 4291981161
-0.2996661365 -0.1475770622 0.6026128531 4292441712
-0.3001634181 -0.1471512914 0.6036127806 4293762200
-0.3010957241 -0.1469356120 0.6054876447 4294954441
-0.3127729595 -0.1386575252 0.6289699078 4292535013
-0.3132688403 -0.1381774247 0.6299671531 4292533213
-0.3133276701 -0.1375032961 0.6300854087 4292204248
-0.3133862019 -0.1368287802 0.6302031279 4292205018
-0.3134444654 -0.1361538917 0.6303203106 4292402397
-0.3135024607 -0.1354786158 0.6304369569 4293060327
-0.3132942319 -0.1325886548 0.6300182343 4292928741
-0.3133508265 -0.1319124848 0.6301320195 4292533983
-0.3134071529 -0.1312359422 0.6302452683 4291876053
-0.3134631813 -0.1305590421 0.6303579807 4291152330
-0.3135189712 -0.1298817694 0.6304701567 4290625986
-0.3131365180 -0.1290237010 0.6297010183 4290428607
-0.3131916821 -0.1283466518 0.6298119426 4290428607
-0.3128084540 -0.1274906993 0.6290413141 4290428607
-0.3124248087 -0.1266362816 0.6282698512 4290954435
-0.3120407462 -0.1257834136 0.6274974942 4290757056
-0.3120945990 -0.1251078099 0.6276057959 4290428091
-0.3121481538 -0.1244318485 0.6277135015 4290099126
-0.3122014701 -0.1237555370 0.6278206706 4289704368
-0.3122544885 -0.1230788901 0.6279273033 4289309610
-0.3118686080 -0.1222299784 0.6271513700 4288783266
-0.3119210303 -0.1215535924 0.6272567511 4288322715
-0.3115343750 -0.1207068563 0.6264792085 4288125336
-0.3115861416 -0.1200307384 0.6265833378 4288256922
-0.3116376698 -0.1193542928 0.6266869307 4288520094
-0.3121279180 -0.1188446581 0.6276727915 4288849059
-0.3117398620 -0.1180003881 0.6268924475 4289046184
-0.3117905557 -0.1173229367 0.6269943714 4289243563
-0.3118409812 -0.1166451648 0.6270957589 4289375149
-0.3123303950 -0.1161303893 0.6280799508 4289375149
-0.3128196895 -0.1156133786 0.6290639043 4289309610
-0.3124299943 -0.1147712916 0.6282802224 4289572782
-0.3124793470 -0.1140912548 0.6283795238 4289901747
-0.3125284612 -0.1134108976 0.6284782887 4290033333
-0.3125772774 -0.1127302200 0.6285764575 4289836468
-0.3121861219 -0.1118916273 0.6277898550 4289770675
-0.3122343123 -0.1112112775 0.6278867722 4289704882
-0.3127220571 -0.1106862873 0.6288676262 4289770675
-0.3132096827 -0.1101590618 0.6298481226 4289770677
-0.3132571578 -0.1094758511 0.6299436688 4290165435
-0.3133043647 -0.1087923348 0.6300385594 4290757572
-0.3133513033 -0.1081085056 0.6301329136 4291481295
-0.3133979440 -0.1074243709 0.6302267313 4292270811
-0.3130040765 -0.1065900177 0.6294347048 4293060327
-0.3026649952 -0.2212301493 0.6100058556 4292863210
-0.3023305833 -0.2203087062 0.6093318462 4293835716
-0.3019957542 -0.2193884254 0.6086569428 4290940824
-0.3008142710 -0.2178565264 0.6062757969 4289750894
-0.3000550866 -0.2166347802 0.6047456861 4288895585
-0.2984485626 -0.2148065716 0.6015077829 4289416526
-0.2964173853 -0.2126808912 0.5974140763 4289153354
-0.2948083878 -0.2108662575 0.5941712260 4290266180
-0.2936219275 -0.2093601078 0.5917799473 4290660938
-0.2920107245 -0.2075573802 0.5885326266 4291905865
-0.2916701734 -0.2066621780 0.5878462791 4291905865
-0.2913291752 -0.2057681978 0.5871590376 4292235083
-0.2914119363 -0.2051740885 0.5873258710 4292564048
-0.2910702229 -0.2042817026 0.5866371393 4292434515
-0.2907280624 -0.2033905238 0.5859475136 4292434515
-0.2908099890 -0.2027966380 0.5861126781 4292565335
-0.2908917665 -0.2022022605 0.5862774253 4292762714
-0.2909733057 -0.2016073763 0.5864418149 4293219669
-0.2906297743 -0.2007185370 0.5857494473 4293088083
-0.2911358476 -0.2004161030 0.5867694020 4292760658
-0.2912168205 -0.1998197138 0.5869325995 4292760658
-0.2912975848 -0.1992228329 0.5870953798 4292236370
-0.2913781703 -0.1986254603 0.5872578025 4292038991
-0.2910330594 -0.1977384984 0.5865622163 4291644746
-0.2911131084 -0.1971409917 0.5867235661 4291381574
-0.2916187048 -0.1968303621 0.5877425671 4291380547
-0.2921243310 -0.1965174675 0.5887616277 4291314754
-0.2922040224 -0.1959167570 0.5889222622 4291247935
-0.2922835350 -0.1953155398 0.5890824795 4291116349
-0.2923628390 -0.1947138458 0.5892422795 4291115581
-0.2924419343 -0.1941116452 0.5894017220 4290983995
-0.2925208211 -0.1935089678 0.5895607471 4290918202
-0.2925994992 -0.1929058135 0.5897192955 4290918202
-0.2931046486 -0.1925824881 0.5907374024 4290983484
-0.2931830287 -0.1919774711 0.5908954144 4290983484
-0.2932612300 -0.1913719624 0.5910530090 4290656570
-0.2933392227 -0.1907659769 0.5912101865 4290590777
-0.2934169769 -0.1901595145 0.5913669467 4290656051
-0.2934945524 -0.1895525604 0.5915232897 4290590258
-0.2935719192 -0.1889451295 0.5916792154 4290131511
-0.2936490774 -0.1883372068 0.5918347239 4290065718
-0.2937260270 -0.1877288222 0.5919898152 4288493114
-0.2933751047 -0.1868475825 0.5912825465 4287506219
-0.2934515476 -0.1862391233 0.5914365649 4281874021
-0.2935277522 -0.1856301874 0.5915901661 4281742435
-0.2936037481 -0.1850207895 0.5917432904 4281480043
-0.2936795354 -0.1844109148 0.5918960571 4281414250
-0.2937551141 -0.1838005632 0.5920484066 4281218152
-0.2938304842 -0.1831897348 0.5922002792 4281283945
-0.2939056158 -0.1825784445 0.5923517346 4281152618
-0.2939805686 -0.1819666922 0.5925027728 4281218411
-0.2936266363 -0.1810901016 0.5917894840 4281152618
-0.2928435206 -0.1799513549 0.5902111530 4281152618
-0.2929174900 -0.1793408692 0.5903602242 4281284204
-0.2925622761 -0.1784682572 0.5896443129 4281284204
-0.2922066152 -0.1775969565 0.5889275074 4281415790
-0.2927089334 -0.1772467792 0.5899398923 4281481583
-0.2919233441 -0.1761173755 0.5883565545 4281613169
-0.2919959128 -0.1755072922 0.5885028243 4281744755
-0.2924977839 -0.1751539558 0.5895143151 4281942134
-0.2925700247 -0.1745420545 0.5896599293 4282007927
-0.2926420569 -0.1739297211 0.5898051262 4281942135
-0.2927138805 -0.1733169258 0.5899498463 4281942135
-0.2927854657 -0.1727036834 0.5900941491 4282073720
-0.2928568423 -0.1720899791 0.5902379751 4282139513
-0.2933581471 -0.1717276424 0.5912483335 4282467968
-0.2934291959 -0.1711121500 0.5913915038 4282599554
-0.2935000062 -0.1704962105 0.5915342569 4282665345
-0.2935706079 -0.1698798239 0.5916765332 4282731138
-0.2936410010 -0.1692630053 0.5918183923 4282862726
-0.2937111557 -0.1686457247 0.5919597745 4282928519
-0.2937810719 -0.1680280119 0.5921007395 4282994312
-0.2938507795 -0.1674098670 0.5922412276 4283125898
-0.2939202785 -0.1667912751 0.5923812389 4283125644
-0.2939895391 -0.1661722362 0.5925208330 4283125644
-0.2940585613 -0.1655527651 0.5926599503 4283125644
-0.2945586443 -0.1651747078 0.5936678648 4283125644
-0.2946273088 -0.1645534635 0.5938062668 4283191437
-0.2946957648 -0.1639317721 0.5939442515 4283257230
-0.2943324447 -0.1630705595 0.5932119489 4283257230
-0.2944003344 -0.1624489278 0.5933488011 4283257230
-0.2948997617 -0.1620641351 0.5943554044 4283389327
-0.2949673235 -0.1614407301 0.5944915414 4283257741
-0.2950346172 -0.1608169079 0.5946272016 4283452818
-0.2951017022 -0.1601926386 0.5947623849 4283387025
-0.2956007123 -0.1598015875 0.5957681537 4283125395
-0.2956674397 -0.1591755599 0.5959026217 4283191188
-0.2957339287 -0.1585491151 0.5960366130 4285222005
-0.2958001792 -0.1579222530 0.5961701274 4285682556
-0.2958661914 -0.1572949588 0.5963031650 4286336616
-0.2959319949 -0.1566672474 0.5964357853 4286599788
-0.2955648005 -0.1558109969 0.5956957340 4287189592
-0.2956300080 -0.1551833749 0.5958271623 4287189592
-0.2956950068 -0.1545553356 0.5959581733 4287452251
-0.2957597673 -0.1539268792 0.5960886478 4287583837
-0.2958242595 -0.1532980204 0.5962187052 4289547608
-0.2958885431 -0.1526687443 0.5963482261 4290008159
-0.2959525883 -0.1520390660 0.5964773297 4290597979
-0.2964498103 -0.1516306549 0.5974794030 4290532186
-0.2965134680 -0.1509992331 0.5976077318 4290530643
-0.2965768874 -0.1503673941 0.5977355242 4290464850
-0.2966400683 -0.1497351676 0.5978628993 4291711317
-0.2967030108 -0.1491025239 0.5979897380 4292566626
-0.2967657149 -0.1484694928 0.5981161594 4292894053
-0.2968281806 -0.1478360593 0.5982420444 4292301916
-0.2973244786 -0.1474174261 0.5992422700 4291054667
-0.2973865271 -0.1467822641 0.5993673205 4291054667
-0.2978825867 -0.1463600546 0.6003671288 4291254877
-0.2983785868 -0.1459355950 0.6013668180 4294873492
-0.2988745272 -0.1455088705 0.6023663282 4294437867
-0.3092349470 -0.1415507793 0.6232472062 4292797157
-0.3092949688 -0.1408856362 0.6233681440 4292205018
-0.3097904027 -0.1404175907 0.6243667006 4291612881
-0.3098499775 -0.1397507489 0.6244867444 4290823365
-0.3103451431 -0.1392791271 0.6254847646 4289968056
-0.3104042709 -0.1386105716 0.6256039143 4289179823
-0.3104631305 -0.1379416287 0.6257225871 4288850858
-0.3105217516 -0.1372723132 0.6258406639 4289177511
-0.3105800748 -0.1366026253 0.6259582639 4288716960
-0.3110744357 -0.1361234635 0.6269546151 4288848546
-0.3106959760 -0.1352621019 0.6261917949 4289111718
-0.3107534945 -0.1345912814 0.6263077855 4289638062
-0.3103742599 -0.1337320060 0.6255434155 4289835441
-0.3099945784 -0.1328742355 0.6247782111 4289967027
-0.3100511730 -0.1322041899 0.6248922348 4289769648
-0.3101074994 -0.1315337718 0.6250057817 4289901747
-0.3101635575 -0.1308629960 0.6251187325 4289901747
-0.3102193475 -0.1301918626 0.6252312064 4289967540
-0.3102748692 -0.1295203716 0.6253430843 4290296505
-0.3103301227 -0.1288485080 0.6254544854 4290822849
-0.3099479377 -0.1279957592 0.6246842146 4290822849
-0.3100025952 -0.1273241341 0.6247943640 4290164919
-0.3100569546 -0.1266521513 0.6249039173 4289441196
-0.3096736670 -0.1258021295 0.6241314411 4288652196
-0.3092899621 -0.1249536574 0.6233580709 4288389024
-0.3089058399 -0.1241067350 0.6225838661 4288125852
-0.3093965352 -0.1236110404 0.6235728264 4288125852
-0.3090116978 -0.1227653250 0.6227972507 4288389024
-0.3090642393 -0.1220941097 0.6229031682 4288783782
-0.3091164827 -0.1214225441 0.6230084896 4288915368
-0.3091684878 -0.1207506433 0.6231132746 4288849575
-0.3092201948 -0.1200784072 0.6232174635 4288520610
-0.3092716634 -0.1194058284 0.6233211756 4288652196
-0.3093228340 -0.1187329143 0.6234242916 4288915366
-0.3098119199 -0.1182268932 0.6244100928 4289244331
-0.3094243705 -0.1173860952 0.6236289740 4289310124
-0.3094747066 -0.1167121902 0.6237304211 4289310124
-0.3095248044 -0.1160379574 0.6238313913 4289244331
-0.3095746040 -0.1153633967 0.6239317656 4289178538
-0.3100627065 -0.1148509607 0.6249154806 4289572782
-0.3101120293 -0.1141747981 0.6250149012 4289770161
-0.3101610839 -0.1134983078 0.6251137853 4289835954
-0.3102098703 -0.1128215045 0.6252120733 4289770161
-0.3102583587 -0.1121443808 0.6253098249 4289770161
-0.3103065789 -0.1114669368 0.6254070401 4290099126
-0.3103545308 -0.1107891798 0.6255036592 4290625984
-0.3104021847 -0.1101111099 0.6255997419 4291349707
-0.3108886778 -0.1095875129 0.6265802383 4292007639
-0.3109358549 -0.1089078635 0.6266753078 4292928741
-0.3007542491 -0.2210016847 0.6075147390 4293646047
-0.3004204631 -0.2200821787 0.6068404913 4290093225
-0.3000862598 -0.2191638350 0.6061653495 4290925402
-0.2993294001 -0.2179392874 0.6046365499 4289346370
-0.2973049581 -0.2157980502 0.6005472541 4290261814
-0.2957015038 -0.2139705420 0.5973083377 4291182916
-0.2936743498 -0.2118445784 0.5932134986 4292101700
-0.2924911082 -0.2103345990 0.5908234119 4292035907
-0.2913069725 -0.2088292688 0.5884314775 4291774016
-0.2901218832 -0.2073286027 0.5860376358 4292366153
-0.2897819877 -0.2064353228 0.5853510499 4292431946
-0.2894416451 -0.2055432647 0.5846635699 4292760911
-0.2895241380 -0.2049520761 0.5848302245 4292958804
-0.2896064818 -0.2043603659 0.5849965215 4292958804
-0.2892650664 -0.2034702599 0.5843068957 4292958553
-0.2893468738 -0.2028784156 0.5844721794 4292892760
-0.2894285023 -0.2022860795 0.5846370459 4293021787
-0.2895099521 -0.2016932368 0.5848015547 4292627029
-0.2895911634 -0.2010998875 0.5849656463 4292495946
-0.2896722257 -0.2005060464 0.5851293206 4292298567
-0.2901772857 -0.2002044022 0.5861495733 4291577411
-0.2902580798 -0.1996086836 0.5863127112 4291380032
-0.2903386354 -0.1990124881 0.5864754915 4290920510
-0.2904190123 -0.1984157860 0.5866378546 4290723131
-0.2904992104 -0.1978185773 0.5867998004 4290656313
-0.2905791700 -0.1972208917 0.5869613886 4290524727
-0.2910839021 -0.1969101727 0.5879809260 4290524212
-0.2911635935 -0.1963106245 0.5881419182 4290524212
-0.2912431061 -0.1957105696 0.5883024931 4290327346
-0.2917476892 -0.1953948736 0.5893217325 4290261553
-0.2918269038 -0.1947929710 0.5894817710 4290196019
-0.2919059396 -0.1941905767 0.5896413922 4290130226
-0.2919847369 -0.1935876906 0.5898005962 4290064435
-0.2920633554 -0.1929843277 0.5899593830 4290130228
-0.2921417654 -0.1923804730 0.5901177526 4290260276
-0.2922199667 -0.1917761266 0.5902757049 4290194483
-0.2922979593 -0.1911713034 0.5904332399 4289801779
-0.2923757434 -0.1905660033 0.5905904174 4289867572
-0.2924533486 -0.1899602115 0.5907471180 4290129708
-0.2925307155 -0.1893539280 0.5909034014 4290063915
-0.2926079035 -0.1887471825 0.5910593271 4289604913
-0.2926848531 -0.1881399453 0.5912147760 4289539120
-0.2927616239 -0.1875322312 0.5913698673 4288622646
-0.2928381860 -0.1869240403 0.5915244818 4287701544
-0.2929145098 -0.1863153726 0.5916786790 4281545575
-0.2929906547 -0.1857062280 0.5918324590 4281479782
-0.2930665612 -0.1850966215 0.5919858217 4281348455
-0.2931422889 -0.1844865233 0.5921387672 4281216869
-0.2932177782 -0.1838759631 0.5922912955 4281086566
-0.2928655446 -0.1829977781 0.5915797353 4281086566
-0.2929404974 -0.1823871732 0.5917311907 4281152357
-0.2930152714 -0.1817760915 0.5918821692 4281152357
-0.2926619351 -0.1809000671 0.5911684632 4281020773
-0.2923081815 -0.1800253689 0.5904538631 4280954980
-0.2919539809 -0.1791519970 0.5897384286 4280954980
-0.2915993631 -0.1782799363 0.5890221000 4280954980
-0.2912443280 -0.1774092168 0.5883049369 4280954980
-0.2913172543 -0.1767998338 0.5884522796 4280954980
-0.2913899720 -0.1761899889 0.5885991454 4280889187
-0.2910338640 -0.1753214896 0.5878798366 4280954980
-0.2911060452 -0.1747116297 0.5880256295 4281086566
-0.2916068435 -0.1743577272 0.5890372396 4281152359
-0.2916786969 -0.1737460643 0.5891823769 4281086823
-0.2917503417 -0.1731339544 0.5893270373 4281086823
-0.2918217480 -0.1725213975 0.5894713402 4281086823
-0.2918929458 -0.1719083786 0.5896151662 4281152616
-0.2919639349 -0.1712949276 0.5897585154 4280955240
-0.2920346856 -0.1706810147 0.5899014473 4281021033
-0.2921052277 -0.1700666696 0.5900439620 4281152619
-0.2917458713 -0.1692026705 0.5893180966 4281218412
-0.2918158770 -0.1685883403 0.5894594789 4281284204
-0.2918856442 -0.1679735631 0.5896003842 4281349997
-0.2919552028 -0.1673583388 0.5897409320 4281349995
-0.2920245528 -0.1667426825 0.5898809433 4281349995
-0.2920936346 -0.1661265939 0.5900205374 4281613421
-0.2921625376 -0.1655100584 0.5901597142 4281679214
-0.2922312021 -0.1648930907 0.5902984142 4281810798
-0.2927301228 -0.1645176262 0.5913062096 4281876591
-0.2927984297 -0.1638988853 0.5914441943 4281942384
-0.2928665280 -0.1632797122 0.5915817022 4282073970
-0.2929343879 -0.1626600921 0.5917187929 4282073969
-0.2925711274 -0.1618017703 0.5909850597 4282073969
-0.2930694222 -0.1614195853 0.5919916034 4282270322
-0.2931365967 -0.1607986987 0.5921272635 4282204529
-0.2932035327 -0.1601773798 0.5922625065 4282204024
-0.2932702601 -0.1595556289 0.5923972726 4282467196
-0.2937681377 -0.1591671854 0.5934029818 4282535039
-0.2938345075 -0.1585436761 0.5935370326 4282798211
-0.2939006388 -0.1579197496 0.5936706066 4287447641
-0.2939665318 -0.1572954059 0.5938037038 4288039778
-0.2940321863 -0.1566706300 0.5939363241 4289742943
-0.2940976322 -0.1560454369 0.5940685272 4290071908
-0.2941628098 -0.1554198414 0.5942002535 4291054418
-0.2937957346 -0.1545665115 0.5934587121 4291054418
-0.2938603759 -0.1539410055 0.5935893059 4291120471
-0.2939247787 -0.1533150822 0.5937193632 4291054678
-0.2939889431 -0.1526887417 0.5938490033 4292036685
-0.2940528989 -0.1520619988 0.5939781666 4292365650
-0.2945491076 -0.1516575366 0.5949805379 4292168788
-0.2946126759 -0.1510290504 0.5951089263 4292431960
-0.2946759760 -0.1504001617 0.5952367783 4291711578
-0.2947390676 -0.1497708708 0.5953642130 4291579992
-0.2948019207 -0.1491411626 0.5954911709 4291646555
-0.2948645353 -0.1485110670 0.5956176519 4291449176
-0.2949268818 -0.1478805691 0.5957435966 4290923094
-0.2949890196 -0.1472496688 0.5958691239 4290857301
-0.2950509191 -0.1466183662 0.5959941149 4290465361
-0.2955459058 -0.1462010443 0.5969940424 4290531154
-0.2956074178 -0.1455680281 0.5971182585 4290070352
-0.2961021960 -0.1451471299 0.5981177092 4292307314
-0.2965969145 -0.1447239816 0.5991170406 4292660690
-0.2970916033 -0.1442985684 0.6001162529 4294371308
-0.3026635349 -0.1429292262 0.6113713980 4293322472
-0.3031582236 -0.1424824446 0.6123706698 4292795613
-0.3036528230 -0.1420334131 0.6133697629 4292071890
-0.3041473627 -0.1415821165 0.6143686771 4291150788
-0.3046418130 -0.1411285698 0.6153674722 4290295479
-0.3047015071 -0.1404723674 0.6154880524 4289900207
-0.3051956892 -0.1400152445 0.6164862514 4289044898
-0.3061246276 -0.1397543699 0.6183627248 4288387482
-0.3061837852 -0.1390942037 0.6184822321 4288519068
-0.3062427044 -0.1384336650 0.6186012626 4288585372
-0.3067364693 -0.1379684359 0.6195986271 4288585372
-0.3072301149 -0.1375009567 0.6205958128 4288585885
-0.3068531752 -0.1366435736 0.6198343635 4288783264
-0.3069111407 -0.1359805763 0.6199514866 4289374890
-0.3065334558 -0.1351252645 0.6191884875 4289374890
-0.3065907955 -0.1344624609 0.6193043590 4289703855
-0.3062123358 -0.1336092353 0.6185398698 4289638062
-0.3062690794 -0.1329466254 0.6186545491 4289638062
-0.3058898449 -0.1320954859 0.6178885102 4289045925
-0.3059460223 -0.1314330995 0.6180019379 4288519581
-0.3060019016 -0.1307703406 0.6181148291 4288256409
-0.3056215644 -0.1299218833 0.6173465252 4288190616
-0.3061129153 -0.1294437349 0.6183390617 4288453788
-0.3061680198 -0.1287799031 0.6184504032 4288585887
-0.3062228858 -0.1281156987 0.6185611486 4288454301
-0.3067137599 -0.1276327074 0.6195527315 4288256668
-0.3063317537 -0.1267862469 0.6187811494 4288125082
-0.3063858151 -0.1261209846 0.6188903451 4288256668
-0.3064396083 -0.1254553646 0.6189989448 4288519840
-0.3060565293 -0.1246116459 0.6182251573 4288519840
-0.3056730330 -0.1237694696 0.6174504757 4288585633
-0.3057258725 -0.1231047139 0.6175572276 4288717219
-0.3062152565 -0.1226145253 0.6185457706 4288980391
-0.3058307469 -0.1217741668 0.6177690625 4289309610
-0.3058827817 -0.1211083829 0.6178741455 4289375403
-0.3059345484 -0.1204422638 0.6179787517 4289112231
-0.3059860468 -0.1197758019 0.6180827618 4288717473
-0.3060372770 -0.1191090122 0.6181862354 4288980645
-0.3065254986 -0.1186110824 0.6191724539 4289046438
-0.3065762520 -0.1179426685 0.6192749739 4289309610
-0.3066267371 -0.1172739193 0.6193770170 4289572782
-0.3066769838 -0.1166048422 0.6194784641 4289770161
-0.3067269325 -0.1159354374 0.6195793748 4289835954
-0.3067766130 -0.1152657121 0.6196796894 4289967540
-0.3072637022 -0.1147591248 0.6206636429 4290033333
-0.3077507019 -0.1142503098 0.6216472983 4289704368
-0.3077996969 -0.1135777012 0.6217463017 4289967540
-0.3074105084 -0.1127441600 0.6209601760 4290428091
-0.3074589074 -0.1120718643 0.6210579276 4291086021
-0.3075070083 -0.1113992557 0.6211550832 4291941330
-0.3079929650 -0.1108840629 0.6221367121 4292599260
-0.3080405891 -0.1102098599 0.6222329140 4293125604
-0.3080879450 -0.1095353514 0.6223285794 4293520362
-0.3102569878 -0.1040396392 0.6267099380 4293388522
-0.3107407093 -0.1035044491 0.6276870370 4293256936
-0.3107853234 -0.1028217971 0.6277771592 4293191143
-0.3108296394 -0.1021388620 0.6278666854 4293191143
-0.3113127649 -0.1015989259 0.6288425922 4293256936
-0.3117957413 -0.1010567695 0.6298182011 4293388522
-0.3118393421 -0.1003710330 0.6299062371 4293454315
-0.3123219013 -0.0998254046 0.6308810711 4293520108
-0.2992691398 -0.2210780531 0.6058741212 4292796652
-0.2993571460 -0.2204696983 0.6060523391 4291663264
-0.2994449735 -0.2198608071 0.6062300801 4287452512
-0.2986900210 -0.2186346352 0.6047016978 4289411133
-0.2979344130 -0.2174113691 0.6031719446 4289740098
-0.2967565656 -0.2158843577 0.6007874012 4291248450
-0.2951561511 -0.2140561640 0.5975473523 4291182657
-0.2931327820 -0.2119293958 0.5934510231 4291246389
-0.2911080122 -0.2098107189 0.5893518329 4291443768
-0.2899258733 -0.2083065510 0.5869585872 4291380287
-0.2891649604 -0.2071094066 0.5854181051 4291972424
-0.2888256311 -0.2062166780 0.5847311020 4291906631
-0.2884858549 -0.2053251714 0.5840432048 4292038217
-0.2881456614 -0.2044349015 0.5833544731 4291971909
-0.2882276475 -0.2038447410 0.5835204720 4291642944
-0.2883094549 -0.2032540739 0.5836861134 4291642176
-0.2888139188 -0.2029600590 0.5847073793 4291642176
-0.2884724736 -0.2020712346 0.5840161443 4291771460
-0.2885536849 -0.2014790624 0.5841805935 4291508288
-0.2886347175 -0.2008863986 0.5843446255 4290984247
-0.2887155712 -0.2002932280 0.5845082998 4290918454
-0.2887962162 -0.1996995658 0.5846715569 4290525238
-0.2893002331 -0.1993973404 0.5856919289 4290327859
-0.2893806100 -0.1988018155 0.5858546495 4290065203
-0.2894607782 -0.1982057840 0.5860170126 4289999410
-0.2895407677 -0.1976092756 0.5861788988 4290129456
-0.2900446057 -0.1973007023 0.5871989131 4290063663
-0.2901242971 -0.1967023313 0.5873602629 4290194479
-0.2906280756 -0.1963901520 0.5883801579 4290128686
-0.2907074988 -0.1957899034 0.5885409713 4289932847
-0.2916357219 -0.1957590729 0.5904201865 4289998640
-0.2908657193 -0.1945879459 0.5888613462 4289932849
-0.2913692892 -0.1942694187 0.5898807645 4289867056
-0.2910231650 -0.1933840215 0.5891800523 4289997872
-0.2915265560 -0.1930627674 0.5901991725 4289997872
-0.2916048765 -0.1924587041 0.5903577209 4290129204
-0.2916829884 -0.1918541640 0.5905159116 4289997618
-0.2917609215 -0.1912491322 0.5906736255 4289801265
-0.2918386161 -0.1906436235 0.5908309817 4289867058
-0.2919161320 -0.1900376230 0.5909878612 4290064176
-0.2919934392 -0.1894311458 0.5911443830 4289998383
-0.2920705378 -0.1888241768 0.5913004875 4289735986
-0.2921474278 -0.1882167459 0.5914561152 4289735986
-0.2922241092 -0.1876088232 0.5916113853 4288817969
-0.2923005819 -0.1870004237 0.5917661786 4287962660
-0.2923768461 -0.1863915473 0.5919205546 4281414763
-0.2924529016 -0.1857821941 0.5920745730 4281348970
-0.2925287485 -0.1851723641 0.5922281146 4281282662
-0.2926043868 -0.1845620722 0.5923812389 4281216869
-0.2926798165 -0.1839512885 0.5925339460 4281020773
-0.2923282683 -0.1830727905 0.5918222070 4280954980
-0.2919762731 -0.1821956038 0.5911096334 4281020773
-0.2920508683 -0.1815851927 0.5912606120 4280954980
-0.2921252251 -0.1809743345 0.5914111733 4281020773
-0.2917721570 -0.1800993085 0.5906963944 4281020773
-0.2909913957 -0.1789628118 0.5891157389 4280954980
-0.2906373739 -0.1780913472 0.5883989930 4280954980
-0.2902829349 -0.1772211939 0.5876814127 4280954980
-0.2903556824 -0.1766124964 0.5878286958 4280954980
-0.2904282212 -0.1760033369 0.5879755616 4280955237
-0.2905005515 -0.1753937155 0.5881220102 4280955237
-0.2905726433 -0.1747836471 0.5882679820 4280955237
-0.2906445563 -0.1741731167 0.5884135365 4280889444
-0.2907162309 -0.1735621393 0.5885586143 4280889444
-0.2907876670 -0.1729507148 0.5887032747 4280889444
-0.2908589244 -0.1723388284 0.5888475180 4280823651
-0.2909299433 -0.1717264950 0.5889913440 4280757858
-0.2910007536 -0.1711137295 0.5891346931 4280495456
-0.2910713255 -0.1705005020 0.5892775655 4280495456
-0.2911417186 -0.1698868275 0.5894200206 4280561249
-0.2907829583 -0.1690234244 0.5886937380 4280627042
-0.2908527851 -0.1684097648 0.5888351202 4280692835
-0.2909224033 -0.1677956730 0.5889760256 4280692835
-0.2909917831 -0.1671811491 0.5891165137 4280692835
-0.2910609245 -0.1665661782 0.5892565250 4280627042
