VERSION 0.7
FIELDS x y z rgba
SIZE 4 4 4 4
TYPE F F F U
COUNT 1 1 1 1
WIDTH 920
HEIGHT 1
VIEWPOINT 0.0 0.0 0.0 1.0 0.0 0.0 0.0
POINTS 920
DATA ascii
-0.2717308998 -0.1579137594 0.5815036893 4291547350
-0.2717942297 -0.1573043168 0.5816392899 4291415251
-0.2722686529 -0.1569315195 0.5826545358 4291283665
-0.2723316550 -0.1563203186 0.5827893615 4291151052
-0.2723944485 -0.1557086855 0.5829237103 4290756294
-0.2724570036 -0.1550966352 0.5830576420 4290229435
-0.2725193799 -0.1544841677 0.5831910968 4289374126
-0.2725815177 -0.1538712829 0.5833240747 4288716196
-0.2726434171 -0.1532579660 0.5834565759 4287202957
-0.2722931802 -0.1524136662 0.5827070475 4286611083
-0.2719425261 -0.1515707970 0.5819566846 4285295223
-0.2720036209 -0.1509580910 0.5820873380 4282926683
-0.2716522515 -0.1501171887 0.5813354254 4281479237
-0.2717127800 -0.1495046020 0.5814650059 4281611342
-0.2713606954 -0.1486656517 0.5807115436 4281874514
-0.2710082233 -0.1478281766 0.5799572468 4282008169
-0.2706553340 -0.1469921470 0.5792020559 4282337134
-0.2703020573 -0.1461575776 0.5784459710 4282402675
-0.2699483633 -0.1453244835 0.5776891112 4282402675
-0.2691814005 -0.1442715675 0.5760478377 4282336631
-0.2688268125 -0.1434423327 0.5752890110 4282139252
-0.2684718370 -0.1426145732 0.5745293498 4281942134
-0.2677033246 -0.1415698230 0.5728847384 4281613169
-0.2669342458 -0.1405284256 0.5712388754 4281415791
-0.2665778697 -0.1397069693 0.5704762936 4281415791
-0.2658077478 -0.1386713535 0.5688281655 4281284719
-0.2650370300 -0.1376390904 0.5671788454 4281350512
-0.2642657459 -0.1366102099 0.5655283332 4281482100
-0.2634938955 -0.1355846971 0.5638765693 4281547893
-0.2631351948 -0.1347744763 0.5631089807 4281547895
-0.2623623013 -0.1337547898 0.5614549518 4281613688
-0.2615888417 -0.1327385008 0.5597997308 4281678978
-0.2612287998 -0.1319346875 0.5590292811 4282007943
-0.2608684003 -0.1311323941 0.5582579970 4282401680
-0.2600934207 -0.1301244050 0.5565995574 4282533266
-0.2601463795 -0.1295323521 0.5567128658 4282337681
-0.2597847879 -0.1287346184 0.5559390783 4282469267
-0.2598372102 -0.1281427890 0.5560513139 4282600339
-0.2594749331 -0.1273471713 0.5552760363 4282666132
-0.2595268488 -0.1267555803 0.5553870797 4282142869
-0.2595785558 -0.1261636317 0.5554977059 4282340248
-0.2604595125 -0.1259725094 0.5573829412 4283389080
-0.2609257400 -0.1255776137 0.5583807230 4283323287
-0.2618068159 -0.1253791600 0.5602662563 4283911815
-0.2626880109 -0.1251765639 0.5621519685 4283780229
-0.2635692954 -0.1249698326 0.5640379190 4283055217
-0.2640355229 -0.1245630980 0.5650356412 4282002529
-0.2649169266 -0.1243490130 0.5669218302 4281606730
-0.2657983899 -0.1241307855 0.5688081980 4281146179
-0.2666799724 -0.1239084080 0.5706947446 4280427080
-0.2679770887 -0.1238739267 0.5734705925 4280558666
-0.2684433758 -0.1234511882 0.5744684339 4280624208
-0.2697408199 -0.1234064922 0.5772449374 4280755794
-0.2702070773 -0.1229773462 0.5782427788 4280690767
-0.2710890472 -0.1227341816 0.5801302195 4280822353
-0.2715552449 -0.1222995743 0.5811278224 4280823378
-0.2720213532 -0.1218627095 0.5821253061 4280823378
-0.2724873722 -0.1214235947 0.5831226110 4281019732
-0.2729533017 -0.1209822148 0.5841196775 4281019732
-0.2730029821 -0.1203551218 0.5842260122 4281085784
-0.2730524242 -0.1197276860 0.5843318105 4281283163
-0.2731016278 -0.1190999076 0.5844370723 4281415003
-0.2731505930 -0.1184717864 0.5845418572 4281480796
-0.2731992900 -0.1178433374 0.5846461058 4281480542
-0.2736643255 -0.1173932254 0.5856412649 4281480542
-0.2737126350 -0.1167631447 0.5857446194 4281415262
-0.2737606764 -0.1161327288 0.5858474970 4281415262
-0.2738085091 -0.1155019850 0.5859498382 4281415262
-0.2742729187 -0.1150457487 0.5869436264 4281415262
-0.2743203044 -0.1144133881 0.5870450735 4281415262
-0.2743674815 -0.1137806922 0.5871460438 4281415262
-0.2739973366 -0.1129757166 0.5863539577 4281481055
-0.2744610608 -0.1125143319 0.5873462558 4281415262
-0.2745074928 -0.1118806750 0.5874456167 4281415262
-0.2745536566 -0.1112466902 0.5875444412 4281546848
-0.2750169039 -0.1107804850 0.5885357857 4281612639
-0.2750626504 -0.1101449057 0.5886337161 4281546846
-0.2751081586 -0.1095089987 0.5887310505 4281349469
-0.2751533985 -0.1088727862 0.5888279080 4281152090
-0.2751984298 -0.1082362533 0.5889242291 4281283417
-0.2756608427 -0.1077626869 0.5899137855 4281349210
-0.2757054269 -0.1071245745 0.5900092125 4281349469
-0.2753319442 -0.1063247994 0.5892099738 4281349469
-0.2753759325 -0.1056870371 0.5893040895 4281152610
-0.2758376300 -0.1052083746 0.5902921557 4281021024
-0.2758812010 -0.1045690328 0.5903853774 4280889688
-0.2759245038 -0.1039293855 0.5904780626 4280889688
-0.2759675682 -0.1032894403 0.5905702114 4280889434
-0.2760103941 -0.1026491970 0.5906618237 4280757848
-0.2760529518 -0.1020086557 0.5907528996 4280692055
-0.2765135765 -0.1015214026 0.5917386413 4280823641
-0.2765556872 -0.1008793041 0.5918287635 4281020502
-0.2765975595 -0.1002369076 0.5919183493 4281349467
-0.2770576775 -0.0997448936 0.5929030180 4285345596
-0.2775176764 -0.0992506519 0.5938873887 4285740354
-0.2775588930 -0.0986054391 0.5939756036 4288358183
-0.2775998414 -0.0979599431 0.5940632820 4288358183
-0.2776405513 -0.0973141640 0.5941503644 4288358437
-0.2776809931 -0.0966681018 0.5942369699 4288424230
-0.2777211964 -0.0960217565 0.5943229198 4288620839
-0.2777611017 -0.0953751355 0.5944083929 4288620839
-0.2778007984 -0.0947282314 0.5944932699 4288685351
-0.2778401971 -0.0940810516 0.5945776701 4288685351
-0.2778793573 -0.0934336036 0.5946614146 4288750885
-0.2779182494 -0.0927858725 0.5947446823 4288750885
-0.2783761322 -0.0922768489 0.5957245231 4288685605
-0.2784145772 -0.0916276053 0.5958067775 4288751398
-0.2784527242 -0.0909780934 0.5958884358 4288620326
-0.2789100707 -0.0904643536 0.5968671441 4288686119
-0.2789477706 -0.0898133293 0.5969478488 4288490023
-0.2785656750 -0.0890279710 0.5961301923 4288424230
-0.2781832218 -0.0882443041 0.5953117013 4288882984
-0.2782200277 -0.0875944570 0.5953904986 4288882984
-0.2778368890 -0.0868132189 0.5945705175 4288882984
-0.2778730989 -0.0861638412 0.5946480632 4288948777
-0.2774892747 -0.0853850320 0.5938266516 4289014570
-0.2775249183 -0.0847361311 0.5939029455 4289080363
-0.2771404088 -0.0839597732 0.5930800438 4289080109
-0.2771754563 -0.0833113566 0.5931550860 4289080109
-0.2767902613 -0.0825374573 0.5923307538 4289145902
-0.2768247426 -0.0818895325 0.5924045444 4289145902
-0.2768589556 -0.0812413767 0.5924777985 4289211438
-0.2768929303 -0.0805929750 0.5925504565 4289211438
-0.2765063941 -0.0798230246 0.5917233229 4289211438
-0.2761195302 -0.0790548101 0.5908953547 4289343024
-0.2757322490 -0.0782883316 0.5900666714 4289343024
-0.2753446400 -0.0775235891 0.5892371535 4289211438
-0.2753770947 -0.0768779591 0.5893065929 4289080363
-0.2749888003 -0.0761157200 0.5884756446 4289343535
-0.2750206590 -0.0754706264 0.5885438323 4289409842
-0.2746316791 -0.0747108981 0.5877114534 4289475635
-0.2742423713 -0.0739529207 0.5868782401 4290327097
-0.2742733359 -0.0733091384 0.5869445801 4290590269
-0.2743040621 -0.0726651326 0.5870102644 4290722112
-0.2747552693 -0.0721313804 0.5879758596 4290787905
-0.2747854888 -0.0714859590 0.5880405307 4290394948
-0.2748154402 -0.0708403289 0.5881046653 4290789706
-0.2752660513 -0.0703019872 0.5890689492 4287977565
-0.2752955258 -0.0696549416 0.5891320705 4291925145
-0.2701188326 -0.1599260867 0.5794311762 4293126382
-0.2701827884 -0.1593199968 0.5795682669 4292797417
-0.2702465057 -0.1587134749 0.5797049999 4292468452
-0.2703100145 -0.1581065208 0.5798411965 4292271587
-0.2707835734 -0.1577381492 0.5808570385 4291876829
-0.2708467543 -0.1571294218 0.5809925795 4291612889
-0.2709096968 -0.1565202773 0.5811276436 4291218131
-0.2709724605 -0.1559107006 0.5812622309 4290756553
-0.2710349858 -0.1553007066 0.5813963413 4290098623
-0.2710973024 -0.1546902955 0.5815300345 4289243055
-0.2711593807 -0.1540794522 0.5816632509 4288124574
-0.2712212801 -0.1534681916 0.5817959309 4287927195
-0.2712829113 -0.1528565139 0.5819282532 4287006093
-0.2709332407 -0.1520137638 0.5811781287 4286347911
-0.2709943652 -0.1514021754 0.5813092589 4285887360
-0.2706439793 -0.1505613774 0.5805575848 4284900473
-0.2707045674 -0.1499498934 0.5806875825 4282795097
-0.2703534365 -0.1491110623 0.5799344182 4281216584
-0.2704135180 -0.1484996974 0.5800632238 4281150791
-0.2700616717 -0.1476628333 0.5793085098 4281481306
-0.2697094381 -0.1468274146 0.5785529613 4282007650
-0.2693568170 -0.1459934711 0.5777965188 4282402155
-0.2690037787 -0.1451609880 0.5770392418 4282533741
-0.2686503232 -0.1443299800 0.5762810707 4282402677
-0.2682964802 -0.1435004324 0.5755220652 4282402677
-0.2679422498 -0.1426723748 0.5747621655 4282204793
-0.2671753168 -0.1416272223 0.5731170177 4281941621
-0.2668201923 -0.1408030391 0.5723552108 4281613170
-0.2660521865 -0.1397636682 0.5707077384 4281547377
-0.2652836144 -0.1387276500 0.5690590739 4281284721
-0.2645144463 -0.1376949847 0.5674092174 4281284721
-0.2637447417 -0.1366657168 0.5657580495 4281350512
-0.2629744411 -0.1356398016 0.5641057491 4281416305
-0.2626165152 -0.1348292828 0.5633379221 4281351025
-0.2618452013 -0.1338092089 0.5616833568 4281351025
-0.2610732913 -0.1327925175 0.5600275993 4281481849
-0.2607140243 -0.1319883913 0.5592569113 4281745021
-0.2603543401 -0.1311857998 0.5584853888 4282072969
-0.2595809400 -0.1301774234 0.5568263531 4282270348
-0.2592204213 -0.1293788105 0.5560529828 4282009485
-0.2588594854 -0.1285817176 0.5552787781 4282141071
-0.2584981918 -0.1277861595 0.5545037389 4282337681
-0.2585501671 -0.1271956414 0.5546152592 4282469267
-0.2586019635 -0.1266047657 0.5547263026 4282602133
-0.2586534917 -0.1260135323 0.5548368692 4282470547
-0.2587048113 -0.1254219562 0.5549469590 4282733470
-0.2595839500 -0.1252294779 0.5568327904 4282865056
-0.2596350014 -0.1246353090 0.5569422841 4283126683
-0.2605141699 -0.1244364455 0.5588281751 4283192476
-0.2609791756 -0.1240365580 0.5598256588 4282929817
-0.2618584633 -0.1238303557 0.5617118478 4283719333
-0.2623234391 -0.1234250218 0.5627092123 4286017953
-0.2632028162 -0.1232114732 0.5645956397 4285820574
-0.2644968629 -0.1231868640 0.5673714876 4285229967
-0.2653765082 -0.1229640618 0.5692583919 4284835209
-0.2670857012 -0.1231194660 0.5729247928 4284637579
-0.2675508857 -0.1226962283 0.5739226341 4284308614
-0.2684308589 -0.1224600077 0.5758102536 4283586171
-0.2693108916 -0.1222196296 0.5776980519 4283322999
-0.2701910138 -0.1219750866 0.5795859694 4282929003
-0.2706560791 -0.1215399727 0.5805835724 4282797417
-0.2711210847 -0.1211026013 0.5815810561 4282664808
-0.2715860009 -0.1206629723 0.5825783014 4282401636
-0.2716354728 -0.1200375482 0.5826844573 4282138977
-0.2716847062 -0.1194117889 0.5827900767 4282007391
-0.2721491754 -0.1189673096 0.5837864280 4281744476
-0.2721980214 -0.1183399111 0.5838911533 4281547097
-0.2722465992 -0.1177121773 0.5839954019 4281349210
-0.2727106810 -0.1172628552 0.5849908590 4281283417
-0.2727588415 -0.1166334897 0.5850942135 4281151830
-0.2732226551 -0.1161806285 0.5860891342 4281086037
-0.2732703984 -0.1155496389 0.5861915946 4281086037
-0.2733179331 -0.1149183214 0.5862935185 4281086037
-0.2737812996 -0.1144606248 0.5872874856 4280954451
-0.2738283873 -0.1138276905 0.5873885155 4280954451
-0.2734590471 -0.1130223945 0.5865961909 4280625486
-0.2739218771 -0.1125608385 0.5875890255 4280362314
-0.2739682496 -0.1119269282 0.5876885056 4280231241
-0.2744308114 -0.1114618331 0.5886807442 4280494413
-0.2744767368 -0.1108263209 0.5887792706 4280823378
-0.2745224535 -0.1101904884 0.5888773203 4281086550
-0.2745679021 -0.1095543355 0.5889747739 4281086550
-0.2746130824 -0.1089178696 0.5890717506 4280954964
-0.2746580541 -0.1082810909 0.5891681910 4280954452
-0.2747027576 -0.1076439992 0.5892640948 4281151831
-0.2747472227 -0.1070066020 0.5893594623 4281283417
-0.2747914195 -0.1063688919 0.5894542933 4281349210
-0.2748353779 -0.1057308763 0.5895485878 4281218403
-0.2748790681 -0.1050925553 0.5896422863 4281152610
-0.2749225199 -0.1044539288 0.5897355080 4281218136
-0.2749657333 -0.1038150042 0.5898281932 4281218136
-0.2750086784 -0.1031757742 0.5899203420 4281218653
-0.2754687667 -0.1026918441 0.5909072161 4281021274
-0.2755112648 -0.1020510495 0.5909984112 4281021272
-0.2759710252 -0.1015636101 0.5919846296 4281152858
-0.2760131061 -0.1009212509 0.5920748711 4281479764
-0.2764725387 -0.1004303098 0.5930604339 4281677143
-0.2765141428 -0.0997864008 0.5931497216 4285149247
-0.2769732773 -0.0992919579 0.5941345692 4285609798
-0.2770144641 -0.0986464918 0.5942229033 4288293416
-0.2770553827 -0.0980007425 0.5943107009 4288293416
-0.2770960331 -0.0973547027 0.5943979025 4288292903
-0.2771364152 -0.0967083871 0.5944845676 4288292903
-0.2771765590 -0.0960617810 0.5945706964 4288555816
-0.2772164643 -0.0954148993 0.5946562290 4288555816
-0.2772561014 -0.0947677419 0.5947412252 4288620328
-0.2772954702 -0.0941203013 0.5948256850 4288554535
-0.2773345709 -0.0934725925 0.5949096084 4288619812
-0.2773734331 -0.0928246081 0.5949929357 4288685605
-0.2778304219 -0.0923153758 0.5959732533 4288620326
-0.2782872915 -0.0918039232 0.5969532728 4288686119
-0.2783254981 -0.0911531746 0.5970351696 4288555046
-0.2783634067 -0.0905021578 0.5971165299 4288555046
-0.2784010768 -0.0898508728 0.5971973538 4288490023
-0.2780197561 -0.0890651867 0.5963793993 4288490023
-0.2780568600 -0.0884143636 0.5964589715 4288620328
-0.2776748538 -0.0876310989 0.5956395268 4288686121
-0.2777113616 -0.0869807303 0.5957178473 4288751912
-0.2773286700 -0.0861999020 0.5948969722 4288751912
-0.2769456208 -0.0854207799 0.5940752625 4288817705
-0.2769812346 -0.0847716182 0.5941516161 4288883498
-0.2770165801 -0.0841222033 0.5942274332 4288949293
-0.2766325176 -0.0833462626 0.5934036374 4288949293
-0.2762480974 -0.0825720429 0.5925790071 4289015086
-0.2767017782 -0.0820481777 0.5935522318 4288949293
-0.2763167322 -0.0812754333 0.5927262306 4289080109
-0.2763506472 -0.0806267709 0.5927990079 4289080109
-0.2759649158 -0.0798565075 0.5919715166 4289145902
-0.2755787969 -0.0790879801 0.5911433101 4289343281
-0.2751923501 -0.0783211812 0.5903142691 4289343281
-0.2752250433 -0.0776745379 0.5903844833 4289145902
-0.2748379111 -0.0769102424 0.5895540118 4289080109
-0.2744503915 -0.0761476904 0.5887227654 4289343281
-0.2744822204 -0.0755023286 0.5887910724 4289409842
-0.2740940452 -0.0747422874 0.5879583955 4289475635
-0.2741253078 -0.0740974694 0.5880253911 4290392889
-0.2741563022 -0.0734524354 0.5880919099 4290656061
-0.2741870284 -0.0728071854 0.5881577730 4290722881
-0.2742174864 -0.0721617118 0.5882231593 4290854467
-0.2742476761 -0.0715160295 0.5882878900 4290592838
-0.2742775977 -0.0708701313 0.5883521438 4290724424
-0.2747273445 -0.0703315660 0.5893168449 4288306530
-0.2751769125 -0.0697908178 0.5902811885 4291464594
-0.2756263018 -0.0692478716 0.5912451744 4293584361
-0.2690183222 -0.1570840925 0.5784485340 4292864491
-0.2694906890 -0.1567160934 0.5794642568 4292534761
-0.2695533931 -0.1561085731 0.5795990825 4291942624
-0.2696158588 -0.1555006355 0.5797334313 4291217621
-0.2696781158 -0.1548922658 0.5798673034 4290099140
-0.2697401643 -0.1542834938 0.5800006986 4288848556
-0.2698020041 -0.1536742896 0.5801336765 4287335317
-0.2698636353 -0.1530646682 0.5802661777 4286216577
-0.2699250281 -0.1524546295 0.5803982019 4286084991
-0.2699862123 -0.1518441737 0.5805297494 4286216838
-0.2700471878 -0.1512333006 0.5806608200 4285822080
-0.2696974277 -0.1503931135 0.5799087882 4285230208
-0.2697578669 -0.1497823447 0.5800387263 4284440692
-0.2694073915 -0.1489441246 0.5792851448 4283190885
-0.2690565288 -0.1481073499 0.5785307288 4281809232
-0.2691161335 -0.1474972367 0.5786588788 4281546838
-0.2687645257 -0.1466624439 0.5779029131 4281612631
-0.2684125602 -0.1458291262 0.5771460533 4282007137
-0.2684713006 -0.1452196538 0.5772724152 4282336102
-0.2681186199 -0.1443883330 0.5765140057 4282467950
-0.2677655220 -0.1435584724 0.5757548213 4282533743
-0.2670006454 -0.1425105035 0.5741100907 4282270836
-0.2666466534 -0.1416845471 0.5733489990 4282205043
-0.2662922740 -0.1408600658 0.5725870132 4282007927
-0.2655258477 -0.1398202777 0.5709390044 4281744755
-0.2651705742 -0.1389997005 0.5701751113 4281547377
-0.2639912367 -0.1377508193 0.5676392913 4281415791
-0.2632231116 -0.1367211491 0.5659875870 4281218926
-0.2624543905 -0.1356948465 0.5643346310 4281284719
-0.2620972097 -0.1348840147 0.5635666251 4281285487
-0.2613274455 -0.1338635534 0.5619114637 4281153901
-0.2605571151 -0.1328464746 0.5602551103 4281154161
-0.2597862184 -0.1318327934 0.5585975647 4281219954
-0.2598396838 -0.1312391460 0.5587124825 4281613696
-0.2590678334 -0.1302303821 0.5570528507 4281876868
-0.2582954466 -0.1292250305 0.5553920865 4281485192
-0.2579352260 -0.1284285784 0.5546174645 4281616778
-0.2575745881 -0.1276336610 0.5538420081 4281944468
-0.2576264143 -0.1270438731 0.5539534688 4282010261
-0.2572651207 -0.1262510717 0.5531765819 4282666643
-0.2573164403 -0.1256615222 0.5532869101 4282929815
-0.2573675215 -0.1250716150 0.5533968210 4282732703
-0.2578316033 -0.1246811673 0.5543946624 4282930082
-0.2578823566 -0.1240896136 0.5545037985 4283519904
-0.2583462298 -0.1236956194 0.5555012226 4283190939
-0.2583966255 -0.1231024191 0.5556095839 4282995098
-0.2592737973 -0.1229009032 0.5574957132 4284837302
-0.2597374916 -0.1225001737 0.5584927201 4288455128
-0.2606147826 -0.1222913116 0.5603791475 4290099953
-0.2619059384 -0.1222714633 0.5631553531 4291282410
-0.2636111677 -0.1224377751 0.5668219924 4291085031
-0.2644889653 -0.1222136021 0.5687094331 4291019500
-0.2653668523 -0.1219852790 0.5705971122 4290887914
-0.2666588724 -0.1219421476 0.5733752251 4290363361
-0.2675369978 -0.1217045486 0.5752633810 4290165982
-0.2684151828 -0.1214627847 0.5771517158 4290100692
-0.2692934573 -0.1212168634 0.5790401697 4289969106
-0.2697574198 -0.1207812428 0.5800377727 4289902291
-0.2706357241 -0.1205279455 0.5819264054 4289639119
-0.2706850767 -0.1199032366 0.5820325017 4289310665
-0.2707341909 -0.1192781925 0.5821380615 4289047493
-0.2711977065 -0.1188345104 0.5831347704 4288522178
-0.2712464333 -0.1182078272 0.5832394958 4288324799
-0.2712948918 -0.1175808087 0.5833436847 4288257213
-0.2717579901 -0.1171322837 0.5843394995 4287994041
-0.2718060315 -0.1165036336 0.5844427943 4287599796
-0.2722688913 -0.1160515621 0.5854380131 4287205038
-0.2723165452 -0.1154212952 0.5855404735 4286810280
-0.2723639309 -0.1147906929 0.5856423974 4286415522
-0.2724110782 -0.1141597629 0.5857437849 4286152350
-0.2728733122 -0.1137015671 0.5867376924 4286020764
-0.2725046575 -0.1128969193 0.5859449506 4285626006
-0.2729665637 -0.1124361530 0.5869381428 4285165455
-0.2730127871 -0.1118029580 0.5870375633 4284573829
-0.2734743953 -0.1113386527 0.5880301595 4284244864
-0.2739359140 -0.1108720973 0.5890225172 4283915899
-0.2739815712 -0.1102360189 0.5891206264 4283521141
-0.2740269601 -0.1095996201 0.5892182589 4283191665
-0.2740721107 -0.1089629084 0.5893153548 4282862700
-0.2741170228 -0.1083258763 0.5894118547 4282401897
-0.2741616666 -0.1076885387 0.5895078778 4282270311
-0.2742060721 -0.1070508882 0.5896033645 4282072930
-0.2742502093 -0.1064129323 0.5896983147 4281875551
-0.2742941380 -0.1057746634 0.5897927284 4281415778
-0.2743377686 -0.1051360890 0.5898866057 4281021020
-0.2743811905 -0.1044972166 0.5899798870 4280822602
-0.2744243443 -0.1038580388 0.5900726914 4280559430
-0.2744672298 -0.1032185555 0.5901649594 4280493898
-0.2749264538 -0.1027344391 0.5911523104 4280362312
-0.2749688923 -0.1020933911 0.5912436247 4280559432
-0.2758444846 -0.1017594784 0.5931262970 4280954190
-0.2758865654 -0.1011158973 0.5932168365 4281478986
-0.2759283781 -0.1004720181 0.5933067203 4281742158
-0.2759699523 -0.0998278558 0.5933961272 4284822335
-0.2760112882 -0.0991833955 0.5934849977 4285414472
-0.2760523558 -0.0985386521 0.5935732722 4288031274
-0.2765102088 -0.0980414897 0.5945578218 4288097067
-0.2765508294 -0.0973951966 0.5946451426 4288096552
-0.2765911818 -0.0967486203 0.5947318673 4288030759
-0.2766312659 -0.0961017609 0.5948181152 4288292904
-0.2766711116 -0.0954546183 0.5949037671 4288292904
-0.2767106891 -0.0948072001 0.5949888825 4288423207
-0.2767500281 -0.0941595063 0.5950734615 4288423207
-0.2767890990 -0.0935115367 0.5951574445 4288489000
-0.2768279016 -0.0928632915 0.5952408910 4288489000
-0.2777016461 -0.0924929529 0.5971196294 4288555048
-0.2777400613 -0.0918422043 0.5972021818 4288555048
-0.2777781785 -0.0911911950 0.5972841978 4288489255
-0.2778160870 -0.0905399173 0.5973656774 4288489255
-0.2778536975 -0.0898883715 0.5974465609 4288423976
-0.2774731815 -0.0891023725 0.5966283679 4288423976
-0.2775102258 -0.0884512812 0.5967079997 4288489255
-0.2775470018 -0.0877999291 0.5967870951 4288555048
-0.2767474055 -0.0868858248 0.5950678587 4288620841
-0.2767835557 -0.0862359256 0.5951455235 4288620841
-0.2764012814 -0.0854564831 0.5943235755 4288686634
-0.2764368653 -0.0848070607 0.5944000483 4288752427
-0.2764721513 -0.0841573849 0.5944759846 4288752427
-0.2769255042 -0.0836338028 0.5954508185 4288818220
-0.2761236131 -0.0827319473 0.5937265158 4288949806
-0.2761580646 -0.0820825174 0.5938006043 4288818220
-0.2757737935 -0.0813094601 0.5929743648 4288817705
-0.2758076787 -0.0806605369 0.5930472016 4288883498
-0.2754227221 -0.0798899531 0.5922194719 4289015084
-0.2750374079 -0.0791211128 0.5913909674 4289146670
-0.2750703990 -0.0784734488 0.5914618969 4289146672
-0.2746844292 -0.0777070969 0.5906319022 4289015086
-0.2747168243 -0.0770599544 0.5907016397 4289079852
-0.2743301690 -0.0762960985 0.5898702145 4289277231
-0.2739431262 -0.0755339935 0.5890380144 4289212463
-0.2739746571 -0.0748881549 0.5891057849 4289344049
-0.2740059197 -0.0742420852 0.5891730189 4290196023
-0.2740369439 -0.0735957995 0.5892397165 4290459195
-0.2736486197 -0.0728377476 0.5884047151 4290592062
-0.2736790478 -0.0721920133 0.5884701610 4290855234
-0.2737092078 -0.0715460703 0.5885350108 4290526785
-0.2737390995 -0.0708999038 0.5885992646 4290921543
-0.2741879821 -0.0703611225 0.5895644426 4288832617
-0.2746366858 -0.0698201433 0.5905292630 4292122267
-0.2750852108 -0.0692769811 0.5914937258 4293650154
-0.2682618797 -0.1550901085 0.5782029033 4292599787
-0.2683238983 -0.1544833779 0.5783365369 4291810271
-0.2683856785 -0.1538762301 0.5784697533 4290691530
-0.2684472501 -0.1532686651 0.5786024332 4289309877
-0.2685086131 -0.1526606828 0.5787346959 4288059038
-0.2685697377 -0.1520522833 0.5788664818 4286677385
-0.2686306536 -0.1514434665 0.5789977908 4285954434
-0.2686913610 -0.1508342326 0.5791286230 4285625469
-0.2687518597 -0.1502245963 0.5792590380 4285164926
-0.2684023678 -0.1493864805 0.5785056949 4284506996
-0.2684623301 -0.1487769485 0.5786349177 4283980401
-0.2681121230 -0.1479407996 0.5778800845 4283190885
-0.2681715488 -0.1473313868 0.5780082345 4282336096
-0.2678206265 -0.1464972198 0.5772518516 4281678166
-0.2674692869 -0.1456645131 0.5764945745 4281677911
-0.2675278783 -0.1450557560 0.5766208768 4282006876
-0.2671758533 -0.1442250609 0.5758621097 4282270311
-0.2668234110 -0.1433958262 0.5751025081 4282599276
-0.2664705813 -0.1425680816 0.5743420124 4282599538
-0.2661173642 -0.1417418122 0.5735806823 4282731124
-0.2657637298 -0.1409170181 0.5728185177 4282336631
-0.2654097080 -0.1400936991 0.5720554590 4282073459
-0.2646443546 -0.1390559524 0.5704058409 4281744755
-0.2638784349 -0.1380215734 0.5687549710 4281481583
-0.2631119490 -0.1369905621 0.5671029091 4281153133
-0.2623448670 -0.1359629333 0.5654495955 4281284719
-0.2615772486 -0.1349386871 0.5637950897 4281219694
-0.2612204254 -0.1341290623 0.5630260110 4280956522
-0.2604517639 -0.1331106573 0.5613692403 4281152359
-0.2592709959 -0.1318863034 0.5588242412 4281283945
-0.2589127421 -0.1310840249 0.5580521226 4281678201
-0.2585541308 -0.1302832812 0.5572791100 4282072959
-0.2577833235 -0.1292775422 0.5556177497 4281353606
-0.2574238181 -0.1284807920 0.5548428893 4281485192
-0.2566519976 -0.1274809390 0.5531793237 4281682071
-0.2562916279 -0.1266881973 0.5524026752 4281682071
-0.2563430369 -0.1260997206 0.5525134206 4282206864
-0.2563942373 -0.1255109012 0.5526237488 4282601622
-0.2564451993 -0.1249217167 0.5527336001 4282535838
-0.2564959228 -0.1243321896 0.5528429747 4282667424
-0.2565464377 -0.1237423122 0.5529518723 4283059350
-0.2565967441 -0.1231520846 0.5530602932 4283519901
-0.2566468418 -0.1225615069 0.5531682372 4283258523
-0.2571093738 -0.1221666858 0.5541651845 4283126937
-0.2575718760 -0.1217696145 0.5551620126 4284508580
-0.2580343187 -0.1213703007 0.5561587214 4288258781
-0.2597354650 -0.1215484664 0.5598253608 4291150826
-0.2606110275 -0.1213340908 0.5617125034 4291413998
-0.2618997395 -0.1213069037 0.5644901991 4291676917
-0.2627755404 -0.1210832670 0.5663778186 4291676917
-0.2640646696 -0.1210449040 0.5691563487 4291415536
-0.2649407089 -0.1208119988 0.5710445642 4291547122
-0.2662302256 -0.1207624525 0.5738239288 4291481830
-0.2671064734 -0.1205202714 0.5757126212 4291481830
-0.2679828107 -0.1202739179 0.5776014328 4291547114
-0.2688592076 -0.1200234070 0.5794903636 4291547114
-0.2689082623 -0.1194013283 0.5795961022 4291481573
-0.2689570785 -0.1187789217 0.5797013640 4291415780
-0.2694195211 -0.1183379441 0.5806980729 4291154409
-0.2698818743 -0.1178947240 0.5816946030 4291220202
-0.2699301243 -0.1172693819 0.5817986131 4291415530
-0.2703922093 -0.1168226078 0.5827946067 4291481323
-0.2704400718 -0.1161956415 0.5828977227 4291481834
-0.2709018886 -0.1157453209 0.5838931203 4291481834
-0.2709493339 -0.1151167229 0.5839954019 4291350248
-0.2709965408 -0.1144878045 0.5840970874 4291284455
-0.2714579403 -0.1140326485 0.5850915909 4291284201
-0.2715047002 -0.1134021133 0.5851923823 4291284201
-0.2719658315 -0.1129434183 0.5861862898 4291086822
-0.2724268436 -0.1124824733 0.5871799588 4290955236
-0.2724730372 -0.1118490398 0.5872794986 4290889697
-0.2729337811 -0.1113845557 0.5882725716 4290823904
-0.2729795575 -0.1107495129 0.5883712173 4290560989
-0.2730250657 -0.1101141497 0.5884693265 4290297817
-0.2730703652 -0.1094784737 0.5885669589 4290034388
-0.2731153965 -0.1088424772 0.5886639953 4289771216
-0.2731601596 -0.1082061678 0.5887604952 4289573586
-0.2732047141 -0.1075695455 0.5888565183 4289244621
-0.2732489705 -0.1069326177 0.5889519453 4288849860
-0.2732930183 -0.1062953770 0.5890468955 4288520895
-0.2733367980 -0.1056578308 0.5891412497 4287863744
-0.2733803391 -0.1050199717 0.5892350674 4287205814
-0.2734236419 -0.1043818146 0.5893284082 4286875295
-0.2738822699 -0.1039010212 0.5903169513 4286283158
-0.2739251256 -0.1032612920 0.5904092789 4285690769
-0.2739677131 -0.1026212648 0.5905011296 4284703874
-0.2744258642 -0.1021356881 0.5914885998 4283650927
-0.2748838961 -0.1016478688 0.5924757719 4282795618
-0.2749258578 -0.1010050029 0.5925662518 4282136908
-0.2753835618 -0.1005136818 0.5935527682 4281544771
-0.2754251063 -0.0998692587 0.5936422944 4283706161
-0.2754663527 -0.0992245451 0.5937312245 4284166712
-0.2755073905 -0.0985795483 0.5938196182 4287176740
-0.2755481303 -0.0979342535 0.5939074755 4287374119
-0.2760049403 -0.0974356458 0.5948920846 4287767848
-0.2760452628 -0.0967888087 0.5949789286 4287767848
-0.2760853171 -0.0961416960 0.5950652957 4288095273
-0.2761251032 -0.0954942927 0.5951510668 4288095273
-0.2761646509 -0.0948466212 0.5952362418 4288226346
-0.2762039304 -0.0941986665 0.5953209400 4288226346
-0.2762429416 -0.0935504362 0.5954050422 4288423979
-0.2766984105 -0.0930420533 0.5963867307 4288292393
-0.2771537602 -0.0925314501 0.5973681808 4288292391
-0.2771921158 -0.0918804407 0.5974508524 4288292391
-0.2772302032 -0.0912291706 0.5975329876 4288226598
-0.2772680521 -0.0905776322 0.5976145267 4288226598
-0.2773056328 -0.0899258256 0.5976955295 4288292391
-0.2769258916 -0.0891395062 0.5968770385 4288160805
-0.2769628763 -0.0884881541 0.5969567895 4288423977
-0.2769996226 -0.0878365412 0.5970359445 4288423977
-0.2766188681 -0.0870533735 0.5962153077 4288423976
-0.2762377560 -0.0862719044 0.5953938961 4288489769
-0.2758562863 -0.0854921490 0.5945715904 4288620841
-0.2758918107 -0.0848424658 0.5946481824 4288620841
-0.2759270668 -0.0841925293 0.5947241783 4288555562
-0.2763795555 -0.0836687312 0.5956994891 4288555562
-0.2759968042 -0.0828919113 0.5948745012 4288818220
-0.2756136954 -0.0821168125 0.5940487385 4288818220
-0.2752301991 -0.0813434497 0.5932222009 4288884011
-0.2752640545 -0.0806942582 0.5932951570 4288949804
-0.2752976418 -0.0800448284 0.5933675170 4289080877
-0.2749131620 -0.0792746842 0.5925388336 4289146670
-0.2745282948 -0.0785062760 0.5917093754 4289081392
-0.2745609879 -0.0778581202 0.5917798281 4289015599
-0.2741754949 -0.0770922080 0.5909488797 4289079852
-0.2737895846 -0.0763280466 0.5901171565 4289343024
-0.2738214135 -0.0756811723 0.5901857615 4289278769
-0.2734348476 -0.0749195218 0.5893525481 4289410355
-0.2738842368 -0.0743867606 0.5903211236 4290065718
-0.2734970450 -0.0736266375 0.5894865990 4290263097
-0.2735277414 -0.0729798675 0.5895528197 4290592060
-0.2735581994 -0.0723328814 0.5896183848 4290921025
-0.2735883594 -0.0716856793 0.5896834731 4291052359
-0.2736182809 -0.0710382685 0.5897479057 4291052359
-0.2736479342 -0.0703906417 0.5898118019 4289029224
-0.2740957737 -0.0698494464 0.5907770991 4293568941
-0.2669722736 -0.1540740430 0.5768041015 4292600036
-0.2670337856 -0.1534685344 0.5769370794 4291744475
-0.2670950890 -0.1528626084 0.5770695210 4290625994
-0.2671561837 -0.1522562653 0.5772015452 4289441209
-0.2672170699 -0.1516495049 0.5773330331 4287927970
-0.2672777474 -0.1510423273 0.5774641037 4286677904
-0.2673381865 -0.1504347324 0.5775947571 4285493630
-0.2673984170 -0.1498267353 0.5777248740 4284769909
-0.2674584389 -0.1492183208 0.5778545141 4284243565
-0.2671091855 -0.1483822763 0.5770999789 4283848807
-0.2671686709 -0.1477739811 0.5772284865 4283519842
-0.2668187320 -0.1469399184 0.5764724016 4282797154
-0.2668776810 -0.1463317424 0.5765997767 4281876052
-0.2665270269 -0.1454996616 0.5758421421 4281415251
-0.2665854692 -0.1448916197 0.5759683847 4281481044
-0.2662340701 -0.1440615505 0.5752092600 4281547101
-0.2658823133 -0.1432329416 0.5744492412 4281810273
-0.2655301392 -0.1424058229 0.5736883283 4282073708
-0.2651775777 -0.1415801793 0.5729266405 4282336880
-0.2652345598 -0.1409738958 0.5730497241 4282534521
-0.2648812830 -0.1401502788 0.5722864866 4282337142
-0.2641174793 -0.1391121298 0.5706362724 4282073718
-0.2633531392 -0.1380773634 0.5689848661 4281744753
-0.2629984915 -0.1372600943 0.5682186484 4281416558
-0.2622331083 -0.1362311393 0.5665649772 4281219179
-0.2618775964 -0.1354178041 0.5657969117 4281022311
-0.2611111403 -0.1343946755 0.5641409755 4281088104
-0.2603441477 -0.1333749443 0.5624838471 4280825461
-0.2595765889 -0.1323585957 0.5608254671 4280891254
-0.2588084638 -0.1313456446 0.5591658950 4280957045
-0.2580397725 -0.1303361207 0.5575051308 4281220217
-0.2572705448 -0.1293299943 0.5558431745 4281483391
-0.2569118142 -0.1285329312 0.5550681353 4281614977
-0.2561415434 -0.1275327057 0.5534039140 4281680772
-0.2553707361 -0.1265358925 0.5517385602 4281746565
-0.2554219961 -0.1259481609 0.5518493056 4282009485
-0.2550616562 -0.1251581907 0.5510707498 4282206864
-0.2551123798 -0.1245706826 0.5511803627 4282272915
-0.2551628947 -0.1239828318 0.5512895584 4282404501
-0.2548015714 -0.1231956035 0.5505088568 4282667675
-0.2548515797 -0.1226080060 0.5506168604 4282930847
-0.2553131580 -0.1222171858 0.5516141653 4283062431
-0.2553627789 -0.1216279417 0.5517213941 4283062431
-0.2558241487 -0.1212335825 0.5527182221 4283258764
-0.2562854588 -0.1208369806 0.5537148714 4283719315
-0.2571588457 -0.1206314489 0.5556018353 4286875582
-0.2580322921 -0.1204217747 0.5574889779 4290494197
-0.2593181133 -0.1203993559 0.5602670312 4291677683
-0.2601917982 -0.1201804206 0.5621547103 4291743476
-0.2614780366 -0.1201468259 0.5649335980 4291809257
-0.2627644837 -0.1201071739 0.5677130222 4291743464
-0.2636385858 -0.1198738515 0.5696015954 4291809519
-0.2649254203 -0.1198230013 0.5723818541 4291677933
-0.2657997608 -0.1195803955 0.5742708445 4291677933
-0.2666741610 -0.1193336248 0.5761600137 4291809519
-0.2671357393 -0.1188989133 0.5771573186 4291678702
-0.2675972283 -0.1184619516 0.5781543851 4291941874
-0.2680586278 -0.1180227324 0.5791512728 4291548664
-0.2681068480 -0.1174003631 0.5792554617 4291680250
-0.2685680091 -0.1169575974 0.5802518129 4291481589
-0.2686158121 -0.1163336039 0.5803551078 4291350003
-0.2690767050 -0.1158872917 0.5813508630 4291415790
-0.2695375383 -0.1154387295 0.5823464990 4291415790
-0.2695847750 -0.1148118153 0.5824485421 4291677671
-0.2700453103 -0.1143597066 0.5834435821 4291809257
-0.2700921297 -0.1137311757 0.5835447311 4291940324
-0.2709661126 -0.1134487316 0.5854329467 4291677152
-0.2710125744 -0.1128176227 0.5855333805 4291546336
-0.2714726627 -0.1123574674 0.5865274072 4291480543
-0.2715187371 -0.1117247492 0.5866269469 4291218912
-0.2719785273 -0.1112610623 0.5876203179 4291218912
-0.2720241547 -0.1106267348 0.5877189636 4291022821
-0.2720695734 -0.1099920943 0.5878170729 4291022821
-0.2721147239 -0.1093571335 0.5879145861 4290892007
-0.2721596360 -0.1087218598 0.5880116224 4290892007
-0.2722042799 -0.1080862656 0.5881081223 4291086823
-0.2722487152 -0.1074503660 0.5882040858 4291086823
-0.2722928822 -0.1068141535 0.5882995129 4291086823
-0.2723367810 -0.1061776355 0.5883944035 4291021030
-0.2723804712 -0.1055408120 0.5884887576 4290889697
-0.2724238932 -0.1049036756 0.5885825753 4290758111
-0.2724670470 -0.1042662412 0.5886758566 4290757850
-0.2725099921 -0.1036285013 0.5887686014 4290692057
-0.2729674876 -0.1031472236 0.5897570848 4290625235
-0.2734248936 -0.1026636958 0.5907452703 4290427856
-0.2738821507 -0.1021779329 0.5917332172 4290295242
-0.2739242613 -0.1015360877 0.5918242335 4289637312
-0.2739661336 -0.1008939445 0.5919146538 4289043631
-0.2744229138 -0.1004033983 0.5929015279 4288056736
-0.2744643092 -0.0997596979 0.5929909945 4287266703
-0.2749207616 -0.0992656499 0.5939772129 4286542980
-0.2749617398 -0.0986203924 0.5940657258 4287059813
-0.2750024498 -0.0979748517 0.5941536427 4286138711
-0.2750429213 -0.0973290205 0.5942410827 4285546058
-0.2754986584 -0.0968289524 0.5952256918 4285151300
-0.2755386531 -0.0961815789 0.5953121781 4285213749
-0.2755784094 -0.0955339223 0.5953980088 4284950577
-0.2756178975 -0.0948859900 0.5954833627 4286063400
-0.2756571174 -0.0942377821 0.5955681205 4286063400
-0.2756960988 -0.0935892910 0.5956523418 4287440166
-0.2761507034 -0.0930807143 0.5966345072 4287111201
-0.2766051888 -0.0925699025 0.5976164341 4287767072
-0.2766434848 -0.0919186398 0.5976992249 4288096037
-0.2766815424 -0.0912671015 0.5977814198 4287963938
-0.2767193317 -0.0906153023 0.5978630781 4287832352
-0.2767568827 -0.0899632350 0.5979442000 4287832606
-0.2763779163 -0.0891766027 0.5971254110 4287766813
-0.2764148712 -0.0885249898 0.5972052813 4287898407
-0.2764515877 -0.0878731161 0.5972845554 4287832614
-0.2756552100 -0.0869582668 0.5955640078 4287701798
-0.2756912708 -0.0863078460 0.5956419110 4287833384
-0.2753105760 -0.0855277777 0.5948193669 4287701796
-0.2753460705 -0.0848778263 0.5948960185 4287701796
-0.2757979035 -0.0843550488 0.5958722830 4288029732
-0.2758329213 -0.0837036222 0.5959479213 4287898146
-0.2754509449 -0.0829264894 0.5951226354 4288227110
-0.2750686109 -0.0821510777 0.5942966342 4288490282
-0.2751027346 -0.0815008804 0.5943703055 4288425003
-0.2747197151 -0.0807279423 0.5935428143 4288293417
-0.2747532725 -0.0800782517 0.5936152935 4288489770
-0.2743695676 -0.0793077946 0.5927863121 4288621356
-0.2744025588 -0.0786586180 0.5928575397 4289014316
-0.2740181684 -0.0778906494 0.5920271277 4289145902
-0.2740505636 -0.0772419944 0.5920971036 4288491563
-0.2736655176 -0.0764765292 0.5912652016 4288425770
-0.2732801139 -0.0757128149 0.5904325247 4289474610
-0.2737289071 -0.0751800612 0.5914021134 4289671989
-0.2733428776 -0.0744178742 0.5905680656 4290263097
-0.2733738422 -0.0737700686 0.5906350017 4290263097
-0.2729871571 -0.0730104148 0.5897995234 4290853949
-0.2730175555 -0.0723631606 0.5898652077 4291117121
-0.2730476856 -0.0717156976 0.5899303555 4290857298
-0.2730775774 -0.0710680187 0.5899949074 4290594126
-0.2735247910 -0.0705277994 0.5909610987 4290018691
-0.2739718258 -0.0699853897 0.5919269323 4294558408
-0.2655617893 -0.1542677134 0.5751368403 4293060589
-0.2656232715 -0.1536642611 0.5752699971 4292731624
-0.2656845152 -0.1530603766 0.5754026771 4292270562
-0.2657455802 -0.1524560899 0.5755348802 4291481046
-0.2658064067 -0.1518513858 0.5756666660 4290757069
-0.2658670247 -0.1512462646 0.5757979751 4289835967
-0.2659274340 -0.1506407410 0.5759288073 4288914866
-0.2659876347 -0.1500347853 0.5760591626 4287599006
-0.2660476267 -0.1494284272 0.5761890411 4286283148
-0.2661073804 -0.1488216668 0.5763184428 4285033081
-0.2661669254 -0.1482144892 0.5764474273 4284177772
-0.2658179402 -0.1473805159 0.5756915808 4283454049
-0.2658769488 -0.1467734724 0.5758194327 4283389545
-0.2655272484 -0.1459414810 0.5750620365 4282665822
-0.2655857503 -0.1453345567 0.5751887560 4281941849
-0.2652353346 -0.1445045769 0.5744298697 4281612884
-0.2652933002 -0.1438977867 0.5745553970 4281481047
-0.2649421990 -0.1430698186 0.5737949610 4281546840
-0.2649996281 -0.1424631625 0.5739193559 4281744997
-0.2646478117 -0.1416372061 0.5731574297 4282073962
-0.2642956078 -0.1408127397 0.5723946095 4282534520
-0.2639429867 -0.1399897486 0.5716309547 4282402934
-0.2635899782 -0.1391682476 0.5708664656 4282271351
-0.2628271878 -0.1381330788 0.5692144632 4282008179
-0.2624733150 -0.1373155117 0.5684480667 4281745523
-0.2617094815 -0.1362861544 0.5667937994 4281613937
-0.2613547444 -0.1354725212 0.5660254955 4281219690
-0.2605898678 -0.1344490051 0.5643690228 4281022311
-0.2598244548 -0.1334288716 0.5627112985 4280890737
-0.2586485445 -0.1322026253 0.5601646304 4281022323
-0.2582919002 -0.1313988119 0.5593922138 4281088116
-0.2575247884 -0.1303888857 0.5577308536 4281219702
-0.2567571402 -0.1293823868 0.5560683012 4281351033
-0.2559889257 -0.1283792853 0.5544045568 4281482619
-0.2552201748 -0.1273796111 0.5527396202 4281417598
-0.2548612654 -0.1265872121 0.5519623160 4281614977
-0.2545019686 -0.1257963628 0.5511841774 4281812104
-0.2541422844 -0.1250070333 0.5504052639 4281943690
-0.2541928887 -0.1244202629 0.5505148172 4282075278
-0.2542432547 -0.1238331348 0.5506239533 4282206864
-0.2538826168 -0.1230465621 0.5498428345 4282404501
-0.2535215914 -0.1222615391 0.5490609407 4282667673
-0.2539821267 -0.1218724772 0.5500583649 4282865052
-0.2540315390 -0.1212849170 0.5501653552 4282930845
-0.2540807426 -0.1206970215 0.5502719283 4283390610
-0.2545409501 -0.1203031242 0.5512685776 4283653782
-0.2550010681 -0.1199069917 0.5522651076 4283521683
-0.2558725178 -0.1197010577 0.5541524291 4285429680
-0.2567440271 -0.1194909737 0.5560399294 4289638874
-0.2576156557 -0.1192767322 0.5579276085 4291875836
-0.2588989735 -0.1192479208 0.5607069135 4292006636
-0.2597708106 -0.1190244183 0.5625951290 4292401394
-0.2610545158 -0.1189844236 0.5653753281 4292400113
-0.2623384595 -0.1189383566 0.5681559443 4292531699
-0.2636226118 -0.1188862100 0.5709370971 4292334574
-0.2640830278 -0.1184583828 0.5719342232 4292400367
-0.2645433545 -0.1180282980 0.5729311705 4292204267
-0.2654157281 -0.1177788526 0.5748205185 4292335853
-0.2658759654 -0.1173433065 0.5758172870 4292008174
-0.2663361132 -0.1169055104 0.5768138170 4292008174
-0.2663837969 -0.1162854508 0.5769171119 4291350505
-0.2668437064 -0.1158441082 0.5779131055 4291284712
-0.2668910027 -0.1152224243 0.5780155659 4291350248
-0.2673506141 -0.1147775352 0.5790110230 4291416041
-0.2673975229 -0.1141542345 0.5791125894 4291547112
-0.2682696283 -0.1138810068 0.5810013413 4291612905
-0.2687289715 -0.1134293601 0.5819961429 4291547877
-0.2691882253 -0.1129754633 0.5829907656 4291416291
-0.2696473897 -0.1125193164 0.5839852095 4291481570
-0.2701064348 -0.1120609194 0.5849793553 4291481570
-0.2701523006 -0.1114298925 0.5850787163 4291481571
-0.2706110775 -0.1109679490 0.5860723257 4291481571
-0.2706565559 -0.1103353128 0.5861707330 4291350244
-0.2707017660 -0.1097023562 0.5862686634 4291284451
-0.2707467079 -0.1090690866 0.5863660574 4291153126
-0.2707914412 -0.1084354967 0.5864629149 4291153126
-0.2708359063 -0.1078016013 0.5865592360 4290890726
-0.2708801329 -0.1071673855 0.5866550207 4290890726
-0.2709241211 -0.1065328643 0.5867502689 4290956519
-0.2713815570 -0.1060597152 0.5877408981 4290956519
-0.2714250982 -0.1054236069 0.5878352523 4291087074
-0.2714684010 -0.1047871932 0.5879290104 4291021281
-0.2719253600 -0.1043092459 0.5889186859 4291021022
-0.2719682157 -0.1036712602 0.5890114903 4291021022
-0.2720108330 -0.1030329689 0.5891038179 4291151579
-0.2728813887 -0.1027060822 0.5909891725 4291085786
-0.2729236484 -0.1020652503 0.5910806656 4291348187
-0.2729656398 -0.1014241278 0.5911716223 4291348187
-0.2730073929 -0.1007826999 0.5912620425 4291347928
-0.2734632194 -0.1002929434 0.5922492743 4291216342
-0.2735045254 -0.0996499658 0.5923387408 4291019215
-0.2735455632 -0.0990066901 0.5924276114 4290756043
-0.2740008831 -0.0985121652 0.5934137106 4290754247
-0.2740415037 -0.0978673398 0.5935016870 4290096317
-0.2740818560 -0.0972222313 0.5935890675 4289177523
-0.2745366395 -0.0967229456 0.5945740342 4288322214
-0.2745765448 -0.0960762873 0.5946604609 4287661453
-0.2746161819 -0.0954293534 0.5947462916 4286477179
-0.2746555805 -0.0947821438 0.5948316455 4287059294
-0.2746947110 -0.0941346511 0.5949163437 4286072399
-0.2751486003 -0.0936281011 0.5958993435 4286327091
-0.2756023407 -0.0931193233 0.5968820453 4285932333
-0.2756407857 -0.0924690515 0.5969653726 4286586662
-0.2760941982 -0.0919567868 0.5979472995 4286652455
-0.2761321962 -0.0913049951 0.5980296135 4286717472
-0.2761699557 -0.0906529352 0.5981113911 4286849058
-0.2762074471 -0.0900006071 0.5981925726 4287308067
-0.2758292854 -0.0892136544 0.5973735452 4287373860
-0.2758661807 -0.0885617808 0.5974534750 4288226851
-0.2754873335 -0.0877772495 0.5966329575 4288095265
-0.2751080990 -0.0869944319 0.5958116651 4288356387
-0.2751441002 -0.0863437429 0.5958896279 4288422180
-0.2747641802 -0.0855633542 0.5950668454 4288487462
-0.2747996449 -0.0849131495 0.5951436162 4288487462
-0.2752506137 -0.0843901634 0.5961202979 4288356903
-0.2752855718 -0.0837384760 0.5961960554 4288225317
-0.2749044001 -0.0829610229 0.5953705311 4288620075
-0.2745228708 -0.0821852982 0.5945441723 4288817454
-0.2745569348 -0.0815348402 0.5946179628 4289080110
-0.2741747200 -0.0807615891 0.5937901735 4289080110
-0.2742082179 -0.0801116303 0.5938627720 4288884013
-0.2738253176 -0.0793408602 0.5930334926 4288884013
-0.2738582492 -0.0786914229 0.5931048393 4288622379
-0.2734746635 -0.0779231414 0.5922740698 4288688172
-0.2735070288 -0.0772742257 0.5923441648 4288949553
-0.2735391259 -0.0766250789 0.5924136639 4289015346
-0.2735709548 -0.0759757087 0.5924826264 4289540148
-0.2731860876 -0.0752114579 0.5916490555 4289605941
-0.2732173204 -0.0745626166 0.5917167664 4290131509
-0.2732483149 -0.0739135668 0.5917838812 4290526267
-0.2728624642 -0.0731526017 0.5909482241 4291116862
-0.2728928924 -0.0725040957 0.5910140872 4291314241
-0.2729230225 -0.0718553811 0.5910793543 4290331976
-0.2729529142 -0.0712064430 0.5911440849 4291516250
-0.2729825377 -0.0705572963 0.5912082791 4291993761
-0.2734287083 -0.0700146705 0.5921745300 4294958044
-0.2642156780 -0.1538558304 0.5736013055 4292929003
-0.2642768919 -0.1532540172 0.5737342238 4292665831
-0.2643378973 -0.1526517868 0.5738666058 4292467941
-0.2643986940 -0.1520491391 0.5739986300 4291875804
-0.2644592524 -0.1514460742 0.5741301179 4291151827
-0.2645196319 -0.1508425921 0.5742611289 4290822862
-0.2645797729 -0.1502387077 0.5743917227 4290296519
-0.2646397054 -0.1496344060 0.5745218396 4289178038
-0.2646994293 -0.1490296870 0.5746515393 4287993766
-0.2647589445 -0.1484245658 0.5747807026 4286480527
-0.2648182213 -0.1478190422 0.5749093890 4285230460
-0.2644698024 -0.1469866335 0.5741530061 4284046186
-0.2645285726 -0.1463812292 0.5742805600 4284112754
-0.2645871341 -0.1457754225 0.5744076967 4283717996
-0.2646454573 -0.1451692134 0.5745342970 4283125862
-0.2642956972 -0.1443398446 0.5737750530 4282533725
-0.2643535137 -0.1437337697 0.5739005208 4282007389
-0.2640030682 -0.1429064274 0.5731397271 4281744217
-0.2636522055 -0.1420805603 0.5723780394 4281678687
-0.2637091875 -0.1414751709 0.5725017190 4281941859
-0.2633576393 -0.1406513304 0.5717385411 4282271600
-0.2634140849 -0.1400461048 0.5718610883 4282271600
-0.2630618513 -0.1392243057 0.5710963607 4282468728
-0.2627092004 -0.1384039819 0.5703307986 4282271349
-0.2619475126 -0.1373708546 0.5686771870 4281942900
-0.2611852586 -0.1363411099 0.5670223832 4281811314
-0.2608312666 -0.1355271786 0.5662538409 4281417069
-0.2604768872 -0.1347147524 0.5654845238 4281088104
-0.2593041062 -0.1334827393 0.5629385114 4281153135
-0.2585397065 -0.1324656308 0.5612789989 4281218928
-0.2577747107 -0.1314519048 0.5596182346 4281219441
-0.2570092082 -0.1304416060 0.5579563379 4281219441
-0.2562431097 -0.1294347048 0.5562931895 4281350775
-0.2554764748 -0.1284312308 0.5546288490 4281350775
-0.2547093034 -0.1274311692 0.5529633760 4281416826
-0.2539415658 -0.1264345497 0.5512966514 4281548412
-0.2539926171 -0.1258473098 0.5514074564 4281549186
-0.2536337078 -0.1250576973 0.5506283045 4281614979
-0.2536842525 -0.1244707033 0.5507379770 4281680518
-0.2537345588 -0.1238833591 0.5508472323 4281877897
-0.2533746660 -0.1230964810 0.5500659347 4282075791
-0.2530144155 -0.1223111600 0.5492838025 4282338963
-0.2526537478 -0.1215273887 0.5485008359 4282601880
-0.2527029514 -0.1209415197 0.5486076474 4282733466
-0.2527519464 -0.1203553006 0.5487139821 4282930067
-0.2528007030 -0.1197687387 0.5488198400 4283127446
-0.2532597184 -0.1193753257 0.5498163700 4283587486
-0.2537186742 -0.1189796627 0.5508127213 4283390107
-0.2545881867 -0.1187733263 0.5527004004 4284245141
-0.2554577887 -0.1185628325 0.5545883179 4287732170
-0.2563274801 -0.1183481887 0.5564763546 4291349735
-0.2571972609 -0.1181293875 0.5583645701 4292797181
-0.2580671012 -0.1179064214 0.5602530241 4292927990
-0.2619585395 -0.1171568781 0.5687011480 4293060084
-0.2632878125 -0.1164812297 0.5715869665 4293125617
-0.2637467086 -0.1160480678 0.5725831985 4293059824
-0.2642055154 -0.1156126559 0.5735792518 4292730862
-0.2642526329 -0.1149958745 0.5736815333 4292730862
-0.2647112012 -0.1145569161 0.5746770501 4292730608
-0.2651696503 -0.1141157076 0.5756723285 4292664815
-0.2656280398 -0.1136722565 0.5766674876 4292402672
-0.2660863101 -0.1132265478 0.5776623487 4292336879
-0.2669564784 -0.1129528955 0.5795514584 4292074733
-0.2674146295 -0.1125017256 0.5805460811 4292008940
-0.2678726912 -0.1120482981 0.5815405250 4291811046
-0.2683306634 -0.1115926206 0.5825347304 4291811046
-0.2687885165 -0.1111346930 0.5835287571 4292072678
-0.2688339651 -0.1105050296 0.5836274028 4292006885
-0.2692915499 -0.1100435629 0.5846207738 4291941094
-0.2693365812 -0.1094122976 0.5847185254 4291941094
-0.2693813443 -0.1087807119 0.5848157406 4291613670
-0.2694258690 -0.1081488207 0.5849124193 4291613670
-0.2694701552 -0.1075166091 0.5850085616 4291285734
-0.2699269354 -0.1070477664 0.5860002041 4291285734
-0.2699708045 -0.1064139679 0.5860953927 4291350757
-0.2700144053 -0.1057798639 0.5861901045 4291350757
-0.2700577676 -0.1051454470 0.5862842798 4291415780
-0.2705138922 -0.1046705320 0.5872744918 4291349987
-0.2705568373 -0.1040345430 0.5873677135 4291415008
-0.2710126638 -0.1035561040 0.5883572698 4291349215
-0.2710551620 -0.1029185355 0.5884495378 4291480543
-0.2719239593 -0.1025925055 0.5903356075 4291348957
-0.2719660699 -0.1019523963 0.5904271007 4291348957
-0.2720079720 -0.1013119891 0.5905180573 4291348957
-0.2720496058 -0.1006712839 0.5906084180 4291283675
-0.2720910013 -0.1000302956 0.5906982422 4291217882
-0.2725456953 -0.0995400548 0.5916854143 4291152089
-0.2725866437 -0.0988975018 0.5917742848 4291020503
-0.2726273239 -0.0982546657 0.5918626189 4291675351
-0.2726677656 -0.0976115391 0.5919504166 4291609558
