VERSION 0.7
FIELDS x y z rgba
SIZE 4 4 4 4
TYPE F F F U
COUNT 1 1 1 1
WIDTH 920
HEIGHT 1
VIEWPOINT 0.0 0.0 0.0 1.0 0.0 0.0 0.0
POINTS 920
DATA ascii
-0.2679124177 -0.1293795705 0.5587242842 4287532177
-0.2688126862 -0.1291914582 0.5606017709 4287664020
-0.2688662112 -0.1285941899 0.5607134104 4288058778
-0.2689194977 -0.1279965639 0.5608245730 4288716449
-0.2689725757 -0.1273985952 0.5609352589 4288979621
-0.2690254450 -0.1268002540 0.5610454679 4288979619
-0.2695018053 -0.1264003217 0.5620388985 4288848033
-0.2695542872 -0.1258003414 0.5621483326 4288518554
-0.2700304389 -0.1253968775 0.5631413460 4288189589
-0.2700825334 -0.1247952580 0.5632500052 4286940038
-0.2701343894 -0.1241932958 0.5633581877 4287597968
-0.2706101835 -0.1237850040 0.5643504262 4288321175
-0.2706616819 -0.1231814027 0.5644577742 4288189589
-0.2707129419 -0.1225774512 0.5645647049 4288321175
-0.2711883485 -0.1221643463 0.5655561686 4288123796
-0.2712392211 -0.1215587705 0.5656622052 4288124312
-0.2712898552 -0.1209528521 0.5657678246 4289242793
-0.2713402510 -0.1203465983 0.5658729076 4291081145
-0.2713904083 -0.1197400019 0.5659775138 4289107355
-0.2714403272 -0.1191330776 0.5660816431 4284500808
-0.2710651755 -0.1183403283 0.5652992725 4285553496
-0.2706896067 -0.1175491512 0.5645160079 4287385923
-0.2694635987 -0.1163923740 0.5619592667 4290346608
-0.2690871060 -0.1156062409 0.5611740351 4288051060
-0.2691353858 -0.1150033697 0.5612747669 4290682780
-0.2824836075 -0.1728165597 0.5904798508 4288119425
-0.2825533748 -0.1722030193 0.5906257033 4285158740
-0.2826229334 -0.1715890169 0.5907710791 4288052860
-0.2822747231 -0.1707220227 0.5900431871 4288513411
-0.2819260955 -0.1698563993 0.5893144011 4290096041
-0.2815770209 -0.1689921319 0.5885847807 4290819764
-0.2803918123 -0.1676295996 0.5861073136 4289767336
-0.2775338590 -0.1652764380 0.5801333189 4290491059
-0.2721658647 -0.1614475995 0.5689125061 4290952384
-0.2667950392 -0.1576420069 0.5576857328 4291083970
-0.2639310360 -0.1553367674 0.5516991019 4290822598
-0.2631573081 -0.1542702168 0.5500817299 4290954184
-0.2628014386 -0.1534512490 0.5493378639 4291151052
-0.2632823288 -0.1531205624 0.5503430963 4290493122
-0.2629258633 -0.1523026079 0.5495979786 4288979881
-0.2638252974 -0.1522108763 0.5514780879 4288124572
-0.2651437819 -0.1523557752 0.5542341471 4287402388
-0.2660436928 -0.1522549987 0.5561152697 4286876044
-0.2669437826 -0.1521501392 0.5579967499 4287005831
-0.2661674321 -0.1510894597 0.5563738346 4287005831
-0.2670674920 -0.1509801149 0.5582552552 4286742661
-0.2675483823 -0.1506305933 0.5592604876 4286742661
-0.2676098049 -0.1500436515 0.5593888760 4286611332
-0.2676709890 -0.1494563073 0.5595167875 4286874504
-0.2677319944 -0.1488685608 0.5596442819 4287335056
-0.2677927613 -0.1482804120 0.5597713590 4288190365
-0.2682731748 -0.1479233503 0.5607755184 4288519843
-0.2679136992 -0.1471029073 0.5600240827 4291546321
-0.2683938444 -0.1467432082 0.5610277653 4292927720
-0.2684538662 -0.1461525410 0.5611532331 4292532962
-0.2685136795 -0.1455614865 0.5612782240 4292467939
-0.2681529522 -0.1447431445 0.5605242252 4292533732
-0.2682122290 -0.1441522241 0.5606481433 4289967807
-0.2674303055 -0.1431108713 0.5590136647 4287336087
-0.2670683861 -0.1422969401 0.5582571626 4286282108
-0.2667060792 -0.1414844692 0.5574997663 4286742659
-0.2663433552 -0.1406734735 0.5567415953 4286743172
-0.2659802139 -0.1398639381 0.5559825301 4285624691
-0.2660376430 -0.1392762661 0.5561025739 4284900968
-0.2660948634 -0.1386882216 0.5562222004 4284572003
-0.2661518455 -0.1380997896 0.5563412905 4284900968
-0.2662086189 -0.1375109702 0.5564599633 4285822070
-0.2662651837 -0.1369217932 0.5565781593 4286216574
-0.2659001052 -0.1361165196 0.5558151007 4286808711
-0.2659561336 -0.1355275214 0.5559322238 4286874504
-0.2664335072 -0.1351519972 0.5569300652 4286545539
-0.2660675347 -0.1343484074 0.5561650395 4288059291
-0.2661229074 -0.1337582916 0.5562807918 4291480527
-0.2665998936 -0.1333788484 0.5572778583 4293256938
-0.2666548789 -0.1327870786 0.5573928356 4293322731
-0.2671316862 -0.1324041039 0.5583894849 4292993513
-0.2671863437 -0.1318106502 0.5585037470 4292927720
-0.2672407627 -0.1312168390 0.5586174726 4290427327
-0.2672949731 -0.1306226552 0.5587307811 4287335056
-0.2673489749 -0.1300281286 0.5588436723 4287335056
-0.2682476044 -0.1298421770 0.5607220531 4287006091
-0.2683012784 -0.1292450428 0.5608343482 4286874505
-0.2687773705 -0.1288501471 0.5618295074 4286874505
-0.2688307166 -0.1282513589 0.5619409680 4287466641
-0.2688837945 -0.1276522130 0.5620519519 4288453536
-0.2689366937 -0.1270527095 0.5621625185 4289111207
-0.2689893246 -0.1264528632 0.5622725487 4288913828
-0.2694647610 -0.1260505468 0.5632663369 4288584863
-0.2695170343 -0.1254490465 0.5633756518 4288124312
-0.2695690989 -0.1248471960 0.5634844303 4287005831
-0.2696208954 -0.1242449954 0.5635927320 4287795347
-0.2700958252 -0.1238365546 0.5645854473 4288190618
-0.2701472640 -0.1232327223 0.5646929741 4287993239
-0.2706219554 -0.1228207499 0.5656852722 4288255898
-0.2706730068 -0.1222152859 0.5657919645 4288058519
-0.2707238197 -0.1216094717 0.5658981800 4287729556
-0.2711981535 -0.1211926863 0.5668896437 4288716451
-0.2712485790 -0.1205852479 0.5669950843 4290885306
-0.2712987661 -0.1199774742 0.5670999885 4289503653
-0.2713487148 -0.1193693578 0.5672044158 4286147175
-0.2709743679 -0.1185753420 0.5664219260 4286081382
-0.2705996335 -0.1177828982 0.5656386018 4286990395
-0.2698003054 -0.1168083698 0.5639677048 4290937975
-0.2694247067 -0.1160200238 0.5631826520 4289103746
-0.2690487504 -0.1152332574 0.5623967052 4290551192
-0.2811087370 -0.1723756343 0.5889732838 4287922303
-0.2811782062 -0.1717636883 0.5891188979 4284961618
-0.2812474966 -0.1711512953 0.5892640352 4287461752
-0.2808997929 -0.1702857912 0.5885355473 4287724924
-0.2805516720 -0.1694216728 0.5878061652 4290096554
-0.2797861695 -0.1683080792 0.5862022638 4290491312
-0.2765175998 -0.1656981409 0.5793540478 4289110176
-0.2790876329 -0.1665884852 0.5847387314 4290426036
-0.2716441154 -0.1615130752 0.5691432357 4290886848
-0.2662836313 -0.1577059776 0.5579120517 4290886848
-0.2638426423 -0.1556461155 0.5527977347 4290691526
-0.2630705535 -0.1545782387 0.5511800647 4290494147
-0.2631331980 -0.1540024877 0.5513113141 4290164414
-0.2636134028 -0.1536698788 0.5523174405 4289045933
-0.2632578611 -0.1528497934 0.5515725017 4287466642
-0.2641558349 -0.1527562290 0.5534539223 4287466642
-0.2650539875 -0.1526585966 0.5553357005 4287270802
-0.2642796636 -0.1515974104 0.5537133813 4286941837
-0.2664325833 -0.1522121429 0.5582240820 4287137417
-0.2664944530 -0.1516271234 0.5583537817 4287203210
-0.2670361400 -0.1506920606 0.5594887137 4286940038
-0.2670975029 -0.1501049101 0.5596172214 4286874247
-0.2675773799 -0.1497517079 0.5606226921 4286940040
-0.2672195435 -0.1489293873 0.5598729849 4287269263
-0.2676992118 -0.1485735327 0.5608779192 4288124572
-0.2673407793 -0.1477522701 0.5601269603 4289309359
-0.2678201795 -0.1473937631 0.5611313581 4292533216
-0.2678803504 -0.1468032748 0.5612574220 4292796134
-0.2679402828 -0.1462123990 0.5613830686 4292335583
-0.2680000365 -0.1456211209 0.5615082383 4292402148
-0.2672205567 -0.1445755213 0.5598750710 4291678425
-0.2664404809 -0.1435332298 0.5582407117 4288191396
-0.2664992213 -0.1429444849 0.5583637357 4286151813
-0.2665577233 -0.1423553377 0.5584862828 4286676868
-0.2661961317 -0.1415425688 0.5577287078 4286413696
-0.2662540972 -0.1409535855 0.5578501821 4285295472
-0.2658918202 -0.1401428133 0.5570911169 4284703335
-0.2659492791 -0.1395539939 0.5572115183 4284966507
-0.2655862868 -0.1387452632 0.5564509630 4284966507
-0.2656432092 -0.1381566226 0.5565702319 4284703335
-0.2661203146 -0.1377852559 0.5575699210 4284571749
-0.2661769092 -0.1371949166 0.5576884747 4284505956
-0.2658126950 -0.1363884062 0.5569253564 4285887609
-0.2658687532 -0.1357982606 0.5570427775 4286545539
-0.2659245729 -0.1352077276 0.5571597815 4286216574
-0.2659801841 -0.1346168369 0.5572762489 4286809224
-0.2660355866 -0.1340255588 0.5573923588 4290033081
-0.2660907507 -0.1334339231 0.5575079322 4292599008
-0.2669879496 -0.1332623065 0.5593876839 4292796387
-0.2670428455 -0.1326680630 0.5595027208 4292861927
-0.2675188184 -0.1322817802 0.5604999661 4292927720
-0.2675733566 -0.1316858679 0.5606142282 4291743446
-0.2676276863 -0.1310895830 0.5607280731 4288388003
-0.2676817775 -0.1304929405 0.5608413815 4287466642
-0.2677356303 -0.1298959404 0.5609542727 4286940298
-0.2682109773 -0.1295022070 0.5619502068 4286742919
-0.2682645023 -0.1289035529 0.5620623231 4286479747
-0.2687396407 -0.1285062730 0.5630578399 4286742918
-0.2687927783 -0.1279059500 0.5631691813 4287664020
-0.2688456774 -0.1273052841 0.5632799864 4288387484
-0.2688983679 -0.1267042607 0.5633903742 4288716449
-0.2693730295 -0.1263008416 0.5643848777 4288716449
-0.2694253027 -0.1256981790 0.5644944310 4288124312
-0.2694773972 -0.1250951439 0.5646035075 4287269001
-0.2695292234 -0.1244917735 0.5647121072 4288453275
-0.2695808113 -0.1238880605 0.5648202896 4288783784
-0.2700548172 -0.1234772280 0.5658133626 4288717991
-0.2701060474 -0.1228718683 0.5659207106 4288519072
-0.2705798149 -0.1224575043 0.5669133067 4287926935
-0.2706306577 -0.1218505129 0.5670198202 4287071883
-0.2706812620 -0.1212431863 0.5671258569 4287400848
-0.2711546421 -0.1208240017 0.5681176782 4290031282
-0.2712048590 -0.1202150434 0.5682228804 4289439145
-0.2712548375 -0.1196057424 0.5683276057 4287070330
-0.2708813250 -0.1188104674 0.5675450563 4286543986
-0.2709307671 -0.1182014495 0.5676485896 4286726196
-0.2701331377 -0.1172246188 0.5659774542 4290871155
-0.2693349719 -0.1162512749 0.5643051863 4289630092
-0.2685362697 -0.1152814105 0.5626317263 4290748573
-0.2797363997 -0.1719342172 0.5874650478 4288119682
-0.2793898284 -0.1710693091 0.5867372751 4284830032
-0.2794587314 -0.1704594195 0.5868819356 4287134070
-0.2795273960 -0.1698490828 0.5870261788 4287199863
-0.2791798115 -0.1689864546 0.5862962008 4289636773
-0.2784156203 -0.1678742617 0.5846913457 4289965738
-0.2776508331 -0.1667652726 0.5830852389 4288715931
-0.2735544443 -0.1636665761 0.5744825602 4290294963
-0.2748699486 -0.1638122797 0.5772452354 4290624448
-0.2703538835 -0.1604900360 0.5677611828 4290295483
-0.2662520707 -0.1574338228 0.5591470599 4289507254
-0.2629815638 -0.1548863798 0.5522788167 4288980910
-0.2630442381 -0.1543095261 0.5524104238 4288256417
-0.2631067038 -0.1537322551 0.5525416136 4287269522
-0.2631689906 -0.1531545818 0.5526723862 4286545540
-0.2640653551 -0.1530600935 0.5545548797 4287269263
-0.2649619281 -0.1529615372 0.5564377308 4287336595
-0.2646066248 -0.1521389931 0.5556915402 4287007630
-0.2659207284 -0.1522740722 0.5584512353 4287268233
-0.2664000988 -0.1519269794 0.5594579577 4287334026
-0.2668794394 -0.1515776366 0.5604646206 4287136647
-0.2669410408 -0.1509897560 0.5605939627 4287202440
-0.2665845752 -0.1501660943 0.5598453283 4286940040
-0.2670635879 -0.1498127729 0.5608512759 4286874247
-0.2671245337 -0.1492236853 0.5609793067 4287071884
-0.2671852708 -0.1486341804 0.5611068606 4287532435
-0.2668275833 -0.1478126049 0.5603556633 4290229948
-0.2668877840 -0.1472232193 0.5604821444 4292993254
-0.2673662007 -0.1468632817 0.5614868402 4292730341
-0.2670075893 -0.1460432857 0.5607337356 4292664548
-0.2674857676 -0.1456806958 0.5617379546 4292599527
-0.2671265304 -0.1448617429 0.5609834790 4290625737
-0.2667668760 -0.1440442652 0.5602282286 4287072915
-0.2659879625 -0.1430030465 0.5585924387 4286480778
-0.2660464048 -0.1424136907 0.5587151647 4287268750
-0.2661046386 -0.1418239474 0.5588374734 4285623925
-0.2657434940 -0.1410114020 0.5580790043 4284834409
-0.2658011913 -0.1404218078 0.5582001805 4286479234
-0.2654393315 -0.1396112889 0.5574402809 4287861400
-0.2654964924 -0.1390218735 0.5575603247 4288453537
-0.2651339471 -0.1382133812 0.5567989349 4287598228
-0.2660298049 -0.1380596608 0.5586802959 4285295473
-0.2660863996 -0.1374681741 0.5587992072 4283913820
-0.2661427855 -0.1368763000 0.5589175820 4285032301
-0.2653592229 -0.1358541399 0.5572720170 4286348161
-0.2654149830 -0.1352633983 0.5573891997 4286808712
-0.2654705644 -0.1346722841 0.5575058460 4286545540
-0.2663661540 -0.1345051080 0.5593866706 4288453537
-0.2664214373 -0.1339113712 0.5595027804 4291941079
-0.2664765120 -0.1333172768 0.5596184134 4293322732
-0.2669517398 -0.1329321563 0.5606164336 4292861927
-0.2670064569 -0.1323363781 0.5607313514 4292664548
-0.2674815059 -0.1319477111 0.5617289543 4292467169
-0.2671152055 -0.1311437488 0.5609596968 4288914347
-0.2675899565 -0.1307524592 0.5619567633 4287269776
-0.2672230303 -0.1299496591 0.5611861944 4287138190
-0.2676975429 -0.1295557767 0.5621826649 4287137677
-0.2677509785 -0.1289568841 0.5622949004 4286940298
-0.2682252526 -0.1285594702 0.5632909536 4287071883
-0.2682783306 -0.1279589236 0.5634023547 4287203469
-0.2683311701 -0.1273580194 0.5635133386 4287466382
-0.2688051164 -0.1269557625 0.5645086765 4287861140
-0.2688575983 -0.1263532043 0.5646188855 4288255898
-0.2689098418 -0.1257503033 0.5647285581 4287992726
-0.2689618468 -0.1251470596 0.5648378134 4287597966
-0.2690136433 -0.1245434508 0.5649465322 4288453275
-0.2690651715 -0.1239394993 0.5650547743 4288717736
-0.2695383132 -0.1235285178 0.5660483837 4288717736
-0.2695894837 -0.1229229271 0.5661558509 4288453279
-0.2700623870 -0.1225084141 0.5671489835 4288321693
-0.2701131701 -0.1219011918 0.5672556758 4287664021
-0.2701637149 -0.1212936267 0.5673618317 4287137677
-0.2706362307 -0.1208742857 0.5683541298 4289505197
-0.2706864178 -0.1202650890 0.5684594512 4289899955
-0.2707363367 -0.1196555570 0.5685642958 4286808701
-0.2707860172 -0.1190456823 0.5686686635 4286479736
-0.2708354592 -0.1184354797 0.5687725544 4286923062
-0.2700394988 -0.1174573079 0.5671009421 4290541677
-0.2692429721 -0.1164826229 0.5654281974 4289367433
-0.2684459090 -0.1155114174 0.5637543201 4290683293
-0.2783665955 -0.1714923084 0.5859551430 4288646026
-0.2780205607 -0.1706289053 0.5852267146 4284895825
-0.2780891657 -0.1700206101 0.5853711367 4287200122
-0.2781575620 -0.1694118828 0.5855151415 4287265915
-0.2778104842 -0.1685507596 0.5847845674 4289374114
-0.2770476341 -0.1674399674 0.5831787586 4289571493
-0.2758687139 -0.1660822630 0.5806971192 4288256150
-0.2688710392 -0.1612405926 0.5659672022 4289440424
-0.2631167173 -0.1571743935 0.5538544655 4289374638
-0.2652589679 -0.1578336954 0.5583638549 4288716708
-0.2653226852 -0.1572510749 0.5584979653 4287336085
-0.2628903687 -0.1551946551 0.5533780456 4286875534
-0.2629530728 -0.1546166837 0.5535100102 4286545540
-0.2630155683 -0.1540382951 0.5536416173 4286348161
-0.2630778551 -0.1534595042 0.5537726879 4286807685
-0.2635563314 -0.1531221867 0.5547798276 4287597201
-0.2644512057 -0.1530236155 0.5566635728 4287139217
-0.2649297416 -0.1526809037 0.5576708317 4286481287
-0.2654082477 -0.1523359418 0.5586780906 4286873477
-0.2658867538 -0.1519887298 0.5596853495 4286939270
-0.2663652301 -0.1516392678 0.5606924891 4286874247
-0.2664267421 -0.1510511786 0.5608220100 4287137419
-0.2664880455 -0.1504626870 0.5609510541 4286940040
-0.2661320269 -0.1496392339 0.5602016449 4286874247
-0.2666100264 -0.1492844671 0.5612078309 4286940298
-0.2666707039 -0.1486947536 0.5613355637 4287532435
-0.2667311728 -0.1481046528 0.5614628196 4290953671
-0.2667914033 -0.1475141346 0.5615896583 4292993254
-0.2668514550 -0.1469232142 0.5617160201 4292730341
-0.2669112682 -0.1463319063 0.5618419051 4292861927
-0.2669708729 -0.1457401961 0.5619673729 4292861927
-0.2666123807 -0.1449209452 0.5612127781 4289967035
-0.2666714489 -0.1443293840 0.5613371134 4287137938
-0.2658941746 -0.1432868242 0.5597009659 4287335317
-0.2655344605 -0.1424719691 0.5589438081 4286808199
-0.2655926347 -0.1418820024 0.5590662360 4285755511
-0.2652322352 -0.1410691589 0.5583075881 4285294960
-0.2648714185 -0.1402577758 0.5575481057 4286808199
-0.2649287581 -0.1396685243 0.5576687455 4287664021
-0.2649858594 -0.1390788853 0.5577889681 4288387744
-0.2654614747 -0.1387076527 0.5587901473 4288782504
-0.2655182183 -0.1381163299 0.5589095950 4287729816
-0.2655747831 -0.1375246197 0.5590286255 4285492854
-0.2656311095 -0.1369325370 0.5591471791 4284834924
-0.2656871974 -0.1363400668 0.5592653155 4285427061
-0.2657431066 -0.1357472390 0.5593829751 4286677128
-0.2653795183 -0.1349408478 0.5586176515 4286808714
-0.2658542097 -0.1345604509 0.5596168637 4287532437
-0.2659094334 -0.1339665055 0.5597330928 4291019723
-0.2663839459 -0.1335825473 0.5607319474 4293125099
-0.2664388120 -0.1329869181 0.5608474016 4292796134
-0.2669131458 -0.1325994134 0.5618458390 4292927720
-0.2665478885 -0.1317945719 0.5610769987 4292861927
-0.2670219243 -0.1314044446 0.5620748401 4289374898
-0.2666560709 -0.1306007504 0.5613047481 4287664280
-0.2667098045 -0.1300033033 0.5614178777 4287730073
-0.2671834230 -0.1296092868 0.5624148250 4287532435
-0.2672368288 -0.1290101707 0.5625271797 4287335056
-0.2677102387 -0.1286126077 0.5635237694 4287598227
-0.2677632570 -0.1280118376 0.5636353493 4287400848
-0.2678160369 -0.1274107099 0.5637464523 4287006090
-0.2682891190 -0.1270083040 0.5647422671 4287071883
-0.2683415413 -0.1264055222 0.5648525953 4287730067
-0.2688143849 -0.1259995699 0.5658479929 4288124825
-0.2688664496 -0.1253951341 0.5659574866 4288190105
-0.2689182460 -0.1247903630 0.5660665631 4288255898
-0.2689698040 -0.1241852343 0.5661751032 4287598741
-0.2690211535 -0.1235797554 0.5662832260 4287796120
-0.2690722644 -0.1229739338 0.5663908124 4288650915
-0.2695443034 -0.1225592718 0.5673844218 4289572017
-0.2695950270 -0.1219518110 0.5674912333 4289440945
-0.2700668573 -0.1215336099 0.5684843659 4288322464
-0.2701171935 -0.1209245175 0.5685903430 4289374381
-0.2701672912 -0.1203150898 0.5686957836 4290229690
-0.2706387341 -0.1198920682 0.5696881413 4287994516
-0.2706884444 -0.1192810088 0.5697928071 4286415484
-0.2703162134 -0.1184847727 0.5690092444 4287186236
-0.2699435651 -0.1176901013 0.5682248473 4290739058
-0.2695705593 -0.1168970093 0.5674396753 4289039753
-0.2683532834 -0.1157415286 0.5648773313 4290289820
-0.2769993842 -0.1710499078 0.5844435692 4289369751
-0.2766538560 -0.1701880097 0.5837145448 4285093206
-0.2767221928 -0.1695813239 0.5838587284 4287594367
-0.2767903209 -0.1689742059 0.5840024352 4287923332
-0.2760292888 -0.1678625345 0.5823967457 4289242528
-0.2756822407 -0.1670051962 0.5816645026 4289110942
-0.2745054364 -0.1656487882 0.5791815519 4287663759
-0.2716687620 -0.1633001566 0.5731964111 4288058517
-0.2675859034 -0.1602186561 0.5645819306 4287663508
-0.2630858421 -0.1569074839 0.5550872684 4287005578
-0.2635641396 -0.1565748900 0.5560964346 4286282627
-0.2627969682 -0.1555030644 0.5544777513 4286282627
-0.2624444366 -0.1546792239 0.5537339449 4286478720
-0.2625068426 -0.1541006267 0.5538656116 4286610306
-0.2629845440 -0.1537645459 0.5548735261 4287004551
-0.2630466521 -0.1531842053 0.5550045371 4287333516
-0.2639398575 -0.1530856341 0.5568891764 4287204499
-0.2644174993 -0.1527428031 0.5578969717 4286809741
-0.2648951411 -0.1523977369 0.5589047074 4286874247
-0.2653727829 -0.1520504057 0.5599124432 4286676868
-0.2658503652 -0.1517008394 0.5609201789 4286676613
-0.2659118176 -0.1511125416 0.5610498190 4287071371
-0.2659730613 -0.1505238265 0.5611790419 4287137164
-0.2656177580 -0.1497000754 0.5604293942 4287137164
-0.2660949230 -0.1493451893 0.5614361167 4287269263
-0.2661555111 -0.1487552673 0.5615639687 4288453537
-0.2662159204 -0.1481649429 0.5616914034 4291611603
-0.2662760913 -0.1475742161 0.5618183613 4292927463
-0.2663360536 -0.1469830871 0.5619449019 4292730341
-0.2663958073 -0.1463915706 0.5620709658 4292796134
-0.2660383582 -0.1455714703 0.5613167882 4292796136
-0.2656804919 -0.1447528452 0.5605617762 4289901244
-0.2653222680 -0.1439356655 0.5598058701 4287532696
-0.2653808594 -0.1433453411 0.5599295497 4287137938
-0.2654392719 -0.1427546293 0.5600527525 4285953403
-0.2650800049 -0.1419399977 0.5592947602 4285756024
-0.2651378810 -0.1413494349 0.5594168901 4285492852
-0.2647779286 -0.1405368298 0.5586573482 4286348161
-0.2648352683 -0.1399464309 0.5587784052 4287466644
-0.2648923993 -0.1393556446 0.5588989258 4288453539
-0.2649493217 -0.1387644708 0.5590190291 4288585125
-0.2650060356 -0.1381729245 0.5591386557 4288650918
-0.2650625110 -0.1375810057 0.5592578650 4286874764
-0.2647006214 -0.1367726326 0.5584942698 4284769388
-0.2647565603 -0.1361808926 0.5586123466 4284769388
-0.2648122907 -0.1355887651 0.5587299466 4285887869
-0.2648678124 -0.1349962801 0.5588470697 4287072143
-0.2649231255 -0.1344034076 0.5589637160 4287927452
-0.2653968036 -0.1340215653 0.5599631667 4290822344
-0.2654517591 -0.1334270239 0.5600790977 4292861927
-0.2659252584 -0.1330416203 0.5610781312 4292861927
-0.2659798265 -0.1324454099 0.5611933470 4293190892
-0.2660341859 -0.1318488270 0.5613080263 4292862697
-0.2660883367 -0.1312518716 0.5614222288 4289967805
-0.2661422491 -0.1306545734 0.5615360141 4288190624
-0.2666151524 -0.1302617043 0.5625337958 4287993245
-0.2666687071 -0.1296627223 0.5626467466 4287796120
-0.2671414018 -0.1292663217 0.5636441112 4287401362
-0.2671945989 -0.1286656857 0.5637563467 4287927193
-0.2672475278 -0.1280646771 0.5638680458 4287795607
-0.2677198946 -0.1276634336 0.5648646951 4287138190
-0.2677724659 -0.1270607710 0.5649756193 4286875018
-0.2682446241 -0.1266559809 0.5659717917 4287335568
-0.2682968378 -0.1260516644 0.5660819411 4287993498
-0.2683488131 -0.1254470199 0.5661916137 4288585122
-0.2684005499 -0.1248420030 0.5663008094 4288190364
-0.2684520781 -0.1242366433 0.5664095283 4286940298
-0.2689235508 -0.1238244176 0.5674042702 4287006091
-0.2689746916 -0.1232174113 0.5675122142 4289046186
-0.2690255940 -0.1226100624 0.5676195621 4289572530
-0.2694967091 -0.1221930012 0.5686135888 4289441972
-0.2695975006 -0.1209746972 0.5688262582 4289045674
-0.2696475387 -0.1203650311 0.5689318776 4289835190
-0.2696973681 -0.1197550222 0.5690369606 4287930006
-0.2697469592 -0.1191446856 0.5691415668 4285627251
-0.2697962821 -0.1185340062 0.5692456961 4287318079
-0.2694244385 -0.1177390292 0.5684610605 4290673522
-0.2690521777 -0.1169456244 0.5676756501 4288449412
-0.2682583928 -0.1159717366 0.5660008788 4290291616
-0.2752214968 -0.1703512371 0.5820563436 4289896096
-0.2752897441 -0.1697466224 0.5822007060 4285224793
-0.2753577828 -0.1691415459 0.5823445916 4287791746
-0.2750120759 -0.1682829708 0.5816134214 4288318090
-0.2746659219 -0.1674257815 0.5808814168 4289110430
-0.2739056349 -0.1663187146 0.5792735219 4288649879
-0.2731447220 -0.1652148515 0.5776642561 4287005831
-0.2703134120 -0.1628671288 0.5716764331 4287005831
-0.2670664489 -0.1602832377 0.5648095012 4286676615
-0.2625751793 -0.1569707692 0.5553111434 4286347650
-0.2642953694 -0.1573780924 0.5589491129 4286479495
-0.2622869611 -0.1555658430 0.5547015667 4286676874
-0.2623496056 -0.1549865454 0.5548340678 4287070344
-0.2624120712 -0.1544068307 0.5549661517 4286872965
-0.2624743283 -0.1538266987 0.5550978184 4286937990
-0.2629511058 -0.1534882635 0.5561061502 4287135369
-0.2638427317 -0.1533887535 0.5579918623 4287927454
-0.2634897232 -0.1525643766 0.5572452545 4288388005
-0.2643814385 -0.1524594575 0.5591310859 4287335056
-0.2648581862 -0.1521120220 0.5601393580 4286808712
-0.2649196684 -0.1515248418 0.5602694154 4286479747
-0.2653962970 -0.1511738300 0.5612773895 4286874505
-0.2650420368 -0.1503492445 0.5605281591 4287335056
-0.2651028931 -0.1497608423 0.5606569052 4287466642
-0.2655791640 -0.1494058520 0.5616641641 4287861402
-0.2652239799 -0.1485828310 0.5609129667 4289637813
-0.2657000124 -0.1482251734 0.5619197488 4291940825
-0.2657601237 -0.1476342380 0.5620468855 4292796134
-0.2658200264 -0.1470429003 0.5621735454 4292861929
-0.2658797204 -0.1464511603 0.5622997880 4292796136
-0.2659391761 -0.1458590180 0.5624255538 4292927722
-0.2659984529 -0.1452664882 0.5625508428 4290230209
-0.2652247548 -0.1442207396 0.5609146357 4287993247
-0.2648669481 -0.1434037983 0.5601578951 4286414215
-0.2649252713 -0.1428128630 0.5602812767 4285361779
-0.2649833858 -0.1422215551 0.5604041815 4285427572
-0.2646245658 -0.1414071620 0.5596452951 4285690231
-0.2642653286 -0.1405942291 0.5588855743 4286084989
-0.2643226385 -0.1400036216 0.5590067506 4286940298
-0.2643797100 -0.1394126117 0.5591274500 4288387744
-0.2644365728 -0.1388212293 0.5592476726 4288453796
-0.2644931972 -0.1382294744 0.5593674779 4288651175
-0.2645496130 -0.1376373321 0.5594868064 4286678155
-0.2641884685 -0.1368286461 0.5587229729 4284638572
-0.2642443478 -0.1362366825 0.5588412285 4284704365
-0.2643000185 -0.1356443465 0.5589589477 4285099123
-0.2643554807 -0.1350516379 0.5590762496 4286940557
-0.2644107342 -0.1344585419 0.5591930747 4288256417
-0.2644657493 -0.1338650882 0.5593094230 4290888137
-0.2649384141 -0.1334818006 0.5603090525 4292927720
-0.2649930716 -0.1328866780 0.5604246855 4292927720
-0.2654655874 -0.1324998289 0.5614238977 4292861927
-0.2655198872 -0.1319030225 0.5615387559 4292402148
-0.2655739486 -0.1313058585 0.5616531372 4290296772
-0.2656278014 -0.1307083219 0.5617670417 4287994015
-0.2656814456 -0.1301104277 0.5618804693 4287730843
-0.2661533356 -0.1297161132 0.5628784299 4288454050
-0.2662065923 -0.1291165501 0.5629910827 4288059292
-0.2666782737 -0.1287187040 0.5639886260 4288190878
-0.2667311728 -0.1281174719 0.5641005039 4288059292
-0.2667838633 -0.1275158972 0.5642119050 4287467155
-0.2668362856 -0.1269139647 0.5643228292 4287072397
-0.2673074901 -0.1265099645 0.5653192997 4287006604
-0.2677786052 -0.1261037141 0.5663157105 4287467155
-0.2682496905 -0.1256952286 0.5673119426 4288388256
-0.2683014572 -0.1250890344 0.5674214363 4288059291
-0.2683529854 -0.1244825050 0.5675303936 4287071371
-0.2684043050 -0.1238756180 0.5676389337 4286676613
-0.2688748538 -0.1234609932 0.5686340928 4288717991
-0.2690771520 -0.1210248172 0.5690619349 4288650916
-0.2691271603 -0.1204149127 0.5691676736 4289506225
-0.2691769004 -0.1198046803 0.5692728758 4286022781
-0.2692264318 -0.1191940978 0.5693776608 4284312163
-0.2688556314 -0.1183981895 0.5685934424 4287450693
-0.2684844434 -0.1176038533 0.5678084493 4290871929
-0.2668521702 -0.1162618250 0.5643563867 4288187269
-0.2677409351 -0.1160199046 0.5662359595 4290292645
-0.2738602161 -0.1699077636 0.5805410743 4289106580
-0.2739281654 -0.1693047583 0.5806851387 4285356379
-0.2735832930 -0.1684472263 0.5799540877 4288448650
-0.2736507356 -0.1678442210 0.5800970197 4289303959
-0.2733051479 -0.1669885367 0.5793644190 4289240735
-0.2725461721 -0.1658828855 0.5777555108 4288385426
-0.2717866004 -0.1647804230 0.5761453509 4286611073
-0.2689606547 -0.1624336243 0.5701547861 4286216315
-0.2661330998 -0.1600991488 0.5641608238 4286413443
-0.2637172937 -0.1580247283 0.5590397120 4286479236
-0.2641942501 -0.1576882601 0.5600507259 4286873226
-0.2621898949 -0.1558744013 0.5558018088 4286939019
-0.2618389130 -0.1550490409 0.5550578237 4286742408
-0.2619012892 -0.1544691175 0.5551900268 4286545029
-0.2623773217 -0.1541319042 0.5561991334 4286479747
-0.2624394000 -0.1535502374 0.5563307405 4287006091
-0.2629153132 -0.1532094479 0.5573396087 4288716196
-0.2633911967 -0.1528664082 0.5583484173 4289242540
-0.2638670802 -0.1525211036 0.5593572259 4287730327
-0.2643429339 -0.1521735638 0.5603659749 4286546053
-0.2644043863 -0.1515861750 0.5604961514 4286809225
-0.2644656003 -0.1509983689 0.5606259108 4287203983
-0.2645266056 -0.1504101604 0.5607552528 4287532948
-0.2645874023 -0.1498215497 0.5608841181 4287927706
-0.2646479607 -0.1492325366 0.5610125661 4288388771
-0.2647083402 -0.1486431062 0.5611405373 4289836217
-0.2647685111 -0.1480532736 0.5612680912 4291152077
-0.2648284435 -0.1474630535 0.5613951683 4292665316
-0.2648881972 -0.1468724310 0.5615218282 4292796902
-0.2653630078 -0.1465106755 0.5625283122 4292731109
-0.2650070190 -0.1456899792 0.5617737174 4292928488
-0.2650661170 -0.1450981498 0.5618990064 4291349456
-0.2651250064 -0.1445059329 0.5620238185 4288125599
-0.2643523812 -0.1434621811 0.5603859425 4285888637
-0.2644106448 -0.1428710371 0.5605095029 4284900974
-0.2640528679 -0.1420557946 0.5597510338 4285164146
-0.2636947036 -0.1412420273 0.5589917898 4285427059
-0.2633361220 -0.1404297352 0.5582316518 4285624438
-0.2633932531 -0.1398398280 0.5583527684 4286677126
-0.2634501755 -0.1392495483 0.5584734082 4287729814
-0.2635068893 -0.1386588812 0.5585936308 4287795866
-0.2635633647 -0.1380678266 0.5587133765 4287795866
-0.2636196315 -0.1374763995 0.5588326454 4286019455
-0.2636756897 -0.1368845999 0.5589514375 4284835181
-0.2637315094 -0.1362924129 0.5590698123 4284506470
-0.2637871206 -0.1356998533 0.5591877103 4285230193
-0.2638425231 -0.1351069212 0.5593051314 4286743178
-0.2638976872 -0.1345136166 0.5594220757 4289111726
-0.2639526427 -0.1339199543 0.5595386028 4291349458
-0.2644244730 -0.1335365325 0.5605387688 4292862697
-0.2644790709 -0.1329411715 0.5606545210 4293059560
-0.2649506927 -0.1325542033 0.5616542697 4292796388
-0.2650049329 -0.1319571733 0.5617692471 4292599009
-0.2650589347 -0.1313597709 0.5618837476 4290362047
-0.2651127279 -0.1307620108 0.5619978309 4288190878
-0.2655839026 -0.1303688735 0.5629965663 4287993499
-0.2656373382 -0.1297694445 0.5631098747 4288782502
-0.2656905353 -0.1291696578 0.5632226467 4288058779
-0.2661613524 -0.1287716627 0.5642206669 4288256158
-0.2662141919 -0.1281702071 0.5643327236 4288124572
-0.2662667930 -0.1275684088 0.5644442439 4287729814
-0.2663191855 -0.1269662380 0.5645552874 4287598228
-0.2667894959 -0.1265621036 0.5655522943 4287466642
-0.2676780224 -0.1263531297 0.5674358010 4287532435
-0.2677299678 -0.1257470697 0.5675458908 4288058266
-0.2677816749 -0.1251406521 0.5676555037 4288058266
-0.2678331435 -0.1245338842 0.5677646399 4287795606
-0.2678844035 -0.1239267662 0.5678732991 4286808711
-0.2679354250 -0.1233193055 0.5679814816 4287993498
-0.2686060965 -0.1204647496 0.5694031715 4289570990
-0.2686558068 -0.1198542714 0.5695085526 4285560184
-0.2687545121 -0.1186323166 0.5697178245 4288171587
-0.2683841586 -0.1178367138 0.5689327121 4291527030
-0.2684328556 -0.1172258481 0.5690359473 4289506217
-0.2676423192 -0.1162502393 0.5673601031 4291611593
-0.2725014985 -0.1694637984 0.5790241361 4288974993
-0.2725692093 -0.1688624024 0.5791679621 4285158999
-0.2722248435 -0.1680063754 0.5784362555 4288251528
-0.2718800604 -0.1671517342 0.5777036548 4289435802
-0.2719469368 -0.1665508002 0.5778457522 4289109406
-0.2711893022 -0.1654465646 0.5762358904 4287990925
-0.2700188160 -0.1640949994 0.5737487674 4286611073
-0.2676104903 -0.1619996279 0.5686314702 4286347901
-0.2647883296 -0.1596660912 0.5626347661 4286545029
-0.2619645298 -0.1573448926 0.5566346645 4286610822
-0.2616150081 -0.1565173268 0.5558919907 4286807433
-0.2616778314 -0.1559371203 0.5560254455 4286807433
-0.2617404461 -0.1553565115 0.5561585426 4286545029
-0.2618028522 -0.1547754705 0.5562911034 4286676615
-0.2622781098 -0.1544372290 0.5573009253 4286545540
-0.2628153265 -0.1535126269 0.5584424734 4288387744
-0.2632904351 -0.1531685442 0.5594519973 4288519330
-0.2633520961 -0.1525826901 0.5595830679 4287401362
-0.2638270855 -0.1522350311 0.5605923533 4286875018
-0.2638884485 -0.1516474336 0.5607227087 4287138704
-0.2639496028 -0.1510594189 0.5608526468 4287467669
-0.2640105486 -0.1504710019 0.5609821081 4287665048
-0.2640712559 -0.1498821825 0.5611111522 4287862427
-0.2641317844 -0.1492929459 0.5612397194 4288059806
-0.2641920745 -0.1487033218 0.5613678694 4288915115
-0.2642521858 -0.1481132805 0.5614955425 4289902010
-0.2643120587 -0.1475228369 0.5616227984 4292336351
-0.2643717229 -0.1469320059 0.5617495775 4292731109
-0.2644311786 -0.1463407576 0.5618758798 4292402144
-0.2644904256 -0.1457491219 0.5620017648 4293125867
-0.2645494640 -0.1451570839 0.5621272326 4292073179
-0.2641935349 -0.1443380713 0.5613709092 4288520357
-0.2642520368 -0.1437461674 0.5614952445 4285033328
-0.2638953924 -0.1429291517 0.5607374310 4284703849
-0.2635383606 -0.1421135962 0.5599787831 4284967021
-0.2631809413 -0.1412995160 0.5592193007 4285163887
-0.2628231049 -0.1404869258 0.5584589839 4285295473
-0.2628801763 -0.1398968101 0.5585802794 4286019196
-0.2629370391 -0.1393063068 0.5587010384 4286545540
-0.2625781894 -0.1384962797 0.5579385757 4286348420
-0.2626345158 -0.1379059553 0.5580582619 4286085248
-0.2631062865 -0.1375325173 0.5590606928 4284966767
-0.2631622851 -0.1369404942 0.5591796637 4284243044
-0.2632180452 -0.1363480836 0.5592981577 4284111712
-0.2632735968 -0.1357553154 0.5594162345 4284835435
-0.2633289397 -0.1351621598 0.5595337749 4286940811
-0.2625518739 -0.1341434568 0.5578826666 4289638324
-0.2634389400 -0.1339747459 0.5597675443 4291612630
-0.2634935975 -0.1333804727 0.5598837137 4293125869
-0.2635480464 -0.1327858418 0.5599994063 4292927974
-0.2640187144 -0.1323996633 0.5609995127 4292796388
-0.2640728056 -0.1318033636 0.5611144304 4292599523
-0.2645432949 -0.1314136237 0.5621141195 4289967803
-0.2645970285 -0.1308156550 0.5622283220 4287993499
-0.2646505535 -0.1302172989 0.5623419881 4288059292
-0.2651206851 -0.1298227161 0.5633410215 4288058779
-0.2655907869 -0.1294258833 0.5643398762 4288190365
-0.2656437755 -0.1288245618 0.5644524693 4287927193
-0.2656965554 -0.1282228976 0.5645646453 4287927193
-0.2657490969 -0.1276208609 0.5646762848 4287664021
-0.2662186921 -0.1272178590 0.5656741261 4287729814
-0.2675229311 -0.1272095442 0.5684454441 4287664021
-0.2671577036 -0.1264051497 0.5676693320 4287466642
-0.2672095895 -0.1257988513 0.5677796006 4287860887
-0.2672612369 -0.1251922101 0.5678893924 4288189852
-0.2673126757 -0.1245852038 0.5679986477 4288256157
-0.2673638761 -0.1239778548 0.5681074262 4287203469
-0.2685523629 -0.1200908720 0.5706328154 4285100403
-0.2690202594 -0.1196649820 0.5716269612 4283060820
-0.2686511278 -0.1188665405 0.5708426237 4287645502
-0.2682816088 -0.1180696711 0.5700574517 4292053633
-0.2679117024 -0.1172743812 0.5692715049 4292401366
-0.2711454034 -0.1690193415 0.5775055289 4289040786
-0.2712128162 -0.1684195548 0.5776490569 4285093206
-0.2708689868 -0.1675650477 0.5769167542 4288317321
-0.2705247402 -0.1667119116 0.5761835575 4289764767
-0.2705913186 -0.1661126018 0.5763253570 4288977820
-0.2698350251 -0.1650097668 0.5747145414 4287661960
-0.2686666846 -0.1636595279 0.5722261667 4286611586
-0.2662629187 -0.1615651697 0.5671064854 4286414207
-0.2638577819 -0.1594813466 0.5619837642 4286610822
-0.2626864314 -0.1581517160 0.5594889522 4286610822
-0.2615142465 -0.1568271667 0.5569924116 4286675847
-0.2611651719 -0.1559997797 0.5562489033 4286544261
-0.2612277269 -0.1554189622 0.5563820601 4286413956
-0.2612900436 -0.1548377126 0.5565148592 4287137679
-0.2617644072 -0.1544993669 0.5575252175 4286874764
-0.2618264258 -0.1539163888 0.5576573014 4286940557
-0.2627131045 -0.1538159251 0.5595458150 4287729814
-0.2623623908 -0.1529897153 0.5587987900 4287664021
-0.2632491291 -0.1528838277 0.5606874824 4287335315
-0.2633106112 -0.1522964388 0.5608184338 4287335315
-0.2633719146 -0.1517086327 0.5609489679 4287664280
-0.2634329796 -0.1511204094 0.5610790253 4287730073
-0.2634938359 -0.1505317837 0.5612086654 4287664280
-0.2639676034 -0.1501777619 0.5622177124 4287532694
-0.2636149526 -0.1493533105 0.5614666343 4287138706
-0.2637352049 -0.1481732130 0.5617227554 4287599257
-0.2637950182 -0.1475825608 0.5618501306 4291217872
-0.2638546228 -0.1469915062 0.5619770885 4292862697
-0.2639140189 -0.1464000493 0.5621035695 4292138974
-0.2639731765 -0.1458082050 0.5622295737 4292600038
-0.2640321553 -0.1452159584 0.5623551607 4292205280
-0.2636769712 -0.1443966329 0.5615986586 4289178802
-0.2637354136 -0.1438045204 0.5617231727 4284441706
-0.2629653811 -0.1427623630 0.5600831509 4284374884
-0.2630232275 -0.1421713382 0.5602062941 4284835435
-0.2622522414 -0.1411339939 0.5585641861 4285032814
-0.2627238333 -0.1407660693 0.5595686436 4285098607
-0.2619519830 -0.1397326142 0.5579246879 4285164400
-0.2620086670 -0.1391428262 0.5580454469 4285164400
-0.2620651722 -0.1385526657 0.5581657290 4285164400
-0.2617066801 -0.1377438307 0.5574022532 4285164400
-0.2621774971 -0.1373711973 0.5584049821 4284506216
-0.2622333169 -0.1367798895 0.5585238934 4284374630
-0.2622889280 -0.1361882091 0.5586423874 4284506470
-0.2623443305 -0.1355961561 0.5587603450 4284835435
-0.2623995245 -0.1350037158 0.5588778853 4287335569
-0.2624544799 -0.1344109178 0.5589949489 4290954184
-0.2629245818 -0.1340294778 0.5599961877 4292533732
-0.2629792094 -0.1334349811 0.5601125360 4293125869
-0.2630335987 -0.1328401268 0.5602283478 4292927974
-0.2630877495 -0.1322448999 0.5603437424 4292730595
-0.2635574043 -0.1318572909 0.5613440275 4291546835
-0.2636112273 -0.1312603951 0.5614586473 4288980908
-0.2640806735 -0.1308692247 0.5624585748 4288059292
-0.2641341388 -0.1302706450 0.5625724196 4288454050
-0.2646034062 -0.1298759282 0.5635718703 4287861913
-0.2646564841 -0.1292756945 0.5636849403 4287993499
-0.2651255727 -0.1288774163 0.5646840334 4287795607
-0.2651782930 -0.1282755136 0.5647963285 4287795607
-0.2652307749 -0.1276732534 0.5649080873 4287598228
-0.2652830482 -0.1270706356 0.5650194287 4287729814
-0.2657516301 -0.1266661882 0.5660174489 4287861400
-0.2670533657 -0.1266546845 0.5687900186 4287466642
-0.2671052814 -0.1260472089 0.5689005852 4287597715
-0.2667401731 -0.1252436936 0.5681229830 4288255645
-0.2667915523 -0.1246364713 0.5682323575 4288387744
-0.2672596276 -0.1242226884 0.5692293048 4287729814
-0.2677101493 -0.1187304109 0.5701888800 4287184951
-0.2673413157 -0.1179341823 0.5694033504 4292119426
-0.2697919011 -0.1685744077 0.5759852529 4289303958
-0.2698590159 -0.1679762304 0.5761285424 4285093206
-0.2695156932 -0.1671232283 0.5753955841 4288317321
-0.2695823014 -0.1665250659 0.5755378008 4289896353
-0.2692382932 -0.1656739116 0.5748033524 4288715420
-0.2684833407 -0.1645724922 0.5731915832 4287399560
-0.2673171461 -0.1632235646 0.5707018375 4286808711
-0.2649179697 -0.1611302346 0.5655798316 4286479746
-0.2629282176 -0.1592963338 0.5613318086 4286413443
-0.2609372735 -0.1574711502 0.5570812821 4286347650
-0.2618222833 -0.1573841870 0.5589707494 4286675847
-0.2606518865 -0.1560623646 0.5564720631 4286610054
-0.2607143521 -0.1554813385 0.5566053987 4286808714
-0.2607766092 -0.1548998952 0.5567383170 4287861402
-0.2612501085 -0.1545614451 0.5577491522 4287335315
-0.2617235780 -0.1542207301 0.5587599874 4286743178
-0.2621970177 -0.1538777798 0.5597708225 4287006091
-0.2626704872 -0.1535325646 0.5607815981 4287071884
-0.2627321184 -0.1529453695 0.5609131455 4287203472
-0.2632054389 -0.1525965631 0.5619236231 4287598230
-0.2632667422 -0.1520076245 0.5620545149 4287532694
-0.2633278370 -0.1514182836 0.5621849895 4287401108
-0.2633887231 -0.1508285254 0.5623149872 4287335315
-0.2634494007 -0.1502383500 0.5624445081 4286940557
-0.2635098696 -0.1496477872 0.5625736117 4286545799
-0.2631576657 -0.1488235295 0.5618216991 4286151041
-0.2632176280 -0.1482330710 0.5619496703 4286086018
-0.2632773519 -0.1476422101 0.5620772243 4289441461
-0.2637496591 -0.1472814381 0.5630854964 4292336353
-0.2638090551 -0.1466888338 0.5632123351 4292467939
-0.2634553313 -0.1458672136 0.5624571443 4292271073
-0.2635142207 -0.1452747583 0.5625829101 4292007901
-0.2631597817 -0.1444551200 0.5618261695 4290297283
-0.2632181346 -0.1438627988 0.5619508028 4285494394
-0.2628630102 -0.1430451721 0.5611925721 4284967021
-0.2620940506 -0.1420050263 0.5595509410 4285230193
-0.2621515095 -0.1414143145 0.5596736073 4285098607
-0.2617951930 -0.1406010985 0.5589128733 4285098607
-0.2614384592 -0.1397893727 0.5581513047 4285032814
-0.2614950836 -0.1391993761 0.5582721829 4284835435
-0.2611376643 -0.1383896768 0.5575091243 4284703595
-0.2611937821 -0.1377998441 0.5576289296 4284637802
-0.2612496614 -0.1372096390 0.5577482581 4284243044
-0.2613053620 -0.1366190463 0.5578671694 4285098353
-0.2613608241 -0.1360280961 0.5579855442 4285690490
-0.2614160776 -0.1354367584 0.5581035018 4285690490
-0.2614710927 -0.1348450333 0.5582209826 4288059038
-0.2619403899 -0.1344657093 0.5592228770 4291677653
-0.2619950473 -0.1338723153 0.5593395829 4292861927
-0.2624641657 -0.1334894300 0.5603411198 4292730341
-0.2625184953 -0.1328943670 0.5604570508 4292796388
-0.2625725865 -0.1322989166 0.5605725646 4292533216
-0.2630413771 -0.1319111586 0.5615733862 4289967289
-0.2630951107 -0.1313140392 0.5616881251 4288454050
-0.2631486356 -0.1307165623 0.5618024468 4288190878
-0.2636170983 -0.1303239465 0.5628025532 4288322464
-0.2636702657 -0.1297247857 0.5629160404 4287992986
-0.2641385198 -0.1293286085 0.5639157295 4287466642
-0.2641913295 -0.1287277937 0.5640284419 4287664021
-0.2646593750 -0.1283280700 0.5650277138 4287598228
-0.2647117972 -0.1277255714 0.5651396513 4287532435
-0.2647640109 -0.1271227300 0.5652511120 4287664021
-0.2652317286 -0.1267181486 0.5662496090 4287926680
-0.2656993568 -0.1263113171 0.5672479868 4287531922
-0.2665828168 -0.1260989606 0.5691341162 4287334543
-0.2666344345 -0.1254909039 0.5692443252 4287926680
-0.2666858435 -0.1248824969 0.5693540573 4287992473
-0.2667701840 -0.1185940653 0.5695341229 4287513916
-0.2672358453 -0.1181671843 0.5705282688 4292119426
-0.2656165361 -0.1168210879 0.5670711398 4293651433
-0.2684409618 -0.1681289822 0.5744633079 4289698717
-0.2685078084 -0.1675324142 0.5746063590 4285224793
-0.2681650221 -0.1666809320 0.5738728046 4288251528
-0.2682313621 -0.1660843790 0.5740147233 4289764767
-0.2670686245 -0.1647294313 0.5715265274 4288583834
-0.2679536939 -0.1646382213 0.5734205246 4287399560
-0.2655603886 -0.1625363082 0.5682988763 4286743431
-0.2635756135 -0.1606948227 0.5640514493 4286282880
-0.2615896463 -0.1588620543 0.5598014593 4286281857
-0.2608328164 -0.1577822417 0.5581818819 4286281857
-0.2600753903 -0.1567056924 0.5565609932 4286808203
-0.2601379752 -0.1561248749 0.5566949248 4287137168
-0.2602003813 -0.1555436552 0.5568284392 4287466903
-0.2602625787 -0.1549620032 0.5569615364 4287664282
-0.2607351840 -0.1546234339 0.5579729080 4286743948
-0.2612077594 -0.1542826295 0.5589842200 4286086018
-0.2616803348 -0.1539395601 0.5599955320 4286611333
-0.2621529102 -0.1535942405 0.5610068440 4286874505
-0.2622144520 -0.1530068368 0.5611385703 4287137679
-0.2626868784 -0.1526579261 0.5621495843 4287664023
-0.2627481222 -0.1520687789 0.5622806549 4287466644
-0.2628091574 -0.1514792144 0.5624112487 4287269265
-0.2628699839 -0.1508892477 0.5625413656 4287006093
-0.2633420527 -0.1505340785 0.5635516644 4286545542
-0.2629909813 -0.1497080922 0.5628003478 4286216834
-0.2630511820 -0.1491169035 0.5629291534 4286019455
-0.2626993954 -0.1482928693 0.5621763468 4286085248
-0.2627590895 -0.1477017850 0.5623040795 4287795866
-0.2628185451 -0.1471103132 0.5624312758 4291151309
-0.2628777921 -0.1465184391 0.5625581145 4292467169
-0.2629368305 -0.1459261626 0.5626844168 4291744216
-0.2629956603 -0.1453334838 0.5628103018 4291481044
-0.2626419663 -0.1445135474 0.5620534420 4290954700
-0.2622878551 -0.1436950713 0.5612956285 4286941327
-0.2623458505 -0.1431030780 0.5614197850 4285822076
-0.2619910538 -0.1422865987 0.5606604815 4285887869
-0.2616358697 -0.1414716095 0.5599004030 4285493111
-0.2612802982 -0.1406580955 0.5591394305 4285361525
-0.2609243095 -0.1398460567 0.5583776236 4285361525
-0.2609808743 -0.1392558515 0.5584986806 4285229939
-0.2606242001 -0.1384458393 0.5577353835 4285295732
-0.2606802285 -0.1378557980 0.5578553677 4285361525
-0.2607360780 -0.1372653693 0.5579748154 4284966767
-0.2607916892 -0.1366745681 0.5580938458 4285361525
-0.2608470917 -0.1360833943 0.5582123995 4285427320
-0.2609022856 -0.1354918331 0.5583305359 4286216836
-0.2609572411 -0.1348999143 0.5584481359 4289374900
-0.2610119879 -0.1343076080 0.5585653186 4291940827
-0.2610665262 -0.1337149292 0.5586820245 4292138206
-0.2615346611 -0.1333328485 0.5596837997 4292467171
-0.2615888417 -0.1327385008 0.5597997308 4292467423
-0.2620567977 -0.1323528588 0.5608011484 4291283149
-0.2621106207 -0.1317568272 0.5609163642 4288519843
-0.2621642351 -0.1311604232 0.5610310435 4288059292
-0.2630460858 -0.1309761852 0.5629183054 4288124572
-0.2630994320 -0.1303771734 0.5630323887 4287795607
-0.2635669410 -0.1299821585 0.5640329123 4287795607
-0.2636198997 -0.1293814778 0.5641462207 4287400849
-0.2636726499 -0.1287804246 0.5642591119 4287466642
-0.2641398311 -0.1283805668 0.5652588606 4287400849
-0.2646069527 -0.1279784441 0.5662584901 4287532177
-0.2642443478 -0.1271747798 0.5654825568 4287663763
-0.2651260793 -0.1269687563 0.5673694611 4287795349
-0.2655929327 -0.1265608221 0.5683684945 4287466384
-0.2660596967 -0.1261506528 0.5693674088 4287203212
-0.2661112845 -0.1255423576 0.5694777369 4287466384
-0.2661626041 -0.1249337271 0.5695875883 4287466384
-0.2662471831 -0.1186428964 0.5697686076 4287777088
-0.2662959099 -0.1180314347 0.5698728561 4292185219
-0.2659282088 -0.1172361597 0.5690860152 4293651433
-0.2670926750 -0.1676830649 0.5729396939 4290027682
-0.2671592236 -0.1670881063 0.5730824471 4285356379
-0.2672255635 -0.1664927155 0.5732247829 4288185735
-0.2668830156 -0.1656432152 0.5724899769 4289633181
-0.2665400505 -0.1647950858 0.5717542768 4288452761
-0.2657877803 -0.1636965126 0.5701406002 4287136901
-0.2642168999 -0.1620992869 0.5667709112 4286348673
-0.2626450062 -0.1605089456 0.5633990169 4286151294
-0.2606629133 -0.1586763859 0.5591472387 4286348163
-0.2603168190 -0.1578452885 0.5584048629 4286677128
-0.2595609426 -0.1567683220 0.5567834377 4287071375
-0.2596234679 -0.1561873108 0.5569175482 4287729305
-0.2596857846 -0.1556058824 0.5570512414 4287598489
-0.2597479224 -0.1550240368 0.5571845174 4286151043
-0.2602196336 -0.1546853632 0.5581963658 4285362295
-0.2606913149 -0.1543444395 0.5592082143 4285428088
-0.2611630261 -0.1540012658 0.5602200627 4286217088
-0.2616347075 -0.1536558419 0.5612318516 4286743432
-0.2621063590 -0.1533081532 0.5622435808 4287006093
-0.2621677220 -0.1527191997 0.5623752475 4287729816
-0.2622289062 -0.1521298587 0.5625064373 4287400851
-0.2627003193 -0.1517772377 0.5635176897 4287006093
-0.2627611756 -0.1511861384 0.5636482239 4286611335
-0.2628217936 -0.1505946219 0.5637782812 4286216577
-0.2624714673 -0.1497683227 0.5630267859 4286282370
-0.2629424334 -0.1494103819 0.5640370846 4286348163
-0.2625915110 -0.1485851109 0.5632842779 4286480006
-0.2626512051 -0.1479929090 0.5634123087 4286414213
-0.2627106905 -0.1474002898 0.5635399222 4289177519
-0.2627699673 -0.1468072683 0.5636670589 4291809239
-0.2628290057 -0.1462138593 0.5637937784 4291480274
-0.2624764740 -0.1453921497 0.5630375147 4290493379
-0.2625350058 -0.1447988600 0.5631631017 4290493379
-0.2621817589 -0.1439791471 0.5624052882 4288651175
-0.2618280947 -0.1431609094 0.5616466999 4286940300
-0.2614740431 -0.1423441470 0.5608872175 4286413956
-0.2607077360 -0.1413056105 0.5592434406 4285427320
-0.2611767054 -0.1409373283 0.5602493882 4285164148
-0.2604095340 -0.1399026811 0.5586037040 4285558906
-0.2604660392 -0.1393122524 0.5587249398 4285690492
-0.2601101100 -0.1385019422 0.5579614043 4285558904
-0.2601660788 -0.1379116923 0.5580815077 4285493111
-0.2602218390 -0.1373210549 0.5582011342 4285427320
-0.2602773905 -0.1367300302 0.5583202839 4285690492
-0.2599201798 -0.1359228790 0.5575540066 4285624699
-0.2599751949 -0.1353320479 0.5576720834 4287401110
-0.2600300312 -0.1347408444 0.5577896237 4290493381
-0.2600846291 -0.1341492534 0.5579067469 4291085518
-0.2605519295 -0.1337693036 0.5589091778 4290822346
-0.2606061697 -0.1331760436 0.5590255260 4292006620
-0.2610732913 -0.1327925175 0.5600275993 4292006872
-0.2611272037 -0.1321975738 0.5601431727 4289506738
-0.2611808777 -0.1316022575 0.5602583289 4287598228
-0.2616476715 -0.1312138736 0.5612596869 4287598228
-0.2621144354 -0.1308232248 0.5622608662 4287861400
-0.2625811100 -0.1304303408 0.5632619858 4287664021
-0.2626341581 -0.1298307329 0.5633757710 4287466642
-0.2626869977 -0.1292307675 0.5634890795 4287532435
-0.2627395689 -0.1286304444 0.5636019111 4287532177
-0.2632057965 -0.1282313764 0.5646020174 4287532177
-0.2636719644 -0.1278300583 0.5656019449 4287663763
-0.2641380429 -0.1274264902 0.5666017532 4287729556
-0.2650181651 -0.1272194535 0.5684897304 4287662993
-0.2650700510 -0.1266126037 0.5686010122 4287465614
