VERSION 0.7
FIELDS x y z rgba
SIZE 4 4 4 4
TYPE F F F U
COUNT 1 1 1 1
WIDTH 920
HEIGHT 1
VIEWPOINT 0.0 0.0 0.0 1.0 0.0 0.0 0.0
POINTS 920
DATA ascii
-0.2859207988 -0.1112088412 0.5673683882 4282398270
-0.2859688699 -0.1105970368 0.5674637556 4282135099
-0.2855732441 -0.1098144129 0.5666787028 4281937720
-0.2860642374 -0.1093725115 0.5676530004 4281806134
-0.2861115336 -0.1087597981 0.5677468777 4281937720
-0.2866022587 -0.1083144397 0.5687206388 4282135099
-0.2816835344 -0.1008661240 0.5589601398 4282661443
-0.2848818600 -0.1007551998 0.5653067231 4282793028
-0.2844811082 -0.0999862552 0.5645115376 4282333758
-0.2845245302 -0.0993742123 0.5645976663 4284636513
-0.2854569852 -0.0990705192 0.5664480329 4288378226
-0.2859447598 -0.0986093581 0.5674158931 4285878092
-0.2859876156 -0.0979936048 0.5675009489 4288234797
-0.2860302329 -0.0973775834 0.5675855279 4289682243
-0.2856276631 -0.0966107920 0.5667867064 4290206255
-0.2856697142 -0.0959951803 0.5668701530 4290206255
-0.2857114971 -0.0953792930 0.5669530034 4289811760
-0.2857530117 -0.0947631374 0.5670354366 4289943346
-0.2857942581 -0.0941467136 0.5671172738 4289745965
-0.2849448323 -0.0932386518 0.5654317141 4289745965
-0.2858760357 -0.0929130688 0.5672795177 4290073388
-0.2859165072 -0.0922958478 0.5673598647 4290073388
-0.2859567404 -0.0916783661 0.5674396753 4290073642
-0.2851057649 -0.0907769501 0.5657510757 4290139435
-0.2860364318 -0.0904426351 0.5675978065 4290073901
-0.2860758901 -0.0898243785 0.5676761270 4290139694
-0.2865607440 -0.0893448219 0.5686382651 4290204974
-0.2861540020 -0.0885871053 0.5678311586 4290270767
-0.2875300348 -0.0883791596 0.5705616474 4290401577
-0.2866769433 -0.0874848887 0.5688688159 4290467370
-0.2880528569 -0.0872696862 0.5715991259 4290139694
-0.2889828980 -0.0869143158 0.5734446645 4290402866
-0.2899129093 -0.0865548402 0.5752901435 4289484602
-0.2908428907 -0.0861912519 0.5771355629 4289681981
-0.2922189832 -0.0859547853 0.5798662305 4290676094
-0.2904717922 -0.0848004371 0.5763992071 4294954181
-0.3154987991 -0.1954863667 0.6274445057 4290823373
-0.3155795932 -0.1948391050 0.6276051402 4283915108
-0.3152271509 -0.1939249784 0.6269042492 4282270283
-0.3148742616 -0.1930121332 0.6262024641 4282465863
-0.3149541616 -0.1923651695 0.6263613105 4282005312
-0.3150338233 -0.1917177141 0.6265197396 4282465863
-0.3146798015 -0.1908069551 0.6258157492 4283781723
-0.3143253624 -0.1898974776 0.6251108050 4282860621
-0.3135367930 -0.1887282729 0.6235425472 4282992207
-0.3131813407 -0.1878222972 0.6228356361 4282794828
-0.3102221489 -0.1853621453 0.6169506311 4282663242
-0.3020534515 -0.1798137873 0.6007052064 4282860621
-0.2943145037 -0.1745564342 0.5853144526 4282926414
-0.2935186625 -0.1734358668 0.5837317705 4282861134
-0.2914192975 -0.1715514362 0.5795566440 4282795341
-0.2906218469 -0.1704398394 0.5779707432 4282861134
-0.2906928062 -0.1698391438 0.5781118870 4283124306
-0.2898943126 -0.1687320471 0.5765239000 4282860619
-0.2886604369 -0.1673760414 0.5740700364 4281807931
-0.2882953882 -0.1665273458 0.5733440518 4282860619
-0.2879299223 -0.1656800210 0.5726172328 4283386963
-0.2875640392 -0.1648340672 0.5718895793 4282597447
-0.2871977091 -0.1639894992 0.5711610317 4282071103
-0.2868309617 -0.1631462872 0.5704316497 4281939519
-0.2868991494 -0.1625511348 0.5705672503 4282005312
-0.2869670987 -0.1619555503 0.5707024336 4281939519
-0.2865993083 -0.1611146927 0.5699709654 4282005312
-0.2866667211 -0.1605191678 0.5701050758 4282005312
-0.2867339551 -0.1599232256 0.5702387094 4282071105
-0.2846215963 -0.1581161767 0.5660378337 4282071107
-0.2864317298 -0.1584888548 0.5696377158 4282005314
-0.2864981890 -0.1578925699 0.5697698593 4281939521
-0.2861282527 -0.1570564657 0.5690341592 4281873728
-0.2857578993 -0.1562217474 0.5682976246 4281873728
-0.2858234942 -0.1556260437 0.5684280396 4281873728
-0.2858888507 -0.1550299227 0.5685580969 4281808192
-0.2859539986 -0.1544333994 0.5686876178 4281808192
-0.2855822742 -0.1536016017 0.5679483414 4282071364
-0.2852101028 -0.1527712345 0.5672082305 4282663501
-0.2844006419 -0.1517092288 0.5655984282 4283189845
-0.2849014997 -0.1513468623 0.5665944219 4283387224
-0.2849652171 -0.1507510692 0.5667212009 4283321431
-0.2850287557 -0.1501548588 0.5668475628 4283189845
-0.2837802768 -0.1488700956 0.5643646717 4283255638
-0.2847177684 -0.1487327814 0.5662290454 4283255638
-0.2847805023 -0.1481363028 0.5663538575 4283255638
-0.2844054997 -0.1473127902 0.5656080246 4282992466
-0.2831547558 -0.1460392922 0.5631206632 4282597708
-0.2840919495 -0.1458949149 0.5649844408 4282268743
-0.2837157547 -0.1450748146 0.5642363429 4282268743
-0.2829012573 -0.1440332234 0.5626164675 4282400329
-0.2838382125 -0.1438830793 0.5644798875 4282466376
-0.2834609747 -0.1430655122 0.5637296438 4282071618
-0.2835215330 -0.1424695998 0.5638501048 4281808192
-0.2835818827 -0.1418733001 0.5639700890 4281873985
-0.2836419940 -0.1412766278 0.5640896559 4282005825
-0.2841403782 -0.1408970207 0.5650807619 4282071618
-0.2833229601 -0.1398656517 0.5634551644 4281940032
-0.2842596173 -0.1396999359 0.5653179288 4281742653
-0.2843189240 -0.1391008347 0.5654358864 4281676860
-0.2843779624 -0.1385013610 0.5655533075 4281611067
-0.2835589051 -0.1374758929 0.5639243722 4281545274
-0.2849344313 -0.1375131756 0.5666599274 4281611067
-0.2845537364 -0.1367006898 0.5659028888 4281742653
-0.2841726542 -0.1358897090 0.5651450157 4281808446
-0.2846697867 -0.1354984045 0.5661336184 4281940032
-0.2847274542 -0.1348967105 0.5662482977 4282005825
-0.2847848833 -0.1342946440 0.5663625598 4282071616
-0.2844024897 -0.1334859133 0.5656021237 4282071616
-0.2853386998 -0.1332948208 0.5674639344 4282071616
-0.2853955030 -0.1326907426 0.5675769448 4282137409
-0.2854520977 -0.1320863068 0.5676894784 4282268482
-0.2850685120 -0.1312789172 0.5669265985 4282400068
-0.2860045433 -0.1310780197 0.5687881708 4282465861
-0.2865006030 -0.1306723058 0.5697746277 4282531654
-0.2847956717 -0.1292653978 0.5663840175 4282926412
-0.2857314348 -0.1290587634 0.5682449937 4283057998
-0.2849058807 -0.1280563474 0.5666032434 4283189584
-0.2845202088 -0.1272543073 0.5658361912 4283255377
-0.2841341197 -0.1264538020 0.5650683641 4283452242
-0.2837476134 -0.1256548166 0.5642997026 4283518035
-0.2833607197 -0.1248573512 0.5635302663 4283583827
-0.2834141850 -0.1242546663 0.5636366010 4283518034
-0.2830265462 -0.1234593391 0.5628656745 4283321170
-0.2835203707 -0.1230482757 0.5638477802 4283123791
-0.2831321061 -0.1222541481 0.5630756021 4283255377
-0.2831845284 -0.1216510534 0.5631798506 4283255377
-0.2841190696 -0.1214247122 0.5650383830 4283386449
-0.2846643627 -0.1203997508 0.5661228895 4283518035
-0.2851574719 -0.1199782267 0.5671035647 4283583828
-0.2852090001 -0.1193697006 0.5672060251 4283386448
-0.2857018709 -0.1189446896 0.5681862235 4283583827
-0.2848697007 -0.1179687753 0.5665312409 4283518034
-0.2862456441 -0.1179060712 0.5692675710 4283518034
-0.2862963378 -0.1172943488 0.5693684816 4283583827
-0.2863468230 -0.1166823059 0.5694687963 4283649620
-0.2863970399 -0.1160699427 0.5695686936 4283386448
-0.2868890464 -0.1156354249 0.5705472231 4282728518
-0.2864967287 -0.1148442477 0.5697669983 4282858821
-0.2861040235 -0.1140546352 0.5689859390 4282858821
-0.2852686048 -0.1130912676 0.5673245788 4282858821
-0.2853173912 -0.1124801487 0.5674215555 4282793028
-0.2858083248 -0.1120421588 0.5683978796 4282661442
-0.2832492888 -0.1097872183 0.5633086562 4282266685
-0.2837865353 -0.1087413356 0.5643771291 4281871927
-0.2833907008 -0.1079634726 0.5635899305 4281937720
-0.2802099586 -0.1017984226 0.5572642684 4282463806
-0.2802540660 -0.1011951864 0.5573519468 4282464064
-0.2807414234 -0.1007508263 0.5583211780 4282661443
-0.2821158171 -0.1006206870 0.5610544682 4282660672
-0.2834903896 -0.1004845351 0.5637881160 4283055430
-0.2835339606 -0.0998734757 0.5638747811 4282597700
-0.2831335068 -0.0991067961 0.5630784035 4283058251
-0.2845080495 -0.0989592820 0.5658119917 4286933098
-0.2845509946 -0.0983454660 0.5658974051 4286998891
-0.2845937014 -0.0977313817 0.5659823418 4287052326
-0.2846361399 -0.0971170142 0.5660667419 4288433979
-0.2846783102 -0.0965023711 0.5661506653 4290074671
-0.2842760682 -0.0957378671 0.5653506517 4290008878
-0.2829849422 -0.0946777537 0.5627829432 4289942833
-0.2843590379 -0.0945091546 0.5655156374 4289877040
-0.2844001353 -0.0938943923 0.5655974150 4289811760
-0.2839965224 -0.0931336209 0.5647947192 4289811760
-0.2844815552 -0.0926640779 0.5657593012 4290008108
-0.2845218778 -0.0920485258 0.5658395290 4290073901
-0.2845619619 -0.0914327130 0.5659192204 4290204974
-0.2841570675 -0.0906747356 0.5651140213 4290270767
-0.2846413255 -0.0902003050 0.5660770535 4290205489
-0.2846806049 -0.0895837173 0.5661551952 4290205489
-0.2847196460 -0.0889668763 0.5662328005 4290204974
-0.2852033675 -0.0884878337 0.5671948195 4290204974
-0.2861319184 -0.0881436840 0.5690414906 4290401324
-0.2866154313 -0.0876593143 0.5700030327 4290532910
-0.2857634425 -0.0867673084 0.5683086514 4290270769
-0.2853561044 -0.0860131010 0.5674985647 4290468148
-0.2876197994 -0.0860598981 0.5720005035 4290140471
-0.2858762145 -0.0849065036 0.5685329437 4290140471
-0.2885853648 -0.0850734711 0.5739207268 4289159509
-0.2939673662 -0.0860105008 0.5846241117 4293370261
-0.2917776406 -0.0847250968 0.5802693367 4294764775
-0.3136360645 -0.1947623938 0.6251208186 4290889936
-0.3137164414 -0.1941175759 0.6252810359 4284638831
-0.3133643866 -0.1932057738 0.6245793104 4282336076
-0.3130118549 -0.1922952533 0.6238766909 4282531656
-0.3130913377 -0.1916507483 0.6240351200 4282202691
-0.3131706119 -0.1910057366 0.6241930723 4282334536
-0.3128169775 -0.1900973022 0.6234881878 4283781982
-0.3124628961 -0.1891901791 0.6227824688 4283058259
-0.3116754889 -0.1880232096 0.6212130785 4282926673
-0.3108873963 -0.1868593246 0.6196423173 4282926414
-0.3079331815 -0.1844017506 0.6137541533 4282794828
-0.2958799005 -0.1765285730 0.5897302628 4282794828
-0.2911866903 -0.1730836630 0.5803760290 4282926414
-0.2903917134 -0.1719680429 0.5787915587 4283058000
-0.2887290418 -0.1703440249 0.5754776001 4282926414
-0.2879325747 -0.1692364812 0.5738900900 4282926414
-0.2880029380 -0.1686400473 0.5740303397 4283386965
-0.2872053981 -0.1675370336 0.5724407434 4283123791
-0.2864072323 -0.1664371789 0.5708498955 4282005310
-0.2860424519 -0.1655917615 0.5701228380 4282531656
-0.2852431238 -0.1644973457 0.5685296655 4283321172
-0.2853116989 -0.1639050543 0.5686663389 4282136898
-0.2849456668 -0.1630637646 0.5679367781 4281742140
-0.2845792174 -0.1622238457 0.5672063828 4281676347
-0.2846469283 -0.1616320908 0.5673413277 4281742140
-0.2842797339 -0.1607940346 0.5666095018 4281742142
-0.2843469083 -0.1602023393 0.5667433739 4281676349
-0.2844138741 -0.1596102268 0.5668768287 4281742142
-0.2814356983 -0.1573156714 0.5609409213 4281807935
-0.2841120362 -0.1581825018 0.5662752390 4281807935
-0.2841782272 -0.1575900316 0.5664072037 4281807935
-0.2842442095 -0.1569971591 0.5665386915 4281873728
-0.2838746011 -0.1561643630 0.5658019781 4281807935
-0.2830690742 -0.1550943702 0.5641964674 4281807935
-0.2835696936 -0.1547406763 0.5651942492 4281807935
-0.2831988931 -0.1539112031 0.5644552708 4281742653
-0.2832635045 -0.1533190161 0.5645839572 4281742653
-0.2833278775 -0.1527264118 0.5647122860 4281940032
-0.2820840478 -0.1514312625 0.5622332096 4282268997
-0.2825837731 -0.1510737389 0.5632292032 4282466122
-0.2822743058 -0.1496580839 0.5626123548 4282268743
-0.2828364968 -0.1487034559 0.5637329221 4282137157
-0.2816515267 -0.1468330026 0.5613710880 4281939778
-0.2808398902 -0.1457879394 0.5597533584 4281808192
-0.2826488018 -0.1461010426 0.5633587837 4281742399
-0.2822734714 -0.1452819407 0.5626107454 4281676606
-0.2814607024 -0.1442403197 0.5609907508 4281676606
-0.2823958695 -0.1440941989 0.5628547072 4281676606
-0.2820194960 -0.1432776153 0.5621045232 4281873728
-0.2820800543 -0.1426836997 0.5622252226 4281807935
-0.2821403742 -0.1420894116 0.5623454452 4281873728
-0.2822004855 -0.1414947361 0.5624652505 4281939521
-0.2818227410 -0.1406812370 0.5617123246 4281873728
-0.2810068727 -0.1396516711 0.5600861907 4281939521
-0.2828171849 -0.1399250478 0.5636944175 4282136898
-0.2828764617 -0.1393279284 0.5638126135 4282136898
-0.2833735049 -0.1389452070 0.5648032427 4282465863
-0.2829943299 -0.1381326020 0.5640475154 4282465863
-0.2839292586 -0.1379601657 0.5659109354 4282400070
-0.2835495472 -0.1371477395 0.5651540756 4282400070
-0.2831694186 -0.1363368034 0.5643964410 4282597449
-0.2832272947 -0.1357374638 0.5645118356 4282729035
-0.2837235034 -0.1353469491 0.5655007958 4282926414
-0.2837810218 -0.1347459406 0.5656154752 4283058000
-0.2833996117 -0.1339372545 0.5648552775 4283123791
-0.2838953733 -0.1335428506 0.5658434033 4283189584
-0.2839521766 -0.1329407692 0.5659566522 4283255377
-0.2844477296 -0.1325428635 0.5669443607 4283255377
-0.2836260796 -0.1315318942 0.5653066635 4283321170
-0.2832986712 -0.1301253289 0.5646541119 4283452242
-0.2838487923 -0.1291208267 0.5657505393 4283518034
-0.2834644020 -0.1283182204 0.5649843812 4283715413
-0.2835191488 -0.1277151555 0.5650935769 4283781206
-0.2822547257 -0.1265205294 0.5625733733 4283649620
-0.2827485204 -0.1261157095 0.5635575652 4283518034
-0.2828024030 -0.1255134642 0.5636649728 4283452241
-0.2828560472 -0.1249108836 0.5637719035 4283452241
-0.2820294797 -0.1239213124 0.5621244311 4283518034
-0.2825225592 -0.1235123128 0.5631071925 4283386448
-0.2821352482 -0.1227182001 0.5623352528 4283452241
-0.2821877897 -0.1221161336 0.5624399781 4283386449
-0.2831206918 -0.1218928769 0.5642994046 4283254863
-0.2827325165 -0.1210996360 0.5635256767 4283386448
-0.2832248807 -0.1206833199 0.5645070672 4283518034
-0.2819549739 -0.1195177957 0.5619758964 4283583827
-0.2833281159 -0.1194724292 0.5647127628 4283583827
-0.2833793759 -0.1188664883 0.5648149252 4283518034
-0.2838711739 -0.1184441373 0.5657951236 4283583827
-0.2848037481 -0.1182025522 0.5676539540 4283649620
-0.2848545015 -0.1175928041 0.5677551031 4283649620
-0.2853460610 -0.1171638146 0.5687348247 4283715413
-0.2849552929 -0.1163723245 0.5679559708 4283781206
-0.2854464948 -0.1159408018 0.5689349771 4283518034
-0.2850550711 -0.1151505634 0.5681548715 4282925897
-0.2842219472 -0.1141845882 0.5664942861 4282464834
-0.2842710614 -0.1135748029 0.5665922165 4282662213
-0.2834369540 -0.1126138791 0.5649297237 4282925385
-0.2834854424 -0.1120053530 0.5650263429 4282991178
-0.2844169736 -0.1117435545 0.5668830276 4282793799
-0.2826982439 -0.1104422510 0.5634573698 4282530627
-0.2840712070 -0.1103495434 0.5661938787 4282332478
-0.2836769223 -0.1095681712 0.5654079914 4282069306
-0.2837241888 -0.1089581102 0.5655021667 4281871926
-0.2837711871 -0.1083477437 0.5655958652 4281937719
-0.2820495963 -0.1070658118 0.5621644855 4282135098
-0.2829801142 -0.1067923754 0.5640192032 4282135098
-0.2801549733 -0.1020037457 0.5583882332 4282726465
-0.2798002362 -0.1006353423 0.5576812029 4282398273
-0.2820577621 -0.1008226797 0.5621807575 4282791742
-0.2816585302 -0.1000562385 0.5613850951 4282857535
-0.2825877368 -0.0997605249 0.5632370710 4282794309
-0.2817449570 -0.0988390744 0.5615572929 4282860102
-0.2831169665 -0.0986934230 0.5642919540 4285092440
-0.2836028636 -0.0982347652 0.5652604103 4287329402
-0.2836454809 -0.0976213813 0.5653452873 4287251765
-0.2836878002 -0.0970077142 0.5654296875 4287054386
-0.2837298810 -0.0963937789 0.5655135512 4289811758
-0.2833283246 -0.0956299156 0.5647131801 4289680172
-0.2833698392 -0.0950163975 0.5647959113 4290402103
-0.2834110856 -0.0944026113 0.5648781061 4290007345
-0.2834520638 -0.0937885568 0.5649598241 4290008628
-0.2830491662 -0.0930284187 0.5641567707 4289942835
-0.2835333049 -0.0925596505 0.5651217103 4290073901
-0.2835735381 -0.0919447988 0.5652019382 4290139694
-0.2836135030 -0.0913296938 0.5652815700 4290204978
-0.2836531997 -0.0907143280 0.5653607249 4290270771
-0.2836926579 -0.0900987014 0.5654394031 4290205237
-0.2841759026 -0.0896228552 0.5664024949 4290205237
-0.2837707996 -0.0888666809 0.5655951500 4290073903
-0.2842536271 -0.0883883983 0.5665574670 4290073903
-0.2847363353 -0.0879079401 0.5675195456 4290204976
-0.2847746015 -0.0872891173 0.5675958395 4290336562
-0.2848126292 -0.0866700485 0.5676715970 4290270517
-0.2857391536 -0.0863192230 0.5695183277 4290402103
-0.2862212062 -0.0858310014 0.5704791546 4290468407
-0.2867031395 -0.0853406116 0.5714396834 4290402614
-0.2854066789 -0.0843226612 0.5688556433 4288827712
-0.2858880460 -0.0838317797 0.5698150992 4291130467
-0.2868139744 -0.0834681317 0.5716605783 4293446856
-0.3122085333 -0.1943060607 0.6236561537 4291284694
-0.3118572831 -0.1933953166 0.6229544878 4285165947
-0.3123684824 -0.1930190474 0.6239756346 4282073676
-0.3120165467 -0.1921090782 0.6232726574 4282465863
-0.3116641939 -0.1912004054 0.6225687265 4282334277
-0.3113113642 -0.1902930140 0.6218639612 4282268743
-0.3109581172 -0.1893869340 0.6211583018 4283781982
-0.3110364079 -0.1887442917 0.6213147044 4283453017
-0.3102502525 -0.1875786632 0.6197443008 4282992466
-0.3090312481 -0.1861557662 0.6173092723 4282860621
-0.3065143824 -0.1839593649 0.6122816801 4282794828
-0.2940502167 -0.1758261621 0.5873837471 4282860619
-0.2897977233 -0.1726402342 0.5788891315 4282860619
-0.2881387472 -0.1710124165 0.5755752325 4282992207
-0.2869114280 -0.1696472168 0.5731235743 4282926414
-0.2861161530 -0.1685419530 0.5715349317 4282926412
-0.2857531607 -0.1676939279 0.5708098412 4283321170
-0.2853897512 -0.1668472588 0.5700839162 4283320656
-0.2850259244 -0.1660019606 0.5693571568 4282333761
-0.2846616805 -0.1651580334 0.5686295629 4282400072
-0.2838636339 -0.1640649885 0.5670353770 4283386967
-0.2834984362 -0.1632247120 0.5663058758 4282005314
-0.2826992273 -0.1621371210 0.5647094250 4281807935
-0.2823330760 -0.1613005102 0.5639780164 4281807935
-0.2824003100 -0.1607121527 0.5641123056 4281807935
-0.2820334136 -0.1598774046 0.5633794069 4281807935
-0.2816661000 -0.1590440422 0.5626457334 4281742142
-0.2812983990 -0.1582120955 0.5619111657 4281807935
-0.2813644409 -0.1576247811 0.5620431304 4281807935
-0.2796930671 -0.1560676843 0.5587044358 4281807935
-0.2814959288 -0.1564489156 0.5623057485 4281742142
-0.2819958627 -0.1561008841 0.5633044243 4281807935
-0.2816265523 -0.1552713960 0.5625666976 4281807935
-0.2816915214 -0.1546820253 0.5626965165 4281742142
-0.2817563117 -0.1540922523 0.5628258586 4281807935
-0.2818208635 -0.1535020769 0.5629547834 4281742140
-0.2814501822 -0.1526755095 0.5622143745 4281807933
-0.2815141976 -0.1520854384 0.5623422265 4281939519
-0.2820131779 -0.1517291069 0.5633389950 4282005312
-0.2816415429 -0.1509040743 0.5625966787 4282136898
-0.2812694907 -0.1500804722 0.5618534684 4282071105
-0.2817680538 -0.1497211158 0.5628493428 4281939519
-0.2818309665 -0.1491290331 0.5629749894 4281873726
-0.2810222507 -0.1480774134 0.5613595843 4282202691
-0.2815203369 -0.1477150470 0.5623545051 4282202691
-0.2815824747 -0.1471226960 0.5624786615 4282136898
-0.2812084258 -0.1463031322 0.5617314577 4282136898
-0.2803978622 -0.1452591121 0.5601123571 4282268486
-0.2813314199 -0.1451183259 0.5619771481 4282465865
-0.2809562981 -0.1443012804 0.5612278581 4282465865
-0.2805807889 -0.1434856802 0.5604777336 4282465865
-0.2810777724 -0.1431159973 0.5614704490 4282597449
-0.2811381817 -0.1425227821 0.5615911484 4282663242
-0.2811983526 -0.1419291794 0.5617113113 4282860621
-0.2808215618 -0.1411157399 0.5609586239 4282860621
-0.2808811665 -0.1405223012 0.5610777736 4282860621
-0.2813774943 -0.1401461065 0.5620691776 4282992207
-0.2805627286 -0.1391176134 0.5604416728 4283189586
-0.2814958096 -0.1389555037 0.5623055100 4283255379
-0.2815546095 -0.1383596510 0.5624229908 4283123791
-0.2820504904 -0.1379773319 0.5634135008 4283189584
-0.2816715539 -0.1371668130 0.5626565814 4283189586
-0.2830420732 -0.1372060329 0.5653942823 4283123793
-0.2831002474 -0.1366059035 0.5655104518 4283123793
-0.2818452120 -0.1353747696 0.5630034804 4283189586
-0.2827781439 -0.1351952553 0.5648670197 4283189584
-0.2828355134 -0.1345949471 0.5649816394 4283189584
-0.2828926444 -0.1339942813 0.5650957823 4283386448
-0.2820735574 -0.1329802722 0.5634596348 4283452241
-0.2830062509 -0.1327918619 0.5653226972 4283518034
-0.2830626965 -0.1321901083 0.5654354692 4283518034
-0.2822423875 -0.1311805993 0.5637968779 4283452242
-0.2831749022 -0.1309855282 0.5656595826 4283452242
-0.2832306325 -0.1303827018 0.5657709241 4283386449
-0.2832861543 -0.1297795177 0.5658818483 4283386449
-0.2829028070 -0.1289760172 0.5651161075 4283518035
-0.2825190723 -0.1281740367 0.5643495321 4283583828
-0.2816961408 -0.1271754801 0.5627056956 4283649621
-0.2817503512 -0.1265746355 0.5628139973 4283583828
-0.2818043530 -0.1259734482 0.5629218221 4283386449
-0.2818580866 -0.1253719032 0.5630292296 4283386449
-0.2814725041 -0.1245756820 0.5622589588 4283583828
-0.2815257013 -0.1239743903 0.5623652339 4283649621
-0.2815786600 -0.1233727708 0.5624709725 4283320655
-0.2811920047 -0.1225792766 0.5616986752 4283320655
-0.2812443972 -0.1219779104 0.5618033409 4283386449
-0.2821756303 -0.1217555180 0.5636634827 4283452242
-0.2817880809 -0.1209628955 0.5628893971 4283518035
-0.2814001739 -0.1201718226 0.5621144772 4283583828
-0.2818913758 -0.1197559536 0.5630956888 4283583827
-0.2819426656 -0.1191519871 0.5631981492 4283583827
-0.2819937170 -0.1185476854 0.5633000731 4283715413
-0.2824845016 -0.1181270629 0.5642805099 4283649620
-0.2829752266 -0.1177042276 0.5652607679 4283781207
-0.2834658623 -0.1172791719 0.5662408471 4283781207
-0.2839564085 -0.1168519109 0.5672207475 4283715414
-0.2831259370 -0.1158817708 0.5655617714 4283781207
-0.2844968736 -0.1158114597 0.5683003068 4283583827
-0.2841061056 -0.1150218397 0.5675197840 4283189069
-0.2828338742 -0.1138790324 0.5649783611 4282465093
-0.2833234370 -0.1134473309 0.5659562945 4282662472
-0.2838128805 -0.1130134165 0.5669340491 4282991178
-0.2825391591 -0.1118791401 0.5643896461 4283122764
-0.2834689915 -0.1116181910 0.5662470460 4282859592
-0.2830760777 -0.1108352095 0.5654621720 4282596420
-0.2822417617 -0.1098821312 0.5637956262 4282201662
-0.2818479836 -0.1091032848 0.5630090237 4281938490
-0.2827772796 -0.1088354066 0.5648653507 4281741111
-0.2828241587 -0.1082257405 0.5649589896 4281806904
-0.2815469205 -0.1071121097 0.5624076128 4282135099
-0.2787723541 -0.1017255336 0.5568652153 4283055428
-0.2788162827 -0.1011227518 0.5569530129 4282596166
-0.2784180641 -0.1003603861 0.5561575294 4282398787
-0.2802294493 -0.1003913805 0.5597758889 4282792258
-0.2807149291 -0.0999422744 0.5607456565 4282660672
-0.2803159952 -0.0991781056 0.5599488020 4282596932
-0.2816855311 -0.0990374684 0.5626844764 4282794311
-0.2821706533 -0.0985817760 0.5636535883 4283646797
-0.2822133303 -0.0979703292 0.5637388229 4286475896
-0.2822557390 -0.0973586068 0.5638235211 4288570454
-0.2822979093 -0.0967466086 0.5639078021 4286530871
-0.2823398411 -0.0961343423 0.5639914870 4289154857
-0.2814962864 -0.0952223539 0.5623064637 4289746994
-0.2819802165 -0.0947602242 0.5632731915 4290664765
-0.2820213139 -0.0941480994 0.5633552074 4290401593
-0.2816193402 -0.0933888778 0.5625522733 4290271030
-0.2825455666 -0.0930689350 0.5644025207 4290139444
-0.2825859487 -0.0924550593 0.5644831657 4290139694
-0.2826260924 -0.0918409154 0.5645633340 4290205487
-0.2826659679 -0.0912265182 0.5646429658 4290205237
-0.2827055752 -0.0906118527 0.5647221208 4290205237
-0.2827449441 -0.0899969339 0.5648007393 4290270777
-0.2823407948 -0.0892416611 0.5639934540 4290270777
-0.2832661867 -0.0889054611 0.5658419132 4290073903
-0.2837481797 -0.0884269848 0.5668047667 4290073903
-0.2837866247 -0.0878091156 0.5668815374 4290139444
-0.2833813429 -0.0870547667 0.5660719872 4290205237
-0.2838627398 -0.0865726396 0.5670335889 4290270777
-0.2852312028 -0.0863569379 0.5697671771 4290204984
-0.2839378119 -0.0853351727 0.5671836138 4290402357
-0.2857498229 -0.0852455497 0.5708031654 4290468150
-0.2866744697 -0.0848851427 0.5726501942 4289286459
-0.2880429029 -0.0846510455 0.5753837824 4290273354
-0.2894114256 -0.0844109058 0.5781174898 4292128681
-0.2876724601 -0.0832652375 0.5746437907 4294959065
-0.3103529811 -0.1935807168 0.6213280559 4291416280
-0.3104326427 -0.1929399073 0.6214875579 4285429119
-0.3105120957 -0.1922985911 0.6216465831 4282073676
-0.3105913401 -0.1916567832 0.6218051910 4282334790
-0.3106703162 -0.1910144836 0.6219633818 4282268997
-0.3098871112 -0.1898436099 0.6203953624 4281873985
-0.3091032207 -0.1886758357 0.6188260317 4283453017
-0.3096123338 -0.1882978976 0.6198452115 4283584603
-0.3083961308 -0.1868722439 0.6174104214 4282860880
-0.3071790636 -0.1854514778 0.6149737835 4282794826
-0.3046664894 -0.1832568944 0.6099436283 4282663240
-0.2913612425 -0.1746056974 0.5833064914 4282729033
-0.2875477374 -0.1716807336 0.5756717920 4282597447
-0.2863232195 -0.1703127623 0.5732203722 4282663240
-0.2850978673 -0.1689497232 0.5707672238 4282794826
-0.2843037546 -0.1678467244 0.5691773295 4282926412
-0.2839411497 -0.1670010686 0.5684514642 4283255377
-0.2835781574 -0.1661567837 0.5677247047 4283452241
-0.2832147181 -0.1653138697 0.5669971108 4282662725
-0.2828508914 -0.1644723266 0.5662686825 4282268486
-0.2824866176 -0.1636321545 0.5655394197 4283321174
-0.2808237970 -0.1620443016 0.5622105002 4281807935
-0.2817567885 -0.1619559377 0.5640783310 4281742142
-0.2805254459 -0.1606241614 0.5616131425 4281873728
-0.2805922925 -0.1600382924 0.5617470145 4281807935
-0.2797926962 -0.1589598805 0.5601462126 4281939521
-0.2802921534 -0.1586201489 0.5611461401 4281742142
-0.2794916332 -0.1575454324 0.5595434308 4281873728
-0.2791239023 -0.1567172706 0.5588072538 4281939521
-0.2791892588 -0.1561329663 0.5589381456 4281939519
-0.2797531188 -0.1552037299 0.5600669384 4282136898
-0.2802517712 -0.1548570096 0.5610652566 4282202691
-0.2798825800 -0.1540304273 0.5603261590 4282268484
-0.2803809941 -0.1536810696 0.5613240004 4282334277
-0.2804452777 -0.1530924886 0.5614526868 4282400070
-0.2800751328 -0.1522674412 0.5607116222 4282597449
-0.2805732191 -0.1519141197 0.5617088079 4282663242
-0.2810712755 -0.1515585929 0.5627059340 4282729035
-0.2811347842 -0.1509674937 0.5628330708 4282860621
-0.2803288400 -0.1499111503 0.5612195730 4282860621
-0.2808264196 -0.1495525837 0.5622157454 4282794828
-0.2808891833 -0.1489612013 0.5623413920 4282926414
-0.2805168033 -0.1481397450 0.5615958571 4282794828
-0.2810140252 -0.1477772444 0.5625913143 4283058000
-0.2806410193 -0.1469568461 0.5618445277 4283123793
-0.2807027996 -0.1463648081 0.5619682074 4283058000
-0.2803290486 -0.1455463767 0.5612199903 4283123793
-0.2799549103 -0.1447293907 0.5604709387 4283189586
-0.2800157964 -0.1441380233 0.5605928898 4283255379
-0.2800765038 -0.1435462683 0.5607143641 4283386965
-0.2801369727 -0.1429541260 0.5608354211 4283321170
-0.2797614634 -0.1421402097 0.5600836277 4283452756
-0.2798213661 -0.1415482312 0.5602036119 4283386963
-0.2799405456 -0.1403631270 0.5604422092 4283386963
-0.2795636654 -0.1395523101 0.5596876740 4283321170
-0.2800588310 -0.1391765326 0.5606790185 4283189839
-0.2805539370 -0.1387985200 0.5616702437 4283058253
-0.2801761925 -0.1379884183 0.5609139800 4283124046
-0.2815440595 -0.1380358338 0.5636523962 4283321425
-0.2807292640 -0.1370119154 0.5620211959 4283321170
-0.2820972800 -0.1370521039 0.5647599697 4283189584
-0.2821553051 -0.1364526749 0.5648761392 4283255377
-0.2813393474 -0.1354322731 0.5632426143 4283255377
-0.2813967466 -0.1348339617 0.5633575320 4283189839
-0.2814538777 -0.1342352927 0.5634719133 4283124046
-0.2806365490 -0.1332212240 0.5618355870 4283320655
-0.2815674841 -0.1330368519 0.5636993647 4283254862
-0.2807493210 -0.1320257932 0.5620613694 4283320655
-0.2821175456 -0.1320416778 0.5648005605 4283386448
-0.2808611989 -0.1308289170 0.5622853041 4283452242
-0.2822294533 -0.1308384985 0.5650246143 4283583828
-0.2827227116 -0.1304382831 0.5660121441 4283583828
-0.2827781737 -0.1298348606 0.5661231279 4283583828
-0.2819577456 -0.1288309991 0.5644806623 4283452242
-0.2811367512 -0.1278305054 0.5628370047 4283452242
-0.2816291451 -0.1274279505 0.5638228059 4283583828
-0.2812453210 -0.1266286969 0.5630543828 4283649621
-0.2804229558 -0.1256346554 0.5614079833 4283518035
-0.2804764807 -0.1250347644 0.5615151525 4283518035
-0.2800914347 -0.1242400855 0.5607442856 4283583828
-0.2805828452 -0.1238339320 0.5617280602 4283518035
-0.2806356549 -0.1232330129 0.5618337989 4283321425
-0.2793725133 -0.1220569089 0.5593050122 4282992460
-0.2807405889 -0.1220301464 0.5620439053 4282992205
-0.2807927132 -0.1214282140 0.5621482134 4283123791
-0.2804057598 -0.1206371561 0.5613735914 4282992205
-0.2809476256 -0.1196204051 0.5624583364 4283255632
-0.2809987664 -0.1190171391 0.5625607371 4283321425
-0.2814888358 -0.1185985655 0.5635418296 4283320655
-0.2819787860 -0.1181777790 0.5645228028 4283123276
-0.2820293903 -0.1175716445 0.5646240711 4283320656
-0.2825191021 -0.1171473712 0.5656045079 4283189070
-0.2816903889 -0.1161771566 0.5639454126 4283057484
-0.2826192379 -0.1159315929 0.5658049583 4283123277
-0.2822293341 -0.1151438653 0.5650243163 4282991691
-0.2813993096 -0.1141793057 0.5633626580 4282860105
-0.2820337713 -0.1119273454 0.5646328330 4282925644
-0.2812017202 -0.1109716371 0.5629670620 4282728265
-0.2808092535 -0.1101921350 0.5621813536 4282465093
-0.2808566093 -0.1095859930 0.5622761846 4282201408
-0.2792815566 -0.1064865291 0.5591229200 4281938490
-0.2802085578 -0.1062166989 0.5609787703 4281938490
-0.2798136473 -0.1054445878 0.5601881742 4282135099
-0.2791119814 -0.1026967764 0.5587834120 4282924355
-0.2791562676 -0.1020921320 0.5588720441 4283384906
-0.2783181667 -0.1011665389 0.5571941733 4283321174
-0.2783617973 -0.1005632281 0.5572815537 4282663244
-0.2788464427 -0.1001180485 0.5582517982 4282990150
-0.2793309391 -0.0996706709 0.5592217445 4282858564
-0.2802566886 -0.0993776023 0.5610750914 4282531909
-0.2807410359 -0.0989248753 0.5620447993 4282663495
-0.2812252641 -0.0984699577 0.5630142093 4282529857
-0.2808262706 -0.0977055877 0.5622154474 4285161577
-0.2808685303 -0.0970955342 0.5623000264 4289230697
-0.2813522220 -0.0966369063 0.5632683635 4286204219
-0.2813940048 -0.0960253477 0.5633520484 4287774746
-0.2809937596 -0.0952637196 0.5625507236 4289485364
-0.2810350060 -0.0946525782 0.5626332760 4290401339
-0.2810759842 -0.0940411612 0.5627153516 4290532925
-0.2806746960 -0.0932825804 0.5619120002 4290402357
-0.2815992534 -0.0929634795 0.5637629628 4290402357
-0.2816395462 -0.0923503041 0.5638436079 4290402864
-0.2816795707 -0.0917368680 0.5639237165 4290468657
-0.2817193270 -0.0911231786 0.5640033484 4290468409
-0.2817588449 -0.0905092210 0.5640824437 4290402616
-0.2817981243 -0.0898950100 0.5641610622 4290337340
-0.2818371356 -0.0892805457 0.5642391443 4290271547
-0.2823183835 -0.0888050124 0.5652025938 4290074417
-0.2827994823 -0.0883273035 0.5661658049 4290140210
-0.2823952138 -0.0875728801 0.5653564930 4290403386
-0.2824332416 -0.0869564414 0.5654326081 4290469179
-0.2833565176 -0.0866104066 0.5672810078 4290797123
-0.2838369608 -0.0861259028 0.5682428479 4290797123
-0.2829886675 -0.0852390304 0.5665445328 4290995005
-0.2830257118 -0.0846206322 0.5666187406 4291126591
-0.2830625176 -0.0840020031 0.5666924119 4290930766
-0.2839851081 -0.0836441070 0.5685394406 4291654489
-0.2866800427 -0.0838001817 0.5739347339 4291996067
-0.2915911376 -0.0845871493 0.5837667584 4294627787
-0.3085014224 -0.1928546429 0.6189975739 4292008419
-0.3090104461 -0.1924839765 0.6200188994 4285955463
-0.3090896010 -0.1918442100 0.6201777458 4282073676
-0.3091685176 -0.1912039667 0.6203361154 4282663755
-0.3092472255 -0.1905632168 0.6204940081 4281940032
-0.3084652722 -0.1893936992 0.6189250350 4282202950
-0.3081129789 -0.1884905100 0.6182181835 4283124052
-0.3077602386 -0.1875886172 0.6175104380 4283518810
-0.3074070811 -0.1866880506 0.6168017983 4282860880
-0.3057615161 -0.1850070506 0.6135000587 4282729035
-0.3019610643 -0.1820343435 0.6058745980 4282663242
-0.2882485688 -0.1731253117 0.5783609748 4282794828
-0.2853033245 -0.1707203239 0.5724514127 4282860621
-0.2840806842 -0.1693553925 0.5699982047 4282860623
-0.2832883596 -0.1682515144 0.5684084296 4282926416
-0.2824954093 -0.1671507955 0.5668174028 4282926416
-0.2821332216 -0.1663075238 0.5660907030 4283058002
-0.2817706168 -0.1654656082 0.5653631091 4283320402
-0.2814075947 -0.1646250784 0.5646347404 4282991437
-0.2810441256 -0.1637859195 0.5639054775 4282202691
-0.2806802690 -0.1629481316 0.5631753802 4282597449
-0.2803159654 -0.1621117294 0.5624444485 4282334277
-0.2795192301 -0.1610278338 0.5608457923 4282334277
-0.2791540027 -0.1601950973 0.5601130128 4282597449
-0.2787883580 -0.1593637615 0.5593793392 4282465863
-0.2784222960 -0.1585338116 0.5586448312 4282531656
-0.2780558169 -0.1577052623 0.5579094887 4282465863
-0.2776889205 -0.1568780988 0.5571733117 4282597449
-0.2777542472 -0.1562958062 0.5573043823 4282663242
-0.2773866057 -0.1554705501 0.5565667748 4282597962
-0.2774514258 -0.1548883319 0.5566967726 4282729548
-0.2775160074 -0.1543057263 0.5568263531 4282795341
-0.2780134082 -0.1539625078 0.5578244328 4282795341
-0.2785108089 -0.1536170840 0.5588224530 4282861134
-0.2790082097 -0.1532694101 0.5598204136 4282861134
-0.2790722251 -0.1526824534 0.5599489212 4283058259
-0.2787025869 -0.1518588960 0.5592072606 4283058259
-0.2791996300 -0.1515072882 0.5602045059 4283124052
-0.2796966434 -0.1511534601 0.5612017512 4283189845
-0.2797598839 -0.1505639702 0.5613287091 4283189845
-0.2798229456 -0.1499740779 0.5614551902 4283189845
-0.2790178955 -0.1489205807 0.5598398447 4283189845
-0.2786462605 -0.1481010467 0.5590941906 4283255638
-0.2795765996 -0.1479722559 0.5609608889 4283189586
-0.2796386480 -0.1473816931 0.5610854030 4283189586
-0.2792661786 -0.1465627998 0.5603380799 4283189586
-0.2788932920 -0.1457453668 0.5595898628 4283321172
-0.2789545059 -0.1451554596 0.5597126484 4283386965
-0.2794500887 -0.1447903663 0.5607070327 4283452758
-0.2790762484 -0.1439745128 0.5599569678 4283386965
-0.2791367769 -0.1433834583 0.5600784421 4283386965
-0.2791970968 -0.1427920163 0.5601994395 4283255379
-0.2788222134 -0.1419786960 0.5594472289 4283386965
-0.2788819969 -0.1413874179 0.5595672131 4283387478
-0.2780711949 -0.1403564513 0.5579403639 4283387478
-0.2790008485 -0.1402037144 0.5598056912 4283321685
-0.2790599763 -0.1396113038 0.5599243045 4283321685
-0.2778125107 -0.1383678764 0.5574213266 4283321172
-0.2791774869 -0.1384253502 0.5601601005 4283189586
-0.2805427909 -0.1384768784 0.5628995299 4283123791
-0.2797298431 -0.1374519914 0.5612683892 4283255377
-0.2806594968 -0.1372831315 0.5631337166 4283255377
-0.2807175219 -0.1366856992 0.5632501245 4283189584
-0.2803393006 -0.1358765811 0.5624912381 4283321170
-0.2799606919 -0.1350689381 0.5617315769 4283189584
-0.2795816958 -0.1342628002 0.5609710813 4283189070
-0.2800747752 -0.1338752210 0.5619604588 4283189070
-0.2801314592 -0.1332778037 0.5620741844 4283124304
-0.2793150544 -0.1322667003 0.5604361296 4283058511
-0.2806806564 -0.1322876364 0.5631761551 4283190097
-0.2798635066 -0.1312786043 0.5615366101 4283255890
-0.2807925642 -0.1310884356 0.5634006858 4283124304
-0.2812849581 -0.1306912303 0.5643886924 4283124304
-0.2817772925 -0.1302918047 0.5653765202 4283124304
-0.2813956439 -0.1294880211 0.5646107793 4282926925
-0.2797025144 -0.1280853450 0.5612135530 4282861132
-0.2806311846 -0.1278849989 0.5630768538 4282861132
-0.2802483141 -0.1270857602 0.5623087287 4282992718
-0.2794277966 -0.1260907352 0.5606623292 4283058511
-0.2803561687 -0.1258846521 0.5625250936 4283058511
-0.2795348167 -0.1248926818 0.5608770847 4283058511
-0.2787128985 -0.1239041165 0.5592279434 4282992718
-0.2796409130 -0.1236932576 0.5610899329 4282795339
-0.2796936035 -0.1230930388 0.5611956716 4282860621
-0.2797460556 -0.1224924773 0.5613009334 4282794828
-0.2797982693 -0.1218915805 0.5614057183 4282729035
-0.2798502743 -0.1212903485 0.5615100265 4282729035
-0.2794639766 -0.1204999089 0.5607349277 4282729037
-0.2795153856 -0.1198989525 0.5608381033 4282663244
-0.2800047696 -0.1194846481 0.5618200302 4282729037
-0.2800557911 -0.1188820899 0.5619224310 4282729037
-0.2805449367 -0.1184642985 0.5629038811 4282597708
-0.2805955708 -0.1178601384 0.5630054474 4282531915
-0.2810844481 -0.1174388602 0.5639863610 4282466124
-0.2811346948 -0.1168331057 0.5640871525 4282466124
-0.2811846733 -0.1162270233 0.5641874075 4282531917
-0.2812344134 -0.1156206205 0.5642872453 4282466124
-0.2812838852 -0.1150138900 0.5643865466 4282466124
-0.2808942497 -0.1142283678 0.5636047125 4282597710
-0.2809431851 -0.1136219501 0.5637029409 4282729548
-0.2814309299 -0.1131918058 0.5646815300 4282663755
-0.2814794481 -0.1125838086 0.5647789240 4282795341
-0.2806493044 -0.1116261259 0.5631132722 4282861134
-0.2806971967 -0.1110194027 0.5632093549 4282859851
-0.2803054750 -0.1102395803 0.5624234080 4282530886
-0.2799133658 -0.1094613522 0.5616366267 4282398271
-0.2799603641 -0.1088556051 0.5617309213 4281937720
-0.2795675397 -0.1080796197 0.5609427691 4281937720
-0.2791743279 -0.1073052362 0.5601537824 4282003513
-0.2796601653 -0.1068685204 0.5611286163 4281872697
-0.2792663276 -0.1060954407 0.5603383780 4281872697
-0.2793119550 -0.1054900959 0.5604298711 4281741624
-0.2793573141 -0.1048844531 0.5605209470 4281610038
-0.2777313888 -0.1024165377 0.5572586060 4282268232
-0.2777754962 -0.1018135548 0.5573470592 4282860369
-0.2773790956 -0.1010498852 0.5565516949 4283254609
-0.2778629959 -0.1006067172 0.5575225949 4283057230
-0.2787871957 -0.1003198475 0.5593770146 4282793798
-0.2792709470 -0.0998713300 0.5603476167 4282662212
-0.2793140113 -0.0992640555 0.5604340434 4282532167
-0.2802380919 -0.0989677161 0.5622881651 4282729546
-0.2802807987 -0.0983579606 0.5623738766 4282990150
-0.2803232670 -0.0977479294 0.5624590516 4284898147
-0.2799246609 -0.0969848856 0.5616592765 4288901478
-0.2804074287 -0.0965270400 0.5626279712 4287914583
-0.2804491222 -0.0959161818 0.5627115965 4287313433
-0.2800495625 -0.0951552019 0.5619099140 4289287223
-0.2800906897 -0.0945447609 0.5619924068 4290600765
-0.2801315784 -0.0939340591 0.5620744824 4290074421
-0.2801721990 -0.0933230892 0.5621559620 4290468148
-0.2806538641 -0.0928578526 0.5631223917 4290270769
-0.2806940377 -0.0922453851 0.5632030368 4290204463
-0.2807339728 -0.0916326642 0.5632831454 4290138670
-0.2807736397 -0.0910196751 0.5633627176 4290204463
-0.2808130682 -0.0904064327 0.5634418130 4290072877
-0.2808522284 -0.0897929296 0.5635204315 4289941804
-0.2813327909 -0.0893193856 0.5644846559 4289941804
-0.2818132043 -0.0888436586 0.5654485822 4290007597
-0.2818517387 -0.0882274657 0.5655258894 4290270769
-0.2818899751 -0.0876110122 0.5656026602 4290336562
-0.2819279730 -0.0869943127 0.5656788945 4290204976
-0.2824076712 -0.0865127519 0.5666413903 4290139183
-0.2824452221 -0.0858945921 0.5667166710 4290204976
-0.2820404470 -0.0851427317 0.5659044981 4290402357
-0.2825195193 -0.0846575350 0.5668658018 4290599736
-0.2829984725 -0.0841701552 0.5678268075 4290139445
-0.2839195132 -0.0838111416 0.5696748495 4289547308
-0.2843982279 -0.0833184347 0.5706353188 4290281583
-0.2848767936 -0.0828235522 0.5715955496 4293637026
-0.3070827127 -0.1923965216 0.6175271273 4292140003
-0.3071616590 -0.1917597055 0.6176859140 4286547600
-0.3072404265 -0.1911223829 0.6178442836 4282468434
-0.3073189259 -0.1904845834 0.6180021763 4282663755
-0.3073972166 -0.1898462921 0.6181596518 4282005825
-0.3074752986 -0.1892075241 0.6183166504 4282005571
-0.3066940606 -0.1880415231 0.6167455912 4282795087
-0.3063418269 -0.1871411055 0.6160372496 4283650396
-0.3055593669 -0.1859803945 0.6144638062 4282926673
-0.3043464124 -0.1845621169 0.6120246053 4282663242
-0.3009826839 -0.1818497926 0.6052603126 4282729035
-0.2894454598 -0.1742324531 0.5820596218 4282729035
-0.2839249074 -0.1702749580 0.5709580183 4282860621
-0.2822740376 -0.1686542183 0.5676382184 4282860623
-0.2814829051 -0.1675526053 0.5660472512 4282794830
-0.2811216414 -0.1667094529 0.5653207898 4282794830
-0.2803293169 -0.1656132638 0.5637274981 4282860623
-0.2803978324 -0.1650272459 0.5638653040 4283123023
-0.2800353169 -0.1641881913 0.5631362796 4282991437
-0.2796723843 -0.1633505225 0.5624064207 4282729035
-0.2793090045 -0.1625142246 0.5616757274 4282926414
-0.2789452374 -0.1616793126 0.5609441400 4282794828
-0.2781497836 -0.1605968028 0.5593445897 4282794828
-0.2773537338 -0.1595174819 0.5577437282 4282926414
-0.2769885063 -0.1586885452 0.5570092797 4282992207
-0.2770543993 -0.1581072658 0.5571417809 4283058000
-0.2766884267 -0.1572802067 0.5564058423 4282992207
-0.2763220370 -0.1564545631 0.5556690693 4282795341
-0.2763870955 -0.1558738649 0.5557999015 4282795341
-0.2760199904 -0.1550501138 0.5550616384 4282861134
-0.2765165865 -0.1547112316 0.5560602546 4282861134
-0.2765809894 -0.1541293114 0.5561898351 4282926927
-0.2766452134 -0.1535469890 0.5563189387 4282926927
-0.2771415710 -0.1532032639 0.5573170781 4282992720
-0.2776378989 -0.1528573036 0.5583151579 4282992720
-0.2777016759 -0.1522719413 0.5584434271 4283124052
-0.2777652144 -0.1516861767 0.5585712194 4283058259
-0.2773957849 -0.1508646458 0.5578283072 4283058259
-0.2783245146 -0.1507478803 0.5596959591 4283058259
-0.2783875167 -0.1501599997 0.5598226190 4283124052
-0.2784502804 -0.1495717168 0.5599488616 4283189845
-0.2785128653 -0.1489830464 0.5600746870 4283255381
-0.2785751820 -0.1483939737 0.5602000356 4283255381
-0.2782039940 -0.1475746334 0.5594535470 4283255379
-0.2782657743 -0.1469856948 0.5595778227 4283255379
-0.2787609100 -0.1466243863 0.5605735183 4283321172
-0.2783887386 -0.1458066255 0.5598251224 4283321172
-0.2780161798 -0.1449903101 0.5590758920 4283321172
-0.2780770063 -0.1444007307 0.5591982007 4283386965
-0.2785715163 -0.1440351158 0.5601926446 4283452758
-0.2786319852 -0.1434438378 0.5603142381 4283518551
-0.2782581449 -0.1426296532 0.5595625043 4283584344
-0.2778838873 -0.1418169439 0.5588098764 4283584344
-0.2779435217 -0.1412263662 0.5589298010 4283453271
-0.2771341801 -0.1401959211 0.5573022366 4283321685
-0.2776276469 -0.1398252398 0.5582945347 4283190099
-0.2776865065 -0.1392344534 0.5584129095 4283124306
-0.2773104608 -0.1384263188 0.5576567650 4283123793
-0.2782382965 -0.1382677853 0.5595225692 4282992207
-0.2787314057 -0.1378900707 0.5605141521 4282860621
-0.2787895501 -0.1372959316 0.5606310964 4282926414
-0.2784124315 -0.1364881545 0.5598727465 4282861132
-0.2797753513 -0.1365312040 0.5626135468 4282795339
-0.2798329890 -0.1359340996 0.5627294183 4282795339
-0.2794551253 -0.1351261586 0.5619695187 4282729546
-0.2795122266 -0.1345292479 0.5620843172 4282663240
-0.2795690894 -0.1339319646 0.5621986985 4282663240
-0.2787545919 -0.1329189539 0.5605608225 4282466376
-0.2792464793 -0.1325295717 0.5615499020 4282400583
-0.2793025374 -0.1319321394 0.5616627336 4282400583
-0.2793583870 -0.1313343495 0.5617750287 4282400583
-0.2785422206 -0.1303282827 0.5601336956 4282400583
-0.2799054086 -0.1303407252 0.5628749728 4282466376
-0.2799606323 -0.1297409236 0.5629860759 4282466376
-0.2800156474 -0.1291407794 0.5630967021 4282466376
-0.2800704241 -0.1285402775 0.5632068515 4282334790
-0.2796886265 -0.1277401447 0.5624390841 4282466376
-0.2793064415 -0.1269415319 0.5616705418 4282532169
-0.2789238393 -0.1261444390 0.5609011054 4282532169
-0.2785408199 -0.1253488809 0.5601309538 4282532169
-0.2785941064 -0.1247503832 0.5602380633 4282400583
-0.2782103717 -0.1239569560 0.5594664216 4282334790
-0.2782630920 -0.1233587116 0.5595723987 4282268997
-0.2778786421 -0.1225674227 0.5587993264 4282400072
-0.2779307961 -0.1219694465 0.5589042306 4282465865
-0.2784715891 -0.1209623814 0.5599916577 4282466122
-0.2789603472 -0.1205514073 0.5609745979 4282466122
-0.2794490457 -0.1201382279 0.5619572997 4282531915
-0.2795002759 -0.1195357516 0.5620602965 4282531915
-0.2799887359 -0.1191190779 0.5630425811 4282531915
-0.2800395489 -0.1185149997 0.5631448030 4282597708
-0.2800901234 -0.1179106012 0.5632464886 4282597708
-0.2801404595 -0.1173058748 0.5633476973 4282597710
-0.2806283534 -0.1168831661 0.5643288493 4282663503
-0.2802404165 -0.1160954386 0.5635487437 4282663503
-0.2807279825 -0.1156701893 0.5645291805 4282597710
-0.2803393900 -0.1148837209 0.5637477636 4282466124
-0.2803885341 -0.1142773777 0.5638465881 4282531917
-0.2808755934 -0.1138483286 0.5648260117 4282532426
-0.2809243202 -0.1132404059 0.5649240017 4282598219
-0.2809728086 -0.1126321703 0.5650215149 4282795087
-0.2805826068 -0.1118488461 0.5642368793 4282795087
-0.2801920474 -0.1110671163 0.5634514093 4282794060
-0.2798010707 -0.1102869809 0.5626652241 4282465095
-0.2794097066 -0.1095084324 0.5618782043 4282266685
-0.2790179551 -0.1087314785 0.5610904098 4281937720
-0.2790645957 -0.1081261411 0.5611841679 4281740341
-0.2792030275 -0.1063083038 0.5614625812 4281806904
-0.2792940736 -0.1050949171 0.5616456866 4281544245
-0.2793392539 -0.1044877768 0.5617365241 4281216049
-0.2768804431 -0.1010935158 0.5567919612 4282333507
-0.2769239545 -0.1004906669 0.5568794608 4282399300
-0.2778464556 -0.1002046391 0.5587345958 4282464833
-0.2774499059 -0.0994417146 0.5579371452 4282530626
-0.2797344923 -0.0990105122 0.5625313520 4282663242
-0.2802170813 -0.0985552296 0.5635017753 4283187529
-0.2793796360 -0.0976364687 0.5618177056 4284569182
-0.2798617780 -0.0971796662 0.5627872348 4288704614
-0.2799036801 -0.0965688303 0.5628715754 4288507235
-0.2799453437 -0.0959577262 0.5629553199 4287642398
-0.2795465291 -0.0951964259 0.5621533394 4288497707
-0.2795876265 -0.0945857391 0.5622360110 4290008373
-0.2800688148 -0.0941227674 0.5632036328 4290139959
-0.2801498771 -0.0928981304 0.5633666515 4290270769
-0.2801900208 -0.0922854096 0.5634473562 4289875498
-0.2802299261 -0.0916724280 0.5635275841 4289678119
-0.2802695632 -0.0910591856 0.5636073351 4289678119
-0.2803089321 -0.0904456899 0.5636864901 4289743912
-0.2807888687 -0.0899731740 0.5646516085 4289810218
-0.2808277905 -0.0893581957 0.5647299290 4289941804
-0.2808664739 -0.0887429565 0.5648076534 4290204976
-0.2809048891 -0.0881274715 0.5648849607 4290533941
-0.2809430659 -0.0875117332 0.5649616718 4290533941
-0.2814220488 -0.0870321542 0.5659249425 4290204976
-0.2814597785 -0.0864149481 0.5660007596 4289941804
-0.2814972103 -0.0857974961 0.5660760403 4289941804
-0.2815344036 -0.0851797909 0.5661508441 4289810731
-0.2815713286 -0.0845618546 0.5662251115 4289744938
-0.2820493877 -0.0840752423 0.5671864748 4289152296
-0.2834102213 -0.0838476568 0.5699229836 4290336570
-0.2847711146 -0.0836140141 0.5726596713 4290609261
-0.2861320674 -0.0833743140 0.5753965378 4293109395
-0.3052383363 -0.1916690618 0.6151922345 4292205796
-0.3053168952 -0.1910346895 0.6153506041 4287271323
-0.3053952456 -0.1903998256 0.6155084372 4282731606
-0.3054733276 -0.1897644848 0.6156659126 4282729548
-0.3055512309 -0.1891286373 0.6158228517 4282071618
-0.3056288958 -0.1884923130 0.6159793735 4281873985
-0.3057063520 -0.1878555119 0.6161354780 4282531915
-0.3044969440 -0.1864304841 0.6136980057 4283847775
-0.3041446507 -0.1855337173 0.6129879951 4282992466
-0.3025046587 -0.1838558763 0.6096826792 4282597449
-0.2991468012 -0.1811451763 0.6029151082 4282729035
-0.2902061343 -0.1750813872 0.5848956108 4282794828
-0.2825489938 -0.1698291153 0.5694630146 4282794828
-0.2809009552 -0.1682095230 0.5661414862 4282860623
-0.2792518735 -0.1665966809 0.5628178716 4282794830
-0.2797503471 -0.1662676185 0.5638225079 4282729037
-0.2789593339 -0.1651728153 0.5622282624 4282794830
-0.2790275812 -0.1645883769 0.5623657703 4282794828
-0.2778054774 -0.1632454246 0.5599027276 4282860621
-0.2783031166 -0.1629146338 0.5609056950 4282926416
-0.2779402733 -0.1620798409 0.5601744056 4282860623
-0.2780073583 -0.1614964157 0.5603095889 4282860623
-0.2772133052 -0.1604143828 0.5587092042 4282926416
-0.2764186561 -0.1593355536 0.5571076274 4282860623
-0.2756233513 -0.1582599133 0.5555047989 4282926416
-0.2756889760 -0.1576802433 0.5556370616 4282992209
-0.2753235400 -0.1568546891 0.5549004674 4282992209
-0.2753886282 -0.1562751085 0.5550317168 4282926673
-0.2750224471 -0.1554514468 0.5542936921 4282926673
-0.2750870287 -0.1548719406 0.5544238687 4282860880
