VERSION 0.7
FIELDS x y z rgba
SIZE 4 4 4 4
TYPE F F F U
COUNT 1 1 1 1
WIDTH 920
HEIGHT 1
VIEWPOINT 0.0 0.0 0.0 1.0 0.0 0.0 0.0
POINTS 920
DATA ascii
-0.3374459743 -0.1464413553 0.6293855309 4289289292
-0.3324181139 -0.1435705423 0.6200078130 4289289292
-0.3324817419 -0.1429090202 0.6201265454 4288565308
-0.3320819438 -0.1420489997 0.6193808913 4287578413
-0.3326082230 -0.1415848434 0.6203624010 4288367157
-0.3326710463 -0.1409221888 0.6204795837 4288038192
-0.3327336013 -0.1402591616 0.6205962896 4289155645
-0.3327958882 -0.1395957619 0.6207124591 4290208333
-0.3328578770 -0.1389319897 0.6208280921 4288958007
-0.3389474154 -0.1407712996 0.6321859360 4288694835
-0.3385462463 -0.1399031132 0.6314377189 4288826419
-0.3348976672 -0.1377013475 0.6246325970 4288629040
-0.3358868062 -0.1374119818 0.6264774799 4288498743
-0.3364119828 -0.1369296908 0.6274569631 4289354052
-0.3383293450 -0.1370089799 0.6310331225 4288962637
-0.3416396379 -0.1376415342 0.6372073293 4288502086
-0.3660379946 -0.1444370896 0.6827138066 4294962924
-0.3648316562 -0.1927471906 0.6818763614 4290491580
-0.3617103696 -0.1903470159 0.6760426164 4288244838
-0.3572134376 -0.1872387528 0.6676377654 4286600013
-0.3331681490 -0.1725594699 0.6226966977 4290733379
-0.3410357535 -0.1759261936 0.6374014020 4290141242
-0.3392784595 -0.1743151248 0.6341170073 4289286190
-0.3301826715 -0.1689562052 0.6171168685 4288957225
-0.3254268765 -0.1638195068 0.6082281470 4292376406
-0.3300893903 -0.1654811352 0.6169424653 4290665788
-0.3255697191 -0.1625392437 0.6084951758 4289415721
-0.3256407678 -0.1618984938 0.6086279154 4289153319
-0.3252521753 -0.1610298604 0.6079016328 4289416491
-0.3248631358 -0.1601626426 0.6071745157 4289219112
-0.3276907802 -0.1608762294 0.6124594808 4290271800
-0.3250030577 -0.1588818282 0.6074360609 4291324486
-0.3246128857 -0.1580169797 0.6067067981 4290140212
-0.3251419961 -0.1575993598 0.6076957583 4288759072
-0.3252111077 -0.1569575071 0.6078248620 4288824865
-0.3275803626 -0.1574207395 0.6122530699 4288824611
-0.3248883486 -0.1554524004 0.6072216630 4289087783
-0.3249565661 -0.1548102498 0.6073491573 4290994494
-0.3250245452 -0.1541676819 0.6074762344 4291126080
-0.3278551102 -0.1548294574 0.6127665639 4289941806
-0.3246991932 -0.1526647955 0.6068680882 4289547048
-0.3247663081 -0.1520219445 0.6069935560 4289481514
-0.3252939284 -0.1515934169 0.6079796553 4289152549
-0.3253606260 -0.1509488523 0.6081043482 4289284905
-0.3277318180 -0.1513683647 0.6125361323 4291258695
-0.3254932761 -0.1496585459 0.6083522439 4291588688
-0.3255591989 -0.1490127891 0.6084754467 4289549105
-0.3256248534 -0.1483666599 0.6085982323 4288825128
-0.3256902695 -0.1477201283 0.6087204814 4289285679
-0.3289853036 -0.1485314518 0.6148788929 4288628262
-0.3258203268 -0.1464259028 0.6089635491 4289286192
-0.3258849680 -0.1457782239 0.6090843081 4291194959
-0.3259493411 -0.1451301426 0.6092046499 4291129166
-0.3260134459 -0.1444816887 0.6093244553 4289156918
-0.3283866048 -0.1448514909 0.6137599349 4288762160
-0.3266028166 -0.1433864385 0.6104260087 4288892976
-0.3262041807 -0.1425340176 0.6096809506 4288498218
-0.3262672424 -0.1418840438 0.6097988486 4289287475
-0.3277167082 -0.1418338418 0.6125078797 4290800714
-0.3319403231 -0.1429724693 0.6204018593 4290208317
-0.3264548182 -0.1399318576 0.6101494431 4288760871
-0.3269793093 -0.1394776702 0.6111297011 4288891426
-0.3270411491 -0.1388249099 0.6112452149 4289351977
-0.3294160068 -0.1391489357 0.6156839132 4288890397
-0.3331797123 -0.1400468796 0.6227183342 4290074671
-0.3332418501 -0.1393809915 0.6228345037 4290797877
-0.3277486563 -0.1364028156 0.6125676036 4290074154
-0.3282722235 -0.1359390169 0.6135461926 4289153050
-0.3373765945 -0.1362061799 0.6305623651 4290403644
-0.3609504104 -0.1918444335 0.6760255098 4290757056
-0.3614906073 -0.1913793236 0.6770372987 4285690995
-0.3583738804 -0.1889835149 0.6711999774 4288238661
-0.3392529190 -0.1781943887 0.6353882551 4288567626
-0.3274400234 -0.1713082194 0.6132638454 4288762417
-0.3238550723 -0.1687587500 0.6065495610 4289025589
-0.3225558698 -0.1674105227 0.6041162610 4290405704
-0.3313236237 -0.1712716371 0.6205374002 4291063634
-0.3309403956 -0.1703848690 0.6198197007 4289420868
-0.3305567205 -0.1694994718 0.6191011071 4288697145
-0.3297146559 -0.1683815718 0.6175239682 4289679669
-0.3252076209 -0.1654031426 0.6090827584 4289284911
-0.3303192556 -0.1673155874 0.6186563373 4289349929
-0.3294757307 -0.1662027091 0.6170765162 4291718477
-0.3290898800 -0.1653232574 0.6163538694 4292508507
-0.3296204805 -0.1649038792 0.6173475981 4290468924
-0.3246484995 -0.1617409140 0.6080355644 4289089331
-0.3288469315 -0.1631482691 0.6158987880 4288957745
-0.3284594715 -0.1622725427 0.6151731610 4288892465
-0.3285304010 -0.1616239399 0.6153060198 4288760879
-0.3276832104 -0.1605252624 0.6137192845 4290733378
-0.3245401680 -0.1583102196 0.6078326702 4291917652
-0.3278234303 -0.1592295915 0.6139819026 4289811507
-0.3278931379 -0.1585811377 0.6141124368 4289153577
-0.3279626071 -0.1579322666 0.6142425537 4289154354
-0.3275724053 -0.1570627093 0.6135117412 4289220147
-0.3248840868 -0.1550976783 0.6084768176 4289680437
-0.3277098536 -0.1557647288 0.6137691736 4290667332
-0.3277781904 -0.1551151276 0.6138972044 4290798402
-0.3273864686 -0.1542484909 0.6131635308 4289285163
-0.3242348433 -0.1520888954 0.6072608232 4289547308
-0.3270616829 -0.1527342796 0.6125552058 4289678894
-0.3271287978 -0.1520848870 0.6126809120 4288824099
-0.3271956742 -0.1514351070 0.6128061414 4289810994
-0.3272622824 -0.1507849246 0.6129308939 4291785296
-0.3250267506 -0.1490785480 0.6087439656 4291193159
-0.3278551698 -0.1496936083 0.6140413880 4289483309
-0.3279210925 -0.1490413249 0.6141648293 4289285930
-0.3275260925 -0.1481802464 0.6134250164 4289090345
-0.3280521631 -0.1477355808 0.6144102812 4288827173
-0.3258130848 -0.1460492462 0.6102167368 4289288753
-0.3281821609 -0.1464282870 0.6146537662 4291394129
-0.3282467723 -0.1457740515 0.6147747636 4290865477
-0.3283110857 -0.1451194286 0.6148952246 4289220652
-0.3283751607 -0.1444644332 0.6150152683 4289023018
-0.3261325359 -0.1427991390 0.6108149886 4289088811
-0.3280411661 -0.1429522187 0.6143896580 4288825128
-0.3281043470 -0.1422969848 0.6145080328 4290075195
-0.3277057111 -0.1414421648 0.6137614250 4291193676
-0.3259216845 -0.1399939507 0.6104201078 4290338367
-0.3278305829 -0.1401316822 0.6139953136 4289285679
-0.3278926313 -0.1394758821 0.6141114831 4289154093
-0.3284162879 -0.1390152276 0.6150922775 4289023020
-0.3289398849 -0.1385523528 0.6160728931 4288891434
-0.3271529675 -0.1371189058 0.6127261519 4289615408
-0.3295245767 -0.1374271959 0.6171680093 4290470717
-0.3295855224 -0.1367667615 0.6172821522 4290075182
-0.3305708766 -0.1364877671 0.6191276312 4289088287
-0.3315562904 -0.1362046748 0.6209731698 4289090355
-0.3330042958 -0.1361065656 0.6236851215 4288827183
-0.3344525099 -0.1360025108 0.6263974905 4289023790
-0.3345129192 -0.1353309751 0.6265106797 4289813306
-0.3322592974 -0.1337278336 0.6222898364 4288961089
-0.3603559136 -0.1919277161 0.6763190031 4288519583
-0.3462952375 -0.1837167889 0.6499298215 4283716694
-0.3495693505 -0.1847248375 0.6560747027 4287779398
-0.3250005245 -0.1710640788 0.6099637151 4288042570
-0.3314666450 -0.1737763286 0.6220993996 4288894520
-0.3278886974 -0.1712168008 0.6153842807 4288894520
-0.3224817812 -0.1677209437 0.6052364707 4289419067
-0.3257527649 -0.1687428951 0.6113755107 4290603341
-0.3253690898 -0.1678656638 0.6106554270 4290472784
-0.3249849975 -0.1669898182 0.6099345684 4289025338
-0.3246004283 -0.1661153436 0.6092128158 4289351987
-0.3210144341 -0.1636107862 0.6024825573 4289220401
-0.3252021372 -0.1650670022 0.6103420854 4289153064
-0.3248165250 -0.1641939431 0.6096183658 4289876787
-0.3212273717 -0.1617097706 0.6028822064 4291981648
-0.3208401501 -0.1608458161 0.6021555066 4291784269
-0.3209103048 -0.1602117866 0.6022871137 4289614128
-0.3209801912 -0.1595773548 0.6024183035 4289285163
-0.3210498393 -0.1589425057 0.6025490165 4289088554
-0.3211192191 -0.1583072394 0.6026792526 4289220140
-0.3211883605 -0.1576715708 0.6028090119 4290008885
-0.3212572634 -0.1570354849 0.6029383540 4291324745
-0.3213259280 -0.1563989818 0.6030671597 4291456072
-0.3213943243 -0.1557620913 0.6031955481 4290008626
-0.3214624822 -0.1551247835 0.6033234596 4289416748
-0.3215303719 -0.1544870734 0.6034508944 4289219369
-0.3215980232 -0.1538489461 0.6035778522 4288958248
-0.3216654062 -0.1532104313 0.6037043333 4289287213
-0.3212735951 -0.1523538679 0.6029689908 4290733376
-0.3213403821 -0.1517154574 0.6030943394 4290864962
-0.3214069307 -0.1510766596 0.6032192111 4289745713
-0.3214732111 -0.1504374593 0.6033436060 4288890404
-0.3219985962 -0.1500118673 0.6043296456 4288956198
-0.3220644891 -0.1493709683 0.6044533253 4289219370
-0.3221300840 -0.1487296671 0.6045764685 4289943095
-0.3221954703 -0.1480879933 0.6046991348 4291653713
-0.3222605586 -0.1474459171 0.6048213243 4290996299
-0.3223254085 -0.1468034536 0.6049430370 4289483060
-0.3228498995 -0.1463690996 0.6059274077 4288760364
-0.3229143322 -0.1457249522 0.6060483456 4288891950
-0.3229784966 -0.1450804025 0.6061687469 4288761392
-0.3225822449 -0.1442297399 0.6054250598 4289287736
-0.3226458132 -0.1435853541 0.6055443287 4291587660
-0.3231694400 -0.1431444883 0.6065271497 4290337593
-0.3232325912 -0.1424984336 0.6066455841 4289482284
-0.3237559795 -0.1420540512 0.6076279283 4289613870
-0.3238186836 -0.1414063126 0.6077455878 4289547822
-0.3238811195 -0.1407582015 0.6078627706 4289416236
-0.3234824836 -0.1399104148 0.6071146131 4290205752
-0.3235442936 -0.1392624676 0.6072306633 4291455819
-0.3240668178 -0.1388116181 0.6082113385 4290403131
-0.3264335394 -0.1391446739 0.6126531959 4289416236
-0.3264950812 -0.1384900808 0.6127687097 4289153577
-0.3251726329 -0.1372510642 0.6102867126 4288890405
-0.3252333999 -0.1365985125 0.6104007363 4288956197
-0.3252938986 -0.1359455884 0.6105142832 4290008885
-0.3253540993 -0.1352923065 0.6106272936 4290600761
-0.3281835318 -0.1357845217 0.6159375906 4290074417
-0.3291670680 -0.1355050504 0.6177834868 4289023018
-0.3306123912 -0.1354106218 0.6204960942 4289286190
-0.3315961361 -0.1351220608 0.6223424077 4289679920
-0.3362752497 -0.1363275349 0.6311241984 4289285162
-0.3391077816 -0.1367687136 0.6364402771 4289485632
-0.3396305740 -0.1362713575 0.6374214888 4289617218
-0.3346073031 -0.1335581094 0.6279937625 4287454286
-0.3565728962 -0.1903095543 0.6706169248 4288255898
-0.3530112505 -0.1876709759 0.6639184356 4283387216
-0.3257562816 -0.1725007445 0.6126592159 4287517256
-0.3290209472 -0.1735419780 0.6187991500 4287648842
-0.3211100101 -0.1666853577 0.6039208174 4289682239
-0.3207261264 -0.1658158898 0.6031988263 4290866768
-0.3208698630 -0.1645492166 0.6034691930 4289550140
-0.3209413886 -0.1639152467 0.6036037207 4288826417
-0.3191861212 -0.1623518020 0.6003025174 4288826159
-0.3169730604 -0.1605637819 0.5961403847 4288628780
-0.3165861070 -0.1597062200 0.5954126120 4290206783
-0.3180264533 -0.1597682685 0.5981214643 4291720022
-0.3162678778 -0.1582239270 0.5948141217 4290732611
-0.3163368106 -0.1575973928 0.5949437618 4289745716
-0.3159482777 -0.1567436159 0.5942130089 4289417265
-0.3205899596 -0.1583764553 0.6029427648 4289351472
-0.3179144859 -0.1563903987 0.5979108810 4289286194
-0.3161526024 -0.1548630595 0.5945972800 4289878331
-0.3162202239 -0.1542354077 0.5947244763 4291589715
-0.3190339506 -0.1549411267 0.6000162959 4290537027
-0.3168125451 -0.1532002687 0.5958384871 4289483824
-0.3173374534 -0.1527909636 0.5968256593 4289089066
-0.3178622723 -0.1523794532 0.5978127122 4289351985
-0.3198282123 -0.1519852579 0.6015101075 4290075449
-0.3205514848 -0.1496496350 0.6028704047 4289548337
-0.3208771348 -0.1464491040 0.6034828424 4290140474
-0.3187727928 -0.1434903294 0.5995251536 4289680950
-0.3211330175 -0.1438816935 0.6039640903 4289549364
-0.3219069541 -0.1408651322 0.6054196358 4289351983
-0.3239947259 -0.1390706152 0.6093462110 4290931270
-0.3245164454 -0.1386164427 0.6103274226 4290010168
-0.3236569166 -0.1375729740 0.6087108254 4289549362
-0.3257414699 -0.1357363313 0.6126313210 4290208064
-0.3271839917 -0.1356537342 0.6153443456 4290339650
-0.3281658888 -0.1353750974 0.6171910167 4290074944
-0.3291478157 -0.1350923628 0.6190377474 4289614393
-0.3269023001 -0.1334876269 0.6148145795 4289746234
-0.3278837800 -0.1332032531 0.6166604757 4289614648
-0.3334777355 -0.1347789764 0.6271811724 4289484862
-0.3358441293 -0.1350335926 0.6316317320 4290274378
-0.3414409459 -0.1365704238 0.6421577930 4288439122
-0.3345792294 -0.1331267059 0.6292527318 4288044364
-0.3523450494 -0.1884467155 0.6640525460 4288518041
-0.3283250630 -0.1749124527 0.6187829375 4284570461
-0.3329491615 -0.1766787022 0.6274977922 4287124040
-0.3221803606 -0.1696149856 0.6072022319 4288698432
-0.3208883107 -0.1682628393 0.6047671437 4288698432
-0.3200506568 -0.1671534032 0.6031884551 4288826932
-0.3183016181 -0.1655734181 0.5998920798 4288958518
-0.3192843199 -0.1654160172 0.6017441750 4290142271
-0.3179893494 -0.1640792340 0.5993036032 4290208064
-0.3180605471 -0.1634499580 0.5994377136 4290338621
-0.3185872734 -0.1630535126 0.6004304290 4289351726
-0.3168345690 -0.1614930183 0.5971271992 4289024049
-0.3182726502 -0.1615595669 0.5998374820 4289024049
-0.3178867996 -0.1606980413 0.5991103053 4288826157
-0.3175004721 -0.1598379165 0.5983822346 4290076224
-0.3175700009 -0.1592079252 0.5985132456 4290930757
-0.3153574169 -0.1574383229 0.5943432450 4289680690
-0.3172518611 -0.1577197760 0.5979136229 4289811506
-0.3173205554 -0.1570894569 0.5980431437 4289416748
-0.3173890114 -0.1564587355 0.5981721282 4289351985
-0.3156301081 -0.1549307555 0.5948572159 4288957227
-0.3179820478 -0.1554193646 0.5992897749 4290142784
-0.3185068071 -0.1550088972 0.6002787948 4290537542
-0.3185744584 -0.1543747336 0.6004063487 4289353008
-0.3172703981 -0.1530784369 0.5979485512 4289089836
-0.3191663027 -0.1533248574 0.6015217304 4289350958
-0.3192332983 -0.1526885629 0.6016479731 4289350958
-0.3193000555 -0.1520518810 0.6017737985 4289153577
-0.3193665445 -0.1514147967 0.6018991470 4289943093
-0.3180598915 -0.1501292735 0.5994365215 4290206265
-0.3194988072 -0.1501394361 0.6021483541 4289482542
-0.3200223744 -0.1497153491 0.6031351686 4289285163
-0.3200879693 -0.1490757763 0.6032587290 4289087784
-0.3187792301 -0.1477987319 0.6007922292 4288628003
-0.3197602630 -0.1475839913 0.6026411653 4288825382
-0.3198249936 -0.1469441503 0.6027631164 4290009656
-0.3198894560 -0.1463039368 0.6028846502 4289812277
-0.3199536800 -0.1456633210 0.6030056477 4288891432
-0.3191006780 -0.1446067840 0.6013980508 4288365088
-0.3205399215 -0.1445877850 0.6041105390 4288563237
-0.3196861446 -0.1435332447 0.6025014520 4288694823
-0.3202079833 -0.1430970430 0.6034849286 4288890153
-0.3179767132 -0.1414340585 0.5992797613 4289877048
-0.3207925260 -0.1420147866 0.6045866013 4289285679
-0.3213140368 -0.1415728331 0.6055694818 4288496163
-0.3213763833 -0.1409273297 0.6056869626 4288430883
-0.3214384317 -0.1402814537 0.6058039665 4288430883
-0.3201223910 -0.1390367746 0.6033236384 4288694308
-0.3215618134 -0.1389885992 0.6060364246 4288891687
-0.3220825493 -0.1385392398 0.6070178747 4289088553
-0.3226031959 -0.1380876601 0.6079991460 4288759588
-0.3226641417 -0.1374380887 0.6081140041 4288496163
-0.3222650886 -0.1365932822 0.6073619127 4288496163
-0.3232450187 -0.1363317519 0.6092087626 4288562217
-0.3233052492 -0.1356801540 0.6093222499 4288562217
-0.3233652115 -0.1350281984 0.6094352603 4288562734
-0.3243450224 -0.1347581595 0.6112818718 4288694320
-0.3253249228 -0.1344840527 0.6131286621 4287316791
-0.3230832517 -0.1328808516 0.6089038253 4286856240
-0.3291261494 -0.1346770525 0.6202927232 4286396203
-0.3310273588 -0.1347618401 0.6238759160 4287185719
-0.3311464489 -0.1334234774 0.6241003275 4287252538
-0.3358120620 -0.1346001327 0.6328933835 4287059528
-0.3358717263 -0.1339207292 0.6330058575 4285677875
-0.3544006050 -0.1906873733 0.6693276763 4292204515
-0.3517595530 -0.1885282099 0.6643397808 4287792776
-0.3377673030 -0.1803201884 0.6379137039 4285490021
-0.3351205885 -0.1782040000 0.6329150796 4286993481
-0.3224800527 -0.1708055735 0.6090419292 4286335551
-0.3198280632 -0.1687297821 0.6040333509 4287844924
-0.3185378015 -0.1673806757 0.6015965343 4287910717
-0.3177011907 -0.1662743986 0.6000164747 4288039474
-0.3173185289 -0.1654082835 0.5992937684 4287381544
-0.3164807260 -0.1643074453 0.5977115035 4287643938
-0.3160970807 -0.1634449810 0.5969868898 4288104489
-0.3161678910 -0.1628181487 0.5971207023 4287251499
-0.3162384927 -0.1621909142 0.5972539783 4286922534
-0.3158537149 -0.1613307893 0.5965272784 4286201900
-0.3163789511 -0.1609351635 0.5975192189 4286465072
-0.3150828183 -0.1596146971 0.5950713754 4286005038
-0.3146967292 -0.1587587595 0.5943421721 4286202417
-0.3143101931 -0.1579042077 0.5936121345 4287057207
-0.3139231801 -0.1570510566 0.5928812623 4286728242
-0.3135357499 -0.1561993062 0.5921495557 4286398248
-0.3131479025 -0.1553489715 0.5914170146 4286200869
-0.3136714101 -0.1549504846 0.5924057364 4286070059
-0.3137388825 -0.1543254554 0.5925331712 4285675301
-0.3138060868 -0.1537000388 0.5926601291 4285741609
-0.3143292964 -0.1532966942 0.5936482549 4286662711
-0.3143961132 -0.1526695639 0.5937744379 4285872680
-0.3149191141 -0.1522627026 0.5947621465 4285741094
-0.3149855435 -0.1516338587 0.5948876143 4286003752
-0.3173347116 -0.1520988494 0.5993242860 4285937959
-0.3174011111 -0.1514646560 0.5994497538 4285938475
-0.3174672723 -0.1508300602 0.5995746851 4286135854
-0.3157056570 -0.1493306309 0.5962476730 4285938734
-0.3180558383 -0.1497748792 0.6006862521 4285807148
-0.3185784221 -0.1493524611 0.6016731858 4285413675
-0.3186437488 -0.1487144530 0.6017966270 4285084710
-0.3173370659 -0.1474387199 0.5993288159 4285085484
-0.3183163404 -0.1472257376 0.6011782289 4285217070
-0.3179233968 -0.1463768631 0.6004360914 4285480503
-0.3179875314 -0.1457391381 0.6005572677 4285217331
-0.3180514276 -0.1451010257 0.6006779075 4285349432
-0.3171996176 -0.1440468132 0.5990691781 4284888881
-0.3186362684 -0.1440305859 0.6017824411 4284757040
-0.3186994791 -0.1433904022 0.6019018292 4285086005
-0.3183044493 -0.1425447464 0.6011557579 4285414453
-0.3174508810 -0.1414963752 0.5995437503 4285480246
-0.3188875914 -0.1414675862 0.6022571325 4285085745
-0.3194080293 -0.1410282403 0.6032400131 4284954159
-0.3194700480 -0.1403852403 0.6033571959 4284888620
-0.3195317984 -0.1397418827 0.6034737825 4284888620
-0.3191347718 -0.1388985813 0.6027239561 4285217583
-0.3196545541 -0.1384540349 0.6037055850 4285414962
-0.3206329346 -0.1382049918 0.6055533886 4285349169
-0.3206938207 -0.1375582963 0.6056683660 4285085997
-0.3212133050 -0.1371071041 0.6066495180 4285085999
-0.3203558326 -0.1360688657 0.6050300598 4285283378
-0.3217929900 -0.1360040456 0.6077443361 4285020212
-0.3213938773 -0.1351609379 0.6069905162 4285151798
-0.3219127357 -0.1347036511 0.6079704762 4285218109
-0.3228908181 -0.1344353855 0.6098176837 4284954937
-0.3234095871 -0.1339727342 0.6107974648 4284890948
-0.3243877292 -0.1336972266 0.6126447916 4284693569
-0.3253659308 -0.1334176511 0.6144922376 4284366403
-0.3268038630 -0.1333215088 0.6172079444 4284761161
-0.3282419741 -0.1332194358 0.6199240088 4284432707
-0.3255420923 -0.1314405501 0.6148249507 4284432707
-0.3348575532 -0.1337964237 0.6324183345 4284235579
-0.3385972381 -0.1345801502 0.6394811273 4283119414
-0.3470145762 -0.1871057451 0.6567559242 4291876061
-0.3489077091 -0.1873928159 0.6603388190 4287989385
-0.3331253529 -0.1782158762 0.6304693222 4285555044
-0.3259488344 -0.1736911684 0.6168871522 4287127636
-0.3214893639 -0.1706387848 0.6084471941 4285943362
-0.3192953169 -0.1688028127 0.6042947173 4286466361
-0.3175536096 -0.1672142595 0.6009984016 4286137396
-0.3167183399 -0.1661084443 0.5994176269 4285807148
-0.3158824444 -0.1650058031 0.5978356004 4285215011
-0.3154998422 -0.1641425043 0.5971114635 4284820245
-0.3151167929 -0.1632805914 0.5963864923 4284886038
-0.3151874542 -0.1626544297 0.5965202451 4283512114
-0.3129865527 -0.1608605087 0.5923548937 4283380528
-0.3144193292 -0.1609357148 0.5950665474 4283053623
-0.3128091991 -0.1581382453 0.5920192003 4283186496
-0.3115135133 -0.1568281651 0.5895670056 4283251515
-0.3102169931 -0.1555231363 0.5871132612 4283383101
-0.3098295927 -0.1546773911 0.5863800049 4283448379
-0.3117170334 -0.1549641937 0.5899521708 4283777344
-0.3104189038 -0.1536661088 0.5874953866 4283447869
-0.3104857504 -0.1530462950 0.5876218677 4283776834
-0.3105523288 -0.1524260938 0.5877478719 4283448128
-0.3124404848 -0.1526958346 0.5913213491 4283711300
-0.3106847703 -0.1511844695 0.5879985094 4283316031
-0.3112062514 -0.1507838368 0.5889855027 4283381824
-0.3149178922 -0.1519199759 0.5960100889 4283775812
-0.3149841130 -0.1512895674 0.5961354375 4283381054
-0.3150500953 -0.1506587714 0.5962603092 4283382339
-0.3132917285 -0.1491591185 0.5929324031 4283184960
-0.3160935640 -0.1498284042 0.5982351303 4282922817
-0.3166151941 -0.1494098753 0.5992224216 4283185989
-0.3166804612 -0.1487747580 0.5993459225 4282858309
-0.3153762817 -0.1474988759 0.5968776345 4282924102
-0.3168102503 -0.1475033462 0.5995915532 4282727752
-0.3164181709 -0.1466554403 0.5988494754 4282661959
-0.3164823353 -0.1460196823 0.5989709496 4282268232
-0.3165462613 -0.1453835368 0.5990918875 4281939267
-0.3152393103 -0.1441203952 0.5966183543 4282137160
-0.3166733086 -0.1441100836 0.5993323922 4282137160
-0.3167364597 -0.1434727907 0.5994518995 4282268233
-0.3158850670 -0.1424228996 0.5978405476 4282531405
-0.3169243932 -0.1415586323 0.5998075604 4282532430
-0.3174439073 -0.1411231607 0.6007907987 4282269256
-0.3179633915 -0.1406854838 0.6017739177 4282071877
-0.3180251718 -0.1400440782 0.6018908620 4282137670
-0.3171713352 -0.1390011460 0.6002749801 4282203463
-0.3186057508 -0.1389598101 0.6029896736 4282204233
-0.3186668456 -0.1383163631 0.6031053066 4282204233
-0.3187277019 -0.1376725584 0.6032204628 4282072647
-0.3192462921 -0.1372252554 0.6042019725 4282270026
-0.3188485801 -0.1363838166 0.6034492850 4282466635
-0.3202832639 -0.1363239884 0.6061645150 4282335049
-0.3198850155 -0.1354818344 0.6054108143 4282203979
-0.3204030991 -0.1350275129 0.6063913107 4282335565
-0.3213795424 -0.1347632110 0.6082392931 4282269775
-0.3205218911 -0.1337295771 0.6066161394 4282138189
-0.3219567537 -0.1336512417 0.6093317866 4282596168
-0.3215570152 -0.1328091323 0.6085752249 4282727754
-0.3234508336 -0.1329111606 0.6121594310 4282663503
-0.3244272768 -0.1326301992 0.6140074730 4282729296
-0.3263217211 -0.1327184737 0.6175928712 4282532428
-0.3277575076 -0.1326132119 0.6203101873 4282927186
-0.3301117718 -0.1328715980 0.6247658730 4283320653
-0.3324665725 -0.1331203133 0.6292225122 4283846997
-0.3390747011 -0.1336272061 0.6417289972 4284307550
-0.3437208831 -0.1857202202 0.6518926024 4291876061
-0.3406341970 -0.1833346337 0.6460385323 4289173659
-0.3244240582 -0.1739264429 0.6152947545 4286278767
-0.3244989812 -0.1732828170 0.6154367924 4286932829
-0.3209521770 -0.1707125008 0.6087100506 4286077520
-0.3187618554 -0.1688757688 0.6045559049 4285023551
-0.3174760044 -0.1675255597 0.6021172404 4284365621
-0.3161893189 -0.1661803126 0.5996769071 4283971125
-0.3153548837 -0.1650772244 0.5980943441 4283707953
-0.3145197630 -0.1639773101 0.5965104699 4283248169
-0.3141373098 -0.1631159484 0.5957851410 4283248169
-0.3137544096 -0.1622559726 0.5950589776 4282464315
-0.3138245940 -0.1616309732 0.5951920152 4282266936
-0.3129872978 -0.1605401933 0.5936040878 4282463802
-0.3116956651 -0.1592208743 0.5911543965 4282529595
-0.3126722276 -0.1590608507 0.5930064917 4282726715
-0.3118333220 -0.1579769701 0.5914154649 4282792508
-0.3114477992 -0.1571253687 0.5906842351 4282791740
-0.3096995056 -0.1555907428 0.5873684883 4282923326
-0.3111295998 -0.1556535959 0.5900807977 4283251778
-0.3107428551 -0.1548053026 0.5893472433 4283514950
-0.3112644553 -0.1544092447 0.5903365612 4283382335
-0.3099680245 -0.1531129479 0.5878777504 4283711300
-0.3113983274 -0.1531632841 0.5905904770 4283842373
-0.3114649057 -0.1525397003 0.5907167196 4283710787
-0.3115312457 -0.1519157290 0.5908425450 4284039238
-0.3106875718 -0.1508496106 0.5892423987 4283907652
-0.3125731349 -0.1511064768 0.5928185582 4284170572
-0.3126389384 -0.1504794657 0.5929433703 4283973193
-0.3127044737 -0.1498520821 0.5930676460 4283842636
-0.3127697706 -0.1492242962 0.5931915045 4283645257
-0.3110133708 -0.1477309316 0.5898603797 4283515211
-0.3138105571 -0.1483983099 0.5951654315 4283646797
-0.3147864044 -0.1481964588 0.5970162153 4283121993
-0.3148510754 -0.1475634426 0.5971388817 4283450958
-0.3130925596 -0.1460795105 0.5938037038 4283320656
-0.3149797022 -0.1462962478 0.5973827839 4283189070
-0.3150436282 -0.1456620693 0.5975040197 4282992720
-0.3146512806 -0.1448176354 0.5967599154 4283124306
-0.3138024211 -0.1437656730 0.5951499343 4282795341
-0.3147777021 -0.1435491890 0.5969997048 4282729548
-0.3148405254 -0.1429143995 0.5971188545 4282860621
-0.3149031103 -0.1422792375 0.5972375274 4282729035
-0.3149654269 -0.1416436881 0.5973557234 4282860880
-0.3127446771 -0.1399859637 0.5931438804 4283124052
-0.3160026073 -0.1407783329 0.5993227959 4283386967
-0.3156076074 -0.1399372965 0.5985736251 4283584346
-0.3156689703 -0.1392993331 0.5986900330 4283650139
-0.3152731955 -0.1384603232 0.5979394317 4283650139
-0.3167049885 -0.1384217590 0.6006549597 4283715678
-0.3176799715 -0.1381784678 0.6025040746 4283781471
-0.3177406788 -0.1375353187 0.6026191711 4283584605
-0.3178011179 -0.1368918121 0.6027338505 4284045156
-0.3187760115 -0.1366400123 0.6045827866 4284308069
-0.3192935586 -0.1361890137 0.6055643559 4284176483
-0.3188959658 -0.1353474408 0.6048102379 4284308067
-0.3189555109 -0.1347006112 0.6049232483 4284308067
-0.3190148175 -0.1340534240 0.6050357223 4283979102
-0.3209641278 -0.1335198432 0.6087327003 4284045414
-0.3219388723 -0.1332469285 0.6105813980 4284703344
-0.3233717084 -0.1331585497 0.6132988930 4284112489
-0.3257210255 -0.1334395856 0.6177545190 4284178282
-0.3225725293 -0.1314699948 0.6117831469 4284376431
-0.3276716471 -0.1328577399 0.6214540005 4284836982
-0.3300221264 -0.1331153363 0.6259118915 4285625469
-0.3323731422 -0.1333632469 0.6303707957 4286086020
-0.3347247243 -0.1336014569 0.6348307133 4286742408
-0.3301976919 -0.1310987473 0.6262448430 4286479236
-0.3454020917 -0.1870225817 0.6564639807 4291811038
-0.3378050923 -0.1821957380 0.6420252323 4290160554
-0.3315594196 -0.1781269759 0.6301548481 4288318350
-0.3203405440 -0.1714232862 0.6088324785 4286014300
-0.3186066151 -0.1698226333 0.6055370569 4286014300
-0.3173962235 -0.1678369939 0.6032366157 4283512891
-0.3165640831 -0.1667284817 0.6016550660 4283054661
-0.3148266077 -0.1651485711 0.5983528495 4282594110
-0.3139929771 -0.1640482247 0.5967684388 4282003512
-0.3136112392 -0.1631865203 0.5960429311 4282332477
-0.3132290244 -0.1623262167 0.5953165293 4281544759
-0.3123936653 -0.1612336189 0.5937288404 4281807931
-0.3120104671 -0.1603769809 0.5930005908 4282266164
-0.3116268516 -0.1595217437 0.5922715068 4282529336
-0.3107897639 -0.1584369391 0.5906804800 4283316282
-0.3104051650 -0.1575854123 0.5899495482 4283382075
-0.3100201488 -0.1567352712 0.5892177820 4284039238
-0.3087279797 -0.1554300636 0.5867618918 4284565582
-0.3087953031 -0.1548118889 0.5868898630 4284960340
-0.3084088564 -0.1539668888 0.5861554146 4284697168
-0.3084756136 -0.1533488184 0.5862823129 4285288276
-0.3085421324 -0.1527303457 0.5864087343 4284959311
-0.3086084127 -0.1521114707 0.5865346789 4285549905
-0.3082205355 -0.1512694061 0.5857974887 4285747284
-0.3087402582 -0.1508725286 0.5867852569 4286339162
-0.3088058233 -0.1502524614 0.5869098306 4285944404
-0.3102338016 -0.1502921432 0.5896238089 4285618008
-0.3102991581 -0.1496685594 0.5897480249 4286210145
-0.3090010285 -0.1483899057 0.5872808695 4286606445
-0.3108836412 -0.1486375034 0.5908589363 4286540652
-0.3091299534 -0.1471462548 0.5875259042 4285752423
-0.3119222224 -0.1478167027 0.5928328037 4285226079
-0.3124414086 -0.1474029720 0.5938196182 4284634973
-0.3125056624 -0.1467733681 0.5939417481 4284634973
-0.3107497692 -0.1452924758 0.5906044841 4284504417
-0.3126334548 -0.1455130130 0.5941845775 4284899175
-0.3126969635 -0.1448822618 0.5943052769 4284570473
-0.3127602041 -0.1442511231 0.5944254994 4284702059
-0.3114571869 -0.1429924369 0.5919489861 4284767597
-0.3133414090 -0.1431958377 0.5955300927 4285293941
-0.3134039938 -0.1425626278 0.5956490636 4285819004
-0.3134663403 -0.1419290453 0.5957675576 4285884797
-0.3135284483 -0.1412950903 0.5958855748 4285690494
-0.3140460849 -0.1408652067 0.5968694091 4285822080
-0.3145636320 -0.1404331028 0.5978530645 4286479497
-0.3146251440 -0.1397961676 0.5979699492 4286742669
-0.3137742579 -0.1387555003 0.5963527560 4286676363
-0.3129227757 -0.1377181709 0.5947344303 4286939535
-0.3152643740 -0.1380829811 0.5991848111 4287137174
-0.3162375987 -0.1378414482 0.6010345221 4287005588
-0.3167544901 -0.1373978704 0.6020169258 4286940308
-0.3172713220 -0.1369520724 0.6029992104 4286940308
-0.3173314631 -0.1363079399 0.6031134725 4287466905
-0.3178479970 -0.1358586252 0.6040952802 4287335319
-0.3179077208 -0.1352128237 0.6042087078 4286940300
-0.3179671466 -0.1345666647 0.6043217182 4287006093
-0.3189401925 -0.1343049705 0.6061710119 4287006090
-0.3148860931 -0.1319328547 0.5984659195 4286940297
-0.3195151985 -0.1331976652 0.6072638631 4287728022
-0.3204882145 -0.1329265237 0.6091131568 4287925401
-0.3210040033 -0.1324626058 0.6100934744 4287334029
-0.3228918016 -0.1325597465 0.6136813760 4286939271
-0.3238650858 -0.1322754323 0.6155311465 4286150782
-0.3257534802 -0.1323588043 0.6191201806 4285953403
-0.3280998468 -0.1326193362 0.6235796809 4285756285
-0.3313621283 -0.1332382262 0.6297798753 4285558906
-0.3337097466 -0.1334775090 0.6342417002 4285031538
-0.3319372833 -0.1320676059 0.6308730245 4284899952
-0.3365748525 -0.1332020164 0.6396871209 4284899436
-0.3325116634 -0.1308918148 0.6319646835 4283057232
-0.3444796801 -0.1348755509 0.6547108889 4285953151
-0.3500372767 -0.1363123804 0.6652734876 4291742935
-0.3434689939 -0.1863692850 0.6541708708 4292204251
-0.3412947357 -0.1844672859 0.6500297785 4290029997
-0.3305509984 -0.1779608876 0.6295672655 4289766825
-0.3238615692 -0.1736741066 0.6168265343 4287264635
-0.3203268945 -0.1711007506 0.6100944281 4285685603
-0.3185954094 -0.1695016772 0.6067966223 4284369232
-0.3177655935 -0.1683877558 0.6052161455 4283382337
-0.3169351220 -0.1672769934 0.6036344171 4283120192
-0.3156524003 -0.1659320295 0.6011914015 4282396469
-0.3139171898 -0.1643555611 0.5978865027 4282463545
-0.3130844533 -0.1632570475 0.5963004827 4282200373
-0.3127029538 -0.1623963863 0.5955739021 4281610803
-0.3118690550 -0.1613033563 0.5939856172 4281742389
-0.3096782267 -0.1595149040 0.5898129940 4282267706
-0.3092949390 -0.1586629450 0.5890829563 4282596671
-0.3084588945 -0.1575813293 0.5874906182 4283055941
-0.3076222241 -0.1565029323 0.5858970881 4283582285
-0.3067848980 -0.1554277390 0.5843023658 4284568153
-0.3069858551 -0.1535806805 0.5846850872 4285813845
-0.3072504699 -0.1511123031 0.5851890445 4288635222
-0.3082880378 -0.1503178477 0.5871652365 4290017392
-0.3060860038 -0.1485964358 0.5829712152 4286866533
-0.3084183335 -0.1490760446 0.5874133706 4286340189
-0.3071221411 -0.1477996260 0.5849446654 4288249988
-0.3090013862 -0.1480500847 0.5885238647 4288513160
-0.3095195889 -0.1476433873 0.5895108581 4287659911
-0.3100377619 -0.1472344697 0.5904977322 4286344051
-0.3105558753 -0.1468233466 0.5914845467 4285819507
-0.3106834590 -0.1455687582 0.5917275548 4285162608
-0.3107469082 -0.1449408978 0.5918483734 4284965229
-0.3108100891 -0.1443126500 0.5919687152 4284834159
-0.3090550303 -0.1428437531 0.5886260867 4285031538
-0.3109357059 -0.1430550069 0.5922079682 4285294196
-0.3109981120 -0.1424256116 0.5923268795 4285623161
-0.3106055260 -0.1415885240 0.5915791392 4286345342
-0.3106673956 -0.1409593076 0.5916969180 4286805893
-0.3089091778 -0.1395078599 0.5883482695 4286939535
-0.3121554255 -0.1403133422 0.5945310593 4287268500
-0.3122167587 -0.1396802217 0.5946478844 4287531672
-0.3118226528 -0.1388440430 0.5938972831 4287729051
-0.3105174899 -0.1376058012 0.5914114714 4288058016
-0.3133100867 -0.1381803304 0.5967302322 4288255395
-0.3138260841 -0.1377437860 0.5977129936 4288124322
-0.3147975802 -0.1375040412 0.5995633006 4287795357
-0.3153134882 -0.1370621324 0.6005458832 4286940048
-0.3130948544 -0.1354351789 0.5963203311 4287005841
-0.3154334128 -0.1357792616 0.6007742882 4287005841
-0.3154929876 -0.1351372749 0.6008877754 4286742669
-0.3160082996 -0.1346892864 0.6018692255 4286282376
-0.3160674274 -0.1340456456 0.6019818783 4286084997
-0.3161262870 -0.1334016323 0.6020939946 4285953411
-0.3166411817 -0.1329488456 0.6030746102 4285756032
-0.3176122904 -0.1326844841 0.6049242020 4285689982
-0.3181270361 -0.1322263181 0.6059045792 4285361017
-0.3195547163 -0.1321434975 0.6086237431 4284308329
-0.3205260336 -0.1318668872 0.6104737520 4283387227
-0.3219541013 -0.1317730993 0.6131936312 4282071879
-0.3229256272 -0.1314873695 0.6150439978 4281084984
-0.3238972127 -0.1311975718 0.6168944836 4280953398
-0.3262396157 -0.1314560026 0.6213557720 4280295468
-0.3294965625 -0.1320711076 0.6275589466 4280361259
-0.3336685002 -0.1330372393 0.6355048418 4280624431
-0.3369272947 -0.1336235702 0.6417115927 4281019187
-0.3351573050 -0.1322123557 0.6383404136 4281216566
-0.3407034874 -0.1336792260 0.6489036679 4282335047
-0.3457939029 -0.1349447668 0.6585988998 4287664280
-0.3428896666 -0.1864493489 0.6544519067 4291744214
-0.3353180587 -0.1816211343 0.6400004625 4288780443
-0.3286430240 -0.1773087382 0.6272602081 4289701545
-0.3233155012 -0.1737488210 0.6170918941 4289633183
-0.3197868466 -0.1711743921 0.6103570461 4285948775
-0.3185088634 -0.1698148698 0.6079177856 4285488224
-0.3176805973 -0.1686995924 0.6063369513 4283580227
-0.3173024058 -0.1678258777 0.6056150794 4283054912
-0.3146696985 -0.1657660902 0.6005902290 4282725947
-0.3160937726 -0.1658459753 0.6033082604 4282398009
-0.3130080104 -0.1635631770 0.5974186659 4282200630
-0.3126273453 -0.1627012938 0.5966920853 4281545775
-0.3117949963 -0.1616069078 0.5951034427 4281611568
-0.3100593388 -0.1600497812 0.5917907357 4282266936
-0.3087740839 -0.1587315500 0.5893376470 4282727487
-0.3079395294 -0.1576494873 0.5877447724 4283121736
-0.3071043193 -0.1565706581 0.5861506462 4283582287
-0.3067201972 -0.1557243764 0.5854175091 4284240213
-0.3063356280 -0.1548795104 0.5846835375 4284700764
-0.3068544865 -0.1544911116 0.5856738091 4285550926
-0.3073732853 -0.1541004926 0.5866640210 4285814098
-0.3065357208 -0.1530305147 0.5850653648 4286859325
-0.3061497211 -0.1521885842 0.5843286514 4287122497
-0.3066678941 -0.1517958492 0.5853177309 4288371021
-0.3067336380 -0.1511779279 0.5854431987 4288634193
-0.3067991436 -0.1505595893 0.5855681896 4289558127
-0.3059591949 -0.1494985670 0.5839650035 4292387226
-0.3064767122 -0.1491015255 0.5849527717 4291604144
-0.3065413833 -0.1484829187 0.5850762129 4288840838
-0.3066058159 -0.1478639394 0.5851992369 4288842125
-0.3057640493 -0.1468095630 0.5835925937 4289302676
-0.3071870506 -0.1468413770 0.5863085389 4288844698
-0.3077040315 -0.1464359760 0.5872952938 4288384147
-0.3077676892 -0.1458135992 0.5874167681 4287925653
-0.3082844317 -0.1454046816 0.5884031057 4287465102
-0.3078942299 -0.1445676982 0.5876583457 4286742410
-0.3084107041 -0.1441561729 0.5886440873 4286545031
-0.3089270890 -0.1437424272 0.5896297097 4286347912
-0.3089897037 -0.1431163102 0.5897491574 4286150533
-0.3054215014 -0.1408159137 0.5829387307 4285886848
-0.3086602688 -0.1416546106 0.5891203880 4285557883
-0.3082680106 -0.1408208758 0.5883717537 4285556855
-0.3083294630 -0.1401950717 0.5884889960 4285359476
-0.3065738976 -0.1387467086 0.5851382613 4285360503
-0.3093601167 -0.1393516362 0.5904561281 4285360503
-0.3098753393 -0.1389265805 0.5914394855 4285426296
-0.3099360168 -0.1382965297 0.5915553570 4285492089
-0.3095419407 -0.1374642551 0.5908031464 4285623675
-0.3109659255 -0.1374371946 0.5935210586 4286018433
-0.3114807308 -0.1370041966 0.5945036411 4286347911
-0.3119955063 -0.1365689784 0.5954861045 4286545290
-0.3129650652 -0.1363296956 0.5973366499 4286479497
-0.3134797215 -0.1358891129 0.5983189940 4286479497
-0.3135392368 -0.1352500170 0.5984326005 4286874255
-0.3135985136 -0.1346105486 0.5985457301 4286874255
-0.3136575222 -0.1339707375 0.5986583233 4286611083
-0.3118949831 -0.1325564981 0.5952942967 4286545290
-0.3151994646 -0.1326240599 0.6016013026 4286611083
-0.3161688149 -0.1323614568 0.6034514904 4286874256
-0.3175939322 -0.1322845668 0.6061714888 4286676877
-0.3190192580 -0.1322017312 0.6088919640 4285821568
-0.3204448223 -0.1321129352 0.6116128564 4284768880
-0.3205029070 -0.1314572096 0.6117237210 4283321433
-0.3214727044 -0.1311732531 0.6135746837 4282202952
-0.3233546913 -0.1312554628 0.6171666980 4281677119
-0.3247809112 -0.1311456561 0.6198888421 4280887603
-0.3266635835 -0.1312131286 0.6234821677 4280821810
-0.3258087337 -0.1301788390 0.6218505502 4281479740
-0.3336247802 -0.1325943023 0.6367685795 4282137668
-0.3382479548 -0.1337144077 0.6455925703 4282071875
-0.3364806771 -0.1323022395 0.6422194839 4281348922
-0.3415620029 -0.1335758418 0.6519178748 4284112228
-0.3475581706 -0.1351837516 0.6633623838 4291415249
-0.3387158215 -0.1845710427 0.6478588581 4291152077
-0.3338522017 -0.1812113076 0.6385563016 4287333767
-0.3271883130 -0.1768989116 0.6258103251 4288583834
-0.3232182860 -0.1740655750 0.6182168722 4290357933
-0.3201454282 -0.1717303544 0.6123394370 4287792006
-0.3188698292 -0.1703684777 0.6098996401 4286475889
-0.3180432618 -0.1692509651 0.6083186865 4284436306
-0.3176659644 -0.1683751047 0.6075970531 4282727228
-0.3163881302 -0.1670254320 0.6051529050 4282858814
-0.3155595958 -0.1659174263 0.6035681963 4282267704
-0.3142801523 -0.1645768136 0.6011210084 4281807153
-0.3120991290 -0.1627714485 0.5969493985 4281611825
-0.3108178079 -0.1614426523 0.5944985747 4281480239
-0.3086344898 -0.1596527249 0.5903226137 4282201143
-0.3073512614 -0.1583357602 0.5878681540 4282661694
-0.3065179586 -0.1572550833 0.5862743258 4282925385
-0.3056840301 -0.1561776251 0.5846792459 4283320143
-0.3057513535 -0.1555622667 0.5848080516 4283846738
-0.3053674102 -0.1547179669 0.5840737224 4284175703
-0.3058853447 -0.1543303430 0.5850643516 4285617230
-0.3059519827 -0.1537137777 0.5851917863 4285617230
-0.3060183823 -0.1530968100 0.5853188038 4286530361
-0.3056330979 -0.1522545367 0.5845818520 4286727740
-0.3052473664 -0.1514136940 0.5838441253 4289029468
-0.3053128719 -0.1507973373 0.5839693546 4291924360
-0.3053781092 -0.1501806080 0.5840941668 4292324005
-0.3049913049 -0.1493422091 0.5833542943 4291797661
-0.3055078983 -0.1489459276 0.5843424201 4291143850
-0.3051204085 -0.1481085867 0.5836012363 4291538608
-0.3042803407 -0.1470541805 0.5819944739 4289369239
-0.3043441176 -0.1464382261 0.5821164250 4288250758
-0.3057645559 -0.1464719027 0.5848333240 4286871422
-0.3058281243 -0.1458524168 0.5849549174 4287463559
-0.3058914542 -0.1452325583 0.5850759745 4287596434
-0.3059545159 -0.1446123123 0.5851966143 4287859606
-0.3060173392 -0.1439916790 0.5853168368 4287795357
-0.3060799241 -0.1433706582 0.5854365230 4288058529
-0.3061422706 -0.1427492648 0.5855557919 4288519338
-0.3062043786 -0.1421274990 0.5856745243 4288848303
-0.3062662184 -0.1415053457 0.5857928395 4288716717
-0.3067809641 -0.1410912275 0.5867773890 4288585131
-0.3068424165 -0.1404674053 0.5868949294 4288321702
-0.3069036007 -0.1398432106 0.5870119929 4287992737
-0.3069645762 -0.1392186433 0.5871285200 4287334547
-0.3079322875 -0.1390031278 0.5889794827 4287005582
-0.3084464967 -0.1385797709 0.5899630189 4286676617
-0.3089606762 -0.1381541789 0.5909464955 4286281859
-0.3090209663 -0.1375244409 0.5910618305 4285689468
-0.3099887371 -0.1372963637 0.5929128528 4285426296
-0.3100487292 -0.1366640329 0.5930275917 4285426296
-0.3105624914 -0.1362304986 0.5940102339 4285492089
-0.3106220365 -0.1355965137 0.5941241980 4285426296
-0.3111355603 -0.1351594776 0.5951063633 4285426296
-0.3102860749 -0.1341310591 0.5934816003 4285755774
-0.3103447855 -0.1334969103 0.5935938954 4285361016
-0.3108577132 -0.1330569237 0.5945749283 4285361016
-0.3151825368 -0.1322288662 0.6028469801 4286874256
-0.3166052103 -0.1321528852 0.6055681109 4287269014
-0.3180281222 -0.1320709735 0.6082897186 4287005841
-0.3212715089 -0.1327351332 0.6144933105 4285755774
-0.3190540671 -0.1311409622 0.6102520227 4284110949
-0.3213877976 -0.1314172000 0.6147156954 4282795089
-0.3228114545 -0.1313133091 0.6174387336 4282006084
-0.3237799406 -0.1310192049 0.6192911267 4281348154
-0.3256593943 -0.1310876757 0.6228860021 4281479740
-0.3279947937 -0.1313306987 0.6273528934 4281479740
-0.3303307295 -0.1315640211 0.6318207979 4281677887
-0.3354014158 -0.1328707933 0.6415194869 4282138438
-0.3395619988 -0.1337974221 0.6494774222 4281875266
-0.3382533193 -0.1325629354 0.6469743252 4282796368
-0.3433271348 -0.1338217556 0.6566789150 4290625733
-0.3363472521 -0.1836705506 0.6446981430 4291021004
-0.3314915299 -0.1803130209 0.6353908777 4287334280
-0.3261846304 -0.1767316908 0.6252187490 4286939522
-0.3222212791 -0.1738980711 0.6176219583 4290161324
-0.3200513422 -0.1720453799 0.6134627461 4288253327
-0.3187780976 -0.1706820577 0.6110222340 4287397248
-0.3179530799 -0.1695631891 0.6094408631 4285949802
-0.3175765872 -0.1686860770 0.6087192297 4283056450
-0.3167503774 -0.1675726473 0.6071355939 4282924864
-0.3159235120 -0.1664623916 0.6055506468 4282071354
-0.3150959909 -0.1653553247 0.6039645076 4281939768
-0.3129190505 -0.1635465026 0.5997918248 4281808695
-0.3102911413 -0.1615122110 0.5947547555 4281611316
-0.3076618016 -0.1594883800 0.5897148848 4281873209
-0.3063807189 -0.1581717879 0.5872593522 4282267967
-0.3055487871 -0.1570915729 0.5856647491 4282662472
-0.3047161996 -0.1560145915 0.5840688944 4283057230
-0.3047834039 -0.1553999037 0.5841977000 4283518032
-0.3053006530 -0.1550134569 0.5851891637 4283846997
-0.3049170673 -0.1541693211 0.5844539404 4285092173
-0.3045330644 -0.1533266157 0.5837178826 4285092173
-0.3050498068 -0.1529371291 0.5847083330 4285744705
-0.3046651185 -0.1520954370 0.5839710236 4288047460
-0.3042800128 -0.1512551606 0.5832328200 4292323235
-0.3043453693 -0.1506394893 0.5833580494 4294428611
-0.3035084903 -0.1495789140 0.5817540288 4294038223
-0.3040242493 -0.1491856128 0.5827425718 4294367188
-0.3037017882 -0.1477338225 0.5821245313 4291210672
-0.3028630316 -0.1466808170 0.5805167556 4290159014
-0.3038294613 -0.1465018094 0.5823692083 4287790466
-0.3043444753 -0.1461019963 0.5833563805 4285423976
-0.3039561510 -0.1452682614 0.5826120377 4284568667
-0.3040191233 -0.1446509063 0.5827327967 4284569956
-0.3040818870 -0.1440331638 0.5828530192 4284964714
-0.3041443825 -0.1434150487 0.5829728246 4284900465
-0.3042066395 -0.1427965462 0.5830921531 4285229430
-0.3042686284 -0.1421776563 0.5832110047 4285887618
-0.3029738069 -0.1409273893 0.5807291269 4286545548
-0.3048442304 -0.1411481947 0.5843142867 4287071892
-0.3049055934 -0.1405272633 0.5844319463 4287729822
-0.3054192066 -0.1401135325 0.5854163766 4288388007
-0.3041224778 -0.1388709694 0.5829308629 4288848558
-0.3059935272 -0.1390736848 0.5865172148 4289242801
-0.3069595695 -0.1388590336 0.5883688927 4289177008
-0.3085593283 -0.1369542032 0.5914352536 4288519080
-0.3086190820 -0.1363234669 0.5915498137 4288255908
-0.3086785972 -0.1356923729 0.5916638374 4288058529
-0.3082844615 -0.1348625869 0.5909084082 4287334806
-0.3078899384 -0.1340342909 0.5901522040 4286808462
-0.3084020317 -0.1336004287 0.5911337733 4286413704
-0.3222095370 -0.1320337057 0.6175994873 4283453019
-0.3227220178 -0.1315564066 0.6185817719 4282203465
-0.3227797747 -0.1308925450 0.6186924577 4281545535
-0.3242013454 -0.1307785809 0.6214172840 4281479740
-0.3269874752 -0.1312060952 0.6267576814 4281611326
-0.3293194175 -0.1314404756 0.6312274933 4282006852
-0.3321068585 -0.1318457276 0.6365702748 4282270024
-0.3376250565 -0.1333174258 0.6471474171 4282335817
-0.3408693969 -0.1338725686 0.6533660293 4282270024
-0.3418386579 -0.1335252374 0.6552239060 4290362563
-0.3344317377 -0.1830141693 0.6423941255 4291020491
-0.3300318718 -0.1799020320 0.6339426041 4288452507
-0.3247338235 -0.1763209850 0.6237658858 4286083959
-0.3212251067 -0.1737302989 0.6170260906 4288648344
-0.3195069134 -0.1721191555 0.6137257814 4287990414
-0.3186841309 -0.1709957719 0.6121453047 4287858569
-0.3178606927 -0.1698755622 0.6105635762 4286871674
-0.3174850047 -0.1689971983 0.6098419428 4284767840
-0.3166603446 -0.1678824276 0.6082579494 4282465085
-0.3158350587 -0.1667708308 0.6066726446 4282335552
-0.3154578507 -0.1658983976 0.6059480906 4282138173
-0.3132848442 -0.1640870124 0.6017740965 4282005310
-0.3102127612 -0.1618158966 0.5958729982 4281742138
-0.3071390092 -0.1595570445 0.5899688005 4281479481
-0.3058601320 -0.1582399160 0.5875123143 4281676860
-0.3050296903 -0.1571592689 0.5859171152 4282202689
-0.3041985929 -0.1560818404 0.5843207240 4282597447
-0.3033668697 -0.1550076455 0.5827230811 4283384904
-0.3038831055 -0.1546228677 0.5837146640 4283779662
-0.3043992817 -0.1542358696 0.5847062469 4284172617
-0.3035662770 -0.1531659216 0.5831061006 4285159512
-0.3040820956 -0.1527772099 0.5840969086 4287329139
-0.3036980331 -0.1519360840 0.5833591819 4290158238
-0.3037635386 -0.1513205767 0.5834850669 4292197821
-0.3033787012 -0.1504814029 0.5827458501 4292987337
-0.3034436703 -0.1498659998 0.5828706026 4293251536
-0.3026077449 -0.1488073319 0.5812649131 4293185743
-0.3026720285 -0.1481929719 0.5813884139 4292725195
-0.3022855818 -0.1473586261 0.5806460977 4292133058
-0.3023492694 -0.1467444003 0.5807684660 4289765539
-0.3019620478 -0.1459120214 0.5800246596 4286870647
-0.3029267490 -0.1457316726 0.5818777084 4284831841
-0.3029898405 -0.1451153755 0.5819988847 4284305497
-0.3026016951 -0.1442836672 0.5812533498 4284043612
-0.3026642203 -0.1436675191 0.5813733935 4284240991
-0.3022753298 -0.1428378075 0.5806263685 4284110436
-0.3023372293 -0.1422218084 0.5807453394 4284176229
-0.3023989201 -0.1416054517 0.5808638334 4284242535
-0.3015575111 -0.1405678540 0.5792475939 4284505707
-0.3025215566 -0.1403715909 0.5810993910 4284572013
-0.3030341566 -0.1399626881 0.5820840001 4284703599
-0.3035466373 -0.1395515800 0.5830684304 4285098357
-0.3008965254 -0.1376910359 0.5779778957 4285624701
-0.3041195869 -0.1385168731 0.5841689706 4286018946
-0.3046317995 -0.1381000131 0.5851528645 4286347911
-0.3028836250 -0.1366610974 0.5817948580 4286742669
-0.3033952713 -0.1362444311 0.5827776194 4287137427
-0.3048112988 -0.1362298131 0.5854976773 4287663771
-0.3071323037 -0.1366116554 0.5899559259 4288124322
-0.3067394197 -0.1357822418 0.5892012715 4288321701
-0.3049885929 -0.1343563050 0.5858381391 4288321701
-0.3059523404 -0.1341279149 0.5876893997 4288321701
-0.3037474751 -0.1325130463 0.5834541917 4288519080
-0.3038052917 -0.1318898946 0.5835652351 4288584873
-0.3034100235 -0.1310707480 0.5828059912 4289045424
-0.3057319522 -0.1314213127 0.5872660279 4289111218
-0.3189427555 -0.1309738904 0.6126421094 4283124055
-0.3208152354 -0.1310581416 0.6162388921 4281940293
-0.3259231448 -0.1317536235 0.6260504127 4281808705
-0.3255269527 -0.1308987141 0.6252893209 4281742912
-0.3283089399 -0.1313167065 0.6306331158 4282138440
-0.3310916126 -0.1317231059 0.6359782815 4282006854
-0.3338749707 -0.1321178973 0.6413246989 4282335817
-0.3366590142 -0.1325010657 0.6466723680 4282335817
-0.3398981094 -0.1330504864 0.6528941989 4290230977
-0.3343078196 -0.1833374947 0.6435290575 4291086284
-0.3281274736 -0.1792463362 0.6316320896 4289702576
-0.3237325251 -0.1761531234 0.6231719851 4287399821
-0.3206769824 -0.1738046557 0.6172901988 4286345589
-0.3189617991 -0.1721928567 0.6139885783 4287661449
-0.3181404769 -0.1710690260 0.6124075651 4288122000
-0.3177660704 -0.1701880693 0.6116868258 4288056207
-0.3173911870 -0.1693084687 0.6109651923 4286347385
-0.3165681064 -0.1681923419 0.6093807817 4282728770
-0.3152965307 -0.1668424010 0.6069330573 4281941310
