VERSION 0.7
FIELDS x y z rgba
SIZE 4 4 4 4
TYPE F F F U
COUNT 1 1 1 1
WIDTH 920
HEIGHT 1
VIEWPOINT 0.0 0.0 0.0 1.0 0.0 0.0 0.0
POINTS 920
DATA ascii
-0.3108272254 -0.0986691490 0.5273052454 4290420342
-0.3108738363 -0.0980979875 0.5273843408 4290486135
-0.3109202087 -0.0975265652 0.5274629593 4290420342
-0.3109663129 -0.0969548896 0.5275412202 4290486389
-0.3120154142 -0.0966938734 0.5293209553 4290552182
-0.3120611310 -0.0961198434 0.5293985605 4290617975
-0.3126083910 -0.0956991762 0.5303269625 4290617975
-0.3126536906 -0.0951237231 0.5304037929 4290683768
-0.3132006228 -0.0946997851 0.5313316584 4290683768
-0.3137474656 -0.0942737460 0.5322593451 4290749561
-0.3142941892 -0.0938456133 0.5331867933 4290683768
-0.3148407638 -0.0934153870 0.5341140628 4290683768
-0.3153872490 -0.0929830596 0.5350411534 4290552182
-0.3159336150 -0.0925486386 0.5359680057 4290354803
-0.3164798319 -0.0921121165 0.5368946791 4290420596
-0.3170259297 -0.0916735008 0.5378211141 4290617975
-0.3175719082 -0.0912327915 0.5387473106 4290683768
-0.3181177378 -0.0907899886 0.5396733284 4290683768
-0.3186634481 -0.0903450847 0.5405991077 4290617975
-0.3192090392 -0.0898980945 0.5415246487 4290683257
-0.3202572167 -0.0895896479 0.5433028936 4290551671
-0.3208025992 -0.0891375318 0.5442280769 4288059279
-0.3117164671 -0.1468196213 0.5298120975 4286546567
-0.3147437572 -0.1476511061 0.5349574685 4286151809
-0.3153049648 -0.1473189294 0.5359113216 4287335569
-0.3153725863 -0.1467549652 0.5360262394 4288125085
-0.3154399693 -0.1461906284 0.5361407995 4287796119
-0.3150133789 -0.1453980505 0.5354157090 4287006603
-0.3155740499 -0.1450608969 0.5363686681 4285098093
-0.3146528304 -0.1440432221 0.5348029137 4283848026
-0.3137309551 -0.1430287361 0.5332360268 4287072137
-0.3128084242 -0.1420174390 0.5316680670 4285427312
-0.3123795390 -0.1412328184 0.5309391022 4284835434
-0.3114558458 -0.1402270198 0.5293691158 4285230192
-0.3110259473 -0.1394461244 0.5286384821 4285098604
-0.3115848005 -0.1391082704 0.5295883417 4285559155
-0.3101648986 -0.1378886253 0.5271749496 4285756275
-0.3097337186 -0.1371120214 0.5264421105 4285953654
-0.3093021214 -0.1363368630 0.5257085562 4285229931
-0.3093650639 -0.1357803792 0.5258154869 4285295724
-0.3089326918 -0.1350072026 0.5250806212 4285427310
-0.3084998727 -0.1342354864 0.5243449807 4286611584
-0.3080666363 -0.1334652007 0.5236086249 4287139209
-0.3086237311 -0.1331237406 0.5245555043 4287270795
-0.3071988523 -0.1319289953 0.5221337080 4287861651
-0.3067643344 -0.1311630756 0.5213951468 4287927444
-0.3068250418 -0.1306096166 0.5214983225 4287400587
-0.3068855405 -0.1300558299 0.5216011405 4287071622
-0.3064499199 -0.1292925030 0.5208607316 4286809476
-0.3065098226 -0.1287389547 0.5209625959 4286743683
-0.3065695167 -0.1281850785 0.5210640430 4287072648
-0.3066289723 -0.1276308894 0.5211650729 4288454301
-0.3066881895 -0.1270763725 0.5212657452 4289243045
-0.3062508106 -0.1263168156 0.5205223560 4289111459
-0.3063094616 -0.1257625520 0.5206220150 4289438874
-0.3058713377 -0.1250050515 0.5198773742 4287201912
-0.3059294224 -0.1244510561 0.5199760795 4285950807
-0.3054905236 -0.1236956194 0.5192301273 4287069288
-0.3055480421 -0.1231418997 0.5193278790 4287985750
-0.3056053519 -0.1225878671 0.5194252729 4287788371
-0.3051653802 -0.1218350902 0.5186774731 4287525969
-0.3052220941 -0.1212813407 0.5187738538 4287460176
-0.3052785695 -0.1207272783 0.5188698769 4287460174
-0.3053348064 -0.1201729178 0.5189654231 4287591760
-0.3053908050 -0.1196182445 0.5190606117 4287854416
-0.3054465652 -0.1190632656 0.5191553831 4287854416
-0.3055020869 -0.1185079813 0.5192497969 4287854156
-0.3050597310 -0.1177603006 0.5184978843 4288051535
-0.3056124151 -0.1173965186 0.5194373131 4288314707
-0.3056672215 -0.1168403327 0.5195304155 4288446293
-0.3057217896 -0.1162838563 0.5196231604 4288512084
-0.3057761192 -0.1157270744 0.5197154880 4288577877
-0.3058301806 -0.1151700020 0.5198074579 4288643154
-0.3058840334 -0.1146126315 0.5198989511 4288643154
-0.3059376180 -0.1140549630 0.5199900270 4288775761
-0.3059909940 -0.1134970039 0.5200806856 4288644175
-0.3060441017 -0.1129387617 0.5201709867 4288644175
-0.3060969710 -0.1123802215 0.5202608109 4288709968
-0.3056509495 -0.1116392761 0.5195028186 4288775761
-0.3057032526 -0.1110810712 0.5195916891 4288907347
-0.3057553172 -0.1105225831 0.5196801424 4288973140
-0.3058071136 -0.1099638119 0.5197681785 4289038933
-0.3058586717 -0.1094047502 0.5198557973 4289104726
-0.3064090014 -0.1090229750 0.5207912326 4289038933
-0.3064601719 -0.1084624380 0.5208781958 4289038933
-0.3065110743 -0.1079016253 0.5209646821 4289038933
-0.3070610166 -0.1075153574 0.5218994021 4289038933
-0.3071115017 -0.1069530696 0.5219852328 4289038933
-0.3071617484 -0.1063905135 0.5220705867 4289104726
-0.3072117269 -0.1058276743 0.5221555829 4289170519
-0.3072614670 -0.1052645668 0.5222401023 4289367646
-0.3073109686 -0.1047011837 0.5223242640 4289433439
-0.3073602319 -0.1041375250 0.5224079490 4289499233
-0.3079090714 -0.1037420109 0.5233408213 4289696612
-0.3079578876 -0.1031768993 0.5234237909 4289959530
-0.3080064654 -0.1026115194 0.5235063434 4290025323
-0.3080547750 -0.1020458788 0.5235884786 4290156911
-0.3086030185 -0.1016447023 0.5245202780 4290354290
-0.3086509109 -0.1010776088 0.5246016979 4290288756
-0.3091988862 -0.1006731540 0.5255330205 4290288756
-0.3092463315 -0.1001046076 0.5256137252 4290354549
-0.3097940087 -0.0996968672 0.5265445709 4290354549
-0.3098410368 -0.0991268903 0.5266245008 4290354803
-0.3103884459 -0.0987158641 0.5275549293 4290486389
-0.3104350567 -0.0981444418 0.5276340842 4290552180
-0.3104813695 -0.0975727662 0.5277128816 4290552180
-0.3110283017 -0.0971572846 0.5286424756 4290552182
-0.3115751445 -0.0967397094 0.5295718908 4290552182
-0.3121218383 -0.0963200256 0.5305010676 4290552182
-0.3121673763 -0.0957445651 0.5305784941 4290617975
-0.3127137721 -0.0953216106 0.5315071940 4290617975
-0.3127588630 -0.0947447270 0.5315837860 4290617975
-0.3133049607 -0.0943185017 0.5325120091 4290552182
-0.3138509393 -0.0938901752 0.5334399939 4290420596
-0.3143967986 -0.0934597552 0.5343677998 4290420596
-0.3149425685 -0.0930272341 0.5352953672 4290420596
-0.3154881895 -0.0925926194 0.5362227559 4290354803
-0.3165353239 -0.0923021808 0.5380024910 4290749561
-0.3170807660 -0.0918624476 0.5389295816 4291012733
-0.3176260591 -0.0914206132 0.5398564339 4290749561
-0.3181712627 -0.0909766778 0.5407830477 4290552182
-0.3187163174 -0.0905306488 0.5417094231 4290552182
-0.3187592328 -0.0899408832 0.5417824388 4290748795
-0.3193039596 -0.0894915983 0.5427082181 4290551416
-0.3203506470 -0.0891799927 0.5444872975 4287861902
-0.3116957545 -0.1476772577 0.5307788253 4287796636
-0.3147184849 -0.1485139430 0.5359262228 4286283395
-0.3148543537 -0.1473866254 0.5361575484 4286086271
-0.3149219155 -0.1468224376 0.5362726450 4285823099
-0.3150564134 -0.1456929445 0.5365016460 4288454049
-0.3146301508 -0.1449005455 0.5357757807 4287796887
-0.3137102127 -0.1438833177 0.5342092514 4285954683
-0.3132829666 -0.1430946290 0.5334817171 4287664531
-0.3123618066 -0.1420828998 0.5319131017 4286480257
-0.3119336069 -0.1412979364 0.5311838984 4285690743
-0.3110112548 -0.1402917057 0.5296132565 4284374883
-0.3105820715 -0.1395104676 0.5288823843 4285427312
-0.3111401796 -0.1391724944 0.5298327804 4284900968
-0.3102163374 -0.1381723285 0.5282596350 4285493362
-0.3097859323 -0.1373945028 0.5275266767 4285888120
-0.3088609278 -0.1363998801 0.5259515047 4285690995
-0.3089238405 -0.1358431727 0.5260586739 4285690995
-0.3084921241 -0.1350696683 0.5253235102 4285756277
-0.3085544705 -0.1345131695 0.5254296660 4285953656
-0.3081220090 -0.1337416619 0.5246932507 4286018934
-0.3071944416 -0.1327578276 0.5231136680 4285821555
-0.3062662482 -0.1317772418 0.5215330720 4285428337
-0.3068220317 -0.1314358711 0.5224795341 4285625716
-0.3063878417 -0.1306701750 0.5217401385 4285428598
-0.3064482808 -0.1301161498 0.5218431354 4285823356
-0.3065085113 -0.1295618117 0.5219456553 4286545793
-0.3060732484 -0.1287987232 0.5212044120 4287072137
-0.3061328828 -0.1282446086 0.5213060379 4287730574
-0.3061923087 -0.1276901811 0.5214071870 4287862160
-0.3062514961 -0.1271354407 0.5215079784 4288323229
-0.3063104451 -0.1265803725 0.5216084123 4288849573
-0.3058734238 -0.1258210540 0.5208641887 4289307808
-0.3059318066 -0.1252662390 0.5209636092 4286873467
-0.3054940403 -0.1245089844 0.5202181339 4287067489
-0.3050558269 -0.1237532198 0.5194719434 4287659626
-0.3051133156 -0.1231992617 0.5195698142 4287986522
-0.3051705658 -0.1226449907 0.5196673274 4287920729
-0.3052276075 -0.1220904142 0.5197644234 4287854936
-0.3047879934 -0.1213379055 0.5190157890 4287723350
-0.3048444390 -0.1207836047 0.5191119313 4287788371
-0.3049006462 -0.1202289984 0.5192076564 4287788371
-0.3049566150 -0.1196740940 0.5193029642 4287657806
-0.3050123453 -0.1191188768 0.5193978548 4287723599
-0.3050678372 -0.1185633540 0.5194923878 4287525702
-0.3051231205 -0.1180075333 0.5195865035 4287920460
-0.3051781356 -0.1174514070 0.5196801424 4288380749
-0.3057300150 -0.1170853674 0.5206199884 4288643921
-0.3052874506 -0.1163382605 0.5198662877 4288709714
-0.3058390319 -0.1159698144 0.5208055973 4288709714
-0.3058931828 -0.1154115871 0.5208978057 4288775761
-0.3054496050 -0.1146663129 0.5201424360 4288841554
-0.3055031598 -0.1141084060 0.5202336907 4288972621
-0.3055565059 -0.1135502085 0.5203244686 4288972621
-0.3056095839 -0.1129917130 0.5204148889 4288972621
-0.3056624234 -0.1124329343 0.5205048919 4288972621
-0.3057150245 -0.1118738651 0.5205944180 4288972368
-0.3057673872 -0.1113145053 0.5206835866 4289038161
-0.3058194816 -0.1107548624 0.5207723379 4289103958
-0.3053731918 -0.1100154594 0.5200123191 4289169751
-0.3059229553 -0.1096347123 0.5209485292 4289037911
-0.3064726591 -0.1092518568 0.5218846202 4288972118
-0.3065238595 -0.1086901650 0.5219718218 4288775507
-0.3065748215 -0.1081281900 0.5220586061 4288841300
-0.3066255450 -0.1075659394 0.5221449733 4289038679
-0.3066760004 -0.1070034057 0.5222308636 4289038679
-0.3067262173 -0.1064405963 0.5223163962 4289170265
-0.3067761958 -0.1058775112 0.5224015117 4289433437
-0.3068259060 -0.1053141505 0.5224861503 4289433697
-0.3068753779 -0.1047505215 0.5225703716 4289565283
-0.3069246113 -0.1041866168 0.5226542354 4289762664
-0.3074727356 -0.1037909314 0.5235875845 4290025836
-0.3075215220 -0.1032255664 0.5236706734 4290091629
-0.3080693781 -0.1028265953 0.5246036053 4290289008
-0.3081177473 -0.1022597775 0.5246859789 4290486387
-0.3081658781 -0.1016926914 0.5247679353 4290354801
-0.3087132871 -0.1012892425 0.5257000923 4290289008
-0.3087609708 -0.1007207111 0.5257813334 4290289008
-0.3093081117 -0.1003139764 0.5267130136 4290289780
-0.3093553782 -0.0997439995 0.5267934799 4290421366
-0.3099022210 -0.0993339792 0.5277247429 4290421366
-0.3099490404 -0.0987625569 0.5278044343 4290355573
-0.3104956150 -0.0983492509 0.5287351608 4290486389
-0.3105420172 -0.0977763981 0.5288141966 4290486389
-0.3105881512 -0.0972032845 0.5288927555 4290617975
-0.3111342192 -0.0967855230 0.5298226476 4290486389
-0.3116801977 -0.0963656530 0.5307524204 4290420596
-0.3117257059 -0.0957899392 0.5308299065 4290486389
-0.3122713864 -0.0953667983 0.5317590833 4290486389
-0.3128169477 -0.0949415565 0.5326881409 4290420596
-0.3128618300 -0.0943632349 0.5327645540 4290420596
-0.3134070933 -0.0939347148 0.5336930752 4290420596
-0.3139522076 -0.0935041010 0.5346213579 4290157170
-0.3144972324 -0.0930713937 0.5355494618 4290288756
-0.3155429959 -0.0927838609 0.5373302102 4290617975
-0.3160878122 -0.0923460200 0.5382580161 4290946940
-0.3166325390 -0.0919060856 0.5391855836 4290881147
-0.3171771169 -0.0914640501 0.5401129723 4290683768
-0.3177215755 -0.0910199210 0.5410400629 4290617721
-0.3182658851 -0.0905736908 0.5419669747 4290420342
-0.3183088005 -0.0899836645 0.5420400500 4290486905
-0.3188527822 -0.0895341709 0.5429664254 4290355319
-0.3198980391 -0.0892224237 0.5447463393 4288124045
-0.3142673075 -0.1485820562 0.5361720324 4288191392
-0.3138434291 -0.1477867216 0.5354487896 4287533462
-0.3144031167 -0.1474542916 0.5364036560 4286546822
-0.3144706786 -0.1468898654 0.5365189314 4286020478
-0.3145380020 -0.1463250667 0.5366337895 4287598740
-0.3141127527 -0.1455318034 0.5359082818 4287138189
-0.3146719337 -0.1451943964 0.5368623137 4287796119
-0.3132609129 -0.1439495087 0.5344550014 4288388256
-0.3123416901 -0.1429350376 0.5328866839 4288848805
-0.3119145930 -0.1421483159 0.5321580172 4288585633
-0.3114870489 -0.1413630098 0.5314285755 4287795606
-0.3105660975 -0.1403563470 0.5298573375 4286545539
-0.3106306195 -0.1397966892 0.5299674273 4285822070
-0.3102017641 -0.1390156597 0.5292357802 4285690484
-0.3097724915 -0.1382360756 0.5285033584 4285164397
-0.3093427420 -0.1374579221 0.5277702212 4284835432
-0.3089126050 -0.1366811991 0.5270363092 4284967272
-0.3084819913 -0.1359059215 0.5263016820 4285362030
-0.3085446358 -0.1353486329 0.5264085531 4285887863
-0.3081132770 -0.1345753521 0.5256726146 4286019449
-0.3071876168 -0.1335887462 0.5240933299 4286940036
-0.3077432513 -0.1332470179 0.5250412822 4286479485
-0.3068166077 -0.1322641969 0.5234603286 4286809990
-0.3068777025 -0.1317088157 0.5235645771 4286415232
-0.3064442873 -0.1309419125 0.5228251219 4286152321
-0.3065048158 -0.1303867549 0.5229283571 4285823356
-0.3060706556 -0.1296218783 0.5221876502 4286151035
-0.3056360483 -0.1288584620 0.5214461684 4286085242
-0.3056956828 -0.1283041239 0.5215479136 4285296235
-0.3057550490 -0.1277494580 0.5216492414 4285230442
-0.3058142066 -0.1271944642 0.5217501521 4285296751
-0.3058731556 -0.1266391575 0.5218507051 4285362544
-0.3059318364 -0.1260835379 0.5219508410 4285294435
-0.3054951429 -0.1253244728 0.5212057829 4284373333
-0.3050580621 -0.1245668903 0.5204600692 4286277971
-0.3051158488 -0.1240121126 0.5205586553 4287462245
-0.3051733971 -0.1234570146 0.5206568837 4287657807
-0.3052307069 -0.1229016110 0.5207546353 4287723600
-0.3047921956 -0.1221472770 0.5200064778 4287854416
-0.3048489690 -0.1215921491 0.5201033354 4287854416
-0.3044096828 -0.1208399013 0.5193538666 4287920208
-0.3044658601 -0.1202850640 0.5194497705 4287920208
-0.3045218289 -0.1197299138 0.5195451975 4287920462
-0.3045775294 -0.1191744581 0.5196402669 4287920462
-0.3046329916 -0.1186186969 0.5197348595 4287723081
-0.3046882153 -0.1180626377 0.5198290944 4288052046
-0.3047432303 -0.1175062731 0.5199229121 4288314959
-0.3052943945 -0.1171400845 0.5208632350 4288446545
-0.3053489923 -0.1165822074 0.5209563971 4288512337
-0.3054033518 -0.1160240397 0.5210491419 4288512337
-0.3054574430 -0.1154655740 0.5211414695 4288512337
-0.3055113256 -0.1149068102 0.5212333798 4288578130
-0.3050681055 -0.1141618192 0.5204772353 4288709198
-0.3051214218 -0.1136033833 0.5205681324 4288774991
-0.3051744699 -0.1130446494 0.5206586719 4288840784
-0.3052272797 -0.1124856174 0.5207487941 4288840784
-0.3052798510 -0.1119263098 0.5208384991 4288644175
-0.3053321838 -0.1113667041 0.5209277272 4288644175
-0.3053842485 -0.1108068153 0.5210165977 4288709968
-0.3049386442 -0.1100670844 0.5202563405 4288709968
-0.3049901426 -0.1095075309 0.5203441978 4288775507
-0.3055390418 -0.1091254354 0.5212806463 4288841300
-0.3060878515 -0.1087412238 0.5222169757 4288841554
-0.3061387837 -0.1081790030 0.5223038793 4289038933
-0.3061894774 -0.1076164991 0.5223903656 4289236058
-0.3062399030 -0.1070537195 0.5224764347 4289367644
-0.3062900901 -0.1064906642 0.5225620866 4289565025
-0.3063400388 -0.1059273258 0.5226472616 4289762404
-0.3063897491 -0.1053637192 0.5227320790 4289762664
-0.3064391911 -0.1047998369 0.5228164196 4289894250
-0.3064883947 -0.1042356864 0.5229003429 4289960045
-0.3070357740 -0.1038398296 0.5238342285 4290091631
-0.3070845604 -0.1032742187 0.5239174962 4290157424
-0.3076316714 -0.1028750688 0.5248509049 4290223217
-0.3076800108 -0.1023079976 0.5249333978 4290289010
-0.3082268834 -0.1019055545 0.5258663893 4290223217
-0.3082748055 -0.1013370380 0.5259481668 4290420596
-0.3088213801 -0.1009313092 0.5268806815 4290420596
-0.3088688552 -0.1003613397 0.5269616842 4290421112
-0.3094151616 -0.0999523178 0.5278937221 4290421112
-0.3094622195 -0.0993809029 0.5279740095 4290289526
-0.3095090389 -0.0988092273 0.5280538797 4290289526
-0.3100548685 -0.0983957425 0.5289851427 4290552182
-0.3101012409 -0.0978226289 0.5290642381 4290683768
-0.3101473451 -0.0972492620 0.5291429162 4290486389
-0.3101931810 -0.0966756344 0.5292211175 4290420596
-0.3112379611 -0.0964112654 0.5310035944 4290420596
-0.3112834394 -0.0958352834 0.5310811996 4290354803
-0.3118283749 -0.0954119563 0.5320109129 4290354803
-0.3123732209 -0.0949865282 0.5329404473 4290354803
-0.3129179180 -0.0945589989 0.5338698030 4290288756
-0.3129625916 -0.0939792395 0.5339459777 4290025584
-0.3135069907 -0.0935484320 0.5348747969 4290551928
-0.3145513535 -0.0932638049 0.5366566181 4290617721
-0.3150955737 -0.0928278714 0.5375851393 4290683768
-0.3156397045 -0.0923898369 0.5385134220 4290881147
-0.3161836863 -0.0919497088 0.5394415259 4290749561
-0.3167275190 -0.0915074721 0.5403693914 4290617975
-0.3172712624 -0.0910631418 0.5412970185 4290617721
-0.3173143566 -0.0904740095 0.5413705111 4290486135
-0.3178577423 -0.0900264159 0.5422976017 4290486905
-0.3184009790 -0.0895767212 0.5432244539 4290355319
-0.3194448054 -0.0892648399 0.5450053215 4288124045
-0.3103103638 -0.1475791186 0.5304261446 4286283395
-0.3079223037 -0.1458585858 0.5263441205 4287994013
-0.3133923113 -0.1478544623 0.5356942415 4288191392
-0.3134599626 -0.1472910494 0.5358098745 4287204752
-0.3140187860 -0.1469572484 0.5367650986 4287204752
-0.3140860796 -0.1463922262 0.5368801355 4287993498
-0.3136614859 -0.1455986351 0.5361543894 4285690743
-0.3142199516 -0.1452610940 0.5371089578 4285690743
-0.3128110170 -0.1440156698 0.5347006321 4287269775
-0.3118931651 -0.1430007666 0.5331317186 4286940808
-0.3114667535 -0.1422137022 0.5324028134 4288059289
-0.3110398650 -0.1414280683 0.5316731334 4287532434
-0.3101203144 -0.1404209733 0.5301012397 4287927192
-0.3096924424 -0.1396390647 0.5293699503 4287795860
-0.3102490902 -0.1393008232 0.5303214192 4287795860
-0.3093280196 -0.1382997930 0.5287469625 4287203723
-0.3093916178 -0.1377406418 0.5288556814 4286808965
-0.3089622259 -0.1369626969 0.5281217098 4285953656
-0.3085324168 -0.1361861974 0.5273870230 4285229933
-0.3081021607 -0.1354111284 0.5266515613 4285953656
-0.3081645370 -0.1348532736 0.5267581940 4286677379
-0.3077335358 -0.1340802163 0.5260214806 4287334796
-0.3082886040 -0.1337365657 0.5269702673 4286084729
-0.3068701923 -0.1325384527 0.5245457292 4285296753
-0.3064379096 -0.1317697465 0.5238068104 4284704616
-0.3060051501 -0.1310025007 0.5230671167 4283980640
-0.3060656488 -0.1304471195 0.5231704712 4285099121
-0.3056321740 -0.1296819150 0.5224295259 4285492851
-0.3056920767 -0.1291267723 0.5225319266 4285361265
-0.3052578270 -0.1283635944 0.5217896700 4287270025
-0.3053171933 -0.1278086901 0.5218911171 4288454299
-0.3053763211 -0.1272534728 0.5219922066 4288849573
-0.3054352105 -0.1266979277 0.5220928788 4288520608
-0.3054938912 -0.1261420697 0.5221931338 4288254604
-0.3050578833 -0.1253826767 0.5214478374 4287267709
-0.3051159680 -0.1248270795 0.5215471387 4287659624
-0.3046792150 -0.1240697503 0.5208005905 4287330659
-0.3047367334 -0.1235144213 0.5208989382 4288052046
-0.3047940433 -0.1229587793 0.5209968686 4288117839
-0.3043561876 -0.1222041100 0.5202484727 4288052046
-0.3044129312 -0.1216487437 0.5203453898 4287986253
-0.3044694066 -0.1210930720 0.5204419494 4287986253
-0.3045256734 -0.1205370873 0.5205380917 4287986253
-0.3045816720 -0.1199807972 0.5206338763 4287986253
-0.3046374321 -0.1194242015 0.5207291842 4287986253
-0.3041975498 -0.1186740175 0.5199772716 4287723081
-0.3042527437 -0.1181177124 0.5200716257 4287854667
-0.3043076992 -0.1175611094 0.5201655626 4287919947
-0.3048581183 -0.1171947643 0.5211064219 4287919947
-0.3049127162 -0.1166366562 0.5211997032 4288051533
-0.3049670458 -0.1160782427 0.5212925673 4288183119
-0.3050211370 -0.1155195385 0.5213850141 4288183119
-0.3050749600 -0.1149605289 0.5214771032 4288314705
-0.3046324253 -0.1142152101 0.5207206011 4288511568
-0.3046857119 -0.1136565283 0.5208116770 4288577361
-0.3047387302 -0.1130975485 0.5209023356 4288643153
-0.3047915399 -0.1125382856 0.5209925771 4288643153
-0.3048440814 -0.1119787246 0.5210824013 4288512335
-0.3048963845 -0.1114188731 0.5211718082 4288578128
-0.3049484193 -0.1108587384 0.5212607980 4288709968
-0.3050002456 -0.1102983207 0.5213493109 4288841554
-0.3050518036 -0.1097376123 0.5214374661 4288907347
-0.3051031232 -0.1091766283 0.5215252042 4289038933
-0.3056511879 -0.1087922528 0.5224620700 4289039446
-0.3057021201 -0.1082297862 0.5225490928 4289236825
-0.3062499464 -0.1078421026 0.5234854817 4289433950
-0.3063004315 -0.1072781608 0.5235717893 4289631329
-0.3063506782 -0.1067139357 0.5236576796 4289762917
-0.3064006865 -0.1061494425 0.5237431526 4289894503
-0.3064504266 -0.1055846661 0.5238282084 4289828459
-0.3064999580 -0.1050196141 0.5239128470 4289960045
-0.3065491915 -0.1044542938 0.5239970088 4290025838
-0.3065981865 -0.1038886979 0.5240808129 4290223217
-0.3066469431 -0.1033228338 0.5241641402 4290289010
-0.3071933389 -0.1029235199 0.5250980854 4290223217
-0.3072416782 -0.1023561954 0.5251806974 4290289010
-0.3077877760 -0.1019535810 0.5261142254 4290223217
-0.3078356981 -0.1013848037 0.5261960626 4290157424
-0.3083815277 -0.1009789035 0.5271291137 4290223217
-0.3084290028 -0.1004086733 0.5272102356 4290158194
-0.3089745641 -0.0999994799 0.5281428099 4290355573
-0.3090215921 -0.0994278118 0.5282232165 4290421366
-0.3095668852 -0.0990153253 0.5291552544 4290552952
-0.3096134961 -0.0984422117 0.5292349458 4290617975
-0.3096598387 -0.0978688449 0.5293141603 4290552182
-0.3102046251 -0.0974518880 0.5302454233 4290420596
-0.3102505505 -0.0968770832 0.5303239226 4290354803
-0.3107950687 -0.0964568481 0.5312546492 4290552182
-0.3113394678 -0.0960345119 0.5321851969 4290617975
-0.3118837476 -0.0956100672 0.5331156254 4290223217
-0.3124279082 -0.0951835290 0.5340457559 4290025838
-0.3124728203 -0.0946037546 0.5341225266 4290288756
-0.3130166829 -0.0941739380 0.5350521803 4290749307
-0.3135604262 -0.0937420130 0.5359815955 4290815100
-0.3141040504 -0.0933079869 0.5369108319 4290880893
-0.3146475554 -0.0928718597 0.5378398895 4290815354
-0.3156904280 -0.0925801247 0.5396225452 4290815354
-0.3162337542 -0.0921388641 0.5405512452 4290683514
-0.3162772954 -0.0915508792 0.5406256914 4290617721
-0.3168202937 -0.0911063477 0.5415537953 4290617721
-0.3168633580 -0.0905169472 0.5416274667 4290420342
-0.3174060285 -0.0900691524 0.5425550342 4290486905
-0.3179485500 -0.0896192491 0.5434824228 4290355319
-0.3189909160 -0.0893072337 0.5452641845 4288059022
-0.3133631349 -0.1487181783 0.5366632342 4287204752
-0.3139894009 -0.1478204727 0.5377357602 4287664533
-0.3135662675 -0.1470246166 0.5370111465 4287664533
-0.3137005568 -0.1458937526 0.5372411013 4286085501
-0.3127852678 -0.1448729038 0.5356736183 4284769641
-0.3123604953 -0.1440818012 0.5349461436 4287796119
-0.3114440441 -0.1430664510 0.5333766341 4287664533
-0.3110182881 -0.1422790587 0.5326474309 4287269775
-0.3101006448 -0.1412692070 0.5310758948 4286019706
-0.3096739054 -0.1404855549 0.5303450823 4285690741
-0.3092467189 -0.1397033185 0.5296134949 4286875015
-0.3098026216 -0.1393649429 0.5305655003 4287138187
-0.3088829219 -0.1383634806 0.5289904475 4287664531
-0.3089464903 -0.1378040910 0.5290993452 4288322461
-0.3085177839 -0.1370258182 0.5283651352 4287927703
-0.3080886304 -0.1362489760 0.5276301503 4286809222
-0.3081513345 -0.1356903464 0.5277374983 4286611586
-0.3077214062 -0.1349155009 0.5270012617 4286874758
-0.3072910905 -0.1341421157 0.5262642503 4287532434
-0.3068602979 -0.1333701760 0.5255265236 4286545539
-0.3059364557 -0.1323865056 0.5239443779 4285230960
-0.3064902425 -0.1320429444 0.5248927474 4285099374
-0.3055654168 -0.1310630739 0.5233089328 4284441191
-0.3056258857 -0.1305074543 0.5234124660 4286414981
-0.3051930666 -0.1297419220 0.5226712227 4286151294
-0.3052529693 -0.1291865408 0.5227738023 4284638055
-0.3053126335 -0.1286308318 0.5228760242 4287993748
-0.3053720593 -0.1280748099 0.5229777694 4289243815
-0.3054312468 -0.1275184602 0.5230791569 4288980645
-0.3049966991 -0.1267566681 0.5223349333 4289046438
-0.3050553203 -0.1262005717 0.5224353075 4289702050
-0.3046199977 -0.1254408509 0.5216898322 4288649362
-0.3046780527 -0.1248850152 0.5217892528 4287593831
-0.3047358990 -0.1243288666 0.5218882561 4287199073
-0.3042994738 -0.1235717908 0.5211408734 4287920462
-0.3043567538 -0.1230159104 0.5212389827 4287920462
-0.3039195836 -0.1222609207 0.5204902887 4287854154
-0.3039762974 -0.1217053160 0.5205873847 4287656775
-0.3040327430 -0.1211494058 0.5206840634 4287657029
-0.3040889502 -0.1205931827 0.5207803845 4287722822
-0.3041449487 -0.1200366542 0.5208762288 4287788615
-0.3042006791 -0.1194798127 0.5209717155 4287854408
-0.3042562008 -0.1189226732 0.5210667849 4287919947
-0.3038166463 -0.1181727648 0.5203139782 4287985740
-0.3038715720 -0.1176159233 0.5204080939 4287919947
-0.3044212759 -0.1172494292 0.5213494897 4287854154
-0.3044758141 -0.1166910753 0.5214428902 4287985740
-0.3045301139 -0.1161324233 0.5215358734 4288051533
-0.3045841753 -0.1155734733 0.5216284394 4288117580
-0.3041426539 -0.1148272082 0.5208722949 4288117580
-0.3041961491 -0.1142685786 0.5209639072 4288314442
-0.3042493761 -0.1137096509 0.5210551023 4288446028
-0.3043023944 -0.1131504253 0.5211458802 4288643407
-0.3043551445 -0.1125909165 0.5212362409 4288774993
-0.3044076860 -0.1120311171 0.5213261843 4288840784
-0.3044599593 -0.1114710271 0.5214157104 4288972370
-0.3045119941 -0.1109106466 0.5215048194 4289104726
-0.3045637608 -0.1103499755 0.5215935111 4289302105
-0.3046153188 -0.1097890288 0.5216817856 4289301851
-0.3046666086 -0.1092277914 0.5217696428 4289367644
-0.3047176600 -0.1086662710 0.5218570828 4289433950
-0.3047684729 -0.1081044748 0.5219440460 4289499743
-0.3058119118 -0.1078926921 0.5237310529 4289631331
-0.3058623970 -0.1073285043 0.5238175392 4289762917
-0.3059126139 -0.1067640334 0.5239035487 4289828710
-0.3059625924 -0.1061992869 0.5239891410 4289828710
-0.3060123324 -0.1056342646 0.5240743160 4289960043
-0.3060618043 -0.1050689667 0.5241590142 4290025836
-0.3061110377 -0.1045033932 0.5242433548 4290091629
-0.3061600029 -0.1039375514 0.5243272185 4290223215
-0.3062087297 -0.1033714339 0.5244106650 4290223215
-0.3067543805 -0.1029719412 0.5253451467 4290157422
-0.3068026900 -0.1024043709 0.5254278779 4290223215
-0.3073480725 -0.1020015776 0.5263618827 4290223215
-0.3073959649 -0.1014325544 0.5264438987 4290223215
-0.3079410493 -0.1010264680 0.5273774266 4290223215
-0.3079884946 -0.1004559919 0.5274586678 4290223985
-0.3085333407 -0.1000466198 0.5283917785 4290289778
-0.3085803390 -0.0994746909 0.5284723043 4290421364
-0.3091248870 -0.0990620255 0.5294048786 4290487157
-0.3091714680 -0.0984886587 0.5294846296 4290552180
-0.3092178106 -0.0979150310 0.5295639634 4290420594
-0.3097618818 -0.0974978954 0.5304957628 4290683768
-0.3098077476 -0.0969228297 0.5305743217 4290683768
-0.3108496964 -0.0966573134 0.5323587656 4290420596
-0.3108952045 -0.0960798860 0.5324366689 4290157424
-0.3114387691 -0.0956552625 0.5333675742 4290223217
-0.3119822145 -0.0952285305 0.5342982411 4290617975
-0.3125255108 -0.0947996899 0.5352287292 4290815354
-0.3125702143 -0.0942184851 0.5353052616 4290617975
-0.3131132126 -0.0937863663 0.5362352133 4290815354
-0.3136561215 -0.0933521539 0.5371649861 4290881147
-0.3146975935 -0.0930633172 0.5389486551 4290881147
-0.3152403235 -0.0926239640 0.5398780704 4290749561
-0.3157829046 -0.0921825096 0.5408073068 4290552182
-0.3158264160 -0.0915942565 0.5408818126 4290617975
-0.3163686693 -0.0911495313 0.5418105125 4290617721
-0.3169108033 -0.0907027051 0.5427389741 4290354549
-0.3169536591 -0.0901118666 0.5428123474 4290421113
-0.3174954355 -0.0896617621 0.5437402129 4290289527
-0.3185363710 -0.0893496126 0.5455228686 4287993229
-0.3129101098 -0.1487862021 0.5369086862 4287270545
-0.3124882281 -0.1479898542 0.5361847878 4287073166
-0.3136031628 -0.1473221332 0.5380977988 4285954685
-0.3136704564 -0.1467557549 0.5382133126 4287402131
-0.3122669160 -0.1455037743 0.5358050466 4287994268
-0.3133141100 -0.1453943998 0.5376018286 4287467154
-0.3119093478 -0.1441478878 0.5351914763 4286677638
-0.3109942675 -0.1431320906 0.5336213708 4286875017
-0.3105691969 -0.1423443705 0.5328919888 4287730326
-0.3101436794 -0.1415580660 0.5321618319 4285427569
-0.3097177148 -0.1407731920 0.5314309597 4284835432
-0.3092913032 -0.1399897337 0.5306993127 4285493362
-0.3088644743 -0.1392077208 0.5299669504 4285756534
-0.3089283407 -0.1386475563 0.5300765038 4285888120
-0.3085007668 -0.1378675103 0.5293428302 4285953913
-0.3085640669 -0.1373075396 0.5294514894 4286940808
-0.3081356883 -0.1365294904 0.5287164450 4287532945
-0.3077068925 -0.1357528716 0.5279806852 4287533199
-0.3072776794 -0.1349776983 0.5272442102 4288520094
-0.3068480194 -0.1342039704 0.5265069604 4288782501
-0.3074015975 -0.1338600516 0.5274568796 4287664020
-0.3054954708 -0.1324476004 0.5241861939 4287665301
-0.3060484827 -0.1321039051 0.5251350999 4287928473
-0.3056172132 -0.1313351095 0.5243951082 4286480774
-0.3051854968 -0.1305677742 0.5236543417 4285362293
-0.3052456975 -0.1300115883 0.5237576365 4285822329
-0.3048132360 -0.1292462796 0.5230155587 4285756536
-0.3048728704 -0.1286903471 0.5231178999 4286612095
-0.3049322665 -0.1281340867 0.5232198238 4288849057
-0.3049914241 -0.1275774986 0.5233213305 4289046438
-0.3050503433 -0.1270205826 0.5234224200 4288980645
-0.3046161532 -0.1262590587 0.5226774216 4289636257
-0.3046745062 -0.1257023960 0.5227775574 4288912534
-0.3042395413 -0.1249429286 0.5220311880 4287725419
-0.3042973280 -0.1243865415 0.5221303701 4287396454
-0.3038616180 -0.1236291379 0.5213827491 4288051537
-0.3039188385 -0.1230730191 0.5214809179 4287788365
-0.3034823835 -0.1223177016 0.5207319856 4287590984
-0.3035390377 -0.1217618585 0.5208292603 4287459398
-0.3035954535 -0.1212057099 0.5209260583 4287459396
-0.3036516607 -0.1206492484 0.5210224986 4287590982
-0.3037075996 -0.1200924814 0.5211185217 4287722568
-0.3037633300 -0.1195354089 0.5212140679 4287722568
-0.3038187921 -0.1189780235 0.5213092566 4287656775
-0.3038740456 -0.1184203401 0.5214040875 4287656775
-0.3039290309 -0.1178623512 0.5214984417 4287854408
-0.3039838076 -0.1173040569 0.5215923786 4287985994
-0.3040383160 -0.1167454645 0.5216858983 4288117579
-0.3040925860 -0.1161865741 0.5217790604 4288249165
-0.3041466177 -0.1156273782 0.5218717456 4288446028
-0.3037057817 -0.1148807853 0.5211153626 4288314442
-0.3037592471 -0.1143219098 0.5212070942 4288445766
-0.3038124740 -0.1137627438 0.5212984085 4288708938
-0.3043603301 -0.1133876517 0.5222384930 4288906575
-0.3039181828 -0.1126435250 0.5214797854 4289169747
-0.3039706647 -0.1120834798 0.5215698481 4289301335
-0.3040229082 -0.1115231439 0.5216594934 4289432921
-0.3040749133 -0.1109625250 0.5217487216 4289498716
-0.3041266799 -0.1104016080 0.5218375921 4289564509
-0.3041782081 -0.1098404154 0.5219259858 4289630818
-0.3047249615 -0.1094569117 0.5228641033 4289696611
-0.3047760725 -0.1088942364 0.5229517817 4289762405
-0.3048269153 -0.1083312705 0.5230391026 4289762405
-0.3053732812 -0.1079432592 0.5239765644 4289762405
-0.3054237366 -0.1073788255 0.5240631104 4289893991
-0.3054739237 -0.1068141088 0.5241492391 4289828455
-0.3055238724 -0.1062491089 0.5242349505 4289828455
-0.3055735826 -0.1056838408 0.5243202448 4290091627
-0.3056230545 -0.1051182896 0.5244051218 4290025834
-0.3056722581 -0.1045524701 0.5244895220 4289960041
-0.3057211936 -0.1039863750 0.5245735049 4290091627
-0.3062662780 -0.1035878956 0.5255088210 4290157420
-0.3063148260 -0.1030203402 0.5255920887 4290157420
-0.3068596423 -0.1026185676 0.5265269279 4290289006
-0.3069077432 -0.1020495594 0.5266094804 4290289006
-0.3074522913 -0.1016444862 0.5275438428 4290354799
-0.3074999750 -0.1010740176 0.5276256204 4290486385
-0.3080442548 -0.1006656513 0.5285595059 4290486385
-0.3080914915 -0.1000937298 0.5286405683 4290420592
-0.3086354733 -0.0996820703 0.5295739770 4290354799
-0.3086822927 -0.0991087034 0.5296543241 4290420592
-0.3092260063 -0.0986937508 0.5305872560 4290421362
-0.3092723787 -0.0981189460 0.5306668282 4290487155
-0.3093184829 -0.0975438803 0.5307459235 4290552180
-0.3098617196 -0.0971244574 0.5316780806 4290223215
-0.3104048371 -0.0967029259 0.5326099992 4290025836
-0.3109478354 -0.0962792858 0.5335416794 4290289008
-0.3109931350 -0.0957004279 0.5336194038 4290617973
-0.3115358651 -0.0952735096 0.5345506072 4290617973
-0.3120784461 -0.0948444828 0.5354816318 4290683766
-0.3126209080 -0.0944133550 0.5364124179 4290881145
-0.3131632507 -0.0939801186 0.5373430252 4290815352
-0.3137054741 -0.0935447812 0.5382733941 4290815352
-0.3142475784 -0.0931073353 0.5392035842 4290749561
-0.3147895634 -0.0926677883 0.5401335359 4290617975
-0.3153313994 -0.0922261402 0.5410632491 4290486389
-0.3153749108 -0.0916376188 0.5411378741 4290617975
-0.3159164190 -0.0911926925 0.5420670509 4290683768
-0.3164578080 -0.0907456651 0.5429959893 4290223217
-0.3169990778 -0.0902965292 0.5439247489 4290421113
-0.3170417249 -0.0897042528 0.5439978838 4290289527
-0.3175826371 -0.0892518535 0.5449260473 4287795596
-0.3129454553 -0.1490871161 0.5379945636 4287928475
-0.3125243485 -0.1482895613 0.5372706652 4287599510
-0.3130811751 -0.1479557604 0.5382279158 4286941580
-0.3131486773 -0.1473895162 0.5383439660 4285165169
-0.3127265871 -0.1465935111 0.5376182795 4285823099
-0.3118145168 -0.1455703825 0.5360503197 4286678408
-0.3128602505 -0.1454609931 0.5378481150 4287467924
-0.3114576042 -0.1442139447 0.5354367495 4287994268
-0.3110337257 -0.1434235722 0.5347080827 4288257440
-0.3106094003 -0.1426346302 0.5339785814 4287467924
-0.3096946478 -0.1416230202 0.5324059725 4286086269
-0.3092693686 -0.1408378035 0.5316748619 4286020476
-0.3088436425 -0.1400540322 0.5309430361 4285559925
-0.3089078069 -0.1394930929 0.5310533643 4285691511
-0.3084813058 -0.1387112737 0.5303201675 4285427569
-0.3085449338 -0.1381505281 0.5304294825 4284638053
-0.3081176877 -0.1373707056 0.5296949744 4285624948
-0.3076899946 -0.1365923136 0.5289597511 4285690741
-0.3072618842 -0.1358153671 0.5282237530 4284835686
-0.3068333268 -0.1350398660 0.5274870396 4286480511
-0.3064043522 -0.1342658103 0.5267495513 4287006090
-0.3060363233 -0.1329354346 0.5261168480 4285756534
-0.3056061268 -0.1321648359 0.5253773332 4287138187
-0.3051755428 -0.1313957125 0.5246370435 4287401876
-0.3052360415 -0.1308387369 0.5247410536 4287665048
-0.3048046827 -0.1300716251 0.5239995122 4288585635
-0.3048646152 -0.1295148879 0.5241025090 4288980393
-0.3049243093 -0.1289578229 0.5242051482 4288586655
-0.3044918478 -0.1281933337 0.5234616995 4288915620
-0.3045509756 -0.1276365072 0.5235633850 4288914852
-0.3046098948 -0.1270793676 0.5236646533 4289046438
-0.3046685457 -0.1265219003 0.5237655044 4289504671
-0.3042346835 -0.1257606149 0.5230196118 4288780948
-0.3042927980 -0.1252034009 0.5231195092 4287725676
-0.3038581610 -0.1244441792 0.5223723650 4287594090
-0.3034231365 -0.1236864552 0.5216244459 4287853903
-0.3034803271 -0.1231300980 0.5217227936 4287459145
-0.3030445576 -0.1223744452 0.5209736228 4287130435
-0.3031011820 -0.1218183711 0.5210709572 4287064642
-0.3031575680 -0.1212619841 0.5211679339 4287130433
-0.3032137454 -0.1207052842 0.5212644935 4287393605
-0.3032696545 -0.1201482788 0.5213606358 4287656261
-0.3033253551 -0.1195909679 0.5214563608 4287590468
-0.3033807874 -0.1190333441 0.5215516686 4287787845
-0.3034360111 -0.1184754223 0.5216465592 4287787845
-0.3034909666 -0.1179171950 0.5217410922 4287985223
-0.3035457134 -0.1173586622 0.5218351483 4288314188
-0.3036001921 -0.1167998239 0.5219288468 4288511821
-0.3036544323 -0.1162406951 0.5220221281 4288774993
-0.3037084639 -0.1156812608 0.5221149325 4288906577
-0.3037622273 -0.1151215285 0.5222073793 4288840784
-0.3033217192 -0.1143752262 0.5214501023 4288775242
-0.3033749163 -0.1138158143 0.5215415955 4288972621
-0.3039220572 -0.1134405583 0.5224821568 4289235795
-0.3039748669 -0.1128796488 0.5225729346 4289433174
-0.3035330474 -0.1121358201 0.5218133926 4289498714
-0.3035852611 -0.1115752384 0.5219032168 4289498714
-0.3036372662 -0.1110143736 0.5219925642 4289564255
-0.3036890030 -0.1104532182 0.5220814943 4289564255
-0.3037404716 -0.1098917797 0.5221700072 4289630819
-0.3042865098 -0.1095081121 0.5231086612 4289696612
-0.3043375909 -0.1089451835 0.5231965184 4289762405
-0.3043884039 -0.1083819792 0.5232838988 4289828198
-0.3049340248 -0.1079938039 0.5242218971 4289828198
-0.3049844503 -0.1074291170 0.5243085623 4289959784
-0.3050346375 -0.1068641543 0.5243948102 4289959783
-0.3050845563 -0.1062989086 0.5244806409 4289959783
-0.3051342368 -0.1057333872 0.5245660543 4290025834
-0.3051836491 -0.1051675901 0.5246510506 4289960041
-0.3052328527 -0.1046015173 0.5247355700 4289894248
-0.3052817881 -0.1040351763 0.5248197317 4290025834
-0.3058261275 -0.1036365256 0.5257555246 4290157420
-0.3058746159 -0.1030687243 0.5258389115 4290223213
-0.3064187169 -0.1026667729 0.5267742276 4290420592
-0.3064667881 -0.1020975113 0.5268568993 4290354799
-0.3070105910 -0.1016922593 0.5277917981 4290355569
-0.3070582449 -0.1011215374 0.5278736949 4290092397
-0.3076017797 -0.1007129923 0.5288081169 4290091627
-0.3081452250 -0.1003023386 0.5297423601 4290223213
-0.3081922829 -0.0997289792 0.5298232436 4290617971
-0.3087354302 -0.0993150324 0.5307569504 4290683764
-0.3087820411 -0.0987402275 0.5308371186 4290223985
-0.3088283837 -0.0981651619 0.5309168100 4289829227
-0.3093710542 -0.0977467373 0.5318497419 4289762664
-0.3094169796 -0.0971702337 0.5319286585 4290289008
-0.3104560673 -0.0969035625 0.5337150097 4290552180
-0.3105016351 -0.0963246971 0.5337933302 4290486387
-0.3110437691 -0.0958987623 0.5347253680 4290617973
-0.3110888600 -0.0953184664 0.5348028541 4290881145
-0.3116307259 -0.0948892459 0.5357343554 4290946938
-0.3121724427 -0.0944579318 0.5366656780 4290946938
-0.3127140701 -0.0940245017 0.5375967622 4290749559
-0.3132555485 -0.0935889706 0.5385276675 4290617973
-0.3137969077 -0.0931513309 0.5394583344 4290617973
-0.3143381476 -0.0927115902 0.5403888226 4290617973
-0.3148792684 -0.0922697410 0.5413190722 4290486389
-0.3154202700 -0.0918257907 0.5422490835 4290617975
-0.3159611225 -0.0913797393 0.5431789160 4290552180
-0.3165018260 -0.0909315795 0.5441084504 4289894250
-0.3165447116 -0.0903392732 0.5441821814 4290486652
-0.3170851171 -0.0898878351 0.5451111794 4290420859
-0.3176253736 -0.0894342959 0.5460399389 4287992975
-0.3186633885 -0.0891179070 0.5478244424 4288650905
-0.3125584126 -0.1485894322 0.5383571386 4287797146
-0.3126261234 -0.1480233371 0.5384737849 4288059806
-0.3122050166 -0.1472264826 0.5377484560 4287401876
-0.3122721612 -0.1466605365 0.5378640890 4286809994
-0.3123390675 -0.1460942328 0.5379793644 4284967790
-0.3114279509 -0.1450720727 0.5364100337 4285098606
-0.3110052049 -0.1442799568 0.5356818438 4285295985
-0.3105820119 -0.1434892565 0.5349529386 4285230192
-0.3101583719 -0.1426999867 0.5342232585 4286940810
-0.3092449903 -0.1416879296 0.5326500535 4288257438
-0.3088203967 -0.1409023851 0.5319187045 4287467922
-0.3083953559 -0.1401182711 0.5311865807 4287927703
-0.3084594905 -0.1395571083 0.5312970281 4287335566
-0.3085233867 -0.1389955878 0.5314071178 4286743429
-0.3080972433 -0.1382139921 0.5306731462 4285822327
-0.3076706827 -0.1374338269 0.5299383998 4285888120
-0.3072436750 -0.1366551071 0.5292028785 4285164397
-0.3068162203 -0.1358778179 0.5284666419 4284046170
-0.3063883483 -0.1351019889 0.5277296901 4285427823
-0.3064503670 -0.1345428675 0.5278365016 4287006090
-0.3060217500 -0.1337690353 0.5270982385 4286019195
-0.3051021397 -0.1327831894 0.5255143046 4285164651
-0.3056537807 -0.1324383318 0.5264644623 4285625202
-0.3047332466 -0.1314562857 0.5248789191 4284901227
-0.3047937155 -0.1308990717 0.5249830484 4285164399
-0.3043630421 -0.1301316321 0.5242412686 4286480259
-0.3039319217 -0.1293656677 0.5234987140 4289440944
-0.3039914966 -0.1288092732 0.5236012936 4288915366
-0.3040508330 -0.1282525361 0.5237035155 4288981159
-0.3041099310 -0.1276954859 0.5238053203 4289243817
-0.3036774099 -0.1269327104 0.5230603218 4289112231
-0.3037359715 -0.1263759136 0.5231611729 4289569697
-0.3037942648 -0.1258187890 0.5232616067 4289109146
-0.3033606708 -0.1250586510 0.5225147605 4287988850
-0.3034183979 -0.1245017946 0.5226141810 4287462506
-0.3034758866 -0.1239446178 0.5227132440 4287919951
-0.3030412197 -0.1231871471 0.5219644904 4287525193
-0.3030981421 -0.1226302460 0.5220625997 4287327814
-0.3031548560 -0.1220730245 0.5221602321 4287459400
-0.3032113016 -0.1215154976 0.5222575068 4287656777
-0.3032675385 -0.1209576577 0.5223543048 4287919949
-0.3033235073 -0.1203995049 0.5224507451 4288248398
-0.3033792675 -0.1198410466 0.5225467682 4288248398
-0.3029421866 -0.1190886423 0.5217939615 4288577360
-0.3029973805 -0.1185304746 0.5218889713 4288379981
-0.3030523062 -0.1179720089 0.5219836235 4288446028
-0.3031070232 -0.1174132377 0.5220778584 4288709200
-0.3031614721 -0.1168541610 0.5221716166 4288840784
-0.3032156825 -0.1162947863 0.5222650170 4288972370
-0.3032696545 -0.1157351136 0.5223580003 4289169236
-0.3033234179 -0.1151751429 0.5224505663 4289169236
-0.3028835952 -0.1144285053 0.5216930509 4289103956
-0.3029367626 -0.1138688549 0.5217846036 4289235542
-0.3034831583 -0.1134934425 0.5227257609 4289367130
-0.3035359383 -0.1129322946 0.5228166580 4289432923
-0.3035884500 -0.1123708487 0.5229070783 4289498716
-0.3036407530 -0.1118091121 0.5229971409 4289498716
-0.3036927879 -0.1112470850 0.5230867863 4289433437
-0.3037445843 -0.1106847748 0.5231760144 4289433437
-0.3037961125 -0.1101221740 0.5232647657 4289499232
-0.3038474321 -0.1095592827 0.5233531594 4289499232
-0.3038984835 -0.1089961156 0.5234410763 4289696612
-0.3039492965 -0.1084326580 0.5235285759 4289762405
-0.3039998412 -0.1078689247 0.5236156583 4289762405
-0.3045445681 -0.1074793860 0.5245538950 4289828198
-0.3045946956 -0.1069141701 0.5246402621 4289828197
-0.3046446145 -0.1063486785 0.5247262120 4289762404
-0.3051888943 -0.1059546396 0.5256637335 4290091627
-0.3052383661 -0.1053876728 0.5257489681 4290157420
-0.3052876294 -0.1048204303 0.5258337855 4290026089
-0.3053365946 -0.1042529196 0.5259181261 4290026089
-0.3058802783 -0.1038531810 0.5268545747 4290091627
-0.3059288561 -0.1032842025 0.5269382596 4290157420
-0.3059771657 -0.1027149558 0.5270214677 4290223213
-0.3060252368 -0.1021454334 0.5271042585 4290223213
-0.3065682948 -0.1017400101 0.5280396342 4289960813
-0.3066159189 -0.1011690423 0.5281216502 4290158192
-0.3071587086 -0.1007603183 0.5290566087 4290486385
-0.3077014089 -0.1003494859 0.5299913287 4290354799
-0.3077484369 -0.0997758731 0.5300723314 4290157420
-0.3082908392 -0.0993617401 0.5310065746 4289960041
-0.3083374202 -0.0987866819 0.5310868025 4289829227
-0.3088795543 -0.0983692557 0.5320205688 4290026606
-0.3089256883 -0.0977927521 0.5321000814 4290486387
-0.3094675243 -0.0973720327 0.5330333114 4290486387
-0.3095132411 -0.0967940837 0.5331120491 4290552180
-0.3100547791 -0.0963700786 0.5340448022 4290815352
-0.3105961978 -0.0959439576 0.5349773765 4291078524
-0.3111374974 -0.0955157354 0.5359097123 4290946938
-0.3111823797 -0.0949339941 0.5359870195 4290749559
-0.3117233515 -0.0945024863 0.5369188190 4290683766
-0.3122642338 -0.0940688625 0.5378504395 4290617973
-0.3128049970 -0.0936331376 0.5387818217 4290617973
-0.3133456111 -0.0931953117 0.5397130251 4290617975
-0.3138861060 -0.0927553698 0.5406439900 4290683768
-0.3144265115 -0.0923133269 0.5415747762 4290552182
-0.3149667382 -0.0918691829 0.5425053239 4290617975
-0.3155068755 -0.0914229229 0.5434356332 4290420594
-0.3160468638 -0.0909745619 0.5443657041 4289696871
-0.3165867031 -0.0905240998 0.5452955365 4290618238
-0.3166293502 -0.0899303555 0.5453690290 4290618238
-0.3171688914 -0.0894766152 0.5462983251 4288256147
-0.3120348752 -0.1492231786 0.5384855270 4286086529
-0.3113959134 -0.1459322572 0.5373829007 4285954685
-0.3109742701 -0.1451383978 0.5366552472 4285098606
-0.3105522096 -0.1443459392 0.5359268188 4287072396
-0.3101296723 -0.1435549110 0.5351976752 4286546052
-0.3097067177 -0.1427652985 0.5344677567 4285888122
-0.3087947369 -0.1417528093 0.5328939557 4287467152
-0.3083707988 -0.1409669369 0.5321623683 4286282878
-0.3079464436 -0.1401824951 0.5314300060 4287006601
-0.3080105484 -0.1396210939 0.5315406322 4287598738
-0.3080744147 -0.1390593499 0.5316509008 4288783012
-0.3076489568 -0.1382774115 0.5309166312 4288388254
-0.3072230518 -0.1374969184 0.5301816463 4287466895
-0.3067967296 -0.1367178559 0.5294459462 4287006344
-0.3063699603 -0.1359402537 0.5287094712 4286677890
-0.3059427738 -0.1351640821 0.5279722214 4287335820
-0.3060047626 -0.1346047372 0.5280792117 4286742918
-0.3055768013 -0.1338305771 0.5273407102 4285690230
-0.3046586215 -0.1328442842 0.5257561207 4286085753
-0.3052095175 -0.1324992925 0.5267068148 4286348925
-0.3042903543 -0.1315168291 0.5251206756 4286480259
-0.3043507934 -0.1309593767 0.5252249241 4285098606
-0.3039208055 -0.1301916242 0.5244829059 4285756537
-0.3039806485 -0.1296344101 0.5245862007 4288980394
-0.3035499156 -0.1288686842 0.5238428116 4289046952
-0.3036092222 -0.1283117235 0.5239451528 4288981159
-0.3036682904 -0.1277544349 0.5240471363 4289309097
-0.3032364547 -0.1269913316 0.5233018994 4289045925
-0.3032949567 -0.1264342964 0.5234028697 4289635490
-0.3033532202 -0.1258769333 0.5235034227 4288780181
-0.3034112453 -0.1253192574 0.5236035585 4287594092
-0.3029780090 -0.1245593801 0.5228558779 4287594092
-0.3030354679 -0.1240019649 0.5229550600 4288117326
-0.3030927181 -0.1234442368 0.5230538249 4287854154
-0.3026583791 -0.1226870269 0.5223042965 4287788361
-0.3027150631 -0.1221295670 0.5224021077 4287985740
-0.3027714789 -0.1215718016 0.5224995017 4288183119
-0.3028276861 -0.1210137233 0.5225964785 4288248912
-0.3028836548 -0.1204553396 0.5226930380 4288445775
-0.3029393554 -0.1198966429 0.5227891803 4288445775
-0.3025029600 -0.1191439033 0.5220360756 4288774482
-0.3030500710 -0.1187783256 0.5229802728 4288577103
-0.3026130199 -0.1180267930 0.5222260356 4288446026
-0.3026677072 -0.1174677834 0.5223203897 4288577612
-0.3027221262 -0.1169084683 0.5224143267 4288840271
-0.3027763367 -0.1163488552 0.5225078464 4288906064
-0.3028302789 -0.1157889366 0.5226009488 4288971346
-0.3028839827 -0.1152287275 0.5226936340 4289037139
-0.3024448752 -0.1144817621 0.5219358206 4288906842
-0.3024980128 -0.1139218658 0.5220275521 4289038428
-0.3030436635 -0.1135463044 0.5229691863 4289301854
-0.3030964136 -0.1129849032 0.5230602026 4289433440
-0.3031488955 -0.1124232188 0.5231508017 4289433439
-0.3032011688 -0.1118612364 0.5232409835 4289433439
-0.3032531738 -0.1112989709 0.5233307481 4289433437
-0.3033049405 -0.1107364073 0.5234200954 4289433437
-0.3033564389 -0.1101735681 0.5235089660 4289433691
-0.3034077287 -0.1096104309 0.5235974789 4289433691
-0.3034587502 -0.1090470180 0.5236855149 4289565023
-0.3035095334 -0.1084833145 0.5237731934 4289696609
-0.3035600781 -0.1079193354 0.5238603950 4289696611
-0.3041040301 -0.1075296327 0.5247991085 4289630818
-0.3041541576 -0.1069641709 0.5248855948 4289630818
-0.3042040467 -0.1063984260 0.5249716640 4289499232
-0.3042536676 -0.1058324128 0.5250573158 4289894503
-0.3047970533 -0.1054370031 0.5259950757 4290091882
-0.3048462570 -0.1048695147 0.5260799527 4290026089
-0.3048952222 -0.1043017507 0.5261644721 4289960296
-0.3054381609 -0.1039018407 0.5271014571 4290091882
-0.3054867089 -0.1033326089 0.5271852016 4290091882
-0.3055349886 -0.1027631089 0.5272685289 4290289006
-0.3055830300 -0.1021933407 0.5273514390 4290420592
-0.3061253726 -0.1017877385 0.5282873511 4290355569
-0.3061729670 -0.1012165174 0.5283694863 4290223983
-0.3067150116 -0.1008076146 0.5293049216 4290091627
-0.3067621887 -0.1002349332 0.5293863416 4289828455
-0.3073039651 -0.0998227373 0.5303213000 4289828455
-0.3078456521 -0.0994084254 0.5312560797 4289960041
