VERSION 0.7
FIELDS x y z rgba
SIZE 4 4 4 4
TYPE F F F U
COUNT 1 1 1 1
WIDTH 920
HEIGHT 1
VIEWPOINT 0.0 0.0 0.0 1.0 0.0 0.0 0.0
POINTS 920
DATA ascii
-0.2566531301 -0.1513419002 0.5505459309 4283254334
-0.2567136586 -0.1507657617 0.5506757498 4285425503
-0.2567740083 -0.1501892060 0.5508051515 4285688675
-0.2568341196 -0.1496122479 0.5509341359 4283780678
-0.2564836740 -0.1487967968 0.5501823425 4284373583
-0.2565432787 -0.1482199579 0.5503102541 4285492064
-0.2561921477 -0.1474064887 0.5495570302 4284965720
-0.2562512457 -0.1468297541 0.5496838093 4284044618
-0.2563101649 -0.1462526321 0.5498102307 4284702031
-0.2563688755 -0.1456751227 0.5499361157 4285491547
-0.2564273775 -0.1450971961 0.5500616431 4286083682
-0.2564856708 -0.1445188969 0.5501866937 4287399542
-0.2561326325 -0.1437095106 0.5494293571 4286741612
-0.2561904192 -0.1431313455 0.5495533347 4289504918
-0.2562479973 -0.1425527930 0.5496768951 4286873452
-0.2563053966 -0.1419738382 0.5497999191 4285820764
-0.2563625574 -0.1413944960 0.5499225855 4286346594
-0.2564195096 -0.1408147812 0.5500447750 4285622871
-0.2564762533 -0.1402346641 0.5501664877 4286345052
-0.2565327883 -0.1396541744 0.5502877831 4286147673
-0.2565891445 -0.1390732974 0.5504086018 4286541145
-0.2566452622 -0.1384920329 0.5505290031 4288514935
-0.2567011714 -0.1379103959 0.5506489277 4290617997
-0.2567568719 -0.1373283714 0.5507683754 4289696895
-0.2572245598 -0.1369654685 0.5517717004 4289366125
-0.2572799325 -0.1363817602 0.5518904328 4288313437
-0.2569226921 -0.1355800480 0.5511240959 4288773728
-0.2569775283 -0.1349965334 0.5512417555 4289036900
-0.2570321560 -0.1344126314 0.5513589382 4288641629
-0.2570866048 -0.1338283569 0.5514757037 4288115285
-0.2571407855 -0.1332437247 0.5515919924 4288772188
-0.2571947873 -0.1326587200 0.5517078042 4289364325
-0.2572485805 -0.1320733428 0.5518231392 4289560162
-0.2573021352 -0.1314875931 0.5519380569 4289362783
-0.2573554814 -0.1309014857 0.5520524979 4288839260
-0.2574086189 -0.1303150058 0.5521664619 4289102432
-0.2574615180 -0.1297281832 0.5522799492 4288838490
-0.2575142086 -0.1291409880 0.5523930192 4289299041
-0.2575666904 -0.1285534203 0.5525055528 4289299043
-0.2576189637 -0.1279655099 0.5526176691 4289364836
-0.2576709986 -0.1273772418 0.5527293086 4289561702
-0.2577228248 -0.1267886162 0.5528404713 4289759081
-0.2581881881 -0.1264021993 0.5538387299 4290021483
-0.2582396567 -0.1258119196 0.5539491177 4289824104
-0.2587048113 -0.1254219562 0.5549469590 4289955429
-0.2587559223 -0.1248300299 0.5550566316 4290021222
-0.2592208982 -0.1244365275 0.5560539961 4290020964
-0.2592716515 -0.1238429472 0.5561628938 4290020964
-0.2597364187 -0.1234459057 0.5571598411 4290349929
-0.2597867846 -0.1228506863 0.5572679043 4290744687
-0.2598369420 -0.1222551167 0.5573754907 4290285427
-0.2598868906 -0.1216592044 0.5574826002 4290285427
-0.2603511512 -0.1212560311 0.5584785342 4290613874
-0.2604007125 -0.1206584871 0.5585848093 4290679667
-0.2604500353 -0.1200606003 0.5586906075 4290547566
-0.2609139681 -0.1196525991 0.5596857667 4290744945
-0.2617926896 -0.1194316298 0.5615707040 4291075193
-0.2618415654 -0.1188298687 0.5616756082 4290877814
-0.2618902028 -0.1182277724 0.5617799759 4290615930
-0.2623537481 -0.1178117469 0.5627743006 4290944895
-0.2628172338 -0.1173934862 0.5637684464 4291076996
-0.2632806003 -0.1169729754 0.5647624731 4290682238
-0.2633285522 -0.1163666770 0.5648653507 4290616192
-0.2637917101 -0.1159426346 0.5658588409 4290681985
-0.2642547786 -0.1155163497 0.5668521523 4290681474
-0.2647177577 -0.1150878221 0.5678452849 4291142025
-0.2651806474 -0.1146570519 0.5688382983 4290815891
-0.2656434774 -0.1142240316 0.5698310137 4290355340
-0.2665219903 -0.1139665693 0.5717155337 4288580989
-0.2669846714 -0.1135281026 0.5727080703 4287462508
-0.2678632438 -0.1132632717 0.5745926499 4287201142
-0.2683258355 -0.1128193587 0.5755849481 4289306518
-0.2692044079 -0.1125471517 0.5774695873 4292730072
-0.2653553188 -0.1923480630 0.5705723166 4290757580
-0.2658333480 -0.1920594871 0.5716001987 4290625994
-0.2659079134 -0.1914781034 0.5717605352 4290560201
-0.2659823000 -0.1908962131 0.5719205141 4290560201
-0.2660565078 -0.1903138459 0.5720800161 4290428869
-0.2661305368 -0.1897310019 0.5722391605 4290165697
-0.2662043571 -0.1891476512 0.5723979473 4289968318
-0.2662779987 -0.1885638386 0.5725563169 4289770939
-0.2663514614 -0.1879795194 0.5727142096 4289573560
-0.2664247155 -0.1873947382 0.5728718042 4289376181
-0.2660934031 -0.1865259856 0.5721593499 4289244341
-0.2661661804 -0.1859411150 0.5723158717 4288849583
-0.2662387788 -0.1853557676 0.5724719763 4288652458
-0.2659064531 -0.1844891459 0.5717573762 4288323493
-0.2659785748 -0.1839037389 0.5719124079 4287862427
-0.2664554119 -0.1835968643 0.5729377866 4287533462
-0.2665272653 -0.1830096245 0.5730922222 4287336083
-0.2661937177 -0.1821446568 0.5723750591 4287007118
-0.2666703463 -0.1818336844 0.5733999014 4286744201
-0.2667416036 -0.1812450141 0.5735530853 4286349443
-0.2668126523 -0.1806558669 0.5737059116 4286282878
-0.2668835223 -0.1800662577 0.5738582611 4286151292
-0.2669541836 -0.1794761717 0.5740102530 4285953913
-0.2670246661 -0.1788856238 0.5741617680 4286019706
-0.2666890323 -0.1780236363 0.5734400749 4286019960
-0.2671650350 -0.1777031273 0.5744636059 4285690995
-0.2672349215 -0.1771111637 0.5746138692 4285362548
-0.2668983936 -0.1762504876 0.5738902688 4285691513
-0.2669677734 -0.1756585091 0.5740394592 4285164397
-0.2666305304 -0.1747996211 0.5733142495 4284374881
-0.2666994035 -0.1742076278 0.5734624267 4284177243
-0.2663614452 -0.1733505130 0.5727357268 4283979864
-0.2660230696 -0.1724947542 0.5720081329 4284045657
-0.2660911381 -0.1719031930 0.5721545219 4285164138
-0.2653450966 -0.1707872897 0.5705503225 4286479739
-0.2650054991 -0.1699356139 0.5698201060 4286940290
-0.2646654844 -0.1690852791 0.5690890551 4287531655
-0.2635105252 -0.1677178741 0.5666056275 4287794827
-0.2623547316 -0.1663554609 0.5641204119 4288057741
-0.2620131075 -0.1655128896 0.5633858442 4287794569
-0.2612634897 -0.1644151807 0.5617740154 4287728776
-0.2609209716 -0.1635762751 0.5610374808 4287991948
-0.2601702511 -0.1624840647 0.5594232678 4288123534
-0.2598268092 -0.1616488397 0.5586847663 4287926155
-0.2594829500 -0.1608150005 0.5579454303 4287794827
-0.2587306201 -0.1597306281 0.5563277602 4287794827
-0.2583858967 -0.1589004993 0.5555865169 4288255121
-0.2580407560 -0.1580717713 0.5548443794 4288255121
-0.2576951981 -0.1572444588 0.5541014075 4288188557
-0.2573492825 -0.1564185470 0.5533575416 4288714901
-0.2574115396 -0.1558414251 0.5534914136 4288780948
-0.2570649087 -0.1550174206 0.5527460575 4288057225
-0.2567178607 -0.1541948467 0.5519999266 4287728260
-0.2563704550 -0.1533736885 0.5512528419 4287267709
-0.2564316094 -0.1527976394 0.5513843894 4287070330
-0.2564925551 -0.1522212029 0.5515154600 4287267709
-0.2561441362 -0.1514024734 0.5507662296 4287596159
-0.2562046051 -0.1508261263 0.5508962274 4287990917
-0.2558554709 -0.1500093639 0.5501455665 4287136891
-0.2559154332 -0.1494331211 0.5502744913 4285163101
-0.2559751868 -0.1488564759 0.5504029989 4284636503
-0.2560347617 -0.1482794136 0.5505310297 4284636503
-0.2560940981 -0.1477019638 0.5506586432 4284241999
-0.2557433844 -0.1468887180 0.5499045849 4283847241
-0.2558022439 -0.1463113874 0.5500310659 4284767571
-0.2558608651 -0.1457336694 0.5501571894 4285886052
-0.2559193075 -0.1451555490 0.5502828360 4284241482
-0.2559775412 -0.1445770264 0.5504080057 4285162584
-0.2560355663 -0.1439981163 0.5505327582 4286938993
-0.2556829751 -0.1431889832 0.5497746468 4288583818
-0.2557404935 -0.1426102072 0.5498982668 4289307541
-0.2557977736 -0.1420310587 0.5500215292 4289899678
-0.2558548748 -0.1414515078 0.5501443148 4289044110
-0.2559117675 -0.1408715844 0.5502666235 4288978317
-0.2559684515 -0.1402912587 0.5503885150 4289305737
-0.2560249269 -0.1397105604 0.5505099297 4289371530
-0.2560811937 -0.1391294748 0.5506309271 4289501830
-0.2561372519 -0.1385480016 0.5507514477 4290093967
-0.2561931014 -0.1379661411 0.5508715510 4290090625
-0.2562487423 -0.1373839229 0.5509911776 4288182628
-0.2567155659 -0.1370208859 0.5519949198 4288378459
-0.2567708492 -0.1364369690 0.5521138310 4288904803
-0.2568259537 -0.1358526647 0.5522322655 4288970078
-0.2564691603 -0.1350512207 0.5514650941 4288838492
-0.2565237284 -0.1344671100 0.5515824556 4288509527
-0.2565780878 -0.1338826269 0.5516993403 4288312148
-0.2566322088 -0.1332977712 0.5518157482 4288574037
-0.2566861510 -0.1327125430 0.5519316792 4288771416
-0.2567398548 -0.1321269572 0.5520471931 4289428060
-0.2567933798 -0.1315409988 0.5521622300 4289822818
-0.2568466365 -0.1309546679 0.5522767901 4288840283
-0.2568997145 -0.1303679794 0.5523909330 4289037662
-0.2569525838 -0.1297809333 0.5525045395 4288642134
-0.2570052147 -0.1291935146 0.5526177287 4289036892
-0.2570576072 -0.1286057383 0.5527304411 4289298012
-0.2571098208 -0.1280176193 0.5528426766 4289495391
-0.2571617961 -0.1274291277 0.5529544353 4289494367
-0.2572135627 -0.1268402785 0.5530657768 4289691746
-0.2576780617 -0.1264537275 0.5540645123 4289954404
-0.2577294707 -0.1258632243 0.5541750193 4289888611
-0.2577806413 -0.1252723634 0.5542851090 4289888096
-0.2582448125 -0.1248809770 0.5552831292 4289756510
-0.2582956254 -0.1242884696 0.5553924441 4289690717
-0.2587595880 -0.1238935292 0.5563900471 4289756510
-0.2588100433 -0.1232993826 0.5564985275 4290085988
-0.2588602901 -0.1227048859 0.5566065907 4290678125
-0.2589102983 -0.1221100464 0.5567141175 4290350448
-0.2593737543 -0.1217089742 0.5577106476 4290087276
-0.2598371506 -0.1213056594 0.5587070584 4290416495
-0.2598866522 -0.1207078844 0.5588135123 4290482288
-0.2603498399 -0.1203010306 0.5598094463 4290285423
-0.2608129680 -0.1198919266 0.5608052611 4290482802
-0.2608619332 -0.1192912310 0.5609105825 4290352499
-0.2613248229 -0.1188785881 0.5619058609 4290352499
-0.2613734305 -0.1182762608 0.5620103478 4290484344
-0.2618360817 -0.1178600863 0.5630052090 4290681723
-0.2622986734 -0.1174416691 0.5639998913 4290879104
-0.2627612054 -0.1170210019 0.5649943948 4290747518
-0.2632236183 -0.1165980995 0.5659887195 4290353020
-0.2636859715 -0.1161729395 0.5669828653 4290287227
-0.2641482353 -0.1157455370 0.5679768324 4290221952
-0.2646104097 -0.1153158918 0.5689706206 4290090366
-0.2650725245 -0.1148840040 0.5699642301 4289238406
-0.2655345201 -0.1144498661 0.5709576607 4287198823
-0.2659964561 -0.1140134856 0.5719509125 4286476389
-0.2668733299 -0.1137517616 0.5738363862 4287792249
-0.2673351467 -0.1133099273 0.5748293400 4289175704
-0.2682120502 -0.1130408347 0.5767148733 4291281080
-0.2686737478 -0.1125935465 0.5777076483 4293848812
-0.2640194297 -0.1918378621 0.5690588355 4290757580
-0.2644963264 -0.1915509701 0.5700867772 4290625994
-0.2653759718 -0.1915525049 0.5719827414 4290625994
-0.2650474608 -0.1906806529 0.5712746382 4290560201
-0.2651214600 -0.1900989860 0.5714341402 4290428615
-0.2651952803 -0.1895168275 0.5715932250 4290165443
-0.2652688920 -0.1889341921 0.5717519522 4289968064
-0.2649390996 -0.1880648136 0.5710410476 4289770685
-0.2650122344 -0.1874820888 0.5711987019 4289573560
-0.2650851905 -0.1868988872 0.5713559985 4289376181
-0.2651579678 -0.1863152087 0.5715128183 4289112755
-0.2648268342 -0.1854483485 0.5707991123 4288783790
-0.2648991346 -0.1848645955 0.5709549189 4288586665
-0.2649712265 -0.1842803508 0.5711103082 4288257700
-0.2654471397 -0.1839756668 0.5721361637 4287862427
-0.2651148438 -0.1831104606 0.5714198947 4287599255
-0.2651863694 -0.1825248003 0.5715740323 4287402131
-0.2648533285 -0.1816613227 0.5708562732 4287007373
-0.2649243772 -0.1810756177 0.5710093379 4286809224
-0.2653997838 -0.1807649881 0.5720340610 4286480259
-0.2654705644 -0.1801774502 0.5721865892 4286282878
-0.2655411065 -0.1795894355 0.5723386407 4286085499
-0.2656114995 -0.1790009439 0.5724903345 4285954167
-0.2656816542 -0.1784119904 0.5726416111 4286019960
-0.2653465271 -0.1775515079 0.5719192624 4286019445
-0.2654162347 -0.1769625247 0.5720694661 4285690480
-0.2658910453 -0.1766423583 0.5730928779 4285560185
-0.2659604251 -0.1760515422 0.5732424259 4285625978
-0.2656241059 -0.1751928031 0.5725175142 4285559155
-0.2656930089 -0.1746019721 0.5726660490 4284901225
-0.2653559446 -0.1737450212 0.5719395876 4284506208
-0.2654243708 -0.1731541753 0.5720869899 4283782485
-0.2650865912 -0.1722990125 0.5713590384 4283585106
-0.2647484541 -0.1714452058 0.5706301928 4284045657
-0.2648160458 -0.1708548069 0.5707758665 4284506208
-0.2640709281 -0.1697416753 0.5691698194 4285295724
-0.2637315392 -0.1688919514 0.5684383512 4286282360
-0.2633917630 -0.1680435985 0.5677060485 4287203462
-0.2622384429 -0.1666797847 0.5652201772 4287926413
-0.2618976533 -0.1658359915 0.5644856691 4287597448
-0.2615564466 -0.1649935693 0.5637502670 4287268483
-0.2608079910 -0.1638968438 0.5621370077 4287400069
-0.2592449486 -0.1622937769 0.5587680936 4287992461
-0.2601233721 -0.1622207612 0.5606614351 4287795082
-0.2589661181 -0.1608788967 0.5581671000 4288189840
-0.2586226165 -0.1600461602 0.5574267507 4288124047
-0.2582786977 -0.1592148244 0.5566855073 4287992461
-0.2575269341 -0.1581346691 0.5550651550 4287860875
-0.2571821213 -0.1573070586 0.5543219447 4287662981
-0.2572446167 -0.1567292362 0.5544566512 4288255118
-0.2568991184 -0.1559035182 0.5537119508 4288780948
-0.2569610775 -0.1553257704 0.5538455844 4288451983
-0.2566148937 -0.1545019746 0.5530993938 4288386190
-0.2558602393 -0.1534348875 0.5514728427 4288386190
-0.2563295066 -0.1531024426 0.5524842143 4288780948
-0.2559822202 -0.1522819996 0.5517356992 4288517776
-0.2556345463 -0.1514629722 0.5509863496 4288517261
-0.2556949258 -0.1508864313 0.5511165261 4288977812
-0.2557550967 -0.1503094733 0.5512462258 4288320911
-0.2554064393 -0.1494929194 0.5504947305 4288255118
-0.2554661036 -0.1489160657 0.5506233573 4287531908
-0.2555255890 -0.1483388096 0.5507515669 4286084462
-0.2555848658 -0.1477611512 0.5508792996 4285031774
-0.2552349269 -0.1469476074 0.5501250029 4284637016
-0.2552936971 -0.1463700831 0.5502517223 4285097306
-0.2553522587 -0.1457921416 0.5503779650 4285426271
-0.2554106116 -0.1452138275 0.5505037308 4286149224
-0.2554687858 -0.1446350962 0.5506290793 4286938740
-0.2555267215 -0.1440559775 0.5507540107 4288650127
-0.2555844784 -0.1434764713 0.5508784652 4287729025
-0.2552323341 -0.1426675618 0.5501194596 4288057990
-0.2552895844 -0.1420882046 0.5502428412 4288650127
-0.2553465962 -0.1415084451 0.5503657460 4289439127
-0.2558133900 -0.1411545128 0.5513718724 4289570713
-0.2558701038 -0.1405730546 0.5514940619 4289832081
-0.2559266090 -0.1399912089 0.5516158342 4290226839
-0.2559828758 -0.1394089907 0.5517371893 4290487957
-0.2560389638 -0.1388263702 0.5518580079 4289895820
-0.2560948431 -0.1382433772 0.5519784689 4288906094
-0.2561504841 -0.1376599967 0.5520983934 4288379750
-0.2562059164 -0.1370762438 0.5522179008 4289101666
-0.2562611699 -0.1364921033 0.5523369908 4288312150
-0.2563161850 -0.1359075904 0.5524555445 4288509012
-0.2563709915 -0.1353227049 0.5525736809 4288837977
-0.2564255893 -0.1347374469 0.5526913404 4289167457
-0.2564799786 -0.1341518164 0.5528085828 4289035871
-0.2561230361 -0.1333517581 0.5520392060 4288771416
-0.2561768889 -0.1327663213 0.5521553159 4288903002
-0.2562305331 -0.1321805120 0.5522709489 4289690719
-0.2562839687 -0.1315943450 0.5523861647 4289822305
-0.2563371956 -0.1310077906 0.5525008440 4288379733
-0.2563902140 -0.1304208934 0.5526151061 4288906077
-0.2564429939 -0.1298336238 0.5527288914 4288707157
-0.2564955652 -0.1292459965 0.5528421998 4288970329
-0.2569597363 -0.1288645118 0.5538426042 4289363292
-0.2570119500 -0.1282752156 0.5539551973 4289955429
-0.2570639551 -0.1276855618 0.5540672541 4289690978
-0.2571157217 -0.1270955652 0.5541788936 4289559392
-0.2571673095 -0.1265051961 0.5542899966 4289822307
-0.2572186291 -0.1259144694 0.5544006824 4290019686
-0.2576820552 -0.1255242378 0.5553995371 4289822564
-0.2577330470 -0.1249318644 0.5555093884 4289756771
-0.2581962645 -0.1245380789 0.5565078259 4289560932
-0.2582468987 -0.1239440590 0.5566169620 4289495139
-0.2582972944 -0.1233496889 0.5567255616 4289562217
-0.2591728568 -0.1231471524 0.5586127639 4290154354
-0.2592229843 -0.1225501895 0.5587207675 4290416243
-0.2592728734 -0.1219528764 0.5588282943 4290350450
-0.2597354650 -0.1215484664 0.5598253608 4290482806
-0.2597849965 -0.1209495142 0.5599321127 4290351220
-0.2602473795 -0.1205415577 0.5609287024 4290155379
-0.2602965236 -0.1199409738 0.5610346794 4290418551
-0.2607586980 -0.1195294708 0.5620307922 4290221687
-0.2608074546 -0.1189272553 0.5621358752 4290221687
-0.2612693906 -0.1185122207 0.5631315708 4290089588
-0.2617312670 -0.1180949360 0.5641270280 4290418553
-0.2621930540 -0.1176754087 0.5651223660 4290681727
-0.2626547813 -0.1172536314 0.5661175251 4290944899
-0.2631163895 -0.1168296114 0.5671125054 4290090364
-0.2635779381 -0.1164033413 0.5681073070 4289629813
-0.2640394270 -0.1159748212 0.5691019297 4289236344
-0.2645007968 -0.1155440584 0.5700963736 4288315242
-0.2649620771 -0.1151110455 0.5710906386 4287068010
-0.2654232979 -0.1146757901 0.5720847249 4286673252
-0.2658844292 -0.1142382845 0.5730786324 4287726715
-0.2663454413 -0.1137985289 0.5740723014 4289832091
-0.2672206759 -0.1135325506 0.5759587288 4291610047
-0.2676815987 -0.1130873412 0.5769521594 4292860114
-0.2630878091 -0.1916196495 0.5684115887 4290757580
-0.2635636926 -0.1913335770 0.5694397688 4290691787
-0.2636377513 -0.1907544732 0.5695997477 4290560201
-0.2637116015 -0.1901748627 0.5697593689 4290494408
-0.2637852728 -0.1895947903 0.5699185133 4290428869
-0.2638587952 -0.1890142113 0.5700773597 4290297283
-0.2639321089 -0.1884331554 0.5702357292 4289968318
-0.2640052140 -0.1878516227 0.5703937411 4289705146
-0.2640781701 -0.1872695982 0.5705513358 4289573047
-0.2641509175 -0.1866870970 0.5707085133 4289375668
-0.2638207078 -0.1858204156 0.5699951053 4288981421
-0.2638929784 -0.1852378398 0.5701512098 4288849835
-0.2639650702 -0.1846547872 0.5703069568 4288717736
-0.2640369833 -0.1840712577 0.5704622865 4288322978
-0.2641086876 -0.1834872514 0.5706172585 4287994013
-0.2641801834 -0.1829027683 0.5707717538 4287533462
-0.2642515302 -0.1823178232 0.5709258914 4287138704
-0.2639191151 -0.1814549416 0.5702077150 4286875532
-0.2639899552 -0.1808699220 0.5703607202 4286612360
-0.2640606165 -0.1802844554 0.5705133677 4286349188
-0.2641310692 -0.1796985120 0.5706655979 4286414467
-0.2642013133 -0.1791120917 0.5708174109 4286348674
-0.2642714083 -0.1785252094 0.5709688067 4286151295
-0.2643412650 -0.1779378653 0.5711197853 4286019709
-0.2644109726 -0.1773500443 0.5712703466 4285953915
-0.2640760541 -0.1764914840 0.5705467463 4285822329
-0.2645497620 -0.1761730313 0.5715702176 4285953915
-0.2646188438 -0.1755838245 0.5717194676 4285822329
-0.2642830312 -0.1747265756 0.5709939599 4285625720
-0.2643516362 -0.1741373539 0.5711421967 4285230962
-0.2640151083 -0.1732819080 0.5704150796 4284506467
-0.2640832365 -0.1726926714 0.5705622435 4283782744
-0.2641511261 -0.1721029878 0.5707089901 4283519572
-0.2638136148 -0.1712497771 0.5699797273 4283453779
-0.2638810277 -0.1706600934 0.5701254010 4284045659
-0.2635427713 -0.1698087007 0.5693945885 4284506210
-0.2632041276 -0.1689586788 0.5686629415 4284901479
-0.2624594271 -0.1678505987 0.5670539737 4285690995
-0.2621198893 -0.1670042127 0.5663203597 4286546304
-0.2617799342 -0.1661592126 0.5655858517 4286809476
-0.2610335946 -0.1650588959 0.5639734268 4286940549
-0.2602866888 -0.1639617682 0.5623596311 4287401100
-0.2595391572 -0.1628678441 0.5607445836 4288385677
-0.2591972947 -0.1620311141 0.5600059628 4288451470
-0.2588550150 -0.1611957699 0.5592665076 4288583569
-0.2585123479 -0.1603618115 0.5585261583 4288517776
-0.2581692934 -0.1595292687 0.5577849150 4288123534
-0.2574191391 -0.1584478021 0.5561642647 4288057741
-0.2570751905 -0.1576189697 0.5554211140 4288057742
-0.2567308247 -0.1567915529 0.5546771288 4287926156
-0.2567930222 -0.1562131047 0.5548114777 4288320913
-0.2564479709 -0.1553875953 0.5540660024 4288452499
-0.2561025321 -0.1545635015 0.5533196330 4288386190
-0.2557566762 -0.1537408233 0.5525724292 4288123018
-0.2558178008 -0.1531634629 0.5527044535 4288122503
-0.2554712594 -0.1523427218 0.5519557595 4288319882
-0.2551243305 -0.1515234113 0.5512061715 4288648847
-0.2551846206 -0.1509466618 0.5513364673 4288714640
-0.2552447319 -0.1503694952 0.5514663458 4288517774
-0.2553046644 -0.1497919261 0.5515958071 4288583567
-0.2549564242 -0.1489755958 0.5508434176 4288912019
-0.2550158501 -0.1483981311 0.5509718060 4288780433
-0.2550750375 -0.1478202790 0.5510997176 4288977812
-0.2547258139 -0.1470064223 0.5503452420 4289109398
-0.2547845244 -0.1464286894 0.5504720807 4288715153
-0.2548430264 -0.1458505541 0.5505984426 4288715153
-0.2549013197 -0.1452720314 0.5507243872 4289175704
-0.2549594045 -0.1446931064 0.5508499146 4289175704
-0.2550173104 -0.1441137791 0.5509749651 4289569949
-0.2550749779 -0.1435340643 0.5510995388 4289504156
-0.2547235787 -0.1427248567 0.5503403544 4289109396
-0.2547807395 -0.1421452910 0.5504638553 4288583052
-0.2548377216 -0.1415653229 0.5505869389 4287925635
-0.2553036213 -0.1412112713 0.5515935421 4287794049
-0.2553602457 -0.1406296045 0.5517159104 4288187269
-0.2554166913 -0.1400475502 0.5518378615 4288713613
-0.2554728985 -0.1394651085 0.5519593358 4289698441
-0.2555289268 -0.1388822943 0.5520803332 4288974718
-0.2555847168 -0.1382990927 0.5522008538 4288511069
-0.2556402981 -0.1377155036 0.5523210168 4288708448
-0.2556957006 -0.1371315271 0.5524406433 4289233242
-0.2557508647 -0.1365471780 0.5525598526 4288641105
-0.2558058202 -0.1359624565 0.5526785851 4288640335
-0.2558605671 -0.1353773624 0.5527968407 4289100886
-0.2559150755 -0.1347918808 0.5529146791 4289100633
-0.2559694052 -0.1342060417 0.5530320406 4288969047
-0.2556132078 -0.1334056854 0.5522624254 4289101151
-0.2556670010 -0.1328200251 0.5523787141 4289166944
-0.2557206154 -0.1322340071 0.5524944663 4289035619
-0.2557739913 -0.1316476166 0.5526098013 4289167205
-0.2558271289 -0.1310608685 0.5527246594 4289364836
-0.2558800876 -0.1304737329 0.5528390408 4289430629
-0.2559328079 -0.1298862547 0.5529529452 4289232219
-0.2559853196 -0.1292984039 0.5530663729 4288969047
-0.2564485967 -0.1289168000 0.5540673137 4289692000
-0.2565007508 -0.1283272803 0.5541800261 4290284137
-0.2565526962 -0.1277374178 0.5542922020 4290085990
-0.2566044033 -0.1271471828 0.5544039607 4289493853
-0.2566559315 -0.1265566051 0.5545152426 4289757539
-0.2567071915 -0.1259656549 0.5546260476 4289691746
-0.2571697533 -0.1255752891 0.5556253791 4289626468
-0.2572206557 -0.1249826923 0.5557354093 4289955433
-0.2576830089 -0.1245887652 0.5567343235 4289825389
-0.2577335835 -0.1239945218 0.5568435788 4290285940
-0.2577839196 -0.1233999282 0.5569523573 4289957749
-0.2586577833 -0.1231973395 0.5588403940 4290089335
-0.2587078512 -0.1226001456 0.5589485168 4290024308
-0.2591697276 -0.1221968830 0.5599464178 4290155894
-0.2592194080 -0.1215980500 0.5600537658 4290286454
-0.2596810460 -0.1211912408 0.5610511899 4290089075
-0.2597303689 -0.1205907688 0.5611577034 4290022001
-0.2601917982 -0.1201804206 0.5621547103 4290087794
-0.2602407336 -0.1195783094 0.5622604489 4290614652
-0.2607019544 -0.1191644147 0.5632569194 4291140996
-0.2607505322 -0.1185606793 0.5633618236 4290353020
-0.2612115145 -0.1181432456 0.5643578172 4290353020
-0.2616724372 -0.1177235618 0.5653536320 4289828734
-0.2625460625 -0.1174863577 0.5672411323 4289894527
-0.2630068958 -0.1170612201 0.5682367682 4289369474
-0.2634676397 -0.1166338325 0.5692322254 4288316786
-0.2639282942 -0.1162042022 0.5702275038 4287265389
-0.2643888891 -0.1157723144 0.5712226033 4287396975
-0.2648493648 -0.1153381839 0.5722175241 4286939261
-0.2653097808 -0.1149018034 0.5732122660 4288649879
-0.2661834359 -0.1146411896 0.5750998259 4290163377
-0.2666437328 -0.1141993552 0.5760942698 4291281858
-0.2671039104 -0.1137552634 0.5770885944 4292072144
-0.2675640285 -0.1133089289 0.5780826807 4293059039
-0.2618301213 -0.1905322969 0.5670550466 4290757580
-0.2623048127 -0.1902465522 0.5680831075 4290625994
-0.2627795637 -0.1899585575 0.5691112876 4290560201
-0.2628530264 -0.1893791705 0.5692704320 4290560201
-0.2625249028 -0.1885110587 0.5685598254 4290362822
-0.2629994452 -0.1882189512 0.5695874691 4290033857
-0.2626707256 -0.1873516440 0.5688756108 4289770685
-0.2627433538 -0.1867712140 0.5690329075 4289507767
-0.2628158033 -0.1861903071 0.5691897869 4289244595
-0.2628880739 -0.1856089085 0.5693463087 4289112494
-0.2625580728 -0.1847441196 0.5686315894 4288980908
-0.2626298368 -0.1841626614 0.5687870383 4288783529
-0.2627014220 -0.1835807264 0.5689420700 4288586150
-0.2627728283 -0.1829983145 0.5690966845 4288322978
-0.2628440261 -0.1824154258 0.5692509413 4287994013
-0.2629150748 -0.1818320751 0.5694047213 4287599255
-0.2625831664 -0.1809706688 0.5686859488 4287336083
-0.2626537085 -0.1803872734 0.5688387156 4287138704
-0.2627240419 -0.1798033863 0.5689910650 4286941325
-0.2627941966 -0.1792190522 0.5691429973 4286743946
-0.2628641725 -0.1786342263 0.5692945123 4286678153
-0.2629339397 -0.1780489534 0.5694456100 4286611845
-0.2630035281 -0.1774632037 0.5695962906 4286414466
-0.2630729079 -0.1768769920 0.5697466135 4286151294
-0.2631421089 -0.1762903184 0.5698964596 4285953915
-0.2632111013 -0.1757031828 0.5700458884 4286086271
-0.2632799149 -0.1751155853 0.5701949000 4285954685
-0.2633485198 -0.1745275408 0.5703434944 4285757306
-0.2630129158 -0.1736722440 0.5696166754 4285428341
-0.2630810440 -0.1730841696 0.5697641969 4284836202
-0.2631489635 -0.1724956483 0.5699113011 4284244065
-0.2632166743 -0.1719066650 0.5700579882 4283980123
-0.2628797591 -0.1710540652 0.5693283081 4283782744
-0.2629469931 -0.1704650819 0.5694739223 4284177756
-0.2626093924 -0.1696143001 0.5687427521 4284111963
-0.2622713745 -0.1687648892 0.5680106878 4284111963
-0.2619329691 -0.1679168344 0.5672777891 4284506721
-0.2611891925 -0.1668115407 0.5656669736 4285296237
-0.2616599500 -0.1664825678 0.5666865110 4285756788
-0.2609152794 -0.1653809249 0.5650737882 4286282619
-0.2601700127 -0.1642824858 0.5634596944 4286874756
-0.2598294914 -0.1634422392 0.5627222061 4287465604
-0.2594885528 -0.1626033783 0.5619838238 4288057741
-0.2591472268 -0.1617659181 0.5612446070 4288584085
-0.2588054836 -0.1609298289 0.5605044961 4288649878
-0.2584633529 -0.1600951552 0.5597635508 4288715155
-0.2577149868 -0.1590114683 0.5581427813 4288715155
-0.2569660246 -0.1579310149 0.5565207005 4288649362
-0.2566224933 -0.1571023762 0.5557767153 4288386190
-0.2566847205 -0.1565228105 0.5559114814 4288188811
-0.2563405037 -0.1556960791 0.5551660061 4288320397
-0.2559958994 -0.1548707783 0.5544196367 4288254602
-0.2556508780 -0.1540468782 0.5536724329 4288123016
-0.2553054690 -0.1532244235 0.5529243946 4287991432
-0.2549596727 -0.1524033695 0.5521754622 4287991432
-0.2550202310 -0.1518259048 0.5523065925 4288188811
-0.2546737194 -0.1510068029 0.5515561700 4288188811
-0.2547337711 -0.1504294425 0.5516862273 4288123018
-0.2547936141 -0.1498516798 0.5518158078 4288188811
-0.2548532486 -0.1492734998 0.5519449711 4288385675
-0.2545054555 -0.1484573781 0.5511917472 4288648847
-0.2545645833 -0.1478793174 0.5513198376 4289175191
-0.2542161345 -0.1470651776 0.5505651832 4289372570
-0.2546822429 -0.1467219889 0.5515746474 4289044118
-0.2543331981 -0.1459088922 0.5508186817 4289307290
-0.2543914020 -0.1453301609 0.5509448051 4289109911
-0.2544494271 -0.1447510272 0.5510704517 4289044118
-0.2545072436 -0.1441715062 0.5511956215 4289372568
-0.2545648515 -0.1435915828 0.5513204336 4289569947
-0.2542141974 -0.1427820772 0.5505610108 4289635740
-0.2542712986 -0.1422023028 0.5506846905 4289833119
-0.2543282211 -0.1416221261 0.5508078933 4289833632
-0.2543849051 -0.1410415769 0.5509306788 4289899425
-0.2548497915 -0.1406860948 0.5519375205 4290424229
-0.2544976473 -0.1398793012 0.5511748791 4290292643
-0.2545537055 -0.1392975897 0.5512962937 4289895820
-0.2546095848 -0.1387154907 0.5514172316 4288711546
-0.2546652257 -0.1381330043 0.5515377522 4288576608
-0.2547206581 -0.1375501454 0.5516577959 4288247643
-0.2547758818 -0.1369668990 0.5517774224 4288837977
-0.2548308969 -0.1363832802 0.5518965721 4289364321
-0.2548857033 -0.1357992738 0.5520152450 4289363805
-0.2549402714 -0.1352149099 0.5521335006 4289232219
-0.2554039657 -0.1348462552 0.5531376600 4288969049
-0.2554582059 -0.1342601925 0.5532552004 4289232221
-0.2551027834 -0.1334595382 0.5524854064 4289692518
-0.2555660903 -0.1330869496 0.5534887910 4289231967
-0.2556197047 -0.1324997693 0.5536049008 4288640600
-0.2552633584 -0.1317008287 0.5528331399 4288903772
-0.2553164363 -0.1311138570 0.5529481769 4289036639
-0.2553693354 -0.1305265278 0.5530626774 4289036639
-0.2558319867 -0.1301473975 0.5540646911 4289166942
-0.2554744482 -0.1293507665 0.5532903075 4289166942
-0.2559368312 -0.1289690137 0.5542917252 4289560932
-0.2559889257 -0.1283792853 0.5544045568 4289758311
-0.2560408115 -0.1277891994 0.5545169115 4289560934
-0.2560924590 -0.1271987557 0.5546287894 4289363555
-0.2565543950 -0.1268108487 0.5556292534 4289363555
-0.2566057146 -0.1262187362 0.5557403564 4289692520
-0.2566567957 -0.1256262660 0.5558509827 4289758311
-0.2571184039 -0.1252335161 0.5568506718 4289824104
-0.2575799227 -0.1248385012 0.5578503013 4289693288
-0.2576305270 -0.1242430881 0.5579598546 4290153839
-0.2580918670 -0.1238445267 0.5589589477 4289956975
-0.2581420839 -0.1232474595 0.5590677261 4290022768
-0.2586032152 -0.1228453442 0.5600664020 4290087528
-0.2586530745 -0.1222466379 0.5601744056 4289955942
-0.2591139972 -0.1218409762 0.5611726046 4289825126
-0.2591634691 -0.1212406233 0.5612797737 4289890919
-0.2596241832 -0.1208314151 0.5622775555 4289956973
-0.2596732974 -0.1202294230 0.5623838902 4290220145
-0.2601337731 -0.1198166758 0.5633811951 4290221950
-0.2605941892 -0.1194016710 0.5643783212 4290485122
-0.2606427670 -0.1187967509 0.5644835234 4289960580
-0.2611029446 -0.1183782071 0.5654801726 4289236857
-0.2615630627 -0.1179574132 0.5664766431 4288119925
-0.2620230913 -0.1175343692 0.5674729943 4287659374
-0.2624830306 -0.1171090752 0.5684691072 4287068526
-0.2629429102 -0.1166815385 0.5694650412 4286739561
-0.2634027004 -0.1162517443 0.5704608560 4287332728
-0.2638624012 -0.1158197001 0.5714564323 4288780174
-0.2643220127 -0.1153854057 0.5724518299 4289243045
-0.2647815347 -0.1149488688 0.5734470487 4290295733
-0.2652409673 -0.1145100743 0.5744420290 4290690750
-0.2657003105 -0.1140690297 0.5754368901 4290888129
-0.2661595643 -0.1136257425 0.5764315128 4292138196
-0.2611207962 -0.1885847747 0.5668824315 4290691787
-0.2615942657 -0.1882957220 0.5679103136 4290494408
-0.2616670728 -0.1877169609 0.5680683851 4290231236
-0.2617397010 -0.1871377230 0.5682260394 4289902271
-0.2614111900 -0.1862722933 0.5675128698 4289639099
-0.2614833117 -0.1856929660 0.5676694512 4289441720
-0.2615552545 -0.1851131767 0.5678256154 4289309875
-0.2612257600 -0.1842498630 0.5671103001 4289178289
-0.2612972260 -0.1836699992 0.5672654510 4288980910
-0.2613685131 -0.1830896586 0.5674201846 4288783531
-0.2614395916 -0.1825088412 0.5675745606 4288586152
-0.2615104914 -0.1819275618 0.5677284598 4288388773
-0.2615812123 -0.1813458055 0.5678820014 4288125599
-0.2616517544 -0.1807635725 0.5680351257 4287862427
-0.2617220879 -0.1801808625 0.5681878328 4287665048
-0.2613901198 -0.1793218106 0.5674670935 4287533462
-0.2614599466 -0.1787390709 0.5676187277 4287336083
-0.2615296245 -0.1781558543 0.5677700043 4287204497
-0.2615990937 -0.1775721908 0.5679208040 4287007373
-0.2616683841 -0.1769880503 0.5680711865 4286744201
-0.2617374659 -0.1764034480 0.5682212114 4286415236
-0.2618063688 -0.1758183688 0.5683707595 4286217857
-0.2618750632 -0.1752328426 0.5685198903 4286415493
-0.2619435787 -0.1746468544 0.5686686635 4286152321
-0.2620118856 -0.1740604192 0.5688169599 4285954942
-0.2620800138 -0.1734735072 0.5689648390 4285691770
-0.2621479332 -0.1728861481 0.5691123009 4285362805
-0.2622156739 -0.1722983271 0.5692593455 4284968047
-0.2618797123 -0.1714458764 0.5685299635 4284507237
-0.2619469464 -0.1708580554 0.5686759353 4284178272
-0.2616102397 -0.1700074226 0.5679450035 4283980377
-0.2620808184 -0.1696810573 0.5689665675 4284046170
-0.2613396049 -0.1685708016 0.5673574805 4283980377
-0.2610018253 -0.1677233577 0.5666241646 4283980377
-0.2610677779 -0.1671360135 0.5667672753 4284177754
-0.2607292831 -0.1662904173 0.5660324693 4284506719
-0.2603903711 -0.1654461920 0.5652967691 4285098343
-0.2600511014 -0.1646033376 0.5645601749 4285822066
-0.2597114146 -0.1637618840 0.5638226867 4286413946
-0.2593713105 -0.1629218012 0.5630843639 4287006083
-0.2590308189 -0.1620831192 0.5623451471 4287465862
-0.2586899400 -0.1612458378 0.5616050959 4287465862
-0.2583486438 -0.1604099423 0.5608642101 4287728776
-0.2580069304 -0.1595754474 0.5601223707 4288189327
-0.2572597265 -0.1584927589 0.5585002303 4288451983
-0.2569171488 -0.1576620042 0.5577564836 4288254604
-0.2565741539 -0.1568326354 0.5570118427 4288385675
-0.2566362023 -0.1562515348 0.5571466088 4288385675
-0.2562925220 -0.1554240882 0.5564004779 4288320397
-0.2555428445 -0.1543530673 0.5547729135 4288451983
-0.2551982701 -0.1535293758 0.5540248752 4288189327
-0.2548533082 -0.1527071148 0.5532760024 4287794569
-0.2549138665 -0.1521285325 0.5534074903 4287597191
-0.2545682192 -0.1513082087 0.5526570678 4287399812
-0.2542221844 -0.1504893303 0.5519058108 4287399809
-0.2542819381 -0.1499113590 0.5520355701 4287531395
-0.2543415129 -0.1493329704 0.5521649122 4287596674
-0.2544008791 -0.1487541944 0.5522937775 4287794053
-0.2540535331 -0.1479382962 0.5515397191 4288188811
-0.2541123927 -0.1473596245 0.5516675115 4288057225
-0.2541710436 -0.1467805654 0.5517948270 4287794051
-0.2538227439 -0.1459671706 0.5510386825 4288123016
-0.2538808882 -0.1453882307 0.5511649251 4288846739
-0.2539388537 -0.1448088884 0.5512906909 4288780946
-0.2539965808 -0.1442291588 0.5514160991 4288912017
-0.2536469996 -0.1434188187 0.5506570935 4288977810
-0.2537042201 -0.1428392231 0.5507813692 4288977810
-0.2537612617 -0.1422592402 0.5509051681 4289372568
-0.2538180947 -0.1416788697 0.5510285497 4289767839
-0.2538747191 -0.1410981119 0.5511514544 4289767839
-0.2539311349 -0.1405169517 0.5512739420 4289767068
-0.2535796463 -0.1397107989 0.5505108833 4288780173
-0.2536355555 -0.1391298175 0.5506322980 4287922030
-0.2536912560 -0.1385484338 0.5507531762 4287461479
-0.2537467480 -0.1379666775 0.5508736372 4288050267
-0.2538020313 -0.1373845488 0.5509936810 4287655509
-0.2538570762 -0.1368020326 0.5511132479 4288443223
-0.2539119422 -0.1362191290 0.5512323380 4289430118
-0.2539665997 -0.1356358528 0.5513509512 4289692518
-0.2540210485 -0.1350522190 0.5514691472 4288705623
-0.2544837296 -0.1346843690 0.5524736643 4288837209
-0.2545378506 -0.1340990365 0.5525910854 4289560932
-0.2545917332 -0.1335133314 0.5527080894 4289561186
-0.2550541461 -0.1331406236 0.5537120104 4289429600
-0.2551077008 -0.1325532347 0.5538282394 4289626979
-0.2551610172 -0.1319654733 0.5539439917 4289561186
-0.2548051476 -0.1311668009 0.5531713963 4289035869
-0.2548579574 -0.1305792481 0.5532860756 4289035869
-0.2549105585 -0.1299913377 0.5534002781 4289298528
-0.2553721964 -0.1296107620 0.5544024706 4289430114
-0.2554244399 -0.1290211678 0.5545158982 4289495911
-0.2554764748 -0.1284312308 0.5546288490 4289561704
-0.2555283010 -0.1278409213 0.5547413826 4289429864
-0.2555799186 -0.1272502542 0.5548533797 4289232485
-0.2560409606 -0.1268622130 0.5558543205 4289232485
-0.2560921907 -0.1262698770 0.5559655428 4289561450
-0.2561432123 -0.1256771982 0.5560763478 4289560934
-0.2566039562 -0.1252842993 0.5570765138 4289429348
-0.2570646107 -0.1248891503 0.5580766201 4289561702
-0.2571151257 -0.1242935136 0.5581862926 4290022253
-0.2575755715 -0.1238948107 0.5591859221 4289759079
-0.2580359876 -0.1234938502 0.5601854324 4289627493
-0.2580859959 -0.1228952631 0.5602940321 4290020197
-0.2585461736 -0.1224907562 0.5612930655 4289559646
-0.2585958242 -0.1218905225 0.5614008307 4289495393
-0.2590557933 -0.1214824691 0.5623993874 4289758565
-0.2591050863 -0.1208805889 0.5625063777 4289432687
-0.2595648468 -0.1204689890 0.5635045171 4289498480
-0.2596137226 -0.1198654696 0.5636106730 4288843128
-0.2600732744 -0.1194503233 0.5646082759 4288843128
-0.2605327368 -0.1190329194 0.5656057596 4288187007
-0.2609921098 -0.1186132655 0.5666030645 4287726456
-0.2614514232 -0.1181913614 0.5676001906 4286740852
-0.2619106472 -0.1177672073 0.5685971379 4286543473
-0.2623697817 -0.1173408031 0.5695939064 4287136639
-0.2628288269 -0.1169121414 0.5705905557 4288255120
-0.2632878125 -0.1164812297 0.5715869665 4289308066
-0.2633352578 -0.1158670262 0.5716899037 4290097582
-0.2637939751 -0.1154325753 0.5726858377 4290362298
-0.2642526329 -0.1149958745 0.5736815333 4290362298
-0.2647112012 -0.1145569161 0.5746770501 4290427837
-0.2651696503 -0.1141157076 0.5756723285 4291414732
-0.2598650455 -0.1875031441 0.5655198693 4290691787
-0.2599374354 -0.1869268566 0.5656773448 4290428615
-0.2604096234 -0.1866367757 0.5667049885 4290231236
-0.2600816190 -0.1857728362 0.5659911633 4289968064
-0.2601534426 -0.1851951033 0.5661474466 4289836478
-0.2602250874 -0.1846169084 0.5663033724 4289638842
-0.2598960996 -0.1837550849 0.5655874014 4289507256
-0.2599672377 -0.1831768155 0.5657422543 4289309877
-0.2600382268 -0.1825980693 0.5658966899 4289112498
-0.2601090074 -0.1820188612 0.5660507679 4288980910
-0.2601796091 -0.1814391613 0.5662043691 4288783531
-0.2602500021 -0.1808589995 0.5663576126 4288651945
-0.2603202462 -0.1802783757 0.5665104389 4288454566
-0.2603902817 -0.1796972752 0.5666628480 4288191392
-0.2600587904 -0.1788397133 0.5659415126 4288125599
-0.2601283491 -0.1782585829 0.5660928488 4287994013
-0.2601977289 -0.1776769757 0.5662438273 4287796634
-0.2602669001 -0.1770949066 0.5663943291 4287665048
-0.2603358626 -0.1765123755 0.5665444732 4287401876
-0.2604046762 -0.1759293675 0.5666941404 4287073166
-0.2604732513 -0.1753459126 0.5668434501 4286941580
-0.2605416775 -0.1747619957 0.5669922829 4286876044
-0.2606098950 -0.1741776168 0.5671407580 4286612872
-0.2606779039 -0.1735927910 0.5672888160 4286415493
-0.2607457340 -0.1730074883 0.5674363971 4286218114
-0.2608133554 -0.1724217385 0.5675835609 4285955196
-0.2608807981 -0.1718355417 0.5677303672 4285626231
-0.2609480619 -0.1712488830 0.5678766966 4285230960
-0.2610151172 -0.1706617624 0.5680226088 4284770409
-0.2610819638 -0.1700741947 0.5681681037 4284375135
-0.2607456148 -0.1692246348 0.5674360991 4284440928
-0.2604088485 -0.1683764309 0.5667032599 4284375133
-0.2600716949 -0.1675295979 0.5659695864 4284243547
-0.2601374686 -0.1669429690 0.5661126375 4284243547
-0.2602030039 -0.1663558930 0.5662553310 4284243547
-0.2598648667 -0.1655113697 0.5655194521 4284506206
-0.2595263124 -0.1646682173 0.5647826791 4284966757
-0.2587836385 -0.1635712832 0.5631664395 4285098345
-0.2592518032 -0.1632403582 0.5641853213 4285690482
-0.2589121759 -0.1624004543 0.5634461641 4286019447
-0.2585721016 -0.1615619510 0.5627061129 4285953654
-0.2582316399 -0.1607248485 0.5619652271 4286019188
-0.2578907907 -0.1598891467 0.5612235069 4286413946
-0.2575495541 -0.1590548456 0.5604808331 4286742139
-0.2576123178 -0.1584707201 0.5606174469 4286807932
-0.2572703660 -0.1576383114 0.5598732829 4286939261
-0.2569280267 -0.1568073183 0.5591282845 4286741882
-0.2565853000 -0.1559777260 0.5583824515 4286742139
-0.2562421560 -0.1551495641 0.5576356649 4287334276
-0.2554937303 -0.1540786475 0.5560069680 4287663243
-0.2551496923 -0.1532542408 0.5552582741 4287663243
-0.2548052967 -0.1524312794 0.5545087457 4287597450
-0.2544604838 -0.1516097337 0.5537583828 4287597450
-0.2541152835 -0.1507896334 0.5530071855 4288124047
-0.2541750669 -0.1502105296 0.5531372428 4288321426
-0.2542346418 -0.1496310234 0.5532669425 4288124047
-0.2542940378 -0.1490511149 0.5533961654 4287992461
-0.2539475560 -0.1482339948 0.5526421070 4287992461
-0.2540064156 -0.1476542056 0.5527702570 4287663496
-0.2536592484 -0.1468390524 0.5520147681 4287729287
-0.2537176311 -0.1462593824 0.5521417856 4288058252
-0.2537758052 -0.1456793100 0.5522683859 4288321165
-0.2538337708 -0.1450988352 0.5523945689 4288386958
-0.2534853220 -0.1442867368 0.5516362190 4288386958
-0.2535427809 -0.1437064111 0.5517612696 4288386958
-0.2536000311 -0.1431256831 0.5518859029 4288321163
-0.2536571026 -0.1425445527 0.5520100594 4288584335
-0.2537139654 -0.1419630498 0.5521337986 4288847507
-0.2533639073 -0.1411545724 0.5513720512 4288584335
-0.2534202635 -0.1405732036 0.5514946580 4288056963
-0.2530695200 -0.1397667527 0.5507314205 4286741103
-0.2527184188 -0.1389617920 0.5499672890 4286606170
-0.2531810105 -0.1386039704 0.5509739518 4287066721
-0.2528292835 -0.1378001124 0.5502085686 4287918168
-0.2528844178 -0.1372186989 0.5503285527 4287786582
-0.2529393137 -0.1366369128 0.5504480600 4288770905
-0.2529940307 -0.1360547394 0.5505670905 4289034077
-0.2534559965 -0.1356903464 0.5515724421 4289034077
-0.2535103858 -0.1351064891 0.5516907573 4288441940
-0.2539722025 -0.1347385347 0.5526958108 4288705623
-0.2540262341 -0.1341529787 0.5528134108 4289034588
-0.2544879019 -0.1337814480 0.5538180470 4288640084
-0.2545415759 -0.1331942230 0.5539349318 4289034842
-0.2550030649 -0.1328191310 0.5549392104 4289692772
-0.2546483278 -0.1320186406 0.5541672111 4289495393
-0.2547014058 -0.1314302981 0.5542826653 4289101403
-0.2547542453 -0.1308415830 0.5543976426 4289298782
-0.2548068464 -0.1302525103 0.5545122027 4289495391
-0.2548592687 -0.1296630651 0.5546262264 4289363805
-0.2549114525 -0.1290732622 0.5547397733 4289429346
-0.2549634278 -0.1284831017 0.5548529029 4289692518
-0.2550151944 -0.1278925836 0.5549655557 4289626727
-0.2558842301 -0.1277097166 0.5568568110 4289166176
-0.2559357285 -0.1271165758 0.5569688082 4289364071
-0.2559869885 -0.1265230775 0.5570803881 4289693036
-0.2560380399 -0.1259292364 0.5571914911 4289758829
-0.2560888529 -0.1253350228 0.5573021173 4289693036
-0.2565486431 -0.1249397397 0.5583026409 4289694319
-0.2570083439 -0.1245421916 0.5593031049 4290089077
-0.2570586801 -0.1239450350 0.5594125986 4290154870
-0.2575182021 -0.1235439330 0.5604125857 4290154870
-0.2579776347 -0.1231405884 0.5614124537 4289167722
-0.2580274642 -0.1225404739 0.5615208745 4288707171
-0.2584866881 -0.1221335679 0.5625202656 4288511593
-0.2585361302 -0.1215318143 0.5626278520 4288643179
-0.2589951456 -0.1211213544 0.5636267662 4288054130
-0.2594541013 -0.1207086518 0.5646255612 4287988337
-0.2595030069 -0.1201039478 0.5647320151 4287266934
-0.2599617541 -0.1196876913 0.5657302737 4287398520
-0.2604204118 -0.1192691848 0.5667284131 4287399811
-0.2608789802 -0.1188484207 0.5677263737 4287531397
-0.2609272003 -0.1182394922 0.5678313375 4287794831
-0.2617958784 -0.1180001348 0.5697217584 4288452761
-0.2622542381 -0.1175726131 0.5707191825 4289242791
-0.2627124786 -0.1171428412 0.5717164278 4289900721
-0.2627601027 -0.1165287346 0.5718200803 4290230199
-0.2632181048 -0.1160954162 0.5728167892 4290559164
-0.2636760473 -0.1156598404 0.5738133192 4289902263
-0.2637231052 -0.1150428206 0.5739157200 4290033849
-0.2641807795 -0.1146037057 0.5749117136 4290757572
-0.2590102255 -0.1867113709 0.5650252700 4290691787
-0.2590822279 -0.1861353070 0.5651823282 4290494408
-0.2591540217 -0.1855587661 0.5653389692 4290362822
-0.2592256367 -0.1849817485 0.5654951930 4290297029
-0.2588975430 -0.1841201037 0.5647794604 4290165443
-0.2589686811 -0.1835430264 0.5649346709 4289968064
-0.2590396404 -0.1829654574 0.5650894642 4289704892
-0.2591104209 -0.1823874265 0.5652438402 4289573306
-0.2591810226 -0.1818089038 0.5653978586 4289441720
-0.2592514157 -0.1812299341 0.5655514002 4289375927
-0.2593216300 -0.1806504726 0.5657045841 4289244595
-0.2593916655 -0.1800705492 0.5658573508 4289113009
-0.2594614923 -0.1794901639 0.5660097003 4288915630
-0.2595311701 -0.1789093018 0.5661616921 4288784044
-0.2596006393 -0.1783279628 0.5663132071 4288652456
-0.2596698999 -0.1777461767 0.5664643049 4288455077
-0.2589373291 -0.1766171157 0.5648662448 4288257698
-0.2590059936 -0.1760361791 0.5650160909 4288126112
-0.2590745091 -0.1754547954 0.5651654601 4287928733
-0.2591428161 -0.1748729497 0.5653144717 4287797147
-0.2592109144 -0.1742906421 0.5654630661 4287599767
-0.2592788339 -0.1737078726 0.5656112432 4287270802
-0.2593465745 -0.1731246561 0.5657589436 4287073423
-0.2594141066 -0.1725409776 0.5659062862 4286876044
-0.2598831058 -0.1722230315 0.5669294596 4286612615
-0.2599503696 -0.1716375351 0.5670761466 4286415236
-0.2600174248 -0.1710515767 0.5672224164 4286020476
-0.2600842714 -0.1704651862 0.5673683286 4285428339
-0.2601509392 -0.1698783338 0.5675137043 4284770407
-0.2598152459 -0.1690293700 0.5667813420 4284507235
-0.2594791055 -0.1681817770 0.5660481453 4284243547
-0.2591425776 -0.1673355550 0.5653139949 4284309340
-0.2592081726 -0.1667496413 0.5654570460 4284769378
-0.2592735291 -0.1661632657 0.5655996799 4284769378
-0.2589360178 -0.1653193533 0.5648633838 4284506206
-0.2590008974 -0.1647330225 0.5650049448 4284440413
-0.2586626709 -0.1638909578 0.5642670989 4284506208
-0.2583240569 -0.1630502939 0.5635284185 4284966759
-0.2583881617 -0.1624644697 0.5636681914 4285493616
-0.2584520280 -0.1618781984 0.5638076067 4285559409
-0.2581124306 -0.1610398740 0.5630667210 4285361776
-0.2577724159 -0.1602029651 0.5623250008 4285295983
-0.2574319839 -0.1593674421 0.5615823865 4285361776
-0.2574947774 -0.1587821990 0.5617193580 4285493362
-0.2571536899 -0.1579485685 0.5609752536 4285295983
-0.2568121850 -0.1571163535 0.5602302551 4284901225
-0.2568741739 -0.1565316767 0.5603654981 4284835173
-0.2565319836 -0.1557013839 0.5596190095 4285361517
-0.2557852864 -0.1546282172 0.5579901338 4285953395
-0.2550380230 -0.1535583138 0.5563600063 4286216567
-0.2546944618 -0.1527341306 0.5556104779 4286676348
-0.2543504834 -0.1519113779 0.5548601151 4287005313
-0.2544105947 -0.1513306350 0.5549912453 4287532425
-0.2540659308 -0.1505098194 0.5542393923 4287729804
-0.2541255355 -0.1499291956 0.5543693900 4287598218
-0.2537801862 -0.1491103321 0.5536160469 4287400839
-0.2538392842 -0.1485298127 0.5537449718 4287400839
-0.2534932494 -0.1477129161 0.5529901385 4287729804
-0.2535518706 -0.1471325159 0.5531179309 4288321940
-0.2536102533 -0.1465517133 0.5532453656 4288716698
-0.2532632351 -0.1457373202 0.5524883270 4288716184
-0.2533211410 -0.1451566517 0.5526146293 4288847770
-0.2533788383 -0.1445755810 0.5527405143 4288781975
-0.2530308366 -0.1437637210 0.5519813299 4288847768
-0.2530880272 -0.1431827843 0.5521060824 4288847768
-0.2531450093 -0.1426014602 0.5522304177 4288913561
-0.2532017827 -0.1420197338 0.5523542762 4288847766
-0.2532583475 -0.1414376199 0.5524777174 4288189836
-0.2529087663 -0.1406293958 0.5517150760 4287266932
-0.2525587976 -0.1398226470 0.5509516001 4286411623
-0.2526145577 -0.1392412335 0.5510732532 4286803549
-0.2526701391 -0.1386594474 0.5511944890 4287329893
-0.2523191869 -0.1378552914 0.5504288673 4287851862
-0.2523742318 -0.1372736692 0.5505489707 4287851862
-0.2524290681 -0.1366916746 0.5506686568 4288771159
-0.2524837255 -0.1361092925 0.5507878065 4288573780
-0.2529447973 -0.1357447803 0.5517936945 4288771159
-0.2529991269 -0.1351606995 0.5519121885 4289034331
-0.2534600496 -0.1347926259 0.5529176593 4288837981
-0.2539209425 -0.1344222724 0.5539231300 4288706395
-0.2539747953 -0.1338352114 0.5540405512 4288706908
-0.2540284097 -0.1332477629 0.5541575551 4288772701
-0.2544890046 -0.1328725368 0.5551623702 4288904285
-0.2545422912 -0.1322834045 0.5552785993 4289167457
-0.2545953691 -0.1316938996 0.5553943515 4288904537
-0.2546482384 -0.1311040372 0.5555096865 4289101916
-0.2547008693 -0.1305138022 0.5556245446 4289101149
-0.2547533214 -0.1299231946 0.5557388663 4289035356
-0.2548055053 -0.1293322295 0.5558527708 4289298530
-0.2548575103 -0.1287409067 0.5559661984 4289693288
-0.2553171515 -0.1283542514 0.5569688678 4289693290
-0.2553687990 -0.1277612597 0.5570815206 4289495911
-0.2558282316 -0.1273710430 0.5580838323 4289430378
-0.2558795214 -0.1267763823 0.5581957102 4289167206
