VERSION 0.7
FIELDS x y z rgba
SIZE 4 4 4 4
TYPE F F F U
COUNT 1 1 1 1
WIDTH 920
HEIGHT 1
VIEWPOINT 0.0 0.0 0.0 1.0 0.0 0.0 0.0
POINTS 920
DATA ascii
-0.3093389571 -0.1051177979 0.5584520102 4289770937
-0.3098652065 -0.1046750918 0.5594020486 4288849835
-0.3052173555 -0.1646564454 0.5521183014 4285428086
-0.3048215210 -0.1638302654 0.5514022708 4286678153
-0.3044252396 -0.1630054414 0.5506854653 4287599255
-0.3035601079 -0.1619320810 0.5491204262 4287928475
-0.3031628430 -0.1611108482 0.5484018326 4288060061
-0.3018277884 -0.1597947329 0.5459868312 4288125084
-0.3023670316 -0.1594724953 0.5469622612 4287927705
-0.3010306656 -0.1581626534 0.5445448756 4287072397
-0.3001624346 -0.1571031958 0.5429742932 4288190878
-0.2997626662 -0.1562914848 0.5422511697 4288388254
-0.2993624508 -0.1554811448 0.5415272117 4286348671
-0.2989618182 -0.1546722054 0.5408024788 4286019960
-0.2985607684 -0.1538646370 0.5400769711 4285493616
-0.2982269526 -0.1524938345 0.5394731760 4286152060
-0.2982944548 -0.1519288123 0.5395952463 4286809990
-0.2978918850 -0.1511250436 0.5388669968 4287599506
-0.2970188856 -0.1500851959 0.5372878313 4285888888
-0.2966153324 -0.1492851228 0.5365578532 4286941576
-0.2966815233 -0.1487221569 0.5366775393 4287731094
-0.2962771952 -0.1479240060 0.5359461904 4287731094
-0.2958724499 -0.1471272558 0.5352140069 4287994013
-0.2959377766 -0.1465649456 0.5353322029 4287796634
-0.2955322862 -0.1457701474 0.5345986485 4287861912
-0.2955970466 -0.1452079862 0.5347158313 4287927705
-0.2956615984 -0.1446454525 0.5348325968 4288125084
-0.2957259417 -0.1440825611 0.5349489450 4288519842
-0.2957900465 -0.1435192972 0.5350649357 4287994268
-0.2953827977 -0.1427280307 0.5343282819 4288652198
-0.2954463661 -0.1421649307 0.5344432592 4288454819
-0.2955096960 -0.1416014731 0.5345578194 4287204752
-0.2955727875 -0.1410376579 0.5346719623 4285428341
-0.2951641679 -0.1402494311 0.5339327455 4286283650
-0.2952267230 -0.1396857947 0.5340459347 4289112749
-0.2948173583 -0.1388995647 0.5333054066 4289441714
-0.2948793471 -0.1383361071 0.5334175825 4289375666
-0.2944692373 -0.1375518590 0.5326756835 4289375666
-0.2945306897 -0.1369886100 0.5327868462 4289244080
-0.2945919037 -0.1364250034 0.5328975916 4289375666
-0.2946529090 -0.1358610392 0.5330079198 4289572531
-0.2947136760 -0.1352967173 0.5331178308 4289704117
-0.2947742045 -0.1347320676 0.5332273841 4289704117
-0.2943620384 -0.1339520514 0.5324817896 4289704117
-0.2944220304 -0.1333875954 0.5325902700 4289769910
-0.2944817841 -0.1328228116 0.5326983929 4289769910
-0.2945413291 -0.1322576702 0.5328060985 4289835703
-0.2946006060 -0.1316922009 0.5329133272 4290033082
-0.2946597040 -0.1311263740 0.5330201983 4289967289
-0.2947185338 -0.1305602193 0.5331266522 4289967289
-0.2943039834 -0.1297850609 0.5323767662 4290033082
-0.2943622768 -0.1292191446 0.5324822068 4290098875
-0.2944203019 -0.1286528856 0.5325871706 4290033082
-0.2944781184 -0.1280862838 0.5326917768 4290164668
-0.2950092554 -0.1277243793 0.5336525440 4290427840
-0.2950666845 -0.1271562129 0.5337564349 4290559426
-0.2951239049 -0.1265877038 0.5338599682 4290494149
-0.2951808870 -0.1260188669 0.5339630246 4288388773
-0.2952376306 -0.1254497170 0.5340656638 4285295732
-0.2952941358 -0.1248802245 0.5341678858 4286216834
-0.2953504026 -0.1243104115 0.5342696309 4288257187
-0.2954064310 -0.1237402707 0.5343710184 4286678155
-0.2954622209 -0.1231698021 0.5344719291 4285362808
-0.2959921360 -0.1227958053 0.5354304910 4287139219
-0.2960475683 -0.1222237796 0.5355307460 4290428615
-0.2961027324 -0.1216514334 0.5356305838 4288586411
-0.2961576581 -0.1210787743 0.5357299447 4289507256
-0.2962123752 -0.1205057874 0.5358288884 4287467673
-0.2962668240 -0.1199324876 0.5359274149 4285625726
-0.2967959046 -0.1195501536 0.5368844867 4286810000
-0.2968499660 -0.1189753041 0.5369822979 4288323239
-0.2973788381 -0.1185895875 0.5379389524 4287994274
-0.2974325120 -0.1180131882 0.5380360484 4287796634
-0.2974859178 -0.1174364835 0.5381326675 4287599255
-0.2980144024 -0.1170461401 0.5390886664 4287138706
-0.2980674505 -0.1164678931 0.5391845703 4286875534
-0.2981202304 -0.1158893406 0.5392800570 4288783531
-0.2981727421 -0.1153104752 0.5393751264 4287796636
-0.2987006903 -0.1149142981 0.5403301120 4288125599
-0.2987528145 -0.1143338978 0.5404244065 4288454564
-0.2992804945 -0.1139343381 0.5413789153 4288717736
-0.2993322015 -0.1133524105 0.5414724946 4289967803
-0.2993836701 -0.1127701849 0.5415655971 4289836219
-0.2999109626 -0.1123660132 0.5425193906 4289638840
-0.2999620140 -0.1117822602 0.5426117778 4290296770
-0.3004890382 -0.1113747209 0.5435650945 4291481044
-0.3010159433 -0.1109650210 0.5445182920 4291481042
-0.3015427887 -0.1105531752 0.5454713106 4291941593
-0.3020695448 -0.1101391837 0.5464241505 4292138974
-0.3030727208 -0.1098958254 0.5482388139 4292204767
-0.3035993576 -0.1094765961 0.5491914749 4292204767
-0.3041259050 -0.1090552136 0.5501439571 4291810009
-0.3046523631 -0.1086316779 0.5510962605 4291481044
-0.3051787019 -0.1082059965 0.5520483851 4290823114
-0.3057049215 -0.1077781618 0.5530003309 4289507254
-0.3062310815 -0.1073481739 0.5539520979 4288849324
-0.3067570925 -0.1069160327 0.5549036264 4289046701
-0.3072830141 -0.1064817458 0.5558549762 4289507252
-0.3078088462 -0.1060452983 0.5568061471 4290231488
-0.3083345592 -0.1056067050 0.5577571392 4291415762
-0.3088601530 -0.1051659659 0.5587078929 4290428867
-0.3056729734 -0.1652342230 0.5540556908 4285560185
-0.3052780628 -0.1644059420 0.5533398390 4284506469
-0.3048827052 -0.1635790318 0.5526232123 4284967020
-0.3044869006 -0.1627534628 0.5519058108 4286282878
-0.3036228120 -0.1616801322 0.5503396392 4288059289
-0.3027580976 -0.1606099457 0.5487722754 4287927705
-0.3014246523 -0.1592955291 0.5463553071 4287072396
-0.3019630015 -0.1589718908 0.5473310351 4287796634
-0.3006282449 -0.1576637626 0.5449117422 4288520357
-0.2997609973 -0.1566052586 0.5433397889 4288520357
-0.2993616164 -0.1557937115 0.5426158309 4287862427
-0.2984931767 -0.1547406316 0.5410417318 4286940808
-0.2985614836 -0.1541747749 0.5411655903 4285164397
-0.2981607914 -0.1533673853 0.5404392481 4286217339
-0.2972907424 -0.1523211300 0.5388622284 4285296237
-0.2978270948 -0.1519961506 0.5398344398 4284901477
-0.2969560623 -0.1509535760 0.5382556319 4287204232
-0.2965536416 -0.1501517743 0.5375261903 4287270027
-0.2961507738 -0.1493513733 0.5367959738 4286414718
-0.2962169051 -0.1487881839 0.5369158387 4286677636
-0.2958132923 -0.1479897052 0.5361842513 4288454047
-0.2954092324 -0.1471926421 0.5354518890 4289243563
-0.2954744995 -0.1466301084 0.5355702043 4288783012
-0.2950696945 -0.1458349824 0.5348364711 4288519843
-0.2951344252 -0.1452725977 0.5349537730 4288388257
-0.2951989472 -0.1447098553 0.5350707173 4288059291
-0.2952632308 -0.1441467255 0.5351871848 4288059291
-0.2953272760 -0.1435832381 0.5353032947 4287665303
-0.2949207425 -0.1427916586 0.5345664620 4287731096
-0.2949842513 -0.1422283351 0.5346815586 4288059806
-0.2945769727 -0.1414387077 0.5339433551 4287730841
-0.2946399450 -0.1408755630 0.5340574980 4286414981
-0.2947026789 -0.1403120607 0.5341711640 4286743946
-0.2947652042 -0.1397482008 0.5342844725 4287599510
-0.2943564951 -0.1389616281 0.5335437059 4288257440
-0.2944184840 -0.1383979619 0.5336560607 4288783784
-0.2944802046 -0.1378339231 0.5337679386 4288981163
-0.2940704525 -0.1370498985 0.5330252051 4288915115
-0.2941316366 -0.1364860684 0.5331361294 4289046701
-0.2941925824 -0.1359218806 0.5332466364 4289441459
-0.2942533195 -0.1353573352 0.5333567262 4289507252
-0.2943138182 -0.1347924471 0.5334663391 4289638840
-0.2943741083 -0.1342272162 0.5335755944 4289638840
-0.2939622998 -0.1334474385 0.5328291655 4289704633
-0.2940220237 -0.1328824162 0.5329374671 4289770426
-0.2940815091 -0.1323170513 0.5330452919 4290033082
-0.2941407859 -0.1317513436 0.5331526995 4290098875
-0.2941997945 -0.1311852932 0.5332596898 4290230461
-0.2942585945 -0.1306189001 0.5333662629 4290164668
-0.2943171859 -0.1300521791 0.5334724188 4290099389
-0.2943755090 -0.1294851154 0.5335781574 4290165182
-0.2944336236 -0.1289177090 0.5336834788 4290296254
-0.2944914997 -0.1283499748 0.5337883830 4290427840
-0.2945491374 -0.1277818978 0.5338928699 4290625219
-0.2946065366 -0.1272134930 0.5339969397 4290625219
-0.2946636975 -0.1266447604 0.5341005325 4290756805
-0.2947206497 -0.1260756850 0.5342037678 4290362047
-0.2947773635 -0.1255062968 0.5343065262 4288454050
-0.2948338389 -0.1249365732 0.5344088674 4289046187
-0.2948900461 -0.1243665218 0.5345108509 4290099391
-0.2949460447 -0.1237961426 0.5346122980 4289704633
-0.2954753339 -0.1234232411 0.5355716944 4289375668
-0.2955309451 -0.1228512973 0.5356724858 4289573047
-0.2955863178 -0.1222790405 0.5357728601 4290757321
-0.2956414521 -0.1217064559 0.5358728170 4288651945
-0.2956963778 -0.1211335510 0.5359722972 4289112755
-0.2962249815 -0.1207535341 0.5369305015 4288454825
-0.2962794900 -0.1201790795 0.5370292664 4286546828
-0.2963337600 -0.1196043044 0.5371276736 4286744207
-0.2963877916 -0.1190292165 0.5372256041 4288717997
-0.2969158888 -0.1186433360 0.5381827950 4288652204
-0.2969695032 -0.1180666983 0.5382800102 4288059808
-0.2974973917 -0.1176774353 0.5392367840 4288586152
-0.2975506186 -0.1170992479 0.5393332839 4288980910
-0.2976036072 -0.1165207624 0.5394293070 4288783531
-0.2981310785 -0.1161268726 0.5403854251 4289441461
-0.2981836498 -0.1155468449 0.5404807329 4289836219
-0.2982360125 -0.1149665117 0.5405756235 4290099391
-0.2982881069 -0.1143858656 0.5406700373 4290757321
-0.2988150120 -0.1139861420 0.5416250825 4291678421
-0.2988666892 -0.1134039685 0.5417187810 4291678421
-0.2993933558 -0.1130008623 0.5426734090 4291612628
-0.2994446158 -0.1124171615 0.5427663326 4291941593
-0.2994956672 -0.1118331626 0.5428588390 4292007386
-0.3000218868 -0.1114254445 0.5438126922 4291875800
-0.3005480468 -0.1110155806 0.5447663665 4292138972
-0.3010741174 -0.1106035635 0.5457199216 4292138972
-0.3016000986 -0.1101893932 0.5466732979 4291810009
-0.3026017547 -0.1099459454 0.5484889150 4292007388
-0.3031276464 -0.1095265448 0.5494420528 4290954700
-0.3036533892 -0.1091049835 0.5503950715 4290099391
-0.3041790724 -0.1086812764 0.5513478518 4289046703
-0.3047046363 -0.1082554087 0.5523005128 4288915117
-0.3052301109 -0.1078273952 0.5532529354 4288257700
-0.3057554662 -0.1073972285 0.5542052388 4288126114
-0.3062807322 -0.1069649085 0.5551573038 4288849837
-0.3072822988 -0.1066958532 0.5569726825 4290297283
-0.3078074157 -0.1062582955 0.5579245090 4291152592
-0.3083324134 -0.1058185846 0.5588761568 4291613143
-0.3088573217 -0.1053767204 0.5598275661 4290692041
-0.3042584062 -0.1648013443 0.5526041389 4288060319
-0.3052642345 -0.1647301465 0.5544309616 4286744201
-0.3058034182 -0.1644040048 0.5554102659 4285362548
-0.3040076792 -0.1628251225 0.5521488190 4285493364
-0.3031450510 -0.1617513448 0.5505820513 4287664533
-0.3022817373 -0.1606807113 0.5490140915 4287598740
-0.3004831374 -0.1591182947 0.5457473993 4286151294
-0.3014880121 -0.1590420157 0.5475724936 4286809992
-0.3001554310 -0.1577333510 0.5451521873 4287467922
-0.2992896140 -0.1566744000 0.5435796976 4287204752
-0.2988908887 -0.1558625251 0.5428555012 4287599510
-0.2989596128 -0.1552950591 0.5429803133 4288257440
-0.2980921566 -0.1542429328 0.5414048433 4288389026
-0.2976921499 -0.1534352154 0.5406783223 4288520610
-0.2968235314 -0.1523885280 0.5391006470 4287402129
-0.2978273630 -0.1523029059 0.5409238935 4286546820
-0.2964895070 -0.1510204375 0.5384939909 4288389024
-0.2965562344 -0.1504559964 0.5386152267 4285295983
-0.2961541712 -0.1496543735 0.5378850102 4285230190
-0.2957516909 -0.1488541663 0.5371539593 4286743429
-0.2953487635 -0.1480553746 0.5364221334 4288585633
-0.2949453890 -0.1472579837 0.5356895328 4289375403
-0.2950106263 -0.1466952264 0.5358080268 4289309610
-0.2946065068 -0.1458997726 0.5350740552 4289440944
-0.2946712077 -0.1453371793 0.5351915359 4288914600
-0.2947356701 -0.1447741985 0.5353085995 4288848807
-0.2947998941 -0.1442108601 0.5354253054 4289046186
-0.2948639095 -0.1436471492 0.5355415940 4289310128
-0.2944580615 -0.1428552270 0.5348044634 4288717991
-0.2945215404 -0.1422916949 0.5349197388 4288981163
-0.2945847809 -0.1417277902 0.5350345969 4288981163
-0.2941778898 -0.1409383714 0.5342955589 4288520612
-0.2942405641 -0.1403746456 0.5344094634 4288323233
-0.2943030298 -0.1398105472 0.5345228910 4288125854
-0.2943652868 -0.1392461061 0.5346359611 4287862682
-0.2939569652 -0.1384597570 0.5338943601 4287665303
-0.2940186560 -0.1378955096 0.5340064168 4287599510
-0.2940801382 -0.1373308897 0.5341180563 4287599510
-0.2941413820 -0.1367659271 0.5342292786 4287731096
-0.2942023873 -0.1362006068 0.5343400836 4287533717
-0.2937923670 -0.1354179084 0.5335953832 4287599510
-0.2938528359 -0.1348527968 0.5337051749 4287730841
-0.2939130664 -0.1342873275 0.5338146091 4287862427
-0.2935019433 -0.1335072219 0.5330679417 4288059806
-0.2935616374 -0.1329419762 0.5331763029 4288257185
-0.2936210930 -0.1323763877 0.5332843065 4288389026
-0.2936803102 -0.1318104416 0.5333918929 4288389026
-0.2937392890 -0.1312441677 0.5334990025 4288519842
-0.2937980592 -0.1306775510 0.5336057544 4288585635
-0.2938565910 -0.1301105917 0.5337120295 4288651943
-0.2939148843 -0.1295432895 0.5338179469 4288783529
-0.2939729691 -0.1289756596 0.5339233875 4288915115
-0.2940307856 -0.1284076869 0.5340284109 4288980908
-0.2940883934 -0.1278393865 0.5341330171 4289243566
-0.2941457629 -0.1272707433 0.5342372656 4289177773
-0.2942028940 -0.1267017722 0.5343410373 4289177773
-0.2942597866 -0.1261324733 0.5344443321 4289177773
-0.2943164706 -0.1255628467 0.5345472693 4289244080
-0.2943728864 -0.1249928847 0.5346497893 4289309873
-0.2944290936 -0.1244226024 0.5347518325 4289309873
-0.2944850624 -0.1238519847 0.5348534584 4289441459
-0.2950135469 -0.1234789342 0.5358133316 4289375668
-0.2950691283 -0.1229067594 0.5359143019 4289441461
-0.2951244712 -0.1223342568 0.5360147953 4290362563
-0.2951795757 -0.1217614338 0.5361148715 4288717738
-0.2952344418 -0.1211882904 0.5362145305 4289902525
-0.2957622707 -0.1208081245 0.5371732116 4290428869
-0.2958167493 -0.1202334315 0.5372721553 4289705146
-0.2958709896 -0.1196584105 0.5373706818 4289376181
-0.2959249914 -0.1190830842 0.5374687314 4290494408
-0.2964523137 -0.1186970547 0.5384264588 4291020752
-0.2965058982 -0.1181201711 0.5385237932 4290888907
-0.2970329821 -0.1177307516 0.5394811034 4291086286
-0.2970861793 -0.1171523258 0.5395777225 4291744216
-0.2976130545 -0.1167595163 0.5405346155 4291612630
-0.2976658344 -0.1161795482 0.5406305194 4291349458
-0.2977183759 -0.1155992746 0.5407259464 4291217872
-0.2977707088 -0.1150186881 0.5408209562 4291546837
-0.2978227437 -0.1144378036 0.5409154892 4291546837
-0.2983489037 -0.1140379161 0.5418711305 4291678421
-0.2984005511 -0.1134554967 0.5419648886 4291810007
-0.2989264429 -0.1130522192 0.5429200530 4291941593
-0.2989776731 -0.1124682724 0.5430130959 4291875800
-0.2995032966 -0.1120616198 0.5439677835 4291941593
-0.3000288606 -0.1116528064 0.5449222922 4291349456
-0.3005543351 -0.1112418473 0.5458766818 4290823112
-0.3010796905 -0.1108287275 0.5468308926 4291020491
-0.3016049862 -0.1104134619 0.5477849245 4291217872
-0.3021301627 -0.1099960357 0.5487387776 4290625735
-0.3026552498 -0.1095764562 0.5496924520 4289507254
-0.3031802475 -0.1091547236 0.5506459475 4288388773
-0.3041804135 -0.1089009941 0.5524625182 4288849324
-0.3047052920 -0.1084740236 0.5534158349 4289902012
-0.3052300811 -0.1080448925 0.5543689132 4289376181
-0.3057547510 -0.1076136157 0.5553218722 4288981423
-0.3062793016 -0.1071801782 0.5562745929 4290428869
-0.3068037629 -0.1067445874 0.5572271347 4291021006
-0.3078038394 -0.1064714044 0.5590435266 4291547348
-0.3083281517 -0.1060305759 0.5599957705 4292073692
-0.3093282580 -0.1057502851 0.5618121624 4290889418
-0.3042438924 -0.1651265919 0.5536947250 4288389284
-0.3057143390 -0.1653064936 0.5563708544 4287533717
-0.3034561574 -0.1634718329 0.5522611141 4287402131
-0.3025953472 -0.1623962671 0.5506945848 4287533717
-0.3017339110 -0.1613238305 0.5491268039 4287928475
-0.2999388874 -0.1597576141 0.5458600521 4287467924
-0.3009422123 -0.1596835107 0.5476859808 4285823099
-0.2996123433 -0.1583720297 0.5452657342 4286809992
-0.2987484038 -0.1573112756 0.5436934233 4286546820
-0.2974168956 -0.1560087502 0.5412702560 4286612615
-0.2974855602 -0.1554432362 0.5413951874 4287796889
-0.2975539863 -0.1548773348 0.5415197611 4287862427
-0.2971549928 -0.1540687978 0.5407935977 4287796634
-0.2972905636 -0.1529368162 0.5410403609 4288191392
-0.2968904674 -0.1521306783 0.5403122306 4288915115
-0.2964899540 -0.1513259262 0.5395833254 4289309873
-0.2960890234 -0.1505225897 0.5388536453 4288652198
-0.2956876457 -0.1497206539 0.5381231904 4287007373
-0.2952858210 -0.1489201188 0.5373919010 4284573030
-0.2948836088 -0.1481209844 0.5366598964 4287862680
-0.2949491143 -0.1475574970 0.5367791057 4289507503
-0.2945461273 -0.1467602998 0.5360457301 4289441710
-0.2946110666 -0.1461969465 0.5361639261 4289046186
-0.2942073345 -0.1454017013 0.5354291797 4289177772
-0.2942717671 -0.1448384970 0.5355464220 4289572530
-0.2943359613 -0.1442749351 0.5356632471 4289046186
-0.2943999171 -0.1437110156 0.5357796550 4289441714
-0.2944636643 -0.1431467086 0.5358956456 4288981163
-0.2940582037 -0.1423550099 0.5351577401 4289244335
-0.2941214144 -0.1417908669 0.5352727771 4289178542
-0.2941843867 -0.1412263811 0.5353873968 4289112749
-0.2937778533 -0.1404371858 0.5346475244 4289178542
-0.2938402593 -0.1398728639 0.5347611308 4289244335
-0.2939024866 -0.1393081993 0.5348743200 4289507507
-0.2939644456 -0.1387431622 0.5349871516 4289770679
-0.2935565114 -0.1379570365 0.5342447162 4289770679
-0.2936179340 -0.1373922080 0.5343565345 4289639093
-0.2936791480 -0.1368270069 0.5344678760 4289375921
-0.2937401235 -0.1362614632 0.5345788598 4289507507
-0.2938008606 -0.1356955618 0.5346894264 4289441714
-0.2933911979 -0.1349131018 0.5339438915 4289310128
-0.2934513986 -0.1343474090 0.5340534449 4289178542
-0.2935113609 -0.1337813735 0.5341625214 4289112749
-0.2931006253 -0.1330015063 0.5334150791 4289112749
-0.2931600511 -0.1324356794 0.5335232019 4289046956
-0.2932192087 -0.1318695098 0.5336309075 4289046956
-0.2932781577 -0.1313029975 0.5337381959 4289046956
-0.2933368981 -0.1307361573 0.5338450670 4289046956
-0.2933953702 -0.1301689595 0.5339514613 4289178287
-0.2939246893 -0.1298094541 0.5349147320 4289244080
-0.2939828038 -0.1292406768 0.5350205302 4289309873
-0.2940406799 -0.1286715716 0.5351258516 4289375666
-0.2940983474 -0.1281021237 0.5352308154 4289441459
-0.2941557765 -0.1275323331 0.5353353024 4289441459
-0.2942129672 -0.1269622147 0.5354393721 4289573045
-0.2942699194 -0.1263917685 0.5355430245 4289507252
-0.2943266332 -0.1258209944 0.5356462598 4289902010
-0.2943831086 -0.1252498776 0.5357490778 4289638838
-0.2944393754 -0.1246784404 0.5358514190 4289770424
-0.2944953740 -0.1241066828 0.5359533429 4290165182
-0.2945511639 -0.1235345900 0.5360548496 4290165182
-0.2946066856 -0.1229621768 0.5361559391 4290296768
-0.2946619987 -0.1223894358 0.5362566113 4290691526
-0.2947170734 -0.1218163818 0.5363568068 4288783529
-0.2952442765 -0.1214372963 0.5373163223 4290231490
-0.2952989638 -0.1208626777 0.5374158025 4290889420
-0.2953533828 -0.1202877462 0.5375148654 4291152592
-0.2958802283 -0.1199040264 0.5384736657 4291152592
-0.2959342897 -0.1193275377 0.5385720134 4291284178
-0.2959880829 -0.1187507287 0.5386699438 4291086799
-0.2965145707 -0.1183623895 0.5396280885 4291481044
-0.2965679467 -0.1177840307 0.5397252440 4291481044
-0.2970941961 -0.1173922941 0.5406829715 4291415251
-0.2971472144 -0.1168123931 0.5407794118 4291349458
-0.2971999645 -0.1162321791 0.5408754349 4291546837
-0.2972524762 -0.1156516597 0.5409710407 4291612630
-0.2977781594 -0.1152540669 0.5419277549 4291941595
-0.2978302836 -0.1146720126 0.5420225859 4291546837
-0.2978821397 -0.1140896529 0.5421169400 4291152077
-0.2979337573 -0.1135069877 0.5422108769 4290165182
-0.2984588742 -0.1131035462 0.5431665182 4289902010
-0.2985100746 -0.1125193536 0.5432597399 4290033596
-0.2990349233 -0.1121125296 0.5442149043 4290823112
-0.2995597124 -0.1117035523 0.5451699495 4289704631
-0.3000844121 -0.1112924218 0.5461248755 4288520357
-0.3006089926 -0.1108791307 0.5470795631 4289244080
-0.3011335135 -0.1104636937 0.5480341315 4290692041
-0.3021322191 -0.1102191210 0.5498516560 4290494662
-0.3021822274 -0.1096263379 0.5499426723 4289310388
-0.3031809032 -0.1093755960 0.5517601967 4288652458
-0.3037050962 -0.1089506000 0.5527141690 4289639353
-0.3042291999 -0.1085234508 0.5536680222 4290692041
-0.3047532141 -0.1080941483 0.5546216369 4291349458
-0.3057518601 -0.1078301221 0.5564391017 4291415251
-0.3062757254 -0.1073955745 0.5573924780 4291415249
-0.3067994714 -0.1069588661 0.5583456755 4291152077
-0.3073231280 -0.1065200046 0.5592986345 4291481042
-0.3083217442 -0.1062426865 0.5611160398 4292204765
-0.3093203902 -0.1059613451 0.5629334450 4290691526
-0.3037621081 -0.1651990116 0.5539376140 4288191905
-0.3029757142 -0.1635436118 0.5525035858 4287138704
-0.3021163642 -0.1624675989 0.5509364605 4288059806
-0.3012563586 -0.1613947302 0.5493681431 4288257185
-0.2999299467 -0.1600764245 0.5469493270 4288388771
-0.3009318709 -0.1600014269 0.5487763882 4286217602
-0.3000702262 -0.1589353085 0.5472050905 4285098604
-0.2992078960 -0.1578723490 0.5456326008 4284440674
-0.2988111079 -0.1570575535 0.5449090004 4284177504
-0.2979476154 -0.1560000032 0.5433343649 4284835434
-0.2975498438 -0.1551888585 0.5426089764 4286282880
-0.2971516252 -0.1543791145 0.5418828130 4287598740
-0.2967529893 -0.1535707414 0.5411558747 4287007373
-0.2963539362 -0.1527637690 0.5404281616 4287270545
-0.2964212298 -0.1521978676 0.5405508876 4287336338
-0.2960214317 -0.1513928026 0.5398217440 4286875787
-0.2956211567 -0.1505891383 0.5390918851 4287467924
-0.2956876159 -0.1500238776 0.5392130017 4287073166
-0.2952865958 -0.1492221206 0.5384817719 4285954683
-0.2948851585 -0.1484217793 0.5377497077 4288586403
-0.2944832742 -0.1476228386 0.5370168686 4288520608
-0.2950160801 -0.1472921818 0.5379884243 4288849573
-0.2946135402 -0.1464942843 0.5372543931 4289177772
-0.2942106128 -0.1456978172 0.5365195870 4289111979
-0.2942750752 -0.1451334953 0.5366371870 4289506737
-0.2943393290 -0.1445688158 0.5367543101 4289243565
-0.2944033742 -0.1440037638 0.5368710756 4288981163
-0.2939990163 -0.1432103068 0.5361337662 4288981163
-0.2935942411 -0.1424182653 0.5353956223 4289375921
-0.2936574221 -0.1418539137 0.5355107784 4289310128
-0.2937203348 -0.1412892044 0.5356255174 4289112749
-0.2937830389 -0.1407241225 0.5357398987 4289310128
-0.2933768928 -0.1399351358 0.5349991918 4289244335
-0.2934390306 -0.1393702477 0.5351125598 4289178542
-0.2935009897 -0.1388049871 0.5352255106 4289112749
-0.2935626805 -0.1382393688 0.5353380442 4289112749
-0.2936241627 -0.1376733929 0.5354501605 4289310128
-0.2932162881 -0.1368880570 0.5347063541 4289375921
-0.2932772040 -0.1363222748 0.5348174572 4289835702
-0.2933379114 -0.1357561499 0.5349281430 4289769909
-0.2929289639 -0.1349733621 0.5341823697 4289573300
-0.2934586406 -0.1346228421 0.5351483226 4289573300
-0.2930490375 -0.1338411868 0.5344013572 4289704886
-0.2931087315 -0.1332745701 0.5345101953 4289836472
-0.2926983833 -0.1324949265 0.5337619185 4289968058
-0.2927575111 -0.1319285333 0.5338697433 4290033851
-0.2928164303 -0.1313617975 0.5339771509 4290033851
-0.2928751111 -0.1307947189 0.5340842009 4290033851
-0.2929335535 -0.1302272975 0.5341907740 4290033596
-0.2934620678 -0.1298676580 0.5351545811 4290099389
-0.2935201526 -0.1292986423 0.5352604985 4290165182
-0.2935779989 -0.1287292987 0.5353659987 4290296768
-0.2936356068 -0.1281596124 0.5354710221 4290362561
-0.2936930060 -0.1275895983 0.5355756879 4290362561
-0.2937501371 -0.1270192564 0.5356798768 4290296768
-0.2938070595 -0.1264485717 0.5357837081 4290494147
-0.2938637435 -0.1258775592 0.5358870625 4290494147
-0.2939201891 -0.1253062040 0.5359899998 4290428354
-0.2939763963 -0.1247345358 0.5360925198 4290625733
-0.2940323949 -0.1241625324 0.5361945629 4290494147
-0.2940881252 -0.1235902086 0.5362962484 4290625733
-0.2941436172 -0.1230175570 0.5363974571 4290757319
-0.2941989005 -0.1224445850 0.5364981890 4291020491
-0.2942539155 -0.1218712851 0.5365985632 4288322978
-0.2947803438 -0.1214920580 0.5375585556 4290230977
-0.2948350012 -0.1209172010 0.5376582146 4290888907
-0.2948893905 -0.1203420237 0.5377573967 4291086286
-0.2954154611 -0.1199581549 0.5387167335 4291152079
-0.2954694629 -0.1193814203 0.5388152599 4291349458
-0.2959953249 -0.1189941615 0.5397741795 4291217872
-0.2960489392 -0.1184158772 0.5398719311 4290954700
-0.2965745628 -0.1180252135 0.5408304334 4290888907
-0.2966277599 -0.1174453795 0.5409274697 4290757321
-0.2966807187 -0.1168652400 0.5410240889 4290494149
-0.2967334688 -0.1162847802 0.5411202312 4289770426
-0.2967859507 -0.1157040223 0.5412159562 4289638840
-0.2973108590 -0.1153062657 0.5421731472 4290230975
-0.2973629236 -0.1147239655 0.5422680974 4289441459
-0.2974147499 -0.1141413525 0.5423626304 4288586150
-0.2974663377 -0.1135584414 0.5424566865 4288454564
-0.2979906797 -0.1131548360 0.5434128642 4288783529
-0.2980418503 -0.1125703976 0.5435062051 4289244080
-0.2985659242 -0.1121634096 0.5444619060 4289967803
-0.2990899086 -0.1117542610 0.5454174280 4288849322
-0.2996138334 -0.1113429591 0.5463728309 4288520357
-0.3001376390 -0.1109295040 0.5473281145 4289967803
-0.3006613851 -0.1105138883 0.5482831597 4290626248
-0.3016585708 -0.1102692261 0.5501016378 4290692041
-0.3021821976 -0.1098483652 0.5510565042 4290034111
-0.3027057052 -0.1094253510 0.5520111918 4290428869
-0.3032291234 -0.1090001762 0.5529657006 4290757834
-0.3042263389 -0.1087422296 0.5547841787 4291152592
-0.3047496378 -0.1083118096 0.5557384491 4291283665
-0.3052728176 -0.1078792363 0.5566925406 4291875802
-0.3062700033 -0.1076110825 0.5585110188 4290691526
-0.3067930639 -0.1071732566 0.5594648123 4290559940
-0.3073160052 -0.1067332774 0.5604184866 4291481042
-0.3078388572 -0.1062911376 0.5613719225 4292336351
-0.3088359833 -0.1060096845 0.5631902814 4290494147
-0.3038164973 -0.1649471074 0.5551612377 4287665048
-0.3052826524 -0.1651232988 0.5578402877 4286349188
-0.3030310571 -0.1632902175 0.5537260175 4288586150
-0.3021728098 -0.1622142494 0.5521577001 4287928220
-0.3013138771 -0.1611414254 0.5505881906 4287796634
-0.2995241284 -0.1595761478 0.5473178029 4287730841
-0.3005245030 -0.1594989896 0.5491458178 4287664534
-0.2987332046 -0.1579417735 0.5458725691 4286611846
-0.2983371019 -0.1571266502 0.5451487899 4285493364
-0.2979405820 -0.1563129127 0.5444241762 4283980125
-0.2975435853 -0.1555005610 0.5436987877 4283716951
-0.2966804504 -0.1544471234 0.5421215892 4283322193
-0.2962825000 -0.1536384374 0.5413944125 4283914330
-0.2958841324 -0.1528311372 0.5406664610 4285822327
-0.2959513962 -0.1522650272 0.5407893658 4286743429
-0.2955522537 -0.1514596343 0.5400600433 4288059289
-0.2956189811 -0.1508936286 0.5401819348 4288191645
-0.2952190936 -0.1500901580 0.5394512415 4288389024
-0.2948187590 -0.1492880732 0.5387197733 4287336336
-0.2948846221 -0.1487227231 0.5388400555 4286612613
-0.2944835424 -0.1479225755 0.5381072164 4287796889
-0.2945488393 -0.1473573744 0.5382265449 4286941580
-0.2941470146 -0.1465591490 0.5374922752 4287598740
-0.2942117751 -0.1459940970 0.5376105905 4287927705
-0.2938092053 -0.1451978236 0.5368750095 4287861912
-0.2938733995 -0.1446329206 0.5369923115 4288256670
-0.2939373851 -0.1440676451 0.5371092558 4288454819
-0.2940011621 -0.1435019970 0.5372257233 4288981163
-0.2935971916 -0.1427087337 0.5364875793 4288849577
-0.2931928039 -0.1419169158 0.5357486010 4289244335
-0.2932556868 -0.1413519830 0.5358635187 4289375921
-0.2933183610 -0.1407866776 0.5359780192 4289441714
-0.2933807969 -0.1402209997 0.5360921621 4289310128
-0.2929750085 -0.1394322515 0.5353506207 4289441714
-0.2930368781 -0.1388667673 0.5354637504 4289639093
-0.2930985391 -0.1383009255 0.5355764031 4289704886
-0.2931599915 -0.1377347261 0.5356886983 4289836472
-0.2927528024 -0.1369490474 0.5349446535 4289704886
-0.2928136885 -0.1363830566 0.5350558758 4289704116
-0.2928743660 -0.1358166933 0.5351667404 4289704116
-0.2924661040 -0.1350335926 0.5344207287 4289704116
-0.2929950058 -0.1346829385 0.5353871584 4289769909
-0.2925860882 -0.1339009404 0.5346400142 4289769909
-0.2926457524 -0.1333341002 0.5347489715 4289835702
-0.2927051783 -0.1327669173 0.5348575711 4289836217
-0.2922951877 -0.1319875270 0.5341084599 4289902010
-0.2923540473 -0.1314205527 0.5342159867 4289967803
-0.2924126983 -0.1308532357 0.5343231559 4290033596
-0.2929405570 -0.1304947138 0.5352877378 4290099389
-0.2929988503 -0.1299258173 0.5353941917 4290165182
-0.2930568755 -0.1293565780 0.5355002880 4290296768
-0.2931146920 -0.1287869960 0.5356059074 4290362561
-0.2931722701 -0.1282170713 0.5357111096 4290362563
-0.2932296097 -0.1276468337 0.5358158946 4290362563
-0.2932867408 -0.1270762384 0.5359202623 4290559940
-0.2933436036 -0.1265053302 0.5360242128 4290296768
-0.2934002578 -0.1259340793 0.5361276865 4290296768
-0.2939269245 -0.1255633980 0.5370901227 4290362561
-0.2939831913 -0.1249905750 0.5371929407 4290428354
-0.2940392196 -0.1244174242 0.5372952819 4290559940
-0.2940950096 -0.1238439456 0.5373972654 4290823114
-0.2941505611 -0.1232701391 0.5374987721 4290757321
-0.2942058742 -0.1226960048 0.5375998616 4290954700
-0.2942609787 -0.1221215501 0.5377004743 4288322980
-0.2943158150 -0.1215467751 0.5378006697 4290099391
-0.2948414087 -0.1211652383 0.5387610793 4289375668
-0.2948958576 -0.1205888987 0.5388606191 4289112496
-0.2949500680 -0.1200122461 0.5389596820 4289046703
-0.2954752743 -0.1196260601 0.5399193764 4288980910
-0.2955290973 -0.1190478504 0.5400177240 4288651945
-0.2955826819 -0.1184693277 0.5401156545 4287730073
-0.2961075306 -0.1180785075 0.5410746932 4287861659
-0.2961606979 -0.1174984351 0.5411718488 4287993245
-0.2966853082 -0.1171042249 0.5421304703 4287730073
-0.2967380881 -0.1165226027 0.5422269106 4287006350
-0.2967905998 -0.1159406677 0.5423228741 4287137936
-0.2968429029 -0.1153584272 0.5424184203 4289111980
-0.2968949378 -0.1147758812 0.5425134897 4289835703
-0.2974188030 -0.1143745705 0.5434707999 4289375152
-0.2974704504 -0.1137904823 0.5435651541 4289243566
-0.2975218296 -0.1132060960 0.5436590314 4288980394
-0.2980453074 -0.1128001735 0.5446155667 4289177773
-0.2985686958 -0.1123920828 0.5455719233 4290098875
-0.2990919948 -0.1119818464 0.5465281606 4290033082
-0.2996152043 -0.1115694419 0.5474842191 4290427839
-0.2996656597 -0.1109798402 0.5475764275 4291217355
-0.3001886308 -0.1105640531 0.5485320091 4291284178
-0.3016571105 -0.1104924753 0.5512154102 4291086799
-0.3017071187 -0.1098982617 0.5513067842 4291021006
-0.3022298813 -0.1094750687 0.5522620082 4291152592
-0.3027525246 -0.1090497226 0.5532169938 4290165184
-0.3037481904 -0.1087916717 0.5550364256 4290954700
-0.3042707145 -0.1083610728 0.5559911728 4289704631
-0.3047931194 -0.1079283133 0.5569458008 4291349456
-0.3053154349 -0.1074934006 0.5579001904 4290165182
-0.3063110709 -0.1072220504 0.5597195625 4290428354
-0.3068332374 -0.1067818850 0.5606737137 4291744214
-0.3078288734 -0.1065034121 0.5624930263 4292402144
-0.3083509207 -0.1060579866 0.5634469390 4290428354
-0.3092884421 -0.1688885987 0.5663093925 4288257185
-0.3070431352 -0.1670379043 0.5621982217 4287467669
-0.3047965169 -0.1651956290 0.5580846667 4284441191
-0.3030126095 -0.1636123359 0.5548183322 4287336083
-0.3021559119 -0.1625350416 0.5532496572 4287072911
-0.3008342683 -0.1612121016 0.5508297086 4286348673
-0.3013692200 -0.1608856767 0.5518091917 4287796119
-0.3000462651 -0.1595690101 0.5493869185 4288125085
-0.2987224758 -0.1582572758 0.5469629765 4287861913
-0.2978624701 -0.1571957022 0.5453883410 4287993498
-0.2965370417 -0.1558929533 0.5429614782 4287203982
-0.2961405516 -0.1550820470 0.5422354937 4286282878
-0.2957436144 -0.1542725265 0.5415087342 4285032811
-0.2962764800 -0.1539477557 0.5424844027 4284769893
-0.2954137027 -0.1528984606 0.5409046412 4284375135
-0.2954809070 -0.1523321271 0.5410276651 4282861896
-0.2950824797 -0.1515264064 0.5402981639 4283651412
-0.2951491475 -0.1509601921 0.5404202342 4283190861
-0.2947499454 -0.1501563787 0.5396893024 4284111963
-0.2943503261 -0.1493539810 0.5389575958 4285295983
-0.2944161296 -0.1487884074 0.5390780568 4285559155
-0.2940157354 -0.1479879320 0.5383449793 4288125084
-0.2940810025 -0.1474225074 0.5384644270 4286546052
-0.2941460311 -0.1468567103 0.5385835171 4287072396
-0.2937445939 -0.1460586935 0.5378484726 4287993498
-0.2938090861 -0.1454930305 0.5379665494 4288125085
-0.2934068739 -0.1446969658 0.5372301340 4288322464
-0.2934707999 -0.1441314667 0.5373471975 4287665048
-0.2935345173 -0.1435655951 0.5374638438 4287665048
-0.2935980260 -0.1429993659 0.5375801325 4287336338
-0.2931944132 -0.1422063261 0.5368410945 4287731096
-0.2927904129 -0.1414147168 0.5361013412 4287665303
-0.2928530276 -0.1408491880 0.5362160206 4287928475
-0.2929154336 -0.1402832866 0.5363302827 4288191392
-0.2929776013 -0.1397170424 0.5364441276 4288388771
-0.2925721705 -0.1389285028 0.5357017517 4288651943
-0.2926338017 -0.1383624375 0.5358145833 4288849322
-0.2926951945 -0.1377960145 0.5359270573 4289178542
-0.2922886908 -0.1370100081 0.5351827741 4289310128
-0.2923495471 -0.1364437789 0.5352941751 4289704116
-0.2924101651 -0.1358772069 0.5354051590 4289769909
-0.2924705744 -0.1353102773 0.5355157256 4289769909
-0.2920626700 -0.1345274001 0.5347688794 4289835702
-0.2921225131 -0.1339606792 0.5348784924 4289901495
-0.2921821475 -0.1333936006 0.5349876285 4290033081
-0.2922415137 -0.1328261793 0.5350963473 4290033596
-0.2923006713 -0.1322584152 0.5352046490 4290165182
-0.2923595905 -0.1316903085 0.5353125334 4290099389
-0.2924183011 -0.1311218590 0.5354200006 4290099389
-0.2924767435 -0.1305530667 0.5355270505 4290296254
-0.2925349772 -0.1299839318 0.5356336832 4290362047
-0.2925930023 -0.1294144541 0.5357398987 4290493633
-0.2926507592 -0.1288446486 0.5358456969 4290559426
-0.2927083075 -0.1282745004 0.5359510183 4290494147
-0.2927656174 -0.1277040094 0.5360559821 4290559940
-0.2928226888 -0.1271331906 0.5361604691 4290757319
-0.2928795218 -0.1265620440 0.5362645388 4290691526
-0.2929361165 -0.1259905696 0.5363681912 4290757319
-0.2934620380 -0.1256197393 0.5373311043 4290757319
-0.2935182452 -0.1250466853 0.5374340415 4290823112
-0.2935742438 -0.1244732887 0.5375365615 4291349456
-0.2936300039 -0.1238995716 0.5376386642 4290888907
-0.2936854959 -0.1233255342 0.5377402902 4291020493
-0.2942107618 -0.1229475662 0.5387020707 4290888907
-0.2942658961 -0.1223719567 0.5388029814 4288454566
-0.2943207920 -0.1217960194 0.5389035344 4290165697
-0.2943754494 -0.1212197691 0.5390036106 4288784044
-0.2944298685 -0.1206431910 0.5391032100 4287928735
-0.2944840193 -0.1200663000 0.5392023921 4286547082
-0.2950084805 -0.1196799651 0.5401626825 4286547082
-0.2950622439 -0.1191015095 0.5402611494 4288060321
-0.2951157987 -0.1185227409 0.5403591394 4289045933
-0.2956398427 -0.1181317717 0.5413187146 4288190624
-0.2956929803 -0.1175514534 0.5414160490 4287203729
-0.2962168157 -0.1171570793 0.5423751473 4286874764
-0.2962695658 -0.1165752113 0.5424717069 4287072397
-0.2963220477 -0.1159930378 0.5425678492 4287269776
-0.2963742912 -0.1154105514 0.5426635146 4288585636
-0.2964262962 -0.1148277596 0.5427587032 4289572531
-0.2969494164 -0.1144262850 0.5437165499 4289967289
-0.2970010042 -0.1138419583 0.5438110232 4289638324
-0.2975238562 -0.1134370938 0.5447683930 4289309359
-0.2975750566 -0.1128512248 0.5448620915 4290296254
-0.2980976701 -0.1124429777 0.5458189845 4291151563
-0.2986201942 -0.1120325625 0.5467756987 4290954184
-0.2991425991 -0.1116199940 0.5477322936 4290954183
-0.2996649444 -0.1112052649 0.5486887097 4291151562
-0.3001872003 -0.1107883751 0.5496449471 4290099391
-0.3011814356 -0.1105425954 0.5514653921 4290559942
-0.3017035723 -0.1101204529 0.5524214506 4290230977
-0.3022256196 -0.1096961573 0.5533772707 4290230977
-0.3027475476 -0.1092696935 0.5543329716 4288980908
-0.3032693863 -0.1088410765 0.5552884936 4290099389
-0.3037911355 -0.1084102988 0.5562437773 4289244080
-0.3047853112 -0.1081450284 0.5580641031 4290559940
-0.3053069115 -0.1077089980 0.5590192080 4291020491
-0.3058284223 -0.1072708070 0.5599740744 4291217870
-0.3068225682 -0.1069953144 0.5617943406 4292336351
-0.3073439300 -0.1065518707 0.5627489686 4292336351
-0.3083380759 -0.1062692553 0.5645692945 4290165182
-0.3051635027 -0.1663536578 0.5598952770 4288388771
-0.3033834100 -0.1647648066 0.5566291809 4285099121
-0.3020654917 -0.1634332836 0.5542111397 4284506984
-0.2998198867 -0.1616071165 0.5500910878 4283783261
-0.2984999716 -0.1602871716 0.5476694107 4284243297
-0.2994973063 -0.1602121741 0.5494992137 4287072396
-0.2981762290 -0.1588976383 0.5470753908 4288257185
-0.2977819443 -0.1580804884 0.5463519692 4288257185
-0.2969232798 -0.1570193768 0.5447765589 4287533717
-0.2960639596 -0.1559614092 0.5431999564 4287928475
-0.2961323261 -0.1553937495 0.5433253646 4288256670
-0.2952719331 -0.1543403417 0.5417467356 4288519842
-0.2954071164 -0.1532066166 0.5419948101 4287467154
-0.2950097919 -0.1523991823 0.5412658453 4286217087
-0.2950767577 -0.1518322378 0.5413886905 4285953915
-0.2946786880 -0.1510266960 0.5406582952 4285888120
-0.2942801714 -0.1502225697 0.5399271846 4284243295
-0.2943462729 -0.1496562660 0.5400484204 4283716951
-0.2939470112 -0.1488540620 0.5393158793 4285756534
-0.2940125465 -0.1482878923 0.5394361019 4288783014
-0.2936125398 -0.1474876106 0.5387022495 4286809224
-0.2936775386 -0.1469215751 0.5388214588 4285756536
-0.2932767570 -0.1461232454 0.5380861759 4285427571
-0.2933412194 -0.1455573589 0.5382044315 4286480259
-0.2929397225 -0.1447609663 0.5374677777 4287269775
-0.2930036187 -0.1441952437 0.5375849605 4287138959
-0.2930672765 -0.1436291635 0.5377017856 4287994268
-0.2931307256 -0.1430626959 0.5378181934 4289310128
-0.2927278280 -0.1422693282 0.5370789766 4288849577
-0.2927907407 -0.1417030394 0.5371944308 4288652198
-0.2923870683 -0.1409116536 0.5364538431 4288454819
-0.2924494445 -0.1403455287 0.5365682244 4288191647
-0.2925115526 -0.1397790611 0.5366821885 4287994268
-0.2925734520 -0.1392122209 0.5367957950 4287928475
-0.2921684086 -0.1384239048 0.5360526443 4287862682
-0.2922297716 -0.1378572434 0.5361652374 4287796889
-0.2922908962 -0.1372902393 0.5362773538 4287731096
-0.2918847799 -0.1365044713 0.5355322361 4287599510
-0.2919453681 -0.1359376609 0.5356433988 4287599510
-0.2920057178 -0.1353705078 0.5357541442 4287665303
-0.2920658290 -0.1348029971 0.5358644128 4287796889
-0.2916583419 -0.1340203583 0.5351167917 4288059291
-0.2917179167 -0.1334530562 0.5352260470 4288125084
-0.2917772532 -0.1328854114 0.5353349447 4288191392
-0.2918363512 -0.1323174089 0.5354434252 4288257185
-0.2918952405 -0.1317490786 0.5355514288 4288651943
-0.2919538915 -0.1311803907 0.5356590748 4288717736
-0.2920123339 -0.1306113750 0.5357662439 4288848807
-0.2920705080 -0.1300420016 0.5358729959 4288914600
-0.2925966382 -0.1296797842 0.5368382931 4289111979
-0.2926544547 -0.1291088313 0.5369443893 4289177772
-0.2927120328 -0.1285375357 0.5370500684 4289178287
-0.2927694023 -0.1279659122 0.5371552706 4289309873
-0.2928265333 -0.1273939461 0.5372601151 4289243565
-0.2928834260 -0.1268216372 0.5373644829 4289506737
-0.2929400802 -0.1262490153 0.5374684334 4289244080
-0.2929964960 -0.1256760359 0.5375719666 4289375666
-0.2930526733 -0.1251027435 0.5376750231 4288783529
-0.2931086421 -0.1245291233 0.5377776623 4289046701
-0.2931643426 -0.1239551678 0.5378798842 4289046701
-0.2932198048 -0.1233808920 0.5379816890 4289770424
-0.2937442958 -0.1230027750 0.5389439464 4290494147
-0.2937994003 -0.1224269271 0.5390450358 4288322978
-0.2938542366 -0.1218507588 0.5391457081 4289968318
-0.2939088643 -0.1212742627 0.5392459035 4288191907
-0.2939632237 -0.1206974462 0.5393456817 4288060321
-0.2940173745 -0.1201203167 0.5394449830 4287270805
-0.2945410311 -0.1197338253 0.5404057503 4287336598
-0.2945947647 -0.1191551313 0.5405043960 4288389286
-0.2951182127 -0.1187652424 0.5414647460 4289703863
-0.2951715589 -0.1181849912 0.5415626168 4289440691
-0.2952246666 -0.1176044345 0.5416600108 4289703863
-0.2957476974 -0.1172099039 0.5426197052 4289572277
-0.2958004177 -0.1166277900 0.5427163839 4289572531
-0.2958528697 -0.1160453707 0.5428126454 4289967289
-0.2959050834 -0.1154626384 0.5429084301 4290756805
-0.2964275777 -0.1150622442 0.5438670516 4290888391
-0.2964793742 -0.1144779697 0.5439621210 4291085770
-0.2970016003 -0.1140741780 0.5449202657 4291019977
-0.2970530093 -0.1134883687 0.5450145602 4290756805
-0.2975749969 -0.1130811796 0.5459722877 4290822598
-0.2976259887 -0.1124938354 0.5460658669 4290033081
-0.2981477380 -0.1120832562 0.5470231175 4289572530
-0.2986693680 -0.1116705164 0.5479801893 4289638323
-0.2991909385 -0.1112556159 0.5489371419 4290625218
-0.3001836538 -0.1110128239 0.5507584810 4289770424
-0.3011764288 -0.1107660159 0.5525799990 4290691526
-0.3012264669 -0.1101703644 0.5526717901 4289770424
-0.3017477393 -0.1097458825 0.5536281466 4290099389
-0.3027404547 -0.1094897985 0.5554495454 4290099389
-0.3032615781 -0.1090600640 0.5564057231 4291020491
-0.3037826121 -0.1086281762 0.5573616624 4290823112
-0.3043035567 -0.1081941202 0.5583174229 4290757319
-0.3052962422 -0.1079247147 0.5601387620 4289375666
-0.3058170378 -0.1074854061 0.5610942841 4289902010
-0.3063377440 -0.1070439368 0.5620496273 4291875800
-0.3073303998 -0.1067643017 0.5638709068 4292336351
-0.3083231151 -0.1064806357 0.5656922460 4290428354
-0.3060616851 -0.1671839505 0.5626897812 4288191392
-0.3038944900 -0.1647586226 0.5587053895 4287072911
-0.3021157384 -0.1631771326 0.5554352403 4284967535
-0.3007986844 -0.1618513316 0.5530138612 4284045918
-0.2999436259 -0.1607785523 0.5514418483 4284309090
-0.2986249328 -0.1594616920 0.5490174294 4286678408
-0.2977684438 -0.1583961099 0.5474427938 4288323233
-0.2973745167 -0.1575791240 0.5467185974 4286217857
-0.2965168655 -0.1565189511 0.5451417565 4286415236
-0.2970488071 -0.1561929584 0.5461197495 4286941325
-0.2952631116 -0.1546508968 0.5428367853 4287204497
-0.2953308821 -0.1540831178 0.5429613590 4287336085
-0.2949346900 -0.1532739550 0.5422329903 4287599257
-0.2950019240 -0.1527062804 0.5423565507 4287928220
-0.2946049869 -0.1518990248 0.5416268110 4288191392
-0.2942076027 -0.1510931700 0.5408962369 4288060061
-0.2942739427 -0.1505261362 0.5410182476 4287533717
-0.2938758433 -0.1497221887 0.5402863026 4287270027
-0.2939416468 -0.1491552889 0.5404072404 4287533199
-0.2935427725 -0.1483532637 0.5396739244 4288520094
-0.2936080098 -0.1477864981 0.5397939086 4286151546
-0.2932083905 -0.1469864100 0.5390592217 4285164397
-0.2928083241 -0.1461877525 0.5383237004 4285690741
-0.2928727269 -0.1456216425 0.5384420753 4286282880
-0.2924719155 -0.1448249370 0.5377052426 4285032813
-0.2925357819 -0.1442589909 0.5378226042 4285494134
-0.2925994098 -0.1436926723 0.5379396081 4286744201
-0.2926627994 -0.1431259960 0.5380561352 4289375919
-0.2922606170 -0.1423323005 0.5373167396 4289310126
-0.2923234701 -0.1417657882 0.5374322534 4289441712
-0.2923860848 -0.1411989033 0.5375474095 4289441712
-0.2919828296 -0.1404077262 0.5368060470 4289639093
-0.2920449078 -0.1398410350 0.5369201303 4289639093
-0.2921067774 -0.1392739713 0.5370339155 4289639093
-0.2921684086 -0.1387065500 0.5371472239 4289639093
-0.2917637229 -0.1379184425 0.5364032388 4289507505
-0.2918248177 -0.1373512149 0.5365155339 4289573298
-0.2918856740 -0.1367836297 0.5366274118 4289441971
-0.2914799452 -0.1359980851 0.5358814597 4289376178
-0.2915402651 -0.1354306936 0.5359923840 4289441714
-0.2916003466 -0.1348629594 0.5361028314 4289441714
-0.2916601896 -0.1342948675 0.5362128615 4289441714
-0.2917198241 -0.1337264329 0.5363224745 4289375921
-0.2913123667 -0.1329445988 0.5355733633 4289375921
-0.2913714349 -0.1323763728 0.5356819630 4289310128
-0.2914302647 -0.1318078041 0.5357901454 4289178542
-0.2914888859 -0.1312388927 0.5358979106 4289310128
-0.2915472686 -0.1306696385 0.5360052586 4289440942
-0.2916054130 -0.1301000416 0.5361121893 4289506735
-0.2921307385 -0.1297376901 0.5370779634 4289638321
-0.2921885252 -0.1291664988 0.5371842384 4289572528
-0.2922460735 -0.1285949647 0.5372900367 4289375921
-0.2923034132 -0.1280231029 0.5373954177 4289441714
-0.2923604846 -0.1274509132 0.5375003219 4289835702
-0.2924173474 -0.1268783808 0.5376048684 4288388256
-0.2924739420 -0.1263055056 0.5377089381 4286743431
-0.2925303280 -0.1257323027 0.5378125906 4287401361
-0.2925864756 -0.1251587719 0.5379158258 4286283650
-0.2926423848 -0.1245849133 0.5380186439 4287336338
-0.2926980555 -0.1240107268 0.5381209850 4289375666
-0.2927534878 -0.1234362125 0.5382229090 4290165182
-0.2932772040 -0.1230579466 0.5391857028 4290954698
-0.2933322489 -0.1224818602 0.5392869115 4288520357
-0.2933870554 -0.1219054535 0.5393877029 4290626248
-0.2934416533 -0.1213287190 0.5394880176 4289441974
-0.2934959829 -0.1207516640 0.5395879149 4289968318
-0.2935500741 -0.1201742887 0.5396873951 4290034111
-0.2940729558 -0.1197876483 0.5406486988 4290165697
-0.2941266596 -0.1192087159 0.5407474637 4290494662
-0.2946493030 -0.1188186705 0.5417083502 4291019723
-0.2947026193 -0.1182381809 0.5418063402 4291546067
-0.2947556973 -0.1176573783 0.5419039130 4291612114
-0.2952779531 -0.1172626838 0.5428640842 4290296254
-0.2953306139 -0.1166803315 0.5429608822 4289901496
-0.2953830361 -0.1160976663 0.5430572629 4290164668
-0.2954352200 -0.1155146956 0.5431531668 4289901496
-0.2959569097 -0.1151141301 0.5441123247 4289309359
-0.2960087061 -0.1145296171 0.5442075133 4288783015
-0.2965301573 -0.1141256541 0.5451661944 4288848808
-0.2970515192 -0.1137195379 0.5461247563 4288256671
-0.2971027195 -0.1131322458 0.5462188721 4287796120
-0.2976238430 -0.1127227321 0.5471769571 4287993498
-0.2976746261 -0.1121339053 0.5472702980 4289572530
-0.2981955111 -0.1117209941 0.5482279062 4289243565
-0.2987162769 -0.1113059297 0.5491853952 4289243565
-0.2997074723 -0.1110630482 0.5510076284 4289375152
-0.3006987274 -0.1108161435 0.5528300405 4290625219
-0.3012193739 -0.1103927195 0.5537872910 4290757319
-0.3017399311 -0.1099671349 0.5547443032 4290691526
-0.3022603989 -0.1095393896 0.5557011366 4291020491
-0.3027807474 -0.1091094837 0.5566578507 4290888905
-0.3037719727 -0.1088461652 0.5584802032 4290165182
-0.3042922020 -0.1084109992 0.5594366193 4289507252
-0.3048123121 -0.1079736650 0.5603928566 4289770424
-0.3058035076 -0.1077001244 0.5622151494 4290099389
-0.3063234985 -0.1072575301 0.5631711483 4292007386
-0.3068433702 -0.1068127751 0.5641269088 4292270558
-0.3083059490 -0.1066921279 0.5668158531 4290230975
-0.3742567897 -0.2056193948 0.6894733310 4286415494
-0.3074896038 -0.1676782221 0.5664716959 4287467669
-0.3038682044 -0.1650814563 0.5598001480 4287993498
-0.3020924926 -0.1634984314 0.5565288663 4288256670
-0.3003156781 -0.1619220823 0.5532555580 4287203980
-0.3008484542 -0.1615935415 0.5542370677 4285427569
-0.2981455326 -0.1595314741 0.5492576361 4286809224
-0.2972905040 -0.1584654450 0.5476824641 4288125084
-0.2968972623 -0.1576481313 0.5469580293 4284572262
-0.2955784798 -0.1563428640 0.5445284843 4285953915
-0.2965721786 -0.1562614292 0.5463591218 4286217087
-0.2952522039 -0.1549616009 0.5439274311 4287335568
-0.2948571444 -0.1541507244 0.5431995988 4287796889
-0.2944616675 -0.1533412337 0.5424709916 4288257440
-0.2945288420 -0.1527733505 0.5425947309 4288257440
-0.2941325903 -0.1519657671 0.5418647528 4288389026
-0.2937358916 -0.1511595845 0.5411339998 4288190877
-0.2938022017 -0.1505923271 0.5412561297 4287927705
-0.2934047878 -0.1497880518 0.5405240059 4288190877
-0.2934705317 -0.1492209285 0.5406451225 4288256670
-0.2926086485 -0.1481837481 0.5390573144 4288586405
-0.2931375802 -0.1478516012 0.5400317311 4288783784
-0.2927386463 -0.1470512003 0.5392968059 4288651428
-0.2923392951 -0.1462522000 0.5385611057 4288783014
-0.2924036384 -0.1456858814 0.5386795998 4288585635
-0.2924677730 -0.1451191902 0.5387977362 4286546052
