VERSION 0.7
FIELDS x y z rgba
SIZE 4 4 4 4
TYPE F F F U
COUNT 1 1 1 1
WIDTH 920
HEIGHT 1
VIEWPOINT 0.0 0.0 0.0 1.0 0.0 0.0 0.0
POINTS 920
DATA ascii
-0.2771753371 -0.1296982318 0.5044325590 4281681524
-0.2772331238 -0.1291646957 0.5045377016 4281681524
-0.2772906721 -0.1286308169 0.5046424270 4281681524
-0.2768779397 -0.1278795004 0.5038912892 4281681524
-0.2774051428 -0.1275620759 0.5048508048 4281615731
-0.2774620652 -0.1270271987 0.5049543381 4281615731
-0.2775187492 -0.1264920086 0.5050575137 4281681524
-0.2775752246 -0.1259564757 0.5051603317 4281615731
-0.2776314914 -0.1254206300 0.5052627325 4281615731
-0.2776875496 -0.1248844489 0.5053647161 4281615731
-0.2777433693 -0.1243479475 0.5054663420 4281812856
-0.2777989805 -0.1238111258 0.5055675507 4281681270
-0.2778543830 -0.1232739761 0.5056683421 4281812856
-0.2779095471 -0.1227365062 0.5057687759 4281812856
-0.2779645026 -0.1221987233 0.5058687925 4281681783
-0.2780192494 -0.1216606200 0.5059683919 4281747576
-0.2780737579 -0.1211221963 0.5060675740 4281747576
-0.2781280577 -0.1205834597 0.5061663985 4281615990
-0.2781821191 -0.1200444028 0.5062648058 4281944442
-0.2782359719 -0.1195050403 0.5063627958 4282010235
-0.2782895863 -0.1189653575 0.5064604282 4282010235
-0.2783429921 -0.1184253693 0.5065575838 4282010235
-0.2783961892 -0.1178850681 0.5066543818 4282076028
-0.2789210975 -0.1175433472 0.5076096654 4282076028
-0.2785018981 -0.1168035418 0.5068467259 4282141307
-0.2785544097 -0.1162623167 0.5069423318 4282141307
-0.2786066830 -0.1157207862 0.5070374608 4282207100
-0.2786587477 -0.1151789501 0.5071322322 4282207100
-0.2791830003 -0.1148311123 0.5080862641 4282142075
-0.2787622213 -0.1140943691 0.5073205233 4282207868
-0.2792861760 -0.1137440875 0.5082740784 4282470270
-0.2793374062 -0.1132001281 0.5083673000 4282470270
-0.2793884277 -0.1126558706 0.5084601641 4282404477
-0.2794392407 -0.1121113151 0.5085526109 4282404477
-0.2799627185 -0.1117552370 0.5095052719 4282601856
-0.2800131440 -0.1112091616 0.5095970631 4282601856
-0.2800633311 -0.1106628031 0.5096884370 4282667649
-0.2801132798 -0.1101161391 0.5097793341 4282667649
-0.2801630199 -0.1095691919 0.5098698735 4282667649
-0.2806858718 -0.1092061102 0.5108213425 4282667649
-0.2807352245 -0.1086576506 0.5109112263 4282733442
-0.2807843387 -0.1081089079 0.5110005736 4282799235
-0.2808332443 -0.1075598747 0.5110895634 4282733442
-0.2813555598 -0.1071910188 0.5120401382 4282799235
-0.2814040780 -0.1066404879 0.5121284723 4282865028
-0.2819261849 -0.1062682718 0.5130786300 4282930821
-0.2819743156 -0.1057162508 0.5131661892 4282930821
-0.2820222080 -0.1051639467 0.5132533908 4282996614
-0.2825439274 -0.1047871783 0.5142028332 4282996616
-0.2830655575 -0.1044082716 0.5151522160 4282996616
-0.2831600308 -0.1032979861 0.5153241158 4283062407
-0.2832068801 -0.1027424261 0.5154094100 4283128200
-0.2842024565 -0.1025289223 0.5172212124 4283062407
-0.2837744653 -0.1018007174 0.5164422989 4282996614
-0.2842953205 -0.1014127135 0.5173901916 4282930821
-0.2843413949 -0.1008541957 0.5174740553 4282930821
-0.2843872011 -0.1002954096 0.5175575018 4283062407
-0.2844327986 -0.0997363552 0.5176404715 4282931591
-0.2854280174 -0.0995081663 0.5194516182 4282931591
-0.2849982679 -0.0987820700 0.5186695457 4283063177
-0.2855182886 -0.0983849838 0.5196159482 4283128970
-0.2865133584 -0.0981485248 0.5214268565 4283194761
-0.2865580320 -0.0975844041 0.5215081573 4283260554
-0.2861271799 -0.0968591124 0.5207240582 4283260554
-0.2871220410 -0.0966153219 0.5225346088 4283260554
-0.2881169617 -0.0963675156 0.5243452191 4283522956
-0.2881608605 -0.0957995355 0.5244251490 4283588749
-0.2886801362 -0.0953884348 0.5253701806 4283654542
-0.2897183597 -0.0945598483 0.5272596478 4283786128
-0.2902373075 -0.0941423550 0.5282040834 4283917714
-0.2902802527 -0.0935693309 0.5282822847 4284049555
-0.2912748754 -0.0933009610 0.5300923586 4284115348
-0.2913174629 -0.0927255526 0.5301699042 4284049555
-0.2918359041 -0.0923004672 0.5311133862 4284181141
-0.2923542261 -0.0918732435 0.5320566893 4284181141
-0.2928724289 -0.0914438888 0.5329997540 4284181141
-0.2933905125 -0.0910124034 0.5339426398 4284115348
-0.2934321463 -0.0904319808 0.5340183973 4283917969
-0.2939499319 -0.0899971798 0.5349606872 4283852176
-0.2944675982 -0.0895602405 0.5359027982 4283852176
-0.2949851155 -0.0891211778 0.5368446708 4283983760
-0.2959791422 -0.0888230056 0.5386537313 4283917967
-0.2960198224 -0.0882366523 0.5387277007 4283983760
-0.2974904776 -0.0880734771 0.5414041877 4283983760
-0.2984844446 -0.0877642035 0.5432131290 4284049553
-0.2990015447 -0.0873116478 0.5441541672 4284510104
-0.3004723787 -0.0871335790 0.5468309522 4285036446
-0.3014663458 -0.0868122354 0.5486398339 4285431204
-0.3024602830 -0.0864868686 0.5504487157 4285957289
-0.3044084609 -0.0864284188 0.5539942384 4286483633
-0.3034937382 -0.0855550244 0.5523295403 4286878391
-0.3054420054 -0.0854866281 0.5558751822 4287207356
-0.3064358830 -0.0851451606 0.5576839447 4287536319
-0.3079070747 -0.0849313512 0.5603613853 4287799491
-0.3089009523 -0.0845808834 0.5621701479 4287865284
-0.3098948002 -0.0842263848 0.5639788508 4287799491
-0.3113661706 -0.0839966908 0.5666565895 4288257985
-0.3123599887 -0.0836331844 0.5684652328 4288455364
-0.3138314486 -0.0833925828 0.5711431503 4288981959
-0.3148252368 -0.0830200687 0.5729517937 4287402927
-0.3158189952 -0.0826435238 0.5747603178 4285428876
-0.3168126941 -0.0822629482 0.5765687227 4285165704
-0.3173284531 -0.0817552134 0.5775073767 4287073953
-0.3015874028 -0.1921249926 0.5499718189 4281944165
-0.3002899885 -0.1906900555 0.5476058722 4282404205
-0.2989916503 -0.1892597675 0.5452382565 4282996342
-0.2967721224 -0.1872535348 0.5411907434 4283653504
-0.2954716384 -0.1858343035 0.5388191938 4283916676
-0.2955513000 -0.1852855682 0.5389644504 4283719549
-0.2947098017 -0.1841609031 0.5374299288 4283587963
-0.2934069932 -0.1827523112 0.5350541472 4283456377
-0.2925640047 -0.1816344559 0.5335168242 4283324791
-0.2917203307 -0.1805196106 0.5319783092 4283128182
-0.2913369238 -0.1796920747 0.5312791467 4283062389
-0.2900308967 -0.1782988906 0.5288975239 4282930549
-0.2905688286 -0.1780408621 0.5298784971 4282733170
-0.2892614603 -0.1766536981 0.5274943709 4282470001
-0.2888760567 -0.1758330464 0.5267915726 4282535794
-0.2884902656 -0.1750136763 0.5260879993 4282404469
-0.2867188752 -0.1733581424 0.5228577852 4282272883
-0.2877173126 -0.1733788699 0.5246784687 4282141297
-0.2864063084 -0.1720085442 0.5222877264 4282075504
-0.2860185206 -0.1711961329 0.5215805769 4282075502
-0.2851681113 -0.1701093316 0.5200297832 4282075502
-0.2847793400 -0.1693004221 0.5193207860 4282009457
-0.2843901217 -0.1684928238 0.5186110735 4282009457
-0.2840004861 -0.1676865518 0.5179005265 4281943664
-0.2836104333 -0.1668816060 0.5171892047 4281812078
-0.2836827040 -0.1663493514 0.5173209906 4281746285
-0.2832919061 -0.1655461937 0.5166082978 4281746285
-0.2829006612 -0.1647443771 0.5158948898 4281746285
-0.2820458412 -0.1636751294 0.5143360496 4281746285
-0.2821168900 -0.1631447375 0.5144655704 4281614953
-0.2817243636 -0.1623469442 0.5137497783 4281549160
-0.2813314199 -0.1615504771 0.5130332112 4281549160
-0.2814016342 -0.1610206366 0.5131612420 4281549160
-0.2805442214 -0.1599616110 0.5115976930 4281549160
-0.2806138098 -0.1594327241 0.5117246509 4281549160
-0.2802192867 -0.1586408019 0.5110051632 4281549160
-0.2802883685 -0.1581120044 0.5111311078 4281483367
-0.2803572416 -0.1575828195 0.5112567544 4281417833
-0.2799616754 -0.1567932367 0.5105353594 4281417833
-0.2800300419 -0.1562641561 0.5106600523 4281417833
-0.2796337306 -0.1554764062 0.5099373460 4281483626
-0.2792369723 -0.1546900421 0.5092138052 4281483624
-0.2793045342 -0.1541615576 0.5093370080 4281483624
-0.2789070606 -0.1533770710 0.5086121559 4281483624
-0.2785091400 -0.1525939554 0.5078865290 4281549417
-0.2781108022 -0.1518122256 0.5071601868 4281549417
-0.2786424160 -0.1515378356 0.5081295967 4281549417
-0.2782434821 -0.1507571191 0.5074020624 4281549417
-0.2778441012 -0.1499777734 0.5066738129 4281483624
-0.2779098153 -0.1494501680 0.5067936182 4281417831
-0.2779753506 -0.1489221901 0.5069131255 4281417831
-0.2775749266 -0.1481452584 0.5061829090 4281483367
-0.2781057656 -0.1478651017 0.5071509480 4281549160
-0.2777047455 -0.1470891982 0.5064196587 4281352040
-0.2773032784 -0.1463147104 0.5056875348 4281352040
-0.2778337300 -0.1460316777 0.5066548586 4281417833
-0.2774316669 -0.1452582181 0.5059216619 4281417833
-0.2770291567 -0.1444861889 0.5051876903 4281352040
-0.2775592208 -0.1442002654 0.5061542988 4281286247
-0.2766895294 -0.1431878209 0.5045682788 4281286249
-0.2762858868 -0.1424191296 0.5038322210 4281220456
-0.2763486207 -0.1418915540 0.5039466619 4281089384
-0.2759442627 -0.1411248446 0.5032092333 4281089384
-0.2760064900 -0.1405974329 0.5033227205 4281155177
-0.2756013870 -0.1398326755 0.5025840402 4281155177
-0.2756631076 -0.1393054575 0.5026965737 4281155177
-0.2761919498 -0.1390131116 0.5036609769 4281220970
-0.2762533724 -0.1384842843 0.5037729144 4281286764
-0.2758470476 -0.1377216876 0.5030319691 4281352557
-0.2759079337 -0.1371930689 0.5031430125 4281352556
-0.2759686112 -0.1366640925 0.5032536387 4281352556
-0.2764969468 -0.1363655031 0.5042170882 4281352556
-0.2765572965 -0.1358349323 0.5043271780 4281220970
-0.2766174674 -0.1353040189 0.5044369102 4281220970
-0.2766774297 -0.1347727478 0.5045462251 4281220970
-0.2767371535 -0.1342411488 0.5046551824 4281220970
-0.2767966986 -0.1337091923 0.5047637224 4281286763
-0.2768560052 -0.1331769079 0.5048719049 4281286763
-0.2764465809 -0.1324198246 0.5041252375 4281286763
-0.2765053809 -0.1318877488 0.5042324662 4281483628
-0.2765639424 -0.1313553452 0.5043393373 4281549421
-0.2766223252 -0.1308225840 0.5044457912 4281615214
-0.2766804993 -0.1302894950 0.5045518279 4281615214
-0.2767384350 -0.1297560781 0.5046575069 4281681007
-0.2767961621 -0.1292223185 0.5047627687 4281681007
-0.2768536806 -0.1286882311 0.5048676729 4281615214
-0.2769109905 -0.1281538010 0.5049721599 4281549421
-0.2769680917 -0.1276190579 0.5050762892 4281549421
-0.2770249546 -0.1270839721 0.5051800013 4281615214
-0.2770816088 -0.1265485585 0.5052833557 4281680752
-0.2771380544 -0.1260128170 0.5053862333 4281614959
-0.2771942914 -0.1254767478 0.5054888129 4281484143
-0.2772502899 -0.1249403432 0.5055909157 4281549936
-0.2773060799 -0.1244036257 0.5056926608 4281484143
-0.2773616612 -0.1238665879 0.5057939887 4281549936
-0.2774170041 -0.1233292222 0.5058949590 4281615731
-0.2774721384 -0.1227915362 0.5059955120 4281615731
-0.2775270641 -0.1222535297 0.5060956478 4281615731
-0.2780522406 -0.1219215021 0.5070533752 4281681524
-0.2781068087 -0.1213819459 0.5071528554 4281747317
-0.2776905000 -0.1206376031 0.5063936710 4281615731
-0.2777445316 -0.1200983301 0.5064921975 4281681524
-0.2777983546 -0.1195587441 0.5065903664 4281747317
-0.2778519392 -0.1190188378 0.5066880584 4281813110
-0.2779053152 -0.1184786260 0.5067853928 4281878903
-0.2779584527 -0.1179381013 0.5068823099 4281944696
-0.2780113816 -0.1173972711 0.5069788694 4281944696
-0.2780641019 -0.1168561280 0.5070749521 4282075512
-0.2781165540 -0.1163146794 0.5071706772 4282009719
-0.2781688273 -0.1157729253 0.5072659254 4282075512
-0.2782208622 -0.1152308658 0.5073608160 4282141305
-0.2782726586 -0.1146885008 0.5074552894 4282207098
-0.2787959576 -0.1143393070 0.5084096193 4282272891
-0.2788474262 -0.1137954146 0.5085034370 4282338684
-0.2788986266 -0.1132512316 0.5085968375 4282338684
-0.2789496183 -0.1127067432 0.5086897612 4282404477
-0.2790003717 -0.1121619567 0.5087823272 4282470270
-0.2790509164 -0.1116168797 0.5088745356 4282536061
-0.2791012228 -0.1110714972 0.5089662671 4282536061
-0.2796236277 -0.1107128412 0.5099189281 4282536061
-0.2796735466 -0.1101659536 0.5100099444 4282470268
-0.2797232568 -0.1096187755 0.5101006031 4282536061
-0.2802453339 -0.1092555448 0.5110526085 4282536061
-0.2798219621 -0.1085235476 0.5102806091 4282601854
-0.2803437412 -0.1081578881 0.5112320781 4282601854
-0.2803925872 -0.1076086238 0.5113211870 4282733440
-0.2809141576 -0.1072396114 0.5122722983 4282733440
-0.2809626162 -0.1066888496 0.5123606920 4282799233
-0.2814839482 -0.1063164845 0.5133113861 4282799233
-0.2815320492 -0.1057642251 0.5133991241 4282799233
-0.2820531428 -0.1053885147 0.5143494010 4282799233
-0.2825741768 -0.1050106585 0.5152994990 4282865026
-0.2826217413 -0.1044556946 0.5153862238 4282865026
-0.2826690376 -0.1039004549 0.5154725313 4282996614
-0.2827161252 -0.1033449396 0.5155583620 4282930821
-0.2827629745 -0.1027891412 0.5156437755 4282930821
-0.2832832932 -0.1024043187 0.5165926218 4282996614
-0.2838035226 -0.1020173505 0.5175413489 4282996614
-0.2838498056 -0.1014588699 0.5176257491 4282996614
-0.2838958502 -0.1009001136 0.5177096725 4282996614
-0.2839416564 -0.1003410891 0.5177932382 4283062407
-0.2839871943 -0.0997817963 0.5178762674 4283193991
-0.2845067084 -0.0993878767 0.5188236237 4283259784
-0.2850261331 -0.0989918187 0.5197708607 4283325577
-0.2850711048 -0.0984298512 0.5198528767 4283391370
-0.2851158679 -0.0978676155 0.5199344754 4283457163
-0.2856348455 -0.0974670276 0.5208808780 4283522956
-0.2866282761 -0.0972252637 0.5226925015 4283522956
-0.2871471345 -0.0968194678 0.5236387253 4283522956
-0.2867165208 -0.0960933417 0.5228534341 4283720590
-0.2872350216 -0.0956851467 0.5237990022 4283720590
-0.2877534628 -0.0952748135 0.5247443914 4283654797
-0.2882717550 -0.0948623493 0.5256895423 4283589004
-0.2887899876 -0.0944477469 0.5266345739 4283589004
-0.2893080711 -0.0940310135 0.5275793672 4283654797
-0.2898260653 -0.0936121494 0.5285239816 4283654797
-0.2903439701 -0.0931911469 0.5294684172 4283589004
-0.2908617258 -0.0927680060 0.5304126143 4283325832
-0.2913793921 -0.0923427343 0.5313566327 4283523211
-0.2918969393 -0.0919153318 0.5323004127 4283391625
-0.2919389009 -0.0913370401 0.5323769450 4283391625
-0.2924561501 -0.0909063071 0.5333201885 4283457418
-0.2929732800 -0.0904734507 0.5342632532 4283391625
-0.2934903204 -0.0900384560 0.5352060795 4283589004
-0.2935314476 -0.0894563422 0.5352810621 4283786383
-0.2940481603 -0.0890180320 0.5362233520 4283720590
-0.2950406075 -0.0887206793 0.5380331874 4283852176
-0.2965089977 -0.0885614678 0.5407109261 4284181141
-0.2975015044 -0.0882551372 0.5425208807 4284510106
-0.2975419164 -0.0876642540 0.5425944924 4284839069
-0.2980581522 -0.0872124508 0.5435359478 4285233827
-0.2990504801 -0.0868968889 0.5453455448 4285694378
-0.3005190492 -0.0867147297 0.5480235815 4286023343
-0.3015114069 -0.0863901675 0.5498332381 4286615221
-0.3025037646 -0.0860615820 0.5516428947 4286812600
-0.3044489920 -0.0859981403 0.5551902056 4286878391
-0.3054414093 -0.0856596082 0.5569999814 4286878391
-0.3064338267 -0.0853170455 0.5588097572 4287009977
-0.3064729571 -0.0847069845 0.5588811040 4287075770
-0.3074651957 -0.0843582600 0.5606905222 4287273147
-0.3084573746 -0.0840055123 0.5624998808 4287273147
-0.3094495535 -0.0836487338 0.5643091798 4287732670
-0.3109185696 -0.0834158584 0.5669880509 4288061635
-0.3119107187 -0.0830500722 0.5687973499 4287469237
-0.3133797944 -0.0828062817 0.5714763403 4285429654
-0.3138948679 -0.0823063925 0.5724156499 4285034377
-0.3148868978 -0.0819284990 0.5742246509 4285560721
-0.3158788681 -0.0815465823 0.5760335922 4287403175
-0.3021057248 -0.1922324300 0.5520351529 4281483103
-0.3003509045 -0.1905060261 0.5488285422 4281812068
-0.2985948622 -0.1887859851 0.5456197858 4282338414
-0.2968376577 -0.1870723367 0.5424088240 4282798965
-0.2937003672 -0.1844988912 0.5366761088 4283259514
-0.2956184149 -0.1851035804 0.5401809216 4283259514
-0.2929385006 -0.1828308105 0.5352839828 4283193975
-0.2916369140 -0.1814263612 0.5329055786 4283128182
-0.2912546396 -0.1805972308 0.5322070718 4283127928
-0.2904117107 -0.1794849336 0.5306667686 4283062135
-0.2895680666 -0.1783756465 0.5291252136 4282930551
-0.2901051939 -0.1781175435 0.5301067233 4282798965
-0.2887999713 -0.1767298281 0.5277216434 4282535540
-0.2879545391 -0.1756278425 0.5261768103 4282535540
-0.2875692844 -0.1748090386 0.5254728198 4282404469
-0.2862616479 -0.1734329611 0.5230834484 4282141297
-0.2872585654 -0.1734537333 0.5249050856 4282009711
-0.2859497070 -0.1720828712 0.5225133896 4281943918
-0.2851012647 -0.1709934622 0.5209630728 4281943918
-0.2847136259 -0.1701829135 0.5202546716 4281943918
-0.2843255103 -0.1693736762 0.5195455551 4281812078
-0.2839370072 -0.1685657799 0.5188356042 4281812078
-0.2835480571 -0.1677591950 0.5181248784 4281812078
-0.2831586599 -0.1669539362 0.5174133182 4281812078
-0.2832309008 -0.1664214879 0.5175453424 4281812078
-0.2828407586 -0.1656180173 0.5168324709 4281746285
-0.2824501991 -0.1648158878 0.5161187649 4281680492
-0.2815968394 -0.1637462080 0.5145594478 4281680492
-0.2821303308 -0.1634836346 0.5155342817 4281614953
-0.2812759876 -0.1624175161 0.5139731169 4281549160
-0.2808836997 -0.1616207361 0.5132563710 4281549160
-0.2809538841 -0.1610907018 0.5133845806 4281483367
-0.2800979018 -0.1600312442 0.5118204355 4281417574
-0.2801674604 -0.1595021635 0.5119475126 4281351781
-0.2797735929 -0.1587099284 0.5112278461 4281285988
-0.2798426151 -0.1581809521 0.5113539696 4281285988
-0.2799114585 -0.1576515734 0.5114797950 4281154661
-0.2799801230 -0.1571217924 0.5116052032 4281154661
-0.2795848846 -0.1563323885 0.5108830333 4281286247
-0.2791892588 -0.1555443406 0.5101600885 4281286247
-0.2787932158 -0.1547576636 0.5094363689 4281286247
-0.2788607180 -0.1542289704 0.5095597506 4281286247
-0.2784639299 -0.1534441710 0.5088346601 4281352038
-0.2780666947 -0.1526607424 0.5081088543 4281352038
-0.2776690722 -0.1518786997 0.5073822737 4281417831
-0.2781998813 -0.1516042352 0.5083522201 4281483624
-0.2778016329 -0.1508231908 0.5076245070 4281549160
-0.2774029672 -0.1500435472 0.5068959594 4281549160
-0.2774686217 -0.1495157331 0.5070160031 4281483367
-0.2775340974 -0.1489875466 0.5071356297 4281417574
-0.2771343887 -0.1482103169 0.5064052343 4281417574
-0.2776644230 -0.1479300708 0.5073738098 4281483367
-0.2767988741 -0.1469069570 0.5057922006 4281483113
-0.2773286402 -0.1466250718 0.5067601800 4281548906
-0.2769275904 -0.1458507925 0.5060273409 4281614699
-0.2774571478 -0.1455664039 0.5069950223 4281614699
-0.2770554721 -0.1447931677 0.5062609911 4281549419
-0.2771191001 -0.1442638040 0.5063772798 4281483626
-0.2771825194 -0.1437340677 0.5064932108 4281417833
-0.2767798007 -0.1429633051 0.5057572722 4281417833
-0.2755069137 -0.1411871314 0.5034313798 4281417835
-0.2756928802 -0.1396032423 0.5037711263 4281286763
-0.2753491104 -0.1383111179 0.5031430125 4281352556
-0.2758317590 -0.1340734959 0.5040249228 4281220454
-0.2758911550 -0.1335422397 0.5041334629 4281220454
-0.2759503126 -0.1330106258 0.5042415857 4281352040
-0.2760680616 -0.1319463998 0.5044566989 4281352040
-0.2762430310 -0.1303475201 0.5047764778 4281548908
-0.2764161229 -0.1287456006 0.5050927401 4281549419
-0.2765872777 -0.1271406859 0.5054054856 4281615212
-0.2767564952 -0.1255328208 0.5057147145 4281615214
-0.2769237459 -0.1239220127 0.5060203075 4281681007
-0.2770890296 -0.1223082989 0.5063223839 4281549936
-0.2775201499 -0.1179911047 0.5071101189 4281681522
-0.2776781321 -0.1163670048 0.5073988438 4281944694
-0.2783050239 -0.1149346307 0.5085443258 4282207096
-0.2784592509 -0.1133022979 0.5088261366 4282338682
-0.2790828347 -0.1118562073 0.5099656582 4282404475
-0.2791833282 -0.1107628569 0.5101492405 4282470268
-0.2797048986 -0.1104019135 0.5111023188 4282536061
-0.2798041701 -0.1093049496 0.5112836957 4282536061
-0.2803254128 -0.1089394391 0.5122361183 4282536061
-0.2803745568 -0.1083893031 0.5123259425 4282536061
-0.2804234624 -0.1078388840 0.5124153495 4282733440
-0.2809443176 -0.1074687913 0.5133670568 4282733440
-0.2805205882 -0.1067371741 0.5125927925 4282799233
-0.2815134823 -0.1065434292 0.5144070983 4282865026
-0.2815616131 -0.1059900075 0.5144950747 4282865026
-0.2816095352 -0.1054363027 0.5145826340 4282930819
-0.2816571891 -0.1048823148 0.5146697164 4282930819
-0.2821772993 -0.1045030951 0.5156201124 4282996612
-0.2822245657 -0.1039476171 0.5157064795 4282996614
-0.2822716236 -0.1033918634 0.5157924294 4282996614
-0.2823184431 -0.1028358340 0.5158779621 4283062407
-0.2828379869 -0.1024508476 0.5168273449 4283193993
-0.2833574414 -0.1020637229 0.5177765489 4283391372
-0.2834036946 -0.1015050039 0.5178610682 4283457165
-0.2834497094 -0.1009460092 0.5179451704 4283522958
-0.2834954560 -0.1003867388 0.5180287957 4283588751
-0.2835409939 -0.0998272076 0.5181120038 4283588749
-0.2840597332 -0.0994331241 0.5190598369 4283522956
-0.2845783532 -0.0990369022 0.5200075507 4283457163
-0.2850969136 -0.0986385420 0.5209550858 4283457163
-0.2856153548 -0.0982380435 0.5219024420 4283457163
-0.2851862609 -0.0975114554 0.5211183429 4283457163
-0.2857043743 -0.0971085578 0.5220651031 4283457163
-0.2862223685 -0.0967035219 0.5230116248 4283457163
-0.2876881957 -0.0966146886 0.5256901383 4283391370
-0.2867840827 -0.0957288146 0.5240380764 4283325577
-0.2882499099 -0.0956328884 0.5267165303 4283259784
-0.2882934511 -0.0950620249 0.5267961025 4283193991
-0.2888109386 -0.0946463048 0.5277417302 4283259784
-0.2893283367 -0.0942284539 0.5286871791 4283259784
-0.2898456454 -0.0938084647 0.5296323895 4283128198
-0.2898883820 -0.0932337493 0.5297104716 4282996612
-0.2908799052 -0.0929620862 0.5315222740 4283062405
-0.2909222543 -0.0923849791 0.5315997005 4283259784
-0.2914390564 -0.0919573903 0.5325440168 4283062405
-0.2914809883 -0.0913788453 0.5326206088 4283128198
-0.2919974625 -0.0909479335 0.5335643888 4283391370
-0.2925138175 -0.0905148834 0.5345079303 4283391370
-0.2930300534 -0.0900797024 0.5354512334 4283523726
-0.2935461700 -0.0896423906 0.5363943577 4283786898
-0.2940621674 -0.0892029405 0.5373371840 4284050069
-0.2950531542 -0.0889045224 0.5391480327 4284379034
-0.2955689728 -0.0884598717 0.5400905609 4284839585
-0.2965599000 -0.0881543532 0.5419012904 4285234343
-0.2970755100 -0.0877044871 0.5428435206 4285628585
-0.2980663776 -0.0873918682 0.5446540713 4285760171
-0.2985818088 -0.0869367868 0.5455958843 4285825964
-0.3000481129 -0.0867545530 0.5482752919 4285957550
-0.3010389507 -0.0864298567 0.5500858426 4286023341
-0.3020297885 -0.0861011297 0.5518963933 4286089134
-0.3030205965 -0.0857683793 0.5537068844 4286220461
-0.3040113747 -0.0854315981 0.5555173159 4286220461
-0.3050021529 -0.0850907862 0.5573277473 4286220461
-0.3059929013 -0.0847459435 0.5591381192 4286417840
-0.3069836199 -0.0843970776 0.5609484911 4286878391
-0.3079743087 -0.0840441734 0.5627587438 4287141563
-0.3089649677 -0.0836872384 0.5645689368 4287536062
-0.3099555671 -0.0833262727 0.5663790703 4287075511
-0.3114223182 -0.0830883160 0.5690592527 4285430683
-0.3128891587 -0.0828444287 0.5717396140 4284180616
-0.3134034574 -0.0823443159 0.5726794004 4284969869
-0.3143939674 -0.0819662586 0.5744892955 4285430420
-0.3153843880 -0.0815841705 0.5762991309 4287600554
-0.3052053750 -0.1952206045 0.5588332415 4281483616
-0.3029967248 -0.1931914538 0.5547891855 4281417310
-0.3007866144 -0.1911703795 0.5507425070 4281022552
-0.2990337312 -0.1894479394 0.5475329161 4281154141
-0.2968208790 -0.1874421835 0.5434811711 4281680485
-0.2936888039 -0.1848668158 0.5377463698 4282206826
-0.2919318676 -0.1831669807 0.5345293880 4282469998
-0.2910920084 -0.1820478290 0.5329915881 4282667377
-0.2902514637 -0.1809316725 0.5314525366 4282864756
-0.2898696363 -0.1801039428 0.5307533741 4282996342
-0.2890278399 -0.1789929271 0.5292121172 4282930549
-0.2886449993 -0.1781686395 0.5285111070 4282798965
-0.2878019810 -0.1770627797 0.5269675255 4282733172
-0.2874181569 -0.1762419194 0.5262647271 4282667126
-0.2865739167 -0.1751412302 0.5247189403 4282667126
-0.2857289910 -0.1740435660 0.5231718421 4282536053
-0.2862640917 -0.1737871319 0.5241516232 4282272881
-0.2849578261 -0.1724144071 0.5217598081 4282009711
-0.2845715880 -0.1716017872 0.5210526586 4281812332
-0.2837243080 -0.1705136746 0.5195012689 4281812332
-0.2834102809 -0.1691718102 0.5189263225 4281680492
-0.2834832668 -0.1686386764 0.5190599561 4281680492
-0.2830950022 -0.1678317785 0.5183490515 4281680492
-0.2822451293 -0.1667537242 0.5167928934 4281680492
-0.2818558812 -0.1659503579 0.5160801411 4281680492
-0.2819276154 -0.1654190570 0.5162115097 4281680492
-0.2806145549 -0.1640777439 0.5138072968 4281614953
-0.2807563841 -0.1630183458 0.5140669942 4281680746
-0.2803651094 -0.1622207910 0.5133506060 4281746539
-0.2804354429 -0.1616909504 0.5134792924 4281746539
-0.2793273330 -0.1587790251 0.5114503503 4281351781
-0.2793962955 -0.1582498401 0.5115766525 4281351781
-0.2790023983 -0.1574591249 0.5108554363 4281154659
-0.2790708840 -0.1569300443 0.5109808445 4281088866
-0.2791391611 -0.1564005613 0.5111058354 4281154659
-0.2782811821 -0.1553537101 0.5095348954 4281088866
-0.2788119912 -0.1550828367 0.5105068088 4281023073
-0.2784163058 -0.1542963386 0.5097823143 4281088866
-0.2780202031 -0.1535112262 0.5090570450 4281154659
-0.2780871689 -0.1529824585 0.5091796517 4281154659
-0.2776903212 -0.1521992236 0.5084530115 4281154402
-0.2772930861 -0.1514173746 0.5077256560 4281220195
-0.2773592174 -0.1508892328 0.5078467131 4281220195
-0.2769612372 -0.1501092762 0.5071180463 4281285988
-0.2770268619 -0.1495812684 0.5072381496 4281285988
-0.2770922780 -0.1490528733 0.5073579550 4281351781
-0.2771574855 -0.1485241205 0.5074774027 4281285988
-0.2772225142 -0.1479949802 0.5075964332 4281285988
-0.2763583958 -0.1469714642 0.5060142279 4281351781
-0.2768873870 -0.1466894895 0.5069828033 4281417574
-0.2769517004 -0.1461601257 0.5071005821 4281417574
-0.2770158052 -0.1456304044 0.5072179437 4281483367
-0.2770797014 -0.1451003104 0.5073349476 4281549417
-0.2766783834 -0.1443272829 0.5066001415 4281549417
-0.2758115530 -0.1433140039 0.5050129294 4281483624
-0.2758745253 -0.1427854896 0.5051282644 4281483624
-0.2759372890 -0.1422566175 0.5052431822 4281417831
-0.2750689983 -0.1412493736 0.5036533475 4281417831
-0.2751311362 -0.1407215744 0.5037671328 4281352040
-0.2751930654 -0.1401934028 0.5038805008 4281352040
-0.2752548158 -0.1396648735 0.5039935708 4281417833
-0.2753163278 -0.1391360015 0.5041062236 4281417833
-0.2753776610 -0.1386067718 0.5042185187 4281417833
-0.2754387856 -0.1380771846 0.5043303967 4281483626
-0.2754997015 -0.1375472546 0.5044419169 4281549419
-0.2755604088 -0.1370169669 0.5045530796 4281483626
-0.2756208777 -0.1364863217 0.5046638846 4281483626
-0.2756811678 -0.1359553337 0.5047742128 4281483626
-0.2757412493 -0.1354240030 0.5048842430 4281483626
-0.2753344476 -0.1346640736 0.5041393638 4281483626
-0.2753940225 -0.1341329515 0.5042484403 4281483626
-0.2754533589 -0.1336014718 0.5043570995 4281483626
-0.2755124867 -0.1330696642 0.5044654012 4281352040
-0.2755714357 -0.1325375140 0.5045732856 4281352040
-0.2756301463 -0.1320050061 0.5046808124 4281417320
-0.2756886482 -0.1314721704 0.5047879219 4281417320
-0.2757469416 -0.1309389919 0.5048946738 4281483113
-0.2758050263 -0.1304054856 0.5050010085 4281483113
-0.2758628726 -0.1298716366 0.5051069260 4281483115
-0.2759205401 -0.1293374449 0.5052124858 4281483115
-0.2755102217 -0.1285846233 0.5044612288 4281614699
-0.2755673528 -0.1280506700 0.5045658350 4281548906
-0.2760922015 -0.1277329028 0.5055268407 4281614699
-0.2761490047 -0.1271973848 0.5056308508 4281614699
-0.2762055993 -0.1266615391 0.5057344437 4281549419
-0.2757937014 -0.1259115934 0.5049803257 4281549419
-0.2763181031 -0.1255888641 0.5059404373 4281615214
-0.2763740420 -0.1250520349 0.5060428381 4281615214
-0.2764297426 -0.1245148778 0.5061448812 4281681007
-0.2764852345 -0.1239774004 0.5062465072 4281746800
-0.2765405178 -0.1234395951 0.5063477159 4281615214
-0.2761267722 -0.1226931661 0.5055901408 4281549421
-0.2766504288 -0.1223630309 0.5065489411 4281680752
-0.2767050564 -0.1218242645 0.5066489577 4281680752
-0.2767594457 -0.1212851852 0.5067485571 4281614959
-0.2772828043 -0.1209504381 0.5077068210 4281680752
-0.2768675983 -0.1202060655 0.5069465637 4281615729
-0.2769213319 -0.1196660399 0.5070449710 4281549936
-0.2769748569 -0.1191256940 0.5071429610 4281615729
-0.2774976790 -0.1187860295 0.5081002712 4281615729
-0.2770812213 -0.1180440634 0.5073377490 4281812338
-0.2776038051 -0.1177019477 0.5082945824 4281878131
-0.2771867216 -0.1169611961 0.5075308681 4281878901
-0.2772391140 -0.1164193004 0.5076268315 4281878901
-0.2772912979 -0.1158770993 0.5077223778 4282010486
-0.2773432732 -0.1153345928 0.5078175068 4281944693
-0.2773950100 -0.1147917807 0.5079122782 4282141558
-0.2779167593 -0.1144423038 0.5088676214 4282207351
-0.2779681385 -0.1138979644 0.5089616776 4282207351
-0.2780192792 -0.1133533269 0.5090553164 4282338937
-0.2780701816 -0.1128083840 0.5091485381 4282404730
-0.2781208754 -0.1122631431 0.5092413425 4282404730
-0.2786420286 -0.1119066402 0.5101955533 4282404475
-0.2786923349 -0.1113598868 0.5102877021 4282470268
-0.2792132795 -0.1110000163 0.5112415552 4282536061
-0.2787922919 -0.1102654859 0.5104707479 4282601854
-0.2793129683 -0.1099031791 0.5114240646 4282601854
-0.2793624401 -0.1093543246 0.5115146637 4282601854
-0.2794117033 -0.1088051796 0.5116048455 4282667647
-0.2794607282 -0.1082557365 0.5116946101 4282733440
-0.2799808681 -0.1078876406 0.5126470327 4282799233
-0.2805009484 -0.1075174063 0.5135992765 4282799233
-0.2805494368 -0.1069652513 0.5136880875 4282865026
-0.2810693085 -0.1065916494 0.5146399140 4282930819
-0.2811174095 -0.1060379967 0.5147280097 4282996612
-0.2811653018 -0.1054840609 0.5148156881 4283128198
-0.2812129259 -0.1049298346 0.5149029493 4283193991
-0.2817322612 -0.1045504659 0.5158538222 4283259784
-0.2822514772 -0.1041689441 0.5168045163 4283325066
-0.2822985947 -0.1036120206 0.5168907642 4283259273
-0.2823454440 -0.1030548215 0.5169765353 4283259273
-0.2833365202 -0.1028401479 0.5187911987 4283325066
-0.2829107344 -0.1021100581 0.5180116296 4283391113
-0.2834293544 -0.1017206311 0.5189611912 4283456906
-0.2839478552 -0.1013290659 0.5199105740 4283456906
-0.2839937508 -0.1007676944 0.5199946165 4283391113
-0.2840394080 -0.1002060473 0.5200782418 4283391370
-0.2845575213 -0.0998099297 0.5210268497 4283325577
-0.2846027613 -0.0992468148 0.5211097002 4283193991
-0.2846477628 -0.0986834243 0.5211921334 4283062405
-0.2851654291 -0.0982827619 0.5221399665 4283062405
-0.2861559987 -0.0980420113 0.5239537358 4282996612
-0.2862004936 -0.0974750146 0.5240352154 4282930819
-0.2857716382 -0.0967475772 0.5232499242 4282865026
-0.2867619693 -0.0964994803 0.5250632763 4282668417
-0.2872790992 -0.0960890576 0.5260100961 4282668417
-0.2882694602 -0.0958338678 0.5278234482 4282865026
-0.2883130014 -0.0952618048 0.5279031992 4282865026
-0.2888298035 -0.0948449746 0.5288494825 4282930819
-0.2893465161 -0.0944260061 0.5297955275 4283062405
-0.2898630798 -0.0940048993 0.5307414532 4282997382
-0.2903795838 -0.0935816541 0.5316870809 4282997382
-0.2908959389 -0.0931562707 0.5326325893 4282800003
-0.2914122045 -0.0927287564 0.5335778594 4283128968
-0.2914544344 -0.0921492651 0.5336551666 4283325832
-0.2914963961 -0.0915695205 0.5337319970 4283589004
-0.2920121551 -0.0911374763 0.5346763730 4284049555
-0.2925278246 -0.0907033011 0.5356205702 4284246934
-0.2930433452 -0.0902669877 0.5365645289 4284444313
-0.2935587466 -0.0898285434 0.5375082493 4284773278
-0.2945483625 -0.0895321369 0.5393201709 4285102243
-0.2950635850 -0.0890884697 0.5402635932 4285365415
-0.2960531414 -0.0887849629 0.5420754552 4285562792
-0.2960936427 -0.0881947502 0.5421496630 4285694378
-0.2975576520 -0.0880254656 0.5448302031 4285694378
-0.2985471189 -0.0877108201 0.5466419458 4285562792
-0.3000113070 -0.0875306502 0.5493228436 4285496997
-0.3005260527 -0.0870694518 0.5502653718 4285496997
-0.3015154898 -0.0867427215 0.5520770550 4285562790
-0.3025049269 -0.0864119604 0.5538887382 4285628583
-0.3034943640 -0.0860771686 0.5557003617 4285760423
-0.3044837415 -0.0857383460 0.5575119853 4285892009
-0.3049980402 -0.0852626786 0.5584536195 4285957289
-0.3064624667 -0.0850486010 0.5611349940 4286220461
-0.3079269826 -0.0848285854 0.5638165474 4286681010
-0.3065400422 -0.0838228911 0.5612770319 4286812596
-0.3089550138 -0.0838547274 0.5656988621 4286286252
-0.3094687760 -0.0833645985 0.5666396022 4285365150
-0.3109332621 -0.0831265450 0.5693210959 4284246924
-0.3123978376 -0.0828825533 0.5720027089 4284378510
-0.3129113615 -0.0823822170 0.5729429722 4285364627
-0.3139003217 -0.0820039958 0.5747538209 4285562006
-0.3083749712 -0.1976499408 0.5657873750 4281548896
-0.3020520508 -0.1929815859 0.5541865230 4281417310
-0.2998454273 -0.1909605414 0.5501379967 4281022552
-0.2976374030 -0.1889475733 0.5460867882 4280890969
-0.2954279184 -0.1869427115 0.5420330167 4281088348
-0.2936751842 -0.1852349341 0.5388171673 4281351517
-0.2923795283 -0.1838216633 0.5364399552 4281614689
-0.2910829186 -0.1824131161 0.5340610147 4281943656
-0.2902439237 -0.1812956631 0.5325216651 4282272621
-0.2894042432 -0.1801812053 0.5309810638 4282470001
-0.2881051004 -0.1787850708 0.5285975337 4282601587
-0.2886406183 -0.1785289794 0.5295799971 4282733173
-0.2891761661 -0.1782707274 0.5305626392 4282733173
-0.2874161005 -0.1765997857 0.5273333788 4282733173
-0.2865733802 -0.1754978150 0.5257872343 4282667380
-0.2861893773 -0.1746792346 0.5250826478 4282601333
-0.2853454351 -0.1735824496 0.5235342383 4282403954
-0.2858796716 -0.1733246595 0.5245144367 4282206575
-0.2845750153 -0.1719535440 0.5221207142 4282009196
-0.2841891348 -0.1711410582 0.5214127898 4281943405
-0.2833428681 -0.1700538248 0.5198600888 4281943405
-0.2829560339 -0.1692448407 0.5191503167 4281746539
-0.2830289602 -0.1687115133 0.5192841291 4281746539
-0.2826413810 -0.1679043025 0.5185730457 4281614953
-0.2822533846 -0.1670984179 0.5178611279 4281549160
-0.2818649411 -0.1662938744 0.5171484351 4281549160
-0.2814760506 -0.1654906422 0.5164349675 4281483367
-0.2815475762 -0.1649587452 0.5165661573 4281549160
-0.2806970477 -0.1638882160 0.5150056481 4281614953
-0.2812289596 -0.1636254787 0.5159815550 4281614953
-0.2803774476 -0.1625585109 0.5144193172 4281746539
-0.2804478109 -0.1620276123 0.5145484209 4281878125
-0.2805179954 -0.1614963114 0.5146771669 4281943918
-0.2792035043 -0.1601703763 0.5122653842 4281878125
-0.2792729437 -0.1596409082 0.5123928189 4281746539
-0.2788804770 -0.1588480473 0.5116727352 4281614953
-0.2789494097 -0.1583186686 0.5117992163 4281549160
-0.2790181339 -0.1577889025 0.5119253397 4281417833
-0.2786246240 -0.1569983661 0.5112032890 4281286247
-0.2786928415 -0.1564687043 0.5113285184 4281286245
-0.2782985866 -0.1556800306 0.5106051564 4281220452
-0.2779039145 -0.1548927277 0.5098810196 4281088866
-0.2779713273 -0.1543636620 0.5100046992 4281088866
-0.2775759101 -0.1535782218 0.5092792511 4281154659
-0.2771801054 -0.1527941823 0.5085529685 4281088866
-0.2767838240 -0.1520115137 0.5078259706 4281022816
-0.2773130834 -0.1517368704 0.5087969899 4281022816
-0.2769162059 -0.1509552151 0.5080688000 4281022816
-0.2765189111 -0.1501749456 0.5073398948 4281088609
-0.2765845060 -0.1496467441 0.5074602365 4281088609
-0.2766498625 -0.1491181552 0.5075801611 4281154402
-0.2767150402 -0.1485891938 0.5076997280 4281154402
-0.2767800093 -0.1480598599 0.5078189373 4281088609
-0.2763810754 -0.1472830325 0.5070869923 4281088607
-0.2764455378 -0.1467538476 0.5072052479 4281088607
-0.2765097916 -0.1462242901 0.5073231459 4281023073
-0.2761098146 -0.1454499066 0.5065892935 4281088866
-0.2757093906 -0.1446769387 0.5058546066 4281154659
-0.2762371004 -0.1443907320 0.5068228245 4281220452
-0.2758360803 -0.1436188072 0.5060870647 4281286245
-0.2754346132 -0.1428483129 0.5053505301 4281286245
-0.2754973471 -0.1423192322 0.5054655671 4281286245
-0.2750951648 -0.1415506899 0.5047277212 4281286245
-0.2746925950 -0.1407835633 0.5039890409 4281286247
-0.2752193809 -0.1404925138 0.5049555898 4281286247
-0.2748161852 -0.1397264749 0.5042158365 4281352040
-0.2748776674 -0.1391973794 0.5043286085 4281417833
-0.2754041553 -0.1389025748 0.5052946210 4281483626
-0.2750000060 -0.1381381601 0.5045531392 4281549419
-0.2750608921 -0.1376080066 0.5046647787 4281680746
-0.2751215398 -0.1370775104 0.5047760606 4281680746
-0.2751820087 -0.1365466714 0.5048869848 4281614953
-0.2752422392 -0.1360154748 0.5049975514 4281614953
-0.2753022611 -0.1354839355 0.5051077008 4281680492
-0.2753621042 -0.1349520385 0.5052174330 4281746285
-0.2749556899 -0.1341923624 0.5044717789 4281746798
-0.2750149965 -0.1336606741 0.5045806170 4281746798
-0.2750740945 -0.1331286579 0.5046890378 4281681005
-0.2751329839 -0.1325962842 0.5047970414 4281681005
-0.2751916647 -0.1320635825 0.5049046874 4281746800
-0.2752501070 -0.1315305382 0.5050119758 4281746800
-0.2753083706 -0.1309971511 0.5051188469 4281746800
-0.2753663957 -0.1304634213 0.5052253604 4281746800
-0.2754242420 -0.1299293488 0.5053314567 4281746800
-0.2754818499 -0.1293949634 0.5054371357 4281746800
-0.2755392492 -0.1288602203 0.5055424571 4281680492
-0.2751293182 -0.1281076521 0.5047903657 4281680492
-0.2756533921 -0.1277897656 0.5057519078 4281746285
-0.2752428353 -0.1270383447 0.5049986243 4281746285
-0.2752992809 -0.1265031844 0.5051022172 4281681005
-0.2753555179 -0.1259677112 0.5052053928 4281746798
-0.2754115462 -0.1254318953 0.5053081512 4281746800
-0.2759350240 -0.1251078099 0.5062686205 4281681007
-0.2755229175 -0.1243593022 0.5055124760 4281681007
-0.2755782902 -0.1238225177 0.5056141019 4281746800
-0.2756334245 -0.1232854128 0.5057152510 4281746800
-0.2756883502 -0.1227479875 0.5058160424 4281812593
-0.2762112319 -0.1224177256 0.5067753792 4281944179
-0.2762658000 -0.1218787357 0.5068755150 4281944179
-0.2763201594 -0.1213394403 0.5069752336 4281878386
-0.2763743103 -0.1207998171 0.5070745945 4281944179
-0.2764282525 -0.1202598810 0.5071735382 4281747314
-0.2764819562 -0.1197196320 0.5072720647 4281813107
-0.2770041227 -0.1193810627 0.5082301497 4282009972
-0.2770574689 -0.1188392639 0.5083280206 4282075765
-0.2771106064 -0.1182971597 0.5084254742 4282075765
-0.2771635056 -0.1177547351 0.5085225701 4282141558
-0.2772161961 -0.1172120124 0.5086192489 4282141558
-0.2767995000 -0.1164715588 0.5078547001 4282075765
-0.2768516541 -0.1159291342 0.5079503655 4282141556
-0.2769035697 -0.1153864041 0.5080456734 4282141556
-0.2769552767 -0.1148433611 0.5081405044 4282272629
-0.2770067453 -0.1143000200 0.5082349777 4282404215
-0.2770580053 -0.1137563810 0.5083289742 4282470008
-0.2775787115 -0.1134043187 0.5092843175 4282601594
-0.2776295841 -0.1128591523 0.5093776584 4282602107
-0.2776802480 -0.1123136878 0.5094706416 4282602107
-0.2777306736 -0.1117679253 0.5095631480 4282602109
-0.2782509029 -0.1114100590 0.5105175972 4282602109
-0.2783009410 -0.1108627766 0.5106094480 4282601854
-0.2788209617 -0.1105015427 0.5115635395 4282667647
-0.2788706422 -0.1099527478 0.5116547346 4282733440
-0.2789201140 -0.1094036624 0.5117454529 4282733440
-0.2789693475 -0.1088542864 0.5118357539 4282865281
-0.2790183127 -0.1083046198 0.5119256377 4282931074
-0.2795377076 -0.1079363674 0.5128785372 4283062405
-0.2795863152 -0.1073851958 0.5129677653 4283062405
-0.2801054418 -0.1070135906 0.5139202476 4282996612
-0.2801536918 -0.1064609215 0.5140087605 4282996612
-0.2802016735 -0.1059079617 0.5140967965 4282996614
-0.2807204425 -0.1055317819 0.5150486231 4282996614
-0.2812391520 -0.1051534638 0.5160002708 4283062405
-0.2812865973 -0.1045977995 0.5160873532 4283062405
-0.2813338041 -0.1040418521 0.5161739588 4283127941
-0.2818521261 -0.1036589667 0.5171249509 4283062148
-0.2823703587 -0.1032739356 0.5180757642 4282930562
-0.2824170291 -0.1027152911 0.5181613564 4282864769
-0.2824634314 -0.1021563634 0.5182465315 4282930562
-0.2829812765 -0.1017667800 0.5191966295 4282930562
-0.2830272913 -0.1012063697 0.5192810893 4282733440
-0.2835448682 -0.1008134335 0.5202306509 4282601854
-0.2835904956 -0.1002515554 0.5203143954 4282733440
-0.2836358845 -0.0996893942 0.5203976631 4282733440
-0.2836810052 -0.0991269723 0.5204804540 4282733440
-0.2841980159 -0.0987282768 0.5214290023 4282667647
-0.2847149074 -0.0983274430 0.5223773718 4282667647
-0.2847594619 -0.0977623463 0.5224591494 4282667647
-0.2852761149 -0.0973581746 0.5234070420 4282601854
-0.2857926488 -0.0969518572 0.5243547559 4282536061
-0.2863090634 -0.0965434089 0.5253022909 4282602624
-0.2868254185 -0.0961328149 0.5262496471 4282602624
-0.2873416543 -0.0957200825 0.5271967649 4282668417
-0.2878577709 -0.0953052118 0.5281437635 4282734210
-0.2883737981 -0.0948882028 0.5290905237 4282865796
-0.2888897359 -0.0944690555 0.5300371051 4282997382
-0.2894055247 -0.0940477699 0.5309834480 4283194760
-0.2894482911 -0.0934716165 0.5310618877 4283326346
-0.2904368341 -0.0931987837 0.5328756571 4283589518
-0.2904792130 -0.0926202312 0.5329533815 4283852690
-0.2909944952 -0.0921913385 0.5338988304 4284246932
-0.2910364568 -0.0916113406 0.5339757800 4284378518
-0.2910781503 -0.0910310969 0.5340523124 4284707483
-0.2915929556 -0.0905976743 0.5349968076 4284839069
-0.2921076417 -0.0901621208 0.5359411240 4284773276
-0.2926222086 -0.0897244290 0.5368852615 4284970655
-0.2931366563 -0.0892845988 0.5378291011 4284970655
-0.2941246033 -0.0889859349 0.5396417379 4285036448
-0.2946388721 -0.0885408968 0.5405852795 4285102239
-0.2961005270 -0.0883765221 0.5432670116 4285102239
-0.2966146469 -0.0879253149 0.5442103148 4285036446
-0.2971286476 -0.0874719769 0.5451533794 4284970653
-0.2981164753 -0.0871550664 0.5469657779 4284970653
-0.2995783091 -0.0869717374 0.5496478677 4285036446
-0.3005661666 -0.0866458118 0.5514603257 4285102493
-0.3015540242 -0.0863158628 0.5532727838 4285299872
-0.3025418520 -0.0859818757 0.5550851822 4285431458
-0.3035296500 -0.0856438577 0.5568975210 4285628837
-0.3054660857 -0.0855675414 0.5604504347 4285892007
-0.3059796095 -0.0850876346 0.5613925457 4286220972
-0.3074418306 -0.0848675296 0.5640753508 4286220972
-0.3084296584 -0.0845114663 0.5658877492 4285694628
-0.3094174564 -0.0841513723 0.5677000880 4284444048
-0.3104051948 -0.0837872401 0.5695123672 4283917704
-0.3118675947 -0.0835462287 0.5721954703 4284049543
-0.3128553033 -0.0831730664 0.5740076900 4284641680
-0.3138429821 -0.0827958658 0.5758197904 4285365141
-0.3148306012 -0.0824146271 0.5776318312 4285825692
-0.3043066263 -0.1948190480 0.5594631433 4281351003
-0.3011903167 -0.1922087222 0.5537338853 4281285210
-0.2986102104 -0.1893422604 0.5489903688 4280890199
-0.2964039445 -0.1873378456 0.5449341536 4280890968
-0.2941962183 -0.1853415370 0.5408753157 4280890968
-0.2924447358 -0.1836407334 0.5376552343 4281022555
-0.2911498547 -0.1822329015 0.5352746248 4281219934
-0.2898540497 -0.1808297634 0.5328923464 4281483106
-0.2890153527 -0.1797161549 0.5313503742 4281877864
-0.2877178192 -0.1783216000 0.5289648771 4282338415
-0.2887107432 -0.1783472449 0.5307903290 4282601587
-0.2869535685 -0.1766756326 0.5275598168 4282733173
-0.2861122787 -0.1755732149 0.5260131359 4282601587
-0.2857289612 -0.1747543216 0.5253083706 4282470001
-0.2848864496 -0.1736571044 0.5237594247 4282338415
-0.2854198813 -0.1733992398 0.5247400999 4282272368
-0.2841173708 -0.1720275730 0.5223454833 4282140782
-0.2837322056 -0.1712147892 0.5216373801 4282074991
-0.2833465934 -0.1704033017 0.5209284425 4282140784
-0.2829605341 -0.1695931405 0.5202186704 4281878125
-0.2825740874 -0.1687842906 0.5195081830 4281812332
-0.2821871936 -0.1679767817 0.5187968612 4281614953
-0.2817998528 -0.1671705842 0.5180847645 4281483367
-0.2818719149 -0.1666375548 0.5182172656 4281483367
-0.2814838588 -0.1658331603 0.5175037980 4281417574
-0.2810953557 -0.1650300920 0.5167895555 4281417574
-0.2802462578 -0.1639591306 0.5152285099 4281483367
-0.2807773650 -0.1636963189 0.5162049532 4281417574
-0.2803877294 -0.1628964096 0.5154885650 4281483367
-0.2799976468 -0.1620978266 0.5147714019 4281614953
-0.2800677717 -0.1615663320 0.5149003267 4281812332
-0.2787554264 -0.1602398604 0.5124876499 4281943918
-0.2788248062 -0.1597101986 0.5126152039 4281943918
-0.2788940072 -0.1591801494 0.5127424598 4281812332
-0.2789629996 -0.1586496830 0.5128692985 4281680746
-0.2785705924 -0.1578574926 0.5121478438 4281615212
-0.2786391079 -0.1573271304 0.5122737885 4281549419
-0.2782459557 -0.1565367877 0.5115510225 4281483626
-0.2778523862 -0.1557478011 0.5108274221 4281483626
-0.2774583995 -0.1549602002 0.5101031065 4281417833
-0.2775257826 -0.1544309258 0.5102269650 4281352040
-0.2771310508 -0.1536451876 0.5095012784 4281285734
-0.2767359018 -0.1528608352 0.5087748170 4281154148
-0.2763403654 -0.1520778537 0.5080475807 4281154148
-0.2768688202 -0.1518031210 0.5090191364 4281154148
-0.2764726281 -0.1510211527 0.5082907677 4281088355
-0.2760760188 -0.1502405852 0.5075616241 4281022562
-0.2761415541 -0.1497121751 0.5076820850 4281022562
-0.2762068808 -0.1491833776 0.5078021884 4281022562
-0.2762720287 -0.1486542225 0.5079219341 4281022562
-0.2763369381 -0.1481246948 0.5080413222 4281022562
-0.2764016688 -0.1475947797 0.5081602931 4280957280
-0.2764661908 -0.1470645070 0.5082789063 4280891487
-0.2760673165 -0.1462884098 0.5075455904 4280957282
-0.2761313319 -0.1457582712 0.5076633096 4280891489
-0.2757317126 -0.1449840963 0.5069286227 4280825696
-0.2753317058 -0.1442113519 0.5061931610 4280891489
-0.2749312520 -0.1434400082 0.5054569840 4281023073
-0.2749941349 -0.1429110914 0.5055725574 4281088866
-0.2745929956 -0.1421416998 0.5048350692 4281220454
-0.2746553421 -0.1416129470 0.5049496889 4281154661
-0.2747175097 -0.1410838366 0.5050640106 4281219943
-0.2747794688 -0.1405543685 0.5051779151 4281219943
-0.2748412192 -0.1400245428 0.5052914619 4281154150
-0.2749027610 -0.1394943595 0.5054045916 4281154150
-0.2749640942 -0.1389638186 0.5055173635 4281285734
-0.2750861645 -0.1379016787 0.5057417750 4281154402
-0.2751468718 -0.1373700798 0.5058534145 4281220195
-0.2747425139 -0.1366069764 0.5051099658 4281154402
-0.2748027146 -0.1360755712 0.5052206516 4281088609
-0.2748627067 -0.1355438232 0.5053309202 4281220454
-0.2749224901 -0.1350117177 0.5054408312 4281220454
-0.2749820650 -0.1344792694 0.5055503845 4281286247
-0.2745760381 -0.1337198317 0.5048038960 4281417833
-0.2746351063 -0.1331876069 0.5049124956 4281483628
-0.2746939361 -0.1326550245 0.5050206780 4281483628
-0.2747525871 -0.1321220994 0.5051284432 4281549421
-0.2748109996 -0.1315888464 0.5052358508 4281483628
-0.2748692036 -0.1310552508 0.5053429008 4281483628
-0.2749271989 -0.1305213124 0.5054495335 4281483628
-0.2749849856 -0.1299870312 0.5055557489 4281549421
-0.2750425637 -0.1294524223 0.5056616068 4281615214
-0.2750999331 -0.1289174706 0.5057670474 4281615214
-0.2751570642 -0.1283821911 0.5058721304 4281615214
-0.2752139866 -0.1278465837 0.5059767962 4281681007
-0.2748041451 -0.1270948499 0.5052232742 4281681007
-0.2748605609 -0.1265594810 0.5053269863 4281681007
-0.2749167383 -0.1260237843 0.5054302812 4281746800
-0.2754395604 -0.1257008165 0.5063915253 4281877873
-0.2754954100 -0.1251635551 0.5064941645 4281812080
-0.2750840187 -0.1244147420 0.5057378411 4281877873
-0.2751393616 -0.1238777339 0.5058395267 4281877873
-0.2756616771 -0.1235498190 0.5067998171 4281943666
-0.2752493620 -0.1228027642 0.5060417652 4282009459
-0.2757714391 -0.1224723756 0.5070016384 4282009459
-0.2758259773 -0.1219331771 0.5071018934 4281943666
-0.2758803070 -0.1213936508 0.5072017908 4282009459
-0.2759883106 -0.1203136593 0.5074003339 4282075765
-0.2760419548 -0.1197731867 0.5074989796 4282009972
-0.2765633762 -0.1194344833 0.5084576011 4282141043
-0.2766166925 -0.1188924685 0.5085555911 4282206836
-0.2766697705 -0.1183501408 0.5086532235 4282141043
-0.2767226398 -0.1178074926 0.5087503791 4282206836
-0.2763069570 -0.1170661226 0.5079861879 4282273142
-0.2763593197 -0.1165237799 0.5080823898 4282207349
-0.2768799067 -0.1161777079 0.5090395212 4282338935
-0.2764633000 -0.1154381782 0.5082736015 4282338935
-0.2765149772 -0.1148949116 0.5083686113 4282470262
-0.2770351768 -0.1145451665 0.5093249679 4282536055
-0.2770864666 -0.1140003726 0.5094192624 4282470262
-0.2771375477 -0.1134552807 0.5095131993 4282536055
-0.2771883905 -0.1129098907 0.5096066594 4282470519
-0.2772389948 -0.1123641953 0.5096997619 4282404726
-0.2777585983 -0.1120074093 0.5106549859 4282404728
