VERSION 0.7
FIELDS x y z rgba
SIZE 4 4 4 4
TYPE F F F U
COUNT 1 1 1 1
WIDTH 920
HEIGHT 1
VIEWPOINT 0.0 0.0 0.0 1.0 0.0 0.0 0.0
POINTS 920
DATA ascii
-0.2573099136 -0.1137911305 0.5378589034 4281812856
-0.2573572993 -0.1132143736 0.5379579067 4281812858
-0.2578285038 -0.1128228605 0.5389429331 4281812858
-0.2582996488 -0.1124291345 0.5399277806 4281812858
-0.2583465278 -0.1118495241 0.5400257111 4281878651
-0.2583931684 -0.1112696007 0.5401231647 4281878651
-0.2588639259 -0.1108711138 0.5411072373 4281944444
-0.2593346238 -0.1104704142 0.5420911908 4282010237
-0.2598052621 -0.1100674942 0.5430749059 4282010237
-0.2598512173 -0.1094834581 0.5431709886 4282076030
-0.2603216171 -0.1090770587 0.5441542864 4282076030
-0.2603671849 -0.1084914505 0.5442495346 4282141823
-0.2608373463 -0.1080815718 0.5452322960 4282207616
-0.2608825266 -0.1074943990 0.5453267694 4282273409
-0.2613524497 -0.1070810333 0.5463090539 4282339202
-0.2618222833 -0.1066654548 0.5472911000 4282404995
-0.2622920275 -0.1062476560 0.5482730269 4282470788
-0.2627616823 -0.1058276370 0.5492547750 4282470788
-0.2632312477 -0.1054054052 0.5502363443 4282470788
-0.2637007236 -0.1049809605 0.5512176752 4282536581
-0.2641701102 -0.1045542881 0.5521988273 4282602374
-0.2646394074 -0.1041254029 0.5531798005 4282602374
-0.2651085854 -0.1036943048 0.5541605353 4282733960
-0.2655776739 -0.1032609791 0.5551410913 4282799753
-0.2660466731 -0.1028254479 0.5561214685 4282799753
-0.2669413090 -0.1025512516 0.5579915643 4282603401
-0.2678360045 -0.1022729129 0.5598617196 4282734987
-0.2687307000 -0.1019904315 0.5617319345 4282998159
-0.2691994905 -0.1015431359 0.5627118349 4283129745
-0.2705202103 -0.1014130339 0.5654725432 4283195024
-0.2714149952 -0.1011181176 0.5673429370 4283260817
-0.2727359533 -0.1009768248 0.5701041818 4283392403
-0.2736308575 -0.1006726474 0.5719748139 4283458196
-0.2749520540 -0.1005201563 0.5747365355 4283458196
-0.2762733996 -0.1003615856 0.5774985552 4283655575
-0.2775948942 -0.1001969278 0.5802608728 4284050331
-0.2789165080 -0.1000261828 0.5830234289 4284247710
-0.2806648016 -0.1000013202 0.5866779685 4284444576
-0.2819867432 -0.0998174250 0.5894412398 4284707748
-0.2837354839 -0.0997774675 0.5930966735 4284971433
-0.2846310139 -0.0994313359 0.5949685574 4285234605
-0.2859533131 -0.0992291346 0.5977326035 4285366183
-0.2872757316 -0.0990208387 0.6004968882 4285892527
-0.2881713510 -0.0986602679 0.6023690104 4286418869
-0.2894939184 -0.0984407291 0.6051335931 4286747834
-0.2903895676 -0.0980708599 0.6070057750 4287470781
-0.2912851870 -0.0976968184 0.6088778973 4288194504
-0.2921807468 -0.0973186120 0.6107499599 4289114828
-0.2926490903 -0.0967949256 0.6117289066 4289575379
-0.2926899791 -0.0961286873 0.6118143797 4290100688
-0.2927306294 -0.0954621658 0.6118993163 4291153376
-0.2931983769 -0.0949337557 0.6128770709 4292469228
-0.2803190351 -0.1901628822 0.5873187780 4285297278
-0.2799810469 -0.1892818362 0.5866106153 4285165692
-0.2796426415 -0.1884020716 0.5859015584 4285099899
-0.2793038189 -0.1875236034 0.5851916671 4285034106
-0.2789645493 -0.1866464317 0.5844808817 4284968313
-0.2782108784 -0.1854945272 0.5829017758 4284836727
-0.2774565518 -0.1843457073 0.5813213587 4284902520
-0.2767015994 -0.1831999719 0.5797395706 4284836727
-0.2755316794 -0.1817839742 0.5772883892 4284573557
-0.2727031410 -0.1792829931 0.5713620782 4284573557
-0.2740183771 -0.1795097888 0.5741177201 4284507764
-0.2703581452 -0.1764826030 0.5664489269 4284376178
-0.2687696218 -0.1748199761 0.5631206632 4284310898
-0.2671800256 -0.1731640697 0.5597901940 4284113519
-0.2655893862 -0.1715148836 0.5564574599 4283258988
-0.2644127607 -0.1701395214 0.5539922714 4282535265
-0.2636505365 -0.1690352857 0.5523952246 4281943130
-0.2624723613 -0.1676689088 0.5499266982 4281679958
-0.2608779371 -0.1660430878 0.5465861559 4281482072
-0.2617755830 -0.1660050303 0.5484668612 4281153107
-0.2601796985 -0.1643873453 0.5451232195 4280824406
-0.2598299682 -0.1635615230 0.5443904996 4280692820
-0.2590640187 -0.1624762863 0.5427856445 4280693340
-0.2587133944 -0.1616541147 0.5420510173 4280693340
-0.2583623528 -0.1608333439 0.5413155556 4280627294
-0.2580109239 -0.1600139439 0.5405791998 4280495708
-0.2572428286 -0.1589387506 0.5389699340 4280364634
-0.2577231824 -0.1586356014 0.5399764180 4280298841
-0.2569541931 -0.1575641036 0.5383651853 4280298839
-0.2570177019 -0.1570047289 0.5384982824 4280233046
-0.2566643655 -0.1561914086 0.5377579927 4280232789
-0.2567273974 -0.1556321234 0.5378900170 4280298582
-0.2563733757 -0.1548206955 0.5371482372 4280166996
-0.2560189366 -0.1540106684 0.5364056230 4280101203
-0.2560811639 -0.1534519792 0.5365360379 4280101460
-0.2557260394 -0.1526438594 0.5357919931 4280233046
-0.2557877898 -0.1520852745 0.5359213352 4280233046
-0.2554319501 -0.1512790918 0.5351758003 4280233046
-0.2546582520 -0.1502280533 0.5335547924 4280298839
-0.2547191083 -0.1496709883 0.5336822867 4280233046
-0.2543620765 -0.1488690823 0.5329342484 4280167766
-0.2544224262 -0.1483121365 0.5330607295 4280233559
-0.2540647388 -0.1475121826 0.5323112607 4280299352
-0.2541245818 -0.1469553560 0.5324366689 4280365145
-0.2537661791 -0.1461573541 0.5316857696 4280430938
-0.2538255453 -0.1456006765 0.5318101645 4280496731
-0.2538847327 -0.1450435966 0.5319341421 4280694112
-0.2535253465 -0.1442480981 0.5311811566 4280694112
-0.2535839975 -0.1436911672 0.5313040614 4280759650
-0.2536424696 -0.1431338489 0.5314265490 4280825443
-0.2537007630 -0.1425761431 0.5315486789 4280891236
-0.2533400655 -0.1417836994 0.5307929516 4280957029
-0.2533978522 -0.1412261426 0.5309140086 4280957029
-0.2534554303 -0.1406682134 0.5310346484 4280891236
-0.2535127997 -0.1401099116 0.5311548710 4281022824
-0.2531508505 -0.1393205523 0.5303964615 4281022824
-0.2532077134 -0.1387624145 0.5305156708 4280957801
-0.2532643676 -0.1382038891 0.5306343436 4281023594
-0.2529014349 -0.1374171078 0.5298739672 4281089387
-0.2529576123 -0.1368587762 0.5299916267 4281089387
-0.2530135810 -0.1363000572 0.5301088691 4281089387
-0.2530693412 -0.1357409805 0.5302256942 4281089387
-0.2531248927 -0.1351815313 0.5303421021 4281285994
-0.2527603507 -0.1343984604 0.5295783877 4281285994
-0.2528154254 -0.1338392049 0.5296937227 4281351789
-0.2524501979 -0.1330581903 0.5289285183 4281351789
-0.2525047660 -0.1324991435 0.5290428400 4281417582
-0.2529793382 -0.1321592629 0.5300371647 4281417582
-0.2530335486 -0.1315985471 0.5301507711 4281483375
-0.2530875802 -0.1310374886 0.5302639604 4281483375
-0.2531414032 -0.1304760575 0.5303766727 4281483375
-0.2531949878 -0.1299142689 0.5304890275 4281483375
-0.2532483935 -0.1293521374 0.5306008458 4281483375
-0.2533015609 -0.1287896335 0.5307123065 4281483375
-0.2533545494 -0.1282267869 0.5308232903 4281483375
-0.2534072995 -0.1276635975 0.5309338570 4281483375
-0.2530388236 -0.1268889159 0.5301617980 4281483375
-0.2535122037 -0.1265361309 0.5311536193 4281549168
-0.2535643280 -0.1259718835 0.5312628150 4281418352
-0.2536162734 -0.1254072934 0.5313716531 4281352559
-0.2536679804 -0.1248423457 0.5314799547 4281352559
-0.2541409135 -0.1244834960 0.5324708819 4281418352
-0.2541922927 -0.1239169240 0.5325785279 4281418352
-0.2546650767 -0.1235545725 0.5335690975 4281484145
-0.2547160983 -0.1229863763 0.5336759686 4281484145
-0.2551887035 -0.1226205155 0.5346661806 4281418352
-0.2552393973 -0.1220506951 0.5347723961 4281549684
-0.2552898526 -0.1214805394 0.5348780751 4281483891
-0.2553400993 -0.1209100410 0.5349833369 4281483891
-0.2553901076 -0.1203392074 0.5350881815 4281549684
-0.2554399371 -0.1197680458 0.5351925492 4281615477
-0.2554895282 -0.1191965416 0.5352964401 4281615477
-0.2559612691 -0.1188207865 0.5362848639 4281615477
-0.2560105026 -0.1182476729 0.5363880396 4281681270
-0.2560595274 -0.1176742390 0.5364907384 4281812342
-0.2561083436 -0.1171004698 0.5365929604 4281812342
-0.2565796077 -0.1167186648 0.5375803709 4281746295
-0.2566280365 -0.1161432937 0.5376818776 4281746295
-0.2566762567 -0.1155676022 0.5377829075 4281746295
-0.2567242682 -0.1149915829 0.5378834605 4281812088
-0.2567720413 -0.1144152433 0.5379835367 4281812858
-0.2572426796 -0.1140261218 0.5389696360 4281878651
-0.2572900653 -0.1134481952 0.5390689373 4281812858
-0.2577605247 -0.1130555794 0.5400545597 4281812858
-0.2578075528 -0.1124760658 0.5401531458 4281878652
-0.2582777739 -0.1120799631 0.5411382914 4281878652
-0.2583244145 -0.1114988625 0.5412361026 4281878909
-0.2587944269 -0.1110992804 0.5422208309 4281944702
-0.2592643499 -0.1106974706 0.5432053804 4282010495
-0.2597341835 -0.1102934480 0.5441897511 4282010495
-0.2597801685 -0.1097082272 0.5442861319 4282141824
-0.2602497637 -0.1093007177 0.5452700257 4282141824
-0.2602953613 -0.1087139249 0.5453655720 4282207617
-0.2607647479 -0.1083029360 0.5463489890 4282273410
-0.2608099580 -0.1077145711 0.5464437008 4282339203
-0.2612791061 -0.1073000953 0.5474266410 4282339203
-0.2621723711 -0.1070566252 0.5492982268 4282404996
-0.2626414001 -0.1066367552 0.5502809286 4282404996
-0.2626859844 -0.1060433462 0.5503743291 4282470788
-0.2631547749 -0.1056199968 0.5513564944 4282470788
-0.2636234462 -0.1051944196 0.5523384809 4282602374
-0.2640920579 -0.1047666296 0.5533202887 4282668167
-0.2645605505 -0.1043366194 0.5543019176 4282602887
-0.2650289536 -0.1039043888 0.5552833080 4282668680
-0.2654972672 -0.1034699380 0.5562644601 4282734473
-0.2659654915 -0.1030332670 0.5572454929 4282800266
-0.2672834694 -0.1029216349 0.5600068569 4282669195
-0.2681766152 -0.1026412696 0.5618781447 4282800781
-0.2690697908 -0.1023567542 0.5637495518 4282998160
-0.2699629962 -0.1020680964 0.5656209588 4283129746
-0.2708562315 -0.1017752886 0.5674924850 4283194769
-0.2721747756 -0.1016371399 0.5702550411 4283260562
-0.2730681002 -0.1013350636 0.5721267462 4283458196
-0.2748122811 -0.1013425887 0.5757811069 4283589782
-0.2761312723 -0.1011861861 0.5785446167 4283589780
-0.2774504125 -0.1010236964 0.5813084245 4283852952
-0.2783440650 -0.1007011384 0.5831808448 4284181917
-0.2796634138 -0.1005274281 0.5859450698 4284379296
-0.2809828818 -0.1003476232 0.5887095928 4284576416
-0.2823024690 -0.1001617238 0.5914743543 4284971174
-0.2840480506 -0.1001198292 0.5951316953 4285431725
-0.2849420309 -0.0997716188 0.5970047712 4285694897
-0.2858360112 -0.0994192436 0.5988777876 4286024111
-0.2871560156 -0.0992098972 0.6016434431 4286484662
-0.2876239121 -0.0987019986 0.6026237607 4287142076
-0.2889440060 -0.0984823778 0.6053895950 4287602627
-0.2898379862 -0.0981123596 0.6072626114 4288194502
-0.2903056443 -0.0975948647 0.6082424521 4288852432
-0.2907731235 -0.0970751420 0.6092219353 4289838549
-0.2912404835 -0.0965531915 0.6102011800 4290364893
-0.2912812233 -0.0958886221 0.6102865338 4291219422
-0.2789854109 -0.1929544508 0.5858879685 4285429119
-0.2790617943 -0.1923561096 0.5860483050 4285297533
-0.2791379392 -0.1917572916 0.5862082839 4285297533
-0.2792139053 -0.1911579818 0.5863678455 4285297280
-0.2792896926 -0.1905581802 0.5865269303 4285165694
-0.2789525986 -0.1896773130 0.5858190656 4284903035
-0.2790278792 -0.1890774220 0.5859771371 4284837242
-0.2782771885 -0.1879194379 0.5844006538 4284771449
-0.2787648141 -0.1875982732 0.5854246616 4284771449
-0.2776000798 -0.1861667335 0.5829786658 4284705656
-0.2768477201 -0.1850161850 0.5813986063 4284639863
-0.2760946751 -0.1838687211 0.5798172355 4284574070
-0.2774081528 -0.1840961576 0.5825756192 4284574070
-0.2745867372 -0.1815830767 0.5766504407 4284442484
-0.2754863799 -0.1815352142 0.5785397291 4284574070
-0.2734899819 -0.1795815378 0.5743471980 4284508023
-0.2714923322 -0.1776363254 0.5701519847 4284310644
-0.2699073553 -0.1759694964 0.5668234229 4284442230
-0.2683213055 -0.1743093729 0.5634925961 4284573816
-0.2667342126 -0.1726559699 0.5601596236 4284179318
-0.2655603588 -0.1712765098 0.5576944351 4283652974
-0.2643856406 -0.1699019670 0.5552274585 4282732644
-0.2623811066 -0.1680015773 0.5510178208 4282074714
-0.2632775903 -0.1679612696 0.5529004931 4281679704
-0.2612712681 -0.1660716832 0.5486871004 4281416532
-0.2605081797 -0.1649787873 0.5470845103 4281087831
-0.2601594031 -0.1641508788 0.5463520885 4280890452
-0.2589801550 -0.1628025323 0.5438755751 4280889945
-0.2594606280 -0.1624991596 0.5448845625 4280889945
-0.2582801282 -0.1611571759 0.5424054861 4280693340
-0.2579295337 -0.1603365839 0.5416691899 4280495961
-0.2579939663 -0.1597746611 0.5418045521 4280430168
-0.2576426864 -0.1589559317 0.5410667658 4280430168
-0.2568753064 -0.1578831226 0.5394552946 4280364632
-0.2569388747 -0.1573226601 0.5395887494 4280364632
-0.2565863729 -0.1565081328 0.5388484597 4280298328
-0.2566494048 -0.1559477448 0.5389808416 4280232535
-0.2562962174 -0.1551351100 0.5382391214 4280232535
-0.2559426129 -0.1543238759 0.5374965072 4280232535
-0.2560048699 -0.1537640840 0.5376272798 4280232535
-0.2556505799 -0.1529547572 0.5368832350 4280298328
-0.2552958727 -0.1521468610 0.5361383557 4280298841
-0.2553573549 -0.1515876651 0.5362674594 4280167255
-0.2554186285 -0.1510280669 0.5363961458 4280233048
-0.2546461821 -0.1499771476 0.5347739458 4280233048
-0.2551237345 -0.1496631205 0.5357768536 4280233048
-0.2547673583 -0.1488596052 0.5350283980 4280298841
-0.2544105947 -0.1480575204 0.5342791677 4280299354
-0.2544705868 -0.1474986672 0.5344051719 4280299354
-0.2536958456 -0.1464576572 0.5327781439 4280365147
-0.2537552416 -0.1458998471 0.5329028964 4280430940
-0.2538144290 -0.1453416646 0.5330272317 4280562271
-0.2534558773 -0.1445449442 0.5322742462 4280628064
-0.2535145879 -0.1439868957 0.5323975086 4280693600
-0.2535730898 -0.1434284598 0.5325204134 4280693600
-0.2536313832 -0.1428696215 0.5326428413 4280759650
-0.2532715499 -0.1420759708 0.5318871737 4280825443
-0.2533293664 -0.1415172964 0.5320085287 4280825443
-0.2529688478 -0.1407256275 0.5312514305 4280891236
-0.2530261576 -0.1401671171 0.5313717723 4280891238
-0.2530832589 -0.1396082342 0.5314916968 4280957031
-0.2531401515 -0.1390489638 0.5316112041 4281022824
-0.2531968653 -0.1384893209 0.5317302346 4281154410
-0.2528347373 -0.1377013177 0.5309697986 4281089133
-0.2528909445 -0.1371418387 0.5310878158 4281154926
-0.2529469430 -0.1365820020 0.5312054157 4281154926
-0.2530027330 -0.1360217929 0.5313225985 4281154926
-0.2530583143 -0.1354612112 0.5314393044 4281155180
-0.2526946366 -0.1346769035 0.5306755900 4281220973
-0.2527497113 -0.1341165155 0.5307912230 4281220973
-0.2523853481 -0.1333342791 0.5300260186 4281286766
-0.2524399161 -0.1327740848 0.5301406384 4281352559
-0.2529137135 -0.1324331611 0.5311356783 4281352559
-0.2529679835 -0.1318713129 0.5312496424 4281418098
-0.2530220449 -0.1313091069 0.5313631296 4281418098
-0.2530758679 -0.1307465434 0.5314761996 4281352305
-0.2531295121 -0.1301836222 0.5315888524 4281352305
-0.2531829178 -0.1296203285 0.5317010283 4281352305
-0.2532361448 -0.1290566921 0.5318127871 4281352305
-0.2532891631 -0.1284926981 0.5319240689 4281418098
-0.2533419430 -0.1279283613 0.5320349336 4281418098
-0.2529743016 -0.1271524429 0.5312628746 4281418098
-0.2530266047 -0.1265883297 0.5313726664 4281418098
-0.2534990609 -0.1262332052 0.5323649049 4281484145
-0.2535510063 -0.1256674528 0.5324740410 4281418352
-0.2536027431 -0.1251013577 0.5325826406 4281418352
-0.2536542714 -0.1245349273 0.5326908827 4281484145
-0.2541263103 -0.1241737232 0.5336822271 4281483891
-0.2545983195 -0.1238102987 0.5346734524 4281549684
-0.2546493709 -0.1232409477 0.5347806811 4281549684
-0.2547002137 -0.1226712540 0.5348874331 4281549684
-0.2551719248 -0.1223030388 0.5358780026 4281549684
-0.2552224100 -0.1217317209 0.5359840393 4281549684
-0.2552726865 -0.1211600676 0.5360896587 4281549686
-0.2553227246 -0.1205880716 0.5361947417 4281681272
-0.2553725839 -0.1200157478 0.5362994075 4281681272
-0.2554222047 -0.1194430813 0.5364036560 4281681272
-0.2554715872 -0.1188700870 0.5365073681 4281747065
-0.2559424341 -0.1184919700 0.5374961495 4281747065
-0.2559914887 -0.1179173589 0.5375991464 4281877881
-0.2560403049 -0.1173424274 0.5377017260 4281877881
-0.2565107942 -0.1169595346 0.5386897922 4281812088
-0.2565592825 -0.1163829938 0.5387915373 4281812088
-0.2566075027 -0.1158061326 0.5388928652 4281681272
-0.2566555440 -0.1152289435 0.5389937162 4281812858
-0.2567033470 -0.1146514341 0.5390940905 4281878651
-0.2571732104 -0.1142612174 0.5400808454 4281944444
-0.2572206259 -0.1136821136 0.5401804447 4281878652
-0.2576902807 -0.1132884026 0.5411667824 4281878652
-0.2581598759 -0.1128924787 0.5421528816 4281813116
-0.2582067847 -0.1123105139 0.5422514081 4281813116
-0.2586761415 -0.1119110882 0.5432370901 4281878909
-0.2587226629 -0.1113275439 0.5433348417 4282010495
-0.2591918111 -0.1109246314 0.5443200469 4282076288
-0.2596608698 -0.1105194986 0.5453051329 4282142081
-0.2597068846 -0.1099331006 0.5454017520 4282207617
-0.2601757050 -0.1095244810 0.5463863015 4282273410
-0.2602213323 -0.1089365035 0.5464820862 4282273410
-0.2606899142 -0.1085243970 0.5474661589 4282273410
-0.2611584365 -0.1081100628 0.5484500527 4282273667
-0.2612034976 -0.1075192541 0.5485447645 4282339460
-0.2620951831 -0.1072747409 0.5504173636 4282339460
-0.2625634372 -0.1068537533 0.5514006615 4282339460
-0.2630316019 -0.1064305380 0.5523838401 4282405508
-0.2630760372 -0.1058346704 0.5524771810 4282471301
-0.2635439336 -0.1054079756 0.5534598231 4282471301
-0.2644355297 -0.1051475629 0.5553321838 4282602887
-0.2649033070 -0.1047154665 0.5563145876 4282734473
-0.2653709948 -0.1042811498 0.5572967529 4282800266
-0.2658385932 -0.1038446054 0.5582787395 4282800266
-0.2663060725 -0.1034058407 0.5592604876 4282866059
-0.2676217258 -0.1032922566 0.5620234013 4282931599
-0.2685133219 -0.1030098572 0.5638958812 4283063185
-0.2698292434 -0.1028850824 0.5666593909 4282998162
-0.2707209885 -0.1025934219 0.5685321093 4282998162
-0.2716127634 -0.1022976041 0.5704048872 4283194769
-0.2729290128 -0.1021565124 0.5731691122 4283326355
-0.2738208771 -0.1018514335 0.5750420690 4283589782
-0.2755619586 -0.1018560752 0.5786985159 4283787161
-0.2768786848 -0.1016967222 0.5814636350 4283787159
-0.2777707875 -0.1013762653 0.5833371878 4284050331
-0.2790876925 -0.1012056917 0.5861027837 4284313501
-0.2804047465 -0.1010290161 0.5888686776 4284510880
-0.2817219496 -0.1008462459 0.5916348100 4284839586
-0.2826142609 -0.1005062312 0.5935087800 4285234344
-0.2839316428 -0.1003122255 0.5962753296 4285629102
-0.2848240137 -0.0999629125 0.5981494188 4285958067
-0.2857163846 -0.0996094346 0.6000234485 4286418353
-0.2866087258 -0.0992517844 0.6018974185 4286813111
-0.2875010669 -0.0988899618 0.6037713885 4287536832
-0.2883934081 -0.0985239744 0.6056453586 4288194762
-0.2888602614 -0.0980094746 0.6066257954 4288786380
-0.2897524834 -0.0976361111 0.6084995270 4289378517
-0.2897936106 -0.0969737843 0.6085858941 4290562013
-0.2898344398 -0.0963111743 0.6086716056 4291351529
-0.2774696350 -0.1936526150 0.5840669870 4285297533
-0.2775460482 -0.1930568367 0.5842279196 4285100154
-0.2776222825 -0.1924605817 0.5843883753 4284968568
-0.2776983380 -0.1918638200 0.5845484734 4284902775
-0.2777741849 -0.1912665814 0.5847081542 4284968568
-0.2778498530 -0.1906688362 0.5848673582 4284968315
-0.2779253125 -0.1900706142 0.5850262046 4284968315
-0.2780005634 -0.1894719005 0.5851846337 4284771449
-0.2776636779 -0.1885928959 0.5844755173 4284639863
-0.2777384222 -0.1879941076 0.5846328735 4284574070
-0.2774008214 -0.1871168017 0.5839221478 4284508277
-0.2774750590 -0.1865179241 0.5840784907 4284442230
-0.2771367133 -0.1856423318 0.5833662152 4284508023
-0.2763854265 -0.1844926625 0.5817847848 4284442230
-0.2756335139 -0.1833460927 0.5802020431 4284573816
-0.2761191428 -0.1830233634 0.5812242627 4284508023
-0.2749534249 -0.1816076189 0.5787705183 4284442230
-0.2737868726 -0.1801967770 0.5763149261 4284442230
-0.2726194561 -0.1787908375 0.5738575459 4284442230
-0.2710380256 -0.1771197915 0.5705286860 4284376437
-0.2694555521 -0.1754554659 0.5671975613 4284310644
-0.2678720057 -0.1737978458 0.5638642311 4284311159
-0.2667008936 -0.1724142730 0.5613991022 4284311159
-0.2642881572 -0.1702363938 0.5563203692 4283718767
-0.2651835680 -0.1701929569 0.5582051873 4282863458
-0.2631825507 -0.1682931930 0.5539931059 4282140509
-0.2620081306 -0.1669294089 0.5515208840 4281745751
-0.2612468600 -0.1658333987 0.5499184728 4281416534
-0.2604849935 -0.1647405773 0.5483148098 4281219155
-0.2601367533 -0.1639119238 0.5475817323 4281022038
-0.2593737543 -0.1628245413 0.5459756851 4280956245
-0.2590245903 -0.1619995534 0.5452407002 4280693590
-0.2586750388 -0.1611759514 0.5445048809 4280562004
-0.2579104304 -0.1600963324 0.5428953767 4280430164
-0.2575599551 -0.1592764109 0.5421576500 4280430164
-0.2572090924 -0.1584578753 0.5414190292 4280430164
-0.2568578124 -0.1576407254 0.5406796336 4280430164
-0.2565061450 -0.1568249911 0.5399393439 4280298582
-0.2565692365 -0.1562635005 0.5400721431 4280298582
-0.2562168539 -0.1554496586 0.5393304229 4280364375
-0.2558640838 -0.1546372175 0.5385878682 4280298582
-0.2555109262 -0.1538261920 0.5378444791 4280232535
-0.2551573515 -0.1530165821 0.5371001959 4280232535
-0.2552190721 -0.1524566710 0.5372301340 4280233048
-0.2552805841 -0.1518963724 0.5373595953 4280167255
-0.2553418875 -0.1513356715 0.5374886394 4280298841
-0.2549870312 -0.1505289972 0.5367416739 4280233048
-0.2550478578 -0.1499684006 0.5368697047 4280233048
-0.2546922863 -0.1491636634 0.5361213088 4280233048
-0.2543363571 -0.1483603716 0.5353720188 4280298841
-0.2543963790 -0.1478004009 0.5354983807 4280233048
-0.2536232769 -0.1467580795 0.5338710546 4280233561
-0.2536827326 -0.1461991668 0.5339961648 4280233561
-0.2537419498 -0.1456398517 0.5341207981 4280364892
-0.2538009882 -0.1450801492 0.5342450738 4280496478
-0.2534429729 -0.1442827433 0.5334914923 4280496221
-0.2535015047 -0.1437231898 0.5336146951 4280562014
-0.2535598278 -0.1431632489 0.5337374806 4280693600
-0.2532008290 -0.1423683614 0.5329818130 4280759393
-0.2532586753 -0.1418085694 0.5331035256 4280759650
-0.2528989911 -0.1410156935 0.5323463678 4280891236
-0.2529563308 -0.1404560506 0.5324670672 4280759652
-0.2530134618 -0.1398960352 0.5325873494 4280825445
-0.2530703843 -0.1393356323 0.5327072144 4280957031
-0.2531271279 -0.1387748569 0.5328266025 4281088617
-0.2527658343 -0.1379856318 0.5320661664 4281220205
-0.2528220713 -0.1374250352 0.5321845412 4281285998
-0.2528780997 -0.1368640661 0.5323024392 4281220719
-0.2529339194 -0.1363027245 0.5324199200 4281220719
-0.2529895306 -0.1357410103 0.5325370431 4281220719
-0.2526266873 -0.1349554807 0.5317732096 4281220719
-0.2526817918 -0.1343939602 0.5318892598 4281220719
-0.2523182631 -0.1336104870 0.5311239958 4281286512
-0.2523728907 -0.1330491602 0.5312389731 4281286512
-0.2528459132 -0.1327071786 0.5322346687 4281352305
-0.2529001832 -0.1321441978 0.5323489308 4281352305
-0.2525354624 -0.1313630044 0.5315812230 4281352305
-0.2525892556 -0.1308002323 0.5316944122 4281352305
-0.2530618012 -0.1304530799 0.5326891541 4281352305
-0.2531152666 -0.1298886538 0.5328016281 4281352305
-0.2531684935 -0.1293238699 0.5329137444 4281418098
-0.2532215416 -0.1287587285 0.5330253839 4281418098
-0.2532743514 -0.1281932443 0.5331365466 4281483891
-0.2529075742 -0.1274160892 0.5323644280 4281483891
-0.2533793747 -0.1270611882 0.5333576202 4281418098
-0.2534315586 -0.1264946461 0.5334674716 4281483891
-0.2539032102 -0.1261362284 0.5344603062 4281483891
-0.2539550662 -0.1255680472 0.5345694423 4281549684
-0.2540067136 -0.1249995157 0.5346781611 4281549684
-0.2540581226 -0.1244306415 0.5347864032 4281549684
-0.2541093528 -0.1238614172 0.5348941684 4281549684
-0.2541603446 -0.1232918501 0.5350015163 4281615477
-0.2546313107 -0.1229247823 0.5359929204 4281615477
-0.2546819746 -0.1223535910 0.5360994935 4281615479
-0.2547324002 -0.1217820570 0.5362057090 4281615479
-0.2547826171 -0.1212101877 0.5363113880 4281681272
-0.2548326254 -0.1206379756 0.5364166498 4281747065
-0.2553029954 -0.1202635542 0.5374068022 4281747065
-0.2553526461 -0.1196897328 0.5375112891 4281812858
-0.2554020882 -0.1191155687 0.5376153588 4281812858
-0.2554512918 -0.1185410768 0.5377189517 4281747065
-0.2559212148 -0.1181605980 0.5387080908 4281812858
-0.2559700608 -0.1175844967 0.5388109088 4281747065
-0.2564397752 -0.1172005087 0.5397996902 4281747065
-0.2564882636 -0.1166228056 0.5399017334 4281747065
-0.2565365434 -0.1160447672 0.5400033593 4281812858
-0.2565845847 -0.1154664084 0.5401045084 4281878651
-0.2566324174 -0.1148877218 0.5402051806 4281944444
-0.2571014762 -0.1144964173 0.5411925912 4281944444
-0.2571489513 -0.1139161363 0.5412924886 4281944444
-0.2576178014 -0.1135213301 0.5422794223 4281944444
-0.2580866218 -0.1131243035 0.5432662368 4281944445
-0.2585553229 -0.1127250493 0.5442528725 4281944445
-0.2586021125 -0.1121406406 0.5443513989 4281944702
-0.2590706348 -0.1117378920 0.5453375578 4282010495
-0.2591170371 -0.1111518890 0.5454352498 4282142081
-0.2595853209 -0.1107456535 0.5464209318 4282207874
-0.2596313357 -0.1101580709 0.5465178490 4282208129
-0.2600993812 -0.1097483337 0.5475030541 4282208129
-0.2601450384 -0.1091591716 0.5475991368 4282273922
-0.2606128454 -0.1087459549 0.5485838652 4282273922
-0.2615030110 -0.1085058004 0.5504576564 4282339715
-0.2619707286 -0.1080871746 0.5514422059 4282339715
-0.2620157301 -0.1074929535 0.5515369773 4282405508
-0.2624832094 -0.1070708409 0.5525209308 4282405508
-0.2629505694 -0.1066465080 0.5535047650 4282405508
-0.2634178698 -0.1062199473 0.5544883609 4282471301
-0.2638850510 -0.1057911664 0.5554717779 4282537094
-0.2643521428 -0.1053601652 0.5564550161 4282602887
-0.2648191452 -0.1049269363 0.5574380159 4282800266
-0.2657091320 -0.1046581417 0.5593114495 4282866059
-0.2661760151 -0.1042195037 0.5602942109 4282931852
-0.2670660317 -0.1039433777 0.5621677041 4282997645
-0.2679560781 -0.1036630943 0.5640411973 4283063185
-0.2688461542 -0.1033786684 0.5659148097 4283128978
-0.2701597214 -0.1032519266 0.5686798692 4282998160
-0.2710499167 -0.1029582247 0.5705537200 4282998160
-0.2723637521 -0.1028202772 0.5733192563 4283260817
-0.2732540667 -0.1025173068 0.5751933455 4283458196
-0.2749918401 -0.1025261208 0.5788513422 4283721366
-0.2763061225 -0.1023699120 0.5816178322 4283984538
-0.2771966755 -0.1020515561 0.5834924579 4284181658
-0.2785111666 -0.1018841192 0.5862594843 4284379037
-0.2798258066 -0.1017105803 0.5890267491 4284511134
-0.2807165086 -0.1013778076 0.5909016728 4284708513
-0.2816072404 -0.1010408625 0.5927765965 4285102757
-0.2829221189 -0.1008509547 0.5955443978 4285497515
-0.2838129103 -0.1005047038 0.5974195004 4285958320
-0.2847036719 -0.1001542881 0.5992945433 4286353078
-0.2855944335 -0.0997997001 0.6011695862 4286944695
-0.2860607505 -0.0992936194 0.6021511555 4287339453
-0.2869514227 -0.0989316627 0.6040260196 4288062918
-0.2878420949 -0.0985655338 0.6059007645 4288786641
-0.2883081138 -0.0980508253 0.6068817377 4289509331
-0.2883493006 -0.0973904505 0.6069685221 4290364640
-0.2888149917 -0.0968722627 0.6079487205 4291746285
-0.2763668895 -0.1946307570 0.5831090808 4285363071
-0.2764435112 -0.1940366626 0.5832707286 4285296764
-0.2765199542 -0.1934420764 0.5834319592 4285099385
-0.2761858106 -0.1925608665 0.5827269554 4284836727
-0.2762617171 -0.1919661760 0.5828871727 4284770934
-0.2763374448 -0.1913709939 0.5830469728 4284770934
-0.2764129937 -0.1907753199 0.5832063556 4284836727
-0.2764883339 -0.1901791543 0.5833653212 4284967545
-0.2765634954 -0.1895825118 0.5835238695 4285033338
-0.2766384482 -0.1889853776 0.5836820006 4284770934
-0.2767131925 -0.1883877665 0.5838397741 4284573555
-0.2763764858 -0.1875106245 0.5831292868 4284507762
-0.2764507532 -0.1869129390 0.5832859874 4284441969
-0.2765248120 -0.1863147616 0.5834422112 4284441973
-0.2765986621 -0.1857161075 0.5835980773 4284507766
-0.2762606144 -0.1848414987 0.5828847885 4284441973
-0.2750984728 -0.1834190339 0.5804328322 4284441973
-0.2759951651 -0.1833698899 0.5823248029 4284508023
-0.2748318911 -0.1819527447 0.5798703432 4284376437
-0.2740799189 -0.1808123738 0.5782837272 4284245364
-0.2729150355 -0.1794041097 0.5758259892 4284376950
-0.2721616924 -0.1782708764 0.5742364526 4284376439
-0.2709952295 -0.1768715382 0.5717753172 4284113267
-0.2690027654 -0.1749404967 0.5675714612 4284179571
-0.2678344250 -0.1735528111 0.5651063323 4284376950
-0.2666652203 -0.1721700579 0.5626394153 4284179573
-0.2650822997 -0.1705266386 0.5592995882 4283587436
-0.2643243372 -0.1694193929 0.5577003956 4282995046
-0.2631526589 -0.1680514961 0.5552282333 4282402909
-0.2619801462 -0.1666885763 0.5527542830 4281811544
-0.2603934705 -0.1650685966 0.5494065881 4281548372
-0.2612863481 -0.1650220901 0.5512904525 4281219668
-0.2601117492 -0.1636704803 0.5488122106 4281088082
-0.2593500018 -0.1625831723 0.5472049713 4280890450
-0.2590013742 -0.1617574692 0.5464693904 4280758864
-0.2586523592 -0.1609331369 0.5457329750 4280496210
-0.2578889728 -0.1598535925 0.5441223383 4280430417
-0.2575390339 -0.1590329558 0.5433840156 4280430418
-0.2571887076 -0.1582137048 0.5426447988 4280496211
-0.2564237118 -0.1571419835 0.5410307646 4280430168
-0.2564868331 -0.1565793902 0.5411639214 4280364375
-0.2561352849 -0.1557643414 0.5404222012 4280364375
-0.2561979294 -0.1552018225 0.5405543447 4280298582
-0.2558456957 -0.1543886811 0.5398111939 4280232789
-0.2554930747 -0.1535769403 0.5390671492 4280232789
-0.2551400363 -0.1527666301 0.5383223295 4280167253
-0.2552015781 -0.1522052139 0.5384521484 4280233046
-0.2552629113 -0.1516433954 0.5385816097 4280298839
-0.2549088895 -0.1508355141 0.5378346443 4280298839
-0.2549697459 -0.1502737999 0.5379630327 4280233048
-0.2546150386 -0.1494678557 0.5372146368 4280233048
-0.2542599142 -0.1486633569 0.5364653468 4280167255
-0.2543199956 -0.1481022686 0.5365920663 4280233048
-0.2543798387 -0.1475407928 0.5367183685 4280233048
-0.2540237308 -0.1467387676 0.5359670520 4280233048
-0.2540830970 -0.1461774111 0.5360922813 4280233561
-0.2541422546 -0.1456156671 0.5362170935 4280299354
-0.2537851930 -0.1448161453 0.5354636908 4280430427
-0.2534277141 -0.1440180540 0.5347094536 4280496220
-0.2534860671 -0.1434569806 0.5348325968 4280627807
-0.2535442412 -0.1428955197 0.5349553227 4280693600
-0.2531857789 -0.1420999616 0.5341989994 4280628064
-0.2528269291 -0.1413058639 0.5334418416 4280759650
-0.2528842688 -0.1407451034 0.5335628986 4280693859
-0.2525247335 -0.1399530172 0.5328043103 4280759652
-0.2525815964 -0.1393924206 0.5329242945 4280891238
-0.2526382804 -0.1388314366 0.5330438614 4281022824
-0.2526947260 -0.1382700801 0.5331629515 4281154410
-0.2527509928 -0.1377083510 0.5332816839 4281220203
-0.2528070509 -0.1371462494 0.5333999395 4281089387
-0.2528629005 -0.1365837753 0.5335177779 4281155180
-0.2525011897 -0.1357964724 0.5327546000 4281154926
-0.2525565326 -0.1352341771 0.5328713655 4281154926
-0.2526116967 -0.1346715093 0.5329877138 4281154926
-0.2522490025 -0.1338868141 0.5322224498 4281220719
-0.2527213395 -0.1335450858 0.5332190990 4281220719
-0.2527758777 -0.1329813302 0.5333341360 4281286512
-0.2532480955 -0.1326360703 0.5343304873 4281286512
-0.2528842986 -0.1318527162 0.5335628986 4281286512
-0.2529382110 -0.1312878728 0.5336766243 4281418098
-0.2534100711 -0.1309387237 0.5346722007 4281418098
-0.2534636259 -0.1303722262 0.5347852707 4281418098
-0.2535170019 -0.1298053563 0.5348978639 4281418098
-0.2535701394 -0.1292381436 0.5350099802 4281483891
-0.2536230683 -0.1286705583 0.5351216793 4281483891
-0.2532572150 -0.1278912425 0.5343497396 4281483891
-0.2533096373 -0.1273238957 0.5344603658 4281483891
-0.2537806332 -0.1269657165 0.5354540944 4281483891
-0.2538327277 -0.1263967156 0.5355640054 4281549684
-0.2538846135 -0.1258273870 0.5356734991 4281549684
-0.2539362609 -0.1252577007 0.5357825160 4281615477
-0.2539877295 -0.1246876642 0.5358910561 4281615477
-0.2544581592 -0.1243221015 0.5368836522 4281615477
-0.2545092702 -0.1237504333 0.5369914770 4281681270
-0.2545601726 -0.1231784225 0.5370988846 4281681270
-0.2546108663 -0.1226060763 0.5372058153 4281681272
-0.2546613216 -0.1220333800 0.5373122692 4281681272
-0.2547115684 -0.1214603484 0.5374183059 4281747065
-0.2547615767 -0.1208869740 0.5375238061 4281747065
-0.2552312016 -0.1205114797 0.5385146737 4281747065
-0.2552808523 -0.1199364886 0.5386194587 4281812858
-0.2553303242 -0.1193611622 0.5387238264 4281878651
-0.2553795576 -0.1187855080 0.5388277173 4281812858
-0.2554285824 -0.1182095185 0.5389311314 4281878651
-0.2558975816 -0.1178266704 0.5399206281 4281812858
-0.2559462190 -0.1172490716 0.5400233269 4281878651
-0.2564150095 -0.1168627217 0.5410124063 4281878651
-0.2564633191 -0.1162835136 0.5411143303 4281878651
-0.2565113902 -0.1157039851 0.5412157774 4281944444
-0.2565592527 -0.1151241213 0.5413167477 4282010237
-0.2566068769 -0.1145439446 0.5414172411 4282010237
-0.2570750117 -0.1141502634 0.5424049497 4282010237
-0.2575431168 -0.1137543619 0.5433925986 4282010237
-0.2580111027 -0.1133562326 0.5443800688 4282010237
-0.2584790587 -0.1129558757 0.5453673601 4282010237
-0.2585258782 -0.1123702824 0.5454661250 4282076030
-0.2589935958 -0.1119664311 0.5464529395 4282141823
-0.2590400279 -0.1113792509 0.5465509295 4282207616
-0.2595075071 -0.1109719053 0.5475372672 4282273409
-0.2595535517 -0.1103831381 0.5476344824 4282273409
-0.2604422569 -0.1101505309 0.5495095253 4282339202
-0.2609094977 -0.1097365096 0.5504953265 4282273922
-0.2609550953 -0.1091439351 0.5505915284 4282273922
-0.2614220977 -0.1087264195 0.5515768528 4282339715
-0.2618890107 -0.1083066761 0.5525620580 4282405508
-0.2623558342 -0.1078847051 0.5535470247 4282405508
-0.2624007165 -0.1072880253 0.5536417365 4282405508
-0.2632892430 -0.1070341021 0.5555164218 4282471301
-0.2637557983 -0.1066054553 0.5565007925 4282537094
-0.2642222643 -0.1061745882 0.5574850440 4282602887
-0.2646886408 -0.1057415009 0.5584690571 4282668680
-0.2655771375 -0.1054738685 0.5603436828 4282800266
-0.2660433948 -0.1050353646 0.5613274574 4282866059
-0.2669319212 -0.1047603935 0.5632020831 4282931852
-0.2678204477 -0.1044812724 0.5650768876 4282997645
-0.2687090337 -0.1041980013 0.5669516921 4283128978
-0.2695976496 -0.1039105728 0.5688266158 4283128978
-0.2709089518 -0.1037809029 0.5715932846 4283063953
-0.2717976868 -0.1034841985 0.5734684467 4283129746
-0.2735319734 -0.1035032868 0.5771276355 4283392403
-0.2744208872 -0.1031963304 0.5790032148 4283655575
-0.2757327259 -0.1030432582 0.5817710161 4283984279
-0.2770447135 -0.1028840914 0.5845392346 4284181658
-0.2779338062 -0.1025627181 0.5864151120 4284444828
-0.2788228989 -0.1022371799 0.5882910490 4284642207
-0.2801351845 -0.1020616516 0.5910598040 4284774303
-0.2810243666 -0.1017268077 0.5929358602 4284971682
-0.2819135189 -0.1013877988 0.5948119760 4285431974
-0.2828027010 -0.1010446176 0.5966880322 4285892525
-0.2832684517 -0.1005469710 0.5976707339 4286418867
-0.2841575444 -0.1001964211 0.5995466113 4286879418
-0.2850466371 -0.0998416990 0.6014225483 4287470526
-0.2855120897 -0.0993354172 0.6024045944 4287799491
-0.2864010930 -0.0989733189 0.6042802930 4288523208
-0.2868663371 -0.0984616056 0.6052619219 4289246931
-0.2873314321 -0.0979476646 0.6062432528 4290298587
-0.2873725593 -0.0972880051 0.6063299775 4291482861
-0.2747022510 -0.1964947879 0.5809582472 4285493630
-0.2747793198 -0.1959042400 0.5811212063 4285165178
-0.2748561800 -0.1953132004 0.5812838078 4285165178
-0.2749328613 -0.1947216690 0.5814459324 4285034106
-0.2750093639 -0.1941296309 0.5816076994 4284968313
-0.2750856578 -0.1935371011 0.5817691088 4284967799
-0.2751617730 -0.1929440945 0.5819300413 4284902006
-0.2752376795 -0.1923505813 0.5820906162 4284901752
-0.2749037147 -0.1914712191 0.5813843012 4284901752
-0.2749791443 -0.1908776164 0.5815438032 4284705143
-0.2750543654 -0.1902835220 0.5817028880 4284705143
-0.2751294076 -0.1896889359 0.5818616152 4284836213
-0.2752042413 -0.1890938729 0.5820198655 4284902006
-0.2752788961 -0.1884983182 0.5821777582 4284705141
-0.2753533423 -0.1879022866 0.5823351741 4284573555
-0.2754275799 -0.1873057634 0.5824922323 4284507762
-0.2750910521 -0.1864305139 0.5817804933 4284441969
-0.2751648128 -0.1858339161 0.5819364786 4284376178
-0.2752383649 -0.1852368414 0.5820920467 4284376178
-0.2744898796 -0.1840881407 0.5805091262 4284507766
-0.2749738693 -0.1837665886 0.5815326571 4284310387
-0.2742244303 -0.1826213896 0.5799477696 4284508023
-0.2738856375 -0.1817521900 0.5792312026 4284442230
-0.2731350660 -0.1806122959 0.5776438713 4284244851
-0.2723838687 -0.1794755310 0.5760551691 4284310644
-0.2724551558 -0.1788823009 0.5762059689 4284244853
-0.2704679072 -0.1769420207 0.5720031857 4284244853
-0.2717736065 -0.1771576107 0.5747645497 4284244851
-0.2689608932 -0.1746921241 0.5688160658 4284310644
-0.2677944601 -0.1733052582 0.5663492084 4284179573
-0.2666271925 -0.1719233394 0.5638805628 4283850608
-0.2654590905 -0.1705463678 0.5614101887 4283455595
-0.2642901540 -0.1691743582 0.5589380264 4282863458
-0.2622955739 -0.1672812700 0.5547197461 4282206300
-0.2631873488 -0.1672315896 0.5566058159 4281877335
-0.2616036236 -0.1656105816 0.5532564521 4281417043
-0.2608443201 -0.1645169705 0.5516506433 4281219664
-0.2600844204 -0.1634265482 0.5500435233 4281022289
-0.2593238950 -0.1623393148 0.5484350920 4280824910
-0.2589758039 -0.1615128815 0.5476989150 4280562001
-0.2582141757 -0.1604311317 0.5460881591 4280496208
-0.2578651607 -0.1596083790 0.5453500748 4280496210
-0.2571024299 -0.1585321277 0.5437369943 4280496210
-0.2567525208 -0.1577130705 0.5429970026 4280430679
-0.2564022243 -0.1568954140 0.5422561765 4280364886
-0.2560515106 -0.1560791433 0.5415144563 4280298580
-0.2561141849 -0.1555155367 0.5416469574 4280298580
-0.2557627857 -0.1547011733 0.5409038067 4280298580
-0.2558249533 -0.1541376561 0.5410352945 4280298580
-0.2554728687 -0.1533252150 0.5402906537 4280233046
-0.2551203668 -0.1525141895 0.5395451784 4280298839
-0.2551817298 -0.1519512534 0.5396749973 4280298839
-0.2548285723 -0.1511421651 0.5389280319 4280298839
-0.2548894286 -0.1505793333 0.5390567780 4280298582
-0.2545355558 -0.1497721821 0.5383083820 4280232789
-0.2545959353 -0.1492094696 0.5384361148 4280232535
-0.2542413771 -0.1484042704 0.5376862288 4280298328
-0.2543012500 -0.1478416771 0.5378128886 4280298841
-0.2543609440 -0.1472786814 0.5379391313 4280298841
-0.2540054023 -0.1464759558 0.5371871591 4280167768
-0.2540645897 -0.1459130943 0.5373123288 4280233561
-0.2537083328 -0.1451123506 0.5365589261 4280364634
-0.2537670135 -0.1445496231 0.5366830826 4280430427
-0.2534101009 -0.1437508464 0.5359281898 4280562013
-0.2530527711 -0.1429535300 0.5351724625 4280627806
-0.2531106472 -0.1423914880 0.5352949500 4280562271
-0.2531683445 -0.1418290585 0.5354169607 4280628064
-0.2532258332 -0.1412662417 0.5355385542 4280693857
-0.2528672218 -0.1404720098 0.5347801447 4280759650
-0.2529242337 -0.1399093568 0.5349006653 4280825443
-0.2529810071 -0.1393463314 0.5350207686 4280957029
-0.2530376017 -0.1387829185 0.5351404548 4281022824
-0.2530939877 -0.1382191330 0.5352596641 4281088617
-0.2531501651 -0.1376549602 0.5353784561 4280957801
-0.2532061338 -0.1370904297 0.5354968309 4281023594
-0.2524287999 -0.1360764205 0.5338528752 4281023340
-0.2524841726 -0.1355129927 0.5339699984 4281023340
-0.2525393367 -0.1349491924 0.5340867043 4281089133
-0.2525943220 -0.1343850195 0.5342029333 4281089133
-0.2522321641 -0.1335996687 0.5334370136 4281154926
-0.2527036369 -0.1332555860 0.5344341397 4281220719
-0.2531750500 -0.1329092830 0.5354311466 4281220719
-0.2528121173 -0.1321246922 0.5346635580 4281286512
-0.2528660297 -0.1315587014 0.5347775817 4281418098
-0.2533371150 -0.1312085092 0.5357738733 4281418098
-0.2533907294 -0.1306408644 0.5358872414 4281484145
-0.2530265749 -0.1298585683 0.5351170897 4281484145
-0.2534972727 -0.1295044869 0.5361126065 4281484145
-0.2535502613 -0.1289357692 0.5362246037 4281549938
-0.2536030114 -0.1283666790 0.5363361835 4281549938
-0.2532376647 -0.1275867075 0.5355635285 4281615731
-0.2537078857 -0.1272274554 0.5365579724 4281615477
-0.2537600100 -0.1266573220 0.5366682410 4281549684
-0.2538119256 -0.1260868311 0.5367779732 4281549684
-0.2538636029 -0.1255159974 0.5368873477 4281615477
-0.2539151013 -0.1249448061 0.5369961858 4281681270
-0.2543847561 -0.1245781705 0.5379894972 4281681270
-0.2544358969 -0.1240053475 0.5380976200 4281747063
-0.2544867992 -0.1234321743 0.5382053256 4281681270
-0.2545375228 -0.1228586659 0.5383125544 4281747063
-0.2545880079 -0.1222848147 0.5384193063 4281747063
-0.2546382844 -0.1217106208 0.5385256410 4281812856
-0.2546883225 -0.1211360916 0.5386314988 4281747063
-0.2547381818 -0.1205612198 0.5387368798 4281681270
-0.2552068532 -0.1201833561 0.5397281051 4281812856
-0.2552563250 -0.1196068674 0.5398327708 4281878649
-0.2553055882 -0.1190300435 0.5399369597 4281812856
-0.2553546429 -0.1184528843 0.5400406718 4281878649
-0.2554034591 -0.1178753972 0.5401439071 4281878649
-0.2558715343 -0.1174901798 0.5411338210 4281944442
-0.2559199929 -0.1169110835 0.5412363410 4281944442
-0.2563878596 -0.1165223643 0.5422257781 4281944442
-0.2564359605 -0.1159416586 0.5423275232 4282010235
-0.2564838529 -0.1153606251 0.5424287915 4282010235
-0.2565315068 -0.1147792712 0.5425295234 4282076028
-0.2565789223 -0.1141975969 0.5426298380 4282076028
-0.2574661672 -0.1139874905 0.5445062518 4282141821
-0.2579333782 -0.1135882661 0.5454943180 4282076028
-0.2584005296 -0.1131868064 0.5464823246 4282076028
-0.2584473789 -0.1126000360 0.5465813875 4282141821
-0.2589142919 -0.1121950746 0.5475688577 4282207614
-0.2589607537 -0.1116067097 0.5476670861 4282207614
-0.2594274580 -0.1111982539 0.5486541390 4282273407
-0.2598940730 -0.1107875705 0.5496409535 4282273409
-0.2607812285 -0.1105529740 0.5515171885 4282273409
-0.2608270645 -0.1099595204 0.5516141057 4282339202
-0.2612934411 -0.1095421612 0.5526004434 4282339202
-0.2617597282 -0.1091225669 0.5535866022 4282404995
-0.2618050277 -0.1085262671 0.5536823869 4282470788
-0.2622710764 -0.1081031859 0.5546680093 4282536581
-0.2627370358 -0.1076778695 0.5556533933 4282536581
-0.2632029057 -0.1072503328 0.5566386580 4282602887
-0.2640898526 -0.1069912016 0.5585144758 4282602887
-0.2645556033 -0.1065582484 0.5594995022 4282668680
-0.2650212646 -0.1061230674 0.5604842901 4282734473
-0.2654868364 -0.1056856588 0.5614688396 4282800266
-0.2663737535 -0.1054128185 0.5633445978 4282866059
-0.2672607303 -0.1051358208 0.5652204752 4282931852
-0.2681477666 -0.1048546731 0.5670963526 4282931852
-0.2690348029 -0.1045693681 0.5689723492 4283128976
-0.2703436315 -0.1044428423 0.5717403293 4283194769
-0.2712307870 -0.1041482612 0.5736165643 4283195539
-0.2729617655 -0.1041715294 0.5772773623 4283327125
-0.2742711008 -0.1040267348 0.5800464153 4283589780
-0.2751585245 -0.1037167683 0.5819231868 4283787159
-0.2764680684 -0.1035607457 0.5846927166 4284115865
-0.2777777612 -0.1033986285 0.5874625444 4284247451
-0.2786653936 -0.1030742303 0.5893397331 4284444827
-0.2799752951 -0.1029008701 0.5921099782 4284707999
-0.2808629870 -0.1025671586 0.5939873457 4284971936
-0.2813282609 -0.1020760164 0.5949713588 4285300901
-0.2822158933 -0.1017349437 0.5968485475 4285826730
-0.2826809585 -0.1012383625 0.5978321433 4286221488
-0.2831459045 -0.1007395536 0.5988154411 4286748086
-0.2836107314 -0.1002385095 0.5997984409 4287274430
-0.2840754092 -0.0997352302 0.6007812023 4287996612
-0.2849627435 -0.0993771628 0.6026577950 4288457163
-0.2854272127 -0.0988684520 0.6036400795 4289311952
-0.2858915329 -0.0983575135 0.6046220660 4290167261
-0.2733485401 -0.1959868371 0.5794563890 4285428349
-0.2734252810 -0.1953978539 0.5796191096 4285165692
-0.2735018432 -0.1948083937 0.5797813535 4285099899
-0.2735781968 -0.1942184269 0.5799432397 4285034108
-0.2736543715 -0.1936279684 0.5801047087 4285034108
-0.2737303674 -0.1930370033 0.5802658200 4285034110
-0.2738061547 -0.1924455613 0.5804264545 4285034110
-0.2742905319 -0.1921399832 0.5814533234 4284968063
-0.2735482752 -0.1909757406 0.5798798203 4284836477
-0.2736233771 -0.1903837174 0.5800390244 4284770684
-0.2736983001 -0.1897912025 0.5801978707 4284770684
-0.2737730145 -0.1891981959 0.5803562403 4284836729
-0.2738475502 -0.1886047125 0.5805142522 4284770936
-0.2739218771 -0.1880107373 0.5806718469 4284770934
-0.2739960253 -0.1874162853 0.5808289647 4284705141
-0.2740699649 -0.1868213415 0.5809857249 4284639348
-0.2741437256 -0.1862259209 0.5811420679 4284573555
-0.2742172778 -0.1856300235 0.5812979937 4284507764
-0.2738806307 -0.1847570688 0.5805844069 4284441971
-0.2739536762 -0.1841611117 0.5807392597 4284441971
-0.2740265429 -0.1835646629 0.5808936954 4284441971
-0.2740992010 -0.1829677522 0.5810477138 4284310898
-0.2737612128 -0.1820973605 0.5803312659 4284310898
-0.2734228373 -0.1812282801 0.5796139240 4284245105
-0.2730840147 -0.1803605109 0.5788956881 4284245105
-0.2723340392 -0.1792237461 0.5773058534 4284179058
-0.2707616985 -0.1775512546 0.5739727020 4284179058
-0.2700102329 -0.1764225364 0.5723797083 4284113519
-0.2717246413 -0.1769027263 0.5760139823 4284179312
-0.2689166367 -0.1744412333 0.5700615048 4284113517
-0.2673408389 -0.1727893800 0.5667210221 4283916138
-0.2661753893 -0.1714091897 0.5642504096 4283850347
-0.2650091052 -0.1700339615 0.5617780685 4283652968
-0.2642535865 -0.1689268202 0.5601765513 4283061092
-0.2630857527 -0.1675606221 0.5577009320 4282468955
-0.2623289227 -0.1664607227 0.5560965538 4282008921
-0.2615714669 -0.1653640121 0.5544908643 4281548370
-0.2608134151 -0.1642704755 0.5528838634 4281350739
-0.2600547373 -0.1631801128 0.5512756109 4281219153
-0.2592954338 -0.1620929688 0.5496660471 4280889937
-0.2589478791 -0.1612657905 0.5489292741 4280626765
-0.2581874728 -0.1601841301 0.5473173261 4280561234
-0.2578390241 -0.1593606472 0.5465786457 4280495441
-0.2570775151 -0.1582845002 0.5449643731 4280560982
-0.2567281425 -0.1574647129 0.5442237854 4280560982
-0.2563783824 -0.1566463411 0.5434823036 4280560984
-0.2560282350 -0.1558293700 0.5427400470 4280429398
-0.2556776702 -0.1550138146 0.5419968963 4280232789
-0.2557398677 -0.1544491649 0.5421287417 4280101203
-0.2553885877 -0.1536355168 0.5413841605 4280166996
-0.2554503083 -0.1530709714 0.5415149331 4280298582
-0.2550983429 -0.1522592455 0.5407688618 4280298839
-0.2547460198 -0.1514489353 0.5400219560 4280233046
-0.2548069060 -0.1508850008 0.5401510596 4280233559
-0.2544538677 -0.1500766426 0.5394026637 4280233559
-0.2541004419 -0.1492697001 0.5386534333 4280167766
-0.2545745075 -0.1489485800 0.5396583676 4280167766
-0.2542204559 -0.1481426805 0.5389078856 4280167766
-0.2538660467 -0.1473382115 0.5381565690 4280167766
-0.2539254725 -0.1467746347 0.5382825136 4280233046
-0.2535703480 -0.1459721327 0.5375297070 4280233046
-0.2536292672 -0.1454086751 0.5376546383 4280298839
-0.2532734573 -0.1446081549 0.5369004011 4280364632
-0.2529172897 -0.1438090950 0.5361453295 4280430425
-0.2529754043 -0.1432463080 0.5362685323 4280496218
-0.2530333400 -0.1426831335 0.5363913178 4280562013
-0.2526761591 -0.1418866068 0.5356341600 4280627806
-0.2527335882 -0.1413235813 0.5357558727 4280693600
-0.2527908087 -0.1407601833 0.5358772278 4280759393
-0.2528478205 -0.1401964128 0.5359981060 4280825186
-0.2533199191 -0.1398615241 0.5369988680 4280890979
-0.2529612482 -0.1390677094 0.5362385511 4281022311
-0.2530176640 -0.1385027766 0.5363581181 4281088104
-0.2530738711 -0.1379374862 0.5364772677 4281088104
-0.2531298697 -0.1373718083 0.5365960002 4281153897
-0.2527699172 -0.1365811229 0.5358329415 4280957801
-0.2528254390 -0.1360156238 0.5359506011 4281089387
-0.2528807223 -0.1354497671 0.5360678434 4281089387
-0.2529357970 -0.1348835379 0.5361846089 4281155180
-0.2525745630 -0.1340960115 0.5354188681 4281220973
-0.2526291609 -0.1335299760 0.5355345607 4281220973
-0.2526835203 -0.1329635680 0.5356498361 4281220719
-0.2527377009 -0.1323968023 0.5357646346 4281220719
-0.2527916431 -0.1318296641 0.5358790159 4281352305
-0.2528454065 -0.1312621683 0.5359929800 4281352305
-0.2528989315 -0.1306943148 0.5361064672 4281418098
-0.2529522777 -0.1301260889 0.5362194777 4281483891
-0.2534222007 -0.1297709495 0.5372157097 4281549686
-0.2534751892 -0.1292010844 0.5373280048 4281549686
-0.2535279691 -0.1286308467 0.5374399424 4281549686
