VERSION 0.7
FIELDS x y z rgba
SIZE 4 4 4 4
TYPE F F F U
COUNT 1 1 1 1
WIDTH 920
HEIGHT 1
VIEWPOINT 0.0 0.0 0.0 1.0 0.0 0.0 0.0
POINTS 920
DATA ascii
-0.2496126443 -0.1207812652 0.5679167509 4292006871
-0.2496601641 -0.1201731414 0.5680248141 4292072664
-0.2497074604 -0.1195646673 0.5681324601 4292072664
-0.2497545332 -0.1189558506 0.5682395697 4292072664
-0.2498013824 -0.1183466911 0.5683461428 4292138457
-0.2498480082 -0.1177371889 0.5684522390 4292204250
-0.2498944104 -0.1171273515 0.5685577989 4292270044
-0.2499405891 -0.1165171713 0.5686628819 4292335837
-0.2393834889 -0.1664787680 0.5460232496 4292073442
-0.2394465059 -0.1659157425 0.5461669564 4292007649
-0.2395093292 -0.1653522998 0.5463102460 4291876063
-0.2395719737 -0.1647883952 0.5464531779 4291744477
-0.2396344393 -0.1642240584 0.5465956330 4291744477
-0.2396967262 -0.1636592746 0.5467377305 4291744475
-0.2397588342 -0.1630940586 0.5468793511 4291744475
-0.2398207486 -0.1625283957 0.5470206141 4291678682
-0.2402700186 -0.1622239500 0.5480453372 4291744475
-0.2403316647 -0.1616564989 0.5481860042 4291678936
-0.2403931320 -0.1610886157 0.5483261943 4291678936
-0.2404544204 -0.1605203003 0.5484659672 4291678936
-0.2409034371 -0.1602095366 0.5494901538 4291678936
-0.2409644425 -0.1596394330 0.5496293306 4291547866
-0.2410252690 -0.1590688825 0.5497680306 4291547866
-0.2414741218 -0.1587531567 0.5507918596 4291416282
-0.2415346652 -0.1581808329 0.5509299636 4291416282
-0.2419834435 -0.1578614712 0.5519536138 4291482075
-0.2424322218 -0.1575398445 0.5529772043 4291416282
-0.2421037704 -0.1567128450 0.5522280931 4291284694
-0.2425523549 -0.1563885063 0.5532512665 4291218901
-0.2426121533 -0.1558122039 0.5533876419 4291481557
-0.2426717430 -0.1552354693 0.5535236001 4291481557
-0.2427311540 -0.1546583176 0.5536590815 4291349971
-0.2427903563 -0.1540807486 0.5537941456 4291284178
-0.2428493798 -0.1535027474 0.5539287925 4291284178
-0.2429082096 -0.1529243290 0.5540629625 4291152592
-0.2429668456 -0.1523454785 0.5541967154 4291021004
-0.2430252731 -0.1517662257 0.5543299913 4290889418
-0.2434730828 -0.1514288336 0.5553513765 4291086545
-0.2435312122 -0.1508478075 0.5554839969 4291020752
-0.2439789027 -0.1505068094 0.5565051436 4291086286
-0.2444265783 -0.1501635164 0.5575262904 4290888907
-0.2444843203 -0.1495793909 0.5576579571 4290691526
-0.2445418537 -0.1489948481 0.5577892065 4290559940
-0.2449893057 -0.1486465931 0.5588098168 4290625219
-0.2450465262 -0.1480602920 0.5589403510 4290493633
-0.2451035678 -0.1474735886 0.5590704679 4290427839
-0.2455507815 -0.1471203566 0.5600905418 4290362046
-0.2456074953 -0.1465319097 0.5602199435 4290230201
-0.2456640154 -0.1459430307 0.5603488088 4290098615
-0.2457203418 -0.1453537643 0.5604773164 4289967027
-0.2457764596 -0.1447640806 0.5606052876 4289901234
-0.2458323687 -0.1441740096 0.5607328415 4289769650
-0.2458880693 -0.1435835212 0.5608599186 4289638064
-0.2459435761 -0.1429926306 0.5609865189 4289572271
-0.2459988892 -0.1424013525 0.5611126423 4289506478
-0.2456627935 -0.1415842175 0.5603460670 4289506478
-0.2457176000 -0.1409930736 0.5604710579 4289440685
-0.2457721978 -0.1404015422 0.5605956316 4289374890
-0.2458266020 -0.1398096234 0.5607196689 4289309097
-0.2454892546 -0.1389956176 0.5599502325 4289309097
-0.2455431521 -0.1384038627 0.5600731373 4289309097
-0.2459885478 -0.1380314976 0.5610890388 4289309097
-0.2460421175 -0.1374380141 0.5612112284 4289374890
-0.2460954785 -0.1368441284 0.5613329411 4289440683
-0.2461486310 -0.1362498701 0.5614541769 4289506476
-0.2465936095 -0.1358712465 0.5624691844 4289638062
-0.2466464341 -0.1352752745 0.5625896454 4289769648
-0.2466990352 -0.1346789151 0.5627096891 4289835441
-0.2467514426 -0.1340821683 0.5628291965 4289901234
-0.2468036264 -0.1334850639 0.5629482269 4290032820
-0.2468556017 -0.1328875571 0.5630667806 4290098613
-0.2469073683 -0.1322896928 0.5631848574 4290230201
-0.2469589263 -0.1316914409 0.5633024573 4290295994
-0.2470102608 -0.1310928166 0.5634195805 4290559166
-0.2470613867 -0.1304938197 0.5635361671 4290756545
-0.2471123040 -0.1298944652 0.5636523366 4290756543
-0.2475559562 -0.1295002848 0.5646642447 4290888129
-0.2476065159 -0.1288992167 0.5647795796 4291019974
-0.2476568818 -0.1282977909 0.5648944378 4291085767
-0.2477070093 -0.1276960075 0.5650088191 4291283146
-0.2477569431 -0.1270938516 0.5651226640 4291414732
-0.2478066385 -0.1264913380 0.5652360916 4291546320
-0.2482495606 -0.1260882765 0.5662463307 4291612113
-0.2482988983 -0.1254840791 0.5663589239 4291743697
-0.2479544580 -0.1246816069 0.5655732155 4291809490
-0.2480033040 -0.1240776479 0.5656846166 4291743699
-0.2480519116 -0.1234733313 0.5657955408 4291809492
-0.2481003255 -0.1228686646 0.5659059286 4291875285
-0.2481485009 -0.1222636402 0.5660158396 4291941078
-0.2481964678 -0.1216582656 0.5661252141 4292006871
-0.2482442111 -0.1210525408 0.5662341118 4292138457
-0.2482917309 -0.1204464734 0.5663425326 4292270043
-0.2483390272 -0.1198400483 0.5664504170 4292401629
-0.2483861148 -0.1192332804 0.5665578246 4292270044
-0.2484329790 -0.1186261699 0.5666646957 4292204251
-0.2484796196 -0.1180187166 0.5667710900 4292073179
-0.2489205152 -0.1175972894 0.5677767396 4292204765
-0.2493613362 -0.1171735898 0.5687822700 4292204765
-0.2382209152 -0.1648805141 0.5447515249 4292007649
-0.2386694700 -0.1645845622 0.5457772613 4291876063
-0.2383454591 -0.1637555510 0.5450363159 4291810270
-0.2387938499 -0.1634569168 0.5460616350 4291810268
-0.2388557643 -0.1628924161 0.5462032557 4291744475
-0.2389174998 -0.1623274982 0.5463443995 4291744475
-0.2389790416 -0.1617621332 0.5464851856 4291744475
-0.2394272089 -0.1614571661 0.5475099683 4291744475
-0.2391015887 -0.1606300920 0.5467653871 4291678682
-0.2395495921 -0.1603224128 0.5477898717 4291678936
-0.2396104932 -0.1597543955 0.5479291677 4291744729
-0.2400584221 -0.1594431102 0.5489534140 4291613661
-0.2401190549 -0.1588733047 0.5490920544 4291679454
-0.2401795089 -0.1583030671 0.5492303371 4291613661
-0.2406272590 -0.1579868048 0.5502542257 4291613661
-0.2406874299 -0.1574147940 0.5503917933 4291745247
-0.2407474220 -0.1568423510 0.5505290031 4291679454
-0.2408072054 -0.1562694758 0.5506657362 4291678682
-0.2412546873 -0.1559468955 0.5516889691 4291612889
-0.2413142025 -0.1553722471 0.5518251061 4291810522
-0.2413735241 -0.1547971666 0.5519607663 4291810522
-0.2414326519 -0.1542216837 0.5520959496 4291612889
-0.2414916009 -0.1536457539 0.5522307158 4291547096
-0.2415503412 -0.1530694216 0.5523650646 4291678936
-0.2416089028 -0.1524926573 0.5524989963 4291613143
-0.2420558035 -0.1521597207 0.5535209179 4291481557
-0.2421140522 -0.1515811980 0.5536541343 4291547350
-0.2421721220 -0.1510022581 0.5537869334 4291481303
-0.2426188141 -0.1506643444 0.5548083782 4291547096
-0.2430654913 -0.1503241658 0.5558298230 4291481557
-0.2431231588 -0.1497421116 0.5559617281 4291415764
-0.2431806326 -0.1491596550 0.5560931563 4291284178
-0.2436270863 -0.1488144994 0.5571140647 4291218385
-0.2432949841 -0.1479934901 0.5563546419 4291217872
-0.2437412292 -0.1476456523 0.5573750734 4291217872
-0.2437980026 -0.1470606178 0.5575048923 4291086284
-0.2442441136 -0.1467091590 0.5585250258 4291086284
-0.2443005741 -0.1461223662 0.5586541891 4291085769
-0.2443568408 -0.1455351710 0.5587828159 4290954183
-0.2444128990 -0.1449475735 0.5589110255 4290888388
-0.2444687635 -0.1443595588 0.5590387583 4290888388
-0.2445244193 -0.1437711567 0.5591660142 4290822084
-0.2445798814 -0.1431823522 0.5592928529 4290690498
-0.2446351349 -0.1425931454 0.5594192147 4290559423
-0.2446901798 -0.1420035362 0.5595450997 4290493630
-0.2447450310 -0.1414135247 0.5596705079 4290493630
-0.2447996736 -0.1408231258 0.5597954988 4290427837
-0.2444635928 -0.1400086731 0.5590269566 4290493630
-0.2445177436 -0.1394184381 0.5591507554 4290493630
-0.2445716858 -0.1388278008 0.5592741370 4290493884
-0.2446254194 -0.1382367611 0.5593969822 4290493884
-0.2446789443 -0.1376453489 0.5595194101 4290559677
-0.2447322756 -0.1370535493 0.5596413612 4290559677
-0.2451764196 -0.1366793513 0.5606570244 4290690750
-0.2452294081 -0.1360858232 0.5607782006 4290822336
-0.2452822030 -0.1354919225 0.5608989000 4290888129
-0.2453347743 -0.1348976344 0.5610191226 4290953922
-0.2453871518 -0.1343029588 0.5611388683 4291019715
-0.2454393059 -0.1337079108 0.5612581968 4290953922
-0.2454912663 -0.1331124902 0.5613769889 4291217096
-0.2455430031 -0.1325166821 0.5614953041 4291282889
-0.2455945313 -0.1319205016 0.5616131425 4291283146
-0.2456458509 -0.1313239336 0.5617305040 4291348939
-0.2456969619 -0.1307270080 0.5618473291 4291480527
-0.2457478642 -0.1301297098 0.5619637370 4291677906
-0.2461905628 -0.1297386289 0.5629761219 4291612111
-0.2462411225 -0.1291396320 0.5630916953 4291743697
-0.2462914586 -0.1285402626 0.5632067919 4291743699
-0.2463415861 -0.1279405355 0.5633214116 4291743699
-0.2463914901 -0.1273404360 0.5634355545 4291875286
-0.2464411855 -0.1267399788 0.5635492206 4292006872
-0.2464906722 -0.1261391640 0.5636623502 4292138458
-0.2469325215 -0.1257378757 0.5646727681 4292138458
-0.2469816357 -0.1251353770 0.5647851229 4292204250
-0.2466378212 -0.1243345290 0.5639988780 4292270043
-0.2466864288 -0.1237322763 0.5641100407 4292072665
-0.2467348278 -0.1231296584 0.5642207265 4292204251
-0.2467830181 -0.1225266904 0.5643308759 4292270044
-0.2468309850 -0.1219233721 0.5644405484 4292270044
-0.2468787283 -0.1213197038 0.5645497441 4292270044
-0.2469262481 -0.1207156852 0.5646584630 4292270044
-0.2469735593 -0.1201113164 0.5647666454 4292204765
-0.2470206469 -0.1195065975 0.5648742914 4292270558
-0.2470675111 -0.1189015359 0.5649814606 4292270558
-0.2471141666 -0.1182961315 0.5650881529 4292204765
-0.2471605986 -0.1176903918 0.5651943088 4292204765
-0.2369352579 -0.1644082218 0.5431911349 4291942626
-0.2373826951 -0.1641140282 0.5442169309 4291876061
-0.2374446839 -0.1635520756 0.5443590283 4291941854
-0.2375064790 -0.1629896611 0.5445007086 4291875804
-0.2375681102 -0.1624268144 0.5446420312 4291875804
-0.2380153239 -0.1621263027 0.5456672907 4291744729
-0.2380766869 -0.1615616679 0.5458079576 4291678936
-0.2381378710 -0.1609966010 0.5459482074 4291744216
-0.2381988615 -0.1604311019 0.5460880399 4291744216
-0.2382596731 -0.1598651558 0.5462274551 4291810007
-0.2387065738 -0.1595569700 0.5472519994 4291810007
-0.2387671173 -0.1589892507 0.5473908186 4291810009
-0.2388274670 -0.1584210992 0.5475291610 4291810009
-0.2392741889 -0.1581079364 0.5485532880 4291810009
-0.2393342704 -0.1575380117 0.5486910343 4291810009
-0.2393941730 -0.1569676399 0.5488283634 4291810009
-0.2398407161 -0.1566495150 0.5498521328 4291810009
-0.2399003357 -0.1560773700 0.5499888062 4291810009
-0.2399597615 -0.1555048078 0.5501250625 4291810009
-0.2400190085 -0.1549318284 0.5502608418 4291678423
-0.2400780618 -0.1543584019 0.5503962040 4291744216
-0.2401369065 -0.1537845731 0.5505311489 4291744216
-0.2401955873 -0.1532103121 0.5506656766 4291744216
-0.2406415641 -0.1528818309 0.5516881347 4291810009
-0.2406999469 -0.1523057967 0.5518219471 4291810009
-0.2407581359 -0.1517293602 0.5519553423 4291744216
-0.2408161312 -0.1511524916 0.5520883203 4291810009
-0.2412618101 -0.1508176923 0.5531100631 4291678682
-0.2413195074 -0.1502390653 0.5532423854 4291547096
-0.2417650819 -0.1499006450 0.5542638898 4291547350
-0.2422106415 -0.1495599449 0.5552853346 4291547350
-0.2418797016 -0.1487394720 0.5545266271 4291415764
-0.2419367135 -0.1481582671 0.5546573400 4291415764
-0.2423819602 -0.1478135288 0.5556780696 4291546837
-0.2424386740 -0.1472305655 0.5558081269 4291481044
-0.2428837866 -0.1468822211 0.5568286180 4291415251
-0.2429402024 -0.1462974995 0.5569579005 4291415251
-0.2429963946 -0.1457123905 0.5570867658 4291415251
-0.2434412837 -0.1453590691 0.5581067204 4291349458
-0.2434971929 -0.1447722018 0.5582348108 4291414481
-0.2435528785 -0.1441849321 0.5583625436 4291414481
-0.2436083704 -0.1435972601 0.5584897399 4291348688
-0.2436636686 -0.1430092007 0.5586165190 4291348688
-0.2437187582 -0.1424207240 0.5587428212 4291283149
-0.2437736392 -0.1418318599 0.5588686466 4291283149
-0.2434388250 -0.1410169601 0.5581009984 4291283149
-0.2438828051 -0.1406529248 0.5591188669 4291217356
-0.2435474098 -0.1398391277 0.5583499670 4291217356
-0.2436013967 -0.1392496228 0.5584737062 4291217356
-0.2436551750 -0.1386597157 0.5585970283 4291086284
-0.2437087446 -0.1380694360 0.5587198734 4291086284
-0.2437621206 -0.1374787539 0.5588422418 4291086284
-0.2438152879 -0.1368876994 0.5589640737 4291152077
-0.2438682467 -0.1362962425 0.5590854883 4291152332
-0.2443112731 -0.1359215379 0.5601012111 4291218125
-0.2443639040 -0.1353283674 0.5602218509 4291283918
-0.2444163263 -0.1347348243 0.5603420138 4291349711
-0.2444685400 -0.1341408938 0.5604617596 4291415504
-0.2445205450 -0.1335465759 0.5605809689 4291415504
-0.2445723414 -0.1329518855 0.5606997013 4291677907
-0.2446239293 -0.1323568225 0.5608179569 4291677907
-0.2446753085 -0.1317613870 0.5609357357 4291743700
-0.2447264791 -0.1311655641 0.5610530972 4291809493
-0.2447774261 -0.1305693835 0.5611698627 4291809493
-0.2448281795 -0.1299728155 0.5612862110 4291875286
-0.2448787093 -0.1293758899 0.5614020824 4291941078
-0.2449290305 -0.1287785918 0.5615174770 4292006871
-0.2453704774 -0.1283856779 0.5625295043 4291941078
-0.2454204559 -0.1277866960 0.5626440644 4291941078
-0.2454702258 -0.1271873415 0.5627581477 4292006871
-0.2455197722 -0.1265876293 0.5628717542 4292072664
-0.2455691099 -0.1259875447 0.5629848838 4292072664
-0.2456182241 -0.1253871024 0.5630974770 4292138457
-0.2456671298 -0.1247863024 0.5632095933 4292138457
-0.2457158118 -0.1241851449 0.5633212328 4292204250
-0.2457642853 -0.1235836297 0.5634323359 4292138457
-0.2454205006 -0.1227856129 0.5626441836 4292138457
-0.2454684675 -0.1221843511 0.5627541542 4292138457
-0.2455162108 -0.1215827391 0.5628635883 4292138457
-0.2455637455 -0.1209807694 0.5629725456 4292007641
-0.2456110567 -0.1203784570 0.5630810261 4292007641
-0.2456581444 -0.1197757944 0.5631889701 4292204250
-0.2460975200 -0.1193631589 0.5641962886 4292270043
-0.2461442500 -0.1187588423 0.5643033981 4292073434
-0.2461907566 -0.1181541830 0.5644100308 4292205020
-0.2466297746 -0.1177366599 0.5654165149 4292139484
-0.2466759086 -0.1171303466 0.5655223131 4292139484
-0.2360986620 -0.1636430025 0.5426549315 4292007649
-0.2361603677 -0.1630826890 0.5427967310 4291941856
-0.2362218797 -0.1625219285 0.5429381728 4291941597
-0.2362832278 -0.1619607359 0.5430791378 4291941597
-0.2363443822 -0.1613990963 0.5432197452 4291810522
-0.2367903888 -0.1610989720 0.5442448258 4291744729
-0.2368512899 -0.1605355591 0.5443847775 4291744216
-0.2369119972 -0.1599716991 0.5445243120 4291810009
-0.2369725257 -0.1594074219 0.5446634889 4291810007
-0.2374182940 -0.1591009796 0.5456880331 4291744214
-0.2374785691 -0.1585349143 0.5458265543 4291810011
-0.2375386357 -0.1579684168 0.5459645987 4291810011
-0.2379842550 -0.1576570123 0.5469888449 4291810011
-0.2380440533 -0.1570887268 0.5471262932 4291810011
-0.2384895831 -0.1567737013 0.5481503010 4291810011
-0.2385490984 -0.1562036425 0.5482870936 4291810011
-0.2386084497 -0.1556331664 0.5484234691 4291875804
-0.2386676073 -0.1550622582 0.5485594273 4291875804
-0.2391128540 -0.1547409147 0.5495828390 4291744218
-0.2391717285 -0.1541682333 0.5497181416 4291744218
-0.2392304093 -0.1535951346 0.5498530269 4291744218
-0.2392888963 -0.1530216187 0.5499874353 4291810011
-0.2393472046 -0.1524476707 0.5501214862 4291810011
-0.2397920787 -0.1521186680 0.5511439443 4291810011
-0.2398500890 -0.1515429616 0.5512772799 4291810011
-0.2399079055 -0.1509668380 0.5514101982 4291810011
-0.2399655282 -0.1503902972 0.5515426397 4291744729
-0.2404101044 -0.1500549763 0.5525644422 4291678936
-0.2408546656 -0.1497173756 0.5535862446 4291744729
-0.2405245751 -0.1488979608 0.5528275967 4291744729
-0.2409689277 -0.1485576779 0.5538488626 4291678936
-0.2406382710 -0.1477393061 0.5530889034 4291744729
-0.2410824150 -0.1473963410 0.5541097522 4291810009
-0.2411388606 -0.1468150467 0.5542394519 4291744216
-0.2415828854 -0.1464684606 0.5552600026 4291744216
-0.2416390330 -0.1458854228 0.5553890467 4291744216
-0.2416949868 -0.1453019679 0.5555176735 4291744216
-0.2417507321 -0.1447181255 0.5556458235 4291744216
-0.2421944141 -0.1443652362 0.5566655397 4291744216
-0.2422498465 -0.1437796354 0.5567929745 4291744216
-0.2423050851 -0.1431936473 0.5569199324 4291744216
-0.2423601300 -0.1426072568 0.5570464730 4291744216
-0.2424149662 -0.1420204639 0.5571724772 4291810007
-0.2424695939 -0.1414332688 0.5572980642 4291810007
-0.2425240278 -0.1408456862 0.5574231744 4291810007
-0.2425782681 -0.1402577013 0.5575478077 4291810007
-0.2426322848 -0.1396693289 0.5576719642 4291810007
-0.2422971874 -0.1388576776 0.5569018126 4291744214
-0.2423507273 -0.1382694542 0.5570248365 4291744469
-0.2424040586 -0.1376808584 0.5571474433 4291744469
-0.2424571812 -0.1370918602 0.5572695136 4291744469
-0.2428993732 -0.1367215961 0.5582858324 4291744469
-0.2429521680 -0.1361308843 0.5584072471 4291744469
-0.2430047691 -0.1355397850 0.5585281253 4291810262
-0.2430571616 -0.1349483132 0.5586485267 4291941078
-0.2431093454 -0.1343564540 0.5587684512 4292006871
-0.2431613207 -0.1337642074 0.5588878989 4292006871
-0.2432130873 -0.1331715882 0.5590069294 4292006871
-0.2432646453 -0.1325785965 0.5591254234 4292006872
-0.2433159947 -0.1319852322 0.5592434406 4292006872
-0.2433671355 -0.1313914806 0.5593609810 4292072665
-0.2434180677 -0.1307973564 0.5594780445 4292138458
-0.2434687912 -0.1302028596 0.5595946312 4292138458
-0.2435193062 -0.1296079904 0.5597107410 4292204251
-0.2435696125 -0.1290127635 0.5598263741 4292204251
-0.2436197102 -0.1284171641 0.5599414706 4292138458
-0.2436695844 -0.1278211921 0.5600561500 4292138457
-0.2441098243 -0.1274287403 0.5610679984 4292138457
-0.2441593707 -0.1268310845 0.5611818433 4292138457
-0.2442086935 -0.1262330711 0.5612952113 4292138457
-0.2442577928 -0.1256346852 0.5614081025 4292138457
-0.2443066984 -0.1250359565 0.5615204573 4292138457
-0.2443553805 -0.1244368479 0.5616323948 4292138457
-0.2444038391 -0.1238373965 0.5617437959 4292138457
-0.2444520891 -0.1232375801 0.5618546605 4292138457
-0.2445001304 -0.1226374134 0.5619651079 4292138457
-0.2441566736 -0.1218416393 0.5611756444 4292007641
-0.2442042083 -0.1212417260 0.5612848997 4292073434
-0.2442515194 -0.1206414700 0.5613936782 4292139227
-0.2442986071 -0.1200408638 0.5615019202 4292139227
-0.2443454862 -0.1194399074 0.5616096258 4292270043
-0.2447838038 -0.1190290526 0.5626170635 4292270043
-0.2448303252 -0.1184264496 0.5627239943 4292138972
-0.2448766232 -0.1178234965 0.5628303885 4292204765
-0.2449226975 -0.1172202080 0.5629363060 4292204765
-0.2453605086 -0.1168031618 0.5639426112 4292270558
-0.2348788083 -0.1626128107 0.5412328839 4292007649
-0.2353239357 -0.1623184979 0.5422585607 4291941854
-0.2353850901 -0.1617580354 0.5423994660 4291941854
-0.2354460657 -0.1611971408 0.5425399542 4291876315
-0.2355068624 -0.1606357992 0.5426800847 4291810522
-0.2355674654 -0.1600740403 0.5428197384 4291810009
-0.2356279045 -0.1595118344 0.5429589748 4291810009
-0.2360726297 -0.1592084914 0.5439838171 4291810009
-0.2361328006 -0.1586445123 0.5441224575 4291810009
-0.2361927778 -0.1580801010 0.5442606211 4291875804
-0.2362525761 -0.1575152576 0.5443984270 4291875804
-0.2366970628 -0.1572055966 0.5454226732 4291875804
-0.2371415645 -0.1568936855 0.5464469194 4291875804
-0.2372010052 -0.1563257128 0.5465838909 4291875804
-0.2372602522 -0.1557573080 0.5467204452 4291875804
-0.2373193204 -0.1551884860 0.5468565226 4291875804
-0.2377635539 -0.1548702568 0.5478801727 4291875804
-0.2378223389 -0.1542996615 0.5480156541 4291810011
-0.2378809303 -0.1537286490 0.5481506586 4291810011
-0.2379393429 -0.1531572044 0.5482852459 4291810011
-0.2379975617 -0.1525853425 0.5484194160 4291875804
-0.2384414226 -0.1522594392 0.5494422317 4291810011
-0.2381134331 -0.1514403820 0.5486864448 4291810011
-0.2385571003 -0.1511117816 0.5497087836 4291875804
-0.2386146635 -0.1505373269 0.5498414040 4291810011
-0.2390582263 -0.1502051055 0.5508635044 4291810009
-0.2391154766 -0.1496288925 0.5509954691 4291744216
-0.2395589352 -0.1492930651 0.5520172715 4291810009
-0.2396159023 -0.1487150788 0.5521485806 4291875802
-0.2396726757 -0.1481367052 0.5522794127 4291875802
-0.2393426001 -0.1473199129 0.5515187979 4291875802
-0.2397856414 -0.1469786912 0.5525397062 4291875802
-0.2398418188 -0.1463990808 0.5526691675 4291875802
-0.2402847558 -0.1460542530 0.5536897779 4291744216
-0.2403406352 -0.1454728842 0.5538185835 4291744216
-0.2403963208 -0.1448911279 0.5539469123 4291744216
-0.2408390194 -0.1445413381 0.5549669862 4291744216
-0.2408943921 -0.1439578235 0.5550945997 4291810007
-0.2409495860 -0.1433739066 0.5552217960 4291810007
-0.2410045713 -0.1427895874 0.5553484559 4291810007
-0.2410593480 -0.1422048807 0.5554746985 4291810007
-0.2411139309 -0.1416197717 0.5556005239 4291941593
-0.2411683202 -0.1410342604 0.5557258129 4291875800
-0.2412225008 -0.1404483616 0.5558506846 4291875800
-0.2412764877 -0.1398620605 0.5559750795 4291875800
-0.2413302660 -0.1392753720 0.5560989976 4291875800
-0.2413838357 -0.1386882812 0.5562224388 4291875800
-0.2414372116 -0.1381008178 0.5563454032 4291876055
-0.2414903790 -0.1375129521 0.5564679503 4291876055
-0.2415433526 -0.1369246989 0.5565900207 4291876055
-0.2415961176 -0.1363360584 0.5567116141 4291876055
-0.2420371771 -0.1359652877 0.5577279329 4291941848
-0.2417010218 -0.1351576298 0.5569533706 4291941848
-0.2417531759 -0.1345678568 0.5570735335 4292072664
-0.2418051213 -0.1339776814 0.5571932197 4292072664
-0.2418568581 -0.1333871335 0.5573124290 4292072664
-0.2419083863 -0.1327962130 0.5574311614 4292072664
-0.2419597059 -0.1322049052 0.5575494170 4292073179
-0.2420108318 -0.1316132247 0.5576671958 4292073179
-0.2420617342 -0.1310211718 0.5577844977 4292007386
-0.2421124279 -0.1304287463 0.5579013228 4292073179
-0.2421629280 -0.1298359483 0.5580176711 4292073179
-0.2422132045 -0.1292427778 0.5581335425 4292073179
-0.2422632724 -0.1286492497 0.5582489371 4292073179
-0.2423131466 -0.1280553341 0.5583638549 4292073179
-0.2427524477 -0.1276659966 0.5593761206 4292138972
-0.2428019643 -0.1270703971 0.5594902039 4292138972
-0.2428512722 -0.1264744401 0.5596038699 4292139227
-0.2429003716 -0.1258781254 0.5597169995 4292073434
-0.2429492474 -0.1252814531 0.5598296523 4292073434
-0.2429979295 -0.1246844158 0.5599417686 4292073434
-0.2430463880 -0.1240870208 0.5600534678 4292073434
-0.2430946231 -0.1234892681 0.5601646304 4292007641
-0.2431426644 -0.1228911653 0.5602753162 4292204251
-0.2431904674 -0.1222926974 0.5603854656 4292204251
-0.2428476512 -0.1214985549 0.5595955253 4292073179
-0.2428949624 -0.1209003478 0.5597045422 4292138972
-0.2429420501 -0.1203017980 0.5598130226 4292138972
-0.2429889292 -0.1197028980 0.5599210858 4292204765
-0.2434263229 -0.1192951426 0.5609289408 4292335837
-0.2434728444 -0.1186945885 0.5610361695 4292270044
-0.2435191572 -0.1180936918 0.5611428618 4292204765
-0.2435652316 -0.1174924523 0.5612490773 4292270558
-0.2436111122 -0.1168908775 0.5613547564 4292270558
-0.2343659401 -0.1626740694 0.5414367318 4292073442
-0.2344270796 -0.1621147841 0.5415779948 4291941854
-0.2344880551 -0.1615550518 0.5417188406 4291941854
-0.2345488369 -0.1609948874 0.5418592691 4291941854
-0.2346094400 -0.1604342908 0.5419992805 4291876061
-0.2346698642 -0.1598732620 0.5421389341 4291875802
-0.2347301245 -0.1593118012 0.5422781110 4291810009
-0.2347901762 -0.1587498933 0.5424168706 4291875802
-0.2352338135 -0.1584460437 0.5434417129 4291941595
-0.2352936119 -0.1578823626 0.5435798764 4291941597
-0.2353532165 -0.1573182642 0.5437176228 4291875804
-0.2354126573 -0.1567537189 0.5438548923 4291875804
-0.2358560413 -0.1564435512 0.5448791981 4291875804
-0.2359151989 -0.1558772475 0.5450158715 4291875804
-0.2363584936 -0.1555634588 0.5460399985 4291875804
-0.2364173830 -0.1549953818 0.5461760163 4291875804
-0.2364760786 -0.1544268727 0.5463116169 4291875804
-0.2369191945 -0.1541081071 0.5473353267 4291875804
-0.2369776219 -0.1535378397 0.5474703312 4291810011
-0.2370358557 -0.1529671401 0.5476048589 4291875804
-0.2370938957 -0.1523960084 0.5477389097 4291875804
-0.2371517569 -0.1518244743 0.5478726029 4291810011
-0.2372094095 -0.1512525231 0.5480058193 4291810011
-0.2376520634 -0.1509247571 0.5490284562 4291875804
-0.2377094477 -0.1503510475 0.5491609573 4291810011
-0.2377666235 -0.1497769058 0.5492931008 4291744216
-0.2378236204 -0.1492023617 0.5494247675 4291744216
-0.2382659763 -0.1488682926 0.5504466891 4291810009
-0.2387083173 -0.1485319436 0.5514686108 4291810009
-0.2383791804 -0.1477152705 0.5507082343 4291810009
-0.2384355068 -0.1471381485 0.5508383512 4291810009
-0.2384916246 -0.1465606093 0.5509679914 4291810009
-0.2389335483 -0.1462188959 0.5519889593 4291810009
-0.2389893681 -0.1456396133 0.5521178842 4291810009
-0.2390450090 -0.1450599283 0.5522463918 4291810009
-0.2391004264 -0.1444798410 0.5523744822 4291810009
-0.2395420223 -0.1441318095 0.5533946753 4291810009
-0.2395971566 -0.1435499787 0.5535219908 4291875802
-0.2400386184 -0.1431983411 0.5545418859 4291875802
-0.2400934398 -0.1426147670 0.5546685457 4291875802
-0.2401480526 -0.1420307904 0.5547947288 4291875802
-0.2398156673 -0.1412186474 0.5540268421 4291810520
-0.2398698032 -0.1406348199 0.5541518927 4291810520
-0.2403107136 -0.1402764916 0.5551704764 4291810520
-0.2403645366 -0.1396909356 0.5552948117 4291810520
-0.2404181510 -0.1391049922 0.5554186702 4291810520
-0.2404715568 -0.1385186464 0.5555421114 4291810520
-0.2405247837 -0.1379319131 0.5556650162 4291875800
-0.2405777872 -0.1373447925 0.5557875037 4291875800
-0.2406305969 -0.1367572844 0.5559095144 4291941593
-0.2406831980 -0.1361693889 0.5560309887 4291941593
-0.2407356054 -0.1355811208 0.5561520457 4292007641
-0.2407878041 -0.1349924505 0.5562726855 4292007641
-0.2408397943 -0.1344034076 0.5563927889 4292138457
-0.2408915758 -0.1338139921 0.5565124154 4292138457
-0.2409431636 -0.1332241744 0.5566315651 4292204250
-0.2409945279 -0.1326339990 0.5567502379 4292204250
-0.2410456985 -0.1320434362 0.5568684936 4292073179
-0.2410966605 -0.1314525008 0.5569862127 4292007386
-0.2411474138 -0.1308611929 0.5571034551 4292007386
-0.2411979735 -0.1302695125 0.5572202206 4292007386
-0.2412483096 -0.1296774596 0.5573365092 4292007386
-0.2412984371 -0.1290850341 0.5574523211 4292007386
-0.2413483560 -0.1284922510 0.5575676560 4292073179
-0.2413980663 -0.1278990805 0.5576825142 4292073179
-0.2414475679 -0.1273055673 0.5577968955 4292138972
-0.2414968610 -0.1267116666 0.5579107404 4292138972
-0.2415459454 -0.1261174232 0.5580241680 4292138972
-0.2415948212 -0.1255228072 0.5581370592 4292138972
-0.2416434735 -0.1249278337 0.5582494736 4292138972
-0.2416919321 -0.1243325025 0.5583614111 4292138972
-0.2417401671 -0.1237368137 0.5584728122 4292073179
-0.2417881787 -0.1231407672 0.5585837960 4292073179
-0.2418359965 -0.1225443631 0.5586942434 4292073179
-0.2422730923 -0.1221439838 0.5597040057 4292138972
-0.2423205525 -0.1215459183 0.5598136783 4292204765
-0.2423678041 -0.1209475026 0.5599228144 4292138972
-0.2424148321 -0.1203487366 0.5600314736 4292204765
-0.2424616367 -0.1197496206 0.5601395965 4292270558
-0.2425082475 -0.1191501617 0.5602472425 4292204765
-0.2425546199 -0.1185503602 0.5603544116 4292204765
-0.2426007837 -0.1179502085 0.5604610443 4292270558
-0.2426467389 -0.1173497215 0.5605672002 4292270558
-0.2331491113 -0.1616457850 0.5400112271 4292007649
-0.2335921079 -0.1613517851 0.5410372615 4292007649
-0.2332703024 -0.1605291963 0.5402919054 4291941854
-0.2333306223 -0.1599702537 0.5404316187 4291876061
-0.2333907634 -0.1594108790 0.5405709147 4291941595
-0.2334507257 -0.1588510573 0.5407097936 4291875802
-0.2338933051 -0.1585503072 0.5417349339 4291941595
-0.2339530140 -0.1579887271 0.5418732166 4291941595
-0.2340125293 -0.1574267000 0.5420110226 4291941597
-0.2340718657 -0.1568642557 0.5421484709 4291941597
-0.2345142066 -0.1565571874 0.5431730151 4291941597
-0.2349565625 -0.1562478542 0.5441976190 4291941597
-0.2346321642 -0.1554283202 0.5434461832 4291875804
-0.2350743413 -0.1551162899 0.5444703698 4291875804
-0.2351329476 -0.1545498669 0.5446061492 4291875804
-0.2351913750 -0.1539830267 0.5447414517 4291875804
-0.2352496237 -0.1534157544 0.5448763371 4291875804
-0.2356915325 -0.1530974060 0.5458998680 4291875804
-0.2357494980 -0.1525283754 0.5460341573 4291875804
-0.2358072698 -0.1519589275 0.5461679697 4291810011
-0.2362489998 -0.1516356170 0.5471910834 4291875804
-0.2359222472 -0.1508187652 0.5464342833 4291810011
-0.2363637835 -0.1504927576 0.5474569201 4291810011
-0.2364208996 -0.1499207169 0.5475891829 4291810011
-0.2364778221 -0.1493482590 0.5477210283 4291875804
-0.2369191498 -0.1490172893 0.5487432480 4291875804
-0.2369757891 -0.1484430730 0.5488744378 4291810268
-0.2370322198 -0.1478684396 0.5490051508 4291810268
-0.2370884717 -0.1472934037 0.5491354465 4291810268
-0.2371445298 -0.1467179507 0.5492652655 4291810268
-0.2372003794 -0.1461420953 0.5493946075 4291810268
-0.2376412153 -0.1458021402 0.5504156351 4291810268
-0.2376967669 -0.1452245414 0.5505443215 4291810522
-0.2377521396 -0.1446465254 0.5506725907 4291810522
-0.2378073186 -0.1440681219 0.5508003831 4291810522
-0.2382478118 -0.1437218636 0.5518206358 4291810522
-0.2383026779 -0.1431417018 0.5519477129 4291876315
-0.2387430370 -0.1427918375 0.5529676676 4291876315
-0.2387976050 -0.1422099471 0.5530940294 4291876315
-0.2388519794 -0.1416276544 0.5532199740 4291876315
-0.2389061451 -0.1410449594 0.5533454418 4291876315
-0.2385740727 -0.1402349621 0.5525763035 4291942108
-0.2390138805 -0.1398784071 0.5535949469 4291942108
-0.2390674502 -0.1392945349 0.5537190437 4291942108
-0.2391208112 -0.1387102753 0.5538426638 4291942108
-0.2391739786 -0.1381256133 0.5539658070 4292007901
-0.2392269522 -0.1375405788 0.5540884733 4292007899
-0.2392797172 -0.1369551420 0.5542107224 4292007899
-0.2393322885 -0.1363693327 0.5543324351 4292007386
-0.2393846363 -0.1357831210 0.5544537306 4292007386
-0.2398236096 -0.1354149431 0.5554704666 4292007386
-0.2394887507 -0.1346095651 0.5546948910 4292073179
-0.2395405024 -0.1340222210 0.5548147559 4292073179
-0.2395920604 -0.1334344894 0.5549341440 4292073179
-0.2396433949 -0.1328463703 0.5550530553 4292138972
-0.2396945357 -0.1322578937 0.5551714897 4292138972
-0.2397454679 -0.1316690296 0.5552894473 4292073179
-0.2397961915 -0.1310797930 0.5554069281 4292073179
-0.2398467064 -0.1304901689 0.5555239320 4292138972
-0.2398970276 -0.1299001873 0.5556405187 4292138972
-0.2399471402 -0.1293098330 0.5557565689 4292138972
-0.2399970293 -0.1287191212 0.5558721423 4292138972
-0.2400467247 -0.1281280220 0.5559872389 4292138972
-0.2400962114 -0.1275365651 0.5561017990 4292138972
-0.2401454747 -0.1269447505 0.5562159419 4292138972
-0.2405825853 -0.1265566796 0.5572283268 4292138972
-0.2402434051 -0.1257600188 0.5564427376 4292138972
-0.2402920425 -0.1251671016 0.5565553904 4292138972
-0.2403404713 -0.1245738342 0.5566676259 4292138972
-0.2403887063 -0.1239802092 0.5567792654 4292138972
-0.2404367179 -0.1233862266 0.5568904877 4292204765
-0.2404845208 -0.1227918863 0.5570012331 4292204765
-0.2405321002 -0.1221971959 0.5571114421 4292138972
-0.2409681380 -0.1217986047 0.5581213832 4292204765
-0.2410153747 -0.1212022454 0.5582307577 4292204765
-0.2410624027 -0.1206055433 0.5583397150 4292204765
-0.2411092222 -0.1200084835 0.5584481359 4292204765
-0.2323157936 -0.1608840525 0.5394688845 4292073442
-0.2323761135 -0.1603262872 0.5396089554 4292007647
-0.2324362397 -0.1597680748 0.5397486091 4291941854
-0.2324962020 -0.1592094302 0.5398878455 4292007390
-0.2325559855 -0.1586503685 0.5400266647 4292007390
-0.2329975367 -0.1583504528 0.5410519838 4291942108
-0.2326750010 -0.1575309187 0.5403029919 4291876315
-0.2327342331 -0.1569705606 0.5404405594 4291941595
-0.2331755459 -0.1566666067 0.5414653420 4291941595
-0.2332345247 -0.1561044604 0.5416023135 4291941595
-0.2336757481 -0.1557968855 0.5426269174 4291941595
-0.2337344587 -0.1552329808 0.5427632332 4291941595
-0.2337929755 -0.1546686441 0.5428991318 4291941595
-0.2338513136 -0.1541038901 0.5430345535 4291875802
-0.2339094579 -0.1535387039 0.5431696177 4291875802
-0.2339674234 -0.1529731005 0.5433042049 4291875802
-0.2344082296 -0.1526565254 0.5443277955 4291875802
-0.2344659120 -0.1520891488 0.5444617867 4291875802
-0.2345234156 -0.1515213698 0.5445953012 4291810009
-0.2345807254 -0.1509531736 0.5447283983 4291875802
-0.2350212485 -0.1506302804 0.5457513332 4291875802
-0.2354617715 -0.1503051072 0.5467742682 4291810009
-0.2355187088 -0.1497337967 0.5469065309 4291875802
-0.2355754524 -0.1491620839 0.5470382571 4291810268
-0.2356320173 -0.1485899538 0.5471696258 4291876061
-0.2356883734 -0.1480174065 0.5473005176 4291810268
-0.2357445508 -0.1474444419 0.5474309325 4291810268
-0.2358005345 -0.1468710750 0.5475609303 4291810268
-0.2358563244 -0.1462973058 0.5476905107 4291810268
-0.2359119356 -0.1457231343 0.5478196144 4291876061
-0.2363516539 -0.1453849375 0.5488407016 4291876061
-0.2364069521 -0.1448090225 0.5489691496 4291744475
-0.2364620566 -0.1442326903 0.5490971208 4291744475
-0.2365169823 -0.1436559558 0.5492246151 4291744475
-0.2369563729 -0.1433114707 0.5502449274 4291810268
-0.2370109856 -0.1427330077 0.5503717661 4291810268
-0.2374502420 -0.1423849016 0.5513917804 4291810268
-0.2375045568 -0.1418046951 0.5515179038 4291876315
-0.2375586778 -0.1412240863 0.5516435504 4291876315
-0.2376125902 -0.1406430751 0.5517687798 4291876315
-0.2372811139 -0.1398346871 0.5509990454 4291876315
-0.2377198189 -0.1394798905 0.5520178080 4291876315
-0.2377731502 -0.1388977021 0.5521416068 4291876315
-0.2378262579 -0.1383151412 0.5522649884 4291942108
-0.2378791869 -0.1377321631 0.5523878336 4291942108
-0.2379319072 -0.1371488124 0.5525102615 4292007901
-0.2379844338 -0.1365650743 0.5526322126 4292007901
-0.2380367517 -0.1359809488 0.5527537465 4291942108
-0.2380888611 -0.1353964359 0.5528747439 4291942108
-0.2385267466 -0.1350300461 0.5538915992 4292007388
-0.2385785431 -0.1344438195 0.5540118814 4292007388
-0.2382439971 -0.1336406171 0.5532349944 4292007386
-0.2382953167 -0.1330545843 0.5533541441 4292073179
-0.2383464128 -0.1324681640 0.5534728169 4292073179
-0.2383973151 -0.1318813711 0.5535910130 4292073179
-0.2384480089 -0.1312942058 0.5537087321 4292138974
-0.2384985089 -0.1307066679 0.5538259745 4292138974
-0.2385487854 -0.1301187575 0.5539427400 4292204767
-0.2385988683 -0.1295304745 0.5540590286 4292204767
-0.2386487424 -0.1289418191 0.5541748405 4292204767
-0.2390852720 -0.1285608262 0.5551885366 4292204767
-0.2391348183 -0.1279704869 0.5553036332 4292204767
-0.2387971282 -0.1271736622 0.5545194149 4292204767
-0.2392332703 -0.1267887056 0.5555322170 4292138972
-0.2392821908 -0.1261972636 0.5556458235 4292138972
-0.2389436364 -0.1254022270 0.5548596382 4292204765
-0.2389920503 -0.1248110160 0.5549720526 4292204765
-0.2394276857 -0.1244207844 0.5559836626 4292204765
-0.2394757569 -0.1238279119 0.5560953021 4292204765
-0.2395236343 -0.1232346743 0.5562064648 4292204765
-0.2395712882 -0.1226410866 0.5563171506 4292204765
-0.2396187335 -0.1220471412 0.5564273000 4292138972
-0.2396659702 -0.1214528456 0.5565369725 4292204765
-0.2315429747 -0.1595656127 0.5390646458 4292073440
-0.2316027433 -0.1590077132 0.5392037630 4292138976
-0.2316623330 -0.1584493816 0.5393425226 4292073183
-0.2317217588 -0.1578906178 0.5394808650 4292007647
-0.2313997746 -0.1570726484 0.5387312174 4291941854
-0.2318400443 -0.1567717940 0.5397562385 4292007390
-0.2318989187 -0.1562117487 0.5398933291 4292007390
-0.2327206284 -0.1561632901 0.5418063402 4292007390
-0.2327793241 -0.1556005329 0.5419430137 4291941597
-0.2320744544 -0.1545290500 0.5403019786 4291941597
-0.2325143963 -0.1542205364 0.5413262248 4291941597
-0.2325724512 -0.1536574513 0.5414614081 4291941597
-0.2326303273 -0.1530939341 0.5415961146 4291941597
-0.2330701053 -0.1527804583 0.5426200032 4291941597
-0.2331276983 -0.1522151828 0.5427541137 4291941597
-0.2335673869 -0.1518980861 0.5437777638 4291875804
-0.2336247116 -0.1513310373 0.5439112186 4291875804
-0.2336818576 -0.1507635713 0.5440442562 4291875804
-0.2337388098 -0.1501957029 0.5441768169 4291875804
-0.2341782153 -0.1498723030 0.5451998115 4291875804
-0.2342348844 -0.1493026614 0.5453317761 4291875804
-0.2342913598 -0.1487326175 0.5454632640 4291810268
-0.2343476564 -0.1481621563 0.5455943346 4291810268
-0.2344037592 -0.1475912929 0.5457249284 4291810268
-0.2344596684 -0.1470200121 0.5458551049 4291810268
-0.2345153838 -0.1464483142 0.5459848046 4291810268
-0.2345709205 -0.1458762288 0.5461140871 4291810268
-0.2346262634 -0.1453037262 0.5462429523 4291810268
-0.2350648642 -0.1449673027 0.5472640991 4291876061
-0.2351199090 -0.1443930566 0.5473922491 4291876061
-0.2351747602 -0.1438184083 0.5475199223 4291876061
-0.2352294326 -0.1432433575 0.5476471782 4291941595
-0.2356677204 -0.1429006457 0.5486676097 4292007388
-0.2357220799 -0.1423238665 0.5487941504 4292007388
-0.2357762307 -0.1417466849 0.5489202738 4292073181
-0.2362142950 -0.1413990110 0.5499401093 4292073181
-0.2362681478 -0.1408200860 0.5500655174 4292073181
-0.2363218218 -0.1402407736 0.5501904488 4292007901
-0.2359909415 -0.1394339651 0.5494201183 4292007901
-0.2364285588 -0.1390809566 0.5504389405 4292007901
-0.2364816219 -0.1385004669 0.5505625010 4292007901
-0.2365344912 -0.1379195750 0.5506855845 4292007901
-0.2365871668 -0.1373383105 0.5508082509 4292073694
-0.2366396487 -0.1367566437 0.5509303808 4292073694
-0.2366919219 -0.1361745894 0.5510520935 4292073694
-0.2367440015 -0.1355921626 0.5511733294 4292139487
-0.2367958724 -0.1350093484 0.5512940884 4292139487
-0.2372326553 -0.1346447319 0.5523110032 4292139487
-0.2372842133 -0.1340602040 0.5524310470 4292073694
-0.2369502932 -0.1332586110 0.5516536236 4292073692
-0.2370013595 -0.1326742619 0.5517724752 4292073692
-0.2370522171 -0.1320895553 0.5518909097 4292073692
-0.2371028811 -0.1315044612 0.5520088673 4292073692
-0.2371533364 -0.1309189945 0.5521263480 4292204767
-0.2372035980 -0.1303331554 0.5522433519 4292204767
-0.2372536510 -0.1297469437 0.5523598790 4292138974
-0.2373034954 -0.1291603595 0.5524759293 4292138974
-0.2373531312 -0.1285734177 0.5525915027 4292138974
-0.2377885878 -0.1281942129 0.5536053181 4292138974
-0.2378378958 -0.1276055723 0.5537201166 4292204767
-0.2378870100 -0.1270165592 0.5538344383 4292204767
-0.2379359007 -0.1264271885 0.5539482832 4292138974
-0.2379845828 -0.1258374602 0.5540615916 4292204767
-0.2380330712 -0.1252473742 0.5541744828 4292204765
-0.2380813360 -0.1246569157 0.5542868376 4292204765
-0.2381294072 -0.1240661070 0.5543987751 4292270558
-0.2381772548 -0.1234749332 0.5545101762 4292270558
-0.2382249087 -0.1228834093 0.5546211004 4292270558
-0.2307698131 -0.1582481116 0.5386574268 4292073183
-0.2308290303 -0.1576900929 0.5387957096 4292007647
-0.2308880836 -0.1571316272 0.5389335155 4292073440
-0.2309469581 -0.1565727443 0.5390709639 4292073183
-0.2310056537 -0.1560134441 0.5392079353 4292073183
-0.2314448208 -0.1557098180 0.5402330756 4292007390
-0.2318840176 -0.1554039121 0.5412582159 4292007390
-0.2319423556 -0.1548414826 0.5413943529 4291941597
-0.2316195518 -0.1540253013 0.5406408906 4291941597
-0.2316774428 -0.1534629464 0.5407760143 4291875804
-0.2317351401 -0.1529001743 0.5409106612 4291875804
-0.2321738899 -0.1525875330 0.5419347882 4291941597
-0.2322313040 -0.1520229876 0.5420688391 4291941597
-0.2326699793 -0.1517067403 0.5430927873 4291941597
-0.2327271253 -0.1511404365 0.5432261825 4291941597
-0.2327840775 -0.1505737156 0.5433591008 4291875804
-0.2328408509 -0.1500065923 0.5434916615 4291941597
-0.2332792431 -0.1496840119 0.5445148945 4291941597
-0.2333357334 -0.1491151303 0.5446467996 4291875804
-0.2333920449 -0.1485458165 0.5447782278 4291679452
-0.2334481627 -0.1479761004 0.5449091792 4291745245
-0.2335040867 -0.1474059820 0.5450397134 4291745245
-0.2335598320 -0.1468354464 0.5451698303 4291745245
-0.2336153835 -0.1462644935 0.5452995300 4291941854
-0.2336707413 -0.1456931531 0.5454287529 4291876061
-0.2337259054 -0.1451213956 0.5455574989 4291876315
-0.2341635078 -0.1447858065 0.5465789437 4291876315
-0.2342183739 -0.1442123055 0.5467070341 4291876315
-0.2335074693 -0.1431690007 0.5450476408 4291876315
-0.2343275547 -0.1430640966 0.5469618440 4291941595
-0.2343818545 -0.1424894035 0.5470885634 4292007388
-0.2348190248 -0.1421461850 0.5481089950 4292007388
-0.2348730117 -0.1415697336 0.5482350588 4292007388
-0.2349268198 -0.1409928948 0.5483606458 4292073181
-0.2349804342 -0.1404156685 0.5484857559 4292073181
-0.2350338399 -0.1398380399 0.5486104488 4292073694
-0.2350870520 -0.1392600238 0.5487346649 4292073694
-0.2351400703 -0.1386816055 0.5488584042 4292073694
-0.2355765700 -0.1383280903 0.5498772860 4292073694
-0.2356292903 -0.1377479434 0.5500003099 4292073694
-0.2356818020 -0.1371674240 0.5501228571 4292073694
-0.2357341051 -0.1365865022 0.5502449870 4292073694
-0.2357862294 -0.1360052079 0.5503666401 4292073694
-0.2358381450 -0.1354235262 0.5504878163 4292073692
-0.2358898520 -0.1348414570 0.5506085157 4292073692
-0.2359413654 -0.1342590004 0.5507287979 4292073692
-0.2359926850 -0.1336761713 0.5508485436 4292073692
-0.2356593609 -0.1328761876 0.5500705242 4292073692
-0.2360947132 -0.1325093657 0.5510867238 4292073692
-0.2357608229 -0.1317105442 0.5503073335 4292073692
-0.2358112484 -0.1311271489 0.5504250526 4292073692
-0.2358614653 -0.1305433810 0.5505422950 4292204767
-0.2359114885 -0.1299592406 0.5506590009 4292204767
-0.2359613031 -0.1293747425 0.5507752895 4292204767
-0.2363959253 -0.1289999634 0.5517898202 4292204767
-0.2368305027 -0.1286229044 0.5528041720 4292270560
-0.2368798703 -0.1280353814 0.5529193878 4292204767
-0.2369290292 -0.1274474859 0.5530341268 4292204767
-0.2369779795 -0.1268592328 0.5531483889 4292138974
-0.2370267361 -0.1262706220 0.5532621741 4292138974
-0.2370752692 -0.1256816387 0.5533754826 4292138974
-0.2371236086 -0.1250922978 0.5534883142 4292204767
-0.2371717244 -0.1245025918 0.5536006689 4292204767
-0.2372196466 -0.1239125282 0.5537124872 4292270558
-0.2296167612 -0.1566725969 0.5373591185 4292007650
-0.2296753526 -0.1561153829 0.5374962687 4292007390
-0.2297337651 -0.1555577368 0.5376329422 4292007390
-0.2297919989 -0.1549996734 0.5377691984 4292007390
-0.2302299738 -0.1546964496 0.5387941599 4292007390
-0.2302879393 -0.1541366130 0.5389298201 4291941597
-0.2307258248 -0.1538297683 0.5399546027 4291941597
-0.2304033339 -0.1530156583 0.5391998887 4291941597
-0.2312213480 -0.1529577076 0.5411142707 4291941597
-0.2312787771 -0.1523943394 0.5412486196 4291875804
-0.2313360274 -0.1518305391 0.5413826108 4291941597
-0.2313930839 -0.1512663364 0.5415161252 4291875804
-0.2318306267 -0.1509495676 0.5425401330 4291875804
-0.2318874151 -0.1503835917 0.5426729918 4291941597
-0.2319440097 -0.1498171985 0.5428054929 4291941597
-0.2320004255 -0.1492504030 0.5429375172 4291875804
-0.2320566624 -0.1486831754 0.5430690646 4291875804
-0.2321126908 -0.1481155455 0.5432001948 4291941595
-0.2321685404 -0.1475475132 0.5433309078 4291941595
-0.2322242111 -0.1469790637 0.5434612036 4291941597
-0.2322796881 -0.1464102119 0.5435910225 4291941597
-0.2323349714 -0.1458409429 0.5437204242 4291941597
-0.2323900759 -0.1452712715 0.5438493490 4291941597
-0.2328266650 -0.1449387968 0.5448710918 4291941595
-0.2328814715 -0.1443673819 0.5449993610 4291941595
-0.2329360843 -0.1437955648 0.5451271534 4291810522
-0.2329905182 -0.1432233453 0.5452545285 4291876315
-0.2334267795 -0.1428845823 0.5462754965 4291876315
-0.2334809154 -0.1423106194 0.5464021564 4291876315
-0.2335348576 -0.1417362690 0.5465283990 4291942108
-0.2335885912 -0.1411615163 0.5466541648 4292007901
-0.2336421460 -0.1405863613 0.5467795134 4292073692
-0.2336954921 -0.1400108188 0.5469043851 4292073692
-0.2337486595 -0.1394348741 0.5470287800 4292138972
-0.2341842800 -0.1390858144 0.5480482578 4292138972
-0.2342371345 -0.1385081410 0.5481719375 4292138972
-0.2342897952 -0.1379300952 0.5482951403 4292138972
-0.2343422621 -0.1373516470 0.5484179258 4292138972
-0.2343945205 -0.1367728114 0.5485402346 4292073179
-0.2344465852 -0.1361935884 0.5486621261 4292007899
-0.2344984561 -0.1356139779 0.5487834811 4292007899
-0.2345501333 -0.1350339949 0.5489044189 4292007899
-0.2346016020 -0.1344536245 0.5490248799 4292007899
-0.2342694551 -0.1336541176 0.5482475758 4292007899
-0.2343204468 -0.1330739409 0.5483669043 4292007899
-0.2347548306 -0.1327102184 0.5493834615 4292007899
-0.2344218343 -0.1319124401 0.5486041307 4292073692
-0.2348559648 -0.1315460652 0.5496201515 4292139485
-0.2345224023 -0.1307494342 0.5488395095 4292073692
-0.2345723957 -0.1301673651 0.5489565134 4292138976
-0.2350061685 -0.1297970265 0.5499716401 4292138976
-0.2350558341 -0.1292132735 0.5500878692 4292138976
-0.2351052910 -0.1286291331 0.5502036214 4292138976
-0.2355387956 -0.1282538623 0.5512181520 4292138974
-0.2355879247 -0.1276680529 0.5513331294 4292138974
-0.2356368601 -0.1270818710 0.5514476299 4292138974
-0.2356855720 -0.1264953166 0.5515616536 4292138974
-0.2361186594 -0.1261138022 0.5525751710 4292204767
-0.2361670434 -0.1255255789 0.5526883602 4292204767
-0.2358305156 -0.1247335076 0.5519008040 4292204765
-0.2358784080 -0.1241455153 0.5520129204 4292270558
-0.2359261066 -0.1235571653 0.5521245599 4292270558
-0.2284065485 -0.1556575447 0.5359199047 4292073440
-0.2288435698 -0.1553587765 0.5369453430 4292073440
-0.2289016247 -0.1548014581 0.5370815396 4292007647
-0.2289594859 -0.1542437077 0.5372173190 4291941854
-0.2293963432 -0.1539399773 0.5382423401 4291941854
-0.2294539511 -0.1533804536 0.5383774638 4291876061
-0.2295113802 -0.1528205127 0.5385122299 4291876061
-0.2299480736 -0.1525118351 0.5395368338 4291810268
-0.2300052345 -0.1519501209 0.5396709442 4291875804
-0.2300622016 -0.1513880044 0.5398046374 4291941597
-0.2301189899 -0.1508254558 0.5399379134 4291941595
-0.2305554301 -0.1505104601 0.5409619212 4291941595
-0.2306119353 -0.1499461681 0.5410945415 4291875802
-0.2306682765 -0.1493814439 0.5412266850 4291941595
-0.2307244092 -0.1488163173 0.5413584113 4291941595
-0.2307803780 -0.1482507735 0.5414897203 4291875802
-0.2308361530 -0.1476848274 0.5416206121 4291941595
-0.2308917344 -0.1471184641 0.5417510271 4291941595
-0.2309471369 -0.1465516984 0.5418810248 4291941854
-0.2310023457 -0.1459845155 0.5420105457 4291876061
-0.2310573757 -0.1454169452 0.5421396494 4291941854
-0.2311122119 -0.1448489577 0.5422683358 4291941854
-0.2315476835 -0.1445182562 0.5432900786 4291942108
-0.2316022366 -0.1439485252 0.5434181094 4291942108
-0.2316565961 -0.1433783919 0.5435456634 4291942108
-0.2324729711 -0.1432776153 0.5454611182 4292007901
-0.2325271219 -0.1427048147 0.5455881953 4292073440
-0.2325810790 -0.1421315968 0.5457147956 4292073440
-0.2326348573 -0.1415579915 0.5458409786 4292073694
-0.2326884270 -0.1409839839 0.5459666848 4292073694
-0.2327418178 -0.1404095739 0.5460919142 4292073694
-0.2327950001 -0.1398347765 0.5462167263 4292007901
-0.2328480035 -0.1392595917 0.5463410616 4292138972
-0.2329007983 -0.1386840045 0.5464649796 4292138972
-0.2333353013 -0.1383344382 0.5474844575 4292138972
-0.2333877981 -0.1377571374 0.5476076007 4292138972
-0.2334401011 -0.1371794343 0.5477303267 4292138972
-0.2334921956 -0.1366013438 0.5478525758 4292138972
-0.2335441113 -0.1360228807 0.5479744077 4292138972
-0.2335958183 -0.1354440153 0.5480957031 4292138972
-0.2336473316 -0.1348647773 0.5482165813 4292073179
-0.2336986363 -0.1342851669 0.5483369827 4292073179
-0.2337497622 -0.1337051541 0.5484569073 4292073692
-0.2334180176 -0.1329068989 0.5476785302 4292073692
-0.2334686518 -0.1323270798 0.5477973223 4292073692
-0.2339019030 -0.1319628656 0.5488138795 4292073692
-0.2328035235 -0.1307362765 0.5462366939 4292073692
-0.2336193472 -0.1305853873 0.5481509566 4292073692
-0.2337682396 -0.1288403422 0.5485002995 4292204767
-0.2338174731 -0.1282579303 0.5486158133 4292204767
-0.2342498899 -0.1278844476 0.5496304035 4292204767
-0.2342987806 -0.1273003370 0.5497451425 4292204767
