VERSION 0.7
FIELDS x y z rgba
SIZE 4 4 4 4
TYPE F F F U
COUNT 1 1 1 1
WIDTH 920
HEIGHT 1
VIEWPOINT 0.0 0.0 0.0 1.0 0.0 0.0 0.0
POINTS 920
DATA ascii
-0.2924291193 -0.0799684450 0.5476917624 4289500020
-0.2933996916 -0.0796233192 0.5495095253 4290355329
-0.3579837382 -0.2220169604 0.6718668938 4288255118
-0.3571748734 -0.2207704931 0.6703487635 4285886570
-0.3559136093 -0.2192487419 0.6679816246 4287396185
-0.3528442681 -0.2166221887 0.6622210741 4287001427
-0.3448020816 -0.2109658420 0.6471274495 4286999627
-0.3060180247 -0.1865978241 0.5743371844 4287328592
-0.3033846021 -0.1843594313 0.5693947673 4287328592
-0.3021063209 -0.1829526722 0.5669956803 4287065420
-0.3008271456 -0.1815507114 0.5645948648 4286802248
-0.2999995351 -0.1804256588 0.5630416274 4286736455
-0.2991712391 -0.1793036759 0.5614870787 4286933064
-0.2983422875 -0.1781847328 0.5599313378 4286867271
-0.2979655266 -0.1773383468 0.5592241883 4286669892
-0.2975882888 -0.1764932871 0.5585162044 4286275134
-0.2972106338 -0.1756495386 0.5578073859 4286933064
-0.2968325317 -0.1748071164 0.5570977926 4287722580
-0.2964539826 -0.1739660054 0.5563873053 4287656787
-0.2960750163 -0.1731262207 0.5556760430 4287656787
-0.2961491346 -0.1725520045 0.5558151603 4287459406
-0.2962230444 -0.1719773561 0.5559538603 4286669890
-0.2953892350 -0.1708773226 0.5543889999 4286078525
-0.2954624891 -0.1703035831 0.5545264482 4285881146
-0.2950815558 -0.1694686860 0.5538115501 4286011962
-0.2947002053 -0.1686351448 0.5530958176 4286209341
-0.2947726250 -0.1680618972 0.5532317162 4286604099
-0.2943904996 -0.1672301441 0.5525145531 4286801478
-0.2940079570 -0.1663997620 0.5517965555 4286669892
-0.2936249673 -0.1655707061 0.5510777831 4286406720
-0.2932415605 -0.1647430211 0.5503581762 4285880374
-0.2928577065 -0.1639166921 0.5496377945 4286011960
-0.2924734354 -0.1630917192 0.5489165783 4286274875
-0.2920887172 -0.1622681022 0.5481945276 4286472254
-0.2912485003 -0.1611939967 0.5466176271 4287393356
-0.2917731702 -0.1608759761 0.5476023555 4287985493
-0.2913872898 -0.1600555778 0.5468780994 4287854164
-0.2910009623 -0.1592365652 0.5461530685 4287656785
-0.2910697162 -0.1586672217 0.5462821126 4287722321
-0.2911382616 -0.1580974907 0.5464107394 4287393356
-0.2912065983 -0.1575273424 0.5465389490 4287196234
-0.2908188701 -0.1567111760 0.5458112955 4287130441
-0.2908866704 -0.1561411321 0.5459385514 4287064391
-0.2904981971 -0.1553268433 0.5452094674 4287130184
-0.2905654609 -0.1547569036 0.5453357100 4287327563
-0.2906325161 -0.1541865617 0.5454614758 4287393356
-0.2906993330 -0.1536158174 0.5455869436 4287459149
-0.2903094590 -0.1528044343 0.5448552370 4287985493
-0.2903757393 -0.1522338092 0.5449796319 4287261770
-0.2899851501 -0.1514243335 0.5442465544 4287064391
-0.2900508940 -0.1508538276 0.5443699360 4287130184
-0.2896595299 -0.1500462741 0.5436354280 4287788114
-0.2897247374 -0.1494758874 0.5437577963 4288182102
-0.2897897065 -0.1489051282 0.5438797474 4287853137
-0.2893972993 -0.1481000185 0.5431432724 4287656526
-0.2894617319 -0.1475293934 0.5432642102 4287327561
-0.2890685797 -0.1467262208 0.5425263047 4287393356
-0.2891324759 -0.1461557299 0.5426462293 4286932805
-0.2891961336 -0.1455848664 0.5427657366 4286209082
-0.2892595828 -0.1450136304 0.5428848267 4286735426
-0.2888650298 -0.1442134678 0.5421442986 4287524170
-0.2889279425 -0.1436423808 0.5422623754 4287195205
-0.2885326445 -0.1428441852 0.5415204763 4287524170
-0.2885950208 -0.1422732621 0.5416375399 4287721549
-0.2886571586 -0.1417019814 0.5417541862 4287787342
-0.2887190878 -0.1411303133 0.5418704152 4288116307
-0.2883223891 -0.1403351873 0.5411258936 4288379479
-0.2888422608 -0.1399859041 0.5421015620 4288313686
-0.2889035046 -0.1394131333 0.5422164798 4288313427
-0.2889645398 -0.1388400197 0.5423310399 4288313427
-0.2885665596 -0.1380470693 0.5415841341 4288116561
-0.2890858948 -0.1376926899 0.5425587893 4287984975
-0.2886872888 -0.1369008273 0.5418106914 4287523911
-0.2892063558 -0.1365439147 0.5427848697 4287655497
-0.2888070941 -0.1357531697 0.5420355797 4288116048
-0.2884074152 -0.1349638999 0.5412854552 4288313427
-0.2884666622 -0.1343900859 0.5413966179 4287853389
-0.2880662382 -0.1336028427 0.5406451225 4287787596
-0.2881249189 -0.1330292523 0.5407552719 4288379733
-0.2881833911 -0.1324553043 0.5408650041 4288511319
-0.2882416248 -0.1318810135 0.5409742594 4288510806
-0.2878398299 -0.1310969442 0.5402201414 4288313427
-0.2878974974 -0.1305228770 0.5403284431 4288116561
-0.2879549563 -0.1299484521 0.5404362679 4287984975
-0.2880121768 -0.1293736994 0.5405436754 4288050768
-0.2880691588 -0.1287985891 0.5406506062 4288050768
-0.2881259322 -0.1282231510 0.5407571197 4287984975
-0.2881824374 -0.1276473701 0.5408632159 4287721803
-0.2877782881 -0.1268682629 0.5401046872 4287590217
-0.2878342569 -0.1262927204 0.5402097702 4287458631
-0.2878900170 -0.1257168502 0.5403143764 4287063873
-0.2874847949 -0.1249404252 0.5395538807 4286932287
-0.2875399888 -0.1243648082 0.5396574140 4287327045
-0.2871340513 -0.1235904843 0.5388955474 4287984975
-0.2871886790 -0.1230151281 0.5389980674 4288248147
-0.2867819965 -0.1222429201 0.5382348299 4288379733
-0.2863749266 -0.1214722246 0.5374708176 4288576858
-0.2864286602 -0.1208977476 0.5375717282 4288576858
-0.2864821851 -0.1203229427 0.5376721621 4288642394
-0.2865354717 -0.1197478175 0.5377721786 4288642394
-0.2865885198 -0.1191723719 0.5378717184 4288379222
-0.2866413295 -0.1185966060 0.5379708409 4287984464
-0.2866939008 -0.1180205271 0.5380694866 4287984462
-0.2862844765 -0.1172550023 0.5373010635 4287984462
-0.2863364816 -0.1166792214 0.5373986959 4287984721
-0.2863882780 -0.1161031201 0.5374959111 4288050514
-0.2864398062 -0.1155267134 0.5375925899 4287787342
-0.2860290110 -0.1147645861 0.5368216634 4287326791
-0.2860800028 -0.1141884848 0.5369173288 4287195459
-0.2861307561 -0.1136120856 0.5370125771 4287392838
-0.2857189178 -0.1128527597 0.5362396240 4287327045
-0.2857691050 -0.1122766733 0.5363337994 4287327045
-0.2853565514 -0.1115195453 0.5355595350 4287063619
-0.2854061723 -0.1109437868 0.5356526971 4286668861
-0.2849929035 -0.1101888567 0.5348770618 4286800447
-0.2850419581 -0.1096134335 0.5349691510 4287524170
-0.2855536044 -0.1092147231 0.5359293818 4288182354
-0.2856022418 -0.1086377800 0.5360206962 4288248147
-0.2856506705 -0.1080605388 0.5361115932 4288313940
-0.2856988609 -0.1074830070 0.5362020135 4288445526
-0.2857467830 -0.1069051847 0.5362919569 4288379733
-0.2857944667 -0.1063270643 0.5363814831 4288642905
-0.2858419418 -0.1057486609 0.5364705324 4288840284
-0.2858891189 -0.1051699668 0.5365591049 4289629800
-0.2854726613 -0.1044214815 0.5357775092 4290090097
-0.2855193019 -0.1038431525 0.5358650088 4290155890
-0.2855657041 -0.1032645479 0.5359520912 4290419062
-0.2856118679 -0.1026856601 0.5360387564 4289958511
-0.2856577635 -0.1021064967 0.5361248851 4289892718
-0.2857034504 -0.1015270501 0.5362105966 4289761132
-0.2857488692 -0.1009473279 0.5362958312 4289826925
-0.2857940197 -0.1003673300 0.5363806486 4290090097
-0.2858389616 -0.0997870564 0.5364649296 4290025074
-0.2858836353 -0.0992065072 0.5365487933 4290025074
-0.2859280705 -0.0986256897 0.5366321802 4289366892
-0.2855080068 -0.0978854373 0.5358438492 4289037927
-0.2855518758 -0.0973050296 0.5359261632 4288577376
-0.2851311266 -0.0965670720 0.5351364613 4287853653
-0.2851744294 -0.0959870741 0.5352177620 4287327309
-0.2856819928 -0.0955621973 0.5361703634 4287064137
-0.2857248783 -0.0949807242 0.5362508297 4286669379
-0.2857674956 -0.0943989903 0.5363308191 4286274621
-0.2858098745 -0.0938170031 0.5364103913 4286604099
-0.2858520150 -0.0932347476 0.5364894271 4287196236
-0.2858938873 -0.0926522464 0.5365680456 4286867273
-0.2859355211 -0.0920694843 0.5366461277 4286735687
-0.2859768867 -0.0914864689 0.5367237926 4286998859
-0.2860180140 -0.0909032002 0.5368009806 4287393617
-0.2855937481 -0.0901728198 0.5360047221 4287262031
-0.2856343091 -0.0895899981 0.5360808372 4287788375
-0.2856746018 -0.0890069306 0.5361564755 4287656787
-0.2857146561 -0.0884236172 0.5362316370 4287788373
-0.2857544720 -0.0878400579 0.5363063812 4287196236
-0.2857940197 -0.0872562602 0.5363805890 4287393615
-0.2862988412 -0.0868133754 0.5373280644 4288051545
-0.2863379419 -0.0862281471 0.5374014378 4288972647
-0.2873080969 -0.0859211832 0.5392222404 4288577889
-0.2873468101 -0.0853335708 0.5392948985 4288643682
-0.2878510654 -0.0848830715 0.5402413011 4288644452
-0.2878893316 -0.0842940286 0.5403131247 4289828726
-0.2883932590 -0.0838401988 0.5412588716 4290157691
-0.2888970375 -0.0833842307 0.5422043800 4289565554
-0.2894006670 -0.0829261169 0.5431495905 4289499761
-0.2899041772 -0.0824658647 0.5440946221 4288841831
-0.2904075682 -0.0820034742 0.5450393558 4288578659
-0.2909107804 -0.0815389529 0.5459837914 4288841831
-0.2914138734 -0.0810722858 0.5469279885 4288644965
-0.2919168174 -0.0806034803 0.5478719473 4288842344
-0.2924196124 -0.0801325366 0.5488156080 4289105516
-0.2933886945 -0.0797863007 0.5506343842 4290026618
-0.3555864990 -0.2209908664 0.6687617302 4287136637
-0.3547785878 -0.2197474092 0.6672422886 4285426019
-0.3539699316 -0.2185068727 0.6657214165 4287461720
-0.3500033319 -0.2153269053 0.6582613587 4287066962
-0.3072352111 -0.1883733571 0.5778260827 4287262545
-0.3046076000 -0.1861257851 0.5728842616 4287262545
-0.3024297655 -0.1841630936 0.5687883496 4287394131
-0.3007020652 -0.1824826598 0.5655390024 4287196752
-0.3003280759 -0.1816281229 0.5648356080 4286801994
-0.2995018959 -0.1805026382 0.5632818341 4286736201
-0.2986750603 -0.1793802083 0.5617267489 4286868041
-0.2978475392 -0.1782608181 0.5601704121 4286868041
-0.2970193624 -0.1771444976 0.5586128831 4286999627
-0.2966427207 -0.1762999892 0.5579044819 4287197006
-0.2962656319 -0.1754568070 0.5571953058 4287591764
-0.2958880961 -0.1746149212 0.5564852953 4287657557
-0.2955101430 -0.1737743765 0.5557744503 4287722580
-0.2955844104 -0.1732003838 0.5559141040 4287722580
-0.2952056825 -0.1723615974 0.5552018285 4287393615
-0.2952794135 -0.1717876196 0.5553405285 4286669892
-0.2953529358 -0.1712132245 0.5554787517 4286144318
-0.2954262495 -0.1706383973 0.5556166768 4285881146
-0.2945929170 -0.1695414633 0.5540493727 4286011962
-0.2942122519 -0.1687075943 0.5533334613 4286340927
-0.2938311398 -0.1678750664 0.5526167154 4286604099
-0.2943567336 -0.1675602496 0.5536051393 4286801478
-0.2935213149 -0.1664713472 0.5520339608 4286735685
-0.2931390405 -0.1656419933 0.5513150096 4286406720
-0.2923024297 -0.1645584553 0.5497415662 4286209341
-0.2923731506 -0.1639873236 0.5498746037 4286340927
-0.2919895947 -0.1631620228 0.5491532087 4286538306
-0.2916055620 -0.1623380929 0.5484309793 4286867271
-0.2912211120 -0.1615155339 0.5477079153 4287459408
-0.2912906706 -0.1609454304 0.5478387475 4288248924
-0.2909054756 -0.1601247042 0.5471143126 4288117338
-0.2905198634 -0.1593053788 0.5463890433 4287788373
-0.2905885577 -0.1587358266 0.5465182662 4287524942
-0.2906570435 -0.1581658721 0.5466470718 4287393356
-0.2902703583 -0.1573488861 0.5459198356 4287327563
-0.2903383076 -0.1567790359 0.5460476279 4286801219
-0.2904060483 -0.1562087685 0.5461750031 4286274875
-0.2904735804 -0.1556381136 0.5463020205 4286406461
-0.2900854945 -0.1548240036 0.5455721021 4286997828
-0.2901524901 -0.1542534381 0.5456981063 4287063621
-0.2902192473 -0.1536824852 0.5458236933 4287392586
-0.2898300886 -0.1528707743 0.5450917482 4287853137
-0.2898963094 -0.1522999406 0.5452163219 4286932805
-0.2895064056 -0.1514901370 0.5444830060 4286998598
-0.2895720899 -0.1509194076 0.5446065664 4287589965
-0.2891814411 -0.1501115263 0.5438718796 4287984723
-0.2892466187 -0.1495409310 0.5439944267 4288116309
-0.2888551950 -0.1487349868 0.5432583094 4287589965
-0.2889198065 -0.1481645107 0.5433797836 4287590735
-0.2889842093 -0.1475936770 0.5435009003 4287261770
-0.2885917425 -0.1467901766 0.5427628160 4287393356
-0.2886555791 -0.1462194771 0.5428828597 4287064391
-0.2887192070 -0.1456483901 0.5430025458 4286472254
-0.2883256972 -0.1448473781 0.5422624350 4286998598
-0.2883887887 -0.1442764401 0.5423810482 4287524170
-0.2884516418 -0.1437051445 0.5424993038 4286734654
-0.2885142863 -0.1431334615 0.5426170826 4287392584
-0.2881193757 -0.1423354745 0.5418743491 4287655756
-0.2881814539 -0.1417639703 0.5419911742 4287853135
-0.2882433236 -0.1411920786 0.5421075225 4288116307
-0.2883049846 -0.1406198293 0.5422234535 4288379479
-0.2879086733 -0.1398249120 0.5414781570 4288379479
-0.2884276211 -0.1394742280 0.5424541235 4288313940
-0.2884885967 -0.1389008760 0.5425688028 4288313940
-0.2880913317 -0.1381075978 0.5418216586 4288182354
-0.2886098623 -0.1377530992 0.5427968502 4287524424
-0.2886701524 -0.1371786743 0.5429102778 4287129153
-0.2887302339 -0.1366038769 0.5430232286 4287194946
-0.2883316875 -0.1358128041 0.5422736406 4287787083
-0.2879326940 -0.1350232065 0.5415233374 4288050255
-0.2879919112 -0.1344491690 0.5416346192 4287984721
-0.2875922024 -0.1336616129 0.5408828855 4287853135
-0.2876508236 -0.1330877841 0.5409932137 4287853135
-0.2877092659 -0.1325136125 0.5411030650 4288116307
-0.2873084843 -0.1317286491 0.5403493047 4288050514
-0.2873663604 -0.1311547011 0.5404581428 4287918928
-0.2874239981 -0.1305803955 0.5405665636 4287918928
-0.2874813974 -0.1300057471 0.5406745076 4287853135
-0.2875385880 -0.1294307560 0.5407820940 4287853135
-0.2875955105 -0.1288554221 0.5408891439 4287721549
-0.2876522541 -0.1282797456 0.5409958363 4287458377
-0.2877087295 -0.1277037412 0.5411020517 4287326791
-0.2873052955 -0.1269243062 0.5403432846 4287260998
-0.2873612046 -0.1263485402 0.5404484868 4287195205
-0.2874169052 -0.1257724315 0.5405532718 4287063619
-0.2870124280 -0.1249956787 0.5397924781 4287063619
-0.2870675623 -0.1244198307 0.5398961902 4287524170
-0.2866623402 -0.1236451864 0.5391340852 4287984721
-0.2862567008 -0.1228720546 0.5383712053 4288182100
-0.2863109708 -0.1222970635 0.5384732485 4288379479
-0.2863650024 -0.1217217520 0.5385748744 4288511065
-0.2859583199 -0.1209513396 0.5378100276 4288511065
-0.2860117853 -0.1203763038 0.5379105806 4288642392
-0.2860650420 -0.1198009402 0.5380107164 4288576599
-0.2861180305 -0.1192252561 0.5381104350 4288247634
-0.2861708105 -0.1186492592 0.5382096767 4287852876
-0.2862233222 -0.1180729344 0.5383084416 4287656010
-0.2858146429 -0.1173070967 0.5375397801 4287656010
-0.2858666182 -0.1167310774 0.5376375318 4287655756
-0.2859183550 -0.1161547378 0.5377348661 4287589963
-0.2859698534 -0.1155780926 0.5378317237 4287392584
-0.2855597734 -0.1148156449 0.5370604992 4287063619
-0.2856107354 -0.1142393127 0.5371562839 4287063873
-0.2851999402 -0.1134790406 0.5363837481 4287392838
-0.2852503359 -0.1129030213 0.5364784598 4287524424
-0.2853004634 -0.1123266965 0.5365728140 4287129666
-0.2848886251 -0.1115692481 0.5357982516 4286471482
-0.2849382162 -0.1109932512 0.5358915329 4286142517
-0.2845256627 -0.1102380008 0.5351155996 4286405689
-0.2845746875 -0.1096623391 0.5352078080 4287260998
-0.2850855291 -0.1092634723 0.5361685753 4288182354
-0.2851341665 -0.1086862832 0.5362600088 4288379733
-0.2851825356 -0.1081088036 0.5363510251 4288511319
-0.2852306962 -0.1075310260 0.5364415646 4288445526
-0.2852785885 -0.1069529578 0.5365316272 4288116561
-0.2853262424 -0.1063745990 0.5366212726 4288050768
-0.2853736579 -0.1057959571 0.5367104411 4287984975
-0.2854208350 -0.1052170172 0.5367991328 4288708698
-0.2850050926 -0.1044682115 0.5360172391 4289497960
-0.2850517035 -0.1038896441 0.5361049175 4289958511
-0.2850980461 -0.1033107936 0.5361921191 4289761132
-0.2851441801 -0.1027316600 0.5362788439 4289366374
-0.2851900458 -0.1021522507 0.5363651514 4289695339
-0.2852356732 -0.1015725583 0.5364509225 4289563753
-0.2852810621 -0.1009925902 0.5365363359 4289892718
-0.2853262126 -0.1004123464 0.5366212130 4289826925
-0.2853710949 -0.0998318270 0.5367056131 4289761134
-0.2854157388 -0.0992510319 0.5367895961 4289563755
-0.2854601443 -0.0986699685 0.5368731022 4288906341
-0.2850408256 -0.0979293957 0.5360844731 4288314204
-0.2850846648 -0.0973487422 0.5361669064 4288511583
-0.2846646309 -0.0966104642 0.5353769660 4287524688
-0.2847079039 -0.0960302204 0.5354583263 4287590481
-0.2852146924 -0.0956051648 0.5364114642 4287787860
-0.2852575183 -0.0950234458 0.5364920497 4287327309
-0.2853001058 -0.0944414586 0.5365721583 4287261516
-0.2853424549 -0.0938592181 0.5366517901 4287854166
-0.2853845656 -0.0932767242 0.5367309451 4287985752
-0.2854264081 -0.0926939622 0.5368096232 4287196238
-0.2854680121 -0.0921109542 0.5368878841 4286735687
-0.2855093479 -0.0915276855 0.5369656086 4286998859
-0.2850861251 -0.0907962918 0.5361697078 4287196238
-0.2851269245 -0.0902134702 0.5362463593 4287064652
-0.2851674259 -0.0896303952 0.5363225937 4287327824
-0.2852077186 -0.0890470818 0.5363983512 4287788373
-0.2852477431 -0.0884635150 0.5364736319 4287985752
-0.2852874994 -0.0878797099 0.5365484357 4287919959
-0.2853270173 -0.0872956514 0.5366227627 4287130443
-0.2858310640 -0.0868525803 0.5375706553 4286538306
-0.2858701348 -0.0862670913 0.5376441479 4287590994
-0.2863738537 -0.0858206898 0.5385915041 4287788373
-0.2868774235 -0.0853721350 0.5395386219 4288248924
-0.2873808742 -0.0849214420 0.5404855013 4288775266
-0.2874191403 -0.0843321458 0.5405574441 4289564782
-0.2879222631 -0.0838781223 0.5415036678 4289564782
-0.2884252667 -0.0834219530 0.5424496531 4288643680
-0.2889281213 -0.0829636455 0.5433954000 4288380508
-0.2889655232 -0.0823705569 0.5434657335 4288051543
-0.2894680500 -0.0819089189 0.5444108844 4288183129
-0.2899704278 -0.0814451501 0.5453556776 4288972645
-0.2904726565 -0.0809792355 0.5463002920 4288447071
-0.2909747660 -0.0805111825 0.5472446084 4288578657
-0.2914766967 -0.0800409913 0.5481886268 4289039723
-0.2924441993 -0.0796955749 0.5500081778 4289631860
-0.2959181964 -0.0769321471 0.5565418601 4293057229
-0.3535509408 -0.2209260762 0.6663252711 4291745505
-0.3531945050 -0.2199637592 0.6656535268 4286741365
-0.3523875177 -0.2187232822 0.6641326547 4285425505
-0.3515798450 -0.2174857557 0.6626104116 4287526230
-0.3467188776 -0.2137527615 0.6534491181 4287263058
-0.3058229387 -0.1878999472 0.5763739347 4287459924
-0.3031995296 -0.1856532097 0.5714297295 4287196752
-0.3014757931 -0.1839664578 0.5681810379 4287591510
-0.3002016544 -0.1825603247 0.5657797456 4287459924
-0.2993774712 -0.1814322323 0.5642264485 4286801994
-0.2985526323 -0.1803071797 0.5626718998 4286736201
-0.2977271378 -0.1791851819 0.5611160398 4286867787
-0.2973521650 -0.1783368587 0.5604093671 4286933580
-0.2965254188 -0.1772200912 0.5588512421 4286999627
-0.2956980169 -0.1761064082 0.5572918653 4287525971
-0.2957730591 -0.1755317450 0.5574333072 4287591764
-0.2953962386 -0.1746895611 0.5567231178 4287328592
-0.2950189710 -0.1738486737 0.5560120940 4287394385
-0.2950931787 -0.1732744873 0.5561519265 4287525971
-0.2947151363 -0.1724353731 0.5554394722 4287197006
-0.2947888076 -0.1718612015 0.5555783510 4286736455
-0.2944100499 -0.1710238755 0.5548644662 4286406720
-0.2944831848 -0.1704497188 0.5550022721 4286143548
-0.2941036522 -0.1696141809 0.5542870164 4286077755
-0.2937236726 -0.1687799841 0.5535708666 4286275134
-0.2928905785 -0.1676879674 0.5520007610 4286275134
-0.2934152186 -0.1673739254 0.5529896021 4286275134
-0.2930340767 -0.1665428877 0.5522712469 4286406720
-0.2926524878 -0.1657132059 0.5515520573 4286669892
-0.2918173373 -0.1646292359 0.5499780774 4287064650
-0.2918879986 -0.1640578955 0.5501112342 4286735685
-0.2915051281 -0.1632322818 0.5493896604 4286603586
-0.2911218107 -0.1624080241 0.5486672521 4287064137
-0.2907380462 -0.1615851521 0.5479440093 4287261516
-0.2908075452 -0.1610148251 0.5480749607 4287458895
-0.2904230654 -0.1601937860 0.5473503470 4287195723
-0.2904920280 -0.1596235484 0.5474803448 4287327309
-0.2901067734 -0.1588043720 0.5467542410 4287327309
-0.2901752293 -0.1582342088 0.5468832254 4287656274
-0.2897892296 -0.1574168950 0.5461557508 4287656528
-0.2898571193 -0.1568468213 0.5462837219 4286801219
-0.2899248004 -0.1562763453 0.5464112759 4286209082
-0.2899922729 -0.1557054669 0.5465384722 4286538047
-0.2900595367 -0.1551342010 0.5466651917 4286998598
-0.2896718383 -0.1543202698 0.5459344983 4286932805
-0.2897385359 -0.1537490934 0.5460602641 4287195207
-0.2893500924 -0.1529370695 0.5453281403 4287129414
-0.2894162536 -0.1523660123 0.5454528928 4286801219
-0.2894822359 -0.1517945528 0.5455771685 4287261770
-0.2890926898 -0.1509849429 0.5448430777 4287787344
-0.2891581357 -0.1504136175 0.5449663401 4287655758
-0.2887678444 -0.1496059299 0.5442308187 4287589965
-0.2888327241 -0.1490347236 0.5443531275 4287655758
-0.2884417176 -0.1482289732 0.5436161757 4287327563
-0.2885060608 -0.1476579010 0.5437374115 4287195977
-0.2881143093 -0.1468540877 0.5429990888 4287459149
-0.2881780863 -0.1462831646 0.5431193709 4287524942
-0.2882416844 -0.1457118541 0.5432391763 4287393356
-0.2878488600 -0.1449105293 0.5424988270 4287919700
-0.2874556184 -0.1441106200 0.5417577028 4288247893
-0.2875808179 -0.1429690123 0.5419936776 4287787342
-0.2876431048 -0.1423976421 0.5421110392 4287984721
-0.2877051532 -0.1418258995 0.5422279835 4287984721
-0.2877669632 -0.1412537992 0.5423445106 4288116307
-0.2878285646 -0.1406813264 0.5424605608 4288379733
-0.2878899276 -0.1401084810 0.5425762534 4288445526
-0.2879510820 -0.1395352781 0.5426915288 4288379733
-0.2880120277 -0.1389617026 0.5428063273 4288445526
-0.2880727351 -0.1383877695 0.5429207683 4288050768
-0.2881332040 -0.1378134638 0.5430347323 4287327045
-0.2881934643 -0.1372388005 0.5431482792 4287260739
-0.2877959311 -0.1364468634 0.5423990488 4287194946
-0.2878556252 -0.1358723938 0.5425115824 4287392838
-0.2874573767 -0.1350824684 0.5417609811 4287524424
-0.2875165343 -0.1345082074 0.5418725014 4287919182
-0.2875754535 -0.1339336038 0.5419835448 4287787596
-0.2871761322 -0.1331462711 0.5412309766 4287655756
-0.2872344851 -0.1325718760 0.5413409472 4287853135
-0.2868344486 -0.1317865998 0.5405870080 4287787342
-0.2868922651 -0.1312124133 0.5406959653 4287721549
-0.2864914834 -0.1304291934 0.5399405956 4287655756
-0.2865487337 -0.1298552305 0.5400485396 4287524170
-0.2866057754 -0.1292809248 0.5401560664 4287326791
-0.2866626084 -0.1287062913 0.5402631164 4287195205
-0.2867191732 -0.1281313002 0.5403697491 4286801217
-0.2867755294 -0.1275559813 0.5404759645 4286735424
-0.2868316472 -0.1269803047 0.5405817032 4286801217
-0.2864285111 -0.1262020618 0.5398219824 4286801217
-0.2864840925 -0.1256266534 0.5399267077 4286932803
-0.2865394056 -0.1250509024 0.5400309563 4287130182
-0.2865945101 -0.1244748160 0.5401347876 4287589963
-0.2861900032 -0.1236998439 0.5393724442 4287918928
-0.2857850790 -0.1229263991 0.5386093259 4287984721
-0.2858393192 -0.1223511696 0.5387114882 4288313686
-0.2858932912 -0.1217756197 0.5388132334 4288445272
-0.2859470546 -0.1211997494 0.5389145613 4288379479
-0.2855407596 -0.1204296201 0.5381488204 4288379222
-0.2855939567 -0.1198540255 0.5382491350 4288247636
-0.2856469154 -0.1192781031 0.5383489132 4287787083
-0.2856996655 -0.1187018678 0.5384482741 4287392325
-0.2857521474 -0.1181253120 0.5385472178 4287195205
-0.2853441834 -0.1173591539 0.5377783179 4287326791
-0.2853960991 -0.1167828962 0.5378761888 4287326791
-0.2854478061 -0.1162063181 0.5379736423 4287326791
-0.2854992747 -0.1156294346 0.5380706191 4287326791
-0.2846293449 -0.1146811023 0.5364311337 4287129412
-0.2851408124 -0.1142900959 0.5373951197 4287195205
-0.2847307622 -0.1135295108 0.5366222262 4287524170
-0.2843202949 -0.1127704754 0.5358486772 4287853135
-0.2843703032 -0.1121948510 0.5359429717 4287392584
-0.2844201028 -0.1116189137 0.5360367894 4286537275
-0.2844696641 -0.1110426784 0.5361301303 4286339896
-0.2840578258 -0.1102871075 0.5353540182 4286668861
-0.2845680118 -0.1098893136 0.5363155603 4287260998
-0.2846168578 -0.1093121767 0.5364075899 4288116307
-0.2846654356 -0.1087347493 0.5364991426 4288247893
-0.2847137749 -0.1081570312 0.5365902781 4288642651
-0.2843003571 -0.1074046567 0.5358111262 4288050514
-0.2843481600 -0.1068272814 0.5359011889 4287655756
-0.2843956947 -0.1062496230 0.5359907746 4287787342
-0.2844429910 -0.1056716666 0.5360799432 4287918928
-0.2844900489 -0.1050934270 0.5361686349 4288313686
-0.2845368683 -0.1045149043 0.5362568498 4289103202
-0.2845834494 -0.1039360911 0.5363446474 4289761132
-0.2846297622 -0.1033570021 0.5364319086 4289826925
-0.2846758664 -0.1027776226 0.5365188122 4289432167
-0.2847217023 -0.1021979675 0.5366051793 4290090099
-0.2847672999 -0.1016180292 0.5366911292 4290090099
-0.2848126590 -0.1010378152 0.5367766023 4290156662
-0.2848577499 -0.1004573256 0.5368615985 4289761904
-0.2849026322 -0.0998765603 0.5369461775 4289630318
-0.2844846547 -0.0991343334 0.5361584425 4289038181
-0.2845289409 -0.0985539630 0.5362418890 4288182104
-0.2845729887 -0.0979733244 0.5363249183 4287261002
-0.2846167982 -0.0973924175 0.5364074707 4287589967
-0.2841975093 -0.0966538265 0.5356172323 4286997830
-0.2842407227 -0.0960733294 0.5356987119 4287327309
-0.2847467363 -0.0956481025 0.5366523266 4287393102
-0.2847895324 -0.0950661302 0.5367330313 4286998346
-0.2848320901 -0.0944839045 0.5368132591 4286998346
-0.2844111919 -0.0937487260 0.5360199809 4287458897
-0.2844532132 -0.0931669250 0.5360991359 4287985241
-0.2844949365 -0.0925848633 0.5361778140 4287722069
-0.2845364511 -0.0920025483 0.5362560153 4287458897
-0.2845776975 -0.0914199874 0.5363337994 4287196238
-0.2841551304 -0.0906892195 0.5355374217 4286867273
-0.2841958106 -0.0901070982 0.5356140733 4286604101
-0.2842362523 -0.0895247236 0.5356903076 4286604101
-0.2842764258 -0.0889421105 0.5357660055 4287064137
-0.2843163610 -0.0883592442 0.5358412266 4287261516
-0.2848199010 -0.0879193246 0.5367903113 4287656787
-0.2848593891 -0.0873350203 0.5368646979 4287262029
-0.2853626311 -0.0868917555 0.5378131270 4286143550
-0.2858657539 -0.0864463523 0.5387613773 4286340929
-0.2859046161 -0.0858594179 0.5388345718 4286998857
-0.2859432101 -0.0852722451 0.5389073491 4287919959
-0.2864458263 -0.0848223120 0.5398545861 4288380508
-0.2869482934 -0.0843702331 0.5408015847 4289301610
-0.2874506414 -0.0839160159 0.5417482853 4289696622
-0.2879528403 -0.0834596530 0.5426948071 4288841313
-0.2884549201 -0.0830011442 0.5436410308 4288314715
-0.2889568508 -0.0825404972 0.5445870161 4287985750
-0.2889940143 -0.0819459632 0.5446570516 4287985750
-0.2894956172 -0.0814819932 0.5456023812 4288577887
-0.2899970710 -0.0810158774 0.5465474725 4288052313
-0.2904983759 -0.0805476233 0.5474922657 4288381278
-0.2909995317 -0.0800772309 0.5484367609 4289039723
-0.2919654548 -0.0797316581 0.5502572656 4289500274
-0.2924663723 -0.0792560279 0.5512013435 4289763452
-0.3516130745 -0.2201760262 0.6640630960 4291482333
-0.3512569368 -0.2192159444 0.6633904576 4286543732
-0.3504510224 -0.2179776132 0.6618684530 4285556837
-0.3491950035 -0.2164636254 0.6594963074 4287328851
-0.3434427083 -0.2121771276 0.6486324072 4287263058
-0.3048626781 -0.1877028644 0.5757693648 4287656789
-0.3022435904 -0.1854560822 0.5708229542 4287327824
-0.3005226851 -0.1837695241 0.5675728321 4287788375
-0.2992506027 -0.1823637038 0.5651703477 4287722582
-0.2984277606 -0.1812360436 0.5636163354 4286998859
-0.2976042628 -0.1801114380 0.5620610118 4286867273
-0.2972304225 -0.1792614758 0.5613549948 4287064652
-0.2968561351 -0.1784128249 0.5606480837 4287130445
-0.2960308492 -0.1772956252 0.5590894222 4287064650
-0.2952048779 -0.1761814952 0.5575295091 4287327822
-0.2948290706 -0.1753385365 0.5568197370 4287393615
-0.2949037254 -0.1747641265 0.5569607615 4287327822
-0.2945271730 -0.1739229262 0.5562495589 4287459408
-0.2946012914 -0.1733485162 0.5563895702 4287525201
-0.2942239642 -0.1725091040 0.5556769371 4287196236
-0.2938461900 -0.1716710031 0.5549634695 4286801478
-0.2939195037 -0.1710970551 0.5551019311 4286603586
-0.2939925790 -0.1705226898 0.5552399158 4286406207
-0.2936137319 -0.1696868390 0.5545244217 4286275134
-0.2932344675 -0.1688523293 0.5538081527 4286406720
-0.2928547561 -0.1680191606 0.5530909896 4286209341
-0.2924745977 -0.1671873331 0.5523730516 4285880376
-0.2920940220 -0.1663568616 0.5516542792 4286340414
-0.2921653092 -0.1657843590 0.5517888665 4287195723
-0.2913315892 -0.1646999717 0.5502143502 4287327309
-0.2914022207 -0.1641284078 0.5503477454 4286866758
-0.2910200357 -0.1633024812 0.5496259332 4286735426
-0.2906374037 -0.1624779105 0.5489032865 4287195977
-0.2902543545 -0.1616546959 0.5481798649 4287064391
-0.2903237939 -0.1610841602 0.5483109951 4286867012
-0.2903930545 -0.1605132222 0.5484417677 4286603840
-0.2900089324 -0.1596923470 0.5477163196 4286998598
-0.2900776267 -0.1591214836 0.5478460789 4287129930
-0.2896927595 -0.1583024710 0.5471192002 4287590481
-0.2897609174 -0.1577316970 0.5472479463 4287590481
-0.2893753052 -0.1569145620 0.5465196967 4287064137
-0.2894429266 -0.1563438773 0.5466474295 4286932551
-0.2895103395 -0.1557727754 0.5467747450 4287064137
-0.2895775437 -0.1552012861 0.5469016433 4287195977
-0.2891905606 -0.1543870419 0.5461707115 4287261770
-0.2892571986 -0.1538156569 0.5462966561 4287064391
-0.2893236578 -0.1532438695 0.5464221239 4286538047
-0.2889355719 -0.1524320245 0.5456892252 4287130184
-0.2890014946 -0.1518603563 0.5458136797 4287524942
-0.2890671790 -0.1512883008 0.5459377170 4287787344
-0.2886780500 -0.1504788697 0.5452027917 4287458379
-0.2882884741 -0.1496708691 0.5444670916 4286932805
-0.2883532941 -0.1490994394 0.5445895195 4287195977
-0.2879630029 -0.1482933760 0.5438523293 4287129414
-0.2880272865 -0.1477220803 0.5439738035 4287129414
-0.2876362503 -0.1469179541 0.5432352424 4287392586
-0.2876999974 -0.1463468075 0.5433556437 4287721551
-0.2877635062 -0.1457752734 0.5434756279 4287918928
-0.2873713970 -0.1449736208 0.5427350402 4288247893
-0.2874343693 -0.1444022506 0.5428540111 4288379479
-0.2870415151 -0.1436025649 0.5421120524 4288247893
-0.2871039808 -0.1430313438 0.5422299504 4288050514
-0.2871661782 -0.1424597502 0.5423474908 4288182100
-0.2872281969 -0.1418877989 0.5424645543 4287984975
-0.2872899771 -0.1413154602 0.5425812602 4287984975
-0.2873515189 -0.1407427639 0.5426974893 4288313940
-0.2874128520 -0.1401696950 0.5428133011 4288511319
-0.2874739468 -0.1395962685 0.5429287553 4288577112
-0.2875348330 -0.1390224695 0.5430437326 4288577112
-0.2875954807 -0.1384483129 0.5431582928 4287918669
-0.2876559198 -0.1378737837 0.5432723761 4287326532
-0.2872594297 -0.1370809674 0.5425235629 4287392325
-0.2877760828 -0.1367236525 0.5434993505 4287260739
-0.2873789668 -0.1359319389 0.5427493453 4287195459
-0.2869814038 -0.1351417005 0.5419985056 4287195459
-0.2870405316 -0.1345672011 0.5421101451 4287721290
-0.2870993912 -0.1339923590 0.5422213674 4287655497
-0.2871580422 -0.1334171593 0.5423321128 4287853135
-0.2867591083 -0.1326300800 0.5415787101 4287655756
-0.2863597572 -0.1318444908 0.5408244729 4287589963
-0.2864175439 -0.1312700808 0.5409336090 4287655756
-0.2860174775 -0.1304865330 0.5401780009 4287392584
-0.2860746980 -0.1299123466 0.5402860641 4286932033
-0.2861317098 -0.1293378174 0.5403937101 4286800447
-0.2861884534 -0.1287629455 0.5405009389 4286734654
-0.2862449884 -0.1281877160 0.5406076908 4286735426
-0.2863013148 -0.1276121736 0.5407140851 4286801219
-0.2863573730 -0.1270362735 0.5408199430 4286867010
-0.2859549522 -0.1262577027 0.5400599241 4286867010
-0.2860104740 -0.1256820560 0.5401648283 4286998596
-0.2860657871 -0.1251060665 0.5402692556 4287195975
-0.2856622934 -0.1243301928 0.5395072103 4287524940
-0.2857170403 -0.1237544641 0.5396106243 4287722319
-0.2853128314 -0.1229806989 0.5388472080 4287918928
-0.2853670120 -0.1224052384 0.5389495492 4288050514
-0.2854209840 -0.1218294576 0.5390514135 4288182100
-0.2854746878 -0.1212533414 0.5391528606 4288116307
-0.2850691080 -0.1204828918 0.5383869410 4287984721
-0.2851222754 -0.1199070662 0.5384873152 4287787342
-0.2851752043 -0.1193309128 0.5385872722 4287326791
-0.2852278948 -0.1187544391 0.5386867523 4286866240
-0.2852803469 -0.1181776449 0.5387858152 4286603838
-0.2848730683 -0.1174111664 0.5380166769 4286867010
-0.2849249840 -0.1168346703 0.5381146669 4287064389
-0.2849766314 -0.1162578613 0.5382122397 4287195975
-0.2850280404 -0.1156807393 0.5383093953 4287327561
-0.2841596305 -0.1147320047 0.5366692543 4287195975
-0.2846702933 -0.1143408418 0.5376337171 4287261768
-0.2842609584 -0.1135799363 0.5368605852 4287524940
-0.2838512063 -0.1128205806 0.5360867381 4287853905
-0.2839011848 -0.1122447178 0.5361811519 4287853905
-0.2839509547 -0.1116685420 0.5362750888 4287393354
-0.2835401595 -0.1109120175 0.5354992747 4287130182
-0.2835893631 -0.1103361771 0.5355921984 4286932803
-0.2840987444 -0.1099382266 0.5365542769 4286998596
-0.2841475308 -0.1093608513 0.5366464257 4287656526
-0.2841960788 -0.1087831855 0.5367380977 4288051284
-0.2842443883 -0.1082052216 0.5368293524 4288050514
-0.2838317156 -0.1074525267 0.5360499024 4287721549
-0.2838794589 -0.1068749130 0.5361400843 4287721551
-0.2839269638 -0.1062970087 0.5362298489 4287918930
-0.2839742303 -0.1057188138 0.5363190770 4287788114
-0.2840212584 -0.1051403359 0.5364078879 4288117079
-0.2840680480 -0.1045615673 0.5364962816 4289038181
-0.2841145694 -0.1039825082 0.5365841389 4289564525
-0.2841608524 -0.1034031734 0.5366715789 4289367146
-0.2842069268 -0.1028235555 0.5367585421 4288775009
-0.2842527330 -0.1022436544 0.5368450880 4289432685
-0.2842983007 -0.1016634703 0.5369310975 4289432685
-0.2843436003 -0.1010830104 0.5370166898 4289498478
-0.2843886912 -0.1005022749 0.5371018052 4289235306
-0.2844335139 -0.0999212712 0.5371865034 4289301099
-0.2840162814 -0.0991787165 0.5363984704 4288314204
-0.2840605378 -0.0985981002 0.5364820957 4287261518
-0.2841045558 -0.0980172157 0.5365652442 4286472002
-0.2841483057 -0.0974360630 0.5366478562 4286866760
-0.2837297320 -0.0966971591 0.5358573198 4286735174
-0.2837729454 -0.0961164162 0.5359389186 4287195725
-0.2842781544 -0.0956910029 0.5368930697 4287195725
-0.2843209207 -0.0951087847 0.5369738936 4286801480
-0.2843634486 -0.0945263058 0.5370541811 4286209343
-0.2839432955 -0.0937908143 0.5362606645 4286801225
-0.2839852571 -0.0932087675 0.5363399386 4286867018
-0.2835643888 -0.0924756005 0.5355450511 4286801225
-0.2836057842 -0.0918939859 0.5356232524 4286669639
-0.2836469412 -0.0913121179 0.5357009768 4286340674
-0.2836878300 -0.0907299966 0.5357782245 4285945916
-0.2837284803 -0.0901476219 0.5358549953 4285814330
-0.2837688923 -0.0895650014 0.5359312892 4285616951
-0.2838090360 -0.0889821351 0.5360071063 4285879863
-0.2838489413 -0.0883990154 0.5360824466 4286011449
-0.2843517065 -0.0879589096 0.5370319486 4286800965
-0.2843911648 -0.0873743519 0.5371065140 4287787860
-0.2848936021 -0.0869309008 0.5380554199 4287458897
-0.2853959203 -0.0864853039 0.5390041471 4287129932
-0.2858981192 -0.0860375613 0.5399525762 4287393615
-0.2859367430 -0.0854491815 0.5400255322 4287854166
-0.2859751284 -0.0848605633 0.5400980711 4287788371
-0.2864768207 -0.0844082981 0.5410455465 4288512094
-0.2869783640 -0.0839538798 0.5419927835 4289236071
-0.2870160937 -0.0833626464 0.5420640111 4289038692
-0.2875173390 -0.0829048976 0.5430106521 4288117336
-0.2880184054 -0.0824450105 0.5439569950 4287590992
-0.2885193527 -0.0819829777 0.5449030995 4287459406
-0.2890201509 -0.0815188065 0.5458489060 4287854164
-0.2895208001 -0.0810524896 0.5467944741 4287657555
-0.2900213301 -0.0805840343 0.5477397442 4288183899
-0.2909857929 -0.0802414119 0.5495612621 4288908137
-0.2914860845 -0.0797677189 0.5505061150 4289302895
-0.2919862270 -0.0792918876 0.5514506698 4289566327
-0.2920219302 -0.0786888078 0.5515181422 4289895292
-0.2954483628 -0.0765122697 0.5579893589 4293255640
-0.3501272500 -0.2197064906 0.6626469493 4291087575
-0.3497715592 -0.2187477946 0.6619737744 4286347123
-0.3494153917 -0.2177902907 0.6612997055 4285623400
-0.3486101031 -0.2165552974 0.6597755551 4287066192
-0.3464577496 -0.2144897282 0.6557020545 4287263571
-0.3393661082 -0.2093857229 0.6422805190 4287394131
-0.3039825857 -0.1869152188 0.5753140450 4287130959
-0.3018160760 -0.1849483848 0.5712137222 4287459924
-0.2983004451 -0.1821667850 0.5645601153 4287459924
-0.2974789143 -0.1810395718 0.5630052686 4286998859
-0.2971062064 -0.1801879853 0.5622999072 4286933066
-0.2967330813 -0.1793377101 0.5615937114 4287130445
-0.2959097624 -0.1782178879 0.5600355268 4287196238
-0.2955356240 -0.1773710996 0.5593274236 4287196238
-0.2947111130 -0.1762565374 0.5577669740 4287262031
-0.2943359911 -0.1754132509 0.5570570230 4287327822
-0.2944105864 -0.1748386323 0.5571982265 4287525201
-0.2940347195 -0.1739971191 0.5564868450 4287722580
-0.2941088080 -0.1734225005 0.5566270351 4287525201
-0.2937321663 -0.1725827605 0.5559142232 4287130443
-0.2933550775 -0.1717443466 0.5552005768 4286801478
-0.2934283316 -0.1711701900 0.5553391576 4286669379
-0.2935013473 -0.1705956161 0.5554773808 4286669379
-0.2931231856 -0.1697594374 0.5547617078 4286735172
-0.2922935486 -0.1686643213 0.5531914830 4286800965
-0.2919144332 -0.1678317040 0.5524739623 4286603586
-0.2924374342 -0.1675174832 0.5534638762 4286274621
-0.2916062772 -0.1664281636 0.5518907905 4286669379
-0.2912259698 -0.1655987203 0.5511710048 4287590481
-0.2908452451 -0.1647706330 0.5504504442 4287261516
-0.2909157872 -0.1641988754 0.5505840182 4287195723
-0.2905343175 -0.1633726209 0.5498619676 4287327563
-0.2901524007 -0.1625477225 0.5491391420 4287459149
-0.2897700369 -0.1617241949 0.5484155416 4287261770
-0.2898394167 -0.1611534506 0.5485468507 4287064391
-0.2899086177 -0.1605823040 0.5486778021 4286997828
-0.2895251811 -0.1597611010 0.5479521155 4287261000
-0.2895938456 -0.1591900289 0.5480820537 4287064137
-0.2896622717 -0.1586185396 0.5482115746 4287129930
-0.2892777920 -0.1577997059 0.5474839211 4287064137
-0.2893456817 -0.1572283059 0.5476124287 4287129930
-0.2894133627 -0.1566565037 0.5477405190 4287393102
-0.2890278101 -0.1558400393 0.5470107794 4287195723
-0.2890949547 -0.1552683264 0.5471378565 4287129930
-0.2887086570 -0.1544537544 0.5464067459 4287458895
-0.2887752652 -0.1538821608 0.5465328097 4287261770
-0.2888416350 -0.1533101648 0.5466584563 4286669633
-0.2889078259 -0.1527377665 0.5467837453 4287393356
-0.2885201275 -0.1519261003 0.5460500121 4287195977
-0.2885857821 -0.1513538361 0.5461742282 4287261000
-0.2881973386 -0.1505440921 0.5454390645 4287326793
-0.2878084779 -0.1497357488 0.5447031260 4286603840
-0.2878732681 -0.1491641104 0.5448257327 4286538047
-0.2874836624 -0.1483577192 0.5440883636 4286669633
-0.2875478864 -0.1477862149 0.5442099571 4286735426
-0.2876119018 -0.1472143233 0.5443310738 4287063619
-0.2872212529 -0.1464103907 0.5435917377 4287392584
-0.2872847319 -0.1458386481 0.5437118411 4287655756
-0.2868933082 -0.1450366676 0.5429710746 4287655756
-0.2869562507 -0.1444650739 0.5430901647 4287787342
-0.2865641117 -0.1436650604 0.5423480272 4287918928
-0.2866264880 -0.1430936307 0.5424661040 4288050514
-0.2866886556 -0.1425218135 0.5425837636 4288313686
-0.2862954438 -0.1417243183 0.5418395996 4288181841
-0.2863570750 -0.1411526650 0.5419562459 4288116048
-0.2868738472 -0.1408041567 0.5429342389 4288379220
-0.2869351208 -0.1402308643 0.5430502295 4288445013
-0.2869961858 -0.1396572143 0.5431657434 4288182354
-0.2870570123 -0.1390831918 0.5432808995 4287919182
-0.2871176302 -0.1385087967 0.5433955789 4287392325
-0.2871780097 -0.1379340589 0.5435099006 4287194946
-0.2867822349 -0.1371409148 0.5427608490 4287327045
-0.2872980833 -0.1367834657 0.5437371731 4287327045
-0.2869016528 -0.1359914392 0.5429868698 4287195459
-0.2865048349 -0.1352008730 0.5422358513 4287129666
-0.2865638733 -0.1346261501 0.5423476100 4287458118
-0.2861663103 -0.1338376254 0.5415951610 4287260739
-0.2862248123 -0.1332631111 0.5417059064 4287392838
-0.2862831056 -0.1326882541 0.5418162346 4287129666
-0.2858844697 -0.1319023371 0.5410617590 4287195205
-0.2859421968 -0.1313276887 0.5411710143 4287524170
-0.2855428457 -0.1305438280 0.5404152274 4287392584
-0.2856000364 -0.1299694180 0.5405234098 4286997826
-0.2856569886 -0.1293946505 0.5406312346 4286997826
-0.2857137024 -0.1288195550 0.5407385826 4287129412
-0.2857702076 -0.1282441020 0.5408455133 4287064391
-0.2853691280 -0.1274640411 0.5400864482 4287195977
-0.2854250669 -0.1268888414 0.5401923060 4287261770
-0.2854807973 -0.1263132989 0.5402977467 4287261770
-0.2855362594 -0.1257374138 0.5404027700 4287261770
-0.2851338387 -0.1249606237 0.5396411419 4287327563
-0.2851887643 -0.1243849993 0.5397450924 4287459147
-0.2852434516 -0.1238090470 0.5398485661 4287590733
-0.2848399878 -0.1230349541 0.5390849710 4287524940
-0.2848941088 -0.1224592626 0.5391874313 4287590733
-0.2849480212 -0.1218832433 0.5392894149 4287787342
-0.2850016952 -0.1213069037 0.5393910408 4287721549
-0.2845968306 -0.1205361336 0.5386248231 4287721549
-0.2846499681 -0.1199600622 0.5387253165 4287524170
-0.2847028375 -0.1193836778 0.5388253927 4287195205
-0.2842969298 -0.1186156571 0.5380572081 4286734654
-0.2843492627 -0.1180395558 0.5381562710 4286406461
-0.2844013572 -0.1174631417 0.5382548571 4286735426
-0.2844532132 -0.1168864071 0.5383529663 4286867010
-0.2840459645 -0.1161217690 0.5375822186 4286998596
-0.2840972543 -0.1155453399 0.5376793146 4287195975
-0.2841483057 -0.1149685979 0.5377759337 4287195975
-0.2837400138 -0.1142067462 0.5370031595 4287195977
-0.2837905288 -0.1136303172 0.5370987654 4287459149
-0.2833814919 -0.1128706485 0.5363246799 4287393356
-0.2834314406 -0.1122945473 0.5364192128 4287656528
-0.2834811509 -0.1117181331 0.5365132689 4287590733
-0.2830711007 -0.1109612957 0.5357372165 4287524940
-0.2831202447 -0.1103852168 0.5358301997 4287393354
-0.2836288512 -0.1099870950 0.5367928147 4287195975
-0.2836776078 -0.1094094887 0.5368850827 4287393356
-0.2837261260 -0.1088315770 0.5369768739 4287590735
-0.2837744057 -0.1082533747 0.5370682478 4287656528
-0.2833624184 -0.1075003594 0.5362885594 4287524942
-0.2834101319 -0.1069225073 0.5363788605 4287459149
-0.2834576070 -0.1063443571 0.5364686847 4287327563
-0.2835048437 -0.1057659239 0.5365580916 4287722321
-0.2835518122 -0.1051872000 0.5366470218 4288314458
-0.2835985720 -0.1046081856 0.5367354751 4288643169
-0.2836450636 -0.1040288955 0.5368235111 4288116825
-0.2836913168 -0.1034493148 0.5369110703 4288511583
-0.2837373316 -0.1028694510 0.5369981527 4288051032
-0.2837831080 -0.1022893041 0.5370847583 4288643169
-0.2838286459 -0.1017088816 0.5371709466 4289037927
-0.2838739157 -0.1011281759 0.5372566581 4289037927
-0.2839189768 -0.1005471945 0.5373418927 4288972134
-0.2839637697 -0.0999659374 0.5374266505 4289037927
-0.2835472524 -0.0992230698 0.5366383791 4287524688
-0.2835914791 -0.0986422077 0.5367220640 4286735687
-0.2836354673 -0.0980610773 0.5368053317 4286538308
-0.2836791873 -0.0974796787 0.5368880630 4286867273
-0.2837226987 -0.0968980119 0.5369703770 4286867273
-0.2837659419 -0.0963160768 0.5370522141 4287327824
-0.2838089168 -0.0957338735 0.5371336341 4287525203
-0.2838516831 -0.0951514095 0.5372145176 4287328339
-0.2838941813 -0.0945686847 0.5372949243 4286275651
-0.2834747434 -0.0938328728 0.5365011096 4285815100
-0.2835166752 -0.0932505727 0.5365805030 4285354549
-0.2830965519 -0.0925170928 0.5357853174 4285288756
-0.2831379175 -0.0919352323 0.5358636379 4285420342
-0.2831790149 -0.0913531110 0.5359414816 4285486135
-0.2832199037 -0.0907707438 0.5360187888 4285420342
-0.2832605243 -0.0901881158 0.5360956788 4285420855
-0.2833008766 -0.0896052495 0.5361720920 4285223476
-0.2833409905 -0.0890221223 0.5362480283 4285353519
-0.2833808661 -0.0884387568 0.5363234878 4285485105
-0.2834205031 -0.0878551453 0.5363984704 4285945656
-0.2839222550 -0.0874136537 0.5373480916 4287064137
-0.2844239175 -0.0869700164 0.5382975340 4287393102
-0.2849254608 -0.0865242332 0.5392467380 4287261516
-0.2854268551 -0.0860762969 0.5401957035 4287722067
-0.2854654789 -0.0854876637 0.5402687788 4287985239
-0.2859665453 -0.0850363895 0.5412170887 4288248922
-0.2860047221 -0.0844463259 0.5412893295 4288248922
-0.2865054607 -0.0839917213 0.5422370434 4288775266
-0.2870060802 -0.0835349634 0.5431845188 4288906852
-0.2875065804 -0.0830760598 0.5441317558 4287788371
-0.2880069315 -0.0826150179 0.5450786948 4286933062
-0.2885071337 -0.0821518302 0.5460253954 4286801476
-0.2890071869 -0.0816865042 0.5469717979 4287262027
-0.2890439034 -0.0810890794 0.5470412970 4287394383
-0.2895436287 -0.0806204155 0.5479870439 4288183899
-0.2905065417 -0.0802776515 0.5498094559 4288381793
-0.2910060585 -0.0798037499 0.5507547855 4289039723
-0.2915053964 -0.0793277100 0.5516998768 4289500020
-0.2920045853 -0.0788495317 0.5526446104 4289894778
-0.3473010659 -0.2183921039 0.6586827040 4290890196
-0.3460501134 -0.2168762684 0.6563101411 4286347123
-0.3434548378 -0.2145260274 0.6513880491 4286083951
-0.3386183679 -0.2107915580 0.6422153115 4287000914
-0.3109297752 -0.1929000765 0.5897018313 4287000914
-0.2989113927 -0.1848140359 0.5669080615 4287459925
-0.3034721315 -0.1869943887 0.5755577683 4287262546
-0.3013093174 -0.1850267798 0.5714558363 4287196752
-0.2977996469 -0.1822440475 0.5647994876 4287130959
-0.2969795763 -0.1811163723 0.5632441640 4286999373
-0.2966075540 -0.1802644730 0.5625386238 4286999373
-0.2962350845 -0.1794138700 0.5618321896 4287196752
-0.2954132259 -0.1782936156 0.5602735281 4287196752
-0.2950398028 -0.1774465144 0.5595652461 4286999373
-0.2942167222 -0.1763315052 0.5580042005 4286999373
-0.2938422859 -0.1754879057 0.5572940707 4287196238
-0.2939168215 -0.1749130785 0.5574354529 4287393617
-0.2935416400 -0.1740712374 0.5567238927 4287590996
-0.2936156690 -0.1734964252 0.5568642616 4287393617
-0.2932397127 -0.1726563573 0.5561512709 4287064652
-0.2933132052 -0.1720815450 0.5562906861 4286998859
-0.2929365039 -0.1712432653 0.5555762053 4286735172
-0.2930094898 -0.1706684679 0.5557146072 4286735172
-0.2930822372 -0.1700932533 0.5558525920 4286669892
-0.2922541499 -0.1689968258 0.5542820692 4286669892
-0.2914254069 -0.1679034978 0.5527102947 4286604099
-0.2919476032 -0.1675891727 0.5537006855 4286669892
-0.2911179066 -0.1664994210 0.5521270633 4287064137
-0.2911890447 -0.1659265161 0.5522620082 4287458895
-0.2899073958 -0.1645852923 0.5498312116 4287458895
-0.2908797264 -0.1645243615 0.5516753793 4287327309
-0.2900479734 -0.1634427011 0.5500978827 4287656274
-0.2896667421 -0.1626174897 0.5493748784 4287656274
-0.2892850935 -0.1617936492 0.5486510396 4287524688
-0.2893544436 -0.1612226814 0.5487825274 4287327309
-0.2894235551 -0.1606513113 0.5489135981 4287392588
-0.2890408337 -0.1598298103 0.5481877923 4287392588
-0.2891094089 -0.1592585146 0.5483178496 4287261516
-0.2891778052 -0.1586868167 0.5484475493 4287261516
-0.2892459631 -0.1581147015 0.5485768318 4287195723
-0.2888618410 -0.1572960466 0.5478483438 4287327309
-0.2889294922 -0.1567240208 0.5479765534 4287655760
-0.2889969051 -0.1561516076 0.5481044054 4287589967
-0.2886117101 -0.1553353220 0.5473739505 4287393102
-0.2886785865 -0.1547629982 0.5475007296 4287524688
-0.2882926762 -0.1539486051 0.5467688441 4287393356
-0.2883590162 -0.1533763856 0.5468946695 4287130184
-0.2884251475 -0.1528037786 0.5470200777 4287655758
-0.2880381644 -0.1519917995 0.5462861061 4286932035
-0.2881037295 -0.1514193118 0.5464105010 4286932035
-0.2877160013 -0.1506092399 0.5456751585 4287129414
-0.2877810597 -0.1500368714 0.5457984805 4286800449
-0.2873925865 -0.1492287368 0.5450617075 4286537277
-0.2870036960 -0.1484220177 0.5443241596 4286472254
-0.2870678604 -0.1478502899 0.5444458723 4286538047
-0.2871318460 -0.1472781897 0.5445672274 4286801217
-0.2867418826 -0.1464739293 0.5438275933 4287130182
-0.2868053019 -0.1459019631 0.5439479351 4287524170
-0.2864145935 -0.1450996697 0.5432069302 4287589963
-0.2864774764 -0.1445278525 0.5433261991 4287459147
-0.2860860527 -0.1437275261 0.5425837636 4287590733
-0.2861483991 -0.1431558579 0.5427020192 4288050514
-0.2862105072 -0.1425838321 0.5428198576 4288379479
-0.2862724066 -0.1420114189 0.5429372787 4288116048
-0.2858795822 -0.1412141472 0.5421922207 4287918669
-0.2863955498 -0.1408655047 0.5431708097 4288181841
-0.2864567935 -0.1402919888 0.5432869196 4288247634
-0.2865177989 -0.1397181153 0.5434026122 4287721549
-0.2865785658 -0.1391438693 0.5435178876 4287195205
