VERSION 0.7
FIELDS x y z rgba
SIZE 4 4 4 4
TYPE F F F U
COUNT 1 1 1 1
WIDTH 920
HEIGHT 1
VIEWPOINT 0.0 0.0 0.0 1.0 0.0 0.0 0.0
POINTS 920
DATA ascii
-0.2971960902 -0.1615021527 0.6071379781 4281611324
-0.2972630262 -0.1608637869 0.6072747111 4281611324
-0.2973296940 -0.1602249891 0.6074109077 4282071875
-0.2973961532 -0.1595857739 0.6075466275 4281742910
-0.2974623442 -0.1589461267 0.6076818705 4281677119
-0.2979564071 -0.1585338265 0.6086912155 4281677119
-0.2980222404 -0.1578924060 0.6088256836 4281479740
-0.2980878353 -0.1572505534 0.6089596748 4281084982
-0.2981531918 -0.1566082835 0.6090931892 4280624431
-0.2982183099 -0.1559655815 0.6092262268 4280361259
-0.2987117469 -0.1555456370 0.6102342606 4280427820
-0.2987764776 -0.1549011767 0.6103664637 4280756785
-0.2992697060 -0.1544776261 0.6113741398 4281612607
-0.2997628748 -0.1540517956 0.6123816371 4283323225
-0.2998270690 -0.1534042358 0.6125127673 4285560187
-0.2998910248 -0.1527562588 0.6126433611 4287533977
-0.3003838360 -0.1523254812 0.6136501431 4289507767
-0.3004473746 -0.1516757458 0.6137799621 4291613143
-0.2950440347 -0.1949291080 0.6041122675 4287928484
-0.2947011292 -0.1940321177 0.6034101248 4282336079
-0.2947794795 -0.1934130937 0.6035705805 4282467665
-0.2948576212 -0.1927935779 0.6037305593 4282467152
-0.2949355543 -0.1921735704 0.6038901806 4282467152
-0.2945912480 -0.1912790388 0.6031851768 4282861910
-0.2946686447 -0.1906589419 0.6033436656 4283256668
-0.2943235636 -0.1897660941 0.6026371121 4282993496
-0.2944004536 -0.1891459078 0.6027944684 4282796117
-0.2944771051 -0.1885252446 0.6029514670 4282664531
-0.2937083542 -0.1873649210 0.6013774276 4282861910
-0.2937843800 -0.1867450625 0.6015330553 4282993496
-0.2934373617 -0.1858569235 0.6008225083 4283256668
-0.2930898964 -0.1849700958 0.6001111269 4282598997
-0.2931650579 -0.1843505949 0.6002650261 4282664790
-0.2936631739 -0.1839957386 0.6012848616 4283191134
-0.2937380075 -0.1833743900 0.6014381051 4284441201
-0.2938126326 -0.1827525645 0.6015909314 4286546577
-0.2938870490 -0.1821302623 0.6017432809 4288651953
-0.2943848073 -0.1817690283 0.6027624607 4290297548
-0.2944588959 -0.1811448932 0.6029141545 4291810787
-0.2949565351 -0.1807800233 0.6039330959 4292271338
-0.2949058115 -0.1733690500 0.6038292050 4292073957
-0.2949769199 -0.1727398038 0.6039748192 4291481820
-0.2946226597 -0.1718620956 0.6032494903 4291152855
-0.2946932018 -0.1712328345 0.6033939123 4290626511
-0.2947635353 -0.1706031263 0.6035379171 4289836995
-0.2948336303 -0.1699729711 0.6036814451 4289113527
-0.2949035168 -0.1693423539 0.6038245559 4287797667
-0.2949731648 -0.1687113047 0.6039671302 4286612623
-0.2950425744 -0.1680798084 0.6041092873 4285165177
-0.2951117754 -0.1674478501 0.6042509675 4283454559
-0.2951807380 -0.1668154597 0.6043921709 4282204492
-0.2952494919 -0.1661826372 0.6045329571 4281612355
-0.2957441509 -0.1657882482 0.6055457592 4281283390
-0.2953862846 -0.1649156362 0.6048130393 4281875268
-0.2954543233 -0.1642814875 0.6049523354 4281809475
-0.2955221534 -0.1636468917 0.6050912142 4281941061
-0.2955897152 -0.1630118638 0.6052295566 4282138440
-0.2956570685 -0.1623764038 0.6053674817 4281809475
-0.2957241833 -0.1617405117 0.6055049300 4281348924
-0.2957910895 -0.1611041725 0.6056419015 4281414717
-0.2954308093 -0.1602358669 0.6049042344 4281480510
-0.2954971492 -0.1595995873 0.6050400138 4281874498
-0.2955632210 -0.1589628905 0.6051753163 4281874498
-0.2956290841 -0.1583257765 0.6053101420 4281874498
-0.2956947088 -0.1576882154 0.6054445505 4281940291
-0.2957600951 -0.1570502520 0.6055784225 4281874498
-0.2958252430 -0.1564118564 0.6057117581 4281808705
-0.2958901525 -0.1557730287 0.6058446765 4281742910
-0.2963824868 -0.1553579718 0.6068527699 4281808703
-0.2964470088 -0.1547174007 0.6069849133 4281414715
-0.2965112925 -0.1540763974 0.6071165800 4281743680
-0.2970033288 -0.1536563933 0.6081239581 4281546303
-0.2979233265 -0.1534546018 0.6100077033 4280756787
-0.2979871631 -0.1528095752 0.6101384163 4280230441
-0.2980507612 -0.1521641463 0.6102686524 4280690992
-0.2981141210 -0.1515183002 0.6103983521 4282138438
-0.2986056507 -0.1510888040 0.6114047766 4283849056
-0.2986686230 -0.1504411995 0.6115337014 4286414983
-0.2991599441 -0.1500081122 0.6125397086 4288586152
-0.2992224991 -0.1493587643 0.6126677990 4290823114
-0.2997136116 -0.1489220560 0.6136733294 4292402146
-0.2932298481 -0.1941720694 0.6017661095 4287928230
-0.2933080792 -0.1935551167 0.6019267440 4282204239
-0.2929652035 -0.1926608384 0.6012230515 4282993755
-0.2930429578 -0.1920437813 0.6013826132 4282730583
-0.2926993072 -0.1911511868 0.6006773710 4282401618
-0.2927765250 -0.1905340403 0.6008358002 4282730583
-0.2924321294 -0.1896431297 0.6001290679 4283059548
-0.2920873165 -0.1887535155 0.5994215012 4283059291
-0.2925852835 -0.1884081662 0.6004433632 4283388256
-0.2922398150 -0.1875193715 0.5997344255 4283454049
-0.2918939292 -0.1866318733 0.5990245938 4283256670
-0.2923914790 -0.1862832904 0.6000456214 4283059291
-0.2920449376 -0.1853966117 0.5993344784 4283322463
-0.2921201289 -0.1847782731 0.5994887948 4284178029
-0.2921951115 -0.1841594577 0.5996426344 4286217612
-0.2922698557 -0.1835401505 0.5997960567 4288257965
-0.2923444211 -0.1829203814 0.5999490619 4290100169
-0.2924187481 -0.1823001355 0.6001015902 4291547615
-0.2929155529 -0.1819419563 0.6011211276 4292271338
-0.2932949960 -0.1708088368 0.6018998027 4292271336
-0.2933650315 -0.1701807231 0.6020435691 4291810785
-0.2934348583 -0.1695521474 0.6021868587 4291481820
-0.2935044765 -0.1689231396 0.6023297310 4290758097
-0.2935738564 -0.1682936698 0.6024721265 4290100422
-0.2936429977 -0.1676637679 0.6026139855 4289639871
-0.2937119305 -0.1670334190 0.6027554870 4288916148
-0.2937806249 -0.1664026231 0.6028964520 4287666081
-0.2942743301 -0.1660112888 0.6039096713 4286086279
-0.2943426669 -0.1653787047 0.6040499210 4284441454
-0.2944107950 -0.1647456735 0.6041896939 4283322971
-0.2944786549 -0.1641121954 0.6043289900 4282336076
-0.2941206694 -0.1632420570 0.6035943031 4281678146
-0.2941879928 -0.1626086235 0.6037324667 4281612353
-0.2942550778 -0.1619747728 0.6038700938 4281612096
-0.2943219244 -0.1613404751 0.6040073037 4281546303
-0.2943885624 -0.1607057452 0.6041440368 4281414717
-0.2940288186 -0.1598389447 0.6034058332 4281546303
-0.2940948904 -0.1592042744 0.6035413742 4282072647
-0.2941607237 -0.1585691869 0.6036764979 4282072647
-0.2942263186 -0.1579336673 0.6038110852 4282137670
-0.2942916751 -0.1572977304 0.6039452553 4282137670
-0.2943567932 -0.1566613615 0.6040788889 4282006082
-0.2939949930 -0.1557984501 0.6033363938 4282006082
-0.2936327457 -0.1549369693 0.6025930047 4282006082
-0.2941238880 -0.1545254737 0.6036008596 4282071875
-0.2941879630 -0.1538883448 0.6037324071 4282006852
-0.2942518294 -0.1532508135 0.6038634181 4282006852
-0.2947425842 -0.1528343707 0.6048706174 4281875268
-0.2952333093 -0.1524156481 0.6058776975 4281677889
-0.2952966392 -0.1517750174 0.6060076356 4281414715
-0.2957871556 -0.1513527036 0.6070142388 4281217336
-0.2958500981 -0.1507103145 0.6071434021 4281019957
-0.2963404059 -0.1502843946 0.6081496477 4280756785
-0.2964029312 -0.1496402621 0.6082779765 4280625199
-0.2968930304 -0.1492107362 0.6092837453 4281283129
-0.2973830700 -0.1487789452 0.6102893949 4282927184
-0.2974450588 -0.1481317431 0.6104165912 4285098353
-0.2975068092 -0.1474841237 0.6105433106 4287598487
-0.2979964614 -0.1470473856 0.6115481853 4289703863
-0.2980577946 -0.1463980526 0.6116740704 4291414481
-0.2914196849 -0.1934142858 0.5994176269 4288718516
-0.2910774946 -0.1925219595 0.5987137556 4282730583
-0.2907348871 -0.1916309148 0.5980090499 4282467411
-0.2908120751 -0.1910171956 0.5981678367 4282401618
-0.2908890843 -0.1904029846 0.5983262062 4283191134
-0.2905454040 -0.1895140260 0.5976192951 4283717478
-0.2902012765 -0.1886263490 0.5969114900 4283651685
-0.2902774215 -0.1880124658 0.5970681310 4283256927
-0.2903533578 -0.1873980910 0.5972242951 4283322720
-0.2904291153 -0.1867832392 0.5973801017 4283454049
-0.2900835872 -0.1858980954 0.5966694355 4284177772
-0.2905799448 -0.1855520904 0.5976903439 4285888390
-0.2906550467 -0.1849357933 0.5978447795 4287927973
-0.2907299101 -0.1843190342 0.5979988575 4289705411
-0.2912260592 -0.1839680225 0.5990193486 4291218650
-0.2913006246 -0.1833494008 0.5991727114 4292271338
-0.2926010787 -0.1681192219 0.6018475890 4292205543
-0.2926700711 -0.1674900055 0.6019895077 4291810785
-0.2927388251 -0.1668603420 0.6021308899 4291218648
-0.2928073406 -0.1662302315 0.6022718549 4290626511
-0.2933000922 -0.1658396870 0.6032853723 4290297546
-0.2933682501 -0.1652077734 0.6034256220 4289639616
-0.2934361994 -0.1645754278 0.6035653353 4288652976
-0.2935039103 -0.1639426500 0.6037046313 4287073944
-0.2931465507 -0.1630730927 0.6029695272 4285494142
-0.2932136953 -0.1624403596 0.6031076908 4283980903
-0.2932806015 -0.1618071795 0.6032453179 4282928215
-0.2933472991 -0.1611735672 0.6033824682 4282401871
-0.2934137583 -0.1605395377 0.6035192013 4282204490
-0.2930546701 -0.1596733183 0.6027805805 4282336076
-0.2926951349 -0.1588085145 0.6020410657 4282533198
-0.2927607000 -0.1581750363 0.6021758914 4282138440
-0.2928260267 -0.1575411260 0.6023102999 4282072647
-0.2928911448 -0.1569067836 0.6024442315 4282204233
-0.2929560244 -0.1562720388 0.6025776267 4282335049
-0.2925947607 -0.1554106474 0.6018345952 4282203463
-0.2922330499 -0.1545506865 0.6010906100 4282137670
-0.2918709517 -0.1536921412 0.6003457904 4282137670
-0.2923607826 -0.1532819271 0.6013533473 4282400842
-0.2924242914 -0.1526469439 0.6014839411 4282203463
-0.2929139137 -0.1522331238 0.6024910808 4281940291
-0.2929770648 -0.1515963823 0.6026209593 4282071877
-0.2930399477 -0.1509592235 0.6027503014 4282006084
-0.2935292423 -0.1505404562 0.6037567258 4281874498
-0.2940184772 -0.1501194388 0.6047630310 4281940289
-0.2940808237 -0.1494791955 0.6048912406 4282006082
-0.2945698500 -0.1490545720 0.6058971286 4281611324
-0.2950588167 -0.1486276686 0.6069028974 4281150773
-0.2955477238 -0.1481985152 0.6079084873 4281084980
-0.2956093848 -0.1475538611 0.6080353260 4281150773
-0.2956707776 -0.1469088048 0.6081616282 4281545531
-0.2957319617 -0.1462633461 0.6082874537 4282203461
-0.2962203324 -0.1458279192 0.6092919707 4283453528
-0.2962810993 -0.1451807320 0.6094169617 4285558904
-0.2963416278 -0.1445331424 0.6095414758 4287336085
-0.2968296111 -0.1440927833 0.6105452180 4289573047
-0.2968897223 -0.1434434801 0.6106688380 4291415251
-0.2898770869 -0.1941589564 0.5976098776 4292337129
-0.2899550200 -0.1935469955 0.5977705717 4291547613
-0.2896136343 -0.1926557273 0.5970667601 4289771202
-0.2892718017 -0.1917657405 0.5963620543 4284309869
-0.2893489003 -0.1911540776 0.5965210199 4282467665
-0.2894258201 -0.1905419230 0.5966795683 4282138700
-0.2890829146 -0.1896540225 0.5959726572 4282928216
-0.2887396216 -0.1887674034 0.5952649117 4283651939
-0.2888156772 -0.1881555766 0.5954216719 4283717732
-0.2888915241 -0.1875432581 0.5955780745 4284178283
-0.2889671624 -0.1869304627 0.5957340002 4285823108
-0.2890425920 -0.1863171756 0.5958895087 4287862178
-0.2891178131 -0.1857034117 0.5960446000 4289770175
-0.2896131575 -0.1853581965 0.5970658064 4291349207
-0.2897627652 -0.1841265112 0.5973742008 4292337129
-0.2923267484 -0.1656678021 0.6026601195 4292073957
-0.2923947573 -0.1650365889 0.6028003097 4291481820
-0.2920386791 -0.1641666591 0.6020662189 4291416282
-0.2921061218 -0.1635354757 0.6022052765 4290824145
-0.2921733260 -0.1629038602 0.6023437977 4290363594
-0.2922403216 -0.1622718126 0.6024819016 4289442492
-0.2923070788 -0.1616393328 0.6026195288 4288060839
-0.2923735976 -0.1610064059 0.6027566791 4286679186
-0.2924398780 -0.1603730619 0.6028933525 4285099384
-0.2920814157 -0.1595074385 0.6021543145 4283980903
-0.2917225063 -0.1586432159 0.6014144421 4283125594
-0.2917879224 -0.1580104232 0.6015492678 4282336078
-0.2918531001 -0.1573772132 0.6016836166 4282204233
-0.2914931178 -0.1565154046 0.6009414792 4282401612
-0.2915577292 -0.1558822691 0.6010746956 4282270026
-0.2911970019 -0.1550223976 0.6003310680 4282006854
-0.2912610471 -0.1543893367 0.6004630923 4281875268
-0.2908995748 -0.1535314023 0.5997178555 4281809475
-0.2913884521 -0.1531219631 0.6007257700 4282006084
-0.2914518118 -0.1524876654 0.6008563638 4282071877
-0.2910893559 -0.1516312659 0.6001091003 4282006084
-0.2915778160 -0.1512178183 0.6011161208 4282269256
-0.2916404307 -0.1505822688 0.6012452245 4282335049
-0.2921286821 -0.1501652300 0.6022518277 4282269256
-0.2926168740 -0.1497459114 0.6032582521 4282466635
-0.2926789820 -0.1491072923 0.6033862829 4282598221
-0.2931669652 -0.1486843675 0.6043923497 4282071877
-0.2932286859 -0.1480440050 0.6045195460 4281874498
-0.2932901680 -0.1474032402 0.6046463251 4281808703
-0.2933514118 -0.1467620730 0.6047725677 4281611324
-0.2934124172 -0.1461205035 0.6048982739 4282005825
-0.2934731543 -0.1454785317 0.6050235629 4281940032
-0.2939603329 -0.1450466961 0.6060279012 4281216309
-0.2940206826 -0.1444029957 0.6061522961 4281282102
-0.2945075929 -0.1439675540 0.6071561575 4281413945
-0.2945675552 -0.1433221251 0.6072797775 4282795598
-0.2946272790 -0.1426763088 0.6074028611 4284374630
-0.2951138020 -0.1422359347 0.6084059477 4286085248
-0.2956002951 -0.1417933106 0.6094088554 4288125601
-0.2956594229 -0.1411444396 0.6095307469 4290428356
-0.2961456478 -0.1406982243 0.6105331779 4291744216
-0.2884932756 -0.1936755478 0.5961219668 4291744992
-0.2885708809 -0.1930651516 0.5962823629 4290165960
-0.2882299721 -0.1921753436 0.5955779552 4289310651
-0.2878886461 -0.1912868172 0.5948726535 4285692036
-0.2875469029 -0.1903995723 0.5941664577 4283455074
-0.2876233757 -0.1897898614 0.5943244696 4283059802
-0.2872808576 -0.1889043152 0.5936167836 4283849318
-0.2873568237 -0.1882945299 0.5937737226 4285559936
-0.2874325812 -0.1876842678 0.5939302444 4287467933
-0.2875081003 -0.1870735288 0.5940863490 4289441723
-0.2875834405 -0.1864622980 0.5942420363 4291218134
-0.2876585722 -0.1858505905 0.5943972468 4292270822
-0.2912010252 -0.1627343744 0.6017171144 4292337129
-0.2912678421 -0.1621030122 0.6018551588 4292008164
-0.2913344204 -0.1614712030 0.6019927859 4291547868
-0.2914007902 -0.1608389765 0.6021298766 4291021524
-0.2914669216 -0.1602063179 0.6022665501 4289968836
-0.2906853259 -0.1591093540 0.6006515026 4288850355
-0.2907508016 -0.1584776640 0.6007868052 4287796897
-0.2908160388 -0.1578455716 0.6009216309 4286283658
-0.2908810675 -0.1572130322 0.6010559797 4284967798
-0.2905217111 -0.1563518345 0.6003134251 4283980903
-0.2905861735 -0.1557193846 0.6004466414 4282862422
-0.2902260721 -0.1548600942 0.5997025371 4282204492
-0.2898655832 -0.1540022492 0.5989576578 4282072906
-0.2899291515 -0.1533703953 0.5990889668 4281941320
-0.2904170752 -0.1529617459 0.6000971794 4282137670
-0.2904802561 -0.1523281336 0.6002277732 4282335049
-0.2901184261 -0.1514723301 0.5994801521 4282335049
-0.2901810706 -0.1508388221 0.5996095538 4282203463
-0.2906683981 -0.1504248232 0.6006165743 4282137670
-0.2907306552 -0.1497895718 0.6007452011 4282137670
-0.2912178040 -0.1493719667 0.6017518044 4282203463
-0.2912796736 -0.1487349570 0.6018795967 4282203463
-0.2913413048 -0.1480975598 0.6020069718 4281611326
-0.2914026678 -0.1474597454 0.6021338105 4281545533
-0.2914638221 -0.1468215287 0.6022601128 4281742912
-0.2915247381 -0.1461829245 0.6023859978 4281808705
-0.2915853858 -0.1455439031 0.6025113463 4281808703
-0.2916458249 -0.1449044943 0.6026362181 4281611324
-0.2917059958 -0.1442646980 0.6027605534 4281282361
-0.2921918929 -0.1438341588 0.6037645340 4281348154
-0.2922516763 -0.1431926340 0.6038880944 4280756015
-0.2927373350 -0.1427585036 0.6048915982 4280953394
-0.2927967012 -0.1421152502 0.6050143242 4281084980
-0.2928558588 -0.1414716095 0.6051365137 4280821808
-0.2933411300 -0.1410325617 0.6061392426 4281282359
-0.2933998704 -0.1403872073 0.6062606573 4283256149
-0.2938849032 -0.1399445683 0.6072628498 4284967537
-0.2943698466 -0.1394996792 0.6082649231 4286809741
-0.2944280207 -0.1388512850 0.6083851457 4289112496
-0.2949127257 -0.1384027898 0.6093866825 4290954700
-0.2949704826 -0.1377526969 0.6095060110 4292336353
-0.2871892750 -0.1925827712 0.5947925448 4291152857
-0.2868488431 -0.1916944236 0.5940875411 4290100169
-0.2865079939 -0.1908073425 0.5933815837 4289047481
-0.2861667275 -0.1899215579 0.5926747918 4288455344
-0.2862429023 -0.1893134266 0.5928325653 4288257965
-0.2863188684 -0.1887048185 0.5929898620 4289047481
-0.2859765291 -0.1878211349 0.5922808647 4290955478
-0.2860519886 -0.1872124523 0.5924371481 4292073959
-0.2900720239 -0.1598063558 0.6007629633 4292205798
-0.2897147238 -0.1589428484 0.6000229716 4291745247
-0.2897800207 -0.1583118588 0.6001582146 4291284696
-0.2898451090 -0.1576804370 0.6002929807 4290429387
-0.2899099588 -0.1570485979 0.6004273295 4289508285
-0.2895512581 -0.1561879963 0.5996844172 4288455597
-0.2896155417 -0.1555562317 0.5998175740 4287007381
-0.2892560959 -0.1546975523 0.5990731120 4285559935
-0.2893198133 -0.1540658772 0.5992050767 4284309868
-0.2893833220 -0.1534337848 0.5993366241 4283191387
-0.2894465923 -0.1528012753 0.5994676352 4282532944
-0.2895096242 -0.1521683633 0.5995981693 4282138186
-0.2891484499 -0.1513131559 0.5988501310 4281941061
-0.2896349728 -0.1509012729 0.5998578072 4281809475
-0.2892731428 -0.1500471085 0.5991084576 4281743682
-0.2897593975 -0.1496325582 0.6001154780 4281941061
-0.2898212373 -0.1489975899 0.6002435684 4281940807
-0.2898828685 -0.1483622044 0.6003711820 4281743428
-0.2899442315 -0.1477264315 0.6004983187 4281612096
-0.2900053859 -0.1470902413 0.6006249785 4281217338
-0.2896415889 -0.1462392211 0.5998715162 4281348924
-0.2897021770 -0.1456031650 0.5999969840 4281809475
-0.2897624969 -0.1449667215 0.6001219153 4281677889
-0.2898226082 -0.1443298757 0.6002464294 4281546303
-0.2898824513 -0.1436926275 0.6003703475 4281941061
-0.2899420857 -0.1430549771 0.6004938483 4282072647
-0.2904266715 -0.1426257789 0.6014974713 4281611324
-0.2904858887 -0.1419864148 0.6016201377 4281084980
-0.2905448675 -0.1413466632 0.6017423272 4280887601
-0.2910290956 -0.1409125328 0.6027451754 4281150773
-0.2910876870 -0.1402710676 0.6028664708 4281150773
-0.2911460102 -0.1396292150 0.6029872894 4281413945
-0.2912040949 -0.1389869899 0.6031076312 4281084980
-0.2921136022 -0.1387488842 0.6049912572 4280624429
-0.2921713591 -0.1381040066 0.6051108837 4281611578
-0.2922288775 -0.1374587417 0.6052300334 4283519575
-0.2927122414 -0.1370125264 0.6062310934 4285757051
-0.2927693427 -0.1363655627 0.6063493490 4287928220
-0.2932524383 -0.1359157711 0.6073498726 4290165182
-0.2937354743 -0.1354637146 0.6083502769 4291744214
-0.2862268090 -0.1923798919 0.5941659808 4292074472
-0.2854702473 -0.1912129670 0.5925954580 4291745507
-0.2851298749 -0.1903273463 0.5918889046 4291679714
-0.2852060497 -0.1897203922 0.5920470357 4291613921
-0.2848649621 -0.1888364702 0.5913389325 4291810787
-0.2849406004 -0.1882294267 0.5914959908 4292271338
-0.2884527445 -0.1572847813 0.5987867117 4292205543
-0.2885173261 -0.1566545516 0.5989207625 4292008164
-0.2885816991 -0.1560239047 0.5990543962 4291481820
-0.2886458337 -0.1553928405 0.5991874933 4290758097
-0.2882870138 -0.1545347571 0.5984426737 4290165960
-0.2883505821 -0.1539037675 0.5985746384 4289179065
-0.2884139121 -0.1532723755 0.5987061262 4288060584
-0.2889000177 -0.1528643668 0.5997151732 4286217352
-0.2885398865 -0.1520083249 0.5989676118 4284572527
-0.2886025310 -0.1513756961 0.5990976095 4283454300
-0.2886649370 -0.1507426351 0.5992271900 4282862163
-0.2887271047 -0.1501091719 0.5993562341 4282335819
-0.2887890339 -0.1494753063 0.5994848013 4282138440
-0.2888507247 -0.1488410234 0.5996128917 4282072393
-0.2889122069 -0.1482063383 0.5997404456 4282072393
-0.2885497212 -0.1473548710 0.5989879966 4281480510
-0.2886106074 -0.1467203200 0.5991144180 4281348924
-0.2886712849 -0.1460853517 0.5992403030 4281348924
-0.2883077264 -0.1452364028 0.5984856486 4281414717
-0.2883678079 -0.1446015835 0.5986104012 4281217595
-0.2884276807 -0.1439663619 0.5987346172 4281875525
-0.2884872854 -0.1433307528 0.5988584161 4282796627
-0.2885466516 -0.1426947415 0.5989816785 4282336076
-0.2890302241 -0.1422672421 0.5999854803 4281546301
-0.2890892029 -0.1416295171 0.6001079082 4281283129
-0.2895725369 -0.1411984414 0.6011112332 4281283129
-0.2896311283 -0.1405589879 0.6012328863 4281809473
-0.2896894813 -0.1399191618 0.6013540030 4281480508
-0.2897475958 -0.1392789483 0.6014745831 4281414715
-0.2898054421 -0.1386383474 0.6015947461 4281546299
-0.2898630798 -0.1379973590 0.6017143130 4280954162
-0.2899204493 -0.1373559833 0.6018334031 4280953648
-0.2899775803 -0.1367142498 0.6019520164 4280427304
-0.2900344431 -0.1360721141 0.6020700932 4280229925
-0.2905164361 -0.1356281936 0.6030706167 4280953648
-0.2909983397 -0.1351820081 0.6040710211 4282730059
-0.2914801836 -0.1347335577 0.6050711870 4284638056
-0.2919619083 -0.1342828572 0.6060712337 4286743432
-0.2920179069 -0.1336350739 0.6061874628 4288914601
-0.2924993932 -0.1331807971 0.6071869731 4291284178
-0.2925549448 -0.1325313300 0.6073022485 4292336866
-0.2876770198 -0.1552291811 0.5985564590 4292205543
-0.2873188555 -0.1543717086 0.5978112221 4291876578
-0.2873822749 -0.1537414193 0.5979431272 4291416027
-0.2874454558 -0.1531107128 0.5980746150 4290955476
-0.2879305780 -0.1527034938 0.5990839601 4290100167
-0.2879933715 -0.1520710289 0.5992146730 4289376444
-0.2876335680 -0.1512161046 0.5984660387 4288389804
-0.2876958251 -0.1505837440 0.5985955596 4286942358
-0.2877578437 -0.1499509811 0.5987246037 4285230970
-0.2878196239 -0.1493178010 0.5988531113 4283783524
-0.2878811657 -0.1486842185 0.5989811420 4282928215
-0.2875196338 -0.1478328258 0.5982289910 4282467664
-0.2875806093 -0.1471993625 0.5983558297 4281875527
-0.2876413763 -0.1465654969 0.5984822512 4281349183
-0.2877018750 -0.1459312290 0.5986081362 4281678146
-0.2873389721 -0.1450829059 0.5978530645 4281546560
-0.2869756520 -0.1442360282 0.5970970988 4281217338
-0.2870352566 -0.1436024457 0.5972211361 4281809475
-0.2870946527 -0.1429684609 0.5973446965 4282993749
-0.2875773013 -0.1425440162 0.5983489752 4282598991
-0.2876363099 -0.1419083029 0.5984717011 4282138440
-0.2876950502 -0.1412722170 0.5985939503 4282138440
-0.2877535522 -0.1406357288 0.5987156630 4282071877
-0.2878118455 -0.1399988532 0.5988369584 4281808705
-0.2878698707 -0.1393615901 0.5989576578 4281611324
-0.2879276574 -0.1387239546 0.5990778804 4281611324
-0.2879852057 -0.1380859315 0.5991976261 4281413945
-0.2876182795 -0.1372450888 0.5984342098 4281084980
-0.2876752615 -0.1366072446 0.5985527635 4281545531
-0.2873076200 -0.1357684731 0.5977877975 4281150773
-0.2877884805 -0.1353304237 0.5987883210 4280821808
-0.2878447175 -0.1346914321 0.5989053845 4280821808
-0.2883253694 -0.1342498064 0.5999053717 4281019441
-0.2888059020 -0.1338059157 0.6009052396 4280822062
-0.2897111773 -0.1335555911 0.6027888060 4280624683
-0.2897667587 -0.1329113394 0.6029044390 4281151027
-0.2902470827 -0.1324606687 0.6039038301 4283389016
-0.2907272875 -0.1320077330 0.6049029827 4285494392
-0.2912074029 -0.1315525472 0.6059019566 4288191905
-0.2912622392 -0.1309039891 0.6060160398 4290363074
-0.2913168371 -0.1302550733 0.6061296463 4291877082
-0.2865406871 -0.1523183584 0.5975730419 4292139750
-0.2870247066 -0.1519105881 0.5985825062 4291284441
-0.2866655588 -0.1510562748 0.5978334546 4290824145
-0.2867276371 -0.1504245996 0.5979629755 4290626766
-0.2867895067 -0.1497925371 0.5980919600 4290100422
-0.2864292860 -0.1489406973 0.5973407030 4289179320
-0.2864905894 -0.1483087391 0.5974685550 4287666081
-0.2865516245 -0.1476763785 0.5975958705 4286284428
-0.2866124511 -0.1470436156 0.5977227092 4284902005
-0.2862508595 -0.1461948156 0.5969685912 4283520352
-0.2863111198 -0.1455621868 0.5970942974 4282599250
-0.2859487832 -0.1447153836 0.5963386297 4282007113
-0.2860084772 -0.1440828890 0.5964631438 4281414976
-0.2864905000 -0.1436618865 0.5974683762 4281283390
-0.2865498066 -0.1430276632 0.5975920558 4281809734
-0.2866088748 -0.1423930526 0.5977152586 4281678148
-0.2866677344 -0.1417580396 0.5978379846 4281809475
-0.2867263258 -0.1411226392 0.5979602337 4281809475
-0.2867846787 -0.1404868513 0.5980819464 4281808705
-0.2864197493 -0.1396444142 0.5973208547 4281742912
-0.2864775360 -0.1390087903 0.5974413753 4281808705
-0.2865350842 -0.1383727789 0.5975613594 4281874498
-0.2865923941 -0.1377363950 0.5976809263 4281743680
-0.2862260640 -0.1368971169 0.5969169140 4281677887
-0.2862828076 -0.1362609118 0.5970352888 4282270024
-0.2859157324 -0.1354236901 0.5962697268 4282138438
-0.2859719098 -0.1347876787 0.5963869095 4282137668
-0.2864516079 -0.1343500316 0.5973872542 4281874496
-0.2869312167 -0.1339101195 0.5983874798 4281545531
-0.2874107361 -0.1334679425 0.5993875265 4281216566
-0.2874661684 -0.1328276098 0.5995031595 4281085234
-0.2879454494 -0.1323818564 0.6005026698 4281282613
-0.2880004942 -0.1317398399 0.6006174684 4281152056
-0.2884795368 -0.1312905252 0.6016164422 4280954677
-0.2889584601 -0.1308389455 0.6026152968 4281086261
-0.2890129387 -0.1301939338 0.6027288437 4282138949
-0.2890671492 -0.1295485497 0.6028419137 4284178532
-0.2891210914 -0.1289028078 0.6029544473 4286612873
-0.2891748250 -0.1282567084 0.6030664444 4289244593
-0.2892282605 -0.1276102364 0.6031779647 4291152590
-0.2858220935 -0.1496338397 0.5974583030 4291679454
-0.2858835459 -0.1490020603 0.5975868106 4291218903
-0.2859447896 -0.1483698636 0.5977147818 4290889938
-0.2860057652 -0.1477372646 0.5978422761 4290429387
-0.2856452465 -0.1468876153 0.5970886350 4289442492
-0.2857056558 -0.1462551504 0.5972149372 4288389804
-0.2849228978 -0.1451927125 0.5955787301 4287073944
-0.2849826813 -0.1445613056 0.5957037210 4285560705
-0.2850422263 -0.1439295113 0.5958281755 4284046696
-0.2855232954 -0.1435092986 0.5968337655 4282401871
-0.2855824828 -0.1428757608 0.5969574451 4281941320
-0.2856414020 -0.1422418505 0.5970805883 4281875527
-0.2857000828 -0.1416075379 0.5972033143 4282007111
-0.2857585251 -0.1409728378 0.5973254442 4281875525
-0.2858167589 -0.1403377503 0.5974471569 4281809475
-0.2854524553 -0.1394959241 0.5966856480 4281743682
-0.2855100930 -0.1388610005 0.5968061686 4281743682
-0.2855675220 -0.1382256895 0.5969261527 4281743682
-0.2852021754 -0.1373864710 0.5961624384 4281743682
-0.2852590084 -0.1367513388 0.5962812901 4281743682
-0.2848929167 -0.1359141767 0.5955160260 4281875266
-0.2849491835 -0.1352792382 0.5956336856 4281941059
-0.2850052416 -0.1346439123 0.5957508087 4282071875
-0.2850610316 -0.1340082288 0.5958674550 4282006082
-0.2855395973 -0.1335700452 0.5968677998 4281874496
-0.2855949998 -0.1329326630 0.5969836116 4281742910
-0.2860733271 -0.1324909031 0.5979834795 4281677117
-0.2861283123 -0.1318518370 0.5980983973 4281479738
-0.2861830294 -0.1312123984 0.5982128382 4281479738
-0.2862375379 -0.1305726022 0.5983267426 4281479738
-0.2867152989 -0.1301246434 0.5993253589 4281413945
-0.2867693603 -0.1294831783 0.5994384289 4281348152
-0.2868232131 -0.1288413405 0.5995509624 4281085234
-0.2868767977 -0.1281991452 0.5996629596 4281085234
-0.2869301438 -0.1275565773 0.5997744799 4281875264
-0.2869832218 -0.1269136667 0.5998854637 4283191124
-0.2870360613 -0.1262703985 0.5999959111 4285625465
-0.2875127196 -0.1258123368 0.6009922624 4288191392
-0.2875651419 -0.1251674145 0.6011018157 4290428609
-0.2876172960 -0.1245221272 0.6012108922 4292139227
-0.2846184373 -0.1473627537 0.5963267088 4292008419
-0.2846789360 -0.1467313766 0.5964535475 4291613661
-0.2847392261 -0.1460996121 0.5965798497 4291284696
-0.2843785882 -0.1452525556 0.5958242416 4290560973
-0.2844383121 -0.1446209252 0.5959493518 4289771457
-0.2844977975 -0.1439888924 0.5960739851 4289310136
-0.2845570445 -0.1433564574 0.5961981416 4287928483
-0.2846160531 -0.1427236348 0.5963217616 4286415244
-0.2846748233 -0.1420904100 0.5964449048 4285165177
-0.2847333848 -0.1414567977 0.5965675712 4283783524
-0.2847916782 -0.1408227980 0.5966897607 4283257180
-0.2844283581 -0.1399810314 0.5959285498 4282665041
-0.2844861150 -0.1393471956 0.5960494876 4282270283
-0.2845436037 -0.1387129724 0.5961700082 4281941318
-0.2846008837 -0.1380783767 0.5962899327 4281809732
-0.2846578956 -0.1374433786 0.5964094400 4281941318
-0.2842928767 -0.1366053373 0.5956446528 4282072904
-0.2843493223 -0.1359705329 0.5957629085 4281941061
-0.2839835882 -0.1351345479 0.5949966311 4282138440
-0.2840394676 -0.1344999224 0.5951137543 4282203461
-0.2840951383 -0.1338649392 0.5952303410 4282203461
-0.2841505408 -0.1332295686 0.5953463912 4282071875
-0.2846280038 -0.1327908635 0.5963467956 4282006082
-0.2846829891 -0.1321538091 0.5964620113 4282269254
-0.2843153179 -0.1313212663 0.5956916213 4282269254
-0.2843697369 -0.1306844205 0.5958057046 4282400842
-0.2844239473 -0.1300472170 0.5959192514 4282137670
-0.2849005759 -0.1296019405 0.5969179273 4281874496
-0.2849543691 -0.1289630681 0.5970305800 4281940289
-0.2845850587 -0.1281334311 0.5962567925 4282137668
-0.2846382558 -0.1274947822 0.5963683128 4282137668
-0.2846912146 -0.1268557757 0.5964792967 4281742910
-0.2843208611 -0.1260288656 0.5957032442 4281413945
-0.2847964168 -0.1255767047 0.5966996551 4280756269
-0.2848486602 -0.1249366328 0.5968090892 4281151027
-0.2849006355 -0.1242962107 0.5969179869 4282072128
-0.2849523425 -0.1236554384 0.5970263481 4284111711
-0.2854273021 -0.1231971011 0.5980215073 4286611845
-0.2859021723 -0.1227365136 0.5990164280 4289177772
-0.2863769531 -0.1222736761 0.6000111699 4291152332
-0.2830533385 -0.1442524195 0.5944308639 4291679454
-0.2831125855 -0.1436220258 0.5945552588 4291547098
-0.2831715941 -0.1429912299 0.5946791768 4291020754
-0.2832303643 -0.1423600465 0.5948026180 4290494410
-0.2832888961 -0.1417284608 0.5949255824 4289704894
-0.2833472192 -0.1410964876 0.5950480103 4288784562
-0.2834052742 -0.1404641271 0.5951699615 4287468702
-0.2834630907 -0.1398313791 0.5952913761 4285955463
-0.2835206985 -0.1391982436 0.5954123735 4284508017
-0.2831573188 -0.1383591294 0.5946491957 4283322973
-0.2832143307 -0.1377261728 0.5947690010 4282533457
-0.2832711339 -0.1370928288 0.5948882699 4282204490
-0.2833276689 -0.1364590973 0.5950070024 4282007111
-0.2833839953 -0.1358249933 0.5951252580 4282467405
-0.2830189168 -0.1349896342 0.5943585634 4282072647
-0.2830746472 -0.1343557090 0.5944756269 4281612096
-0.2831301689 -0.1337214261 0.5945922136 4281677889
-0.2831854224 -0.1330867708 0.5947082639 4281875268
-0.2832404673 -0.1324517280 0.5948238373 4281743682
-0.2832952440 -0.1318163276 0.5949388742 4281677889
-0.2833497822 -0.1311805695 0.5950534344 4281612096
-0.2829823494 -0.1303501576 0.5942817926 4281874498
-0.2830363214 -0.1297146082 0.5943951011 4282137670
-0.2830900550 -0.1290787011 0.5945079327 4282335049
-0.2831435502 -0.1284424216 0.5946202874 4282269256
-0.2831967771 -0.1278057843 0.5947321057 4282137670
-0.2828276455 -0.1269792616 0.5939568877 4282269256
-0.2828803062 -0.1263428628 0.5940675139 4282203461
-0.2825104594 -0.1255184859 0.5932908058 4282006082
-0.2825625539 -0.1248823181 0.5934001803 4281414199
-0.2830368578 -0.1244315282 0.5943962932 4281414199
-0.2830885649 -0.1237937137 0.5945048332 4281611578
-0.2831400037 -0.1231555566 0.5946128368 4281085234
-0.2831912041 -0.1225170419 0.5947203636 4280427304
-0.2836648822 -0.1220600978 0.5957151651 4281019441
-0.2845613062 -0.1217818558 0.5975977182 4282599242
-0.2846120000 -0.1211394519 0.5977041721 4285230962
-0.2846624255 -0.1204967052 0.5978100300 4287599510
-0.2851356566 -0.1200317070 0.5988038778 4289902265
-0.2851856351 -0.1193873212 0.5989088416 4291941848
-0.2823250294 -0.1415764540 0.5942875147 4292073440
-0.2823831737 -0.1409451962 0.5944099426 4291811040
-0.2824411094 -0.1403135359 0.5945318341 4290955731
-0.2824987769 -0.1396814883 0.5946532488 4290297801
-0.2821363807 -0.1388424337 0.5938904285 4289508285
-0.2821935117 -0.1382105649 0.5940106511 4288126632
-0.2818303704 -0.1373735666 0.5932462811 4286679186
-0.2818869352 -0.1367418617 0.5933653116 4285428349
-0.2819432616 -0.1361097842 0.5934838653 4284244075
-0.2819993198 -0.1354773194 0.5936019421 4283388764
-0.2820551693 -0.1348444819 0.5937194824 4282994006
-0.2821107805 -0.1342112720 0.5938365459 4282599248
-0.2821661532 -0.1335776895 0.5939530730 4282533455
-0.2822212577 -0.1329437345 0.5940691233 4282336076
-0.2822761536 -0.1323094070 0.5941846371 4282007111
-0.2823307812 -0.1316747069 0.5942996740 4281941061
-0.2823852003 -0.1310396492 0.5944141746 4282138440
-0.2820184231 -0.1302098632 0.5936421156 4282269256
-0.2820722759 -0.1295750141 0.5937554836 4282203463
-0.2821258605 -0.1289398074 0.5938682556 4282269256
-0.2817580402 -0.1281127334 0.5930940509 4282335049
-0.2818110585 -0.1274777502 0.5932056308 4282335049
-0.2814425230 -0.1266528070 0.5924298763 4282400842
-0.2814949751 -0.1260180622 0.5925403237 4282270024
-0.2811257243 -0.1251952648 0.5917630196 4282138438
-0.2811776102 -0.1245607585 0.5918722749 4281809473
-0.2816509008 -0.1241117045 0.5928685069 4281414715
-0.2817023695 -0.1234755442 0.5929768682 4281283129
-0.2813318372 -0.1226551533 0.5921968818 4281019957
-0.2813827395 -0.1220192611 0.5923040509 4280954162
-0.2814334035 -0.1213830188 0.5924106836 4281217334
-0.2823278606 -0.1211084947 0.5942934752 4280296232
-0.2828002572 -0.1206497326 0.5952878594 4280164646
-0.2828504145 -0.1200096011 0.5953934193 4280230694
-0.2829003036 -0.1193691343 0.5954984426 4281480761
-0.2829499543 -0.1187283248 0.5956029892 4283520344
-0.2834217250 -0.1182634309 0.5965960622 4286152064
-0.2834709585 -0.1176209897 0.5966997147 4288717991
-0.2839424610 -0.1171525568 0.5976921916 4290625988
-0.2839912474 -0.1165084913 0.5977948904 4292270813
-0.2811164558 -0.1393237263 0.5931302309 4292205798
-0.2811736763 -0.1386929303 0.5932509303 4291876833
-0.2812306285 -0.1380617470 0.5933710933 4291153110
-0.2808681726 -0.1372253746 0.5926063061 4290495180
-0.2809245884 -0.1365943849 0.5927253366 4289902273
-0.2809807658 -0.1359630078 0.5928438902 4288915378
-0.2810367048 -0.1353312582 0.5929619074 4286810002
-0.2810924053 -0.1346991211 0.5930794477 4285625728
-0.2811478376 -0.1340666115 0.5931964517 4284310636
-0.2812030613 -0.1334337294 0.5933129787 4283389534
-0.2812580466 -0.1328004748 0.5934289694 4282796627
-0.2813127935 -0.1321668476 0.5935444832 4282401869
-0.2813673019 -0.1315328628 0.5936594605 4282270283
-0.2810015082 -0.1307031363 0.5928876996 4282204490
-0.2810554504 -0.1300693452 0.5930014849 4281940291
-0.2811091542 -0.1294352114 0.5931147933 4281742912
-0.2811626196 -0.1288007051 0.5932275653 4281808705
-0.2807954550 -0.1279742569 0.5924529433 4281940291
-0.2808483541 -0.1273399740 0.5925645232 4281941061
-0.2804804742 -0.1265156716 0.5917883515 4282072647
-0.2801122367 -0.1256929040 0.5910113454 4282204231
-0.2801642120 -0.1250594556 0.5911210775 4282204231
-0.2802159786 -0.1244256571 0.5912302732 4281546301
-0.2802675068 -0.1237915084 0.5913389921 4281743680
-0.2803187668 -0.1231570169 0.5914471745 4281941059
-0.2807907760 -0.1227061450 0.5924430490 4282138438
-0.2799995244 -0.1217039749 0.5907735825 4281809473
-0.2808922231 -0.1214335114 0.5926570892 4281546301
-0.2809425890 -0.1207966805 0.5927633643 4281348920
-0.2809927166 -0.1201595142 0.5928691030 4281612092
-0.2810425758 -0.1195219979 0.5929743052 4280888369
-0.2810921967 -0.1188841462 0.5930790305 4280164646
-0.2811415792 -0.1182459593 0.5931832194 4279704095
-0.2811906934 -0.1176074371 0.5932868719 4280164646
-0.2816612124 -0.1171439439 0.5942795873 4281085748
-0.2817099094 -0.1165037975 0.5943823457 4282467401
-0.2821801603 -0.1160367653 0.5953745246 4285164914
-0.2822284400 -0.1153950021 0.5954763889 4288257185
-0.2826983929 -0.1149244308 0.5964679122 4290560195
-0.2831682265 -0.1144516170 0.5974592566 4291876055
-0.2795447111 -0.1362427175 0.5911993384 4291942626
-0.2796006501 -0.1356129795 0.5913176537 4291153110
-0.2800750136 -0.1351849437 0.5923208594 4291218133
-0.2801305652 -0.1345535219 0.5924383998 4290297031
-0.2797670662 -0.1337215453 0.5916696191 4289245113
-0.2798220515 -0.1330903023 0.5917859077 4287995046
-0.2798767984 -0.1324587017 0.5919017196 4286350219
-0.2799313366 -0.1318267286 0.5920170546 4285034359
-0.2799856067 -0.1311943978 0.5921317935 4283915108
-0.2800396383 -0.1305616945 0.5922461152 4282994006
-0.2800934315 -0.1299286187 0.5923599005 4282400842
-0.2797276080 -0.1291016191 0.5915861726 4282335049
-0.2797808349 -0.1284687668 0.5916987658 4282072647
-0.2798338532 -0.1278355569 0.5918108821 4282006854
-0.2794669569 -0.1270112842 0.5910350084 4282072647
-0.2795194089 -0.1263782978 0.5911458731 4282138440
-0.2791517973 -0.1255561709 0.5903684497 4282006852
-0.2792036831 -0.1249234304 0.5904781222 4281743680
-0.2792553008 -0.1242903471 0.5905873179 4281414715
-0.2793066800 -0.1236569062 0.5906959772 4281677887
-0.2793578207 -0.1230231225 0.5908041596 4281283131
-0.2798288763 -0.1225730330 0.5918003321 4281677889
-0.2798795998 -0.1219375953 0.5919076204 4282006852
-0.2799300849 -0.1213018149 0.5920143723 4282204231
-0.2799803019 -0.1206656992 0.5921205878 4282335817
-0.2800302804 -0.1200292334 0.5922263265 4282204231
-0.2800800204 -0.1193924323 0.5923315287 4281875264
-0.2797088921 -0.1185769811 0.5915466547 4281677885
-0.2793373764 -0.1177631021 0.5907609463 4281217334
-0.2793862224 -0.1171272025 0.5908642411 4280625197
-0.2794348300 -0.1164909750 0.5909669995 4280493611
-0.2799040973 -0.1160288900 0.5919594765 4280164646
-0.2803732455 -0.1155645549 0.5929516554 4280230439
-0.2804212570 -0.1149254218 0.5930531621 4281151541
-0.2808901370 -0.1144575551 0.5940448046 4282006850
-0.2813588977 -0.1139874384 0.5950361490 4284309605
-0.2818275690 -0.1135150790 0.5960273147 4287072911
-0.2822961211 -0.1130404696 0.5970182419 4289375666
-0.2827645540 -0.1125636175 0.5980089307 4291283918
-0.2786964178 -0.1348362565 0.5907930732 4291942626
-0.2787517607 -0.1342064887 0.5909103751 4291613661
-0.2788068354 -0.1335763335 0.5910271406 4291416282
-0.2788617015 -0.1329458207 0.5911434293 4291021524
-0.2789162993 -0.1323149204 0.5912592411 4290429387
-0.2789706886 -0.1316836625 0.5913744569 4289771457
-0.2790248096 -0.1310520172 0.5914892554 4288587183
-0.2790787220 -0.1304200292 0.5916035175 4286942358
-0.2787138820 -0.1295930743 0.5908300877 4285362554
-0.2787672281 -0.1289612949 0.5909431577 4283783522
-0.2788203061 -0.1283291429 0.5910556912 4282927954
-0.2788731754 -0.1276966482 0.5911677480 4282730575
-0.2785069644 -0.1268730015 0.5903915167 4282533196
-0.2785592675 -0.1262407303 0.5905023217 4282335817
-0.2781923413 -0.1254192144 0.5897245407 4282138951
-0.2782440782 -0.1247871965 0.5898342133 4281809986
-0.2787146866 -0.1243418008 0.5908318162 4281743680
-0.2787660062 -0.1237081140 0.5909405947 4281809473
-0.2788170874 -0.1230740845 0.5910488963 4281677887
-0.2788679302 -0.1224397123 0.5911566615 4281612094
-0.2789185047 -0.1218049824 0.5912638903 4282006852
-0.2789688706 -0.1211699173 0.5913706422 4282533196
-0.2785993814 -0.1203532517 0.5905873775 4282467403
-0.2786491811 -0.1197184548 0.5906929374 4282006852
-0.2786987126 -0.1190833151 0.5907979608 4282664782
-0.2787480056 -0.1184478402 0.5909023881 4282467403
-0.2783771455 -0.1176346019 0.5901163220 4282335047
-0.2784258723 -0.1169994175 0.5902196169 4281940289
-0.2780543268 -0.1161883846 0.5894319415 4281611324
-0.2785225809 -0.1157280430 0.5904245973 4281282359
-0.2785705626 -0.1150918603 0.5905262828 4281019441
-0.2790385187 -0.1146279871 0.5915183425 4281085234
-0.2790860832 -0.1139901876 0.5916191339 4281085234
-0.2799741626 -0.1136934906 0.5935016870 4280756269
-0.2804418206 -0.1132228747 0.5944930315 4280821549
-0.2804888189 -0.1125812158 0.5945926905 4281676858
-0.2809561789 -0.1121070683 0.5955834389 4283584854
-0.2814234197 -0.1116306707 0.5965739489 4286084988
-0.2814698219 -0.1109861359 0.5966722965 4288650915
-0.2819367647 -0.1105062068 0.5976621509 4290953670
-0.2824036181 -0.1100240424 0.5986517668 4292534243
-0.2774850130 -0.1326016933 0.5896133184 4292271591
-0.2775394022 -0.1319724470 0.5897288918 4291811040
-0.2775935531 -0.1313428432 0.5898439288 4291745247
-0.2776474655 -0.1307128668 0.5899584889 4291350489
-0.2777011395 -0.1300825179 0.5900725722 4290626766
-0.2777545750 -0.1294518113 0.5901861191 4289902525
-0.2773900032 -0.1286270320 0.5894114375 4288849837
-0.2774429023 -0.1279965490 0.5895237923 4287665050
-0.2774955332 -0.1273656934 0.5896356702 4286414983
-0.2775479257 -0.1267344952 0.5897470117 4284901744
-0.2771820128 -0.1259130239 0.5889694691 4283717470
-0.2772338390 -0.1252820641 0.5890796185 4282862161
-0.2772854567 -0.1246507466 0.5891892314 4282204231
-0.2777551115 -0.1242061406 0.5901871920 4282270026
-0.2778062820 -0.1235731691 0.5902959704 4282006854
-0.2778572440 -0.1229398474 0.5904042125 4281874498
-0.2779079378 -0.1223061830 0.5905119777 4281808705
-0.2775397897 -0.1214889288 0.5897296667 4281940291
-0.2775899172 -0.1208555251 0.5898362398 4282269256
-0.2776398063 -0.1202217788 0.5899422765 4282204233
-0.2776894569 -0.1195876896 0.5900477171 4281941061
-0.2773199677 -0.1187738478 0.5892626047 4282467405
-0.2773690522 -0.1181400418 0.5893669128 4282335819
-0.2774178982 -0.1175059006 0.5894706845 4282467403
-0.2770473361 -0.1166948825 0.5886833668 4282598989
-0.2770956159 -0.1160610318 0.5887858868 4282467403
-0.2771436572 -0.1154268533 0.5888879895 4282072645
-0.2771914303 -0.1147923470 0.5889894962 4281808703
-0.2776584029 -0.1143302098 0.5899817348 4281874496
-0.2777057588 -0.1136940867 0.5900823474 4281940289
-0.2781724334 -0.1132284254 0.5910739303 4281611324
-0.2786389887 -0.1127605140 0.5920653343 4281348406
-0.2791054547 -0.1122903526 0.5930565000 4281085234
-0.2791520357 -0.1116500497 0.5931554437 4280624683
-0.2796182036 -0.1111763641 0.5941460133 4280427304
-0.2800842524 -0.1107004285 0.5951362848 4281151027
-0.2801302075 -0.1100572422 0.5952339768 4282335301
-0.2801759243 -0.1094137430 0.5953310728 4284835949
-0.2802213728 -0.1087699309 0.5954276323 4287533462
-0.2798463702 -0.1079636961 0.5946308374 4290165182
-0.2798912525 -0.1073202267 0.5947262049 4291875800
-0.2767429352 -0.1299403310 0.5894275904 4292074723
-0.2763793766 -0.1291155964 0.5886532068 4291810522
-0.2764323354 -0.1284861863 0.5887660384 4291349971
-0.2764850855 -0.1278564036 0.5888783932 4290823627
-0.2765375972 -0.1272262782 0.5889902115 4290231490
-0.2765898407 -0.1265957803 0.5891014934 4289507254
-0.2762246132 -0.1257749349 0.5883235931 4288388773
-0.2766936421 -0.1253337264 0.5893225670 4286612362
-0.2767451704 -0.1247021779 0.5894323587 4284967537
-0.2763789892 -0.1238831282 0.5886523724 4283914851
-0.2764299512 -0.1232518256 0.5887609720 4283125335
-0.2768983245 -0.1228054017 0.5897585750 4282664014
-0.2769488990 -0.1221724451 0.5898662806 4282400842
-0.2769992352 -0.1215391383 0.5899734497 4282203463
-0.2766314447 -0.1207231358 0.5891901255 4282137670
-0.2766812146 -0.1200900972 0.5892961025 4282137670
-0.2767307162 -0.1194567233 0.5894015431 4282006084
-0.2767800093 -0.1188230142 0.5895065069 4282598991
-0.2764108777 -0.1180104315 0.5887202621 4282533198
-0.2764595747 -0.1173769981 0.5888240337 4282598991
-0.2765080333 -0.1167432368 0.5889272690 4282598991
-0.2761378586 -0.1159334853 0.5881388187 4282598991
-0.2761857808 -0.1153000146 0.5882408619 4282467405
-0.2762334347 -0.1146662235 0.5883423686 4282335817
-0.2766994536 -0.1142048761 0.5893349051 4282533196
-0.2767466903 -0.1135694683 0.5894355178 4282401610
-0.2767936587 -0.1129337326 0.5895355940 4282270024
-0.2772592306 -0.1124675646 0.5905271769 4282138438
-0.2773057818 -0.1118302271 0.5906263590 4282006852
-0.2773520947 -0.1111925617 0.5907250047 4281743680
-0.2778171897 -0.1107215807 0.5917155743 4281612094
-0.2782821655 -0.1102483571 0.5927059650 4281283129
-0.2783278823 -0.1096078157 0.5928032994 4280756785
-0.2783733308 -0.1089669615 0.5929000974 4280427820
-0.2784185112 -0.1083257943 0.5929963589 4280888371
-0.2780440748 -0.1075221375 0.5921988487 4282072643
-0.2780887187 -0.1068813130 0.5922939181 4283980640
-0.2781330943 -0.1062401757 0.5923883915 4286612360
-0.2781772017 -0.1055987403 0.5924823880 4289046701
-0.2782210708 -0.1049569994 0.5925757885 4291086284
-0.2759968936 -0.1272786111 0.5892324448 4292008415
-0.2756327093 -0.1264568567 0.5884549618 4291481557
-0.2756845951 -0.1258267164 0.5885657668 4291086799
-0.2757362425 -0.1251962185 0.5886759758 4290625994
-0.2757876515 -0.1245653778 0.5887857080 4289968064
-0.2754221261 -0.1237469688 0.5880053639 4288783790
-0.2754729688 -0.1231163740 0.5881139040 4287533723
-0.2755235732 -0.1224854365 0.5882219672 4286020227
-0.2759908438 -0.1220384911 0.5892195106 4284770160
-0.2760410309 -0.1214059070 0.5893266797 4283717472
-0.2760909796 -0.1207729727 0.5894333124 4282993749
-0.2757235467 -0.1199582145 0.5886489153 4282533198
-0.2757729590 -0.1193255559 0.5887543559 4282006854
-0.2758221030 -0.1186925545 0.5888592601 4282204233
-0.2754536271 -0.1178806126 0.5880726576 4282204233
-0.2755022347 -0.1172478944 0.5881763697 4282270026
-0.2755505741 -0.1166148484 0.5882796049 4282138440
-0.2755986452 -0.1159814671 0.5883822441 4282204233
-0.2752288580 -0.1151729822 0.5875927806 4282467405
-0.2752763927 -0.1145399064 0.5876942277 4282533196
-0.2753236890 -0.1139064953 0.5877951980 4282664782
-0.2757885754 -0.1134446487 0.5887877345 4282533196
-0.2758354247 -0.1128096282 0.5888877511 4282664782
-0.2758820653 -0.1121742874 0.5889872909 4282664782
-0.2759284079 -0.1115386188 0.5890862942 4282664782
-0.2763926983 -0.1110706702 0.5900774598 4282335817
-0.2764386237 -0.1104334071 0.5901755095 4282006852
-0.2769025862 -0.1099619344 0.5911660790 4282072645
-0.2765297592 -0.1091579273 0.5903700590 4281941059
-0.2765749395 -0.1085197181 0.5904665589 4282071875
-0.2766198814 -0.1078811958 0.5905625224 4281611324
-0.2762460411 -0.1070801169 0.5897643566 4281479738
-0.2762903869 -0.1064419374 0.5898590684 4281545531
-0.2763345242 -0.1058034599 0.5899532437 4281545785
-0.2763783932 -0.1051646695 0.5900469422 4281808957
-0.2764219940 -0.1045255810 0.5901400447 4283191124
-0.2764653862 -0.1038861871 0.5902326107 4285493879
-0.2765084803 -0.1032464951 0.5903246999 4287862427
-0.2769703567 -0.1027619690 0.5913107395 4289704631
-0.2774321139 -0.1022752002 0.5922965407 4291875800
-0.2743641138 -0.1248693019 0.5871388316 4292140003
-0.2744153142 -0.1242401227 0.5872483850 4291482073
-0.2744662464 -0.1236105934 0.5873574018 4291744475
-0.2745169699 -0.1229807138 0.5874658823 4291218131
-0.2745674253 -0.1223504916 0.5875738859 4290625994
-0.2750337422 -0.1219043359 0.5885717869 4289770685
-0.2750838101 -0.1212724596 0.5886789560 4288520620
-0.2751336098 -0.1206402406 0.5887855291 4287073174
-0.2747668922 -0.1198261231 0.5880007148 4285427836
-0.2748161256 -0.1191941798 0.5881061554 4283980390
-0.2748651505 -0.1185618937 0.5882110596 4283783265
-0.2749139369 -0.1179292724 0.5883154273 4283191128
-0.2745458484 -0.1171185896 0.5875276923 4282730577
-0.2745940387 -0.1164862588 0.5876308680 4282467405
-0.2746420205 -0.1158535928 0.5877335072 4282335819
-0.2746897340 -0.1152205914 0.5878356695 4282335819
-0.2747372091 -0.1145872697 0.5879372358 4282204233
-0.2747844458 -0.1139536127 0.5880383253 4282270026
-0.2748314440 -0.1133196354 0.5881388783 4282862163
-0.2748781741 -0.1126853302 0.5882388949 4282862163
-0.2749246657 -0.1120507047 0.5883383751 4282664782
-0.2749709189 -0.1114157587 0.5884373784 4282664782
-0.2754342258 -0.1109485924 0.5894288421 4282796368
-0.2754800618 -0.1103120446 0.5895269513 4282730575
-0.2755256295 -0.1096751764 0.5896244645 4282796368
-0.2751533985 -0.1088727862 0.5888279080 4282664782
-0.2751984298 -0.1082362533 0.5889242291 4282532426
-0.2752431631 -0.1075994149 0.5890200138 4282400840
-0.2752876878 -0.1069622636 0.5891152620 4282335047
-0.2749141157 -0.1061634570 0.5883158445 4282137668
-0.2749580741 -0.1055266634 0.5884099007 4282006082
-0.2745838165 -0.1047301516 0.5876089931 4281677117
-0.2746271789 -0.1040937155 0.5877017975 4281414199
-0.2746703029 -0.1034569815 0.5877940655 4281611578
-0.2747131884 -0.1028199419 0.5878857970 4281217334
-0.2751739919 -0.1023381352 0.5888719559 4282335815
