VERSION 0.7
FIELDS x y z rgba
SIZE 4 4 4 4
TYPE F F F U
COUNT 1 1 1 1
WIDTH 920
HEIGHT 1
VIEWPOINT 0.0 0.0 0.0 1.0 0.0 0.0 0.0
POINTS 920
DATA ascii
-0.2821125984 -0.1113973111 0.5407431126 4292072160
-0.2821615934 -0.1108157486 0.5408370495 4292072160
-0.2826655209 -0.1104116812 0.5418029428 4292137953
-0.2827141285 -0.1098285764 0.5418961048 4292203746
-0.2827624977 -0.1092451736 0.5419887900 4292008417
-0.2828105986 -0.1086614728 0.5420810580 4292337382
-0.2828584611 -0.1080774739 0.5421727896 4292863724
-0.2833616734 -0.1076662764 0.5431373119 4293258482
-0.2834091485 -0.1070807502 0.5432282686 4293521654
-0.2834563553 -0.1064949259 0.5433188081 4293587447
-0.2839591205 -0.1060790792 0.5442824960 4293653240
-0.2840059400 -0.1054917350 0.5443722010 4293719033
-0.2845084369 -0.1050724760 0.5453354120 4293653240
-0.2854668796 -0.1048184931 0.5471724868 4293850619
-0.2864253521 -0.1045604348 0.5490096807 4293917179
-0.2869277298 -0.1041327715 0.5499725938 4293851386
-0.2883424461 -0.1040321365 0.5526843071 4293851386
-0.2893010676 -0.1037618890 0.5545217395 4293982972
-0.3442653418 -0.1714966446 0.6612830758 4290823376
-0.3443393409 -0.1707986146 0.6614251733 4290428618
-0.3439628482 -0.1698777825 0.6607019901 4290757583
-0.3431355655 -0.1687368900 0.6591129303 4290954962
-0.3409564495 -0.1669376194 0.6549271345 4290494662
-0.3378750682 -0.1647078544 0.6490082741 4288520872
-0.3280332088 -0.1592100263 0.6301034689 4288191653
-0.3069196343 -0.1483075917 0.5895474553 4289375927
-0.3011236191 -0.1448642164 0.5784141421 4290757323
-0.2980301678 -0.1427399665 0.5724720955 4290888909
-0.2958371341 -0.1410582513 0.5682595968 4290691528
-0.2936429083 -0.1393853277 0.5640448332 4290494149
-0.2923498452 -0.1381476074 0.5615610480 4290559940
-0.2910560071 -0.1369150281 0.5590757132 4290559940
-0.2897613645 -0.1356876045 0.5565889478 4290494147
-0.2893688083 -0.1348862201 0.5558348894 4290559940
-0.2885242999 -0.1338767856 0.5542126894 4290691012
-0.2876791954 -0.1328706890 0.5525894165 4290691012
-0.2872852087 -0.1320755929 0.5518326163 4290691012
-0.2868908346 -0.1312819868 0.5510750413 4290625219
-0.2864960134 -0.1304898858 0.5503166318 4290691012
-0.2861007750 -0.1296992749 0.5495575070 4290625219
-0.2857051492 -0.1289101690 0.5487975478 4290625219
-0.2848569453 -0.1279195100 0.5471682549 4290625219
-0.2844603956 -0.1271343529 0.5464065671 4290624965
-0.2845157981 -0.1265518814 0.5465129614 4290756551
-0.2841185033 -0.1257688105 0.5457498431 4290888137
-0.2837208211 -0.1249872521 0.5449859500 4290888137
-0.2833227515 -0.1242072135 0.5442212820 4291019725
-0.2829242349 -0.1234286949 0.5434558392 4291085518
-0.2825253308 -0.1226517037 0.5426895618 4291217106
-0.2821260393 -0.1218762398 0.5419225693 4291282899
-0.2821792662 -0.1212970018 0.5420247912 4291282899
-0.2813262045 -0.1203299016 0.5403862596 4291282899
-0.2813788056 -0.1197518781 0.5404872298 4291348692
-0.2814311385 -0.1191735268 0.5405877829 4291414485
-0.2810299993 -0.1184038818 0.5398172736 4291414485
-0.2810817957 -0.1178258210 0.5399167538 4291414485
-0.2811333537 -0.1172474399 0.5400158167 4291480278
-0.2811847031 -0.1166687384 0.5401144028 4291546071
-0.2807821929 -0.1159024835 0.5393412709 4291611864
-0.2808329761 -0.1153240874 0.5394387841 4291677657
-0.2808835208 -0.1147453859 0.5395358801 4291743195
-0.2809338272 -0.1141663641 0.5396324992 4291808988
-0.2814378142 -0.1137705371 0.5406005979 4291874781
-0.2814877331 -0.1131899580 0.5406965017 4291874781
-0.2815374136 -0.1126090735 0.5407919288 4291874781
-0.2815868556 -0.1120278835 0.5408868790 4291940574
-0.2820902765 -0.1116261408 0.5418539047 4292072160
-0.2821393311 -0.1110434011 0.5419481397 4292137953
-0.2821881175 -0.1104603633 0.5420418382 4292203746
-0.2822366953 -0.1098770201 0.5421351194 4292203746
-0.2827395797 -0.1094693691 0.5431010723 4292205026
-0.2827877104 -0.1088844910 0.5431935787 4292533991
-0.2828356326 -0.1082993075 0.5432856083 4292863726
-0.2828833163 -0.1077138335 0.5433771610 4293258484
-0.2829307318 -0.1071280539 0.5434682965 4293521656
-0.2834328711 -0.1067132801 0.5444328189 4293587449
-0.2834798694 -0.1061259806 0.5445231199 4293719033
-0.2839817703 -0.1057077870 0.5454871655 4293719033
-0.2844835222 -0.1052874178 0.5464509726 4293719033
-0.2849852145 -0.1048648730 0.5474146605 4293784826
-0.2859421074 -0.1046067253 0.5492526889 4293916925
-0.2868990600 -0.1043445095 0.5510908961 4293916925
-0.2878560722 -0.1040782183 0.5529291034 4293916925
-0.2892686427 -0.1039716005 0.5556424856 4293982718
-0.3427807391 -0.1711221635 0.6598390341 4290559950
-0.3424051106 -0.1702023298 0.6591160297 4289836227
-0.3420290351 -0.1692838669 0.6583920717 4290165192
-0.3412029445 -0.1681452543 0.6568018794 4290757329
-0.3390273154 -0.1663479805 0.6526138186 4290362824
-0.3247076273 -0.1586273760 0.6250490546 4288849585
-0.3049836755 -0.1483394653 0.5870812535 4288125862
-0.3005485237 -0.1455394775 0.5785437226 4289112757
-0.3060116172 -0.1475304663 0.5890599489 4290625996
-0.2975232899 -0.1428018510 0.5727202892 4290625996
-0.2953340113 -0.1411194205 0.5685060620 4290625737
-0.2935938835 -0.1396600008 0.5651563406 4290559944
-0.2923031747 -0.1384208500 0.5626717806 4290559942
-0.2910116613 -0.1371868551 0.5601856709 4290559942
-0.2897193730 -0.1359580010 0.5576980710 4290559942
-0.2884262800 -0.1347343177 0.5552089214 4290559942
-0.2880339324 -0.1339349896 0.5544536710 4290559942
-0.2871903181 -0.1329284906 0.5528297424 4290559942
-0.2867970467 -0.1321330667 0.5520727038 4290690758
-0.2864033878 -0.1313391477 0.5513148904 4290624965
-0.2860092819 -0.1305467039 0.5505563021 4290691012
-0.2856147885 -0.1297557801 0.5497968793 4290625219
-0.2852198780 -0.1289663464 0.5490366817 4290625219
-0.2843731642 -0.1279752851 0.5474068522 4290625219
-0.2839773297 -0.1271898001 0.5466448665 4290624965
-0.2840326726 -0.1266071051 0.5467513800 4290756551
-0.2836361229 -0.1258237064 0.5459880233 4290888137
-0.2832391560 -0.1250418276 0.5452238917 4290888137
-0.2828418016 -0.1242614686 0.5444589853 4291019725
-0.2824440300 -0.1234826297 0.5436933041 4291151311
-0.2820458412 -0.1227053180 0.5429268479 4291282899
-0.2816472650 -0.1219295412 0.5421595573 4291282899
-0.2817004323 -0.1213500723 0.5422619581 4291282899
-0.2813011408 -0.1205764189 0.5414932966 4291282899
-0.2809014320 -0.1198043078 0.5407238603 4291348692
-0.2809537351 -0.1192257255 0.5408245921 4291414485
-0.2805533111 -0.1184557602 0.5400537848 4291348692
-0.2806050777 -0.1178774610 0.5401533842 4291414485
-0.2806566060 -0.1172988489 0.5402525663 4291480278
-0.2807078958 -0.1167199165 0.5403513312 4291546071
-0.2807589471 -0.1161406636 0.5404496193 4291677402
-0.2803568244 -0.1153747141 0.5396755934 4291743195
-0.2804073393 -0.1147957668 0.5397728086 4291743195
-0.2809106708 -0.1144010276 0.5407416821 4291808988
-0.2809607983 -0.1138205305 0.5408381820 4291874781
-0.2810106575 -0.1132397130 0.5409341455 4291874781
-0.2810603082 -0.1126585975 0.5410296917 4291874781
-0.2811096907 -0.1120771691 0.5411248207 4291940574
-0.2816123366 -0.1116752625 0.5420923829 4292072160
-0.2816613317 -0.1110922843 0.5421866775 4292137953
-0.2817100883 -0.1105090007 0.5422805548 4292137953
-0.2817586064 -0.1099254191 0.5423739552 4292203746
-0.2822606862 -0.1095176116 0.5433403850 4292205026
-0.2823088169 -0.1089324877 0.5434330106 4292533991
-0.2823566794 -0.1083470657 0.5435251594 4293060335
-0.2824043036 -0.1077613458 0.5436168909 4293455093
-0.2829057872 -0.1073476374 0.5445822477 4293455863
-0.2829530239 -0.1067603827 0.5446731448 4293587449
-0.2834542394 -0.1063432619 0.5456379652 4293719033
-0.2835010588 -0.1057544798 0.5457280874 4293850619
-0.2844564319 -0.1055024713 0.5475671291 4293850619
-0.2849573791 -0.1050788164 0.5485314131 4293784826
-0.2854582369 -0.1046529710 0.5494955182 4293982205
-0.2864136100 -0.1043906510 0.5513346195 4293982205
-0.2873690128 -0.1041242629 0.5531737208 4293982718
-0.2887792587 -0.1040176079 0.5558883548 4294114303
-0.3408499360 -0.1705228537 0.6575281620 4290296780
-0.3404747546 -0.1696053892 0.6568043828 4289309885
-0.3400990963 -0.1686893106 0.6560796499 4289244608
-0.3397229612 -0.1677746028 0.6553540826 4290099917
-0.3375509083 -0.1659784317 0.6511639953 4289967556
-0.3322348595 -0.1626523584 0.6409088969 4289178040
-0.3210784793 -0.1565023363 0.6193873286 4288323242
-0.2995865345 -0.1453844756 0.5779275894 4289178551
-0.2969537675 -0.1434703618 0.5728487372 4290691790
-0.2974650562 -0.1430798173 0.5738350749 4290691790
-0.2952796817 -0.1413957626 0.5696192980 4290757069
-0.2926436067 -0.1395062357 0.5645340681 4290625483
-0.2918046713 -0.1384808570 0.5629156828 4290625483
-0.2905154228 -0.1372463405 0.5604286194 4290625483
-0.2892253697 -0.1360169947 0.5579400063 4290625737
-0.2883844376 -0.1350034028 0.5563178062 4290559944
-0.2875429094 -0.1339931488 0.5546944141 4290559944
-0.2871508896 -0.1331949979 0.5539381504 4290559944
-0.2863082588 -0.1321904808 0.5523126721 4290690758
-0.2859152853 -0.1313962340 0.5515546203 4290624965
-0.2855219245 -0.1306034923 0.5507957339 4290690758
-0.2851281464 -0.1298122406 0.5500361323 4290624965
-0.2847339511 -0.1290224791 0.5492756963 4290690758
-0.2838887274 -0.1280310154 0.5476452112 4290690758
-0.2834936380 -0.1272452027 0.5468829870 4290690760
-0.2835489213 -0.1266622692 0.5469896793 4290822346
-0.2831530869 -0.1258785576 0.5462260842 4290953932
-0.2827568650 -0.1250963658 0.5454617143 4290953932
-0.2823602259 -0.1243156791 0.5446965694 4291019725
-0.2819631696 -0.1235365272 0.5439305902 4291151311
-0.2815656960 -0.1227588952 0.5431638956 4291282899
-0.2811678648 -0.1219827980 0.5423963666 4291282899
-0.2812210023 -0.1214030907 0.5424988866 4291282899
-0.2808223963 -0.1206291243 0.5417299867 4291282899
-0.2804234326 -0.1198566929 0.5409603119 4291348692
-0.2804757059 -0.1192778796 0.5410611629 4291414485
-0.2800759971 -0.1185075939 0.5402901173 4291414485
-0.2801277041 -0.1179290637 0.5403898358 4291480278
-0.2801792026 -0.1173502132 0.5404891968 4291480023
-0.2802304327 -0.1167710498 0.5405880213 4291545816
-0.2802814543 -0.1161915660 0.5406864285 4291743195
-0.2803322375 -0.1156117618 0.5407844186 4291743195
-0.2803827822 -0.1150316447 0.5408818722 4291808988
-0.2808853984 -0.1146358177 0.5418514609 4291874781
-0.2809355259 -0.1140541434 0.5419481993 4291940574
-0.2809854448 -0.1134721562 0.5420445204 4291940574
-0.2810351253 -0.1128898561 0.5421403050 4291940574
-0.2810845673 -0.1123072580 0.5422356725 4292006367
-0.2811337411 -0.1117243394 0.5423306227 4292137953
-0.2811827064 -0.1111411229 0.5424250364 4292137953
-0.2816843092 -0.1107356399 0.5433926582 4292203746
-0.2817328572 -0.1101508737 0.5434862971 4292269539
-0.2817811668 -0.1095658094 0.5435795188 4292205026
-0.2818292379 -0.1089804396 0.5436722636 4292533991
-0.2823302746 -0.1085690483 0.5446387529 4293060589
-0.2823779285 -0.1079821438 0.5447307229 4293455347
-0.2824253440 -0.1073949412 0.5448222160 4293455861
-0.2829259336 -0.1069788858 0.5457878709 4293587447
-0.2829729617 -0.1063901559 0.5458785892 4293784826
-0.2834732831 -0.1059706807 0.5468437672 4293916412
-0.2839735150 -0.1055490300 0.5478087664 4293916412
-0.2844736576 -0.1051251963 0.5487735868 4293850619
-0.2854274809 -0.1048659012 0.5506135821 4294048252
-0.2859275043 -0.1044367626 0.5515781045 4294048252
-0.2873352468 -0.1043350995 0.5542938113 4294048252
-0.2887431979 -0.1042274609 0.5570098758 4294179838
-0.3393707275 -0.1701473743 0.6560803056 4289902538
-0.3389960527 -0.1692313701 0.6553559303 4288652471
-0.3381729722 -0.1680941135 0.6537647843 4288257714
-0.3377972841 -0.1671817899 0.6530385017 4289178816
-0.3356287181 -0.1653876156 0.6488461494 4290625232
-0.3298733234 -0.1618429869 0.6377196908 4289967302
-0.3169425726 -0.1548181027 0.6127216220 4288783539
-0.3040060699 -0.1478459686 0.5877124071 4289309883
-0.2991364896 -0.1448352337 0.5782984495 4290625997
-0.2965075076 -0.1429254562 0.5732160211 4290625997
-0.2947745025 -0.1414569318 0.5698657036 4290757070
-0.2925917506 -0.1397809982 0.5656459332 4290559691
-0.2913055420 -0.1385408193 0.5631594062 4290822093
-0.2900185287 -0.1373057961 0.5606713295 4290822093
-0.2887307405 -0.1360759288 0.5581817627 4290691277
-0.2878912985 -0.1350619346 0.5565589666 4290625484
-0.2870512605 -0.1340512633 0.5549349785 4290625483
-0.2866599560 -0.1332527846 0.5541784763 4290559690
-0.2858188152 -0.1322478652 0.5525523424 4290690760
-0.2854265869 -0.1314532906 0.5517940521 4290690760
-0.2850339413 -0.1306602210 0.5510349870 4290690758
-0.2846408784 -0.1298686415 0.5502751470 4290624965
-0.2837976515 -0.1288743317 0.5486449599 4290624967
-0.2834036648 -0.1280866861 0.5478833318 4290624967
-0.2830092907 -0.1273005605 0.5471209288 4290690760
-0.2830645442 -0.1267174035 0.5472277403 4290888139
-0.2826694250 -0.1259333640 0.5464639068 4291019725
-0.2818237245 -0.1249512434 0.5448289514 4291019725
-0.2818779945 -0.1243698522 0.5449338555 4291085518
-0.2814816833 -0.1235903725 0.5441676974 4291151311
-0.2810849547 -0.1228124276 0.5434007049 4291282899
-0.2806878090 -0.1220360026 0.5426329970 4291282899
-0.2802902758 -0.1212611198 0.5418644547 4291282644
-0.2803430557 -0.1206817850 0.5419664979 4291348437
-0.2799448073 -0.1199090406 0.5411965847 4291348692
-0.2799970210 -0.1193299890 0.5412975550 4291348692
-0.2795980573 -0.1185593903 0.5405262113 4291414230
-0.2796497345 -0.1179806218 0.5406261086 4291480023
-0.2797011733 -0.1174015403 0.5407255888 4291480023
-0.2797523737 -0.1168221384 0.5408245325 4291611609
-0.2798033357 -0.1162424162 0.5409231186 4291743195
-0.2803054452 -0.1158489361 0.5418937802 4291743195
-0.2803560197 -0.1152676493 0.5419915915 4291808988
-0.2804063857 -0.1146860495 0.5420889258 4291940574
-0.2804564834 -0.1141041368 0.5421857834 4291874781
-0.2805063426 -0.1135219112 0.5422821641 4292006367
-0.2805559933 -0.1129393727 0.5423781276 4292006367
-0.2806053758 -0.1123565361 0.5424736142 4292072160
-0.2806545496 -0.1117733791 0.5425686240 4292203746
-0.2811554670 -0.1113689765 0.5435370803 4292203746
-0.2812042236 -0.1107842773 0.5436313152 4292203746
-0.2812527418 -0.1101992726 0.5437251329 4292269539
-0.2813010216 -0.1096139699 0.5438184738 4292205280
-0.2818014026 -0.1092036441 0.5447857976 4292534245
-0.2818492651 -0.1086167991 0.5448783040 4293060589
-0.2818968892 -0.1080296561 0.5449703932 4293455347
-0.2819442749 -0.1074422076 0.5450620055 4293586933
-0.2824440598 -0.1070259884 0.5460281968 4293718519
-0.2829437554 -0.1066075861 0.5469942093 4293850619
-0.2829905450 -0.1060173735 0.5470846891 4293982205
-0.2834899724 -0.1055955440 0.5480501652 4293916666
-0.2839893103 -0.1051715463 0.5490155220 4293850873
-0.2849415243 -0.1049121469 0.5508564115 4294114045
-0.2858938277 -0.1046486795 0.5526973605 4294114045
-0.2868461609 -0.1043811366 0.5545384288 4294048252
-0.2882517278 -0.1042734757 0.5572557449 4294179838
-0.3374468982 -0.1695468873 0.6537648439 4289377218
-0.3370726109 -0.1686332524 0.6530396938 4288456116
-0.3366978765 -0.1677210182 0.6523137093 4287534254
-0.3358754516 -0.1665883362 0.6507203579 4287665840
-0.3337103724 -0.1647961736 0.6465258002 4289507791
-0.3275172412 -0.1610328108 0.6345272660 4290428893
-0.3128182590 -0.1531322896 0.6060497165 4290032848
-0.3030366004 -0.1476916075 0.5870988369 4289506504
-0.2986230552 -0.1448977590 0.5785480738 4290690509
-0.2942074239 -0.1421219110 0.5699933171 4290887888
-0.2924770415 -0.1406564415 0.5666409135 4290888909
-0.2907457054 -0.1391979754 0.5632866621 4290954702
-0.2908057272 -0.1386007220 0.5634029508 4290625483
-0.2895210087 -0.1373651922 0.5609139204 4290625483
-0.2886837423 -0.1363465339 0.5592917800 4290756804
-0.2873975337 -0.1351204067 0.5567998886 4290756804
-0.2870074213 -0.1343192011 0.5560441613 4290494659
-0.2861683667 -0.1333105266 0.5544185638 4290494659
-0.2853287458 -0.1323051900 0.5527918935 4290298059
-0.2849372327 -0.1315102875 0.5520333648 4290298059
-0.2845453024 -0.1307169050 0.5512740612 4290690760
-0.2841529548 -0.1299249977 0.5505139232 4290624967
-0.2833112180 -0.1289302856 0.5488831401 4290624965
-0.2829179764 -0.1281423271 0.5481212735 4290690758
-0.2825243175 -0.1273558736 0.5473586321 4290756551
-0.2825795114 -0.1267724782 0.5474655628 4290822344
-0.2821851373 -0.1259881258 0.5467014909 4290953932
-0.2817903459 -0.1252052933 0.5459366441 4291019725
-0.2813951671 -0.1244239733 0.5451710224 4291217106
-0.2809995711 -0.1236441806 0.5444045663 4291217106
-0.2806035578 -0.1228659078 0.5436373949 4291282897
-0.2802071571 -0.1220891699 0.5428693891 4291282897
-0.2802602053 -0.1215090081 0.5429721475 4291348690
-0.2798630893 -0.1207344010 0.5422027707 4291348690
-0.2794655561 -0.1199613363 0.5414326191 4291348692
-0.2795177400 -0.1193820536 0.5415337086 4291348692
-0.2795696855 -0.1188024431 0.5416343808 4291414230
-0.2796213925 -0.1182225123 0.5417345166 4291480023
-0.2792225182 -0.1174528226 0.5409617424 4291545816
-0.2792736888 -0.1168731824 0.5410608649 4291611609
-0.2797751129 -0.1164807975 0.5420323610 4291743195
-0.2798258960 -0.1158995926 0.5421307683 4291808988
-0.2798764408 -0.1153180748 0.5422286391 4291808988
-0.2799267471 -0.1147362366 0.5423260927 4291808988
-0.2799768150 -0.1141540855 0.5424231291 4292006367
-0.2800266445 -0.1135716215 0.5425196290 4292006367
-0.2800762355 -0.1129888520 0.5426157117 4292072160
-0.2805766761 -0.1125867739 0.5435853004 4292072160
-0.2806258500 -0.1120024472 0.5436806083 4292137953
-0.2806748152 -0.1114178151 0.5437754393 4292137953
-0.2811748683 -0.1110110655 0.5447441936 4292137953
-0.2812234163 -0.1104248762 0.5448382497 4292269539
-0.2812717259 -0.1098383889 0.5449318886 4292139233
-0.2813197970 -0.1092516035 0.5450249910 4292468198
-0.2818192542 -0.1088389382 0.5459926724 4292863726
-0.2818669379 -0.1082506031 0.5460850000 4293390070
-0.2819143534 -0.1076619774 0.5461769104 4293653242
-0.2819615304 -0.1070730537 0.5462682843 4293653242
-0.2824604213 -0.1066544801 0.5472348332 4293850105
-0.2825071812 -0.1060640216 0.5473254323 4293981691
-0.2830058038 -0.1056420282 0.5482914448 4293982205
-0.2835043073 -0.1052178517 0.5492572188 4293982205
-0.2844549417 -0.1049583554 0.5510990024 4293982718
-0.2854056358 -0.1046947911 0.5529409051 4294048511
-0.2868087590 -0.1045921147 0.5556592941 4294114558
-0.3359730840 -0.1691704094 0.6523131728 4289311425
-0.3355993330 -0.1682582498 0.6515874863 4288258737
-0.3347787559 -0.1671246439 0.6499942541 4287468461
-0.3339575231 -0.1659942567 0.6483997703 4286613152
-0.3317959309 -0.1642040908 0.6442029476 4287073452
-0.3256132603 -0.1604418904 0.6321988702 4289442000
-0.3118328452 -0.1529790759 0.6054433584 4290691037
-0.3025148213 -0.1477552503 0.5873517990 4290098900
-0.2976620197 -0.1447429061 0.5779297948 4290756304
-0.2950420678 -0.1428324431 0.5728429556 4291085269
-0.2933150232 -0.1413636208 0.5694897771 4290756553
-0.2920342088 -0.1401163489 0.5670030117 4291151311
-0.2903052866 -0.1386605799 0.5636462569 4290690762
-0.2890228331 -0.1374245286 0.5611562133 4290690762
-0.2881870568 -0.1364054680 0.5595335364 4290691012
-0.2869031131 -0.1351788193 0.5570406318 4290691012
-0.2865137160 -0.1343773007 0.5562846661 4290560195
-0.2856761813 -0.1333682090 0.5546584725 4290560195
-0.2848380208 -0.1323624551 0.5530311465 4290363341
-0.2844472229 -0.1315672547 0.5522724390 4290363341
-0.2840560377 -0.1307735294 0.5515128970 4290690760
-0.2836644053 -0.1299813092 0.5507525206 4290624967
-0.2828241885 -0.1289861798 0.5491211414 4290624965
-0.2828799486 -0.1284013987 0.5492294431 4290690758
-0.2824871242 -0.1276136935 0.5484667420 4290756553
-0.2820938826 -0.1268275082 0.5477032065 4290888139
-0.2817002237 -0.1260428429 0.5469389558 4291085520
-0.2813061476 -0.1252596825 0.5461738110 4291151313
-0.2813604474 -0.1246768907 0.5462791920 4291151313
-0.2809656560 -0.1238958538 0.5455127358 4291217106
-0.2805704474 -0.1231163368 0.5447454453 4291217106
-0.2801748812 -0.1223383471 0.5439773798 4291282899
-0.2797788680 -0.1215618923 0.5432085395 4291348692
-0.2798316479 -0.1209811643 0.5433109403 4291348692
-0.2794349194 -0.1202068478 0.5425407290 4291414230
-0.2790378034 -0.1194340736 0.5417696834 4291414230
-0.2790897191 -0.1188542321 0.5418704748 4291414230
-0.2791413963 -0.1182740703 0.5419707894 4291480023
-0.2796424031 -0.1178831086 0.5429435372 4291545816
-0.2792440057 -0.1171127781 0.5421700478 4291611609
-0.2792949975 -0.1165316552 0.5422689915 4291677402
-0.2793457210 -0.1159502119 0.5423675179 4291743195
-0.2793962061 -0.1153684556 0.5424655676 4291808988
-0.2794464827 -0.1147863790 0.5425631404 4291874781
-0.2794964910 -0.1142039895 0.5426602364 4292006367
-0.2795462906 -0.1136212945 0.5427569151 4292006367
-0.2795958221 -0.1130382866 0.5428531170 4292006367
-0.2800954580 -0.1126360521 0.5438231826 4292072160
-0.2801446021 -0.1120514870 0.5439186096 4292137953
-0.2806439996 -0.1116458178 0.5448881984 4292203746
-0.2806927562 -0.1110597029 0.5449828506 4292269539
-0.2807412744 -0.1104732752 0.5450770855 4292335332
-0.2807895243 -0.1098865494 0.5451707840 4292139233
-0.2812883556 -0.1094749570 0.5461392403 4292468198
-0.2813362181 -0.1088866815 0.5462322235 4292863726
-0.2813838422 -0.1082981154 0.5463246703 4293455863
-0.2814312279 -0.1077092439 0.5464166999 4293719033
-0.2814783752 -0.1071200743 0.5465081930 4293719033
-0.2819764316 -0.1067013294 0.5474752188 4293719033
-0.2820231616 -0.1061106324 0.5475659370 4293850619
-0.2825209498 -0.1056884676 0.5485324264 4293982459
-0.2834700346 -0.1054320037 0.5503751636 4293982459
-0.2844191790 -0.1051714644 0.5522179604 4293982972
-0.2853683531 -0.1049068496 0.5540608764 4294048765
-0.2863175869 -0.1046381518 0.5559038520 4294114558
-0.3340562284 -0.1685687304 0.6499931216 4289245634
-0.3336828649 -0.1676589549 0.6492666602 4287666602
-0.3333090842 -0.1667505652 0.6485393643 4287336622
-0.3320434391 -0.1653995365 0.6460767388 4286086555
-0.3303311765 -0.1638324857 0.6427450776 4285428886
-0.3241590261 -0.1600705236 0.6307355762 4286415781
-0.3108482957 -0.1528256387 0.6048360467 4288915143
-0.3019923866 -0.1478188485 0.5876046419 4290494175
-0.2971480191 -0.1448052227 0.5781785846 4290691027
-0.2945326567 -0.1428939700 0.5730897188 4290756820
-0.2928086221 -0.1414245367 0.5697352290 4291019727
-0.2910836339 -0.1399620920 0.5663787723 4291085520
-0.2884645760 -0.1380791515 0.5612827539 4290690507
-0.2876307368 -0.1370581836 0.5596602559 4290690507
-0.2867962718 -0.1360405385 0.5580366254 4290756294
-0.2859612107 -0.1350262165 0.5564118028 4290756294
-0.2851255834 -0.1340152323 0.5547858477 4290691012
-0.2851833105 -0.1334258467 0.5548982024 4290756805
-0.2847937644 -0.1326278895 0.5541402102 4290559950
-0.2839565873 -0.1316241473 0.5525112748 4290559950
-0.2835661173 -0.1308301091 0.5517514944 4290756553
-0.2831752300 -0.1300375760 0.5509909391 4290690760
-0.2827839255 -0.1292465478 0.5502295494 4290690760
-0.2823922336 -0.1284570247 0.5494673848 4290690760
-0.2820001245 -0.1276690066 0.5487044454 4290756553
-0.2816075981 -0.1268824935 0.5479406714 4290953932
-0.2812146544 -0.1260975003 0.5471761227 4291217106
-0.2812692225 -0.1255138963 0.5472822785 4291217106
-0.2808755636 -0.1247310117 0.5465162992 4291217106
-0.2804814875 -0.1239496469 0.5457496047 4291217106
-0.2800870538 -0.1231698170 0.5449820757 4291217106
-0.2796921730 -0.1223915145 0.5442137718 4291282899
-0.2792969048 -0.1216147393 0.5434446335 4291348437
-0.2793496251 -0.1210337803 0.5435472727 4291414230
-0.2789536417 -0.1202591434 0.5427767634 4291480023
-0.2790058255 -0.1196784601 0.5428782701 4291480023
-0.2786091268 -0.1189059764 0.5421063900 4291480023
-0.2786607444 -0.1183255836 0.5422068238 4291480023
-0.2791609466 -0.1179344654 0.5431801081 4291545816
-0.2792121768 -0.1173524931 0.5432798266 4291611609
-0.2792631984 -0.1167701930 0.5433790684 4291677402
-0.2793139517 -0.1161875799 0.5434778333 4291808988
-0.2793644965 -0.1156046465 0.5435761809 4291874781
-0.2794148028 -0.1150214002 0.5436740518 4291940574
-0.2794648409 -0.1144378409 0.5437714458 4292006367
-0.2795146704 -0.1138539687 0.5438683629 4291940574
-0.2795642614 -0.1132697836 0.5439648628 4292072160
-0.2796136141 -0.1126852855 0.5440608859 4292203746
-0.2801123559 -0.1122807041 0.5450313091 4292269539
-0.2801612914 -0.1116946563 0.5451265574 4292335332
-0.2806597948 -0.1112866402 0.5460965037 4292335332
-0.2807083428 -0.1106990352 0.5461909771 4292335332
-0.2807566524 -0.1101111248 0.5462849736 4292139233
-0.2808047235 -0.1095229089 0.5463784933 4292402405
-0.2813026309 -0.1091089696 0.5473473072 4292928749
-0.2813502848 -0.1085192114 0.5474400520 4293586679
-0.2813977003 -0.1079291552 0.5475323200 4293915898
-0.2814448774 -0.1073388010 0.5476241112 4293850105
-0.2814918160 -0.1067481488 0.5477154255 4293784826
-0.2819889784 -0.1063270569 0.5486827493 4293850619
-0.2824860215 -0.1059037745 0.5496498942 4293982459
-0.2829830050 -0.1054783091 0.5506168604 4293982459
-0.2839305401 -0.1052176729 0.5524605513 4293982972
-0.2848781347 -0.1049529538 0.5543043613 4294048765
-0.2858257592 -0.1046841592 0.5561482310 4294114557
-0.3325878680 -0.1681912541 0.6485375762 4289311172
-0.3322150409 -0.1672829539 0.6478105783 4286942624
-0.3313969374 -0.1661530137 0.6462153196 4286875819
-0.3301332593 -0.1648041904 0.6437512040 4286349475
-0.3279787302 -0.1630180478 0.6395499110 4285758367
-0.3218169510 -0.1592581719 0.6275346279 4284903058
-0.3107549846 -0.1531106532 0.6059640646 4285231509
-0.3005786836 -0.1474454999 0.5861205459 4288060608
-0.2970787585 -0.1450850070 0.5792957544 4290165713
-0.2940225601 -0.1429554373 0.5733362436 4290692057
-0.2923015952 -0.1414854079 0.5699803829 4290888656
-0.2905796170 -0.1400223523 0.5666226149 4290822863
-0.2893024683 -0.1387801319 0.5641322136 4290690507
-0.2880245149 -0.1375430673 0.5616402626 4290690507
-0.2871917486 -0.1365231723 0.5600163341 4290690760
-0.2863583863 -0.1355065852 0.5583912730 4290690760
-0.2855243981 -0.1344933510 0.5567650795 4290756805
-0.2851360738 -0.1336926520 0.5560078025 4290756805
-0.2843009830 -0.1326851547 0.5543794632 4290625484
-0.2839117348 -0.1318883747 0.5536204576 4290625484
-0.2835220695 -0.1310930997 0.5528606176 4290756551
-0.2826854289 -0.1300937980 0.5512291193 4290756551
-0.2822948396 -0.1293024421 0.5504675508 4290756553
-0.2823506296 -0.1287162602 0.5505762696 4290756553
-0.2819593251 -0.1279269904 0.5498132706 4290822346
-0.2815676033 -0.1271392405 0.5490494370 4291019725
-0.2811754942 -0.1263529956 0.5482848287 4291217106
-0.2807829678 -0.1255682856 0.5475194454 4291282899
-0.2803900540 -0.1247850806 0.5467532277 4291282899
-0.2799967229 -0.1240034029 0.5459862351 4291282899
-0.2796030045 -0.1232232526 0.5452184677 4291282644
-0.2796563208 -0.1226408556 0.5453224182 4291282644
-0.2788143158 -0.1216675416 0.5436806083 4291348437
-0.2788670063 -0.1210863441 0.5437833071 4291348437
-0.2784717381 -0.1203113943 0.5430125594 4291414230
-0.2785238624 -0.1197304800 0.5431142449 4291414230
-0.2785757780 -0.1191492379 0.5432154536 4291545816
-0.2786274254 -0.1185676754 0.5433161855 4291545816
-0.2786788642 -0.1179857850 0.5434164405 4291611609
-0.2787300646 -0.1174035743 0.5435162783 4291677402
-0.2787810266 -0.1168210432 0.5436156392 4291743195
-0.2788317502 -0.1162381917 0.5437145829 4291874781
-0.2788822353 -0.1156550273 0.5438130498 4291940574
-0.2789324820 -0.1150715426 0.5439110398 4291940574
-0.2789825201 -0.1144877449 0.5440085530 4292006367
-0.2790322900 -0.1139036343 0.5441056490 4292006367
-0.2790818512 -0.1133192107 0.5442022681 4292137953
-0.2791311443 -0.1127344742 0.5442984104 4292203746
-0.2796290517 -0.1123297364 0.5452693105 4292269539
-0.2801268995 -0.1119228080 0.5462400913 4292335332
-0.2801756263 -0.1113352701 0.5463351011 4292401125
-0.2802241445 -0.1107474267 0.5464296937 4292335332
-0.2802724242 -0.1101592705 0.5465238690 4292138976
-0.2807696760 -0.1097464114 0.5474934578 4292402148
-0.2808175385 -0.1091567129 0.5475867987 4292862956
-0.2808651626 -0.1085667163 0.5476796627 4293520886
-0.2809125483 -0.1079764143 0.5477720499 4293850105
-0.2809596658 -0.1073858216 0.5478639603 4293850105
-0.2810065746 -0.1067949235 0.5479554534 4293784826
-0.2815029025 -0.1063736603 0.5489232540 4293916412
-0.2819991410 -0.1059502140 0.5498909354 4293982459
-0.2829451263 -0.1056926101 0.5517355800 4293982459
-0.2834412456 -0.1052638367 0.5527029634 4293982971
-0.2843872309 -0.1049990207 0.5545476675 4294048764
-0.3306780159 -0.1675883830 0.6462129354 4289508553
-0.3303056061 -0.1666824669 0.6454852223 4286613661
-0.3299327493 -0.1657779515 0.6447565556 4286218149
-0.3286711574 -0.1644304097 0.6422911286 4286349735
-0.3260759711 -0.1624240726 0.6372196674 4285167514
-0.3199246824 -0.1586653739 0.6251987815 4284706963
-0.3093261421 -0.1527374536 0.6044870615 4283587712
-0.3005009890 -0.1477273256 0.5872408152 4284508814
-0.2965626419 -0.1451473236 0.5795445442 4287007908
-0.2935118377 -0.1430168599 0.5735825896 4289771214
-0.2913490832 -0.1413304359 0.5693561435 4290625997
-0.2900749743 -0.1400825530 0.5668662786 4290691790
-0.2888000906 -0.1388398260 0.5643748641 4290756300
-0.2875244021 -0.1376022547 0.5618819594 4290756300
-0.2866931260 -0.1365819424 0.5602574348 4290756553
-0.2858612537 -0.1355649531 0.5586317778 4290756553
-0.2854741514 -0.1347615272 0.5578752756 4290756805
-0.2837502658 -0.1333316565 0.5545064807 4290756805
-0.2833620608 -0.1325339973 0.5537478328 4290756555
-0.2829734385 -0.1317378134 0.5529884100 4290756555
-0.2825843990 -0.1309431344 0.5522281528 4290690758
-0.2821949720 -0.1301499605 0.5514671206 4290822344
-0.2818051279 -0.1293582916 0.5507052541 4290822346
-0.2814148664 -0.1285681278 0.5499426723 4290822346
-0.2810242176 -0.1277794689 0.5491791964 4290953932
-0.2806331217 -0.1269923300 0.5484150052 4291085518
-0.2806878984 -0.1264076680 0.5485219955 4291151311
-0.2802961171 -0.1256226152 0.5477563739 4291217104
-0.2803503275 -0.1250382066 0.5478623509 4291282899
-0.2795113325 -0.1240571067 0.5462227464 4291282899
-0.2791182995 -0.1232766360 0.5454546809 4291348437
-0.2791715860 -0.1226940081 0.5455588102 4291348437
-0.2783311009 -0.1217202917 0.5439163446 4291414230
-0.2788305879 -0.1213333085 0.5448924303 4291414230
-0.2784361243 -0.1205571145 0.5441215634 4291414230
-0.2789353132 -0.1201676056 0.5450971127 4291414230
-0.2785402536 -0.1193926185 0.5443250537 4291545816
-0.2785919309 -0.1188098863 0.5444260836 4291545816
-0.2786433995 -0.1182268262 0.5445266366 4291611609
-0.2786946297 -0.1176434457 0.5446267724 4291743195
-0.2787456512 -0.1170597449 0.5447264314 4291808988
-0.2787964046 -0.1164757237 0.5448256135 4291874781
-0.2788469493 -0.1158913821 0.5449243784 4291940574
-0.2788972259 -0.1153067201 0.5450226665 4291940574
-0.2789472938 -0.1147217527 0.5451204777 4292072160
-0.2789970934 -0.1141364649 0.5452178121 4292137953
-0.2790466845 -0.1135508642 0.5453147292 4292137953
-0.2790960371 -0.1129649505 0.5454111695 4292137953
-0.2791451216 -0.1123787314 0.5455071330 4292203746
-0.2791939974 -0.1117921993 0.5456026196 4292335332
-0.2796908617 -0.1113838628 0.5465735793 4292401125
-0.2801876068 -0.1109733358 0.5475443602 4292466918
-0.2802359164 -0.1103840023 0.5476387739 4292139233
-0.2802839875 -0.1097943634 0.5477326512 4292336612
-0.2803318202 -0.1092044190 0.5478261113 4292862956
-0.2803793848 -0.1086141765 0.5479190946 4293520886
-0.2804267406 -0.1080236360 0.5480116010 4293784058
-0.2809225917 -0.1076046899 0.5489806533 4293849851
-0.2809695303 -0.1070126072 0.5490723252 4293784826
-0.2810162008 -0.1064202264 0.5491635799 4293916412
-0.2815116346 -0.1059966087 0.5501317382 4293982459
-0.2824560106 -0.1057389081 0.5519772768 4293982459
-0.2829513252 -0.1053099632 0.5529451966 4293982972
-0.2838957310 -0.1050450429 0.5547907352 4294048765
-0.3292151392 -0.1672099233 0.6447536349 4289640141
-0.3288432360 -0.1663054824 0.6440253258 4286811042
-0.3280276358 -0.1651792228 0.6424279809 4286020774
-0.3267680109 -0.1638338864 0.6399610639 4286020774
-0.3237336576 -0.1616080999 0.6340184212 4284970396
-0.3175927699 -0.1578514874 0.6219917536 4284444052
-0.3078997135 -0.1523638070 0.6030083299 4284509332
-0.3004210591 -0.1480092853 0.5883616805 4283654023
-0.2960458696 -0.1452095658 0.5797930956 4284705414
-0.2930004299 -0.1430782229 0.5738286972 4289442510
-0.2908414900 -0.1413911134 0.5696005225 4290954708
-0.2891255319 -0.1399277747 0.5662398934 4290757329
-0.2878528237 -0.1386854500 0.5637473464 4290756300
-0.2870236635 -0.1376613975 0.5621234179 4290756300
-0.2857494652 -0.1364284903 0.5596280098 4290756555
-0.2853634953 -0.1356232613 0.5588721037 4290756555
-0.2849771082 -0.1348195225 0.5581153631 4290625735
-0.2841456234 -0.1338078678 0.5564869642 4290625735
-0.2837583125 -0.1330080181 0.5557284355 4290756555
-0.2829257548 -0.1320021302 0.5540978909 4290756555
-0.2825375497 -0.1312061995 0.5533375740 4290624965
-0.2821488976 -0.1304117739 0.5525764823 4290822344
-0.2817598879 -0.1296188533 0.5518145561 4290822346
-0.2813704312 -0.1288274378 0.5510518551 4290888139
-0.2809805870 -0.1280375421 0.5502883792 4291085518
-0.2805903554 -0.1272491515 0.5495240688 4291085518
-0.2806451619 -0.1266633272 0.5496314168 4291085518
-0.2798086107 -0.1256769150 0.5479931235 4291217104
-0.2798627913 -0.1250922680 0.5480992198 4291217106
-0.2790252864 -0.1241107658 0.5464589596 4291217106
-0.2795246243 -0.1237246320 0.5474369526 4291282899
-0.2786862254 -0.1227471158 0.5457949638 4291348692
-0.2782932222 -0.1219684631 0.5450252891 4291414230
-0.2783459127 -0.1213858724 0.5451284647 4291480023
-0.2779521942 -0.1206093580 0.5443573594 4291480023
-0.2784505486 -0.1202197000 0.5453333855 4291480023
-0.2785025239 -0.1196361184 0.5454351902 4291545816
-0.2781078517 -0.1188614294 0.5446622372 4291545816
-0.2781592906 -0.1182781383 0.5447629690 4291677402
-0.2782104909 -0.1176945195 0.5448632240 4291743195
-0.2782614231 -0.1171105802 0.5449630022 4291808988
-0.2783121467 -0.1165263280 0.5450623631 4291874781
-0.2783626318 -0.1159417480 0.5451611876 4291874781
-0.2784128785 -0.1153568551 0.5452596545 4291874781
-0.2784628868 -0.1147716492 0.5453575850 4292072160
-0.2785126865 -0.1141861230 0.5454550385 4292137953
-0.2785622180 -0.1136002839 0.5455520749 4292137953
-0.2786115110 -0.1130141392 0.5456486344 4292137953
-0.2786605656 -0.1124276742 0.5457447171 4292269539
-0.2787094116 -0.1118409112 0.5458403230 4292335332
-0.2792054415 -0.1114324108 0.5468118191 4292335332
-0.2792538702 -0.1108440831 0.5469066501 4292466918
-0.2797496319 -0.1104321480 0.5478776097 4292205026
-0.2797976732 -0.1098422632 0.5479716659 4292468198
-0.2798454463 -0.1092520878 0.5480652452 4292928749
-0.2798929811 -0.1086615995 0.5481583476 4293455093
-0.2799402773 -0.1080708206 0.5482509732 4293784058
-0.2804353237 -0.1076517031 0.5492205024 4293849851
-0.2804822028 -0.1070593745 0.5493122935 4293784826
-0.2809769809 -0.1066368297 0.5502812862 4293982205
-0.2814716697 -0.1062120944 0.5512501001 4293982459
-0.2819662392 -0.1057851687 0.5522187352 4294048252
-0.2829090953 -0.1055232808 0.5540652275 4294114045
-0.2838519514 -0.1052573174 0.5559118390 4294114045
-0.3273122907 -0.1666058749 0.6424244046 4289705682
-0.3269408345 -0.1657038182 0.6416953802 4287008169
-0.3265689313 -0.1648031622 0.6409654021 4286217901
-0.3248687685 -0.1632367373 0.6376284361 4285823143
-0.3218395114 -0.1610127687 0.6316828132 4285167521
-0.3161519468 -0.1574779004 0.6205196977 4284246419
-0.3069185615 -0.1522093862 0.6023971438 4284377494
-0.2994529307 -0.1478539407 0.5877441168 4283719564
-0.2950853705 -0.1450539678 0.5791717768 4284903310
-0.2924883664 -0.1431395262 0.5740745664 4289771992
-0.2903332710 -0.1414517164 0.5698447227 4290494157
-0.2886203527 -0.1399877816 0.5664827228 4290296778
-0.2873499393 -0.1387449503 0.5639892220 4290756300
-0.2860787213 -0.1375072896 0.5614941716 4290756300
-0.2852503359 -0.1364870816 0.5598683357 4290756555
-0.2848650813 -0.1356815249 0.5591121316 4290756555
-0.2844794095 -0.1348774582 0.5583552122 4290756551
-0.2836494446 -0.1338653862 0.5567262173 4290756551
-0.2832628787 -0.1330652237 0.5559674501 4290690762
-0.2824318111 -0.1320589185 0.5543363094 4290690762
-0.2820443213 -0.1312626749 0.5535757542 4290624967
-0.2816564143 -0.1304679364 0.5528144240 4290756553
-0.2812681198 -0.1296746880 0.5520522594 4290822348
-0.2808794081 -0.1288829595 0.5512893200 4290953934
-0.2804902792 -0.1280927360 0.5505256057 4291085520
-0.2796561420 -0.1271019578 0.5488884449 4291151313
-0.2792661488 -0.1263156980 0.5481229424 4291151313
-0.2788757086 -0.1255309582 0.5473566651 4291217106
-0.2802643478 -0.1255448312 0.5500821471 4291282899
-0.2789835632 -0.1243627220 0.5475683212 4291282899
-0.2785921097 -0.1235806867 0.5468000174 4291348437
-0.2782002389 -0.1228001788 0.5460308790 4291348437
-0.2778079808 -0.1220212132 0.5452609658 4291414230
-0.2778606117 -0.1214383841 0.5453642607 4291480023
-0.2783583701 -0.1210489124 0.5463412404 4291480023
-0.2779651582 -0.1202717498 0.5455694795 4291545816
-0.2780170739 -0.1196879372 0.5456714034 4291545816
-0.2780687809 -0.1191037968 0.5457728505 4291611609
-0.2781202495 -0.1185193360 0.5458738804 4291611609
-0.2781714797 -0.1179345474 0.5459744334 4291677402
-0.2782224715 -0.1173494384 0.5460745096 4291743195
-0.2782732248 -0.1167640090 0.5461741090 4291808988
-0.2783237398 -0.1161782593 0.5462732911 4291874781
-0.2783740163 -0.1155921891 0.5463719964 4291874781
-0.2784240842 -0.1150058061 0.5464702249 4292006367
-0.2784738839 -0.1144191027 0.5465679765 4292072160
-0.2785234749 -0.1138320938 0.5466653109 4292203746
-0.2785727978 -0.1132447645 0.5467621088 4292203746
-0.2786219120 -0.1126571223 0.5468584895 4292335332
-0.2786707580 -0.1120691746 0.5469543934 4292401125
-0.2791660428 -0.1116595715 0.5479264855 4292401125
-0.2792145014 -0.1110700667 0.5480216146 4292401125
-0.2792627215 -0.1104802489 0.5481162667 4292270819
-0.2793107033 -0.1098901331 0.5482104421 4292468198
-0.2798054218 -0.1094745845 0.5491814017 4292929003
-0.2798529863 -0.1088829190 0.5492748022 4293455347
-0.2799003422 -0.1082909480 0.5493677258 4293718519
-0.2799474299 -0.1076986790 0.5494601130 4293850105
-0.2804415524 -0.1072771996 0.5504299402 4293916412
-0.2804882228 -0.1066833884 0.5505215526 4294113791
-0.2809820771 -0.1062584817 0.5514909029 4294048252
-0.2814758420 -0.1058313847 0.5524600148 4294114045
-0.2828646600 -0.1057367101 0.5551858544 4294114045
-0.2838059962 -0.1054696888 0.5570334792 4294179838
-0.3258549273 -0.1662264168 0.6409612894 4289837269
-0.3250423670 -0.1651015282 0.6393629313 4287008170
-0.3242291510 -0.1639798582 0.6377633214 4286481074
-0.3229734898 -0.1626389474 0.6352934241 4286020523
-0.3199492991 -0.1604168266 0.6293448210 4284772765
-0.3142714798 -0.1568832248 0.6181764007 4284312214
-0.3059383035 -0.1520546973 0.6017849445 4283982737
-0.2984856963 -0.1476983428 0.5871255994 4283785358
-0.2941257656 -0.1448981166 0.5785495639 4285561242
-0.2915332615 -0.1429838091 0.5734500885 4290035166
-0.2893819213 -0.1412962228 0.5692183375 4290494159
-0.2881145477 -0.1400477290 0.5667253733 4290888917
-0.2868463695 -0.1388044059 0.5642308593 4290756302
-0.2855774462 -0.1375662386 0.5617348552 4290756302
-0.2847505808 -0.1365455985 0.5601084232 4290756300
-0.2843660414 -0.1357397288 0.5593520403 4290756300
-0.2839810848 -0.1349353492 0.5585948229 4290756553
-0.2831526399 -0.1339228600 0.5569652319 4290756553
-0.2827667594 -0.1331223845 0.5562062263 4290821835
-0.2823805213 -0.1323233992 0.5554464459 4290821835
-0.2819938362 -0.1315259039 0.5546858907 4290624967
-0.2811632752 -0.1305240393 0.5530521274 4290690760
-0.2807756960 -0.1297304779 0.5522897840 4290822348
-0.2803877294 -0.1289384365 0.5515266061 4291019727
-0.2804430723 -0.1283509731 0.5516355038 4291151313
-0.2800543606 -0.1275610179 0.5508708954 4291151313
-0.2787774205 -0.1263701320 0.5483591557 4291151313
-0.2788317204 -0.1257853508 0.5484659672 4291217106
-0.2793298960 -0.1253996193 0.5494458675 4291348692
-0.2780513167 -0.1242179424 0.5469308496 4291348692
-0.2785490155 -0.1238315180 0.5479098558 4291348437
-0.2781579792 -0.1230497658 0.5471406579 4291348437
-0.2777665257 -0.1222695410 0.5463706851 4291414230
-0.2778191864 -0.1216855496 0.5464742780 4291414230
-0.2778716087 -0.1211012304 0.5465773940 4291480023
-0.2779238224 -0.1205165759 0.5466800928 4291480023
-0.2775310278 -0.1197397038 0.5459074378 4291611609
-0.2775826752 -0.1191553324 0.5460090637 4291611609
-0.2776340842 -0.1185706407 0.5461101532 4291677402
-0.2776852548 -0.1179856136 0.5462108254 4291677402
-0.2777362168 -0.1174002737 0.5463110805 4291743195
-0.2777869105 -0.1168146059 0.5464107990 4291808988
-0.2778373957 -0.1162286252 0.5465101004 4291874781
-0.2778876424 -0.1156423166 0.5466089249 4291940574
-0.2779376507 -0.1150556952 0.5467072725 4292072160
-0.2779874206 -0.1144687608 0.5468052030 4292072160
-0.2780369520 -0.1138815060 0.5469025970 4292137953
-0.2780862451 -0.1132939383 0.5469995737 4292203746
-0.2781352997 -0.1127060652 0.5470960736 4292269539
-0.2781841159 -0.1121178791 0.5471920967 4292401125
-0.2786785662 -0.1117081121 0.5481647253 4292466918
-0.2787269950 -0.1111183688 0.5482599735 4292466918
-0.2787751853 -0.1105283126 0.5483546853 4292074208
-0.2788231075 -0.1099379510 0.5484490395 4292337380
-0.2793169916 -0.1095222458 0.5494204760 4292929003
-0.2793645263 -0.1089303344 0.5495139956 4293389554
-0.2794118226 -0.1083381176 0.5496070385 4293718517
-0.2799052894 -0.1079177260 0.5505777001 4293981689
-0.2799521685 -0.1073239669 0.5506699085 4294048252
-0.2804453969 -0.1069001332 0.5516400337 4294245631
-0.2809385061 -0.1064741090 0.5526099801 4294114045
-0.2818782330 -0.1062142178 0.5544584990 4294114045
-0.2823712230 -0.1057828590 0.5554282069 4294179837
-0.2833109796 -0.1055157408 0.5572767258 4294179837
-0.3239591718 -0.1656211764 0.6386274695 4290100440
-0.3235886693 -0.1647230089 0.6378970742 4287797685
-0.3227767646 -0.1636027247 0.6362965703 4286613429
-0.3210821152 -0.1620405316 0.6329558492 4285889706
-0.3185041845 -0.1600418985 0.6278739572 4284968610
-0.3128362000 -0.1565086693 0.6167005301 4284573852
-0.3045175374 -0.1516799480 0.6003018022 4284178583
-0.2979607880 -0.1477614194 0.5873762965 4283783825
-0.2936085463 -0.1449600160 0.5787966847 4287336621
-0.2910206914 -0.1430449188 0.5736951232 4290494685
-0.2888731658 -0.1413566321 0.5694617033 4290625743
-0.2876080573 -0.1401076317 0.5669677854 4290888915
-0.2863421738 -0.1388638020 0.5644723177 4290625486
-0.2850755155 -0.1376251280 0.5619753003 4290559693
-0.2846922278 -0.1368165314 0.5612197518 4290559690
-0.2838663459 -0.1357978880 0.5595916510 4290559690
-0.2834821343 -0.1349931806 0.5588342547 4290560204
-0.2830975056 -0.1341899633 0.5580760241 4290560204
-0.2822700441 -0.1331794858 0.5564448237 4290560203
-0.2818844914 -0.1323801726 0.5556848049 4290494410
-0.2814985514 -0.1315823644 0.5549240112 4290690762
-0.2811121941 -0.1307860613 0.5541623831 4290756555
-0.2807254493 -0.1299912483 0.5533999205 4290822346
-0.2803382874 -0.1291979551 0.5526366830 4291019725
-0.2799507082 -0.1284061670 0.5518726707 4291151311
-0.2795627415 -0.1276158839 0.5511078238 4291217104
-0.2787312269 -0.1266258210 0.5494686365 4291217106
-0.2792287767 -0.1262402683 0.5504495502 4291282899
-0.2783963680 -0.1252541691 0.5488085747 4291348692
-0.2788935602 -0.1248670071 0.5497887135 4291282899
-0.2780602574 -0.1238848865 0.5481460094 4291348692
-0.2781135142 -0.1232994646 0.5482509732 4291480278
-0.2777228653 -0.1225179955 0.5474808812 4291480278
-0.2773318589 -0.1217380539 0.5467100739 4291480278
-0.2773842216 -0.1211535037 0.5468133092 4291545816
-0.2774363756 -0.1205686182 0.5469161272 4291545816
-0.2770443261 -0.1197914332 0.5461432338 4291677402
-0.2770959139 -0.1192068234 0.5462449789 4291611609
-0.2771472931 -0.1186218932 0.5463462472 4291677402
-0.2776426673 -0.1182257980 0.5473227501 4291743195
-0.2776936293 -0.1176392809 0.5474233031 4291678172
-0.2777443826 -0.1170524433 0.5475233197 4291743965
-0.2777948976 -0.1164652854 0.5476229191 4291809757
-0.2778451741 -0.1158778071 0.5477219820 4291743964
-0.2778952122 -0.1152900085 0.5478206277 4291875550
-0.2779450119 -0.1147018895 0.5479188561 4292007136
-0.2779945731 -0.1141134650 0.5480165482 4292007136
-0.2780439258 -0.1135247201 0.5481137633 4292072929
-0.2780930102 -0.1129356623 0.5482105613 4292139235
-0.2781418562 -0.1123462915 0.5483068824 4292205028
-0.2781904638 -0.1117566153 0.5484027267 4292205026
-0.2786840200 -0.1113444939 0.5493756533 4292336612
-0.2787322402 -0.1107532531 0.5494707227 4292336866
-0.2787802219 -0.1101617068 0.5495652556 4292468452
-0.2788279653 -0.1095698625 0.5496593714 4292797417
-0.2788754404 -0.1089777052 0.5497530103 4293389554
-0.2793682516 -0.1085583940 0.5507245064 4293719287
-0.2794153392 -0.1079646945 0.5508173108 4293785080
-0.2794621885 -0.1073706895 0.5509096384 4293850873
-0.2799545527 -0.1069466919 0.5518803000 4294114045
-0.2804468572 -0.1065204963 0.5528507233 4294048251
-0.2813849747 -0.1062605083 0.5547000766 4294048251
-0.2818771601 -0.1058289781 0.5556703210 4294048764
-0.2828153074 -0.1055617556 0.5575197339 4294048764
-0.3220673501 -0.1650152951 0.6362912655 4290494685
-0.3216972649 -0.1641195267 0.6355600953 4288060344
-0.3208865821 -0.1630015522 0.6339584589 4286875831
-0.3196349740 -0.1616641581 0.6314857006 4285888936
-0.3166210651 -0.1594447941 0.6255313158 4285034403
-0.3109628856 -0.1559128314 0.6143527031 4284573852
-0.3035397828 -0.1515246779 0.5996873379 4284047508
-0.2974351943 -0.1478244215 0.5876268148 4283915922
-0.2930907011 -0.1450218707 0.5790436268 4288126391
-0.2905074358 -0.1431059688 0.5739399791 4290758111
-0.2883637547 -0.1414169967 0.5697048306 4290757583
-0.2871009409 -0.1401674896 0.5672099590 4290823376
-0.2858373225 -0.1389231384 0.5647135377 4290559691
-0.2850141525 -0.1378974319 0.5630872250 4290625484
-0.2841903865 -0.1368750483 0.5614597201 4290625737
-0.2833660245 -0.1358559877 0.5598310828 4290625737
-0.2829825282 -0.1350509673 0.5590734482 4290560204
-0.2825986445 -0.1342474222 0.5583149791 4290560204
-0.2822143137 -0.1334453672 0.5575557351 4290625737
-0.2813878655 -0.1324369162 0.5559229851 4290625737
-0.2810026407 -0.1316387802 0.5551618934 4290690762
-0.2806170285 -0.1308421493 0.5544000268 4290690762
-0.2802309990 -0.1300470233 0.5536373854 4290822346
-0.2798445523 -0.1292534173 0.5528739095 4291019725
-0.2794577181 -0.1284613013 0.5521096587 4291151311
-0.2790704668 -0.1276707053 0.5513445735 4291217104
-0.2791251540 -0.1270830333 0.5514526963 4291282899
-0.2787371874 -0.1262945384 0.5506861806 4291282899
-0.2779062986 -0.1253080368 0.5490446091 4291348692
-0.2784026563 -0.1249207333 0.5500252247 4291282899
-0.2780135572 -0.1241358817 0.5492565632 4291348692
-0.2776240706 -0.1233525574 0.5484870076 4291480278
-0.2772341669 -0.1225707680 0.5477167368 4291480278
-0.2772868276 -0.1219853759 0.5478207469 4291546071
-0.2768962085 -0.1212057248 0.5470490456 4291611609
-0.2769483328 -0.1206206083 0.5471519828 4291611609
-0.2770001888 -0.1200351641 0.5472544432 4291611609
-0.2766085565 -0.1192582697 0.5464807153 4291611609
-0.2766598761 -0.1186731085 0.5465821028 4291743195
-0.2771544158 -0.1182768568 0.5475591421 4291808988
-0.2772053480 -0.1176901087 0.5476597548 4291678171
-0.2772560418 -0.1171030328 0.5477599502 4291743964
-0.2773065269 -0.1165156364 0.5478596687 4291809757
-0.2773567438 -0.1159279197 0.5479589105 4291809757
-0.2774067521 -0.1153398901 0.5480576754 4291941343
-0.2774564922 -0.1147515401 0.5481559634 4292007136
-0.2775060236 -0.1141628698 0.5482538342 4292007136
-0.2775553167 -0.1135738865 0.5483511686 4292072929
-0.2776043713 -0.1129845902 0.5484480858 4292205026
-0.2776531577 -0.1123949885 0.5485445261 4292205026
-0.2781460583 -0.1119839549 0.5495182872 4292270819
-0.2781944573 -0.1113927886 0.5496139526 4292336612
-0.2782426476 -0.1108013093 0.5497090816 4292336866
-0.2782905698 -0.1102095246 0.5498037934 4292468452
-0.2783382535 -0.1096174344 0.5498980284 4292731624
-0.2788304090 -0.1091992036 0.5508703589 4293323761
-0.2788777053 -0.1086055562 0.5509637594 4293850103
-0.2789247334 -0.1080116183 0.5510566831 4293981689
-0.2789715528 -0.1074173748 0.5511491299 4293916666
