VERSION 0.7
FIELDS x y z rgba
SIZE 4 4 4 4
TYPE F F F U
COUNT 1 1 1 1
WIDTH 920
HEIGHT 1
VIEWPOINT 0.0 0.0 0.0 1.0 0.0 0.0 0.0
POINTS 920
DATA ascii
-0.3659223914 -0.1752896011 0.6998966932 4280229412
-0.3659984469 -0.1745482385 0.7000421882 4280360998
-0.3656217158 -0.1735915840 0.6993216276 4280295205
-0.3656971157 -0.1728502214 0.6994658113 4280229412
-0.3639614582 -0.1712563783 0.6961460114 4280229412
-0.3631303310 -0.1700935960 0.6945563555 4280097826
-0.3636571765 -0.1695675552 0.6955640316 4279966240
-0.3655427992 -0.1696699560 0.6991706491 4279834654
-0.3494851291 -0.1443917602 0.6684572697 4280690992
-0.3514325321 -0.1437026560 0.6721820831 4280756015
-0.3533169031 -0.1437223256 0.6757862568 4280164132
-0.3552016020 -0.1437341422 0.6793911457 4279045651
-0.3570866883 -0.1437380910 0.6829966903 4279308823
-0.3585165441 -0.1435517520 0.6857315898 4280558890
-0.3604021966 -0.1435408741 0.6893382668 4279703581
-0.3604653776 -0.1428000033 0.6894590855 4279243030
-0.3609840274 -0.1422383338 0.6904511452 4279177237
-0.3610466719 -0.1414957345 0.6905709505 4279243030
-0.3611090183 -0.1407527626 0.6906901598 4279571995
-0.3602589965 -0.1396558434 0.6890643835 4279637788
-0.3598644733 -0.1387381405 0.6883097291 4279505689
-0.3549076617 -0.1360729188 0.6788288951 4279439896
-0.3586177528 -0.1367332786 0.6859251857 4279308310
-0.3577654064 -0.1356479973 0.6842949390 4279110931
-0.3578253090 -0.1349102706 0.6844094396 4278979345
-0.3565154076 -0.1336587667 0.6819040179 4279242517
-0.3561178744 -0.1327529252 0.6811437011 4279768861
-0.3552632630 -0.1316793561 0.6795090437 4280163619
-0.3553214669 -0.1309458315 0.6796203852 4280097826
-0.3549225628 -0.1300445646 0.6788573861 4279703068
-0.3545232117 -0.1291448325 0.6780935526 4279571482
-0.3541234136 -0.1282466352 0.6773288846 4279900447
-0.3537231684 -0.1273499727 0.6765633225 4280295205
-0.3533224463 -0.1264548451 0.6757968664 4280624170
-0.3538355827 -0.1258865446 0.6767783761 4280426791
-0.3534341156 -0.1249926165 0.6760104895 4279637275
-0.3530322015 -0.1241002381 0.6752417088 4279768860
-0.3526298404 -0.1232094094 0.6744720936 4279900446
-0.3522270024 -0.1223201305 0.6737016439 4279834653
-0.3518237472 -0.1214324087 0.6729303002 4279768860
-0.3518776000 -0.1207032129 0.6730333567 4279769374
-0.3519311547 -0.1199736819 0.6731357574 4279703581
-0.3519844115 -0.1192438155 0.6732376218 4279637788
-0.3511217833 -0.1182053909 0.6715876460 4279769374
-0.3502585590 -0.1171704456 0.6699365973 4279637788
-0.3489368260 -0.1159867570 0.6674085259 4279703581
-0.3485303819 -0.1151109710 0.6666311026 4279769374
-0.3476654291 -0.1140864640 0.6649767160 4279769374
-0.3472580016 -0.1132147983 0.6641974449 4279966753
-0.3459337652 -0.1120479107 0.6616646051 4279900960
-0.3455253541 -0.1111813337 0.6608834267 4279835167
-0.3460331559 -0.1106093600 0.6618546844 4285295986
-0.3456239700 -0.1097440720 0.6610720754 4291811036
-0.3456704021 -0.1975956410 0.6625684500 4288257448
-0.3457544446 -0.1969073266 0.6627295017 4284506988
-0.3453908265 -0.1959646791 0.6620324850 4283125335
-0.3459217250 -0.1955292076 0.6630501151 4281283129
-0.3460049927 -0.1948393881 0.6632097363 4280362027
-0.3460879922 -0.1941490918 0.6633688211 4280558890
-0.3461707532 -0.1934582889 0.6635274887 4281085234
-0.3462532461 -0.1927669793 0.6636856198 4281545271
-0.3467835486 -0.1923236698 0.6647019982 4281347892
-0.3468656242 -0.1916304976 0.6648593545 4281216306
-0.3469474614 -0.1909368187 0.6650162339 4281150513
-0.3470290303 -0.1902426630 0.6651725769 4281150513
-0.3471103609 -0.1895480156 0.6653284431 4281084720
-0.3467428386 -0.1886088848 0.6646240354 4280755755
-0.3468235433 -0.1879141629 0.6647787094 4280360997
-0.3464551866 -0.1869767457 0.6640726328 4280295205
-0.3465352654 -0.1862819642 0.6642261147 4280624170
-0.3457171023 -0.1851058900 0.6626579165 4280689963
-0.3462455273 -0.1846514344 0.6636707783 4280492584
-0.3467738926 -0.1841946989 0.6646835208 4280492584
-0.3468528986 -0.1834979951 0.6648349762 4280492584
-0.3473810554 -0.1830375940 0.6658473015 4280360998
-0.3483586311 -0.1828108132 0.6677210927 4280229412
-0.3493363559 -0.1825799197 0.6695951819 4280163619
-0.3494148254 -0.1818767935 0.6697455645 4280426791
-0.3494929969 -0.1811732054 0.6698954701 4280492584
-0.3491210341 -0.1802368611 0.6691824794 4280295205
-0.3487485945 -0.1793018728 0.6684685946 4279900447
-0.3483756781 -0.1783682257 0.6677538157 4279703068
-0.3489027023 -0.1778950244 0.6687639952 4280097826
-0.3494296670 -0.1774195284 0.6697739959 4280558377
-0.3499565423 -0.1769417524 0.6707838774 4280624170
-0.3500328362 -0.1762348861 0.6709301472 4280558377
-0.3514606357 -0.1762052625 0.6736669540 4280295205
-0.3528887630 -0.1761697084 0.6764042974 4280097826
-0.3543171883 -0.1761282384 0.6791422367 4280295205
-0.3561967909 -0.1763039976 0.6827449799 4280689963
-0.3571749330 -0.1760274917 0.6846199036 4280821549
-0.3581531942 -0.1757468581 0.6864949465 4280755756
-0.3595827222 -0.1756825298 0.6892350316 4280689963
-0.3605612516 -0.1753927618 0.6911106706 4280624170
-0.3615399003 -0.1750988513 0.6929864883 4280426791
-0.3620671928 -0.1745831370 0.6939971447 4280163619
-0.3621428311 -0.1738483757 0.6941421628 4280229412
-0.3622181714 -0.1731131375 0.6942865849 4280295205
-0.3618414998 -0.1721625179 0.6935645342 4280295205
-0.3614643514 -0.1712132692 0.6928416491 4280229412
-0.3606347740 -0.1700523049 0.6912515759 4280163619
-0.3607085943 -0.1693189293 0.6913930774 4279900447
-0.2982533276 -0.1311095208 0.5716810822 4280229925
-0.2978571951 -0.1303010583 0.5709218383 4280229925
-0.2997278869 -0.1304810941 0.5745074749 4280229925
-0.3517492115 -0.1441383362 0.6742200255 4280690222
-0.3499943018 -0.1426738501 0.6708562970 4280295718
-0.3536938727 -0.1434287280 0.6779475212 4279440409
-0.3555756509 -0.1434345692 0.6815544367 4279243030
-0.3565482199 -0.1430675685 0.6834186316 4280624683
-0.3579756916 -0.1428779662 0.6861547232 4279769374
-0.3589483798 -0.1425017565 0.6880191565 4279243030
-0.3599210680 -0.1421214044 0.6898835897 4279177237
-0.3599835932 -0.1413794458 0.6900033951 4279308823
-0.3600457907 -0.1406370997 0.6901226044 4279769374
-0.3601076901 -0.1398943812 0.6902412772 4279703581
-0.3597139418 -0.1389753520 0.6894865632 4279505689
-0.3584089279 -0.1377078593 0.6869851351 4279374103
-0.3566476405 -0.1362715960 0.6836091876 4279242517
-0.3557965755 -0.1351886839 0.6819778681 4279110931
-0.3549448848 -0.1341091692 0.6803454161 4279045138
-0.3540925980 -0.1330330521 0.6787117720 4279242517
-0.3527838886 -0.1317900568 0.6762033105 4279703068
-0.3523861766 -0.1308910251 0.6754409671 4280097826
-0.3528999090 -0.1303302795 0.6764256358 4280032033
-0.3525014222 -0.1294324100 0.6756618619 4279703068
-0.3525586128 -0.1287025809 0.6757714748 4279505689
-0.3526154757 -0.1279723793 0.6758804917 4279834654
-0.3522157967 -0.1270772368 0.6751143932 4280163619
-0.3522719741 -0.1263472736 0.6752220392 4280426791
-0.3523278534 -0.1256169826 0.6753291488 4280360998
-0.3519269526 -0.1247245669 0.6745607257 4279834654
-0.3515256047 -0.1238337010 0.6737914681 4279834653
-0.3511238396 -0.1229443848 0.6730213761 4279834653
-0.3511782587 -0.1222155541 0.6731256843 4279703067
-0.3507756591 -0.1213284060 0.6723539829 4279768860
-0.3508293927 -0.1205998510 0.6724569798 4279769374
-0.3508828580 -0.1198709607 0.6725594401 4279769374
-0.3504790366 -0.1189865991 0.6717854142 4279769374
-0.3496177495 -0.1179496348 0.6701345444 4279835167
-0.3496700525 -0.1172225997 0.6702347994 4279637788
-0.3469791412 -0.1155815572 0.6650769711 4279835167
-0.3484021127 -0.1153135747 0.6678044200 4279571995
-0.3475387096 -0.1142876744 0.6661494970 4279835167
-0.3462173939 -0.1131158322 0.6636168361 4279769374
-0.3453527689 -0.1120978668 0.6619595885 4279900960
-0.3449451029 -0.1112309173 0.6611781716 4280822062
-0.3454520702 -0.1106586978 0.6621499062 4285098607
-0.3455012441 -0.1099386588 0.6622442007 4291613657
-0.3437420428 -0.1969125271 0.6602778435 4288060069
-0.3442721963 -0.1964814812 0.6612961888 4284835951
-0.3443556726 -0.1957941949 0.6614565849 4283322712
-0.3444389105 -0.1951064169 0.6616164446 4282006336
-0.3445218801 -0.1944181323 0.6617758274 4281282613
-0.3446046114 -0.1937293559 0.6619347334 4281151027
-0.3446870744 -0.1930400878 0.6620931625 4281019441
-0.3447692990 -0.1923503280 0.6622510552 4281413685
-0.3448512554 -0.1916600764 0.6624085307 4281282099
-0.3453803360 -0.1912170202 0.6634247899 4281018927
-0.3454619050 -0.1905248761 0.6635814309 4280953134
-0.3455432057 -0.1898322552 0.6637375951 4280953134
-0.3456242383 -0.1891391426 0.6638932824 4280689962
-0.3457050025 -0.1884455383 0.6640484333 4280032033
-0.3457855284 -0.1877514571 0.6642031074 4279571482
-0.3458657861 -0.1870568842 0.6643572450 4279768861
-0.3454976678 -0.1861204356 0.6636501551 4280426791
-0.3446808755 -0.1849447936 0.6620811820 4280689963
-0.3452083468 -0.1844910830 0.6630944610 4280558377
-0.3457357883 -0.1840350926 0.6641075611 4280558377
-0.3458146453 -0.1833390296 0.6642590165 4280558377
-0.3463418484 -0.1828793734 0.6652716994 4280426791
-0.3468690217 -0.1824174374 0.6662843227 4280426791
-0.3473961055 -0.1819532216 0.6672967672 4280492584
-0.3470252752 -0.1810183674 0.6665844321 4280295205
-0.3457559049 -0.1796183139 0.6641461849 4280229412
-0.3449347913 -0.1784555912 0.6625689268 4280295205
-0.3441130221 -0.1772960275 0.6609904170 4280558377
-0.3441892266 -0.1766007245 0.6611368656 4280689963
-0.3447146416 -0.1761346161 0.6621460915 4280755756
-0.3452399671 -0.1756662279 0.6631551385 4280689963
-0.3453155756 -0.1749677211 0.6633003950 4280360998
-0.3462904096 -0.1747225970 0.6651728749 4279966240
-0.3477151692 -0.1746993810 0.6679096222 4279768861
-0.3495901525 -0.1748953164 0.6715112329 4280032033
-0.3519156873 -0.1753076911 0.6759782434 4280426791
-0.3533416688 -0.1752639413 0.6787173152 4280755756
-0.3547679484 -0.1752142608 0.6814570427 4280821549
-0.3557442427 -0.1749371886 0.6833322644 4280624170
-0.3571709991 -0.1748765409 0.6860729456 4280689963
-0.3576970696 -0.1743707061 0.6870834231 4280624170
-0.3582230508 -0.1738625914 0.6880937815 4280492584
-0.3591996431 -0.1735699624 0.6899695992 4280295205
-0.3606270850 -0.1734900773 0.6927115321 4280229412
-0.3602513075 -0.1725404412 0.6919897199 4280229412
-0.2968434691 -0.1307681650 0.5701926351 4280032546
-0.2979193628 -0.1293346435 0.5722591877 4280361257
-0.3466177583 -0.1423386186 0.6658016443 4280624429
-0.3516716063 -0.1436634511 0.6755093932 4280229925
-0.3535499871 -0.1436762512 0.6791175008 4279637788
-0.3499815464 -0.1414791644 0.6722630262 4279308310
-0.3550377488 -0.1427654028 0.6819752455 4280624170
-0.3564626873 -0.1425776184 0.6847123504 4279900447
-0.3574336171 -0.1422031373 0.6865773797 4279374103
-0.3579503298 -0.1416447610 0.6875698566 4279242517
-0.3584668636 -0.1410841346 0.6885620952 4279374103
-0.3585288823 -0.1403433532 0.6886811852 4279900447
-0.3585905731 -0.1396021992 0.6887996793 4279768861
-0.3572882712 -0.1383326799 0.6862981319 4279571482
-0.3555305600 -0.1368933618 0.6829218268 4279439896
-0.3524077535 -0.1349388510 0.6769233942 4279176724
-0.3515575528 -0.1338630021 0.6752902865 4279110931
-0.3507067561 -0.1327905655 0.6736560464 4279110931
-0.3498553336 -0.1317215264 0.6720206141 4279242517
-0.3494583368 -0.1308262497 0.6712580323 4279571482
-0.3499711156 -0.1302713007 0.6722429991 4279900447
-0.3500285447 -0.1295456439 0.6723532677 4279966240
-0.3505409062 -0.1289871484 0.6733375192 4279703068
-0.3510531485 -0.1284264028 0.6743214130 4279571482
-0.3515652120 -0.1278634220 0.6753050089 4279703068
-0.3511661887 -0.1269688457 0.6745385528 4279900447
-0.3512222469 -0.1262395233 0.6746461987 4280097826
-0.3512780070 -0.1255098730 0.6747533083 4280229412
-0.3508777618 -0.1246180236 0.6739845276 4279966240
-0.3504770696 -0.1237277240 0.6732148528 4279900446
-0.3500759602 -0.1228389814 0.6724443436 4279768860
-0.3501302600 -0.1221107915 0.6725487113 4279834653
-0.3501842916 -0.1213822663 0.6726524234 4279900446
-0.3498352766 -0.1197680533 0.6719820499 4279835167
-0.3498882949 -0.1190394759 0.6720839143 4279769374
-0.3494847715 -0.1181563064 0.6713087559 4279703581
-0.3490808010 -0.1172747239 0.6705328226 4279571995
-0.3491327465 -0.1165470555 0.6706326008 4279703581
-0.3482715189 -0.1155162752 0.6689782739 4279440409
-0.3478662074 -0.1146394238 0.6681997776 4279703581
-0.3456341028 -0.1131661832 0.6639122367 4279571995
-0.3452276587 -0.1122963205 0.6631315351 4279440409
-0.3448207676 -0.1114280447 0.6623499393 4280624683
-0.3448702097 -0.1107079983 0.6624448895 4285098607
-0.3449193537 -0.1099876463 0.6625393033 4291482071
-0.3422631621 -0.1964845359 0.6588427424 4287665311
-0.3423464894 -0.1958001703 0.6590031385 4284572781
-0.3428754508 -0.1953693777 0.6600213647 4283191128
-0.3429583907 -0.1946831197 0.6601810455 4282335047
-0.3425950110 -0.1937441081 0.6594815254 4281677117
-0.3426773250 -0.1930577606 0.6596400142 4281282613
-0.3427594006 -0.1923709214 0.6597980261 4280887855
-0.3432876468 -0.1919331700 0.6608148217 4281479478
-0.3433693349 -0.1912444532 0.6609720588 4281413685
-0.3438973725 -0.1908030361 0.6619884968 4281084720
-0.3439786434 -0.1901124418 0.6621449590 4280887341
-0.3440596461 -0.1894213557 0.6623009443 4280755756
-0.3441404104 -0.1887297779 0.6624563932 4280229412
-0.3442209065 -0.1880377233 0.6626113057 4279505689
-0.3447482884 -0.1875884682 0.6636265516 4279110931
-0.3448283970 -0.1868945509 0.6637806892 4279637275
-0.3449082077 -0.1862001270 0.6639343500 4280360998
-0.3440928757 -0.1850240380 0.6623648405 4280755756
-0.3441719711 -0.1843304634 0.6625171304 4280689963
-0.3446984589 -0.1838752180 0.6635305882 4280624170
-0.3452249169 -0.1834176779 0.6645439863 4280558377
-0.3453034163 -0.1827208698 0.6646951437 4280426791
-0.3458296657 -0.1822596788 0.6657080650 4280426791
-0.3459077477 -0.1815610230 0.6658583879 4280492584
-0.3450892270 -0.1803933382 0.6642827988 4280558377
-0.3429252505 -0.1785286814 0.6601172686 4280624170
-0.3412083685 -0.1769051105 0.6568123102 4280426791
-0.3403873742 -0.1757514328 0.6552318931 4280032033
-0.3404628336 -0.1750622243 0.6553772092 4279768861
-0.3409866989 -0.1746022999 0.6563856602 4279703068
-0.3410617411 -0.1739112735 0.6565300822 4279768861
-0.3415853977 -0.1734477133 0.6575380564 4279834654
-0.3425579369 -0.1732088923 0.6594101787 4279439896
-0.3439796567 -0.1731920689 0.6621469259 4279505689
-0.3462999761 -0.1736196876 0.6666134596 4280032033
-0.3490702808 -0.1742620170 0.6719461679 4280492584
-0.3509427905 -0.1744462103 0.6755506396 4280755756
-0.3523663282 -0.1744001955 0.6782909036 4280821549
-0.3537901640 -0.1743482351 0.6810317039 4280755756
-0.3547646403 -0.1740697026 0.6829075813 4280755756
-0.3552895188 -0.1735673547 0.6839179397 4280558377
-0.3549146354 -0.1726251394 0.6831963062 4280492584
-0.3558890224 -0.1723379046 0.6850720048 4280360998
-0.3577635884 -0.1724804789 0.6886804104 4280229412
-0.3510864675 -0.1685105115 0.6758272648 4280163619
-0.2954360545 -0.1304264069 0.5687024593 4280097826
-0.2950410247 -0.1296209842 0.5679420829 4280295205
-0.2950975001 -0.1290146559 0.5680507421 4280360998
-0.3414390981 -0.1412420422 0.6572564244 4280755758
-0.3442184031 -0.1416555494 0.6626065373 4280689965
-0.3469984233 -0.1420574486 0.6679579020 4280229412
-0.3515914381 -0.1431858093 0.6767992973 4279637275
-0.3534668088 -0.1431935728 0.6804093122 4279242517
-0.3544360399 -0.1428281516 0.6822750568 4280492584
-0.3517786860 -0.1410049498 0.6771597862 4279834654
-0.3554677367 -0.1417233795 0.6842610240 4279374103
-0.3564368784 -0.1413474381 0.6861265898 4279176724
-0.3569524586 -0.1407884508 0.6871190071 4279308310
-0.3570142388 -0.1400492489 0.6872379780 4279834654
-0.3566220105 -0.1391326636 0.6864829659 4279900447
-0.3553217351 -0.1378654093 0.6839799881 4279637275
-0.3535668254 -0.1364283115 0.6806018353 4279505689
-0.3513570130 -0.1348241568 0.6763480306 4279242517
-0.3496001959 -0.1334023029 0.6729662418 4279110931
-0.3487506509 -0.1323322356 0.6713308692 4279176724
-0.3479005098 -0.1312655807 0.6696944237 4279308310
-0.3475040197 -0.1303727478 0.6689311862 4279439896
-0.3471070826 -0.1294814497 0.6681670547 4279703068
-0.3476184905 -0.1289287359 0.6691515446 4279834654
-0.3476752639 -0.1282062083 0.6692608595 4279768861
-0.3481863141 -0.1276499629 0.6702445745 4279637275
-0.3491518199 -0.1272571832 0.6721031070 4279637275
-0.3496626318 -0.1266954988 0.6730864048 4279637275
-0.3492637277 -0.1258039773 0.6723185182 4279768861
-0.3493192196 -0.1250768453 0.6724253893 4280032033
-0.3493744135 -0.1243493855 0.6725316048 4280032033
-0.3494292796 -0.1236215681 0.6726372838 4280032032
-0.3490288258 -0.1227333993 0.6718663573 4279834653
-0.3490830362 -0.1220058501 0.6719707251 4279834653
-0.3491369188 -0.1212779656 0.6720744371 4279900446
-0.3491905034 -0.1205497459 0.6721776128 4279637788
-0.3487884700 -0.1196649671 0.6714037061 4279571995
-0.3488413692 -0.1189370304 0.6715055108 4279571995
-0.3484385014 -0.1180544421 0.6707299948 4279506202
-0.3484907150 -0.1173267961 0.6708305478 4279506202
-0.3480870426 -0.1164464056 0.6700534821 4279440409
-0.3472272158 -0.1154161319 0.6683983803 4279374616
-0.3463668227 -0.1143893450 0.6667421460 4279440409
-0.3455058634 -0.1133660525 0.6650848389 4279637788
-0.3441884518 -0.1121976525 0.6625488400 4279374616
-0.3437822461 -0.1113299578 0.6617668867 4280361511
-0.3438315690 -0.1106105670 0.6618618965 4285822330
-0.3438806236 -0.1098908558 0.6619563103 4291350485
-0.3398967981 -0.1955441386 0.6556894779 4287599518
-0.3404246271 -0.1951181442 0.6567077041 4284704367
-0.3405073285 -0.1944357157 0.6568672061 4282993749
-0.3410349786 -0.1940060556 0.6578850746 4282335047
-0.3411172628 -0.1933217496 0.6580438614 4281742910
-0.3411993086 -0.1926369369 0.6582021117 4281413945
-0.3408355713 -0.1917010397 0.6575004458 4281019187
-0.3413626552 -0.1912658364 0.6585171819 4281282099
-0.3414439559 -0.1905795485 0.6586740017 4281216306
-0.3419708312 -0.1901406646 0.6596904397 4281018928
-0.3424976766 -0.1896995157 0.6607067585 4280821549
-0.3425784111 -0.1890099645 0.6608625054 4280689963
-0.3431050777 -0.1885651350 0.6618784666 4280295205
-0.3431853950 -0.1878737211 0.6620334387 4279834654
-0.3437118530 -0.1874252260 0.6630489826 4279637275
-0.3442382514 -0.1869744360 0.6640644670 4279966240
-0.3443180025 -0.1862797588 0.6642183065 4280558377
-0.3443974853 -0.1855846047 0.6643716693 4280821549
-0.3440299332 -0.1846491694 0.6636626124 4280755756
-0.3441088200 -0.1839539558 0.6638147831 4280821549
-0.3446344137 -0.1834962666 0.6648287177 4280624170
-0.3447128832 -0.1827991903 0.6649800539 4280426791
-0.3447910547 -0.1821016520 0.6651309133 4280426791
-0.3448689878 -0.1814036369 0.6652812362 4280558377
-0.3440518379 -0.1802363843 0.6637048721 4280624170
-0.3414440155 -0.1781384051 0.6586741805 4280689963
-0.3392823339 -0.1762834191 0.6545041203 4280492584
-0.3384625018 -0.1751320064 0.6529225707 4280097826
-0.3385376334 -0.1744452566 0.6530674696 4280032033
-0.3386124671 -0.1737580597 0.6532118320 4280097826
-0.3391350508 -0.1732993424 0.6542199850 4280097826
-0.3396575749 -0.1728383452 0.6552279592 4279768861
-0.3406282067 -0.1726021767 0.6571003795 4279439896
-0.3420472741 -0.1725881100 0.6598378420 4279374103
-0.3448117971 -0.1732439846 0.6651709080 4279768861
-0.3475772440 -0.1738884449 0.6705057025 4280229412
-0.3489978313 -0.1738511175 0.6732460856 4280624170
-0.3504187167 -0.1738078445 0.6759871244 4280755756
-0.3513911068 -0.1735370010 0.6778629422 4280755756
-0.3523636460 -0.1732620448 0.6797389984 4280558377
-0.3524383307 -0.1725433767 0.6798830628 4280360998
-0.3525127172 -0.1718242466 0.6800266504 4280360998
-0.3525868356 -0.1711046547 0.6801696420 4280295205
-0.3535591960 -0.1708187163 0.6820453405 4280163619
-0.3531835973 -0.1698802561 0.6813207865 4280032033
-0.2966219187 -0.1325020194 0.5722085834 4279571995
-0.2949329913 -0.1304832846 0.5689504743 4280163619
-0.2940876186 -0.1294789463 0.5673196912 4280295205
-0.2936928272 -0.1286756396 0.5665581226 4280426791
-0.2955537438 -0.1288574934 0.5701479912 4280427050
-0.2974151075 -0.1290315539 0.5737386942 4280492843
-0.2983741164 -0.1288080961 0.5755887032 4280624429
-0.3367898166 -0.1396172792 0.6496958137 4280756015
-0.3445373476 -0.1420905888 0.6646414399 4280756015
-0.3423383236 -0.1404499263 0.6603993177 4280295205
-0.3473751545 -0.1417718381 0.6701158285 4279637275
-0.3492467403 -0.1417871118 0.6737263203 4279242517
-0.3524761200 -0.1423426867 0.6799560189 4280426791
-0.3538960814 -0.1421575993 0.6826952100 4279834654
-0.3544109762 -0.1416047961 0.6836884618 4279439896
-0.3553784192 -0.1412296444 0.6855548024 4279242517
-0.3549875021 -0.1403134316 0.6848006845 4279308310
-0.3550490141 -0.1395767480 0.6849193573 4279637275
-0.3532984257 -0.1381313205 0.6815423369 4279834654
-0.3510939181 -0.1365168840 0.6772896051 4279637275
-0.3497945070 -0.1352618933 0.6747829318 4279505689
-0.3489475250 -0.1341864616 0.6731490493 4279308310
-0.3467401564 -0.1325944513 0.6688908339 4279308310
-0.3458917439 -0.1315286309 0.6672541499 4279308310
-0.3450427055 -0.1304662377 0.6656163335 4279374103
-0.3446465433 -0.1295777559 0.6648521423 4279505689
-0.3451570868 -0.1290298998 0.6658369899 4279571482
-0.3452138305 -0.1283112019 0.6659464240 4279571482
-0.3457239866 -0.1277598143 0.6669305563 4279637275
-0.3462339640 -0.1272061765 0.6679143906 4279637275
-0.3467438221 -0.1266503036 0.6688979268 4279571482
-0.3472535014 -0.1260921806 0.6698811650 4279637275
-0.3473090529 -0.1253679395 0.6699882746 4279834654
-0.3469102085 -0.1244804189 0.6692188978 4280097826
-0.3474192023 -0.1239184216 0.6702008247 4280097826
-0.3474738300 -0.1231931522 0.6703062057 4279900446
-0.3470738828 -0.1223074496 0.6695346236 4279703067
-0.3471278250 -0.1215824410 0.6696386933 4279703067
-0.3476358950 -0.1210152879 0.6706188321 4279637274
-0.3476893008 -0.1202886626 0.6707218289 4279308823
-0.3481969833 -0.1197179928 0.6717011929 4279308823
-0.3477952182 -0.1188344061 0.6709261537 4279374616
-0.3478477001 -0.1181067824 0.6710274220 4279374616
-0.3478998840 -0.1173788309 0.6711280942 4279440409
-0.3474969268 -0.1164980680 0.6703507304 4279374616
-0.3457287848 -0.1151642874 0.6669398546 4279308823
-0.3457797170 -0.1144401282 0.6670380831 4279308823
-0.3435551524 -0.1129675135 0.6627467275 4279769374
-0.3426949084 -0.1119501367 0.6610872746 4280164132
-0.3427444696 -0.1112316996 0.6611828208 4281611578
-0.3423384726 -0.1103661954 0.6603996158 4286677639
-0.3419320285 -0.1095022857 0.6596155763 4291284692
-0.3384240568 -0.1951149106 0.6542502046 4287862691
-0.3389508426 -0.1946905702 0.6552685499 4285296250
-0.3390332460 -0.1940096766 0.6554278731 4283256667
-0.3391154110 -0.1933282763 0.6555867195 4282400842
-0.3400864303 -0.1931513697 0.6574639082 4282071877
-0.3392789662 -0.1919640154 0.6559029222 4281808703
-0.3389155865 -0.1910304427 0.6552004218 4281216566
-0.3389966190 -0.1903479844 0.6553571224 4281150514
-0.3395224214 -0.1899139285 0.6563735604 4281084721
-0.3396030664 -0.1892295927 0.6565294266 4280821549
-0.3401286602 -0.1887918711 0.6575455666 4280689963
-0.3406541944 -0.1883518696 0.6585615277 4280558377
-0.3411796987 -0.1879095882 0.6595774293 4280295205
-0.3417051435 -0.1874650270 0.6605932713 4280097826
-0.3422305584 -0.1870181710 0.6616089940 4280032033
-0.3427559137 -0.1865690351 0.6626245975 4280360998
-0.3432812095 -0.1861176193 0.6636401415 4280755756
-0.3438064456 -0.1856639236 0.6646555662 4280755756
-0.3438856304 -0.1849680245 0.6648086309 4280689963
-0.3435184062 -0.1840326339 0.6640986800 4280755756
-0.3435969353 -0.1833366901 0.6642505527 4280624170
-0.3436752260 -0.1826402545 0.6644018888 4280360998
-0.3441996872 -0.1821796447 0.6654157639 4280360998
-0.3438310027 -0.1812459826 0.6647030115 4280360998
-0.3430152237 -0.1800791770 0.6631259918 4280229412
-0.3399651051 -0.1777476668 0.6572294235 4280097826
-0.3378069997 -0.1758937240 0.6530572772 4280032033
-0.3374353647 -0.1749754250 0.6523388624 4280032033
-0.3366162479 -0.1738276333 0.6507552862 4280295205
-0.3371378779 -0.1733728498 0.6517636776 4280295205
-0.3376594186 -0.1729157716 0.6527719498 4280163619
-0.3381808996 -0.1724564284 0.6537801027 4279768861
-0.3391497433 -0.1722220182 0.6556531191 4279505689
-0.3405662477 -0.1722097993 0.6583915353 4279242517
-0.3433259428 -0.1728678048 0.6637266278 4279374103
-0.3460865021 -0.1735144109 0.6690634489 4279834654
-0.3475045264 -0.1734789312 0.6718047857 4280295205
-0.3489228487 -0.1734375060 0.6745467186 4280426791
-0.3494454622 -0.1729466766 0.6755570173 4280360998
-0.3499679863 -0.1724535674 0.6765671968 4280229412
-0.3500422239 -0.1717382818 0.6767107248 4280163619
-0.3501161933 -0.1710225344 0.6768537164 4280229412
-0.3497414887 -0.1700882763 0.6761293411 4280229412
-0.2971304357 -0.1317377388 0.5744202733 4280229412
-0.2953865230 -0.1303300709 0.5710489154 4280229925
-0.2981453836 -0.1309069246 0.5763823986 4280361511
-0.2954995632 -0.1291105002 0.5712674260 4280427050
-0.2978084385 -0.1294796169 0.5757309794 4280492843
-0.2992166281 -0.1294491738 0.5784533620 4280493613
-0.2988222539 -0.1286366880 0.5776909590 4280559406
-0.3011322618 -0.1289842725 0.5821567178 4280690476
-0.3338979781 -0.1394328773 0.6455003023 4280821808
-0.3348614275 -0.1391159296 0.6473627687 4280756015
-0.3380817771 -0.1397276223 0.6535884738 4280690222
-0.3453661203 -0.1419963837 0.6676707864 4280295718
-0.3431704342 -0.1403565109 0.6634260416 4279637788
-0.3477479815 -0.1414817721 0.6722754240 4279177237
-0.3491649032 -0.1413082778 0.6750146747 4280295718
-0.3505820334 -0.1411287487 0.6777542830 4279834654
-0.3519993424 -0.1409432143 0.6804943085 4279505689
-0.3529648781 -0.1405716836 0.6823608875 4279439896
-0.3534784317 -0.1400169432 0.6833536625 4279374103
-0.3535397351 -0.1392818391 0.6834722161 4279439896
-0.3531485498 -0.1383691877 0.6827159524 4279703068
-0.3518524170 -0.1371055692 0.6802102327 4279571482
-0.3446752131 -0.1335685104 0.6663351059 4279439896
-0.3469958007 -0.1337224543 0.6708213091 4279374103
-0.3434345722 -0.1316123754 0.6639366746 4279439896
-0.3425872028 -0.1305517703 0.6622984409 4279439896
-0.3421918452 -0.1296661049 0.6615341902 4279505689
-0.3422487676 -0.1289525330 0.6616441607 4279571482
-0.3427581489 -0.1284082383 0.6626290083 4279571482
-0.3432674110 -0.1278616935 0.6636134982 4279703068
-0.3437765241 -0.1273129135 0.6645976901 4279768861
-0.3442854881 -0.1267618984 0.6655816436 4279637275
-0.3447943032 -0.1262086332 0.6665652990 4279571482
-0.3453029394 -0.1256531328 0.6675485969 4279637275
-0.3453582227 -0.1249314249 0.6676554680 4279834654
-0.3458664715 -0.1243723854 0.6686381102 4280032033
-0.3459212184 -0.1236490458 0.6687439084 4279966240
-0.3459756672 -0.1229253709 0.6688491702 4279703067
-0.3460298181 -0.1222013459 0.6689538360 4279505688
-0.3460836411 -0.1214769855 0.6690579057 4279439895
-0.3465908170 -0.1209105477 0.6700384021 4279374102
-0.3466441333 -0.1201845706 0.6701413989 4279177237
-0.3466971219 -0.1194582507 0.6702438593 4279177237
-0.3462959230 -0.1185761988 0.6694682837 4279308823
-0.3463482559 -0.1178501695 0.6695694327 4279308823
-0.3459462523 -0.1169703081 0.6687923074 4279440409
-0.3455438316 -0.1160920262 0.6680142879 4279571995
-0.3451409638 -0.1152153313 0.6672354341 4279374616
-0.3451918364 -0.1144908592 0.6673338413 4279506202
-0.3438796103 -0.1133169979 0.6647970080 4279835167
-0.3421123624 -0.1119998023 0.6613805294 4280953648
-0.3426162601 -0.1114288419 0.6623546481 4283256403
-0.3417566121 -0.1104151756 0.6606927514 4286743432
-0.3418054283 -0.1096967757 0.6607871652 4291218899
-0.3365103006 -0.1944290251 0.6519502997 4287270553
-0.3370358944 -0.1940072179 0.6529685855 4285625215
-0.3371179104 -0.1933287531 0.6531274915 4283519839
-0.3376433551 -0.1929032654 0.6541454792 4281940807
-0.3377249837 -0.1922229230 0.6543036103 4281875014
-0.3378063440 -0.1915420890 0.6544612646 4281940291
-0.3369994462 -0.1903591454 0.6528979540 4281545533
-0.3370800912 -0.1896791160 0.6530542374 4281545272
-0.3376047313 -0.1892476082 0.6540706158 4281216307
-0.3381293118 -0.1888138205 0.6550869346 4280821549
-0.3408759832 -0.1896138191 0.6604083180 4280624170
-0.3391783535 -0.1879393905 0.6571193337 4280492584
-0.3392581642 -0.1872533411 0.6572740078 4280229412
-0.3397824764 -0.1868113279 0.6582897305 4280032546
-0.3407515585 -0.1866106391 0.6601672769 4280098339
-0.3412758708 -0.1861631572 0.6611830592 4280361511
-0.3418001235 -0.1857133806 0.6621987820 4280427304
-0.3423243463 -0.1852613240 0.6632143855 4280295718
-0.3428485096 -0.1848069876 0.6642298698 4280098339
-0.3429272473 -0.1841112524 0.6643823981 4279966753
-0.3430057168 -0.1834150404 0.6645344496 4279900960
-0.3430839181 -0.1827183515 0.6646859646 4279900960
-0.3431618810 -0.1820211858 0.6648370028 4279900960
-0.3427937925 -0.1810880601 0.6641238928 4279900960
-0.3415335417 -0.1796871126 0.6616822481 4279900960
-0.3389344811 -0.1775901318 0.6566469073 4279900960
-0.3367800713 -0.1757363379 0.6524729133 4279966753
-0.3364090323 -0.1748185903 0.6517541409 4280032546
-0.3355912864 -0.1736712456 0.6501697898 4280098339
-0.3352192342 -0.1727571338 0.6494490504 4280097825
-0.3361861110 -0.1725317538 0.6513222456 4279834653
-0.3367065787 -0.1720740646 0.6523305774 4279637274
-0.3376736343 -0.1718414128 0.6542041302 4279242516
-0.3390875757 -0.1718310416 0.6569434404 4279440149
-0.3418423831 -0.1724911928 0.6622806191 4279571735
-0.3445980847 -0.1731399298 0.6676194668 4279834394
-0.3460135162 -0.1731062829 0.6703617573 4280097566
-0.3474292755 -0.1730667055 0.6731045842 4280294945
-0.3479508758 -0.1725775301 0.6741151214 4280426531
-0.3484723866 -0.1720860749 0.6751254797 4280032033
-0.3480989337 -0.1711523533 0.6744019389 4280032033
-0.3477250338 -0.1702200025 0.6736775637 4280032033
-0.3469030261 -0.1690708846 0.6720850468 4280032033
-0.2948237062 -0.1309962869 0.5711873174 4280361511
-0.2980271578 -0.1317781061 0.5773935914 4280229671
-0.2953867316 -0.1299747527 0.5722780824 4280361257
-0.2967922390 -0.1299543232 0.5750010610 4280492843
-0.2963989079 -0.1291440874 0.5742390752 4280492843
-0.2991541624 -0.1297006309 0.5795770288 4280689965
-0.3001103997 -0.1294692010 0.5814296603 4280689965
-0.3320358694 -0.1382388920 0.6432815790 4280821551
-0.3361515701 -0.1392288208 0.6512553096 4281018930
-0.3393670917 -0.1398301274 0.6574850082 4280492584
-0.3452880681 -0.1415265054 0.6689562201 4279505689
-0.3476040661 -0.1417275369 0.6734431982 4278979345
-0.3485677838 -0.1413701475 0.6753103137 4280755756
-0.3499825299 -0.1411905736 0.6780512333 4279900447
-0.3509463668 -0.1408239752 0.6799185872 4279374103
-0.3515203893 -0.1395409554 0.6810306311 4279308310
-0.3520327210 -0.1389865577 0.6820232272 4279505689
-0.3511907160 -0.1378981620 0.6803919077 4279571482
-0.3498966098 -0.1366368383 0.6778847575 4279637015
-0.3472470641 -0.1348547041 0.6727515459 4279439636
-0.3450479507 -0.1332579255 0.6684910059 4279505429
-0.3428477645 -0.1316702068 0.6642283797 4279637015
-0.3415500820 -0.1304366291 0.6617143154 4279505942
-0.3407035172 -0.1293799430 0.6600741744 4279505942
-0.3398563564 -0.1283266693 0.6584329009 4279637274
-0.3399126232 -0.1276162267 0.6585419774 4279703067
-0.3404206932 -0.1270741969 0.6595262885 4279703067
-0.3409286141 -0.1265299171 0.6605103016 4279703067
-0.3414363861 -0.1259834021 0.6614940763 4279440408
-0.3419440091 -0.1254346520 0.6624774933 4279308822
-0.3424514830 -0.1248836443 0.6634606719 4279440408
-0.3429588079 -0.1243304089 0.6644435525 4279506201
-0.3439184725 -0.1239380091 0.6663028002 4279440409
-0.3444255590 -0.1233793423 0.6672852039 4279440409
-0.3444797993 -0.1226572543 0.6673903465 4279177237
-0.3445337713 -0.1219348311 0.6674948335 4279177237
-0.3450402319 -0.1213713512 0.6684760451 4279045137
-0.3450936377 -0.1206472963 0.6685795188 4279110930
-0.3451467454 -0.1199229136 0.6686824560 4279308309
-0.3451995552 -0.1191981956 0.6687847376 4279176723
-0.3452520669 -0.1184731424 0.6688864827 4279045651
-0.3453042805 -0.1177477613 0.6689876318 4279308823
-0.3444497287 -0.1167149097 0.6673319936 4278980372
-0.3445011675 -0.1159907803 0.6674317122 4279177751
-0.3445523083 -0.1152663305 0.6675307751 4279308822
-0.3446031511 -0.1145415530 0.6676293015 4279440408
-0.3442002237 -0.1136666983 0.6668486595 4279703580
-0.3433432579 -0.1126446351 0.6651883721 4281151026
-0.3397639990 -0.1107389778 0.6582539678 4283980640
-0.3407202661 -0.1103172302 0.6601066589 4287796634
-0.3403152525 -0.1094535366 0.6593219638 4291284692
-0.3346003890 -0.1937424093 0.6496479511 4287073174
-0.3351248205 -0.1933231354 0.6506662369 4285493629
-0.3352064490 -0.1926470995 0.6508246660 4283783011
-0.3352878094 -0.1919705719 0.6509826183 4282270026
-0.3353689313 -0.1912935525 0.6511401534 4281941061
-0.3358929157 -0.1908678412 0.6521574855 4281743682
-0.3359736502 -0.1901889592 0.6523142457 4281283131
-0.3360541165 -0.1895095706 0.6524704695 4281348406
-0.3361343443 -0.1888296902 0.6526262760 4281414199
-0.3366578817 -0.1883975565 0.6536427140 4281348406
-0.3371813893 -0.1879631430 0.6546591520 4281151027
-0.3377048373 -0.1875264347 0.6556754708 4280887855
-0.3382282257 -0.1870874465 0.6566916704 4280493097
-0.3391955793 -0.1868907958 0.6585698128 4280229925
-0.3397189975 -0.1864463538 0.6595860720 4280032546
-0.3406865299 -0.1862424314 0.6614646316 4280164132
-0.3420985341 -0.1862763315 0.6642060876 4280098339
-0.3412889242 -0.1850992739 0.6626342535 4280098338
-0.3418121636 -0.1846456826 0.6636500955 4279966752
-0.3418907225 -0.1839505881 0.6638026237 4279834653
-0.3419690132 -0.1832550168 0.6639546752 4279703067
-0.3420470655 -0.1825589687 0.6641061902 4279768860
-0.3421248496 -0.1818624437 0.6642572284 4279900446
-0.3417573869 -0.1809298694 0.6635437012 4279835167
-0.3409443498 -0.1797639430 0.6619651914 4279966753
-0.3379046619 -0.1774323285 0.6560634375 4280032546
-0.3361991942 -0.1758115441 0.6527521610 4280098339
-0.3358288705 -0.1748934388 0.6520331502 4280229925
-0.3354580998 -0.1739766896 0.6513132453 4280229925
-0.3346412480 -0.1728311628 0.6497273445 4280098339
-0.3347151577 -0.1721472740 0.6498708129 4279966753
-0.3356803656 -0.1719195545 0.6517448425 4279768860
-0.3366457224 -0.1716877520 0.6536191106 4279703067
-0.3376111984 -0.1714518368 0.6554936767 4279834653
-0.3399150372 -0.1718885452 0.6599667072 4279834653
-0.3426657915 -0.1725403368 0.6653074622 4279834653
-0.3440785706 -0.1725094616 0.6680504680 4279900446
-0.3454916477 -0.1724726409 0.6707940698 4280097825
-0.3451191783 -0.1715421975 0.6700708866 4280229411
-0.3456393778 -0.1710551381 0.6710808873 4280163619
-0.3448195159 -0.1699055433 0.6694890857 4280295205
-0.3444457352 -0.1689783335 0.6687633991 4280295205
-0.2949356735 -0.1294198930 0.5726364255 4280427050
-0.3000442088 -0.1297197789 0.5825549364 4280689965
-0.3282578588 -0.1376688033 0.6373335719 4280887344
-0.3346142769 -0.1396128088 0.6496749520 4280887344
-0.3337754011 -0.1385427564 0.6480461955 4280821551
-0.3378849626 -0.1395196617 0.6560251713 4280163619
-0.3410956860 -0.1401096284 0.6622590423 4279439896
-0.3443072736 -0.1406860799 0.6684945226 4279439896
-0.3466193974 -0.1408830881 0.6729836464 4280558377
-0.3475812972 -0.1405242383 0.6748512387 4279768861
-0.3485432267 -0.1401612610 0.6767188907 4279571482
-0.3495051861 -0.1397941411 0.6785865426 4279505689
-0.3500166833 -0.1392436624 0.6795796752 4279439896
-0.3505280316 -0.1386909187 0.6805725098 4279571482
-0.3501379788 -0.1377812773 0.6798152328 4279637275
-0.3483953774 -0.1363439858 0.6764318347 4279703067
-0.3462010622 -0.1347384155 0.6721714139 4279505688
-0.3435547948 -0.1329673976 0.6670335531 4279439895
-0.3409073651 -0.1312073320 0.6618933678 4279439895
-0.3382586837 -0.1294582188 0.6567507982 4279374102
-0.3369621038 -0.1282350868 0.6542333961 4279374102
-0.3365670741 -0.1273587048 0.6534664035 4279439895
-0.3370741010 -0.1268234253 0.6544508338 4279571481
-0.3371296525 -0.1261170655 0.6545587182 4279835166
-0.3371849060 -0.1254103631 0.6546660066 4279703580
-0.3376913369 -0.1248702481 0.6556493044 4279374616
-0.3381976485 -0.1243278980 0.6566322446 4279243030
-0.3391553760 -0.1239483505 0.6584917903 4279506202
-0.3405647874 -0.1237287670 0.6612282395 4279637788
-0.3415226042 -0.1233400032 0.6630879045 4279506202
-0.3424803913 -0.1229471043 0.6649475098 4279308823
-0.3429862857 -0.1223888174 0.6659297347 4279308309
-0.3430400491 -0.1216679886 0.6660341024 4279045137
-0.3430935144 -0.1209468246 0.6661379337 4279045137
-0.3435987830 -0.1203837246 0.6671189070 4279110930
-0.3436517119 -0.1196609363 0.6672216654 4279110930
-0.3437043130 -0.1189378127 0.6673238873 4279308309
-0.3433043361 -0.1180588230 0.6665472388 4279308823
-0.3438086808 -0.1174905822 0.6675264239 4279111444
-0.3425030410 -0.1163055599 0.6649914980 4279111444
-0.3425542414 -0.1155839860 0.6650909185 4279045651
-0.3426051438 -0.1148620844 0.6651897430 4279571995
-0.3422031105 -0.1139890850 0.6644091606 4279835167
-0.3418006301 -0.1131176800 0.6636276841 4279703581
-0.3413977027 -0.1122478694 0.6628453732 4281743164
-0.3405415118 -0.1112317368 0.6611829996 4285230709
-0.3396847248 -0.1102191135 0.6595195532 4288651945
-0.3392803669 -0.1093560085 0.6587344408 4291218899
-0.3326943219 -0.1930550635 0.6473432183 4286875795
-0.3332176208 -0.1926383376 0.6483613849 4285230968
-0.3337408602 -0.1922193319 0.6493794918 4283915108
-0.3333798051 -0.1912906468 0.6486769319 4282664784
-0.3334605098 -0.1906160563 0.6488340497 4282138440
-0.3335410058 -0.1899409890 0.6489906311 4281875268
-0.3340637088 -0.1895164400 0.6500076652 4281283131
-0.3341437876 -0.1888394952 0.6501634717 4281413945
-0.3346663117 -0.1884112954 0.6511802077 4281216566
-0.3351887763 -0.1879808009 0.6521968246 4281084980
-0.3352683485 -0.1873006076 0.6523516178 4281019187
-0.3357906342 -0.1868664622 0.6533678770 4281216820
-0.3367559910 -0.1866756529 0.6552461982 4281414199
-0.3377214968 -0.1864807606 0.6571248770 4281216820
-0.3386871815 -0.1862817705 0.6590038538 4280690476
-0.3396530151 -0.1860787123 0.6608831286 4280229925
-0.3401755095 -0.1856295317 0.6618997455 4279966753
-0.3406979442 -0.1851780713 0.6629163027 4279900959
-0.3407765925 -0.1844840944 0.6630693078 4279900959
-0.3408549726 -0.1837896556 0.6632218957 4279900446
-0.3409331143 -0.1830947250 0.6633738875 4279768860
-0.3405669630 -0.1821618229 0.6626614332 4279834653
-0.3406444788 -0.1814668477 0.6628122926 4280032032
-0.3407217264 -0.1807714105 0.6629626155 4280032292
-0.3403543830 -0.1798407137 0.6622478366 4280098085
-0.3377644718 -0.1777420044 0.6572084427 4280098339
-0.3360621333 -0.1761196554 0.6538960934 4280098339
-0.3352479637 -0.1749682277 0.6523119807 4280164132
-0.3348779082 -0.1740511060 0.6515918970 4280098339
-0.3345073760 -0.1731353700 0.6508709192 4279966753
-0.3341363668 -0.1722209901 0.6501490474 4279966753
-0.3346549571 -0.1717647910 0.6511581540 4279769374
-0.3356186152 -0.1715338230 0.6530331373 4279900960
-0.3365823925 -0.1712987572 0.6549084187 4279900960
-0.3379915953 -0.1712852567 0.6576504111 4279835167
-0.3398465216 -0.1714905798 0.6612596512 4279769374
-0.3417019546 -0.1716881394 0.6648699045 4279900960
-0.3426666856 -0.1714320630 0.6667470336 4280229924
-0.3422944546 -0.1705058366 0.6660227180 4280427303
-0.3414759636 -0.1693598926 0.6644301414 4280492584
-0.3411026895 -0.1684373468 0.6637038589 4280558377
-0.2960492671 -0.1321093738 0.5760407448 4280361511
-0.2974503636 -0.1320915371 0.5787668824 4280295718
-0.2957153320 -0.1306817383 0.5753909349 4280295718
-0.2957719266 -0.1300673336 0.5755010843 4280361257
-0.2958282530 -0.1294525564 0.5756106973 4280492843
-0.2972292900 -0.1294230670 0.5783367753 4280689965
-0.3031714857 -0.1306996495 0.5898988247 4280689965
-0.3258373737 -0.1376534104 0.6340011954 4280887344
-0.3263460696 -0.1371628046 0.6349910498 4280953137
-0.3295485377 -0.1377963424 0.6412222385 4280953137
-0.3358952403 -0.1397239715 0.6535714269 4280689965
-0.3364051580 -0.1392088085 0.6545636058 4280295205
-0.3396102786 -0.1398009360 0.6607999206 4280097826
-0.3432655036 -0.1405635178 0.6679121852 4280755756
-0.3460229933 -0.1409446150 0.6732775569 4280821549
-0.3469833136 -0.1405856460 0.6751461029 4279966240
-0.3479436338 -0.1402225196 0.6770146489 4279703068
-0.3484543562 -0.1396750361 0.6780084372 4279439896
-0.3489649594 -0.1391252875 0.6790019274 4279374103
-0.3490256369 -0.1383949220 0.6791200042 4279505689
-0.3486361504 -0.1374867857 0.6783621311 4279505689
-0.3473463655 -0.1362272203 0.6758525372 4279440409
-0.3447057903 -0.1344463974 0.6707146168 4279440409
-0.3420639932 -0.1326765120 0.6655743122 4279374616
-0.3394210041 -0.1309175789 0.6604316831 4279440409
-0.3354260623 -0.1286515445 0.6526585221 4279440409
-0.3341313601 -0.1274326295 0.6501393318 4279374616
-0.3337367177 -0.1265605986 0.6493713856 4279374616
-0.3337920606 -0.1258599758 0.6494790912 4279506202
-0.3338471353 -0.1251590103 0.6495862603 4279637788
-0.3339019120 -0.1244576871 0.6496928334 4279703581
-0.3339563906 -0.1237560213 0.6497988701 4279703581
-0.3344613612 -0.1232200786 0.6507813931 4279637788
-0.3358678222 -0.1230121404 0.6535180211 4279571995
-0.3372744322 -0.1227981672 0.6562549472 4279637788
-0.3391321301 -0.1227413788 0.6598696113 4279571995
-0.3400880396 -0.1223521233 0.6617296338 4279308823
-0.3405928314 -0.1217974052 0.6627117991 4279505688
-0.3406462669 -0.1210800782 0.6628157496 4279308309
-0.3411506712 -0.1205218360 0.6637971997 4278979344
-0.3416548967 -0.1199613512 0.6647782922 4279045137
-0.3417075872 -0.1192411184 0.6648808122 4279308309
-0.3417599499 -0.1185205504 0.6649827361 4279308309
-0.3422635496 -0.1179552674 0.6659626365 4279243030
-0.3414121866 -0.1169237718 0.6643060446 4279571995
-0.3405602574 -0.1158957556 0.6626483798 4279046167
-0.3406112194 -0.1151767373 0.6627475619 4279506718
-0.3406618834 -0.1144573987 0.6628461480 4279506718
-0.3398084939 -0.1134360507 0.6611856222 4279901476
-0.3398584127 -0.1127179787 0.6612827778 4281480508
-0.3394560218 -0.1118506640 0.6604998112 4283585884
-0.3390532136 -0.1109849438 0.6597160697 4285823105
-0.3381978273 -0.1099738032 0.6580516696 4288520618
-0.3382462859 -0.1092583090 0.6581459641 4291284692
-0.3312332332 -0.1926234961 0.6458960772 4286744209
-0.3313142955 -0.1919528246 0.6460541487 4285033078
-0.3313950896 -0.1912816614 0.6462117434 4284177769
-0.3314756751 -0.1906100065 0.6463688612 4283125335
-0.3315560222 -0.1899378598 0.6465255022 4282401612
-0.3316361010 -0.1892652214 0.6466816664 4282138440
-0.3317159414 -0.1885921061 0.6468373537 4281612096
-0.3322373331 -0.1881687343 0.6478540897 4281809475
-0.3327586949 -0.1877430677 0.6488707066 4281612096
-0.3332800269 -0.1873151362 0.6498872638 4281283131
-0.3342434168 -0.1871324480 0.6517658830 4280888373
-0.3343225420 -0.1864524186 0.6519201994 4280888371
-0.3352860808 -0.1862633526 0.6537990570 4281283129
-0.3362497985 -0.1860702187 0.6556782126 4281874496
-0.3372136354 -0.1858730018 0.6575577259 4282137668
-0.3381776512 -0.1856716871 0.6594375372 4282006336
-0.3391418457 -0.1854662895 0.6613176465 4281479992
-0.3396633267 -0.1850155741 0.6623345613 4280756269
-0.3397417963 -0.1843222380 0.6624875665 4280295718
-0.3398200274 -0.1836284399 0.6626401544 4280163619
-0.3398979902 -0.1829341650 0.6627921462 4280163619
-0.3395324349 -0.1820017993 0.6620793343 4280295205
-0.3400531411 -0.1815441698 0.6630946994 4280360998
-0.3401303291 -0.1808484644 0.6632452011 4280361511
-0.3397637010 -0.1799174100 0.6625302434 4280361511
-0.3380656242 -0.1782857776 0.6592190862 4280229925
-0.3359227479 -0.1764279008 0.6550405622 4280164132
-0.3351101875 -0.1752750874 0.6534560323 4280164132
-0.3351848722 -0.1745879501 0.6536017060 4280164132
-0.3348152339 -0.1736700237 0.6528809071 4280098339
-0.3335568607 -0.1722946316 0.6504271030 4280098339
-0.3336303532 -0.1716097593 0.6505703926 4279900960
-0.3341479599 -0.1711520553 0.6515797377 4280032546
-0.3355543613 -0.1711454242 0.6543222070 4279966753
-0.3369610906 -0.1711328626 0.6570652723 4279966753
-0.3379234970 -0.1708895117 0.6589419246 4279769374
-0.3384412825 -0.1704181135 0.6599516273 4280098339
-0.3389590085 -0.1699444205 0.6609611511 4280624683
-0.3376969695 -0.1685800254 0.6585001945 4280756269
-0.3355440497 -0.1667782962 0.6543020606 4280689963
-0.2941961884 -0.1315667629 0.5736747980 4280295718
-0.2964890003 -0.1319497675 0.5781457424 4280295718
-0.2938623726 -0.1301441491 0.5730239153 4280229925
-0.2948133945 -0.1299265921 0.5748783946 4280295464
-0.2966594100 -0.1300974190 0.5784780383 4280492843
-0.2980583310 -0.1300651431 0.5812059045 4280689965
-0.2999051213 -0.1302212775 0.5848070979 4280689965
-0.3035431504 -0.1311432868 0.5919011831 4280689965
-0.3248266578 -0.1375236213 0.6334034204 4280953137
-0.3289193809 -0.1385437697 0.6413841844 4280887344
-0.3289795220 -0.1378563493 0.6415014267 4280755758
-0.3326256573 -0.1386635602 0.6486113071 4280624172
-0.3362728059 -0.1394554228 0.6557230949 4280624170
-0.3385756016 -0.1396768689 0.6602135301 4280755756
-0.3417760134 -0.1402566880 0.6664541960 4280887342
-0.3445286155 -0.1406398565 0.6718217731 4280492584
-0.3459358513 -0.1404648125 0.6745657921 4279966240
-0.3464457393 -0.1399212480 0.6755600572 4279637275
-0.3469554782 -0.1393754184 0.6765540838 4279439896
-0.3474650681 -0.1388273388 0.6775477529 4279505689
-0.3475255370 -0.1380985528 0.6776657104 4279637275
-0.3466875553 -0.1370144486 0.6760316491 4279505689
-0.3453998268 -0.1357571781 0.6735205650 4279374616
-0.3432128429 -0.1341540217 0.6692560315 4279374616
-0.3401262164 -0.1322106123 0.6632371545 4279374616
-0.3370381892 -0.1302800626 0.6572155952 4279374616
-0.3334993720 -0.1281895936 0.6503149867 4279374616
-0.3313076496 -0.1266293526 0.6460412145 4279308823
-0.3313629627 -0.1259325743 0.6461490393 4279243030
-0.3314179480 -0.1252354383 0.6462563276 4279308823
-0.3310229182 -0.1243689880 0.6454859972 4279506202
-0.3310772777 -0.1236721128 0.6455920339 4279571995
-0.3311313689 -0.1229748949 0.6456974745 4279769374
-0.3316351175 -0.1224434748 0.6466797590 4279703581
-0.3321387470 -0.1219098195 0.6476618052 4279506202
-0.3339926004 -0.1218666509 0.6512767673 4279703581
-0.3358467519 -0.1218155548 0.6548923254 4279900960
-0.3377011418 -0.1217565238 0.6585083604 4279637788
-0.3382048309 -0.1212053820 0.6594905257 4279243029
-0.3382579386 -0.1204915568 0.6595940590 4279374615
-0.3387612402 -0.1199368909 0.6605755091 4279308822
-0.3392643631 -0.1193799824 0.6615566015 4279177236
-0.3393167257 -0.1186632514 0.6616586447 4279308823
-0.3393687606 -0.1179461926 0.6617601514 4279900960
-0.3398712873 -0.1173844934 0.6627400517 4279901476
-0.3390211463 -0.1163563654 0.6610823274 4279440925
-0.3377195597 -0.1151779518 0.6585442424 4279440925
-0.3386720717 -0.1147690415 0.6604016423 4279046167
-0.3387224674 -0.1140522659 0.6604999304 4280230700
-0.3378704190 -0.1130333468 0.6588383913 4281020216
-0.3379200995 -0.1123178452 0.6589353085 4281020216
-0.3384206891 -0.1117510274 0.6599114537 4283388764
-0.3375672698 -0.1107378528 0.6582472920 4286744979
-0.3367132545 -0.1097281873 0.6565819979 4288521390
-0.3367615342 -0.1090143099 0.6566761136 4291350485
-0.3293341696 -0.1919348091 0.6435868740 4286612111
-0.3294148445 -0.1912665814 0.6437444687 4284835699
-0.3294952512 -0.1905978620 0.6439016461 4284177769
-0.3295754492 -0.1899286360 0.6440583467 4283585118
-0.3296553791 -0.1892589331 0.6442145705 4282795602
-0.3297350705 -0.1885887533 0.6443702579 4282466637
-0.3298145235 -0.1879180819 0.6445255280 4282071879
-0.3303347528 -0.1874972433 0.6455422044 4281940807
-0.3308549523 -0.1870741397 0.6465587616 4281809221
-0.3313751221 -0.1866487563 0.6475753188 4281611842
-0.3323366046 -0.1864687204 0.6494542360 4281480256
-0.3328568041 -0.1860378832 0.6504707932 4281283131
-0.3338185251 -0.1858505905 0.6523501873 4281151545
-0.3347803950 -0.1856592000 0.6542298794 4281217338
-0.3357424438 -0.1854637414 0.6561099291 4281480510
-0.3367046416 -0.1852641851 0.6579902768 4282466635
-0.3376669884 -0.1850605309 0.6598709226 4282861393
-0.3386295140 -0.1848527938 0.6617518663 4282861391
-0.3387078047 -0.1841601133 0.6619048715 4282203461
-0.3383435905 -0.1832274497 0.6611930728 4281348152
