VERSION 0.7
FIELDS x y z rgba
SIZE 4 4 4 4
TYPE F F F U
COUNT 1 1 1 1
WIDTH 920
HEIGHT 1
VIEWPOINT 0.0 0.0 0.0 1.0 0.0 0.0 0.0
POINTS 920
DATA ascii
-0.2918325365 -0.1275564134 0.5354363918 4289309358
-0.2918894887 -0.1269862801 0.5355408788 4289244080
-0.2919462025 -0.1264158189 0.5356448889 4288915115
-0.2915339470 -0.1256430149 0.5348885655 4288980394
-0.2915900946 -0.1250727922 0.5349916220 4288783015
-0.2916460335 -0.1245022565 0.5350942016 4289308846
-0.2917017043 -0.1239313856 0.5351963639 4288585123
-0.2917571664 -0.1233601868 0.5352980494 4288915370
-0.2913432121 -0.1225912496 0.5345386267 4288717991
-0.2913981080 -0.1220203266 0.5346392989 4288849834
-0.2914527655 -0.1214490756 0.5347395539 4288520869
-0.2915071547 -0.1208775043 0.5348393917 4288454819
-0.2910918295 -0.1201118901 0.5340774059 4288717991
-0.2911457121 -0.1195406020 0.5341762304 4289637551
-0.2911993265 -0.1189690009 0.5342745781 4290098102
-0.2912527025 -0.1183970794 0.5343725085 4285490795
-0.2908359766 -0.1176348105 0.5336079597 4281740594
-0.2908888161 -0.1170631871 0.5337048769 4286789431
-0.2914113998 -0.1166794524 0.5346637368 4288368463
-0.2909937203 -0.1159190163 0.5338973999 4289619043
-0.2910458446 -0.1153464690 0.5339930058 4289026906
-0.2910977006 -0.1147736162 0.5340881348 4289092699
-0.2911493182 -0.1142004505 0.5341828465 4289619043
-0.2912006974 -0.1136269867 0.5342771411 4289421151
-0.2912518382 -0.1130532175 0.5343709588 4289881702
-0.2913027406 -0.1124791503 0.5344643593 4289092701
-0.2913534045 -0.1119047776 0.5345572829 4289092701
-0.2914038301 -0.1113301069 0.5346497893 4288764250
-0.2914539874 -0.1107551381 0.5347418785 4289882731
-0.2919748724 -0.1103578731 0.5356975198 4289619561
-0.2920246422 -0.1097813845 0.5357888341 4289685354
-0.2920741439 -0.1092046052 0.5358796716 4289750377
-0.2921234369 -0.1086275280 0.5359700918 4289487205
-0.2921724617 -0.1080501601 0.5360600948 4287448654
-0.2931639254 -0.1078191921 0.5378791094 4289027686
-0.2932126224 -0.1072393805 0.5379684567 4290539894
-0.2932610810 -0.1066592857 0.5380573869 4290079343
-0.2933092713 -0.1060789004 0.5381458402 4288434260
-0.2933572531 -0.1054982245 0.5382338166 4289684327
-0.2938766778 -0.1050859541 0.5391868353 4290407532
-0.2939242125 -0.1045037806 0.5392740369 4289881188
-0.2939715087 -0.1039213240 0.5393608212 4290077793
-0.2940185368 -0.1033385918 0.5394471288 4290209379
-0.2940653563 -0.1027555764 0.5395330191 4289747798
-0.2941118777 -0.1021722853 0.5396183729 4287247664
-0.2946303487 -0.1017517820 0.5405696630 4286786595
-0.2946764529 -0.1011670083 0.5406542420 4286918181
-0.2951946557 -0.1007431448 0.5416049957 4286983461
-0.2952403426 -0.1001568809 0.5416887999 4286720289
-0.2957582176 -0.0997296572 0.5426389575 4288496442
-0.2962760031 -0.0993002877 0.5435889959 4290338646
-0.2963210642 -0.0987113342 0.5436716676 4290274643
-0.2968385518 -0.0982786119 0.5446211100 4289090369
-0.2973559499 -0.0978437364 0.5455703735 4287774762
-0.2978731990 -0.0974067226 0.5465193987 4286656281
-0.2988632321 -0.0971212238 0.5483358502 4286327829
-0.2993803322 -0.0966789722 0.5492846370 4287577896
-0.2998973131 -0.0962345749 0.5502331257 4287973430
-0.3004141748 -0.0957880244 0.5511814356 4286789156
-0.3009309173 -0.0953393355 0.5521295071 4286524193
-0.3014475107 -0.0948884934 0.5530773401 4286918951
-0.3019640148 -0.0944355130 0.5540249944 4287050034
-0.3024803698 -0.0939803794 0.5549723506 4287707964
-0.3029965758 -0.0935231075 0.5559195280 4287843150
-0.3035126925 -0.0930636898 0.5568664074 4288566873
-0.3054913580 -0.1512718350 0.5616412163 4286728779
-0.3028334081 -0.1487184912 0.5567546487 4288638578
-0.3015031815 -0.1474493593 0.5543090701 4289835190
-0.2997067273 -0.1459586024 0.5510063171 4287861400
-0.2983747423 -0.1447004229 0.5485574603 4285823349
-0.2975074947 -0.1436721385 0.5469630957 4285231212
-0.2966396511 -0.1426470876 0.5453675389 4285624180
-0.2962369323 -0.1418483108 0.5446271300 4287137419
-0.2958337963 -0.1410509795 0.5438860059 4288190107
-0.2954302430 -0.1402551085 0.5431440473 4288650658
-0.2945601940 -0.1392403543 0.5415444970 4289045674
-0.2941556871 -0.1384482682 0.5408008099 4289374639
-0.2942170501 -0.1378761530 0.5409135818 4288717736
-0.2938117981 -0.1370860785 0.5401685238 4288586150
-0.2934060991 -0.1362974644 0.5394226909 4288586150
-0.2939331234 -0.1359418631 0.5403916240 4288717736
-0.2930601537 -0.1349394917 0.5387866497 4287336083
-0.2926533222 -0.1341543645 0.5380387306 4287336083
-0.2922460437 -0.1333706975 0.5372899771 4289375666
-0.2923053205 -0.1328006536 0.5373989344 4289178287
-0.2918972969 -0.1320190281 0.5366488099 4289572531
-0.2919560075 -0.1314492077 0.5367567539 4289506738
-0.2915472686 -0.1306696385 0.5360052586 4289638324
-0.2916054130 -0.1301000416 0.5361121893 4289638324
-0.2916633487 -0.1295301020 0.5362186432 4289506737
-0.2912535369 -0.1287531704 0.5354652405 4289506737
-0.2913109064 -0.1281834692 0.5355706811 4289572530
-0.2913680375 -0.1276134402 0.5356757045 4289638323
-0.2914249301 -0.1270430684 0.5357803106 4289310128
-0.2914815843 -0.1264723688 0.5358844995 4289507507
-0.2910700738 -0.1256992370 0.5351279378 4289638324
-0.2911261916 -0.1251287907 0.5352311134 4289704117
-0.2911820710 -0.1245580167 0.5353338122 4289506224
-0.2912377119 -0.1239869073 0.5354361534 4287532434
-0.2912931144 -0.1234154776 0.5355380177 4287861910
-0.2913482785 -0.1228437200 0.5356394053 4287203980
-0.2909347415 -0.1220750585 0.5348790884 4287205261
-0.2909893394 -0.1215035692 0.5349795222 4287007882
-0.2910437286 -0.1209317669 0.5350794792 4287994266
-0.2910978496 -0.1203596368 0.5351790190 4289178540
-0.2906829119 -0.1195942983 0.5344161391 4289966514
-0.2907364964 -0.1190224588 0.5345146656 4289900721
-0.2907898426 -0.1184503064 0.5346127748 4285293412
-0.2903738618 -0.1176877096 0.5338479280 4281937969
-0.2904266417 -0.1171158552 0.5339449644 4286789685
-0.2909484506 -0.1167319641 0.5349043608 4288368717
-0.2905314863 -0.1159712002 0.5341377258 4288632146
-0.2910529971 -0.1155848429 0.5350965261 4288829525
-0.2906353772 -0.1148253232 0.5343287587 4288829525
-0.2906869650 -0.1142519191 0.5344235897 4288500560
-0.2907383144 -0.1136782095 0.5345180035 4289092440
-0.2907894254 -0.1131042019 0.5346119404 4290079335
-0.2908402979 -0.1125298887 0.5347054601 4290802804
-0.2908909023 -0.1119552776 0.5347985625 4290473839
-0.2909412980 -0.1113803685 0.5348911881 4290079594
-0.2909914255 -0.1108051613 0.5349833369 4290737524
-0.2915115058 -0.1104077324 0.5359395146 4290145387
-0.2915612459 -0.1098309979 0.5360309482 4290474352
-0.2916107476 -0.1092539728 0.5361219645 4290144874
-0.2916599810 -0.1086766496 0.5362125039 4289750116
-0.2917090058 -0.1080990434 0.5363025665 4288172375
-0.2926989198 -0.1078679860 0.5381225348 4288896098
-0.2927475870 -0.1072879285 0.5382120013 4289947756
-0.2927959859 -0.1067075804 0.5383010507 4289684584
-0.2928441763 -0.1061269492 0.5383896232 4288104523
-0.2928920984 -0.1055460349 0.5384777188 4288762453
-0.2929397821 -0.1049648300 0.5385653973 4289354844
-0.2934582531 -0.1045511663 0.5395185947 4289815395
-0.2935055196 -0.1039684638 0.5396054983 4290209891
-0.2935525477 -0.1033854783 0.5396919250 4289157203
-0.2935993075 -0.1028022170 0.5397778749 4288629828
-0.2941171527 -0.1023827493 0.5407299399 4286919210
-0.2941634953 -0.1017979980 0.5408151150 4287049766
-0.2946810722 -0.1013751626 0.5417667031 4286852387
-0.2947269678 -0.1007889211 0.5418511033 4286589215
-0.2952442765 -0.1003627330 0.5428020954 4286523422
-0.2952897251 -0.0997750089 0.5428857207 4287181091
-0.2958067358 -0.0993454531 0.5438362360 4286588954
-0.2958517969 -0.0987562463 0.5439190269 4286658071
-0.2963685095 -0.0983233377 0.5448690057 4287447587
-0.2968851030 -0.0978882834 0.5458187461 4288040739
-0.2974015772 -0.0974510759 0.5467683077 4289685564
-0.2983900905 -0.0971654654 0.5485856533 4290870865
-0.2989064157 -0.0967230275 0.5495349169 4291528795
-0.2994225919 -0.0962784365 0.5504839420 4291067742
-0.2999386787 -0.0958316997 0.5514327288 4288304436
-0.3004546463 -0.0953828171 0.5523813367 4286787618
-0.3009704649 -0.0949317813 0.5533296466 4286853411
-0.3014861941 -0.0944786072 0.5542777777 4287312690
-0.3020017743 -0.0940232798 0.5552256703 4287839034
-0.3025172055 -0.0935658067 0.5561733246 4288105552
-0.3035052717 -0.0932514444 0.5579898953 4289552998
-0.3937000632 -0.1993787736 0.7252926230 4287266955
-0.3877579272 -0.1955758482 0.7143457532 4285358958
-0.3786489666 -0.1894314289 0.6975648403 4286466896
-0.3870867193 -0.1928603649 0.7131091952 4286596427
-0.3068590164 -0.1522599757 0.5653100610 4286728013
-0.3779694736 -0.1867705286 0.6963130236 4285545796
-0.3037418425 -0.1494698226 0.5595673919 4288703860
-0.3014850318 -0.1477421522 0.5554097891 4289966516
-0.2996916175 -0.1462498754 0.5521059036 4289177000
-0.2978971899 -0.1447644234 0.5488001108 4288454564
-0.2970313728 -0.1437357068 0.5472050905 4287401876
-0.2966299057 -0.1429342628 0.5464654565 4286479485
-0.2957629561 -0.1419111341 0.5448683500 4287137415
-0.2953605354 -0.1411134750 0.5441269279 4286941062
-0.2949576676 -0.1403172612 0.5433847904 4285625202
-0.2940890491 -0.1393020898 0.5417845845 4285692541
-0.2941506803 -0.1387291849 0.5418981314 4286547850
-0.2932810485 -0.1377187371 0.5402960181 4287007118
-0.2938076258 -0.1373646259 0.5412661433 4288849322
-0.2934027612 -0.1365747750 0.5405202508 4289638838
-0.2934632897 -0.1360022724 0.5406317711 4288388771
-0.2930576503 -0.1352144331 0.5398845077 4288454564
-0.2926516235 -0.1344280690 0.5391364694 4287994013
-0.2922451496 -0.1336431801 0.5383876562 4288125085
-0.2918382585 -0.1328597665 0.5376380682 4288585636
-0.2914309800 -0.1320778131 0.5368877649 4288783015
-0.2914896309 -0.1315077543 0.5369958282 4288848808
-0.2915480733 -0.1309373677 0.5371034741 4288783529
-0.2911396921 -0.1301580369 0.5363511443 4288915115
-0.2911975682 -0.1295878738 0.5364577770 4288915115
-0.2907884717 -0.1288105994 0.5357041359 4289046701
-0.2908458114 -0.1282406747 0.5358096957 4289572531
-0.2909028828 -0.1276704073 0.5359148979 4289638324
-0.2909597456 -0.1270998120 0.5360196233 4289310386
-0.2910163701 -0.1265288740 0.5361239910 4289244593
-0.2906055748 -0.1257554293 0.5353671312 4289704117
-0.2906616330 -0.1251847446 0.5354704261 4289572531
-0.2907174826 -0.1246137321 0.5355733037 4289637810
-0.2907730937 -0.1240423918 0.5356757641 4287335055
-0.2908284366 -0.1234707236 0.5357777476 4286546822
-0.2908835709 -0.1228987351 0.5358793139 4284967790
-0.2904707491 -0.1221297458 0.5351187587 4284310371
-0.2905253172 -0.1215580255 0.5352193117 4285889403
-0.2905796468 -0.1209859848 0.5353193879 4285099372
-0.2906337678 -0.1204136238 0.5354190469 4286415232
-0.2902195156 -0.1196479648 0.5346559286 4289768621
-0.2902730703 -0.1190758869 0.5347545743 4289966000
-0.2903263867 -0.1185034961 0.5348528028 4285030242
-0.2903794348 -0.1179307848 0.5349505544 4282266936
-0.2904322743 -0.1173577681 0.5350478888 4286264621
-0.2904848754 -0.1167844310 0.5351448059 4286856758
-0.2905372083 -0.1162107885 0.5352412462 4286988340
-0.2905893326 -0.1156368405 0.5353372693 4287251512
-0.2901724279 -0.1148769930 0.5345692039 4287711295
-0.2902239859 -0.1143033504 0.5346641541 4287777088
-0.2902753055 -0.1137294024 0.5347586870 4288368974
-0.2903263569 -0.1131551564 0.5348528028 4288368974
-0.2908463180 -0.1127624735 0.5358106494 4288566103
-0.2908969820 -0.1121866927 0.5359039903 4288500310
-0.2909474075 -0.1116106138 0.5359969139 4288434518
-0.2909975946 -0.1110342294 0.5360893607 4288105553
-0.2910475433 -0.1104575545 0.5361813903 4288105295
-0.2910972536 -0.1098805740 0.5362729430 4288302674
-0.2916162908 -0.1094796062 0.5372291207 4288236879
-0.2911958992 -0.1087257415 0.5364546776 4288171086
-0.2912448943 -0.1081478894 0.5365449190 4287579458
-0.2922332585 -0.1079167426 0.5383657813 4287250493
-0.2922818959 -0.1073364392 0.5384553671 4286462006
-0.2923302948 -0.1067558452 0.5385445356 4286725178
-0.2923784256 -0.1061749682 0.5386332273 4286264627
-0.2924263179 -0.1055938080 0.5387214422 4286133041
-0.2924739718 -0.1050123572 0.5388092399 4286001449
-0.2929916680 -0.1045985147 0.5397629142 4285935656
-0.2930389047 -0.1040155664 0.5398499370 4286328867
-0.2935563326 -0.1035983562 0.5408031940 4286328867
-0.2936031222 -0.1030139104 0.5408893824 4285933849
-0.2936496735 -0.1024291813 0.5409751534 4286197021
-0.2941666543 -0.1020073891 0.5419275761 4285736720
-0.2942127883 -0.1014211699 0.5420125127 4286394650
-0.2947294712 -0.1009960100 0.5429643989 4287052316
-0.2947751880 -0.1004083008 0.5430485606 4288039211
-0.2952915728 -0.0999797806 0.5439999104 4289092150
-0.2953368425 -0.0993905887 0.5440832973 4289684287
-0.2958529592 -0.0989587083 0.5450341105 4289688373
-0.2963689566 -0.0985246748 0.5459847450 4290543682
-0.2968848348 -0.0980884954 0.5469351411 4290412088
-0.2974006236 -0.0976501629 0.5478852987 4291004225
-0.2983876765 -0.0973634943 0.5497037172 4292054362
-0.2984318137 -0.0967670530 0.5497850180 4291791190
-0.2989472449 -0.0963222682 0.5507345796 4290343257
-0.2994625568 -0.0958753452 0.5516839027 4287382572
-0.2999777198 -0.0954262689 0.5526329875 4286460201
-0.3004927635 -0.0949750394 0.5535818338 4286723373
-0.3010077178 -0.0945216715 0.5545304418 4286788915
-0.3019943833 -0.0942133591 0.5563481450 4287644224
-0.3025090992 -0.0937547460 0.5572963953 4287778381
-0.3034957051 -0.0934393033 0.5591139793 4290015343
-0.3842707276 -0.1950025558 0.7093729377 4288649122
-0.3820409179 -0.1930874139 0.7052567005 4285491058
-0.3779570758 -0.1902481765 0.6977177858 4287124826
-0.3822101951 -0.1916050911 0.7055691481 4286532689
-0.3813676238 -0.1904004961 0.7040137649 4286531148
-0.3809878528 -0.1894294620 0.7033126950 4286728527
-0.3806075752 -0.1884597391 0.7026106715 4285677384
-0.3051088452 -0.1504503638 0.5632382035 4289032827
-0.3019285202 -0.1482628584 0.5573672652 4290032822
-0.2996743619 -0.1465412974 0.5532060266 4289506478
-0.2978829741 -0.1450543255 0.5498990417 4288783529
-0.2970187068 -0.1440242678 0.5483036637 4288783529
-0.2961538434 -0.1429974586 0.5467070937 4288848035
-0.2952883542 -0.1419738978 0.5451093316 4288848035
-0.2948866189 -0.1411759257 0.5443677306 4288190875
-0.2944844663 -0.1403793842 0.5436253548 4286743429
-0.2936173081 -0.1393637806 0.5420245528 4285034611
-0.2936788797 -0.1387906671 0.5421382189 4284113509
-0.2928106785 -0.1377797723 0.5405355096 4284703849
-0.2929323018 -0.1366353631 0.5407600403 4289375666
-0.2929928005 -0.1360626221 0.5408716798 4287862427
-0.2925878763 -0.1352744699 0.5401241779 4287665048
-0.2921825349 -0.1344877779 0.5393759608 4288915115
-0.2917767763 -0.1337025613 0.5386269093 4289111980
-0.2918360531 -0.1331311464 0.5387363434 4289046187
-0.2914295495 -0.1323479712 0.5379859209 4288848808
-0.2910226285 -0.1315662712 0.5372347236 4288783015
-0.2910810113 -0.1309956461 0.5373424888 4288782761
-0.2906733751 -0.1302159876 0.5365899801 4288782761
-0.2907311916 -0.1296456009 0.5366967320 4288782761
-0.2903228104 -0.1288679987 0.5359427929 4288716968
-0.2903800905 -0.1282978505 0.5360485911 4288782761
-0.2904371321 -0.1277273446 0.5361539125 4288651175
-0.2904939651 -0.1271565109 0.5362587571 4288783529
-0.2905505598 -0.1265853494 0.5363632441 4288980908
-0.2906068861 -0.1260138452 0.5364672542 4289308846
-0.2901964784 -0.1252406538 0.5357096195 4288979881
-0.2902522683 -0.1246694177 0.5358126163 4289506225
-0.2903078198 -0.1240978390 0.5359151959 4288848295
-0.2903631628 -0.1235259399 0.5360173583 4288454819
-0.2904182673 -0.1229537129 0.5361190438 4287138959
-0.2900061309 -0.1221844032 0.5353581905 4286744712
-0.2900606692 -0.1216124445 0.5354589224 4288455330
-0.2901149690 -0.1210401729 0.5355591178 4286941062
-0.2901690304 -0.1204675734 0.5356589556 4286151546
-0.2902228534 -0.1198946536 0.5357583165 4289110691
-0.2898090184 -0.1191292703 0.5349943638 4290426551
-0.2898622751 -0.1185566410 0.5350927114 4284898656
-0.2899153233 -0.1179836988 0.5351905823 4282332729
-0.2899681032 -0.1174104437 0.5352880359 4286198050
-0.2900206447 -0.1168368682 0.5353850722 4286724394
-0.2900729775 -0.1162629873 0.5354816318 4286592553
-0.2901250422 -0.1156887934 0.5355777740 4286460967
-0.2901768982 -0.1151142940 0.5356734991 4286197797
-0.2897603810 -0.1143547446 0.5349045992 4285934625
-0.2898116708 -0.1137805581 0.5349992514 4286263338
-0.2898626924 -0.1132060662 0.5350934267 4286197545
-0.2903818488 -0.1128132343 0.5360518098 4286000679
-0.2904324830 -0.1122372076 0.5361452699 4286329644
-0.2904828787 -0.1116608828 0.5362383127 4286066470
-0.2905330360 -0.1110842600 0.5363309383 4286198056
-0.2905829251 -0.1105073392 0.5364230275 4286066470
-0.2906326056 -0.1099301204 0.5365147591 4285737505
-0.2911508679 -0.1095289811 0.5374714732 4286132263
-0.2907312214 -0.1087748036 0.5366967320 4286000677
-0.2907801569 -0.1081966981 0.5367870927 4286002212
-0.2917670012 -0.1079654619 0.5386088490 4286199591
-0.2918156087 -0.1073849201 0.5386985540 4286133546
-0.2918639481 -0.1068040803 0.5387878418 4286330925
-0.2919120491 -0.1062229574 0.5388766527 4286724402
-0.2919599116 -0.1056415439 0.5389649868 4286527023
-0.2924770117 -0.1052287519 0.5399195552 4286724141
-0.2925244570 -0.1046458334 0.5400071144 4287316278
-0.2925716341 -0.1040626392 0.5400942564 4287973689
-0.2930882871 -0.1036452502 0.5410479903 4288105275
-0.2931350768 -0.1030605584 0.5411342978 4287119653
-0.2936514318 -0.1026398018 0.5420875549 4288961857
-0.2936977744 -0.1020536050 0.5421730876 4290014531
-0.2942138612 -0.1016294882 0.5431258082 4290080324
-0.2942597866 -0.1010418013 0.5432105660 4290672708
-0.2947755754 -0.1006143093 0.5441627502 4291330638
-0.2948210835 -0.1000251397 0.5442467332 4291922516
-0.2953365743 -0.0995942876 0.5451983809 4292119895
-0.2953816354 -0.0990036279 0.5452815294 4291070538
-0.2958968580 -0.0985694155 0.5462326407 4290544194
-0.2964119613 -0.0981330499 0.5471835732 4289885754
-0.2969269454 -0.0976945311 0.5481342673 4289556789
-0.2979124784 -0.0974077433 0.5499535203 4289159998
-0.2984273136 -0.0969639868 0.5509039164 4287712552
-0.2984712422 -0.0963660777 0.5509850383 4286658858
-0.2994565964 -0.0960700139 0.5528040528 4285869342
-0.2999710739 -0.0956197977 0.5537537336 4286197545
-0.3004854023 -0.0951674357 0.5547032356 4286394924
-0.3009996116 -0.0947129279 0.5556524992 4286788404
-0.3015137017 -0.0942562670 0.5566015244 4287775299
-0.3024988472 -0.0939437896 0.5584201217 4287908944
-0.3030127585 -0.0934818834 0.5593687892 4290277492
-0.3790290356 -0.1927377582 0.7011342049 4289767605
-0.3786512017 -0.1917673945 0.7004352808 4285820025
-0.3787353039 -0.1910315752 0.7005908489 4287322720
-0.3778940439 -0.1898305714 0.6990346313 4286730583
-0.3761267960 -0.1881697774 0.6957656145 4286662734
-0.3752839565 -0.1869768053 0.6942064762 4286860113
-0.3050138652 -0.1513394266 0.5642197132 4285611848
-0.3018397987 -0.1491441727 0.5583482385 4289230463
-0.2995901406 -0.1474168450 0.5541868210 4290098361
-0.2978024185 -0.1459251046 0.5508798361 4289900982
-0.2978666127 -0.1453443617 0.5509986281 4289244080
-0.2965405881 -0.1440878510 0.5485457182 4288717736
-0.2956771553 -0.1430606097 0.5469484925 4289045414
-0.2948130965 -0.1420366317 0.5453501940 4289308586
-0.2944120765 -0.1412383169 0.5446083546 4289309356
-0.2940106392 -0.1404414624 0.5438657403 4289111977
-0.2936087549 -0.1396460533 0.5431223512 4288323493
-0.2932064533 -0.1388520896 0.5423781872 4288126114
-0.2932677567 -0.1382783651 0.5424915552 4287203983
-0.2928647101 -0.1374864131 0.5417460203 4286743432
-0.2924612463 -0.1366959065 0.5409996510 4288914601
-0.2925216854 -0.1361229420 0.5411114693 4288454050
-0.2921174765 -0.1353344619 0.5403637290 4286611846
-0.2917128205 -0.1345474571 0.5396152139 4287138190
-0.2913077772 -0.1337619126 0.5388659835 4289177773
-0.2913669944 -0.1331902593 0.5389755368 4289638324
-0.2909612060 -0.1324067563 0.5382248759 4289506484
-0.2905550003 -0.1316247284 0.5374734402 4289309105
-0.2906133533 -0.1310538799 0.5375813842 4289243312
-0.2902064025 -0.1302739084 0.5368286371 4289177519
-0.2902641892 -0.1297032684 0.5369355083 4289177519
-0.2903217673 -0.1291323006 0.5370420218 4289111726
-0.2899137437 -0.1283549666 0.5362872481 4289111469
-0.2899707556 -0.1277842373 0.5363926888 4289111469
-0.2900275290 -0.1272131801 0.5364977717 4288651945
-0.2900840938 -0.1266417801 0.5366023779 4288520359
-0.2901403904 -0.1260700375 0.5367065072 4288914090
-0.2901964784 -0.1254979819 0.5368102789 4288519332
-0.2902523279 -0.1249255762 0.5369135737 4288914088
-0.2898419499 -0.1241532490 0.5361544490 4288914088
-0.2898972631 -0.1235811114 0.5362567306 4289046186
-0.2899523079 -0.1230086461 0.5363585949 4288783014
-0.2900071144 -0.1224358603 0.5364599824 4289310126
-0.2895953655 -0.1216668263 0.5356983542 4289244333
-0.2896496356 -0.1210943162 0.5357987285 4289572528
-0.2897036672 -0.1205214784 0.5358986259 4289440942
-0.2897574604 -0.1199483275 0.5359981656 4289768621
-0.2898110151 -0.1193748489 0.5360972285 4290031793
-0.2893975675 -0.1186097562 0.5353323817 4284634971
-0.2894505560 -0.1180365756 0.5354304314 4282463802
-0.2895033062 -0.1174630746 0.5355280042 4286459939
-0.2900228500 -0.1170777977 0.5364890695 4286657318
-0.2896080911 -0.1163151488 0.5357218981 4286854697
-0.2896601558 -0.1157407165 0.5358181596 4287578420
-0.2897119522 -0.1151659787 0.5359139442 4287710517
-0.2897635102 -0.1145909280 0.5360093713 4287381552
-0.2898148298 -0.1140155718 0.5361042619 4287316778
-0.2898659110 -0.1134399176 0.5361987948 4287382571
-0.2899167538 -0.1128639504 0.5362928510 4287317792
-0.2899673581 -0.1122876853 0.5363864303 4287251999
-0.2900177240 -0.1117111221 0.5364795923 4287319065
-0.2900678217 -0.1111342534 0.5365722775 4287055893
-0.2901177108 -0.1105570942 0.5366645455 4287253780
-0.2901673317 -0.1099796295 0.5367563367 4287122194
-0.2906848192 -0.1095783263 0.5377135873 4287320086
-0.2907340527 -0.1089993492 0.5378046632 4287780637
-0.2907830179 -0.1084200665 0.5378952622 4287913502
-0.2913000882 -0.1080141589 0.5388517380 4288637225
-0.2913486660 -0.1074333638 0.5389415622 4288635435
-0.2918654680 -0.1070240662 0.5398975611 4287582747
-0.2919136286 -0.1064417586 0.5399866700 4289159990
-0.2919615209 -0.1058591679 0.5400753021 4290212678
-0.2920091748 -0.1052762866 0.5401634574 4290803279
-0.2925253808 -0.1048611701 0.5411183238 4291066451
-0.2925726175 -0.1042767838 0.5412057042 4290672978
-0.2926196158 -0.1036921218 0.5412926078 4290870357
-0.2926663458 -0.1031071693 0.5413790941 4288700215
-0.2931819260 -0.1026862413 0.5423328280 4290147661
-0.2936974168 -0.1022631600 0.5432863832 4291529824
-0.2937435508 -0.1016754955 0.5433717370 4290937687
-0.2942587435 -0.1012490392 0.5443247557 4290740047
-0.2943044603 -0.1006598920 0.5444092751 4290082117
-0.2948193848 -0.1002300680 0.5453617573 4290213187
-0.2948646545 -0.0996394306 0.5454455018 4290015808
-0.2953792810 -0.0992062464 0.5463975072 4289031484
-0.2954241037 -0.0986141264 0.5464804173 4288110382
-0.2959384322 -0.0981775746 0.5474318266 4287516978
-0.2964526415 -0.0977388695 0.5483829975 4288043322
-0.2974366248 -0.0974519700 0.5502032042 4287975750
-0.2979506850 -0.0970080197 0.5511540771 4285409823
-0.2984645963 -0.0965619162 0.5521047711 4285673003
-0.2989784181 -0.0961136669 0.5530552268 4285344038
-0.2994920909 -0.0956632569 0.5540054440 4286263598
-0.3000056446 -0.0952107087 0.5549554229 4286724149
-0.3005190790 -0.0947559997 0.5559051633 4286986296
-0.3015027642 -0.0944464877 0.5577247739 4287710019
-0.3020159900 -0.0939865336 0.5586742163 4288106323
-0.3029996157 -0.0936698839 0.5604937077 4290474871
-0.3761088550 -0.1916465908 0.6971647739 4290426048
-0.3766543567 -0.1911488175 0.6981759071 4286544261
-0.3753530383 -0.1897153705 0.6957637668 4287717478
-0.3745125830 -0.1885192692 0.6942058802 4286993755
-0.3741333485 -0.1875578463 0.6935029030 4286860627
-0.3728296459 -0.1861364245 0.6910862923 4286992213
-0.3724492192 -0.1851794422 0.6903811693 4285546055
-0.3059741855 -0.1514983177 0.5671613812 4289427842
-0.3018800616 -0.1488494426 0.5595723987 4289901236
-0.2991710901 -0.1468975544 0.5545509458 4289901236
-0.2973856628 -0.1454084218 0.5512414575 4289375666
-0.2960618138 -0.1441513747 0.5487875342 4288125599
-0.2951998413 -0.1431237161 0.5471897721 4287992726
-0.2943372428 -0.1420993060 0.5455908775 4288453277
-0.2939369082 -0.1413006783 0.5448487997 4288914598
-0.2935361564 -0.1405034959 0.5441059470 4289046184
-0.2931349874 -0.1397077441 0.5433623195 4288718251
-0.2931965888 -0.1391332597 0.5434765220 4288849837
-0.2927946746 -0.1383395195 0.5427314639 4288914601
-0.2923923135 -0.1375472397 0.5419856906 4288980394
-0.2919895649 -0.1367564201 0.5412391424 4289111980
-0.2925135195 -0.1363993883 0.5422103405 4288980394
-0.2916464210 -0.1353944093 0.5406031013 4287138190
-0.2912425101 -0.1346070766 0.5398543477 4286875018
-0.2913020253 -0.1340346336 0.5399646759 4289769910
-0.2908973396 -0.1332493424 0.5392145514 4289506738
-0.2904922664 -0.1324655116 0.5384637117 4289506738
-0.2905508876 -0.1318938583 0.5385723710 4289375152
-0.2901450694 -0.1311120689 0.5378201008 4289375152
-0.2897388041 -0.1303317696 0.5370670557 4289309359
-0.2897965610 -0.1297609210 0.5371741652 4289374898
-0.2898540795 -0.1291897148 0.5372807384 4289440691
-0.2899113894 -0.1286181808 0.5373869538 4289440434
-0.2895037532 -0.1278411001 0.5366313457 4289703606
-0.2895604968 -0.1272698045 0.5367365479 4289375668
-0.2896170020 -0.1266981661 0.5368412733 4289309875
-0.2896732688 -0.1261262000 0.5369455814 4289637813
-0.2897293270 -0.1255539060 0.5370494723 4289572020
-0.2897851169 -0.1249812692 0.5371529460 4289440432
-0.2898406982 -0.1244083047 0.5372559428 4289572018
-0.2894307077 -0.1236362457 0.5364959836 4289572530
-0.2894857228 -0.1230635494 0.5365979671 4288585635
-0.2895404994 -0.1224905252 0.5366995335 4288717989
-0.2895950675 -0.1219171733 0.5368006229 4288454817
-0.2891837060 -0.1211484224 0.5360381007 4288914852
-0.2892376781 -0.1205753461 0.5361381769 4289572782
-0.2892914414 -0.1200019568 0.5362378359 4290097586
-0.2893449366 -0.1194282472 0.5363370180 4290163379
-0.2893982232 -0.1188542247 0.5364357829 4284437846
-0.2889851630 -0.1180894077 0.5356701016 4282464056
-0.2890378833 -0.1175156757 0.5357678533 4286657061
-0.2895566523 -0.1171302423 0.5367293954 4286657061
-0.2896089554 -0.1165549606 0.5368264318 4287644465
-0.2891946137 -0.1157926023 0.5360583663 4289815634
-0.2892463803 -0.1152176186 0.5361542702 4290934879
-0.2892979085 -0.1146423370 0.5362498164 4290671707
-0.2893491983 -0.1140667424 0.5363448858 4290015307
-0.2894002497 -0.1134908423 0.5364394784 4290146893
-0.2894510329 -0.1129146367 0.5365336537 4290740558
-0.2895016074 -0.1123381332 0.5366274118 4290674765
-0.2895519435 -0.1117613241 0.5367206931 4291202125
-0.2896020114 -0.1111842170 0.5368134975 4290938953
-0.2896518409 -0.1106068119 0.5369058847 4291269200
-0.2897014618 -0.1100291088 0.5369978547 4291006028
-0.2902181447 -0.1096276417 0.5379555821 4290347843
-0.2902673185 -0.1090484113 0.5380467772 4290611015
-0.2903162837 -0.1084688902 0.5381374955 4290546245
-0.2908325493 -0.1080628112 0.5390944481 4290612038
-0.2908810973 -0.1074817702 0.5391844511 4289952827
-0.2913971245 -0.1070723087 0.5401409268 4287781658
-0.2914452255 -0.1064897552 0.5402301550 4290016311
-0.2914931178 -0.1059069186 0.5403189063 4291266378
-0.2920086980 -0.1054928452 0.5412746072 4291199052
-0.2920561433 -0.1049084961 0.5413625240 4290672708
-0.2921033502 -0.1043238640 0.5414500833 4290672975
-0.2921503186 -0.1037389487 0.5415371060 4290870354
-0.2921970189 -0.1031537503 0.5416236520 4288437051
-0.2927118242 -0.1027326509 0.5425779223 4288897602
-0.2927581072 -0.1021459550 0.5426636934 4290082915
-0.2932726145 -0.1017214730 0.5436174273 4289359192
-0.2937870324 -0.1012948453 0.5445709825 4287978058
-0.2938327193 -0.1007054374 0.5446556211 4286727991
-0.2943468392 -0.1002754346 0.5456086397 4287582783
-0.2943920791 -0.0996845439 0.5456925035 4288503885
-0.2949059010 -0.0992511734 0.5466449261 4288834139
-0.2954196334 -0.0988156497 0.5475972295 4289426276
-0.2954642475 -0.0982220694 0.5476799011 4291004037
-0.2959776819 -0.0977831781 0.5486316085 4291069830
-0.2969601452 -0.0974961594 0.5504527092 4289356911
-0.2974734008 -0.0970520228 0.5514041185 4285606710
-0.2979865372 -0.0966057330 0.5523552895 4285870649
-0.2984995544 -0.0961572900 0.5533062220 4286068028
-0.2990124524 -0.0957066938 0.5542569757 4286133295
-0.2995252311 -0.0952539444 0.5552074313 4286593846
-0.3005074263 -0.0949473977 0.5570280552 4286922298
-0.3010200262 -0.0944894031 0.5579782128 4287448642
-0.3020021617 -0.0941757187 0.5597987175 4287910484
-0.3029842973 -0.0938579887 0.5616192818 4289686895
-0.3731953800 -0.1905543208 0.6931913495 4290426048
-0.3742003739 -0.1902952194 0.6950581074 4286873226
-0.3729008138 -0.1888647676 0.6926442385 4287915625
-0.3720614016 -0.1876717806 0.6910851002 4287060316
-0.3703805208 -0.1852951646 0.6879628897 4287058520
-0.3109479547 -0.1549203396 0.5775699615 4285481032
-0.3073242903 -0.1524807215 0.5708392262 4289428612
-0.3023141623 -0.1493709981 0.5615331531 4289703857
-0.2991481721 -0.1471893489 0.5556524992 4289572271
-0.2955188155 -0.1447937191 0.5489110947 4289046701
-0.2946587205 -0.1437641978 0.5473135114 4287994013
-0.2937979996 -0.1427379251 0.5457147956 4287269003
-0.2933987081 -0.1419384181 0.5449731350 4286940038
-0.2929989696 -0.1411403716 0.5442306399 4287269773
-0.2921365798 -0.1401220560 0.5426288247 4288125082
-0.2926605940 -0.1397694051 0.5436021090 4288520357
-0.2922597229 -0.1389748007 0.5428575277 4288454564
-0.2918584049 -0.1381816417 0.5421121120 4288323233
-0.2915172279 -0.1368168741 0.5414783955 4288322463
-0.2915775776 -0.1362434477 0.5415904522 4288980393
-0.2911747694 -0.1354543120 0.5408422947 4288454050
-0.2907715440 -0.1346666515 0.5400933027 4287796120
-0.2908310294 -0.1340939850 0.5402037501 4289375152
-0.2904270589 -0.1333083659 0.5394534469 4289375152
-0.2900226712 -0.1325242072 0.5387023091 4289572531
-0.2900812626 -0.1319523305 0.5388111472 4289440945
-0.2901396155 -0.1313800961 0.5389195681 4289572531
-0.2897341847 -0.1305985600 0.5381664634 4289506738
-0.2893283069 -0.1298185140 0.5374125838 4289506738
-0.2893857956 -0.1292470843 0.5375193357 4289572531
-0.2889792025 -0.1284691095 0.5367640853 4289506738
-0.2890361249 -0.1278979033 0.5368698835 4289572531
-0.2890928090 -0.1273263842 0.5369751453 4289375668
-0.2891492844 -0.1267545223 0.5370800495 4289638840
-0.2892055213 -0.1261823177 0.5371844769 4289704117
-0.2892615199 -0.1256097853 0.5372885466 4289638324
-0.2893172801 -0.1250369251 0.5373920798 4289572018
-0.2893728316 -0.1244637221 0.5374952555 4289966776
-0.2894281149 -0.1238901988 0.5375979543 4289375151
-0.2890185416 -0.1231184080 0.5368371606 4286546052
-0.2890732586 -0.1225451529 0.5369388461 4286678406
-0.2891277671 -0.1219715700 0.5370401144 4285954683
-0.2891820371 -0.1213976592 0.5371409059 4285823095
-0.2892360985 -0.1208234280 0.5372412801 4288257436
-0.2892898917 -0.1202488765 0.5373411775 4290558135
-0.2888782620 -0.1194816083 0.5365766287 4290097584
-0.2889315188 -0.1189073399 0.5366755128 4284108881
-0.2889845073 -0.1183327585 0.5367739797 4282595642
-0.2890372872 -0.1177578643 0.5368719697 4286721831
-0.2890897989 -0.1171826571 0.5369695425 4286656038
-0.2891421020 -0.1166071296 0.5370666981 4287709747
-0.2891941369 -0.1160312966 0.5371633768 4289946709
-0.2887801826 -0.1152692288 0.5363944769 4290869082
-0.2888316810 -0.1146937013 0.5364900827 4290737496
-0.2888829112 -0.1141178682 0.5365852714 4289620800
-0.2889339328 -0.1135417297 0.5366800427 4289818179
-0.2889846861 -0.1129652858 0.5367743373 4290017088
-0.2890352309 -0.1123885363 0.5368682146 4290280260
-0.2890855074 -0.1118114889 0.5369616151 4289886781
-0.2891355753 -0.1112341434 0.5370545387 4289952574
-0.2896517813 -0.1108349711 0.5380133986 4290611785
-0.2897014320 -0.1102560908 0.5381056070 4290282820
-0.2897508442 -0.1096769199 0.5381973982 4289625403
-0.2897999883 -0.1090974435 0.5382887125 4289756989
-0.2903156579 -0.1086924300 0.5392464995 4289427511
-0.2903643847 -0.1081114337 0.5393370390 4289098546
-0.2908797860 -0.1077030301 0.5402943492 4289163569
-0.2909281254 -0.1071205214 0.5403841138 4287781916
-0.2909761965 -0.1065377221 0.5404734612 4288635944
-0.2914911807 -0.1061247066 0.5414299965 4288241186
-0.2915388346 -0.1055403948 0.5415185094 4288108581
-0.2920535505 -0.1051239967 0.5424745679 4288766511
-0.2921008170 -0.1045381725 0.5425623655 4288699964
-0.2921478152 -0.1039520726 0.5426496267 4288436792
-0.2921945453 -0.1033656895 0.5427364707 4287319099
-0.2922410667 -0.1027790233 0.5428228378 4286924341
-0.2922872901 -0.1021920815 0.5429087281 4287583318
-0.2928010225 -0.1017674208 0.5438629985 4288175455
-0.2928468585 -0.1011789814 0.5439481139 4288966267
-0.2933602929 -0.1007509604 0.5449017882 4290742678
-0.2938736379 -0.1003207713 0.5458552837 4290939280
-0.2939188480 -0.0997296274 0.5459392667 4290610315
-0.2944319248 -0.0992960781 0.5468922257 4291005586
-0.2949448526 -0.0988603681 0.5478450060 4291466137
-0.2954576910 -0.0984225050 0.5487975478 4291595418
-0.2959703803 -0.0979824886 0.5497499108 4290740109
-0.2969513535 -0.0976944119 0.5515720248 4289619318
-0.2969954610 -0.0970959961 0.5516539216 4286461254
-0.2975078225 -0.0966495126 0.5526056290 4287054153
-0.2980200648 -0.0962008759 0.5535570979 4287646290
-0.2985321879 -0.0957500935 0.5545083284 4286593592
-0.2990441620 -0.0952971503 0.5554593205 4286527799
-0.3000248373 -0.0949904770 0.5572808385 4287054143
-0.3010054827 -0.0946797654 0.5591023564 4287777866
-0.3015172482 -0.0942184702 0.5600528717 4287649111
-0.3024978340 -0.0939006060 0.5618743300 4288175455
-0.3721285164 -0.1904023886 0.6926386356 4290688707
-0.3718343973 -0.1887139678 0.6920912266 4288114031
-0.3705360293 -0.1872887313 0.6896745563 4287061343
-0.3701575398 -0.1863319427 0.6889700890 4286927960
-0.3693180978 -0.1851456165 0.6874076128 4286993753
-0.3680173457 -0.1837324649 0.6849865913 4285547338
-0.3086677492 -0.1534638703 0.5745198727 4289560711
-0.3022838235 -0.1496647745 0.5626375079 4289704114
-0.2991231382 -0.1474812776 0.5567545295 4289440942
-0.2964218259 -0.1455363929 0.5517266393 4288980394
-0.2955634594 -0.1445037425 0.5501289964 4288783015
-0.2947044969 -0.1434743255 0.5485302210 4288716449
-0.2938449085 -0.1424481571 0.5469302535 4288058519
-0.2929846942 -0.1414252520 0.5453291535 4287269516
-0.2930468321 -0.1408492178 0.5454447865 4287335309
-0.2926471829 -0.1400519311 0.5447009206 4287993499
-0.2922470868 -0.1392560750 0.5439562201 4288256671
-0.2918465734 -0.1384616941 0.5432107449 4287665303
-0.2914456427 -0.1376687586 0.5424644947 4287270545
-0.2910442948 -0.1368772835 0.5417174697 4288059291
-0.2915666699 -0.1365199834 0.5426897407 4288717221
-0.2911646664 -0.1357296258 0.5419415236 4289375151
-0.2902999818 -0.1347261965 0.5403320789 4289243565
-0.2903594077 -0.1341533065 0.5404427052 4288388256
-0.2899561524 -0.1333673447 0.5396921039 4288783014
-0.2900150120 -0.1327946633 0.5398017168 4288783015
-0.2896110117 -0.1320107579 0.5390497446 4288651429
-0.2892065942 -0.1312283278 0.5382969975 4288783015
-0.2892645895 -0.1306564361 0.5384049416 4288980394
-0.2888594270 -0.1298760772 0.5376508236 4289177773
-0.2884538770 -0.1290971935 0.5368959904 4289375152
-0.2885109782 -0.1285261065 0.5370022655 4289375152
-0.2885678709 -0.1279546767 0.5371081829 4289309359
-0.2886245251 -0.1273829192 0.5372136235 4289309873
-0.2882175744 -0.1266072690 0.5364561677 4289507252
-0.2882736921 -0.1260357648 0.5365605950 4289506738
-0.2883295417 -0.1254639179 0.5366646051 4289638324
-0.2883851826 -0.1248917356 0.5367681384 4289637810
-0.2884405851 -0.1243192330 0.5368712544 4289900982
-0.2884957790 -0.1237463951 0.5369739532 4289967288
-0.2885507047 -0.1231732294 0.5370761752 4287532947
-0.2886053920 -0.1225997359 0.5371780396 4287796887
-0.2881957889 -0.1218297333 0.5364155769 4287731094
-0.2882499397 -0.1212565154 0.5365163684 4285362544
-0.2883038521 -0.1206829697 0.5366167426 4286020474
-0.2883575261 -0.1201091111 0.5367166400 4289769389
-0.2884109616 -0.1195349246 0.5368161201 4289900975
-0.2884641588 -0.1189604253 0.5369151235 4283779916
-0.2885171175 -0.1183856055 0.5370137095 4282924607
-0.2885698378 -0.1178104728 0.5371118188 4286525220
-0.2886223495 -0.1172350273 0.5372095704 4286459427
-0.2886745930 -0.1166592613 0.5373067856 4286986537
-0.2887265980 -0.1160831898 0.5374035835 4287578674
-0.2887783945 -0.1155068055 0.5374999642 4287908148
-0.2883647978 -0.1147450358 0.5367302299 4288171320
-0.2884160280 -0.1141689643 0.5368255377 4287382831
-0.2884669900 -0.1135925874 0.5369204283 4288567105
-0.2885177433 -0.1130158976 0.5370148420 4288436550
-0.2885682285 -0.1124389097 0.5371088386 4288239171
-0.2886184752 -0.1118616238 0.5372023582 4287384640
-0.2886684835 -0.1112840325 0.5372954011 4287055675
-0.2887182534 -0.1107061431 0.5373880267 4287583049
-0.2887677848 -0.1101279482 0.5374802351 4287517256
-0.2892828882 -0.1097261608 0.5384390354 4286794046
-0.2893320024 -0.1091464460 0.5385304689 4287715148
-0.2898468673 -0.1087412611 0.5394887328 4287648844
-0.2898955941 -0.1081600189 0.5395794511 4287254086
-0.2904101908 -0.1077514514 0.5405372977 4287977807
-0.2904585004 -0.1071686894 0.5406271815 4287977807
-0.2905065417 -0.1065856442 0.5407165885 4288569944
-0.2905543447 -0.1060023159 0.5408055782 4287977807
-0.2910683751 -0.1055878997 0.5417622924 4288042832
-0.2915822864 -0.1051713303 0.5427188873 4289556071
-0.2916294932 -0.1045852676 0.5428067446 4289818734
-0.2916764617 -0.1039989144 0.5428941846 4290081906
-0.2917231917 -0.1034122780 0.5429810882 4290082680
-0.2917696536 -0.1028253660 0.5430675745 4288832613
-0.2922827899 -0.1024017483 0.5440226793 4290150017
-0.2923288047 -0.1018133387 0.5441083312 4291992221
-0.2923746109 -0.1012246460 0.5441935658 4290875542
-0.2928872705 -0.1007964388 0.5451477766 4289822854
-0.2929326296 -0.1002062634 0.5452322364 4290807442
-0.2934449911 -0.0997746810 0.5461859107 4290478477
-0.2939572632 -0.0993409455 0.5471394062 4289689726
-0.2944694161 -0.0989050567 0.5480926633 4289097589
-0.2949814498 -0.0984670073 0.5490456820 4288897642
-0.2954933941 -0.0980268046 0.5499985218 4288502884
-0.2964728177 -0.0977386087 0.5518215299 4289750896
-0.2969845831 -0.0972931534 0.5527740717 4290277240
-0.2970284820 -0.0966932625 0.5528557897 4290540664
-0.2975399196 -0.0962444395 0.5538077354 4288698460
-0.2980512381 -0.0957934633 0.5547594428 4286790460
-0.2985624671 -0.0953403264 0.5557109714 4286987839
-0.2995415628 -0.0950335339 0.5575333834 4286922819
-0.3005206883 -0.0947226882 0.5593557954 4287843921
-0.3014998138 -0.0944077894 0.5611782670 4287979108
-0.3024789393 -0.0940888524 0.5630006790 4287650143
-0.3687661886 -0.1890728921 0.6878022552 4290820293
-0.3702266812 -0.1890544891 0.6905263066 4287728022
-0.3693903387 -0.1878619194 0.6889663935 4288377716
-0.3685532808 -0.1866724640 0.6874051690 4287390821
-0.3677155375 -0.1854861230 0.6858426929 4287060316
-0.3673368692 -0.1845338792 0.6851363778 4286928730
-0.3660380244 -0.1831228435 0.6827138662 4285679440
-0.3021854460 -0.1505522281 0.5636195540 4289627020
-0.2962706983 -0.1469914764 0.5525876880 4290098872
-0.2990959585 -0.1477733552 0.5578572154 4289835700
-0.2968594432 -0.1460531950 0.5536857843 4289704117
-0.2955423892 -0.1447927654 0.5512292981 4288651429
-0.2946849763 -0.1437620074 0.5496301055 4289045416
-0.2938269377 -0.1427345127 0.5480297208 4289242795
-0.2934289277 -0.1419330984 0.5472873449 4288914087
-0.2925697267 -0.1409112066 0.5456848741 4288716708
-0.2921707630 -0.1401135921 0.5449407697 4288585123
-0.2926932573 -0.1397576034 0.5459152460 4288782502
-0.2918326259 -0.1387418807 0.5443100333 4288388256
-0.2914324999 -0.1379477233 0.5435637236 4287203982
-0.2905707061 -0.1369376481 0.5419564247 4286677638
-0.2906309664 -0.1363637745 0.5420687795 4286282880
-0.2906909883 -0.1357895285 0.5421807170 4287598741
-0.2902892828 -0.1350003183 0.5414314866 4288125085
-0.2898871601 -0.1342125684 0.5406814218 4287203983
-0.2894845903 -0.1334262937 0.5399306417 4288717222
-0.2895434201 -0.1328533739 0.5400403738 4289111980
-0.2891401350 -0.1320691407 0.5392881632 4289177773
-0.2891983986 -0.1314964592 0.5393968225 4289111467
-0.2887943685 -0.1307142824 0.5386433005 4289045674
-0.2883899510 -0.1299335808 0.5378889441 4289045674
-0.2884473503 -0.1293616891 0.5379959941 4288979881
-0.2880421579 -0.1285830736 0.5372402668 4288848808
-0.2880989909 -0.1280114055 0.5373463035 4288717222
-0.2881556153 -0.1274394244 0.5374518633 4288914601
-0.2882120013 -0.1268670857 0.5375570655 4288848808
-0.2878054380 -0.1260917038 0.5367987752 4288914601
-0.2878612578 -0.1255196333 0.5369029045 4289177773
-0.2879168689 -0.1249472201 0.5370065570 4289308846
-0.2879722416 -0.1243744791 0.5371098518 4289308846
-0.2880273461 -0.1238014102 0.5372126698 4289966775
-0.2876190841 -0.1230298877 0.5364512205 4289440431
-0.2876736820 -0.1224570870 0.5365530252 4289704884
-0.2877280116 -0.1218839586 0.5366543531 4289704884
-0.2877821326 -0.1213105023 0.5367552638 4289046438
-0.2878359854 -0.1207367256 0.5368557572 4288454301
-0.2878896296 -0.1201626286 0.5369557738 4290229172
-0.2874793410 -0.1193956360 0.5361905694 4290097586
-0.2875324190 -0.1188218221 0.5362895727 4283779662
-0.2875852585 -0.1182476953 0.5363880992 4282858560
-0.2881017923 -0.1178630441 0.5373515487 4286526246
-0.2881542444 -0.1172873601 0.5374493599 4286394660
-0.2882064581 -0.1167113557 0.5375467539 4286329383
-0.2882584333 -0.1161350459 0.5376436710 4286066211
-0.2883101702 -0.1155584231 0.5377401710 4286066470
-0.2878973186 -0.1147963330 0.5369701385 4286527021
-0.2879484892 -0.1142200157 0.5370655656 4286264879
-0.2879994214 -0.1136434004 0.5371605754 4288962392
-0.2880501449 -0.1130664721 0.5372551680 4289687146
-0.2881006002 -0.1124892458 0.5373492837 4289489767
-0.2881507874 -0.1119117141 0.5374429226 4289490798
-0.2882007658 -0.1113338843 0.5375361443 4289490798
-0.2882505059 -0.1107557490 0.5376288891 4289820020
-0.2883000076 -0.1101773158 0.5377211571 4289688434
-0.2888143361 -0.1097753644 0.5386804938 4288241499
-0.2888634205 -0.1091954038 0.5387720466 4289952117
-0.2893774807 -0.1087900549 0.5397308469 4290543744
-0.2894261479 -0.1082085744 0.5398216248 4290675330
-0.2899399698 -0.1077998355 0.5407800078 4291135623
-0.2899882495 -0.1072168350 0.5408700109 4290675072
-0.2900362611 -0.1066335440 0.5409595966 4290214266
-0.2905496657 -0.1062201858 0.5419171453 4289687922
-0.2905972600 -0.1056353822 0.5420058966 4289359218
-0.2911103964 -0.1052186340 0.5429629683 4290938250
-0.2911575735 -0.1046323180 0.5430509448 4290675591
-0.2912045121 -0.1040457189 0.5431385040 4289886075
-0.2912511826 -0.1034588367 0.5432255864 4290083452
-0.2917636931 -0.1030362695 0.5441814661 4288964971
-0.2918099463 -0.1024478823 0.5442677736 4289558391
-0.2923221886 -0.1020219326 0.5452231169 4290347907
-0.2923680246 -0.1014320552 0.5453085899 4289098358
-0.2924135923 -0.1008418947 0.5453936458 4287585119
-0.2929253578 -0.1004113480 0.5463481545 4287648862
-0.2929705083 -0.0998196974 0.5464323759 4287912034
-0.2934819758 -0.0993857831 0.5473863482 4288241766
-0.2939933538 -0.0989497080 0.5483400822 4288702317
-0.2949713171 -0.0986675993 0.5501641631 4288635238
-0.2954825461 -0.0982262641 0.5511176586 4289687926
-0.2959936261 -0.0977827758 0.5520709157 4291856785
-0.2965046167 -0.0973371267 0.5530239344 4292119957
-0.2970154583 -0.0968893245 0.5539767742 4291133060
-0.2975261807 -0.0964393690 0.5549293756 4287843410
-0.2980368137 -0.0959872529 0.5558817387 4286264376
-0.2985472977 -0.0955329761 0.5568338633 4287053892
-0.2990576625 -0.0950765535 0.5577857494 4286660419
-0.3000352383 -0.0947655812 0.5596091151 4287515728
-0.3010128140 -0.0944505557 0.5614324212 4287848551
-0.3024578691 -0.0942771956 0.5641276836 4288638067
-0.3034355342 -0.0939531177 0.5659511089 4290888391
-0.3667875230 -0.1884487718 0.6855319142 4290952394
-0.3677868247 -0.1881984472 0.6873995662 4287925916
-0.3674101830 -0.1872427464 0.6866956353 4288443768
-0.3665742576 -0.1860555112 0.6851333380 4287522666
-0.3657376766 -0.1848714054 0.6835696697 4287257952
-0.3649003804 -0.1836904138 0.6820048094 4286994780
-0.3636033237 -0.1822824180 0.6795805693 4285811539
-0.3604685962 -0.1799623519 0.6737217307 4289693326
-0.3022166789 -0.1502527595 0.5648479462 4290362046
-0.2986072302 -0.1478381604 0.5581017733 4290164667
-0.2968339324 -0.1463437974 0.5547874570 4289243566
-0.2950595915 -0.1448563039 0.5514712334 4288059292
-0.2942036390 -0.1438251287 0.5498713851 4289111209
-0.2933470607 -0.1427972168 0.5482704043 4289440174
-0.2929497361 -0.1419954598 0.5475278497 4289242795
-0.2925519943 -0.1411951631 0.5467844605 4289374381
-0.2912336588 -0.1399541050 0.5443204641 4288914090
-0.2912950814 -0.1393787116 0.5444352627 4289111469
-0.2908959687 -0.1385836750 0.5436893106 4288980394
-0.2914172113 -0.1382268369 0.5446635485 4288783015
-0.2905569971 -0.1372154355 0.5430557728 4288321951
-0.2901567221 -0.1364238709 0.5423076749 4288124572
-0.2902167141 -0.1358494014 0.5424197912 4288453537
-0.2898156941 -0.1350598484 0.5416702628 4288387744
-0.2894142866 -0.1342717856 0.5409200191 4287269776
-0.2894733846 -0.1336980760 0.5410304666 4286809225
-0.2890712023 -0.1329120398 0.5402788520 4288980394
-0.2891297638 -0.1323385537 0.5403882861 4289375152
-0.2887268662 -0.1315545738 0.5396352410 4289572018
-0.2883235514 -0.1307720691 0.5388814211 4289637811
-0.2879198194 -0.1299910545 0.5381268263 4289637811
-0.2879771590 -0.1294189394 0.5382340550 4289440432
-0.2880342901 -0.1288464665 0.5383408070 4289374639
-0.2876295149 -0.1280681044 0.5375842452 4289374639
-0.2876860797 -0.1274958700 0.5376899838 4289243566
-0.2877424061 -0.1269233227 0.5377953053 4289309359
-0.2877985239 -0.1263504177 0.5379001498 4289374639
-0.2873923481 -0.1255753040 0.5371410251 4288914088
-0.2874478996 -0.1250026524 0.5372448564 4289177260
-0.2875032425 -0.1244296804 0.5373482704 4289111467
-0.2875583172 -0.1238563806 0.5374512076 4289177259
-0.2876131833 -0.1232827455 0.5375537276 4288782501
-0.2872053087 -0.1225115061 0.5367914438 4289309356
-0.2872596085 -0.1219381392 0.5368928909 4289243563
-0.2873136699 -0.1213644519 0.5369939804 4289769907
-0.2873675227 -0.1207904369 0.5370945930 4289111977
-0.2874211073 -0.1202161089 0.5371947289 4290623930
-0.2870115340 -0.1194487885 0.5364292860 4290031793
-0.2870645821 -0.1188747436 0.5365284085 4283253061
-0.2871173918 -0.1183003783 0.5366271138 4283384647
-0.2876331210 -0.1179155782 0.5375910401 4286330664
-0.2876855433 -0.1173396558 0.5376889706 4286067492
-0.2877376974 -0.1167634130 0.5377864838 4286264366
-0.2877896428 -0.1161868647 0.5378835797 4286132780
-0.2878413498 -0.1156100035 0.5379801989 4286198838
-0.2874292135 -0.1148475856 0.5372099280 4286396217
-0.2874803543 -0.1142710373 0.5373054743 4286002489
-0.2875312567 -0.1136941761 0.5374006033 4289621104
-0.2875819206 -0.1131170169 0.5374953151 4289753719
-0.2876323164 -0.1125395447 0.5375895500 4289951098
-0.2876825035 -0.1119617745 0.5376833081 4289819769
-0.2877324522 -0.1113836989 0.5377766490 4290543492
-0.2877821326 -0.1108053252 0.5378695130 4290544257
-0.2882958353 -0.1104044393 0.5388296247 4289754741
-0.2883451283 -0.1098245308 0.5389217734 4288571234
-0.2883941829 -0.1092443317 0.5390134454 4290479231
-0.2889074683 -0.1088388190 0.5399727821 4290675332
-0.2894206643 -0.1084311381 0.5409319401 4291070090
-0.2894691229 -0.1078481823 0.5410225391 4291267209
-0.2895173430 -0.1072649360 0.5411126614 4290411900
-0.2900301218 -0.1068526357 0.5420710444 4289096040
-0.2900779545 -0.1062678769 0.5421604514 4288240731
-0.2905904651 -0.1058521867 0.5431182981 4287517525
-0.2906378508 -0.1052659079 0.5432068706 4289228143
-0.2906849980 -0.1046793461 0.5432950258 4288308324
-0.2907318771 -0.1040924937 0.5433826447 4287518808
-0.2912437916 -0.1036709696 0.5443394184 4287847773
-0.2912902534 -0.1030826196 0.5444262624 4287058257
-0.2918018699 -0.1026577130 0.5453824997 4287255125
-0.2918479145 -0.1020678580 0.5454685688 4287847262
-0.2918937206 -0.1014777198 0.5455541611 4288504939
