VERSION 0.7
FIELDS x y z rgba
SIZE 4 4 4 4
TYPE F F F U
COUNT 1 1 1 1
WIDTH 920
HEIGHT 1
VIEWPOINT 0.0 0.0 0.0 1.0 0.0 0.0 0.0
POINTS 920
DATA ascii
-0.2680860162 -0.1817245185 0.5750705004 4288123269
-0.2677510679 -0.1808593422 0.5743520260 4287727737
-0.2678221166 -0.1802690178 0.5745044947 4287135600
-0.2678929865 -0.1796782315 0.5746564865 4287068777
-0.2679636478 -0.1790869832 0.5748080611 4286937191
-0.2680341303 -0.1784952581 0.5749592781 4287396184
-0.2681044042 -0.1779030710 0.5751100183 4287527770
-0.2677675486 -0.1770413667 0.5743874311 4288971851
-0.2674302757 -0.1761809886 0.5736639500 4289235023
-0.2666854560 -0.1750546843 0.5720661879 4290088511
-0.2663472593 -0.1741978973 0.5713407397 4290351683
-0.2656012774 -0.1730769873 0.5697405338 4291138863
-0.2648546994 -0.1719592363 0.5681390762 4291270449
-0.2645150721 -0.1711083055 0.5674105287 4291598117
-0.2637673616 -0.1699959785 0.5658066273 4291663910
-0.2634268403 -0.1691486686 0.5650761127 4291466531
-0.2634937763 -0.1685636491 0.5652197003 4291466531
-0.2635605037 -0.1679781824 0.5653628707 4291269924
-0.2636270523 -0.1673922688 0.5655056238 4291204131
-0.2628769875 -0.1662894934 0.5638967156 4291138338
-0.2633512318 -0.1659618169 0.5649139881 4291072545
-0.2630086839 -0.1651190966 0.5641791821 4291007268
-0.2630742192 -0.1645332426 0.5643197298 4291007268
-0.2631395459 -0.1639469564 0.5644599199 4291203359
-0.2632046938 -0.1633602232 0.5645996332 4291137566
-0.2632696331 -0.1627730578 0.5647389293 4291072032
-0.2633343637 -0.1621854603 0.5648777485 4291137825
-0.2633988857 -0.1615974307 0.5650162101 4291073061
-0.2634631991 -0.1610089689 0.5651541948 4291204647
-0.2631181180 -0.1601709872 0.5644139647 4291205414
-0.2631819546 -0.1595825851 0.5645508766 4291073828
-0.2632455826 -0.1589937508 0.5646873116 4290745377
-0.2628994882 -0.1581581384 0.5639449358 4290613791
-0.2625529766 -0.1573239267 0.5632016659 4290613791
-0.2626157999 -0.1567356586 0.5633363724 4290613791
-0.2622686028 -0.1559033543 0.5625916123 4290679068
-0.2623308897 -0.1553151608 0.5627252460 4290679068
-0.2619830072 -0.1544847935 0.5619789958 4290612760
-0.2620447874 -0.1538966745 0.5621114969 4290415381
-0.2616961896 -0.1530682296 0.5613636971 4290611992
-0.2613471746 -0.1522412151 0.5606150627 4290611992
-0.2614081502 -0.1516537070 0.5607458949 4290611992
-0.2610584497 -0.1508286297 0.5599957108 4290611992
-0.2611189187 -0.1502412260 0.5601254106 4290677785
-0.2611791790 -0.1496534050 0.5602546930 4290611992
-0.2608284652 -0.1488308161 0.5595023632 4290481176
-0.2608881891 -0.1482431144 0.5596305132 4290546969
-0.2609477341 -0.1476550102 0.5597582459 4290481176
-0.2610070705 -0.1470665038 0.5598855019 4290481176
-0.2606550455 -0.1462469250 0.5591303706 4290481176
-0.2607138455 -0.1456585377 0.5592565536 4290546969
-0.2607724667 -0.1450697631 0.5593822598 4290546969
-0.2608308494 -0.1444806010 0.5595074892 4290546969
-0.2608890235 -0.1438910365 0.5596323013 4290612760
-0.2609469891 -0.1433010697 0.5597566366 4290612760
-0.2610047460 -0.1427107155 0.5598804951 4290743831
-0.2610622644 -0.1421199739 0.5600039363 4290743831
-0.2611196041 -0.1415288448 0.5601269007 4290743831
-0.2611767054 -0.1409373283 0.5602493882 4290743831
-0.2612335980 -0.1403454095 0.5603714585 4290743831
-0.2608781457 -0.1395326853 0.5596089959 4290743831
-0.2609345317 -0.1389409453 0.5597299337 4290612760
-0.2609907091 -0.1383488029 0.5598503947 4290612760
-0.2610466480 -0.1377563030 0.5599703789 4290546967
-0.2611023784 -0.1371634007 0.5600899458 4290678553
-0.2611579001 -0.1365701407 0.5602090359 4290678553
-0.2612131834 -0.1359764934 0.5603276491 4290612760
-0.2608555257 -0.1351685971 0.5595604181 4290744346
-0.2609102726 -0.1345751286 0.5596778989 4290744346
-0.2609648407 -0.1339813024 0.5597949028 4290744346
-0.2610191703 -0.1333870888 0.5599114895 4290875932
-0.2610732913 -0.1327925175 0.5600275993 4291008286
-0.2611272037 -0.1321975738 0.5601431727 4290613528
-0.2607676089 -0.1313940287 0.5593718290 4291205152
-0.2608209848 -0.1307992935 0.5594863296 4290876187
-0.2608741224 -0.1302041858 0.5596003532 4290744601
-0.2609270513 -0.1296087205 0.5597139001 4290744601
-0.2609797716 -0.1290128976 0.5598269701 4291072032
-0.2606185675 -0.1282131970 0.5590521693 4291006239
-0.2606707513 -0.1276175976 0.5591641068 4291203872
-0.2607227266 -0.1270216405 0.5592755675 4291532837
-0.2607744634 -0.1264253408 0.5593865514 4290942759
-0.2608259916 -0.1258286685 0.5594970584 4284889856
-0.2608772814 -0.1252316535 0.5596070886 4280883982
-0.2613424957 -0.1248321086 0.5606050491 4282660393
-0.2609791756 -0.1240365580 0.5598256588 4281807417
-0.2610298097 -0.1234384850 0.5599342585 4281741624
-0.2614946067 -0.1230350509 0.5609313250 4281676598
-0.2615448534 -0.1224353388 0.5610390902 4282202942
-0.2620094419 -0.1220283657 0.5620356798 4289569438
-0.2633032799 -0.1220034063 0.5648111105 4292990674
-0.2637678683 -0.1215900332 0.5658077002 4293187535
-0.2660934031 -0.1865259856 0.5721593499 4291413711
-0.2661661804 -0.1859411150 0.5723158717 4290953160
-0.2666434050 -0.1856374741 0.5733419657 4290559164
-0.2667159140 -0.1850507557 0.5734978914 4290164406
-0.2663834095 -0.1841836423 0.5727829337 4289506217
-0.2660504878 -0.1833178550 0.5720670223 4288979873
-0.2661221921 -0.1827314943 0.5722212791 4288650391
-0.2661937177 -0.1821446568 0.5723750591 4288189840
-0.2662650645 -0.1815573424 0.5725284815 4287991681
-0.2663362026 -0.1809695661 0.5726814270 4287662716
-0.2664071620 -0.1803813279 0.5728340149 4287332977
-0.2664779127 -0.1797925979 0.5729861856 4286938219
-0.2665484846 -0.1792034209 0.5731378794 4287068259
-0.2666188478 -0.1786137670 0.5732892156 4287068259
-0.2666890323 -0.1780236363 0.5734400749 4287068247
-0.2667590082 -0.1774330586 0.5735905766 4286936661
-0.2668288052 -0.1768420041 0.5737406015 4287656524
-0.2664921582 -0.1759822220 0.5730167627 4287853903
-0.2661550939 -0.1751237810 0.5722919703 4288379461
-0.2662240565 -0.1745331585 0.5724403262 4288511047
-0.2654797435 -0.1734109372 0.5708398819 4288970545
-0.2651414573 -0.1725565344 0.5701124668 4289036338
-0.2648027837 -0.1717034876 0.5693842173 4289363998
-0.2644636929 -0.1708517969 0.5686550736 4289429791
-0.2637172043 -0.1697395146 0.5670500398 4289692187
-0.2641913593 -0.1694135368 0.5680695176 4289626394
-0.2638511360 -0.1685650200 0.5673379898 4289560862
-0.2639178038 -0.1679770947 0.5674813390 4289495069
-0.2639842629 -0.1673887372 0.5676242709 4289297952
-0.2640505433 -0.1667999178 0.5677667856 4289297952
-0.2637090385 -0.1659541726 0.5670323968 4289167395
-0.2637747824 -0.1653653830 0.5671738386 4289167395
-0.2638403475 -0.1647761613 0.5673148036 4289429530
-0.2639057040 -0.1641864926 0.5674553514 4289363737
-0.2639708817 -0.1635963917 0.5675954223 4289429528
-0.2636277378 -0.1627539247 0.5668576360 4289626907
-0.2636923790 -0.1621638536 0.5669966340 4289824537
-0.2637568414 -0.1615733653 0.5671352148 4290153502
-0.2638210952 -0.1609824449 0.5672733784 4290416412
-0.2638851404 -0.1603910923 0.5674110651 4290547998
-0.2639489770 -0.1597992927 0.5675483346 4290744861
-0.2636038959 -0.1589606404 0.5668063760 4290744861
-0.2632584572 -0.1581233740 0.5660635829 4290810402
-0.2629126012 -0.1572875232 0.5653198957 4290810402
-0.2629753053 -0.1566967815 0.5654547811 4290875685
-0.2626287341 -0.1558628529 0.5647096038 4290941478
-0.2622817755 -0.1550303400 0.5639635324 4291072294
-0.2623436749 -0.1544401795 0.5640966296 4290940708
-0.2619960308 -0.1536095738 0.5633490682 4290744348
-0.2616479397 -0.1527804136 0.5626006722 4290744348
-0.2612994909 -0.1519526839 0.5618513823 4290678555
-0.2613602579 -0.1513636261 0.5619820952 4290678555
-0.2610110939 -0.1505378485 0.5612313151 4290612762
-0.2610713840 -0.1499488950 0.5613608956 4290546969
-0.2607215047 -0.1491250694 0.5606086254 4290481176
-0.2607812881 -0.1485362351 0.5607371330 4290481176
-0.2608408332 -0.1479469985 0.5608651638 4290415383
-0.2609001696 -0.1473573595 0.5609927773 4290415383
-0.2609593272 -0.1467673182 0.5611199141 4290481176
-0.2610182464 -0.1461768746 0.5612466335 4290481176
-0.2610769570 -0.1455860287 0.5613728762 4290481176
-0.2607248724 -0.1447668076 0.5606158376 4290481176
-0.2607830763 -0.1441760957 0.5607409477 4290546969
-0.2608410716 -0.1435849965 0.5608656406 4290481176
-0.2608988285 -0.1429934949 0.5609899163 4290481429
-0.2605454326 -0.1421773583 0.5602300167 4290481429
-0.2606027126 -0.1415860057 0.5603531599 4290547222
-0.2606597543 -0.1409942657 0.5604757667 4290547222
-0.2607165575 -0.1404021531 0.5605980158 4290613015
-0.2607731819 -0.1398096383 0.5607197285 4290547222
-0.2604181767 -0.1389971524 0.5599563718 4290547222
-0.2604742944 -0.1384048164 0.5600770116 4290547222
-0.2605301738 -0.1378120780 0.5601971745 4290546967
-0.2605858147 -0.1372189820 0.5603168607 4290612760
-0.2606412768 -0.1366254836 0.5604360700 4290546967
-0.2606965005 -0.1360316277 0.5605548620 4290546967
-0.2607515156 -0.1354373842 0.5606731176 4290612760
-0.2603943050 -0.1346297413 0.5599050522 4290612760
-0.2604487836 -0.1340356916 0.5600221753 4290678553
-0.2605030537 -0.1334412694 0.5601388812 4290810139
-0.2605571151 -0.1328464746 0.5602551103 4290745628
-0.2606109381 -0.1322513074 0.5603708625 4290482456
-0.2602521181 -0.1314474642 0.5595993400 4290875932
-0.2603054345 -0.1308525056 0.5597139597 4290941725
-0.2603585124 -0.1302571893 0.5598281026 4290810139
-0.2604113817 -0.1296615005 0.5599417686 4290810139
-0.2604640424 -0.1290654540 0.5600550175 4291006493
-0.2605164647 -0.1284690499 0.5601677299 4290940700
-0.2601557374 -0.1276696324 0.5593920350 4291400746
-0.2602076232 -0.1270734519 0.5595036745 4291532332
-0.2602593005 -0.1264769137 0.5596147776 4290809124
-0.2603107691 -0.1258800179 0.5597254038 4285808896
-0.2607752681 -0.1254816353 0.5607241988 4281671681
-0.2608263493 -0.1248831004 0.5608340502 4282263818
-0.2608772218 -0.1242842004 0.5609434247 4281672733
-0.2605143487 -0.1234889477 0.5601631403 4281475354
-0.2609782815 -0.1230853647 0.5611606836 4281738774
-0.2614421248 -0.1226795390 0.5621581078 4283449392
-0.2619059384 -0.1222714633 0.5631553531 4289699730
-0.2627834976 -0.1220533550 0.5650423169 4293449931
-0.2636611462 -0.1218310893 0.5669294596 4293055436
-0.2646816969 -0.1866144091 0.5704863071 4291282895
-0.2647543550 -0.1860316247 0.5706429482 4291150541
-0.2652305365 -0.1857310385 0.5716692805 4290624197
-0.2653029263 -0.1851463914 0.5718252659 4290229940
-0.2653751373 -0.1845612675 0.5719808936 4289835182
-0.2654471397 -0.1839756668 0.5721361637 4289111456
-0.2647106946 -0.1828313321 0.5705488324 4288519319
-0.2651863694 -0.1825248003 0.5715740323 4288123786
-0.2652576864 -0.1819386780 0.5717278123 4287531649
-0.2649243772 -0.1810756177 0.5710093379 4287531130
-0.2649952173 -0.1804894358 0.5711620450 4287070579
-0.2650658786 -0.1799027920 0.5713143349 4287004012
-0.2651363313 -0.1793156713 0.5714662075 4287069805
-0.2652066052 -0.1787280887 0.5716176629 4287199584
-0.2652766705 -0.1781400293 0.5717687011 4286870619
-0.2653465271 -0.1775515079 0.5719192624 4286739795
-0.2654162347 -0.1769625247 0.5720694661 4286674002
-0.2654857039 -0.1763730794 0.5722192526 4286805326
-0.2655549943 -0.1757831722 0.5723686218 4286673740
-0.2656241059 -0.1751928031 0.5725175142 4286739025
-0.2652873695 -0.1743354052 0.5717917085 4286607439
-0.2653559446 -0.1737450212 0.5719395876 4286737997
-0.2650185227 -0.1728894114 0.5712122321 4286737997
-0.2650865912 -0.1722990125 0.5713590384 4286868291
-0.2647484541 -0.1714452058 0.5706301928 4286802498
-0.2644098699 -0.1705927551 0.5699004531 4287129663
-0.2644771934 -0.1700028181 0.5700454712 4287063870
-0.2645442784 -0.1694124192 0.5701901317 4287129153
-0.2646111548 -0.1688215733 0.5703343153 4287129153
-0.2646778524 -0.1682302952 0.5704780221 4286735934
-0.2643376887 -0.1673810482 0.5697448254 4286604348
-0.2644038796 -0.1667897701 0.5698875189 4286211384
-0.2644698620 -0.1661980599 0.5700297356 4285948212
-0.2645356655 -0.1656059027 0.5701715350 4286405430
-0.2646012306 -0.1650132984 0.5703129172 4286405430
-0.2642594576 -0.1641672999 0.5695762038 4286734638
-0.2643245161 -0.1635747403 0.5697164536 4287063603
-0.2643893957 -0.1629817337 0.5698562860 4287720737
-0.2644540668 -0.1623882949 0.5699957013 4288247081
-0.2641109526 -0.1615451276 0.5692561865 4289363994
-0.2645828128 -0.1612001061 0.5702731609 4289758752
-0.2642390728 -0.1603579074 0.5695323348 4290547482
-0.2638949454 -0.1595170945 0.5687906146 4290810654
-0.2635504305 -0.1586776972 0.5680480003 4291204382
-0.2632054985 -0.1578397155 0.5673045516 4291204382
-0.2632683516 -0.1572469324 0.5674400330 4291203872
-0.2629227042 -0.1564108580 0.5666950345 4291203872
-0.2629850507 -0.1558181494 0.5668293834 4291465761
-0.2626387179 -0.1549839824 0.5660828948 4291399968
-0.2622919679 -0.1541512460 0.5653355718 4291073313
-0.2611275315 -0.1528415531 0.5628257990 4291007520
-0.2615973055 -0.1524900496 0.5638383031 4290875934
-0.2612493634 -0.1516616046 0.5630883574 4290744348
-0.2613099813 -0.1510710120 0.5632190108 4290678555
-0.2609613538 -0.1502445042 0.5624675751 4290546969
-0.2606123090 -0.1494194567 0.5617153049 4290546969
-0.2606720924 -0.1488294899 0.5618441701 4290546969
-0.2607316673 -0.1482391059 0.5619725585 4290481176
-0.2607910335 -0.1476483345 0.5621005297 4290481176
-0.2608502209 -0.1470571458 0.5622280240 4290481176
-0.2604995668 -0.1462356299 0.5614722967 4290481176
-0.2605582178 -0.1456445754 0.5615986586 4290415383
-0.2606166601 -0.1450531334 0.5617246032 4290481176
-0.2606748641 -0.1444612741 0.5618501306 4290546969
-0.2607328892 -0.1438690275 0.5619751215 4290415383
-0.2603806257 -0.1430511177 0.5612159371 4290481174
-0.2604381144 -0.1424590051 0.5613398552 4290481174
-0.2604953945 -0.1418665200 0.5614632964 4290481174
-0.2605524659 -0.1412736326 0.5615863204 4290481174
-0.2606093287 -0.1406803578 0.5617088675 4290481174
-0.2602554560 -0.1398660839 0.5609461665 4290481174
-0.2603117824 -0.1392729729 0.5610675812 4290546967
-0.2603679001 -0.1386794895 0.5611885190 4290546967
-0.2604238093 -0.1380856037 0.5613089800 4290678553
-0.2604795098 -0.1374913454 0.5614290237 4290612760
-0.2605349720 -0.1368966997 0.5615485907 4290415894
-0.2605902255 -0.1363016814 0.5616676807 4290415894
-0.2602341473 -0.1354922354 0.5609002113 4290481687
-0.2602888942 -0.1348973960 0.5610181689 4290547480
-0.2603434026 -0.1343021840 0.5611356497 4290547480
-0.2603977025 -0.1337065995 0.5612527132 4290613273
-0.2604517639 -0.1331106573 0.5613692403 4290416917
-0.2605056167 -0.1325143278 0.5614853501 4290680089
-0.2605592608 -0.1319176257 0.5616009235 4290809373
-0.2602009773 -0.1311131120 0.5608286858 4291072545
-0.2602540851 -0.1305166334 0.5609431863 4290874907
-0.2603069544 -0.1299197823 0.5610571504 4291269665
-0.2603596449 -0.1293225586 0.5611706972 4291137047
-0.2604120970 -0.1287249923 0.5612837076 4291071254
-0.2600521743 -0.1279243231 0.5605080128 4291334694
-0.2601041198 -0.1273269802 0.5606198907 4291334694
-0.2601557970 -0.1267292649 0.5607313514 4291138069
-0.2602072954 -0.1261312068 0.5608422756 4288506368
-0.2602585256 -0.1255327910 0.5609527826 4286012940
-0.2607221007 -0.1251320243 0.5619519353 4285947147
-0.2607729733 -0.1245319545 0.5620616078 4285552415
-0.2608236372 -0.1239315346 0.5621708035 4285289243
-0.2608740926 -0.1233307645 0.5622795224 4284893980
-0.2617500126 -0.1231180355 0.5641674399 4286604598
-0.2622130811 -0.1227079108 0.5651655197 4290224771
-0.2626760900 -0.1222955361 0.5661634803 4293382835
-0.2635520995 -0.1220722422 0.5680516362 4293121734
-0.2636756003 -0.1869841218 0.5696815848 4291348942
-0.2637482584 -0.1864025146 0.5698385239 4290954184
-0.2638207078 -0.1858204156 0.5699951053 4290822598
-0.2638929784 -0.1852378398 0.5701512098 4290230461
-0.2643680871 -0.1849367023 0.5711776614 4289900723
-0.2644400895 -0.1843522936 0.5713332295 4289374379
-0.2641086876 -0.1834872514 0.5706172585 4289044637
-0.2641801834 -0.1829027683 0.5707717538 4288255121
-0.2642515302 -0.1823178232 0.5709258914 4287794051
-0.2639191151 -0.1814549416 0.5702077150 4287333500
-0.2639899552 -0.1808699220 0.5703607202 4287201652
-0.2640606165 -0.1802844554 0.5705133677 4287070066
-0.2641310692 -0.1796985120 0.5706655979 4287200876
-0.2637973428 -0.1788382232 0.5699446201 4287069290
-0.2638673186 -0.1782522351 0.5700957775 4287199843
-0.2639370859 -0.1776657850 0.5702465177 4287134050
-0.2640066743 -0.1770788729 0.5703968406 4287002458
-0.2640760541 -0.1764914840 0.5705467463 4286936665
-0.2641452551 -0.1759036481 0.5706962347 4287198297
-0.2642142475 -0.1753153503 0.5708453059 4287198297
-0.2646877766 -0.1749941558 0.5718683600 4287066968
-0.2647564709 -0.1744040251 0.5720168352 4286935382
-0.2648249865 -0.1738134474 0.5721648335 4286869332
-0.2648932934 -0.1732224077 0.5723124743 4286935125
-0.2649614215 -0.1726309061 0.5724596381 4287065941
-0.2646240890 -0.1717758924 0.5717307925 4287065941
-0.2650970519 -0.1714465469 0.5727526546 4286802769
-0.2647591233 -0.1705924422 0.5720225573 4286802769
-0.2648263574 -0.1700000316 0.5721678138 4286671183
-0.2648933828 -0.1694071740 0.5723125935 4286605390
-0.2649601996 -0.1688138545 0.5724569559 4286473804
-0.2646209598 -0.1679624915 0.5717239976 4286210632
-0.2646872699 -0.1673692018 0.5718672872 4286078533
-0.2647533715 -0.1667754650 0.5720101595 4286012740
-0.2648192942 -0.1661812812 0.5721525550 4286208577
-0.2648850083 -0.1655866504 0.5722945333 4286208577
-0.2653568685 -0.1652446389 0.5733140111 4286010931
-0.2654222548 -0.1646482199 0.5734552741 4285747759
-0.2646743357 -0.1635489017 0.5718393326 4285879586
-0.2647391260 -0.1629534215 0.5719793439 4285945379
-0.2648037076 -0.1623575091 0.5721188784 4286208794
-0.2648681104 -0.1617611647 0.5722579956 4286603552
-0.2645253241 -0.1609168202 0.5715174079 4287589151
-0.2645891905 -0.1603205353 0.5716553926 4288115495
-0.2642456889 -0.1594780833 0.5709132552 4288772128
-0.2639017999 -0.1586370319 0.5701702833 4289298472
-0.2635574937 -0.1577973962 0.5694264174 4290217252
-0.2632128000 -0.1569591612 0.5686816573 4290348838
-0.2632752657 -0.1563644111 0.5688166022 4290808100
-0.2629298568 -0.1555280983 0.5680703521 4290742307
-0.2625840604 -0.1546932161 0.5673232079 4290875669
-0.2614221871 -0.1533811837 0.5648129582 4291138841
-0.2618912458 -0.1530277282 0.5658263564 4291073311
-0.2611362040 -0.1519596875 0.5641950965 4291007518
-0.2611968517 -0.1513679624 0.5643261075 4290876196
-0.2612572610 -0.1507758200 0.5644566417 4290876196
-0.2605008483 -0.1497139484 0.5628224015 4290810149
-0.2605606616 -0.1491228491 0.5629516244 4290612770
-0.2602117658 -0.1482985318 0.5621978045 4290613275
-0.2602710724 -0.1477075368 0.5623259544 4290744861
-0.2603301704 -0.1471161395 0.5624535680 4290810646
-0.2599802613 -0.1462943256 0.5616976619 4290744853
-0.2600388527 -0.1457030624 0.5618242025 4290809625
-0.2600972056 -0.1451113969 0.5619502664 4290809625
-0.2601553500 -0.1445193440 0.5620759130 4290808609
-0.2602132857 -0.1439268738 0.5622011423 4290677023
-0.2602710128 -0.1433340311 0.5623258352 4290678557
-0.2599192262 -0.1425163448 0.5615657568 4290678557
-0.2599764466 -0.1419236362 0.5616893768 4290678557
-0.2600334287 -0.1413305402 0.5618125200 4290744350
-0.2600902021 -0.1407370567 0.5619351864 4290940957
-0.2601467967 -0.1401431710 0.5620574355 4290875164
-0.2597933710 -0.1393291503 0.5612938404 4290875418
-0.2598494291 -0.1387354434 0.5614149570 4290941211
-0.2599052489 -0.1381413490 0.5615355968 4290744346
-0.2599608898 -0.1375468671 0.5616557598 4290678553
-0.2600162923 -0.1369520128 0.5617754459 4290679068
-0.2600714862 -0.1363567710 0.5618947148 4290679068
-0.2601264417 -0.1357611567 0.5620134473 4290548250
-0.2597708106 -0.1349519640 0.5612451434 4290614043
-0.2602357268 -0.1345687956 0.5622496009 4290614555
-0.2602900565 -0.1339720488 0.5623669624 4290548762
-0.2603441477 -0.1333749443 0.5624838471 4290941211
-0.2599872947 -0.1325680166 0.5617128611 4290809625
-0.2600408792 -0.1319711059 0.5618286133 4290874907
-0.2600942254 -0.1313738227 0.5619438887 4291006493
-0.2597363889 -0.1305695772 0.5611707568 4291006742
-0.2597892284 -0.1299725026 0.5612848997 4291006742
-0.2598418295 -0.1293750703 0.5613985062 4291007004
-0.2598942220 -0.1287772804 0.5615116954 4290941211
-0.2599463761 -0.1281791180 0.5616244078 4290480673
-0.2599983215 -0.1275805980 0.5617366433 4290678052
-0.2600500286 -0.1269817352 0.5618484020 4290613273
-0.2601015270 -0.1263824999 0.5619596839 4290481687
-0.2605644464 -0.1259819269 0.5629597902 4290088736
-0.2606155872 -0.1253810376 0.5630702376 4290351908
-0.2610782683 -0.1249769256 0.5640699267 4290154575
-0.2611290514 -0.1243743822 0.5641795993 4290154575
-0.2611795664 -0.1237714887 0.5642887950 4289499468
-0.2616419196 -0.1233625114 0.5652877092 4290223191
-0.2621041834 -0.1229512841 0.5662865043 4291343754
-0.2625663877 -0.1225378141 0.5672850609 4292988579
-0.2634408176 -0.1223134920 0.5691742897 4292925637
-0.2618674636 -0.1867787093 0.5671359301 4291217870
-0.2623416185 -0.1864856333 0.5681627989 4291019976
-0.2624139488 -0.1859056056 0.5683194995 4290691011
-0.2624861002 -0.1853251010 0.5684757233 4290427840
-0.2625580728 -0.1847441196 0.5686315894 4289901496
-0.2626298368 -0.1841626614 0.5687870383 4289637551
-0.2627014220 -0.1835807264 0.5689420700 4289045414
-0.2627728283 -0.1829983145 0.5690966845 4288715929
-0.2628440261 -0.1824154258 0.5692509413 4287794827
-0.2629150748 -0.1818320751 0.5694047213 4287268477
-0.2629858851 -0.1812482327 0.5695581436 4286742133
-0.2626537085 -0.1803872734 0.5688387156 4287070066
-0.2627240419 -0.1798033863 0.5689910650 4286872687
-0.2627941966 -0.1792190522 0.5691429973 4287134570
-0.2628641725 -0.1786342263 0.5692945123 4287068777
-0.2629339397 -0.1780489534 0.5694456100 4287199586
-0.2630035281 -0.1774632037 0.5695962906 4287199586
-0.2630729079 -0.1768769920 0.5697466135 4287002204
-0.2631421089 -0.1762903184 0.5698964596 4286870618
-0.2632111013 -0.1757031828 0.5700458884 4287066970
-0.2632799149 -0.1751155853 0.5701949000 4287132763
-0.2633485198 -0.1745275408 0.5703434944 4287132763
-0.2638209462 -0.1742057949 0.5713666677 4287001177
-0.2638892531 -0.1736159176 0.5715146065 4286935384
-0.2643616199 -0.1732905507 0.5725376010 4286869591
-0.2644296587 -0.1726988554 0.5726849437 4286869078
-0.2644974887 -0.1721067131 0.5728318691 4286803285
-0.2645651400 -0.1715140939 0.5729783773 4286934355
-0.2642279267 -0.1706596911 0.5722481012 4286868562
-0.2642950714 -0.1700670868 0.5723934770 4286736976
-0.2643620074 -0.1694740206 0.5725384355 4286605390
-0.2648336887 -0.1691391319 0.5735599995 4286473804
-0.2649003267 -0.1685442775 0.5737043023 4286276425
-0.2645616233 -0.1676921546 0.5729707479 4286144326
-0.2646277547 -0.1670973003 0.5731139779 4286078533
-0.2646936774 -0.1665019989 0.5732567906 4286143548
-0.2647594213 -0.1659062654 0.5733991265 4286077755
-0.2652304769 -0.1655632257 0.5744193792 4285814330
-0.2652959228 -0.1649656892 0.5745610595 4285551158
-0.2653611302 -0.1643677056 0.5747023225 4285419322
-0.2650202811 -0.1635188758 0.5739641190 4285221943
-0.2650850117 -0.1629209369 0.5741042495 4285090098
-0.2647434473 -0.1620739698 0.5733645558 4285090098
-0.2644014955 -0.1612284034 0.5726240277 4285419048
-0.2644653916 -0.1606309861 0.5727623701 4285419048
-0.2641227543 -0.1597873122 0.5720202923 4285747474
-0.2641861141 -0.1591899395 0.5721575618 4286339611
-0.2638427615 -0.1583481580 0.5714139342 4287128330
-0.2630923688 -0.1572647244 0.5697887540 4287325709
-0.2635615766 -0.1569109857 0.5708048940 4288377867
-0.2628102601 -0.1558313072 0.5691778064 4289298969
-0.2628722191 -0.1552354991 0.5693119764 4290282778
-0.2621199489 -0.1541605145 0.5676827431 4290677536
-0.2617741823 -0.1533272564 0.5669338703 4290941211
-0.2614279985 -0.1524954289 0.5661841631 4291204383
-0.2610814571 -0.1516650319 0.5654336214 4291401502
-0.2611418962 -0.1510717571 0.5655645132 4291204123
-0.2607946396 -0.1502433270 0.5648124814 4290940959
-0.2604469657 -0.1494163275 0.5640594959 4291072545
-0.2605066001 -0.1488236785 0.5641886592 4290809890
-0.2605659962 -0.1482306272 0.5643173456 4290941476
-0.2606252134 -0.1476371586 0.5644455552 4290875934
-0.2602762580 -0.1468131840 0.5636897683 4290810141
-0.2603349388 -0.1462198496 0.5638169050 4290810394
-0.2603934109 -0.1456261128 0.5639435053 4290810394
-0.2600434422 -0.1448046565 0.5631855726 4290744601
-0.2601014078 -0.1442110538 0.5633111000 4290678808
-0.2601591647 -0.1436170489 0.5634362102 4290481176
-0.2602167130 -0.1430226564 0.5635607839 4290546969
-0.2598654330 -0.1422042847 0.5628000498 4290612764
-0.2599224448 -0.1416100264 0.5629235506 4290678557
-0.2599792480 -0.1410153955 0.5630465746 4290810141
-0.2600358427 -0.1404203773 0.5631691217 4290810141
-0.2596832812 -0.1396051049 0.5624055266 4290744601
-0.2597393394 -0.1390102506 0.5625270009 4290744601
-0.2597952187 -0.1384149939 0.5626479983 4290744599
-0.2598508596 -0.1378193647 0.5627684593 4290810392
-0.2599062622 -0.1372233480 0.5628885031 4290941208
-0.2599614859 -0.1366269588 0.5630080700 4290941208
-0.2600164711 -0.1360301822 0.5631271601 4290875417
-0.2600712478 -0.1354330331 0.5632458329 4290875417
-0.2601258159 -0.1348355114 0.5633639693 4290875417
-0.2601801455 -0.1342376024 0.5634816289 4290875417
-0.2602342665 -0.1336393356 0.5635988712 4290809624
-0.2602881491 -0.1330406815 0.5637155771 4290743831
-0.2599318624 -0.1322330832 0.5629439354 4290743582
-0.2599852383 -0.1316346377 0.5630595088 4290809375
-0.2600383759 -0.1310358346 0.5631746054 4290743829
-0.2600913048 -0.1304366440 0.5632892847 4290809622
-0.2597337067 -0.1296323091 0.5625147820 4290941462
-0.2597860992 -0.1290333420 0.5626282692 4290941462
-0.2602487803 -0.1286369115 0.5636302829 4290480155
-0.2603008449 -0.1280362904 0.5637429953 4290611741
-0.2603526413 -0.1274352968 0.5638552308 4290677785
-0.2604042590 -0.1268339455 0.5639669895 4290743578
-0.2608664334 -0.1264313310 0.5649679899 4290548509
-0.2609176636 -0.1258283257 0.5650789142 4290811681
-0.2609686852 -0.1252249628 0.5651894212 4290747195
-0.2610194683 -0.1246212348 0.5652993917 4291076160
-0.2614811361 -0.1242124662 0.5662992597 4290289762
-0.2615315616 -0.1236070916 0.5664084554 4291342450
-0.2619930208 -0.1231947616 0.5674079061 4292396704
-0.2624544501 -0.1227801889 0.5684071779 4293712564
-0.2605372071 -0.1862779707 0.5656154752 4291020491
-0.2610102296 -0.1859865934 0.5666424036 4290822597
-0.2610822618 -0.1854081601 0.5667988062 4290493632
-0.2611541152 -0.1848292500 0.5669547319 4290230460
-0.2612257600 -0.1842498630 0.5671103001 4289638323
-0.2612972260 -0.1836699992 0.5672654510 4289309099
-0.2613685131 -0.1830896586 0.5674201846 4288716962
-0.2614395916 -0.1825088412 0.5675745606 4288386964
-0.2615104914 -0.1819275618 0.5677284598 4287531655
-0.2619830370 -0.1816243678 0.5687543154 4287071098
-0.2620536685 -0.1810412407 0.5689076781 4286742133
-0.2617220879 -0.1801808625 0.5681878328 4287069553
-0.2613901198 -0.1793218106 0.5674670935 4286872174
-0.2614599466 -0.1787390709 0.5676187277 4287265386
-0.2615296245 -0.1781558543 0.5677700043 4287199593
-0.2615990937 -0.1775721908 0.5679208040 4287133539
-0.2616683841 -0.1769880503 0.5680711865 4287199332
-0.2617374659 -0.1764034480 0.5682212114 4287068000
-0.2618063688 -0.1758183688 0.5683707595 4286870621
-0.2618750632 -0.1752328426 0.5685198903 4287132510
-0.2623465657 -0.1749155521 0.5695435405 4287132510
-0.2624149919 -0.1743281931 0.5696920753 4286935899
-0.2628864050 -0.1740072668 0.5707155466 4286935899
-0.2633578479 -0.1736840755 0.5717390180 4287066971
-0.2630224824 -0.1728284806 0.5710109472 4286935385
-0.2634937465 -0.1725025624 0.5720340014 4286869078
-0.2635613978 -0.1719111204 0.5721808672 4286869078
-0.2636288404 -0.1713192165 0.5723273158 4286803539
-0.2636961043 -0.1707268655 0.5724733472 4286737746
-0.2637631595 -0.1701340526 0.5726189017 4286802769
-0.2638300061 -0.1695407927 0.5727640390 4286605390
-0.2643007934 -0.1692058146 0.5737860799 4286408009
-0.2643673718 -0.1686107367 0.5739305615 4286276423
-0.2644337118 -0.1680152267 0.5740746260 4286210117
-0.2644998729 -0.1674192697 0.5742182732 4286078531
-0.2645658255 -0.1668228507 0.5743614435 4286209593
-0.2646315694 -0.1662259996 0.5745041966 4286078007
-0.2646971047 -0.1656286865 0.5746464729 4285815353
-0.2647624612 -0.1650309563 0.5747883320 4285683767
-0.2648276091 -0.1644327641 0.5749297142 4285420601
-0.2648925185 -0.1638341397 0.5750707388 4285289015
-0.2649572492 -0.1632350683 0.5752112269 4285157431
-0.2650217712 -0.1626355648 0.5753512979 4284960052
-0.2646807730 -0.1617878526 0.5746110082 4285222965
-0.2647447884 -0.1611883938 0.5747499466 4285025586
-0.2644030452 -0.1603425741 0.5740081072 4284959274
-0.2644665539 -0.1597431749 0.5741459131 4284761895
-0.2637183964 -0.1586551666 0.5725217462 4284235288
-0.2629696727 -0.1575704068 0.5708962679 4283445772
-0.2634380758 -0.1572156250 0.5719131231 4283840015
-0.2626884282 -0.1561346352 0.5702856779 4284826910
-0.2627504170 -0.1555376947 0.5704202652 4286468117
-0.2624059618 -0.1547008604 0.5696725249 4287060254
-0.2616548538 -0.1536268890 0.5680418015 4288178706
-0.2613095343 -0.1527938396 0.5672921538 4289297187
-0.2613702714 -0.1521989256 0.5674240589 4290349590
-0.2610242665 -0.1513678133 0.5666728616 4290349590
-0.2610844970 -0.1507729888 0.5668036342 4290546450
-0.2607377768 -0.1499438435 0.5660509467 4291007001
-0.2603906691 -0.1491161287 0.5652973652 4291533347
-0.2604500949 -0.1485219449 0.5654263496 4291533347
-0.2605093122 -0.1479273438 0.5655549169 4291270945
-0.2605683208 -0.1473323405 0.5656830668 4290941980
-0.2602199018 -0.1465076506 0.5649266243 4290875934
-0.2602784038 -0.1459127665 0.5650536418 4290875934
-0.2603366971 -0.1453174949 0.5651801825 4291006501
-0.2599872649 -0.1444953382 0.5644215941 4291138087
-0.2600450218 -0.1439001858 0.5645470023 4291006744
-0.2601025999 -0.1433046460 0.5646719337 4291072537
-0.2601599395 -0.1427087188 0.5647964478 4290875418
-0.2598091960 -0.1418896317 0.5640349984 4290678039
-0.2598660290 -0.1412938535 0.5641583800 4290612762
-0.2599226534 -0.1406976730 0.5642812848 4290678555
-0.2599790394 -0.1401011050 0.5644037127 4290547482
-0.2596270144 -0.1392851621 0.5636394620 4290547482
-0.2596828938 -0.1386887580 0.5637608171 4290415896
-0.2597385347 -0.1380919665 0.5638816357 4290481689
-0.2597939968 -0.1374948025 0.5640019774 4290612762
-0.2598492205 -0.1368972510 0.5641219020 4290546969
-0.2599042356 -0.1362993270 0.5642413497 4290809114
-0.2599590421 -0.1357010156 0.5643602610 4290874907
-0.2600136101 -0.1351023316 0.5644787550 4290940189
-0.2600679696 -0.1345032603 0.5645967722 4290940189
-0.2601220906 -0.1339038312 0.5647143126 4290744346
-0.2601760328 -0.1333040148 0.5648313761 4290678553
-0.2602297366 -0.1327038258 0.5649479628 4290678306
-0.2598739564 -0.1318955719 0.5641756058 4290678306
-0.2599271238 -0.1312955916 0.5642910004 4290612764
-0.2599800825 -0.1306952387 0.5644059777 4290612764
-0.2600328028 -0.1300945282 0.5645204782 4290809371
-0.2600853145 -0.1294934452 0.5646344423 4290743578
-0.2601376176 -0.1288920045 0.5647479892 4290611230
-0.2601896822 -0.1282902062 0.5648609996 4290677023
-0.2606513500 -0.1278891265 0.5658632517 4290677787
-0.2607030571 -0.1272856444 0.5659754872 4291006752
-0.2607545257 -0.1266818196 0.5660872459 4290877478
-0.2608057857 -0.1260776222 0.5661985278 4291074857
-0.2612669468 -0.1256703734 0.5671997070 4291208259
-0.2613178194 -0.1250645220 0.5673102140 4291866189
-0.2613684833 -0.1244583204 0.5674201846 4291672455
-0.2618293166 -0.1240461990 0.5684205890 4292790936
-0.2618795931 -0.1234383434 0.5685297251 4293318584
-0.2627507448 -0.1232151836 0.5704209805 4294042307
-0.2591376305 -0.1863517016 0.5639368296 4291283663
-0.2592096031 -0.1857767105 0.5640934110 4290954698
-0.2596814930 -0.1854870319 0.5651203990 4290625988
-0.2597532272 -0.1849101931 0.5652764440 4290297023
-0.2598247528 -0.1843328774 0.5654321313 4290032820
-0.2598960996 -0.1837550849 0.5655874014 4289374890
-0.2603678107 -0.1834590584 0.5666139722 4288848546
-0.2604388893 -0.1828794330 0.5667686462 4288256409
-0.2605097890 -0.1822993159 0.5669229031 4287861390
-0.2605805099 -0.1817187369 0.5670768023 4287071874
-0.2606510222 -0.1811376810 0.5672302842 4286939512
-0.2607213557 -0.1805561483 0.5673833489 4286742133
-0.2607915103 -0.1799741536 0.5675359964 4287069039
-0.2604601383 -0.1791157126 0.5668148398 4287003246
-0.2601283491 -0.1782585829 0.5660928488 4287265386
-0.2601977289 -0.1776769757 0.5662438273 4287199593
-0.2602669001 -0.1770949066 0.5663943291 4287199332
-0.2603358626 -0.1765123755 0.5665444732 4287265125
-0.2604046762 -0.1759293675 0.5666941404 4287133539
-0.2608752251 -0.1756165177 0.5677182078 4287067746
-0.2609437406 -0.1750316918 0.5678672791 4287133282
-0.2614142299 -0.1747152060 0.5688911676 4287067489
-0.2614824772 -0.1741285622 0.5690397024 4286935903
-0.2619528770 -0.1738084555 0.5700634122 4286935903
-0.2624233365 -0.1734860688 0.5710871816 4286935901
-0.2620885968 -0.1726310700 0.5703587532 4286870108
-0.2625588477 -0.1723059714 0.5713821054 4286935385
-0.2626263201 -0.1717152297 0.5715289116 4286935385
-0.2626935840 -0.1711240411 0.5716753006 4286737492
-0.2627606392 -0.1705323905 0.5718212724 4286803285
-0.2628275156 -0.1699402928 0.5719667673 4286934355
-0.2632974088 -0.1696074903 0.5729893446 4286736976
-0.2629606426 -0.1687547565 0.5722565055 4286473802
-0.2634303570 -0.1684192121 0.5732786655 4286342216
-0.2634965181 -0.1678244174 0.5734226704 4286276423
-0.2635625005 -0.1672291607 0.5735662580 4286210630
-0.2636282444 -0.1666334569 0.5737093687 4286275132
-0.2636938393 -0.1660373062 0.5738520622 4286209339
-0.2637591958 -0.1654407233 0.5739942789 4285881405
-0.2638243437 -0.1648436785 0.5741360784 4285684026
-0.2638893127 -0.1642462164 0.5742774606 4285552187
-0.2639540732 -0.1636482924 0.5744183660 4285552187
-0.2640186250 -0.1630499363 0.5745588541 4285421114
-0.2640829682 -0.1624511480 0.5746988654 4285289528
-0.2641471028 -0.1618519127 0.5748384595 4285223476
-0.2638064325 -0.1610053033 0.5740970969 4285026097
-0.2638700604 -0.1604061276 0.5742355585 4284893998
-0.2635286748 -0.1595613956 0.5734926462 4284565033
-0.2635917962 -0.1589622796 0.5736299753 4284104741
-0.2628446817 -0.1578761935 0.5720041990 4283512604
-0.2637173831 -0.1577627361 0.5739033222 4282920471
-0.2625643015 -0.1564380676 0.5713940263 4282723092
-0.2622210383 -0.1555995047 0.5706469417 4283247879
-0.2618773282 -0.1547623575 0.5698990226 4283247879
-0.2615332603 -0.1539266557 0.5691502094 4283708160
-0.2611887753 -0.1530923694 0.5684005022 4284366087
-0.2612495422 -0.1524963230 0.5685328245 4285417733
-0.2613101304 -0.1518998444 0.5686646104 4286009870
-0.2609646320 -0.1510680169 0.5679127574 4287061267
-0.2606187463 -0.1502376348 0.5671600699 4287916576
-0.2602724731 -0.1494086981 0.5664064884 4288902429
-0.2603319287 -0.1488133669 0.5665358305 4289560359
-0.2603911757 -0.1482176334 0.5666647553 4290547230
-0.2604501843 -0.1476214826 0.5667932630 4291007781
-0.2601025999 -0.1467955709 0.5660368204 4291401762
-0.2601611316 -0.1461995393 0.5661641955 4291335969
-0.2602194250 -0.1456031203 0.5662910938 4291335207
-0.2598708570 -0.1447797269 0.5655324459 4291401000
-0.2599286437 -0.1441834420 0.5656582117 4291269152
-0.2599862218 -0.1435867548 0.5657835603 4291334945
-0.2600435913 -0.1429896653 0.5659083724 4291203618
-0.2601007223 -0.1423921883 0.5660327673 4291006239
-0.2601576746 -0.1417943239 0.5661566257 4290874913
-0.2602143884 -0.1411960572 0.5662800670 4290874913
-0.2598635852 -0.1403773725 0.5655166507 4290678304
-0.2599197924 -0.1397792697 0.5656389594 4290612511
-0.2599757910 -0.1391807795 0.5657607913 4290744096
-0.2600315511 -0.1385819018 0.5658822060 4290744096
-0.2600871027 -0.1379826367 0.5660030842 4290678555
-0.2601424456 -0.1373829842 0.5661234856 4290546969
-0.2601975501 -0.1367829591 0.5662434697 4290613015
-0.2598445415 -0.1359691024 0.5654752254 4290678808
-0.2598991394 -0.1353692561 0.5655940175 4290809876
-0.2599535286 -0.1347690225 0.5657123923 4290678290
-0.2600076795 -0.1341684312 0.5658302307 4290547222
-0.2600616217 -0.1335674524 0.5659475923 4290613015
-0.2601153255 -0.1329661012 0.5660645366 4290744350
-0.2605772614 -0.1325721741 0.5670697689 4290810143
-0.2602221072 -0.1317622960 0.5662968755 4290875683
-0.2602751553 -0.1311598420 0.5664123297 4290941476
-0.2603279948 -0.1305570006 0.5665273070 4291006503
-0.2603805959 -0.1299538165 0.5666418076 4290940710
-0.2604329884 -0.1293502599 0.5667558312 4291137578
-0.2604851723 -0.1287463307 0.5668693781 4291400750
-0.2605371177 -0.1281420439 0.5669823885 4291205677
-0.2605888247 -0.1275373995 0.5670949221 4291534642
-0.2606403232 -0.1269323975 0.5672069788 4291340106
-0.2611008584 -0.1265253574 0.5682091713 4291866450
-0.2611519694 -0.1259186864 0.5683204532 4292000131
-0.2612028718 -0.1253116578 0.5684311986 4292789647
-0.2616630197 -0.1248997375 0.5694326162 4292857773
-0.2617135644 -0.1242910475 0.5695425868 4293581496
-0.2621735036 -0.1238755658 0.5705435276 4293648329
-0.2582120597 -0.1861359924 0.5632840395 4291283663
-0.2582838237 -0.1855617017 0.5634406209 4290888905
-0.2583554089 -0.1849869341 0.5635967851 4290560195
-0.2584267855 -0.1844116896 0.5637525320 4290165437
-0.2588975430 -0.1841201037 0.5647794604 4289967027
-0.2589686811 -0.1835430264 0.5649346709 4289309097
-0.2590396404 -0.1829654574 0.5650894642 4288716958
-0.2591104209 -0.1823874265 0.5652438402 4288059028
-0.2591810226 -0.1818089038 0.5653978586 4287664011
-0.2596515119 -0.1815095991 0.5664241910 4286940288
-0.2597218156 -0.1809292585 0.5665776134 4287004535
-0.2593916655 -0.1800705492 0.5658573508 4286872949
-0.2594614923 -0.1794901639 0.5660097003 4287266418
-0.2595311701 -0.1789093018 0.5661616921 4287200625
-0.2596006393 -0.1783279628 0.5663132071 4287331180
-0.2596698999 -0.1777461767 0.5664643049 4287133801
-0.2593381405 -0.1768905073 0.5657406449 4287265127
-0.2594069541 -0.1763086915 0.5658906698 4287265127
-0.2594755292 -0.1757263988 0.5660403371 4287133028
-0.2595439553 -0.1751436442 0.5661895871 4287133028
-0.2600134313 -0.1748302430 0.5672137141 4287133543
-0.2600815594 -0.1742456704 0.5673623681 4287001957
-0.2605509460 -0.1739286333 0.5683863163 4287067235
-0.2606188059 -0.1733422428 0.5685343742 4287067235
-0.2610881329 -0.1730215847 0.5695582032 4287001442
-0.2611556947 -0.1724333763 0.5697055459 4286935649
-0.2612230778 -0.1718447059 0.5698525310 4287000926
-0.2616922259 -0.1715190560 0.5708760023 4286935133
-0.2617593110 -0.1709285825 0.5710223317 4286935131
-0.2618261874 -0.1703376472 0.5711682439 4286935131
-0.2618928552 -0.1697462648 0.5713136792 4286934872
-0.2619593441 -0.1691544205 0.5714587569 4286803286
-0.2620256543 -0.1685621291 0.5716033578 4286802771
-0.2624943256 -0.1682274044 0.5726257563 4286605392
-0.2625603080 -0.1676333100 0.5727697015 4286473806
-0.2622233033 -0.1667825729 0.5720345378 4286342220
-0.2626917064 -0.1664437801 0.5730563402 4286210117
-0.2627570927 -0.1658483446 0.5731989741 4286210117
-0.2628222704 -0.1652524620 0.5733411312 4286013255
-0.2628872395 -0.1646561474 0.5734829307 4285815876
-0.2633553147 -0.1643110067 0.5745040178 4285684035
-0.2634200156 -0.1637128890 0.5746451020 4285552449
-0.2630809844 -0.1628645360 0.5739055276 4285486398
-0.2631451488 -0.1622664481 0.5740454793 4285420605
-0.2632091045 -0.1616679281 0.5741850138 4285486135
-0.2632728517 -0.1610689759 0.5743241310 4285486135
-0.2629325092 -0.1602234691 0.5735816956 4285551411
-0.2629957795 -0.1596245617 0.5737196207 4285156653
-0.2630588114 -0.1590252221 0.5738571882 4284631075
-0.2627174556 -0.1581820995 0.5731124878 4284499489
-0.2627799809 -0.1575828344 0.5732489228 4284171037
-0.2624379396 -0.1567416191 0.5725027323 4283842072
-0.2624999583 -0.1561424136 0.5726380348 4283380507
-0.2617526352 -0.1550634652 0.5710077882 4283117335
-0.2618140578 -0.1544652581 0.5711417198 4282920469
-0.2614704967 -0.1536288261 0.5703923106 4282854676
-0.2615313828 -0.1530307084 0.5705251098 4282657044
-0.2615920901 -0.1524321884 0.5706575513 4282591251
-0.2612475157 -0.1515982002 0.5699058771 4282984724
-0.2613076866 -0.1509997696 0.5700371265 4283050517
-0.2605572343 -0.1499345601 0.5684000254 4283838467
-0.2606167793 -0.1493371576 0.5685299635 4284299018
-0.2606761456 -0.1487393528 0.5686594248 4285548288
-0.2603297830 -0.1479107440 0.5679038763 4286272002
-0.2599830329 -0.1470835954 0.5671474338 4286996224
-0.2600415945 -0.1464864314 0.5672751665 4287719941
-0.2600999177 -0.1458888650 0.5674024224 4288706066
-0.2601580322 -0.1452908963 0.5675291419 4289232410
-0.2598099709 -0.1444667876 0.5667698979 4289889821
-0.2598675787 -0.1438689530 0.5668955445 4290218786
-0.2599249482 -0.1432707310 0.5670207143 4290810403
-0.2599821389 -0.1426721066 0.5671454668 4291007782
-0.2600390911 -0.1420730799 0.5672696829 4291073313
-0.2600958347 -0.1414736658 0.5673934817 4291139106
-0.2601523399 -0.1408738643 0.5675168037 4291269922
-0.2598020732 -0.1400544941 0.5667526722 4291138336
-0.2598581016 -0.1394548416 0.5668748617 4291137825
-0.2599138916 -0.1388548017 0.5669965744 4291137825
-0.2599694431 -0.1382543892 0.5671178102 4291137827
-0.2600248158 -0.1376535892 0.5672385693 4291137827
-0.2600799501 -0.1370524019 0.5673588514 4291072034
-0.2601348758 -0.1364508271 0.5674786568 4291072034
-0.2605967522 -0.1360614747 0.5684862137 4291072034
-0.2606513202 -0.1354582012 0.5686053038 4291072034
-0.2602983117 -0.1346438527 0.5678352118 4290940949
-0.2603523731 -0.1340407580 0.5679531097 4291072535
-0.2604061663 -0.1334373057 0.5680705309 4291138587
-0.2604597807 -0.1328334808 0.5681874156 4291138587
-0.2605131567 -0.1322292686 0.5683038831 4291204382
-0.2601585388 -0.1314187199 0.5675303340 4291270175
-0.2602114081 -0.1308147162 0.5676456094 4291400997
-0.2602640390 -0.1302103549 0.5677604079 4291400997
-0.2603164315 -0.1296056211 0.5678747296 4291203882
-0.2607767284 -0.1292027235 0.5688788295 4291730226
-0.2604205906 -0.1283950806 0.5681019425 4291535941
-0.2604723275 -0.1277892590 0.5682148337 4291996492
-0.2609321773 -0.1273824275 0.5692179799 4291868796
-0.2609835565 -0.1267749369 0.5693300366 4292658312
-0.2614431977 -0.1263645291 0.5703327656 4292791998
-0.2614941895 -0.1257553846 0.5704439878 4293515721
-0.2615449727 -0.1251458675 0.5705547929 4293450696
-0.2620042562 -0.1247305870 0.5715566874 4293779661
-0.2564909458 -0.1853443682 0.5608884692 4291283665
-0.2569606602 -0.1850594878 0.5619156361 4291020493
-0.2570319474 -0.1844863147 0.5620715022 4290691781
-0.2571030259 -0.1839126647 0.5622269511 4290231230
-0.2575726509 -0.1836227775 0.5632539392 4290164919
-0.2576434910 -0.1830472946 0.5634088516 4289572782
-0.2577141523 -0.1824713200 0.5635633469 4288849059
-0.2577846050 -0.1818948835 0.5637174249 4288125336
-0.2578548789 -0.1813179851 0.5638711452 4287795597
-0.2579249740 -0.1807405949 0.5640243888 4287071874
-0.2583942711 -0.1804416329 0.5650506616 4286939258
-0.2580646276 -0.1795844287 0.5643297434 4286807672
-0.2581341565 -0.1790056378 0.5644818544 4287201142
-0.2582035065 -0.1784263849 0.5646334887 4287069556
-0.2582726777 -0.1778466552 0.5647847056 4287068524
-0.2583416402 -0.1772664785 0.5649355650 4286936938
-0.2580104172 -0.1764123142 0.5642112494 4287199594
-0.2580789030 -0.1758320928 0.5643610358 4287265387
-0.2581472099 -0.1752514243 0.5645103455 4287199081
-0.2586156428 -0.1749410927 0.5655347705 4287199081
-0.2586836815 -0.1743585914 0.5656834841 4287199594
-0.2591520548 -0.1740446389 0.5667077303 4287068008
-0.2592197955 -0.1734603196 0.5668559074 4287133288
-0.2596881092 -0.1731427312 0.5678799748 4287067495
-0.2597555816 -0.1725565940 0.5680274963 4286936164
-0.2598228455 -0.1719700098 0.5681746006 4286870371
-0.2602909803 -0.1716474295 0.5691983700 4286870369
-0.2603579760 -0.1710590273 0.5693448186 4286804576
-0.2608260512 -0.1707328260 0.5703683496 4286935649
-0.2604913712 -0.1698808521 0.5696365237 4286935649
-0.2609592378 -0.1695519239 0.5706596375 4286935133
-0.2610255480 -0.1689607948 0.5708045959 4286803547
-0.2610916495 -0.1683692187 0.5709491968 4286803545
-0.2611575425 -0.1677771956 0.5710933208 4286671959
-0.2612232566 -0.1671847254 0.5712369680 4286408787
-0.2612887621 -0.1665918082 0.5713801980 4286277201
-0.2613540590 -0.1659984440 0.5715230107 4286080076
-0.2614191771 -0.1654046327 0.5716654062 4286080076
-0.2618863583 -0.1650639325 0.5726870298 4286080076
-0.2619511485 -0.1644683182 0.5728287697 4286014283
-0.2620157599 -0.1638722718 0.5729700327 4286144841
-0.2620801330 -0.1632757783 0.5731108189 4286013255
-0.2621443272 -0.1626788378 0.5732511878 4285881154
-0.2618055642 -0.1618324965 0.5725103617 4285815361
-0.2622721195 -0.1614836752 0.5735306144 4286012479
-0.2623356879 -0.1608854234 0.5736696720 4285617721
-0.2619960010 -0.1600405425 0.5729268193 4285420344
-0.2620590627 -0.1594423503 0.5730647445 4285354551
-0.2617186606 -0.1585993469 0.5723203421 4285222711
-0.2617812455 -0.1580012292 0.5724571347 4285156918
-0.2618435919 -0.1574026644 0.5725935102 4284960052
-0.2619057298 -0.1568036824 0.5727294087 4284696880
-0.2615640163 -0.1559635848 0.5719822049 4284236068
-0.2612219155 -0.1551249176 0.5712340474 4283972896
-0.2612832487 -0.1545265168 0.5713682175 4283842335
-0.2613443732 -0.1539276838 0.5715018511 4283842335
-0.2610012591 -0.1530914456 0.5707515478 4283448094
-0.2610618770 -0.1524927020 0.5708841085 4283382301
-0.2611222863 -0.1518935561 0.5710161924 4283250464
-0.2607781887 -0.1510597765 0.5702636838 4282987292
-0.2604336739 -0.1502274424 0.5695103407 4282985749
-0.2604932487 -0.1496289074 0.5696406364 4282722577
-0.2601480484 -0.1487985402 0.5688857436 4282787846
-0.2602071166 -0.1482001245 0.5690149069 4282722053
-0.2598612010 -0.1473717391 0.5682585239 4282590465
-0.2599197626 -0.1467734277 0.5683865547 4282853637
-0.2599781156 -0.1461747140 0.5685141683 4283379729
-0.2600362599 -0.1455755979 0.5686412454 4283708694
-0.2600941658 -0.1449760795 0.5687679052 4284694033
-0.2601518631 -0.1443761587 0.5688941479 4285154584
-0.2602093816 -0.1437758505 0.5690198541 4286206998
-0.2602666616 -0.1431751400 0.5691450834 4286930721
-0.2603237033 -0.1425740272 0.5692698956 4287653907
-0.2603805661 -0.1419725269 0.5693942308 4288180251
-0.2604371905 -0.1413706243 0.5695180297 4288903184
-0.2600878477 -0.1405490786 0.5687541366 4289034770
-0.2601439655 -0.1399473399 0.5688768625 4289494029
-0.2601998746 -0.1393452138 0.5689990520 4289757201
-0.2602555454 -0.1387427002 0.5691208243 4290283027
-0.2603110075 -0.1381397843 0.5692421198 4290348820
-0.2603662610 -0.1375365108 0.5693629384 4290348563
-0.2604212761 -0.1369328350 0.5694832206 4290216977
-0.2604760826 -0.1363287866 0.5696030855 4290348563
-0.2605306804 -0.1357243508 0.5697224736 4290414356
-0.2605850399 -0.1351195425 0.5698413253 4290677789
-0.2602325678 -0.1343044937 0.5690705776 4290875168
-0.2602863908 -0.1336998791 0.5691882968 4290744610
-0.2603400350 -0.1330948770 0.5693055391 4290744610
-0.2603934109 -0.1324895024 0.5694223642 4290744863
-0.2604466081 -0.1318837702 0.5695385933 4290810656
-0.2604995668 -0.1312776506 0.5696544051 4290942240
-0.2605522871 -0.1306711733 0.5697697401 4291139619
-0.2606047988 -0.1300643235 0.5698845387 4290876976
-0.2606570721 -0.1294571161 0.5699989200 4291600699
-0.2607091367 -0.1288495362 0.5701127648 4291537509
-0.2607609928 -0.1282415837 0.5702260733 4292261232
-0.2608125806 -0.1276332885 0.5703389645 4292396193
-0.2612715662 -0.1272230893 0.5713426471 4293251502
-0.2613228261 -0.1266131252 0.5714547038 4293253579
-0.2557111382 -0.1839851439 0.5605446100 4291152077
-0.2557819188 -0.1834130883 0.5606997609 4290823112
-0.2558524907 -0.1828405708 0.5608545542 4290560193
-0.2563209236 -0.1825510412 0.5618813634 4290033849
-0.2563912868 -0.1819766760 0.5620356202 4289375917
-0.2564614415 -0.1814018339 0.5621894002 4288586401
-0.2565314174 -0.1808265299 0.5623427629 4288387993
-0.2566012144 -0.1802507490 0.5624957681 4287664270
-0.2570693493 -0.1799535006 0.5635220408 4287465604
-0.2571388781 -0.1793758869 0.5636744499 4287202432
-0.2568094730 -0.1785206050 0.5629522800 4287201914
-0.2568785250 -0.1779429466 0.5631036758 4286938742
