VERSION 0.7
FIELDS x y z rgba
SIZE 4 4 4 4
TYPE F F F U
COUNT 1 1 1 1
WIDTH 920
HEIGHT 1
VIEWPOINT 0.0 0.0 0.0 1.0 0.0 0.0 0.0
POINTS 920
DATA ascii
-0.2987604737 -0.1666082591 0.5714366436 4283709184
-0.2962097228 -0.1639268249 0.5665578246 4282729009
-0.2949330509 -0.1625935137 0.5641160011 4282465083
-0.2967986465 -0.1629912555 0.5676842332 4282399290
-0.2995630801 -0.1638727784 0.5729717612 4282398522
-0.2991839945 -0.1630295962 0.5722467303 4282924866
-0.2947604954 -0.1599927545 0.5637859106 4284240724
-0.2975256443 -0.1608613729 0.5690748096 4284306517
-0.2980441153 -0.1605083048 0.5700664520 4282597449
-0.2976633012 -0.1596706361 0.5693380833 4283452758
-0.2936840653 -0.1569120139 0.5617270470 4285032052
-0.2973501980 -0.1582388729 0.5687392354 4285032052
-0.2969681919 -0.1574044824 0.5680085421 4284834413
-0.2947855294 -0.1556211263 0.5638337731 4283847518
-0.2971031964 -0.1562132686 0.5682667494 4282793282
-0.2971703410 -0.1556170434 0.5683951974 4282332731
-0.2931840420 -0.1529065073 0.5607706308 4282794302
-0.2977544367 -0.1546573788 0.5695124269 4282136372
-0.2978210151 -0.1540590525 0.5696397424 4282398520
-0.2965353727 -0.1527638286 0.5671807528 4283451208
-0.2943474054 -0.1510111392 0.5629957914 4283385668
-0.2953141928 -0.1508795619 0.5648450255 4282267187
-0.2967321575 -0.1509734094 0.5675570965 4283713065
-0.2981504798 -0.1510614157 0.5702698827 4286344785
-0.2959598601 -0.1493225694 0.5660799742 4288906074
-0.2973781228 -0.1494061649 0.5687926412 4288906074
-0.2969912887 -0.1485806704 0.5680527687 4289495121
-0.2970555127 -0.1479815096 0.5681755543 4289889879
-0.2966679335 -0.1471579820 0.5674342513 4290878049
-0.2962799370 -0.1463358849 0.5666921735 4290351705
-0.2963432670 -0.1457373947 0.5668132901 4288183119
-0.2959545255 -0.1449172646 0.5660697222 4285288227
-0.2969211340 -0.1447595805 0.5679185390 4282267708
-0.2969838679 -0.1441590339 0.5680385232 4283780947
-0.2970463336 -0.1435580850 0.5681580305 4283716431
-0.2952997088 -0.1420864165 0.5648172498 4282466364
-0.2962659597 -0.1419217438 0.5666654110 4282530878
-0.2958751321 -0.1411057413 0.5659179091 4283320394
-0.2954838872 -0.1402912140 0.5651695728 4283977045
-0.2955448329 -0.1396920681 0.5652860999 4284108631
-0.2956055105 -0.1390925497 0.5654022098 4283123274
-0.2961187661 -0.1387047619 0.5663838387 4282333758
-0.2948204577 -0.1374700814 0.5639005899 4281545784
-0.2962391376 -0.1375020444 0.5666140914 4282993230
-0.2972050905 -0.1373188049 0.5684616566 4285098096
-0.2977180183 -0.1369231045 0.5694427490 4286545542
-0.2964179218 -0.1356952488 0.5669561028 4286216323
-0.2987436950 -0.1361250728 0.5714045763 4284176740
-0.2988030314 -0.1355171055 0.5715180635 4283385417
-0.2988620996 -0.1349087805 0.5716310740 4282793280
-0.2971065640 -0.1334849298 0.5682732463 4282530108
-0.2998869419 -0.1340968013 0.5735912323 4282661694
-0.3013067842 -0.1340913773 0.5763069391 4282793021
-0.3013653457 -0.1334769875 0.5764189363 4282793021
-0.2996078432 -0.1320618838 0.5730574131 4282597174
-0.3023898005 -0.1326454878 0.5783784389 4282334002
-0.3024477661 -0.1320281774 0.5784893036 4282793523
-0.3029597402 -0.1316078305 0.5794685483 4282332972
-0.3007458150 -0.1300069690 0.5752339959 4285026063
-0.3026202619 -0.1301741451 0.5788192153 4290815847
-0.3026772439 -0.1295554340 0.5789282322 4293049174
-0.3031885326 -0.1291299611 0.5799061656 4293312346
-0.3014265597 -0.1277389526 0.5765360594 4293247315
-0.3033575118 -0.1272678971 0.5802293420 4293641044
-0.3398382068 -0.2058416158 0.6513894796 4290823625
-0.3323513567 -0.2005989999 0.6370389462 4288647817
-0.3386747837 -0.2036943883 0.6491594315 4287792508
-0.3343034089 -0.2003533095 0.6407805681 4289958449
-0.3174457550 -0.1895741820 0.6084684134 4290353207
-0.3081606627 -0.1833729893 0.5906711221 4291073590
-0.3055617511 -0.1811757535 0.5856896639 4291336762
-0.3038536906 -0.1795158833 0.5824156404 4291666489
-0.3025907874 -0.1781253517 0.5799949765 4291863868
-0.3008806109 -0.1764778346 0.5767169595 4291995195
-0.3018484414 -0.1764026731 0.5785720348 4291863609
-0.3014765978 -0.1755433232 0.5778593421 4291732536
-0.2988705933 -0.1733894199 0.5728642941 4291864122
-0.3002847433 -0.1735703349 0.5755748749 4291864896
-0.2999114990 -0.1727158725 0.5748593807 4291930689
-0.2981965840 -0.1710932106 0.5715723038 4292456255
-0.2978221178 -0.1702440977 0.5708545446 4292653634
-0.2992363870 -0.1704152673 0.5735653639 4292982339
-0.2984140813 -0.1693114489 0.5719892383 4293574476
-0.2980386317 -0.1684637070 0.5712695718 4292918599
-0.2954246998 -0.1663570553 0.5662592649 4290747430
-0.2981818914 -0.1672746390 0.5715441704 4284696064
-0.2982532084 -0.1666794568 0.5716808438 4284169728
-0.2983242869 -0.1660838425 0.5718171000 4282793523
-0.2961549461 -0.1642454118 0.5676589608 4282925109
-0.2980176210 -0.1646437794 0.5712292790 4282595127
-0.2971914411 -0.1635544151 0.5696457028 4282858299
-0.2963646054 -0.1624682248 0.5680608153 4282858814
-0.2941917181 -0.1606505215 0.5638959408 4282135091
-0.2960546911 -0.1610373408 0.5674667954 4282070838
-0.2952262461 -0.1599579751 0.5658788681 4282860354
-0.2948459387 -0.1591240019 0.5651499033 4283190609
-0.2944651842 -0.1582913995 0.5644201040 4284374883
-0.2945330143 -0.1577005982 0.5645501018 4284835953
-0.2946006060 -0.1571093947 0.5646796823 4285033332
-0.2946679592 -0.1565177739 0.5648087859 4284768616
-0.2929379344 -0.1549749970 0.5614927411 4283255377
-0.2939032316 -0.1548597515 0.5633429885 4282464313
-0.2944192290 -0.1545046121 0.5643320084 4282530106
-0.2949351966 -0.1541472673 0.5653210282 4282399541
-0.2950014472 -0.1535536498 0.5654479861 4282531127
-0.2950674593 -0.1529596150 0.5655745268 4282136120
-0.2955831587 -0.1525974423 0.5665630102 4282465085
-0.2942988276 -0.1513076425 0.5641012192 4283517521
-0.2966144383 -0.1518664956 0.5685397387 4283188556
-0.2966798544 -0.1512681544 0.5686650872 4282530603
-0.2967450321 -0.1506694108 0.5687900186 4282793775
-0.2950083911 -0.1491593868 0.5654613376 4286145858
-0.2955232263 -0.1487903297 0.5664480925 4289369715
-0.2955874205 -0.1481931359 0.5665711761 4290089313
-0.2956513762 -0.1475955695 0.5666937828 4289299797
-0.2952643037 -0.1467735320 0.5659518838 4290417496
-0.2953277230 -0.1461760998 0.5660734177 4289693773
-0.2953909039 -0.1455782801 0.5661944747 4288840022
-0.2945516706 -0.1445374042 0.5645859241 4289497952
-0.2955165207 -0.1443815082 0.5664353371 4284436028
-0.2955790162 -0.1437825412 0.5665550828 4283054375
-0.2951898873 -0.1429646015 0.5658091903 4283123526
-0.2943488955 -0.1419304311 0.5641971827 4283781456
-0.2939588130 -0.1411163211 0.5634495616 4283122243
-0.2935683429 -0.1403036714 0.5627011061 4282661692
-0.2936291695 -0.1397074163 0.5628176928 4283713091
-0.2936897874 -0.1391107887 0.5629338622 4284305228
-0.2937501371 -0.1385137886 0.5630495548 4284044378
-0.2942622900 -0.1381286085 0.5640311837 4283057483
-0.2943222821 -0.1375299543 0.5641461611 4282268733
-0.2939298153 -0.1367205977 0.5633939505 4282597698
-0.2953461111 -0.1367504001 0.5661086440 4283057986
-0.2954055667 -0.1361488104 0.5662226081 4284308053
-0.2945598364 -0.1351317167 0.5646015406 4286018944
-0.2959763408 -0.1351512074 0.5673166513 4286216323
-0.2960351706 -0.1345476210 0.5674294233 4285426807
-0.2965464890 -0.1341484785 0.5684095025 4283387224
-0.2952464521 -0.1329315901 0.5659176111 4282399292
-0.2971160412 -0.1331406087 0.5695012212 4282465085
-0.2980801165 -0.1329378039 0.5713490844 4282726968
-0.2985911965 -0.1325298399 0.5723286867 4282792761
-0.2972894609 -0.1313189417 0.5698335767 4283056442
-0.2996131480 -0.1317072809 0.5742875338 4282859063
-0.3001239896 -0.1312926859 0.5752667189 4282989619
-0.3001813591 -0.1306784898 0.5753766298 4282529068
-0.2979707718 -0.1290815920 0.5711395144 4285090826
-0.3002952933 -0.1294490397 0.5755950809 4290880610
-0.3008055985 -0.1290284097 0.5765731931 4293048656
-0.3008620441 -0.1284118891 0.5766813755 4293377621
-0.2995566130 -0.1272167563 0.5741791725 4293182036
-0.3014281392 -0.1273696274 0.5777664185 4293116243
-0.3019379377 -0.1269420236 0.5787436366 4293508945
-0.3024476767 -0.1265122145 0.5797206759 4293508945
-0.2997778654 -0.1247570217 0.5746032596 4292525425
-0.3039211929 -0.1258340776 0.5825450420 4293183355
-0.3003413677 -0.1237122789 0.5756833553 4293453254
-0.3374793231 -0.2048489302 0.6482481360 4290230207
-0.3348971307 -0.2025668174 0.6432881355 4289369726
-0.3291993141 -0.1984178275 0.6323434114 4288514417
-0.3065891564 -0.1841357201 0.5889126658 4289431594
-0.3088923097 -0.1848597378 0.5933367014 4289760559
-0.3010325432 -0.1788710505 0.5782392025 4290875958
-0.3006626964 -0.1780096143 0.5775287747 4291403317
-0.3016290367 -0.1779380143 0.5793849826 4291469110
-0.3012586832 -0.1770765781 0.5786735415 4291534644
-0.3008878529 -0.1762164533 0.5779612660 4291468851
-0.2996248603 -0.1748373210 0.5755352974 4291403569
-0.2996989489 -0.1742409170 0.5756775737 4291666741
-0.2993267179 -0.1733856797 0.5749625564 4291667770
-0.2989540398 -0.1725317836 0.5742467046 4291799356
-0.2981346250 -0.1714226007 0.5726727247 4292193334
-0.2964217067 -0.1698050797 0.5693824887 4292851264
-0.2969403565 -0.1694684625 0.5703787208 4293705799
-0.2965657115 -0.1686217189 0.5696591139 4294232143
-0.2961906493 -0.1677763313 0.5689386725 4292720709
-0.2958151698 -0.1669322997 0.5682173967 4290220575
-0.2958861887 -0.1663409024 0.5683538318 4284235008
-0.2959569991 -0.1657490879 0.5684898496 4283708672
-0.2960276008 -0.1651568264 0.5686254501 4282531381
-0.2943088710 -0.1635698080 0.5653240085 4282597174
-0.2939312160 -0.1627326161 0.5645985603 4282859324
-0.2927269936 -0.1608164459 0.5622854829 4282530106
-0.2914525568 -0.1594942808 0.5598374605 4282464313
-0.2919684947 -0.1591534913 0.5608284473 4282268215
-0.2924844027 -0.1588104963 0.5618194342 4282465594
-0.2907602191 -0.1572537869 0.5585076213 4282466366
-0.2921718359 -0.1573936641 0.5612190962 4283650640
-0.2922391891 -0.1568062454 0.5613484383 4283979102
-0.2918579876 -0.1559788287 0.5606161952 4283781723
-0.2892342210 -0.1539593190 0.5555763841 4283386714
-0.2919913530 -0.1548037678 0.5608723760 4283123542
-0.2893659174 -0.1527942866 0.5558293462 4282794576
-0.2921238244 -0.1536270976 0.5611268878 4282794576
-0.2926385701 -0.1532732546 0.5621156096 4282596673
-0.2927043736 -0.1526830196 0.5622419715 4283123017
-0.2900757194 -0.1506927609 0.5571927428 4283253829
-0.2905896008 -0.1503395289 0.5581797957 4282398520
-0.2943132520 -0.1510097682 0.5653324127 4283451728
-0.2930299044 -0.1497258991 0.5628673434 4283979088
-0.2940578163 -0.1489959508 0.5648417473 4282923819
-0.2941219807 -0.1484007537 0.5649650097 4285818711
-0.2941859365 -0.1478051692 0.5650878549 4288710241
-0.2937996984 -0.1469841003 0.5643460155 4287920725
-0.2938630879 -0.1463886499 0.5644677281 4288708938
-0.2939262688 -0.1457928121 0.5645890832 4289761626
-0.2930887640 -0.1447518766 0.5629803538 4287984461
-0.2936015725 -0.1443785429 0.5639653802 4289300321
-0.2936639190 -0.1437824667 0.5640851855 4288380759
-0.2937260568 -0.1431860179 0.5642045140 4285683246
-0.2933373749 -0.1423705071 0.5634579062 4282923827
-0.2924975753 -0.1413386613 0.5618447661 4282989620
-0.2925587296 -0.1407438219 0.5619622469 4283977554
-0.2921687663 -0.1399326771 0.5612131953 4283451210
-0.2922293544 -0.1393380165 0.5613296032 4282727225
-0.2922897339 -0.1387429982 0.5614455342 4282990397
-0.2923498452 -0.1381476074 0.5615610480 4283584079
-0.2928610146 -0.1377641112 0.5625428557 4283847251
-0.2920180559 -0.1367443651 0.5609236956 4284044628
-0.2938831449 -0.1369905174 0.5645062327 4283715663
-0.2934910655 -0.1361813992 0.5637531281 4282991164
-0.2930985987 -0.1353737563 0.5629992485 4282530613
-0.2940608263 -0.1351905912 0.5648475289 4283321425
-0.2945713699 -0.1347966343 0.5658282042 4285032043
-0.2946299613 -0.1341946423 0.5659407973 4286348420
-0.2937843800 -0.1331825107 0.5643165112 4285822076
-0.2951985300 -0.1331935823 0.5670328736 4284176981
-0.2957086563 -0.1327926368 0.5680127740 4282729535
-0.2962186933 -0.1323895007 0.5689925551 4282859576
-0.2944670618 -0.1309781820 0.5656278729 4282662197
-0.2967862189 -0.1313763410 0.5700826049 4282465334
-0.2972959876 -0.1309674978 0.5710618496 4283057471
-0.2973530889 -0.1303580403 0.5711715221 4283056183
-0.2960519195 -0.1291557848 0.5686721802 4281871909
-0.2974665761 -0.1291380972 0.5713894963 4287525930
-0.2979758084 -0.1287232190 0.5723676682 4292131440
-0.2984849513 -0.1283061355 0.5733456612 4293048904
-0.2971819639 -0.1271117777 0.5708428025 4293246283
-0.2976906002 -0.1266940087 0.5718198419 4293247311
-0.2995587587 -0.1268497556 0.5754082799 4293378897
-0.3000675142 -0.1264247894 0.5763854980 4293246535
-0.3001228273 -0.1258075684 0.5764917731 4293378121
-0.3006313145 -0.1253791153 0.5774685144 4293115992
-0.3015932739 -0.1251366287 0.5793162584 4292918613
-0.3025552928 -0.1248900741 0.5811641812 4291936420
-0.3044247627 -0.1250120550 0.5847551227 4293581245
-0.3351258337 -0.2038552612 0.6451036334 4289638588
-0.3316597044 -0.2010374963 0.6384314895 4290223215
-0.3108715415 -0.1877717525 0.5984151363 4289499492
-0.3238328695 -0.1949080080 0.6233651638 4289233704
-0.3034759164 -0.1820065528 0.5841788650 4289299497
-0.3017749190 -0.1803409606 0.5809044838 4289954858
-0.3014064431 -0.1794761121 0.5801951885 4290546995
-0.3005928695 -0.1783487648 0.5786291361 4290679604
-0.3002234101 -0.1774874479 0.5779179335 4290745397
-0.2998535037 -0.1766274571 0.5772058964 4291008310
-0.2994831800 -0.1757687777 0.5764929652 4291205689
-0.2995575070 -0.1751717329 0.5766360760 4291469873
-0.2987411916 -0.1740554273 0.5750647187 4291601459
-0.2974788845 -0.1726837456 0.5726348162 4291471151
-0.2975520194 -0.1720898002 0.5727756023 4291471151
-0.2967338562 -0.1709819585 0.5712006688 4292128052
-0.2954693735 -0.1696214080 0.5687665939 4292193845
-0.2946497798 -0.1685207188 0.5671889186 4292916798
-0.2939006388 -0.1668350846 0.5657468438 4292326464
-0.2939715087 -0.1662465781 0.5658832192 4291471155
-0.2935959399 -0.1654062569 0.5651603341 4285945371
-0.2918810546 -0.1638158560 0.5618592501 4283708416
-0.2919507325 -0.1632305533 0.5619933605 4281611568
-0.2924667299 -0.1628935188 0.5629866123 4282532670
-0.2907495797 -0.1613152921 0.5596811771 4284242005
-0.2917117476 -0.1612252295 0.5615333319 4283715661
-0.2908867896 -0.1601471454 0.5599453449 4282399292
-0.2909550667 -0.1595624536 0.5600767732 4282530878
-0.2892349660 -0.1580005288 0.5567656159 4282924864
-0.2901966870 -0.1579052210 0.5586168766 4282530106
-0.2902640998 -0.1573210955 0.5587466359 4282530100
-0.2903313041 -0.1567365527 0.5588759780 4283056444
-0.2890559137 -0.1554298103 0.5564209223 4283517005
-0.2900174856 -0.1553265750 0.5582718849 4283780177
-0.2900839150 -0.1547417343 0.5583997965 4284307048
-0.2901501060 -0.1541564912 0.5585272312 4284043876
-0.2902161181 -0.1535708457 0.5586542487 4282795351
-0.2902818918 -0.1529848129 0.5587809086 4283716453
-0.2903474271 -0.1523983628 0.5589070916 4284438887
-0.2904127538 -0.1518115252 0.5590327978 4284504680
-0.2909261286 -0.1514576674 0.5600210428 4284767322
-0.2914394736 -0.1511016041 0.5610092282 4283517255
-0.2919528186 -0.1507433206 0.5619973540 4282135855
-0.2920175493 -0.1501521915 0.5621219277 4282333234
-0.2925307155 -0.1497904062 0.5631097555 4282991938
-0.2930438519 -0.1494264007 0.5640975833 4283584075
-0.2917615175 -0.1481485069 0.5616291165 4282793278
-0.2922742069 -0.1477837265 0.5626159906 4282464313
-0.2927868366 -0.1474167407 0.5636028647 4284961861
-0.2928503156 -0.1468223631 0.5637249947 4287067237
-0.2929135561 -0.1462275833 0.5638467669 4288117839
-0.2929765582 -0.1456324309 0.5639680028 4289104734
-0.2930393219 -0.1450368911 0.5640888810 4288051537
-0.2922028005 -0.1439979076 0.5624785423 4288577881
-0.2927145660 -0.1436240524 0.5634636879 4288313931
-0.2927765548 -0.1430282891 0.5635830164 4286866485
-0.2923884690 -0.1422133595 0.5628359914 4284763702
-0.2915500700 -0.1411820054 0.5612220764 4283316256
-0.2920610905 -0.1408048123 0.5622057915 4283055164
-0.2916718423 -0.1399933398 0.5614565015 4283778887
-0.2912821770 -0.1391833276 0.5607064366 4283715154
-0.2913424075 -0.1385889947 0.5608223677 4282925638
-0.2914023995 -0.1379942894 0.5609378219 4282268985
-0.2914621532 -0.1373992115 0.5610528588 4282795329
-0.2910710871 -0.1365923285 0.5603000522 4283913042
-0.2920316160 -0.1364184916 0.5621490479 4284110421
-0.2925415039 -0.1360310018 0.5631305575 4283583314
-0.2926005125 -0.1354326308 0.5632441044 4282596419
-0.2917573750 -0.1344183832 0.5616211891 4281939768
-0.2927177846 -0.1342348009 0.5634698868 4282663491
-0.2932271957 -0.1338412613 0.5644504428 4284703336
-0.2919316888 -0.1326255798 0.5619567037 4286677126
-0.2933432162 -0.1326394379 0.5646738410 4286217339
-0.2934008837 -0.1320379972 0.5647848248 4284506721
-0.2939097583 -0.1316384077 0.5657644272 4284176984
-0.2926123440 -0.1304314733 0.5632669330 4283453261
-0.2944757044 -0.1306322515 0.5668538213 4282597180
-0.2949843109 -0.1302269697 0.5678328872 4282399801
-0.2954928577 -0.1298194826 0.5688118339 4281806886
-0.2932898700 -0.1282243729 0.5645711422 4283978055
-0.2956057489 -0.1286046207 0.5690290928 4290356058
-0.2956618071 -0.1279966533 0.5691370368 4292198262
-0.2961698174 -0.1275831312 0.5701149106 4292720456
-0.2948687077 -0.1263920069 0.5676103234 4292983628
-0.2976379097 -0.1269424111 0.5729409456 4293575249
-0.2981457412 -0.1265213341 0.5739185214 4293641042
-0.2982010245 -0.1259070039 0.5740249157 4293115467
-0.2973508537 -0.1249120831 0.5723883510 4293115467
-0.2965001166 -0.1239205599 0.5707507133 4293181512
-0.3001763225 -0.1248150095 0.5778272748 4293181512
-0.3011366129 -0.1245702282 0.5796757936 4292327801
-0.2998323441 -0.1233894303 0.5771651268 4292525180
-0.3012453616 -0.1233266369 0.5798851252 4292989084
-0.3035647571 -0.1236269176 0.5843499303 4294304944
-0.3341070116 -0.2036709785 0.6445204616 4289243579
-0.3328629434 -0.2021991462 0.6421205401 4289958225
-0.3280712068 -0.1985852271 0.6328769326 4290089811
-0.3197291791 -0.1928503960 0.6167843938 4290022452
-0.3091647923 -0.1858156472 0.5964047909 4289759280
-0.3025878668 -0.1812142134 0.5837174058 4289889837
-0.3022204340 -0.1803463995 0.5830085874 4289889837
-0.3000769317 -0.1784241349 0.5788736343 4289890607
-0.2992641628 -0.1772994250 0.5773056746 4289890607
-0.2997831106 -0.1769643277 0.5783067942 4290350380
-0.2971923947 -0.1747980416 0.5733091235 4290876724
-0.2981549203 -0.1747251004 0.5751658678 4291337774
-0.2957077324 -0.1713895798 0.5704450607 4291273263
-0.2940011322 -0.1697703004 0.5671528578 4291733296
-0.2940730155 -0.1691815108 0.5672914982 4292391226
-0.2945896685 -0.1688473374 0.5682882071 4292455997
-0.2933259010 -0.1674942970 0.5658503175 4292850755
-0.2929517031 -0.1666527241 0.5651284456 4292391742
-0.2925770879 -0.1658125222 0.5644057393 4292654914
-0.2922020257 -0.1649736613 0.5636822581 4290813776
-0.2918265462 -0.1641361862 0.5629578829 4287984677
-0.2914506197 -0.1633000672 0.5622327328 4285094208
-0.2910742760 -0.1624653339 0.5615066886 4283712555
-0.2893599272 -0.1608882546 0.5581995845 4283712816
-0.2903203070 -0.1607999802 0.5600522161 4284962883
-0.2890505493 -0.1594771594 0.5576027632 4284765779
-0.2891184390 -0.1588949412 0.5577337146 4283713091
-0.2887398601 -0.1580680013 0.5570034385 4282859073
-0.2883608341 -0.1572424620 0.5562722683 4282859073
-0.2884278893 -0.1566608101 0.5564016104 4282596920
-0.2876015306 -0.1555955559 0.5548074841 4282465334
-0.2881809175 -0.1546736509 0.5559251904 4283518024
-0.2882469893 -0.1540912986 0.5560526252 4285689201
-0.2869718671 -0.1527945548 0.5535928011 4285557615
-0.2883784771 -0.1529254019 0.5563063025 4284704100
-0.2884438932 -0.1523418427 0.5564324856 4286348925
-0.2889563739 -0.1519931853 0.5574210882 4286808203
-0.2876792550 -0.1507048011 0.5549573898 4287202961
-0.2882557213 -0.1497711390 0.5560694933 4285359459
-0.2905584276 -0.1503448039 0.5605115891 4282530359
-0.2901751101 -0.1495245099 0.5597721338 4282069808
-0.2906871438 -0.1491653174 0.5607599020 4281939503
-0.2911991775 -0.1488039196 0.5617476702 4283123777
-0.2894707024 -0.1473002285 0.5584132671 4283845455
-0.2913267612 -0.1476202905 0.5619937778 4283648076
-0.2913902104 -0.1470278800 0.5621161461 4283185201
-0.2919017971 -0.1466603726 0.5631030798 4285224784
-0.2919648886 -0.1460662931 0.5632247925 4288447069
-0.2920277417 -0.1454718113 0.5633460283 4288973413
-0.2920903862 -0.1448769569 0.5634668469 4288051537
-0.2908064425 -0.1436168402 0.5609900355 4287459400
-0.2913171947 -0.1432446837 0.5619753003 4288314191
-0.2913789451 -0.1426505148 0.5620944500 4288248398
-0.2914404571 -0.1420559734 0.5622131228 4289037660
-0.2906034291 -0.1410251111 0.5605983734 4288445523
-0.2906642854 -0.1404316574 0.5607157946 4285552969
-0.2907249331 -0.1398378164 0.5608327985 4283184421
-0.2903358936 -0.1390284002 0.5600823164 4283319626
-0.2903959751 -0.1384347528 0.5601981878 4284240728
-0.2904558182 -0.1378407329 0.5603136420 4283255114
-0.2900657058 -0.1370338947 0.5595610738 4282597184
-0.2910245955 -0.1368631274 0.5614108443 4282991942
-0.2910838425 -0.1362670958 0.5615251660 4283978837
-0.2902428508 -0.1352512985 0.5599028468 4284307550
-0.2912015915 -0.1350739300 0.5617523193 4283781206
-0.2912601233 -0.1344767958 0.5618652105 4283123526
-0.2913184166 -0.1338793188 0.5619776845 4282991940
-0.2900254130 -0.1326634735 0.5594834089 4282663743
-0.2905334234 -0.1322731227 0.5604633093 4283321673
-0.2919424176 -0.1322888732 0.5631814003 4283453781
-0.2919998467 -0.1316890419 0.5632922053 4283322195
-0.2920570374 -0.1310888529 0.5634025335 4283780945
-0.2907616198 -0.1298841983 0.5609035492 4283978324
-0.2926215827 -0.1300878674 0.5644915700 4284041529
-0.2926781476 -0.1294857115 0.5646007061 4282988841
-0.2931855321 -0.1290817708 0.5655794740 4285553731
-0.2936928272 -0.1286756396 0.5665581226 4289567104
-0.2937488556 -0.1280705780 0.5666661859 4292788343
-0.2942559123 -0.1276609600 0.5676443577 4292130413
-0.2947629392 -0.1272491515 0.5686224103 4293114448
-0.2952698767 -0.1268351227 0.5696003437 4293180241
-0.2953251600 -0.1262258887 0.5697070360 4293575502
-0.2958318591 -0.1258083880 0.5706844926 4293575502
-0.2963384688 -0.1253886819 0.5716617703 4293048402
-0.2954895496 -0.1243961453 0.5700241327 4293311574
-0.2968995571 -0.1243533716 0.5727441907 4293115216
-0.2974058688 -0.1239279807 0.5737208724 4292983630
-0.2983641326 -0.1236877963 0.5755694509 4293050450
-0.2970617414 -0.1225111783 0.5730569959 4292984657
-0.2998286784 -0.1230096519 0.5783946514 4292788318
-0.3012394011 -0.1229427606 0.5811160803 4293380455
-0.2981264293 -0.1210333034 0.5751109123 4294368399
-0.2999892831 -0.1211466044 0.5787045360 4294962335
-0.3304349184 -0.2018649876 0.6388053894 4289178046
-0.3247676194 -0.1977052093 0.6278492212 4290023233
-0.3040495813 -0.1844398379 0.5877965689 4290549577
-0.3076685965 -0.1859742999 0.5947929025 4290416698
-0.3002191484 -0.1808265299 0.5803914666 4289627182
-0.3038384914 -0.1823538989 0.5873884559 4289561642
-0.3039152324 -0.1817471534 0.5875368118 4289364263
-0.3017760515 -0.1798196882 0.5834013224 4289495851
-0.2983058095 -0.1771111190 0.5766925216 4289364265
-0.2979370952 -0.1762522459 0.5759797096 4289692440
-0.2966809869 -0.1748719066 0.5735514164 4290218784
-0.2967547476 -0.1742779762 0.5736939907 4290745128
-0.2972719967 -0.1739432067 0.5746939182 4291074093
-0.2960140407 -0.1725713164 0.5722620487 4291140407
-0.2951991260 -0.1714621633 0.5706866384 4291337786
-0.2943835557 -0.1703561246 0.5691099167 4291732785
-0.2940114439 -0.1695092767 0.5683906078 4292127543
-0.2936389446 -0.1686637849 0.5676704049 4292191802
-0.2923772931 -0.1673111022 0.5652313828 4292783939
-0.2915592492 -0.1662167162 0.5636498928 4292851266
-0.2911851108 -0.1653779745 0.5629265904 4292588094
-0.2908105254 -0.1645405889 0.5622024536 4292327242
-0.2899907529 -0.1634538770 0.5606176853 4292327242
-0.2896152437 -0.1626201272 0.5598917007 4292194900
-0.2887942791 -0.1615388393 0.5583046079 4290550075
-0.2884177864 -0.1607087404 0.5575767756 4287064604
-0.2880408764 -0.1598800272 0.5568481088 4285946123
-0.2876635492 -0.1590526849 0.5561186075 4285554234
-0.2872857749 -0.1582267433 0.5553883314 4284764718
-0.2873530984 -0.1576465964 0.5555184484 4282663228
-0.2865289748 -0.1565790176 0.5539252162 4281807919
-0.2865956426 -0.1559998542 0.5540541410 4281612345
-0.2866621017 -0.1554203033 0.5541825891 4282072896
-0.2853905857 -0.1541179121 0.5517244935 4282400842
-0.2867943645 -0.1542599648 0.5544382930 4282729807
-0.2868601680 -0.1536792070 0.5545655489 4284505456
-0.2864795327 -0.1528599411 0.5538296700 4286939797
-0.2856521308 -0.1518048942 0.5522301197 4288123809
-0.2866098583 -0.1516982317 0.5540816188 4286347398
-0.2871212065 -0.1513521671 0.5550702214 4283913558
-0.2853993773 -0.1498315036 0.5517415404 4283255628
-0.2872504294 -0.1501862705 0.5553199649 4285227621
-0.2877615392 -0.1498353928 0.5563080311 4284635484
-0.2882726192 -0.1494823247 0.5572960973 4284569693
-0.2883366346 -0.1488961875 0.5574198961 4285227623
-0.2888475657 -0.1485396028 0.5584076047 4282794553
-0.2871223092 -0.1470356733 0.5550723076 4281807658
-0.2889747024 -0.1473635733 0.5586534142 4283187517
-0.2894853354 -0.1470021755 0.5596405864 4283713861
-0.2895484567 -0.1464122832 0.5597625971 4284762948
-0.2896113098 -0.1458220035 0.5598841310 4283249709
-0.2901216745 -0.1454558074 0.5608707666 4284827686
-0.2897363901 -0.1446402967 0.5601258874 4288380508
-0.2884548306 -0.1433809400 0.5576483607 4289696107
-0.2898605168 -0.1434570551 0.5603659153 4288117075
-0.2899222672 -0.1428648680 0.5604852438 4286209844
-0.2895355523 -0.1420524120 0.5597376823 4285683500
-0.2891484499 -0.1412414014 0.5589892864 4288706631
-0.2892093062 -0.1406499147 0.5591069460 4290680421
-0.2892699242 -0.1400580704 0.5592241287 4288051286
-0.2893303335 -0.1394658387 0.5593408942 4284366878
-0.2893904746 -0.1388732493 0.5594571829 4283253310
-0.2876553833 -0.1374227256 0.5561028719 4283384896
-0.2895101309 -0.1376869380 0.5596885085 4284372577
-0.2895695865 -0.1370932460 0.5598034263 4283780440
-0.2887307405 -0.1360759288 0.5581817627 4282662977
-0.2901369333 -0.1361154616 0.5609002709 4282794563
-0.2897465825 -0.1353099644 0.5601456165 4283585357
-0.2898051143 -0.1347148120 0.5602588058 4283651150
-0.2880658209 -0.1332875490 0.5568963289 4283188808
-0.2899214923 -0.1335234195 0.5604837537 4282662464
-0.2890801430 -0.1325150132 0.5588572621 4282466625
-0.2900369167 -0.1323306113 0.5607068539 4282466625
-0.2900942564 -0.1317336708 0.5608177781 4281940030
-0.2901513875 -0.1311363727 0.5609281659 4281874237
-0.2893083990 -0.1301339567 0.5592985153 4283317806
-0.2907149196 -0.1301421970 0.5620176792 4284107322
-0.2912215292 -0.1297434419 0.5629970431 4286933543
-0.2917280793 -0.1293424964 0.5639762878 4289367884
-0.2904334068 -0.1281446517 0.5614734292 4291734878
-0.2922905684 -0.1283362508 0.5650637150 4292458601
-0.2927968204 -0.1279296130 0.5660424232 4292786263
-0.2933030128 -0.1275207698 0.5670210123 4292588884
-0.2924572229 -0.1265248656 0.5653859377 4293311827
-0.2938644290 -0.1265024543 0.5681063533 4293311827
-0.2943702936 -0.1260879189 0.5690843463 4293313108
-0.2948760986 -0.1256711930 0.5700621605 4293773659
-0.2935779691 -0.1244873554 0.5675525069 4293312079
-0.2940832675 -0.1240699440 0.5685294271 4293312079
-0.2968441546 -0.1245971173 0.5738667846 4293378145
-0.2964472771 -0.1237937808 0.5730995536 4293509731
-0.2955986857 -0.1228044927 0.5714590549 4293837908
-0.2974578142 -0.1229379177 0.5750531554 4294101080
-0.2979629338 -0.1225066781 0.5760297179 4294036320
-0.2984679937 -0.1220732331 0.5770060420 4293904734
-0.2994245589 -0.1218213215 0.5788553357 4293641837
-0.3026396930 -0.1224793568 0.5850709677 4294891904
-0.2999825776 -0.1207596511 0.5799341202 4294963887
-0.3013909757 -0.1206792369 0.5826568604 4294966200
-0.3152915835 -0.1930282861 0.6108414531 4288851644
-0.3281817436 -0.2002134770 0.6358146667 4290940985
-0.3220803440 -0.1957979053 0.6239939332 4290743606
-0.3133240342 -0.1898003519 0.6070295572 4290154819
-0.3067731559 -0.1851717234 0.5943379998 4290154819
-0.2997765541 -0.1803032011 0.5807828903 4289693757
-0.3033904135 -0.1818237156 0.5877842903 4289167413
-0.2990431488 -0.1785746515 0.5793619752 4289364261
-0.2986757755 -0.1777123511 0.5786502361 4289430054
-0.2978653908 -0.1765889972 0.5770801902 4289364514
-0.2970543206 -0.1754687279 0.5755088925 4289364514
-0.2957997918 -0.1740909517 0.5730783939 4289627684
-0.2967590392 -0.1740166992 0.5749367476 4290219821
-0.2955033183 -0.1726442724 0.5725039244 4290877233
-0.2946898639 -0.1715346724 0.5709279776 4291008819
-0.2938757539 -0.1704282165 0.5693507195 4291601209
-0.2921742797 -0.1688125432 0.5660543442 4291732795
-0.2913586795 -0.1677141339 0.5644741654 4291929913
-0.2905424237 -0.1666188538 0.5628927946 4292193085
-0.2893517613 -0.1646903306 0.5605859756 4292719429
-0.2894214690 -0.1641070098 0.5607210398 4292719429
-0.2890469432 -0.1632724702 0.5599954724 4292719429
-0.2882279158 -0.1621893942 0.5584086776 4292719427
-0.2882966697 -0.1616075039 0.5585418940 4292916806
-0.2879208922 -0.1607770771 0.5578138828 4292524366
-0.2871002555 -0.1597008258 0.5562239885 4291998022
-0.2871680260 -0.1591203809 0.5563552976 4290750028
-0.2867909670 -0.1582941115 0.5556247830 4289631547
-0.2864134908 -0.1574692279 0.5548934340 4287592500
-0.2855907381 -0.1564021260 0.5532994866 4285881882
-0.2856572568 -0.1558236629 0.5534283519 4284171793
-0.2857235670 -0.1552447826 0.5535567999 4283119105
-0.2853444815 -0.1544245929 0.5528223515 4282528520
-0.2854102552 -0.1538458169 0.5529497862 4282067969
-0.2854757905 -0.1532666385 0.5530767441 4281543444
-0.2850956619 -0.1524488628 0.5523403287 4283319855
-0.2847151160 -0.1516325027 0.5516030192 4285557608
-0.2852254510 -0.1512903273 0.5525918007 4287597191
-0.2857357860 -0.1509459615 0.5535805225 4284898143
-0.2858002484 -0.1503648013 0.5537053943 4283516490
-0.2858644724 -0.1497832537 0.5538298488 4286938757
-0.2859284878 -0.1492013186 0.5539538264 4288715168
-0.2859922945 -0.1486189812 0.5540774465 4286939268
-0.2860558629 -0.1480362564 0.5542005897 4287070854
-0.2865655720 -0.1476831883 0.5551881194 4286281077
-0.2866288126 -0.1470987797 0.5553106070 4282267704
-0.2857986987 -0.1460575610 0.5537023544 4282398001
-0.2867545784 -0.1459288150 0.5555543303 4282661173
-0.2872639000 -0.1455696523 0.5565410256 4283909946
-0.2873263359 -0.1449827999 0.5566619635 4284238911
-0.2873885334 -0.1443955600 0.5567824841 4283644957
-0.2878975570 -0.1440315843 0.5577687025 4283250199
-0.2884065509 -0.1436654180 0.5587548018 4285551653
-0.2871265411 -0.1424097419 0.5562749505 4288051787
-0.2880824208 -0.1422637105 0.5581268072 4289560926
-0.2881435752 -0.1416736692 0.5582453012 4289889891
-0.2877570093 -0.1408641785 0.5574963689 4290219618
-0.2878176272 -0.1402743012 0.5576137900 4290088032
-0.2878780067 -0.1396840513 0.5577307940 4289037142
-0.2879381478 -0.1390934289 0.5578473210 4289431900
-0.2879980803 -0.1385024488 0.5579634309 4287329883
-0.2880577743 -0.1379110813 0.5580790639 4283974440
-0.2881172299 -0.1373193562 0.5581942797 4282266162
-0.2881764770 -0.1367272735 0.5583090186 4283647815
-0.2868906856 -0.1354996562 0.5558179617 4283452242
-0.2882942259 -0.1355419904 0.5585371852 4282465347
-0.2888012230 -0.1351586878 0.5595194101 4282267188
-0.2884110808 -0.1343552768 0.5587635636 4282332981
-0.2884691358 -0.1337613761 0.5588760376 4282529318
-0.2880782485 -0.1329600066 0.5581187606 4282463525
-0.2881357670 -0.1323663294 0.5582301617 4283054114
-0.2877441347 -0.1315670311 0.5574714541 4284106802
-0.2886990905 -0.1313822120 0.5593215227 4285816375
-0.2883068919 -0.1305831224 0.5585616827 4287395407
-0.2883634567 -0.1299880296 0.5586712956 4289631052
-0.2888690531 -0.1295941174 0.5596508384 4291210084
-0.2893745601 -0.1291980147 0.5606302023 4292327515
-0.2894305885 -0.1286000013 0.5607387424 4292459101
-0.2890368700 -0.1278028935 0.5599759817 4292589911
-0.2904411554 -0.1277986169 0.5626965761 4292787290
-0.2909463346 -0.1273946166 0.5636752844 4292984406
-0.2914514244 -0.1269884109 0.5646538734 4293115992
-0.2910567522 -0.1261899322 0.5638892651 4293444183
-0.2924614251 -0.1261693984 0.5666106343 4293444183
-0.2929663062 -0.1257565767 0.5675888062 4293640543
-0.2934711277 -0.1253415495 0.5685667992 4293772129
-0.2926252782 -0.1243503839 0.5669280887 4294164834
-0.2940302193 -0.1243144944 0.5696499944 4294428006
-0.2954354286 -0.1242726669 0.5723724365 4294036580
-0.2950391173 -0.1234708652 0.5716046095 4294036580
-0.2960476875 -0.1226184145 0.5735586286 4294037596
-0.2979038954 -0.1227459684 0.5771548152 4294364256
-0.2970559001 -0.1217571273 0.5755119324 4294364256
-0.2980637848 -0.1208870262 0.5774645805 4293972580
-0.3003716171 -0.1211764514 0.5819357038 4294695047
-0.3017778099 -0.1210941374 0.5846600533 4294964387
-0.3257655799 -0.1998707652 0.6324946284 4288983482
-0.3196761906 -0.1954450607 0.6206716895 4290941501
-0.3113781810 -0.1897000819 0.6045606136 4290612536
-0.3057226241 -0.1855950505 0.5935799479 4290089023
-0.3009464443 -0.1820463836 0.5843067169 4290089023
-0.2992572784 -0.1803790182 0.5810270905 4289825852
-0.3006574810 -0.1805744022 0.5837456584 4289694266
-0.2985252738 -0.1786498129 0.5796058178 4289825073
-0.2981585860 -0.1777871996 0.5788938999 4289627694
-0.2973496616 -0.1766633987 0.5773233175 4289496362
-0.2969820201 -0.1758043021 0.5766094923 4289496362
-0.2961718738 -0.1746858358 0.5750365853 4289561894
-0.2949189246 -0.1733106226 0.5726039410 4289496101
-0.2941073775 -0.1721992642 0.5710282326 4289759270
-0.2932952046 -0.1710910201 0.5694513321 4290285614
-0.2924823463 -0.1699859053 0.5678731203 4291074612
-0.2921114266 -0.1691401899 0.5671529770 4291403577
-0.2921828032 -0.1685512215 0.5672915578 4291863868
-0.2913683355 -0.1674528271 0.5657101870 4292192833
-0.2901103199 -0.1661040038 0.5632676482 4292390466
-0.2892944515 -0.1650128067 0.5616835952 4292324673
-0.2889210880 -0.1641765684 0.5609586835 4292456259
-0.2881040573 -0.1630907953 0.5593723655 4292851017
-0.2881730497 -0.1625082046 0.5595063567 4292785234
-0.2873549461 -0.1614269763 0.5579179525 4292851027
-0.2865362167 -0.1603489071 0.5563283563 4292720456
-0.2861604989 -0.1595213413 0.5555988550 4292654663
-0.2857843637 -0.1586951613 0.5548685789 4292720959
-0.2858516872 -0.1581159085 0.5549992323 4292984131
-0.2850308418 -0.1570469886 0.5534055233 4292984130
-0.2846534252 -0.1562249810 0.5526727438 4292720958
-0.2842755914 -0.1554043740 0.5519391894 4291602486
-0.2844074368 -0.1542493999 0.5521951914 4289695795
-0.2840285599 -0.1534311920 0.5514595509 4288840486
-0.2840938568 -0.1528536081 0.5515863299 4287459901
-0.2841589153 -0.1522756219 0.5517126322 4286670385
-0.2842237651 -0.1516972482 0.5518385768 4286670678
-0.2844170034 -0.1499597430 0.5522137880 4287463543
-0.2849261761 -0.1496135592 0.5532023311 4288516999
-0.2849900424 -0.1490323097 0.5533263683 4287332725
-0.2850537002 -0.1484506577 0.5534499288 4284240706
-0.2851171196 -0.1478686333 0.5535730124 4283845948
-0.2851803005 -0.1472862065 0.5536957383 4284371516
-0.2852432728 -0.1467034072 0.5538179874 4282529312
-0.2857518196 -0.1463485211 0.5548053980 4281936144
-0.2858144641 -0.1457640380 0.5549269915 4282265109
-0.2858768702 -0.1451791674 0.5550481081 4282593298
-0.2859390378 -0.1445939094 0.5551688671 4283448607
-0.2860009968 -0.1440082788 0.5552891493 4284368669
-0.2865090072 -0.1436460018 0.5562754869 4283381774
-0.2856778502 -0.1426130235 0.5546617508 4283249152
-0.2866319716 -0.1424710155 0.5565142632 4284565009
-0.2862465680 -0.1416619420 0.5557659268 4286864163
-0.2863073945 -0.1410744190 0.5558840632 4287719472
-0.2863679826 -0.1404865235 0.5560017228 4287785770
-0.2864283621 -0.1398982555 0.5561189055 4287259426
-0.2864885032 -0.1393096149 0.5562357306 4287655213
-0.2865484357 -0.1387206018 0.5563520193 4290221140
-0.2861609757 -0.1379157305 0.5555998087 4289960811
-0.2862203419 -0.1373268962 0.5557150841 4287789642
-0.2867268026 -0.1369513571 0.5566983819 4283252003
-0.2868445814 -0.1357700378 0.5569270253 4283910713
-0.2869031131 -0.1351788193 0.5570406318 4284305471
-0.2869614065 -0.1345872581 0.5571538806 4285160000
-0.2865717113 -0.1337862909 0.5563972592 4285949516
-0.2870773077 -0.1334030479 0.5573788881 4287263821
-0.2871349156 -0.1328103989 0.5574907660 4288184923
-0.2867442667 -0.1320111305 0.5567322373 4290026063
-0.2876975536 -0.1318293959 0.5585831404 4290947165
-0.2877545357 -0.1312347502 0.5586938262 4292065626
-0.2869147062 -0.1302327961 0.5570631623 4292591970
-0.2883162200 -0.1302469969 0.5597842932 4293050973
-0.2883725762 -0.1296503842 0.5598937869 4292919387
-0.2879801691 -0.1288527101 0.5591318607 4292787540
-0.2889332771 -0.1286558807 0.5609823465 4292787540
-0.2880915403 -0.1276595891 0.5593481064 4292787280
-0.2890445292 -0.1274583489 0.5611984134 4292984659
-0.2895487249 -0.1270560622 0.5621773005 4293181785
-0.2900528312 -0.1266515553 0.5631560683 4293313371
-0.2901077867 -0.1260497272 0.5632627606 4293575524
-0.2910608351 -0.1258359551 0.5651131868 4293641317
-0.2915647328 -0.1254248321 0.5660915375 4293772643
-0.2920685709 -0.1250115186 0.5670697093 4293904229
-0.2916734815 -0.1242132038 0.5663026571 4294428515
-0.2926264703 -0.1239877939 0.5681529641 4294625894
-0.2931299806 -0.1235687882 0.5691305399 4294233695
-0.2940830588 -0.1233361587 0.5709810257 4294167902
-0.2941367328 -0.1227241531 0.5710852146 4294037347
-0.2946400046 -0.1222985312 0.5720623732 4294037347
-0.2951431870 -0.1218706965 0.5730392933 4294495589
-0.2956462801 -0.1214406639 0.5740160942 4294561382
-0.2961492538 -0.1210084185 0.5749926567 4294103651
-0.2999092937 -0.1206038743 0.5822929740 4294960013
-0.3234390318 -0.1988721937 0.6293346286 4289311930
-0.3173598349 -0.1944482028 0.6175059676 4291007815
-0.3099564314 -0.1892420053 0.6031007171 4290613057
-0.3047509193 -0.1854049861 0.5929720402 4290088762
-0.2986615002 -0.1810546219 0.5811235309 4290154555
-0.3022622764 -0.1825840175 0.5881297588 4290023484
-0.3001351655 -0.1806502640 0.5839908719 4290418242
-0.2980067134 -0.1787249148 0.5798494816 4290417727
-0.2976407707 -0.1778619587 0.5791373849 4290220348
-0.2968333066 -0.1767377257 0.5775662661 4290088246
-0.2964663506 -0.1758783162 0.5768522620 4289956660
-0.2956576943 -0.1747594029 0.5752787590 4289825327
-0.2952897549 -0.1739035547 0.5745629072 4289430569
-0.2944799066 -0.1727899760 0.5729870796 4289496101
-0.2941109836 -0.1719376743 0.5722693205 4289890859
-0.2932999432 -0.1708294600 0.5706911683 4290679858
-0.2924882472 -0.1697243750 0.5691118240 4291074616
-0.2916758955 -0.1686224192 0.5675311685 4291403831
-0.2908629179 -0.1675236076 0.5659493208 4291667003
-0.2900492549 -0.1664279401 0.5643661618 4292127294
-0.2887927294 -0.1650826037 0.5619212389 4292258880
-0.2879776955 -0.1639941484 0.5603353977 4292324671
-0.2880469859 -0.1634108722 0.5604701638 4292522050
-0.2863457501 -0.1618267000 0.5571599603 4292260669
-0.2855288088 -0.1607477367 0.5555704236 4292392255
-0.2851540148 -0.1599202603 0.5548411608 4292720959
-0.2847788036 -0.1590941697 0.5541110635 4292918338
-0.2848461568 -0.1585160047 0.5542421341 4293114436
-0.2840270996 -0.1574461758 0.5526484251 4293048643
-0.2840938270 -0.1568689793 0.5527783036 4293178950
-0.2837170064 -0.1560475677 0.5520451069 4293310536
-0.2828963697 -0.1549846232 0.5504483581 4293310536
-0.2834056616 -0.1546509415 0.5514392853 4293047364
-0.2830277085 -0.1538328230 0.5507038832 4292851274
-0.2835367620 -0.1534965336 0.5516943932 4292851274
-0.2831581831 -0.1526794285 0.5509577394 4292721246
-0.2832230926 -0.1521021277 0.5510840416 4292655453
-0.2832877636 -0.1515244395 0.5512099266 4291866472
-0.2833522558 -0.1509463489 0.5513353944 4291932265
-0.2834165096 -0.1503678709 0.5514603853 4291866464
-0.2834805548 -0.1497890055 0.5515850186 4291142741
-0.2835443616 -0.1492097378 0.5517091751 4291340373
-0.2840524912 -0.1488630474 0.5526978970 4291340373
-0.2841159999 -0.1482820809 0.5528213978 4290352957
-0.2841792405 -0.1477007419 0.5529445410 4289234476
-0.2842423022 -0.1471190155 0.5530672073 4289168162
-0.2843051255 -0.1465369016 0.5531893969 4288707611
-0.2843677104 -0.1459543854 0.5533112288 4288575509
-0.2848752141 -0.1455990076 0.5542986989 4288378130
-0.2849374712 -0.1450148225 0.5544198155 4288049165
-0.2849994898 -0.1444302499 0.5545405149 4288114958
-0.2850612998 -0.1438453048 0.5546607971 4288443660
-0.2851228714 -0.1432599872 0.5547806025 4288641039
-0.2851842344 -0.1426742822 0.5548999906 4288640776
-0.2852453887 -0.1420882046 0.5550189614 4288509190
-0.2853062749 -0.1415017396 0.5551374555 4288771598
-0.2849210799 -0.1406947225 0.5543879271 4289758493
-0.2849814296 -0.1401084363 0.5545053482 4290811430
-0.2854876518 -0.1397401243 0.5554903150 4291206188
-0.2855476439 -0.1391521692 0.5556070805 4290877736
-0.2847148776 -0.1381308287 0.5539867282 4291140908
-0.2852205932 -0.1377595663 0.5549707413 4290681655
-0.2852798104 -0.1371714324 0.5550859571 4290352690
-0.2853388190 -0.1365829259 0.5552007556 4289958977
-0.2853975594 -0.1359940618 0.5553150773 4290287942
-0.2854561210 -0.1354048401 0.5554289818 4290749527
-0.2859612107 -0.1350262165 0.5564118028 4291275871
-0.2855724692 -0.1342252940 0.5556554198 4291866977
-0.2856303155 -0.1336349845 0.5557679534 4292393321
-0.2856879234 -0.1330443025 0.5558800697 4293049960
-0.2857452929 -0.1324532777 0.5559917092 4292984167
-0.2862497270 -0.1320682615 0.5569731593 4293442653
-0.2863067091 -0.1314755976 0.5570840240 4293311067
-0.2868109345 -0.1310870796 0.5580651164 4293113936
-0.2873150706 -0.1306963712 0.5590460896 4293048143
-0.2869239151 -0.1298981458 0.5582849979 4293179988
-0.2874277830 -0.1295048594 0.5592653751 4293311574
-0.2879315615 -0.1291093826 0.5602456331 4293378139
-0.2875395417 -0.1283119768 0.5594828129 4293641311
-0.2880430520 -0.1279139370 0.5604625344 4293707355
-0.2885464728 -0.1275136918 0.5614420772 4293904734
-0.2890498340 -0.1271112561 0.5624215007 4294036320
-0.2886566818 -0.1263143122 0.5616564751 4294102113
-0.2900563478 -0.1262997389 0.5643799305 4294429796
-0.2905595005 -0.1258906722 0.5653589368 4294495589
-0.2906140983 -0.1252860576 0.5654651523 4294561631
-0.2902198732 -0.1244886890 0.5646981597 4294627424
-0.2920685112 -0.1246502325 0.5682951212 4294494824
-0.2921226025 -0.1240417957 0.5684003830 4294560617
-0.2930741012 -0.1238122284 0.5702517629 4294299739
-0.2935768068 -0.1233899146 0.5712298751 4294233946
-0.2931814492 -0.1225899309 0.5704606175 4294037096
-0.2941328585 -0.1223518774 0.5723118782 4293971303
-0.2941860855 -0.1217380166 0.5724154115 4294101862
-0.2946882844 -0.1213087440 0.5733925700 4294101862
-0.2947410643 -0.1206932887 0.5734952688 4293445468
-0.2965911329 -0.1208096743 0.5770950913 4293379675
-0.2979921401 -0.1207361147 0.5798210502 4293181546
-0.2975952029 -0.1199319288 0.5790487528 4294497406
-0.3219964802 -0.1984139979 0.6278846860 4289639867
-0.3159277439 -0.1939899772 0.6160507798 4290811986
-0.3094160855 -0.1893212497 0.6033532619 4290548814
-0.3046593666 -0.1857506931 0.5940777659 4290285624
-0.3020986021 -0.1835348904 0.5890843272 4290285624
-0.2986566126 -0.1807967126 0.5823725462 4290220602
-0.2974123955 -0.1793991476 0.5799463987 4290615360
-0.2966074049 -0.1782709509 0.5783766508 4291207756
-0.2962419093 -0.1774094552 0.5776639581 4291339342
-0.2958759964 -0.1765492707 0.5769503713 4291141450
-0.2946288288 -0.1751667559 0.5745184422 4290615106
-0.2947023213 -0.1745719761 0.5746617913 4290286394
-0.2952162325 -0.1742367893 0.5756638646 4290023222
-0.2939672172 -0.1728627235 0.5732283592 4289693741
-0.2935990095 -0.1720101088 0.5725103617 4289298983
-0.2927894592 -0.1709014624 0.5709317327 4289956651
-0.2919792235 -0.1697959453 0.5693517923 4290482995
-0.2902860045 -0.1681823581 0.5660501122 4291074866
-0.2894742787 -0.1670849025 0.5644672513 4291272245
-0.2882205248 -0.1657367945 0.5620224476 4291601461
-0.2869659066 -0.1643936187 0.5595759749 4291996219
-0.2874768376 -0.1640634686 0.5605722666 4292193083
-0.2866626382 -0.1629777402 0.5589845777 4292193083
-0.2858478129 -0.1618951708 0.5573956966 4292588354
-0.2841485143 -0.1603171229 0.5540821552 4292654147
-0.2851002812 -0.1602364182 0.5559380651 4292654663
-0.2842837572 -0.1591615826 0.5543458462 4292786249
-0.2843510509 -0.1585832089 0.5544770956 4292786764
-0.2839758098 -0.1577586830 0.5537453890 4292786764
-0.2836001515 -0.1569355428 0.5530128479 4292983632
-0.2832240462 -0.1561138034 0.5522794724 4293181011
-0.2828475535 -0.1552934647 0.5515452623 4292917321
-0.2829133570 -0.1547166556 0.5516736507 4293114700
-0.2825361192 -0.1538982093 0.5509380102 4293115216
-0.2826013863 -0.1533215046 0.5510653257 4293115216
-0.2822234035 -0.1525049806 0.5503282547 4293181284
-0.2822881639 -0.1519283801 0.5504544973 4293576042
-0.2823526859 -0.1513513774 0.5505803227 4293576833
-0.2824170291 -0.1507739723 0.5507057905 4293708419
-0.2824811339 -0.1501961797 0.5508307815 4293771875
-0.2825450003 -0.1496179998 0.5509553552 4293574496
-0.2826086581 -0.1490394324 0.5510794520 4293574746
-0.2831158638 -0.1486935169 0.5520685315 4293311574
-0.2831791937 -0.1481132507 0.5521919727 4293443150
-0.2832423151 -0.1475325972 0.5523150563 4293311564
-0.2833051980 -0.1469515562 0.5524376631 4293311815
-0.2833678722 -0.1463701427 0.5525599122 4293246022
-0.2838745713 -0.1460168362 0.5535479188 4293442890
-0.2834925354 -0.1452061236 0.5528029799 4293442890
-0.2839989960 -0.1448502243 0.5537905693 4293311306
-0.2840608656 -0.1442663521 0.5539112091 4293311306
-0.2836778760 -0.1434572488 0.5531644225 4293311304
-0.2837392092 -0.1428735256 0.5532840490 4293245511
-0.2838003337 -0.1422894299 0.5534031987 4293311558
-0.2838612199 -0.1417049468 0.5535219312 4293508937
-0.2839218974 -0.1411201060 0.5536401868 4293508686
-0.2839823067 -0.1405348778 0.5537580848 4293179721
-0.2840425372 -0.1399492770 0.5538754463 4293113927
-0.2845478058 -0.1395817399 0.5548607707 4293311306
-0.2846076787 -0.1389944851 0.5549774766 4293311304
-0.2846673131 -0.1384068578 0.5550937653 4293245511
-0.2842811048 -0.1376031786 0.5543407202 4293047881
-0.2843402028 -0.1370157301 0.5544558764 4293574225
-0.2843990326 -0.1364279240 0.5545706749 4293442649
-0.2844576538 -0.1358397454 0.5546849370 4293245270
-0.2845160365 -0.1352512091 0.5547988415 4293180257
-0.2850202620 -0.1348733753 0.5557820201 4293377636
-0.2850782573 -0.1342831999 0.5558951497 4293049449
-0.2851360738 -0.1336926520 0.5560078025 4293181035
-0.2851936221 -0.1331017613 0.5561200380 4293378673
-0.2852509320 -0.1325104982 0.5562318563 4293247087
-0.2857545316 -0.1321253330 0.5572138429 4293115494
-0.2858114839 -0.1315324306 0.5573248863 4293312873
-0.2858681977 -0.1309391856 0.5574354529 4293510521
-0.2859246731 -0.1303455830 0.5575456023 4293839486
-0.2859809399 -0.1297516227 0.5576552749 4293774722
-0.2864838839 -0.1293591261 0.5586360097 4293840515
-0.2865397334 -0.1287635565 0.5587449670 4293972350
-0.2870424688 -0.1283675730 0.5597252846 4294169729
-0.2866507471 -0.1275713444 0.5589614511 4294366073
-0.2876004577 -0.1273709089 0.5608133674 4294300280
-0.2876555622 -0.1267720759 0.5609207749 4294430825
-0.2881578505 -0.1263691336 0.5619002581 4294365032
-0.2882125676 -0.1257686913 0.5620068908 4294496353
-0.2887146175 -0.1253622621 0.5629859567 4294562146
-0.2892166376 -0.1249536350 0.5639648438 4294627175
-0.2906141281 -0.1249277815 0.5666899085 4294561382
-0.2911161482 -0.1245128661 0.5676688552 4294692718
-0.2916181087 -0.1240957454 0.5686476231 4294561132
-0.2921199799 -0.1236764193 0.5696262717 4294233948
-0.2917255163 -0.1228773743 0.5688570738 4294102362
-0.2936250567 -0.1224051714 0.5725611448 4293708383
-0.2950233221 -0.1223488823 0.5752877593 4293641570
-0.2941796184 -0.1213616282 0.5736424923 4293575777
-0.2946808934 -0.1209299788 0.5746199489 4293247580
-0.2960792780 -0.1208623797 0.5773468018 4293181787
-0.2970292270 -0.1206066236 0.5791991949 4292392543
-0.2984279990 -0.1205280200 0.5819267631 4293511024
-0.3205562830 -0.1979552805 0.6264330745 4289770937
-0.3149366379 -0.1938011348 0.6154510975 4290614879
-0.3084363341 -0.1891313791 0.6027481556 4290549086
