VERSION 0.7
FIELDS x y z rgba
SIZE 4 4 4 4
TYPE F F F U
COUNT 1 1 1 1
WIDTH 920
HEIGHT 1
VIEWPOINT 0.0 0.0 0.0 1.0 0.0 0.0 0.0
POINTS 920
DATA ascii
-0.3058736920 -0.1552848965 0.5813371539 4292390464
-0.3055545688 -0.1538324058 0.5807305574 4293244735
-0.3019936383 -0.1514019370 0.5739628077 4293310277
-0.3016057312 -0.1505705565 0.5732254982 4293376070
-0.3017360568 -0.1493612826 0.5734732151 4293706322
-0.3013470471 -0.1485323757 0.5727338791 4293772627
-0.3041351438 -0.1492643654 0.5780328512 4293575248
-0.3028378785 -0.1479882002 0.5755673051 4293114176
-0.3015397787 -0.1467171162 0.5731002092 4292390453
-0.3011493385 -0.1458912045 0.5723581314 4289037373
-0.3039386868 -0.1466006786 0.5776594877 4286734618
-0.3012759984 -0.1446801573 0.5725988150 4284958746
-0.3063385487 -0.1464644372 0.5822206140 4285550883
-0.3068569303 -0.1460642964 0.5832058191 4285946955
-0.3073752522 -0.1456619352 0.5841909647 4285946955
-0.3074387312 -0.1450428069 0.5843116045 4285487962
-0.3052275181 -0.1433550715 0.5801090002 4285553755
-0.3080199063 -0.1440161169 0.5854161978 4285554270
-0.3076276779 -0.1431831121 0.5846706629 4285554270
-0.3076901436 -0.1425624639 0.5847894549 4284830797
-0.3072971404 -0.1417314559 0.5840424895 4286212450
-0.3073590696 -0.1411109567 0.5841601491 4287791996
-0.3074207306 -0.1404900998 0.5842773914 4287923582
-0.3079376519 -0.1400760710 0.5852598548 4287989379
-0.3052651882 -0.1382157803 0.5801806450 4287792000
-0.3080599308 -0.1388306320 0.5854921937 4285163374
-0.3081206679 -0.1382073611 0.5856077075 4283386963
-0.3054458499 -0.1363625675 0.5805239677 4282597698
-0.3086974323 -0.1371623278 0.5867038369 4284834660
-0.3087575138 -0.1365370303 0.5868180394 4286676613
-0.3092735112 -0.1361121237 0.5877987742 4287334543
-0.3088769615 -0.1352853477 0.5870450735 4285952112
-0.3080236316 -0.1342611611 0.5854232311 4285031010
-0.3071697056 -0.1332402974 0.5838003159 4284109132
-0.3072282076 -0.1326169074 0.5839114785 4283385409
-0.3068298399 -0.1317970306 0.5831543207 4283450691
-0.3018642664 -0.1290266514 0.5737168789 4282990140
-0.3042047918 -0.1293846816 0.5781652331 4282529839
-0.3065459132 -0.1297330856 0.5826147199 4282529839
-0.3066029549 -0.1291097850 0.5827231407 4282595131
-0.3066597581 -0.1284861416 0.5828310847 4283253061
-0.3071734011 -0.1280526966 0.5838073492 4282266427
-0.3076869547 -0.1276170462 0.5847833753 4283055943
-0.3082004488 -0.1271791905 0.5857592821 4283648070
-0.3023108542 -0.1241104752 0.5745657086 4282924347
-0.3055676222 -0.1248022392 0.5807554126 4281937701
-0.3088252544 -0.1254806072 0.5869468451 4282661424
-0.3088805974 -0.1248508394 0.5870519876 4283977542
-0.3034434915 -0.1220123619 0.5767183304 4284240714
-0.3094482720 -0.1237733811 0.5881308913 4283977035
-0.3090450466 -0.1229595020 0.5873645544 4283648070
-0.3090993464 -0.1223283857 0.5874677300 4283054653
-0.3041153252 -0.1197137311 0.5779952407 4282857274
-0.3087490797 -0.1208858043 0.5868020058 4283909190
-0.3088025153 -0.1202546358 0.5869035721 4284040776
-0.3093139529 -0.1198006198 0.5878756046 4283910213
-0.3093669415 -0.1191678643 0.5879762769 4283581248
-0.3075860739 -0.1178323478 0.5845916271 4283252281
-0.3094721138 -0.1179013699 0.5881762505 4283515453
-0.3104414344 -0.1176151037 0.5900184512 4283516484
-0.3104935288 -0.1169791743 0.5901174545 4283253312
-0.3064169884 -0.1147962734 0.5823696852 4282990136
-0.3101381361 -0.1155354530 0.5894420147 4282661171
-0.3129939139 -0.1152774319 0.5948696733 4283713566
-0.3139630854 -0.1149713844 0.5967116356 4286605891
-0.3118191361 -0.1122109070 0.5926369429 4291802739
-0.3160027564 -0.1130491197 0.6005882025 4292130146
-0.3151341975 -0.1120729372 0.5989374518 4292064353
-0.3174812794 -0.1122372225 0.6033982635 4292654712
-0.3189097345 -0.1120687798 0.6061131358 4293510021
-0.3207979500 -0.1120548993 0.6097018719 4292796868
-0.3504238427 -0.1842106730 0.6674170494 4290955213
-0.3495998383 -0.1830376983 0.6658476591 4289637282
-0.3474198282 -0.1811611354 0.6616955996 4287597699
-0.3208368421 -0.1666205674 0.6110656857 4289824034
-0.3136769831 -0.1622384489 0.5974290371 4290613550
-0.3129124045 -0.1605186611 0.5959727764 4291995193
-0.3034837544 -0.1550396979 0.5780149698 4292587833
-0.3062650561 -0.1558124721 0.5833122730 4293048384
-0.3049749732 -0.1545107663 0.5808551311 4293246276
-0.3032314479 -0.1529857665 0.5775344372 4293509448
-0.3042030036 -0.1528321952 0.5793848634 4293246024
-0.3029108346 -0.1515419930 0.5769237876 4293311817
-0.3025235832 -0.1507080793 0.5761862397 4293377610
-0.3021358848 -0.1498755813 0.5754478574 4293311817
-0.3022008538 -0.1492682993 0.5755715370 4293509448
-0.3022655547 -0.1486606300 0.5756948590 4293312069
-0.3018767834 -0.1478306055 0.5749543905 4292456757
-0.3005808592 -0.1465598941 0.5724861026 4288838144
-0.3024583161 -0.1468352824 0.5760619640 4284827938
-0.3025220931 -0.1462260634 0.5761834383 4284235801
-0.3030392826 -0.1458347738 0.5771684647 4283777587
-0.3012876809 -0.1443542689 0.5738323331 4283974966
-0.3036196530 -0.1448290795 0.5782738328 4283778360
-0.3041366041 -0.1444320679 0.5792583823 4283778360
-0.3041994572 -0.1438181847 0.5793781281 4283777587
-0.3019914627 -0.1421352327 0.5751727819 4284106552
-0.3047786653 -0.1428021044 0.5804812908 4284172096
-0.3048408926 -0.1421861798 0.5805997849 4284501061
-0.3049028814 -0.1415698677 0.5807178617 4283581505
-0.3049646020 -0.1409531832 0.5808354020 4283910470
-0.3045715094 -0.1401269734 0.5800867677 4285029719
-0.3046326637 -0.1395104676 0.5802032351 4286279786
-0.3046935797 -0.1388935745 0.5803192258 4286870130
-0.3024799526 -0.1372444183 0.5761031508 4287396474
-0.3048146665 -0.1376587152 0.5805498362 4285426019
-0.3053298593 -0.1372452676 0.5815311074 4283649608
-0.3049347401 -0.1364223659 0.5807785392 4283253823
-0.3022631407 -0.1345875114 0.5756902099 4282924858
-0.3045985401 -0.1349828094 0.5801382065 4284173645
-0.3046576381 -0.1343642920 0.5802507997 4284568403
-0.3047164679 -0.1337454170 0.5803628564 4283910221
-0.3043195009 -0.1329271942 0.5796067715 4284370772
-0.3039221168 -0.1321104765 0.5788498521 4283582026
-0.3039800227 -0.1314923763 0.5789601803 4282792510
-0.3035818636 -0.1306777298 0.5782018304 4283121471
-0.3040951192 -0.1302551478 0.5791794062 4283516229
-0.3036962748 -0.1294416487 0.5784197450 4283516995
-0.3037531078 -0.1288230866 0.5785279870 4283319616
-0.3015288413 -0.1272416860 0.5742916465 4283319362
-0.3034097552 -0.1273933500 0.5778740644 4283779913
-0.3034657538 -0.1267746836 0.5779806972 4283055933
-0.3035215139 -0.1261556745 0.5780869126 4283911242
-0.3040334880 -0.1257250905 0.5790620446 4283977035
-0.3045454025 -0.1252923161 0.5800369978 4283713863
-0.3046005368 -0.1246704310 0.5801420212 4284108879
-0.3051121831 -0.1242341772 0.5811164975 4283911500
-0.3024258912 -0.1225004047 0.5760002136 4283582283
-0.3056783080 -0.1231709644 0.5821947455 4284437592
-0.3061895967 -0.1227290407 0.5831685066 4285358435
-0.3062436879 -0.1221026704 0.5832715631 4285621607
-0.3058404028 -0.1212946698 0.5825034380 4285818467
-0.3063511550 -0.1208489463 0.5834762454 4285686881
-0.3064044714 -0.1202215925 0.5835778117 4285687133
-0.3060001731 -0.1194154099 0.5828077197 4286081891
-0.3060528934 -0.1187883392 0.5829082131 4285556829
-0.3065629303 -0.1183375642 0.5838795900 4286017380
-0.3070728779 -0.1178845912 0.5848507881 4285752164
-0.3071249723 -0.1172546819 0.5849500895 4286278508
-0.3058034778 -0.1161030233 0.5824331045 4287529085
-0.3076862991 -0.1161667556 0.5860191584 4287002741
-0.3077376783 -0.1155349463 0.5861170292 4284633932
-0.3082468510 -0.1150738075 0.5870867968 4283449658
-0.3087559044 -0.1146104708 0.5880563259 4283318850
-0.3051413000 -0.1126230061 0.5811719298 4283121471
-0.3097736537 -0.1136772111 0.5899947286 4282398253
-0.3107406795 -0.1133745015 0.5918365121 4283450941
-0.3107909262 -0.1127351597 0.5919322371 4287790146
-0.3108409345 -0.1120955124 0.5920274854 4291079796
-0.3090564907 -0.1107980013 0.5886288285 4292458585
-0.3063539565 -0.1091808453 0.5834816098 4292590171
-0.3064024448 -0.1085497215 0.5835739374 4292261984
-0.3073681593 -0.1082414091 0.5854132175 4292590949
-0.3097103834 -0.1084108502 0.5898742080 4292461170
-0.3480300903 -0.1833401471 0.6642630696 4291415764
-0.3472071290 -0.1821703166 0.6626923680 4290821299
-0.3450304568 -0.1802965850 0.6585378647 4288321165
-0.3383412659 -0.1760836393 0.6457706690 4290087460
-0.3203682303 -0.1660505086 0.6114666462 4291008562
-0.3087053895 -0.1593508720 0.5892065167 4291798327
-0.3078712523 -0.1582674235 0.5876144171 4292324671
-0.3065849543 -0.1569560170 0.5851593614 4292719678
-0.3043945730 -0.1551891416 0.5809787512 4292917057
-0.3031063974 -0.1538896263 0.5785200596 4292983104
-0.3022692204 -0.1528235823 0.5769222379 4293246276
-0.3014314473 -0.1517607868 0.5753231645 4293114436
-0.3001409769 -0.1504745930 0.5728601813 4293311815
-0.2997539639 -0.1496448815 0.5721214414 4293508683
-0.2998186946 -0.1490414143 0.5722450614 4293311304
-0.3003355265 -0.1486614197 0.5732315183 4293311556
-0.2994951010 -0.1476103067 0.5716273785 4293179970
-0.2995590568 -0.1470065713 0.5717494488 4291338278
-0.3006550670 -0.1456317008 0.5738413930 4283972393
-0.2993596196 -0.1443693638 0.5713688135 4283777595
-0.3012342155 -0.1446346194 0.5749467611 4283909181
-0.3012970388 -0.1440258324 0.5750666261 4283581244
-0.3013596237 -0.1434166729 0.5751860738 4283318072
-0.2996088862 -0.1419481486 0.5718445778 4283777336
-0.3019374013 -0.1424110532 0.5762888789 4283843129
-0.3019993603 -0.1417998374 0.5764071345 4284632647
-0.3020610809 -0.1411882490 0.5765249133 4284566854
-0.3021225333 -0.1405763030 0.5766422153 4284239938
-0.3021837771 -0.1399639696 0.5767591000 4284042559
-0.3022447526 -0.1393512636 0.5768755078 4283385658
-0.3018515706 -0.1385298669 0.5761250854 4283517244
-0.3000959754 -0.1370877624 0.5727742314 4283581508
-0.3019721508 -0.1373044550 0.5763552189 4284107852
-0.3024862409 -0.1368967593 0.5773364305 4284698700
-0.3016374707 -0.1358729601 0.5757164359 4284567114
-0.3003337085 -0.1346487850 0.5732280016 4285159249
-0.3013014495 -0.1344437003 0.5750750899 4284632905
-0.3013601899 -0.1338308454 0.5751872063 4284699211
-0.3014187217 -0.1332176328 0.5752989054 4285225555
-0.3010222614 -0.1324040592 0.5745422244 4284634445
-0.3006253839 -0.1315919757 0.5737847090 4284239687
-0.3006829917 -0.1309795529 0.5738946795 4284897355
-0.3007403314 -0.1303667724 0.5740041137 4286015836
-0.3008542955 -0.1291401684 0.5742216706 4286870621
-0.3009109199 -0.1285263449 0.5743296742 4287330392
-0.2991459966 -0.1271381229 0.5709611177 4286409290
-0.3010233939 -0.1272976696 0.5745443702 4286210881
-0.3006237447 -0.1264911592 0.5737816095 4287592534
-0.3006792963 -0.1258768886 0.5738875866 4286145869
-0.2998232543 -0.1248827055 0.5722537041 4286606420
-0.3017010689 -0.1250250638 0.5758377910 4287922026
-0.3017560244 -0.1244079173 0.5759426951 4286277201
-0.3018107116 -0.1237904355 0.5760470629 4286474330
-0.3004971743 -0.1226144359 0.5735400319 4287395432
-0.3010071814 -0.1221842095 0.5745134354 4285817432
-0.3033417165 -0.1224885657 0.5789692402 4287199085
-0.3033956289 -0.1218669489 0.5790721178 4288909449
-0.3035027087 -0.1206227243 0.5792765021 4286672230
-0.3040123582 -0.1201805696 0.5802491903 4287264367
-0.3036087751 -0.1193771809 0.5794789195 4288448898
-0.3036614060 -0.1187539250 0.5795793533 4288383105
-0.3041704893 -0.1183079854 0.5805510283 4286738793
-0.3042227030 -0.1176831499 0.5806506872 4286475621
-0.3047315180 -0.1172337458 0.5816218257 4287530107
-0.3029554784 -0.1159080341 0.5782320499 4288714381
-0.3034636974 -0.1154589355 0.5792020559 4288450957
-0.3053431213 -0.1155264825 0.5827891827 4287858820
-0.3053941727 -0.1148981676 0.5828866363 4285884765
-0.3063594699 -0.1146116704 0.5847290158 4283384631
-0.3045808375 -0.1133003607 0.5813342929 4283121975
-0.3069179952 -0.1135188937 0.5857950449 4283253561
-0.3069682121 -0.1128865033 0.5858908892 4283121206
-0.3074757457 -0.1124211028 0.5868595839 4282792241
-0.3075255156 -0.1117871553 0.5869545937 4284434944
-0.3080327511 -0.1113183051 0.5879226923 4288119345
-0.3085398376 -0.1108472571 0.5888905525 4292392541
-0.3085889518 -0.1102105081 0.5889843106 4292326748
-0.3095536530 -0.1098985896 0.5908255577 4292590947
-0.3105183840 -0.1095825955 0.5926668644 4292590947
-0.3078185916 -0.1079770699 0.5875139832 4292590169
-0.3115316033 -0.1086188704 0.5946007371 4292655962
-0.3129544258 -0.1084512919 0.5973163843 4293119898
-0.3469128311 -0.1838770509 0.6635372639 4292863210
-0.3465417624 -0.1829439253 0.6628275514 4291678936
-0.3452699184 -0.1815387458 0.6603948474 4291281850
-0.3426464200 -0.1794311702 0.6553769112 4288255372
-0.3359681964 -0.1752200574 0.6426035166 4290350630
-0.3207279146 -0.1665900946 0.6134536266 4291140146
-0.3108873069 -0.1608180702 0.5946314931 4291798327
-0.3064499497 -0.1578714401 0.5861442089 4292258878
-0.3047149181 -0.1563300490 0.5828256607 4292719680
-0.3011754155 -0.1538741142 0.5760556459 4292851266
-0.3003398478 -0.1528089494 0.5744574666 4293048643
-0.2999547124 -0.1519755572 0.5737208128 4293443401
-0.2991179824 -0.1509159505 0.5721204281 4293311815
-0.2978293896 -0.1496328712 0.5696557164 4293311815
-0.2978940010 -0.1490322798 0.5697793961 4293574730
-0.2975069582 -0.1482064128 0.5690390468 4293377351
-0.2975710332 -0.1476059556 0.5691616535 4293377349
-0.2985381782 -0.1474512517 0.5710114837 4293508935
-0.2986019850 -0.1468481869 0.5711334944 4292127282
-0.2977618575 -0.1458022594 0.5695266128 4287719168
-0.2982769310 -0.1454205811 0.5705118179 4284431901
-0.2983399332 -0.1448172927 0.5706322789 4285024038
-0.2984027267 -0.1442136019 0.5707523823 4284763966
-0.2975608110 -0.1431743652 0.5691420436 4284171829
-0.2989798486 -0.1432217807 0.5718562603 4283647037
-0.2990420163 -0.1426160485 0.5719751120 4284436553
-0.2991039157 -0.1420099437 0.5720935464 4286014557
-0.2978078127 -0.1407616884 0.5696144700 4285422420
-0.2992270291 -0.1407966018 0.5723290443 4284106303
-0.2992882133 -0.1401893646 0.5724460483 4284961612
-0.2993491888 -0.1395817548 0.5725626349 4286542184
-0.2994098961 -0.1389737874 0.5726788044 4285621082
-0.2994703650 -0.1383654326 0.5727944374 4284240456
-0.2995305955 -0.1377567202 0.5729096532 4286806383
-0.2977776527 -0.1363177001 0.5695568323 4288318603
-0.2996503413 -0.1365381926 0.5731387138 4287397501
-0.2997098565 -0.1359283924 0.5732525587 4286869615
-0.2997691333 -0.1353182197 0.5733658671 4287790717
-0.2980137467 -0.1338925064 0.5700083971 4289106571
-0.2994332314 -0.1338939220 0.5727234483 4288317055
-0.2994917035 -0.1332836002 0.5728352666 4287724397
-0.2995498776 -0.1326729208 0.5729465485 4288513913
-0.2996078432 -0.1320618838 0.5730574131 4288777078
-0.2992115319 -0.1312513202 0.5722993612 4287395425
-0.2988147736 -0.1304422617 0.5715405345 4286802771
-0.2979633808 -0.1294373870 0.5699120760 4288513389
-0.2984743118 -0.1290250421 0.5708892941 4289631355
-0.2989851832 -0.1286104918 0.5718664527 4289960320
-0.2990414798 -0.1279992014 0.5719740987 4290355080
-0.2977338731 -0.1268067807 0.5694730878 4289894529
-0.2991533577 -0.1267756075 0.5721880794 4288249964
-0.2992089093 -0.1261632890 0.5722943544 4287328862
-0.2992642224 -0.1255506426 0.5724001527 4288514683
-0.2974997163 -0.1241781488 0.5690252185 4288119925
-0.2998290956 -0.1245132610 0.5734805465 4288975235
-0.2998837233 -0.1238986626 0.5735850930 4289106821
-0.2999381423 -0.1232837290 0.5736891627 4288514943
-0.2977161705 -0.1217377409 0.5694392323 4288843908
-0.3000461757 -0.1220528558 0.5738958120 4287659896
-0.3005551994 -0.1216211990 0.5748693943 4285422934
-0.2992422879 -0.1204539835 0.5723581910 4286805616
-0.3006618917 -0.1203864738 0.5750734806 4287200374
-0.3007148802 -0.1197686270 0.5751748085 4286739823
-0.3012232780 -0.1193309799 0.5761472583 4286674030
-0.3012758195 -0.1187115386 0.5762477517 4286872177
-0.3013280928 -0.1180917770 0.5763477087 4286082661
-0.3013801277 -0.1174716875 0.5764472485 4284438093
-0.3018879294 -0.1170280650 0.5774185061 4284372300
-0.3023956120 -0.1165822372 0.5783895254 4285358937
-0.3001661301 -0.1150848120 0.5741252303 4284306249
-0.3029544353 -0.1155100390 0.5794584155 4283188030
-0.3034617305 -0.1150585711 0.5804287195 4284832855
-0.3035125136 -0.1144328192 0.5805258751 4285292375
-0.3003676534 -0.1126087904 0.5745106936 4283581757
-0.3027001917 -0.1128399894 0.5789721012 4283319105
-0.3045766056 -0.1128922030 0.5825611353 4283121726
-0.3046264946 -0.1122633219 0.5826565623 4282989117
-0.3046761155 -0.1116341352 0.5827514529 4282923324
-0.3051823676 -0.1111710668 0.5837197304 4283776768
-0.3052315414 -0.1105403230 0.5838137865 4285882134
-0.3034524322 -0.1092511341 0.5804108977 4291997270
-0.3021295369 -0.1081327945 0.5778806210 4292589407
-0.3067972660 -0.1084994152 0.5868085623 4292919389
-0.3078078926 -0.1075485498 0.5887415409 4292982854
-0.3096853197 -0.1075463966 0.5923324823 4292722284
-0.3115630448 -0.1075363755 0.5959240198 4294169730
-0.3134410381 -0.1075184643 0.5995160341 4294504917
-0.3454263210 -0.1834789217 0.6621005535 4292796904
-0.3446064293 -0.1823095381 0.6605290771 4291810009
-0.3433365226 -0.1809065044 0.6580948830 4290623918
-0.3407172263 -0.1788007617 0.6530743241 4287663233
-0.3340500891 -0.1745905876 0.6402949691 4290613801
-0.3197347820 -0.1664278060 0.6128559709 4291140145
-0.3099108040 -0.1606542319 0.5940256715 4291469362
-0.3032314181 -0.1565459371 0.5812228918 4291798327
-0.3001487851 -0.1543152928 0.5753142834 4292324924
-0.3011154234 -0.1541709900 0.5771670341 4292719682
-0.2998312414 -0.1528749466 0.5747055411 4293048643
-0.2989965081 -0.1518125832 0.5731055737 4293443401
-0.2977107763 -0.1505257338 0.5706411600 4293509448
-0.2982261777 -0.1501512080 0.5716290474 4293377862
-0.2982909381 -0.1495485604 0.5717532039 4293706314
-0.2974541187 -0.1484955400 0.5701491833 4293640521
-0.2979690135 -0.1481180191 0.5711361766 4293508937
-0.2975821197 -0.1472919434 0.5703945756 4293640523
-0.2971948087 -0.1464673132 0.5696521401 4293508683
-0.2963559628 -0.1454227716 0.5680443048 4291469100
-0.2968700528 -0.1450427920 0.5690296888 4287392041
-0.2969328165 -0.1444410980 0.5691499710 4285220872
-0.2969953418 -0.1438390017 0.5692698359 4285091889
-0.2957032621 -0.1425834894 0.5667932034 4285749819
-0.2971196771 -0.1426337063 0.5695081353 4284567361
-0.2971814871 -0.1420304775 0.5696266294 4285093705
-0.2972430587 -0.1414268911 0.5697446465 4287791471
-0.2959489226 -0.1401808709 0.5672640800 4287988850
-0.2973655164 -0.1402185708 0.5699793696 4285554511
-0.2974264026 -0.1396138519 0.5700960755 4286672992
-0.2970349193 -0.1387975067 0.5693457127 4288581514
-0.2970952094 -0.1381929815 0.5694612861 4288252549
-0.2971552908 -0.1375880688 0.5695763826 4286936950
-0.2972151041 -0.1369827986 0.5696910620 4287923845
-0.2963697314 -0.1359620243 0.5680707097 4288055423
-0.2973340154 -0.1357711703 0.5699189901 4286673770
-0.2978457808 -0.1353705376 0.5708999038 4286476641
-0.2979047298 -0.1347628981 0.5710129142 4286674020
-0.2961521149 -0.1333393604 0.5676535368 4288055154
-0.2975689769 -0.1333435774 0.5703693628 4286739294
-0.2976271212 -0.1327357739 0.5704807639 4283449382
-0.2976849973 -0.1321276277 0.5705917478 4283580968
-0.2977426350 -0.1315191239 0.5707022548 4287001429
-0.2973467708 -0.1307110041 0.5699434280 4287922531
-0.2969504893 -0.1299044043 0.5691838264 4285685058
-0.2965537906 -0.1290992945 0.5684234500 4286211402
-0.2970637083 -0.1286886483 0.5694009066 4287066206
-0.2975735962 -0.1282757968 0.5703781843 4287658343
-0.2971759737 -0.1274715066 0.5696160793 4287001191
-0.2963241637 -0.1264750510 0.5679833293 4287066984
-0.2972872555 -0.1262529939 0.5698293447 4286212196
-0.2977964580 -0.1258350462 0.5708053708 4284567371
-0.2978515625 -0.1252240092 0.5709109902 4285227359
-0.2979064286 -0.1246126294 0.5710161328 4285424738
-0.2984152436 -0.1241899431 0.5719914436 4285161566
-0.2980153859 -0.1233888641 0.5712249875 4285161566
-0.2980695069 -0.1227764785 0.5713286996 4285095774
-0.2981233597 -0.1221637651 0.5714319348 4284635223
-0.2986314893 -0.1217360049 0.5724059343 4283977552
-0.2986849248 -0.1211216897 0.5725083947 4282990657
-0.2973740101 -0.1199567840 0.5699956417 4282728255
-0.2987910509 -0.1198920757 0.5727117658 4283780943
-0.2992986143 -0.1194583252 0.5736846328 4283518284
-0.2993510962 -0.1188417673 0.5737853050 4283123526
-0.2998583913 -0.1184045598 0.5747576356 4283715663
-0.2999104559 -0.1177864149 0.5748574138 4283781456
-0.2999622822 -0.1171679497 0.5749567747 4283320905
-0.3004691303 -0.1167260259 0.5759282708 4283584077
-0.3005205095 -0.1161059886 0.5760267377 4284108621
-0.3005716503 -0.1154856235 0.5761247873 4283713863
-0.3006225228 -0.1148649529 0.5762223005 4283582788
-0.3011287153 -0.1144170612 0.5771925449 4283648581
-0.3011791706 -0.1137948185 0.5772892237 4283516734
-0.3016850650 -0.1133434772 0.5782589316 4283253562
-0.3017350733 -0.1127196625 0.5783547759 4283253572
-0.3017848134 -0.1120955497 0.5784500837 4283253572
-0.3004664481 -0.1109659672 0.5759231448 4283647300
-0.3023395240 -0.1110138297 0.5795133710 4283318335
-0.3023885489 -0.1103878543 0.5796073675 4283775752
-0.3028934896 -0.1099271178 0.5805751681 4286341679
-0.3015733659 -0.1088057607 0.5780448318 4292259915
-0.3034467101 -0.1088354141 0.5816355944 4292786259
-0.3039512336 -0.1083690524 0.5826026201 4293050452
-0.3044556081 -0.1079005003 0.5835694075 4292655694
-0.3054164052 -0.1075905785 0.5854110122 4293246276
-0.3031810522 -0.1061574370 0.5811263919 4293443655
-0.3050547242 -0.1061638370 0.5847177505 4293049949
-0.3060152233 -0.1058463976 0.5865588188 4293378914
-0.3129142523 -0.1075662673 0.5997825861 4293450671
-0.3111343980 -0.1062918231 0.5963710546 4294964424
-0.3434936702 -0.1828416139 0.6598007679 4292862695
-0.3426749408 -0.1816744655 0.6582280993 4291612628
-0.3409582973 -0.1800366789 0.6549307108 4289637023
-0.3383431137 -0.1779336929 0.6499073505 4287268475
-0.3316869736 -0.1737253517 0.6371218562 4290679848
-0.3191914260 -0.1664994210 0.6131197214 4290943020
-0.3093841672 -0.1607233882 0.5942814350 4291206192
-0.3049618602 -0.1577751786 0.5857868791 4291469364
-0.3023342788 -0.1557705253 0.5807396173 4291929913
-0.3001545966 -0.1540068984 0.5765527487 4292258878
-0.2984231114 -0.1524816006 0.5732268691 4292719169
-0.2975896597 -0.1514206231 0.5716259480 4293048134
-0.2976548374 -0.1508185416 0.5717511177 4293311556
-0.2963706255 -0.1495353132 0.5692843199 4293377349
-0.2964350581 -0.1489351690 0.5694081187 4293574728
-0.2960493267 -0.1481095552 0.5686671734 4293772107
-0.2961131930 -0.1475095302 0.5687898397 4293640523
-0.2957267165 -0.1466858685 0.5680475235 4293377351
-0.2957900465 -0.1460859925 0.5681691170 4293706064
-0.2954027951 -0.1452642977 0.5674253106 4293574478
-0.2954655588 -0.1446645707 0.5675458312 4292390500
-0.2950775623 -0.1438448578 0.5668005943 4289100850
-0.2946891487 -0.1430265903 0.5660545230 4285616676
-0.2952017188 -0.1426453292 0.5670390129 4284037644
-0.2952634394 -0.1420450062 0.5671575665 4283448870
-0.2953249216 -0.1414442956 0.5672757030 4283580456
-0.2949351966 -0.1406281888 0.5665270686 4285094467
-0.2954471707 -0.1402417719 0.5675105453 4287002464
-0.2955079675 -0.1396399438 0.5676273108 4287660396
-0.2955684960 -0.1390377432 0.5677435994 4287068259
-0.2956288159 -0.1384351850 0.5678594112 4287002995
-0.2956888676 -0.1378322542 0.5679748058 4286542444
-0.2952971756 -0.1370194405 0.5672224164 4284963161
-0.2944534421 -0.1359995157 0.5656017065 4284042059
-0.2954159379 -0.1358135939 0.5674505234 4284896587
-0.2954749465 -0.1352101117 0.5675638914 4285817689
-0.2941780686 -0.1339888275 0.5650727749 4286014047
-0.2955922782 -0.1340020895 0.5677892566 4285816668
-0.2956505716 -0.1333975494 0.5679012537 4285159508
-0.2957086563 -0.1327926368 0.5680127740 4284567371
-0.2957664728 -0.1321873814 0.5681238174 4283516482
-0.2958240509 -0.1315817684 0.5682344437 4282792759
-0.2958813906 -0.1309757978 0.5683445930 4283187776
-0.2954859734 -0.1301701367 0.5675850511 4283450948
-0.2955427170 -0.1295643896 0.5676940680 4283450691
-0.2960519195 -0.1291557848 0.5686721802 4283648070
-0.2965610623 -0.1287449747 0.5696501136 4283516484
-0.2957115471 -0.1277450770 0.5680183768 4283384898
-0.2953144014 -0.1269432455 0.5672554970 4282857784
-0.2962759137 -0.1267242432 0.5691024065 4283449921
-0.2963312864 -0.1261155009 0.5692088008 4284173385
-0.2963864207 -0.1255064160 0.5693147182 4283844420
-0.2955347598 -0.1245150492 0.5676788092 4283845958
-0.2969493270 -0.1244772747 0.5703959465 4283188028
-0.2965503633 -0.1236771345 0.5696295500 4283516995
-0.2966045141 -0.1230667010 0.5697335601 4283516995
-0.2971657515 -0.1220311448 0.5708116293 4283582275
-0.2967654467 -0.1212334111 0.5700427294 4283450691
-0.2959108949 -0.1202527806 0.5684012771 4283319105
-0.2973254323 -0.1201930642 0.5711184144 4283714121
-0.2973781526 -0.1195797175 0.5712196827 4284108879
-0.2978847325 -0.1191476658 0.5721927285 4283977552
-0.2979370356 -0.1185327321 0.5722932220 4283780173
-0.2984433472 -0.1180972233 0.5732657313 4284240213
-0.2984952331 -0.1174807027 0.5733653903 4284306006
-0.2990012765 -0.1170417368 0.5743374228 4284042323
-0.2976892591 -0.1158928275 0.5718172193 4283976530
-0.2991039157 -0.1158052236 0.5745345950 4283845707
-0.2991548479 -0.1151864827 0.5746324658 4283845707
-0.2992055416 -0.1145674363 0.5747298002 4284240978
-0.2993061543 -0.1133283973 0.5749230385 4283056955
-0.2998110056 -0.1128797010 0.5758928061 4283385920
-0.2998607457 -0.1122584566 0.5759883523 4283319876
-0.2990000248 -0.1112981066 0.5743350387 4283451462
-0.2999594510 -0.1110150591 0.5761778951 4283187768
-0.3004636467 -0.1105604097 0.5771464109 4282200873
-0.3005124032 -0.1099370047 0.5772401094 4284894736
-0.2996501327 -0.1089820415 0.5755838156 4289631832
-0.3001537025 -0.1085245982 0.5765510798 4293181522
-0.3024793267 -0.1087199077 0.5810182691 4292852557
-0.3020717502 -0.1079287231 0.5802353621 4293115725
-0.3034864664 -0.1077864990 0.5829528570 4293247311
-0.3044456244 -0.1074774042 0.5847952366 4292918601
-0.3035814762 -0.1065244302 0.5831353664 4293181773
-0.3054521978 -0.1065289453 0.5867286921 4293378650
-0.3068672121 -0.1063675359 0.5894467235 4293444443
-0.3087384403 -0.1063572317 0.5930410624 4292791701
-0.3060488403 -0.1047775298 0.5878747702 4294436526
-0.3420124948 -0.1824424118 0.6583602428 4292797415
-0.3407472968 -0.1810387224 0.6559247375 4290955211
-0.3390333354 -0.1794029772 0.6526254416 4288386955
-0.3359743953 -0.1770657450 0.6467371583 4286807923
-0.3293292522 -0.1728592664 0.6339455247 4290285090
-0.3181991577 -0.1663367152 0.6125205159 4290482469
-0.3088568747 -0.1607924998 0.5945369601 4290745387
-0.3044421673 -0.1578430533 0.5860388279 4291140145
-0.3013706505 -0.1556060165 0.5801262856 4291535157
-0.2974003553 -0.1529199630 0.5724836588 4291864122
-0.2961200476 -0.1516283154 0.5700191259 4292324411
-0.2961851954 -0.1510282159 0.5701445341 4292653376
-0.2950321436 -0.1485472471 0.5679249763 4293443142
-0.2946469486 -0.1477231085 0.5671834350 4293640521
-0.2942613065 -0.1469004154 0.5664411187 4293771855
-0.2947739661 -0.1465258896 0.5674279332 4293574476
-0.2943876684 -0.1457042396 0.5666843653 4293574478
-0.2940009534 -0.1448840499 0.5659399629 4293837650
-0.2945131063 -0.1445065439 0.5669258237 4293837668
-0.2941257358 -0.1436874121 0.5661801696 4293442910
-0.2941877842 -0.1430885196 0.5662996173 4291472987
-0.2933497429 -0.1420534998 0.5646864176 4288117544
-0.2943111658 -0.1418896019 0.5665370822 4284895776
-0.2943724990 -0.1412895769 0.5666551590 4283448330
-0.2944336236 -0.1406891793 0.5667728186 4283054373
-0.2931436002 -0.1394457966 0.5642895699 4283843889
-0.2941047251 -0.1392739862 0.5661396980 4283975487
-0.2941650450 -0.1386733949 0.5662558079 4283514936
-0.2942250967 -0.1380724311 0.5663714409 4283252542
-0.2942849398 -0.1374711096 0.5664865971 4283449921
-0.2943445444 -0.1368694156 0.5666013360 4283582022
-0.2939530313 -0.1360586733 0.5658476949 4283647815
-0.2926592529 -0.1348339021 0.5633572340 4284043078
-0.2936198413 -0.1346484721 0.5652062893 4283911492
-0.2936783135 -0.1340471804 0.5653188825 4283910209
-0.2923828959 -0.1328305602 0.5628252625 4283976002
-0.2937945127 -0.1328434944 0.5655425787 4283713859
-0.2943036556 -0.1324442625 0.5665225983 4283582273
-0.2943612337 -0.1318406165 0.5666334629 4283714374
-0.2944186032 -0.1312366128 0.5667439103 4284043339
-0.2944757044 -0.1306322515 0.5668538213 4284306511
-0.2945325971 -0.1300275475 0.5669633150 4283188030
-0.2945892215 -0.1294224858 0.5670723319 4283385409
-0.2941936851 -0.1286195070 0.5663109422 4284043339
-0.2947017550 -0.1282113343 0.5672889352 4283846473
-0.2952097356 -0.1278009415 0.5682668090 4284043852
-0.2939089537 -0.1266092211 0.5657628775 4283649094
-0.2948687077 -0.1263920069 0.5676103234 4283978059
-0.2949238718 -0.1257848740 0.5677165389 4284175434
-0.2949787974 -0.1251774132 0.5678222775 4283583297
-0.2932234704 -0.1238053739 0.5644432902 4283714634
-0.2950879037 -0.1239614636 0.5680322647 4283648841
-0.2951420844 -0.1233529821 0.5681365728 4283385669
-0.2951960266 -0.1227441728 0.5682404041 4283385669
-0.2952497303 -0.1221350208 0.5683437586 4283845706
-0.2957560718 -0.1217119321 0.5693184733 4283714120
-0.2953563631 -0.1209157407 0.5685490370 4283253823
-0.2935969830 -0.1195675284 0.5651623011 4283188030
-0.2950088382 -0.1195115522 0.5678800941 4282990651
-0.2955144346 -0.1190843433 0.5688533783 4283451202
-0.2960199714 -0.1186549366 0.5698264241 4283648327
-0.2960719764 -0.1180425659 0.5699266195 4283121983
-0.2965772450 -0.1176096946 0.5708991885 4283516742
-0.2966288328 -0.1169957370 0.5709985495 4284372051
-0.2971338332 -0.1165594161 0.5719706416 4284766298
-0.2953701317 -0.1152358279 0.5685755610 4284503126
-0.2972359359 -0.1153280288 0.5721671581 4284373068
-0.2972865999 -0.1147118583 0.5722646713 4284504654
-0.2973370254 -0.1140953824 0.5723617077 4284438877
-0.2973871827 -0.1134785861 0.5724582672 4284241498
-0.2974370718 -0.1128614768 0.5725543499 4284174422
-0.2974867225 -0.1122440621 0.5726498961 4283648078
-0.2979903817 -0.1117967591 0.5736194253 4282792508
-0.2980395854 -0.1111777872 0.5737141371 4282266164
-0.2985429466 -0.1107270345 0.5746830702 4282989111
-0.2990461886 -0.1102740988 0.5756518245 4285818210
-0.2981856763 -0.1093190312 0.5739953518 4290158669
-0.2977792323 -0.1085331365 0.5732129812 4291869287
-0.3001005650 -0.1087373644 0.5776814222 4292654416
-0.3006032705 -0.1082765982 0.5786491632 4293312346
-0.3011058867 -0.1078136414 0.5796166658 4293313104
-0.3031150997 -0.1059398875 0.5834843516 4293838690
-0.3040723205 -0.1056240946 0.5853269100 4293772897
-0.3068505824 -0.1059328914 0.5906749964 4292461952
-0.3087187707 -0.1059175581 0.5942711234 4293843605
-0.3396398723 -0.1815649420 0.6551938057 4292665831
-0.3388234675 -0.1804022938 0.6536189318 4290231490
-0.3366650939 -0.1785315126 0.6494552493 4287926405
-0.3336110711 -0.1761969328 0.6435637474 4286610545
-0.3265296519 -0.1717570126 0.6299030781 4289889821
-0.3163129389 -0.1657049805 0.6101942062 4290021407
-0.3074338734 -0.1603946090 0.5930657387 4290219043
-0.3034741879 -0.1576783061 0.5854271650 4290548008
-0.3004078567 -0.1554412395 0.5795120001 4291008559
-0.2982355356 -0.1536779702 0.5753213763 4291337524
-0.2965098619 -0.1521532238 0.5719923973 4291798067
-0.2961271703 -0.1513221413 0.5712541342 4292192825
-0.2957440615 -0.1504924893 0.5705150962 4292522040
-0.2953605056 -0.1496642530 0.5697752237 4292785212
-0.2949765325 -0.1488374621 0.5690345168 4293114176
-0.2945921421 -0.1480120867 0.5682929754 4293311555
-0.2942073345 -0.1471881568 0.5675505996 4293508937
-0.2938220799 -0.1463656574 0.5668074489 4293706316
-0.2938850820 -0.1457671374 0.5669289827 4293640271
-0.2934990823 -0.1449466199 0.5661844015 4293640271
-0.2935615480 -0.1443482637 0.5663048625 4293771855
-0.2931748033 -0.1435297132 0.5655587912 4293903441
-0.2927876413 -0.1427126229 0.5648119450 4293511766
-0.2928492129 -0.1421149522 0.5649306774 4293248594
-0.2929105461 -0.1415169090 0.5650489926 4291802464
-0.2929716408 -0.1409184933 0.5651668906 4289433916
-0.2930324972 -0.1403196901 0.5652843118 4286341428
-0.2930931449 -0.1397205293 0.5654012561 4284630810
-0.2931535244 -0.1391209811 0.5655177832 4283052568
-0.2927639782 -0.1383086294 0.5647662878 4283710498
-0.2928238213 -0.1377092600 0.5648817420 4283909433
-0.2924335301 -0.1368989348 0.5641288161 4283712054
-0.2924928069 -0.1362997591 0.5642431378 4283779656
-0.2925518453 -0.1357002407 0.5643570423 4283911242
-0.2921604514 -0.1348924935 0.5636020303 4283780165
-0.2922189534 -0.1342931688 0.5637148619 4283977544
-0.2918268144 -0.1334874779 0.5629584193 4283453259
-0.2914342880 -0.1326832771 0.5622012019 4283584845
-0.2923929393 -0.1324930191 0.5640504956 4283781456
-0.2924504578 -0.1318922639 0.5641614795 4283649870
-0.2925077379 -0.1312911510 0.5642719865 4284043086
-0.2925647795 -0.1306896806 0.5643820167 4283911500
-0.2930724621 -0.1302883178 0.5653613806 4284107851
-0.2931291163 -0.1296852231 0.5654706359 4283713093
-0.2931855321 -0.1290817708 0.5655794740 4283252543
-0.2932416797 -0.1284779906 0.5656878352 4283647301
-0.2932976186 -0.1278738528 0.5657957196 4283450697
-0.2933532894 -0.1272693723 0.5659031272 4284437592
-0.2929573357 -0.1264696717 0.5651392937 4283978072
-0.2934639454 -0.1260593683 0.5661165714 4284043865
-0.2935189009 -0.1254538596 0.5662225485 4284373084
-0.2935735881 -0.1248480156 0.5663281083 4284241498
-0.2931763232 -0.1240506917 0.5655617118 4284832612
-0.2936822772 -0.1236353070 0.5665377378 4284569440
-0.2937362492 -0.1230284497 0.5666418672 4284767588
-0.2937899828 -0.1224212572 0.5667455196 4284833381
-0.2938434482 -0.1218137369 0.5668486953 4285031525
-0.2938967049 -0.1212058812 0.5669513941 4285228904
-0.2939496934 -0.1205976978 0.5670536160 4284833885
-0.2935501039 -0.1198045835 0.5662828088 4284768092
-0.2936025262 -0.1191966832 0.5663838983 4284768091
-0.2936546803 -0.1185884550 0.5664845109 4285360228
-0.2941591442 -0.1181616858 0.5674576759 4285557865
-0.2946635187 -0.1177327260 0.5684306622 4284110419
-0.2951678038 -0.1173015609 0.5694034696 4283649870
-0.2952192128 -0.1166892350 0.5695026517 4284373593
-0.2952703536 -0.1160765812 0.5696012974 4284899939
-0.2957741916 -0.1156407073 0.5705732703 4284636767
-0.2958249152 -0.1150264814 0.5706711411 4285163352
-0.2958754003 -0.1144119427 0.5707684755 4285360731
-0.2959256172 -0.1137970909 0.5708653331 4285030747
-0.2959755957 -0.1131819263 0.5709617138 4284570196
-0.2960253060 -0.1125664487 0.5710576177 4284436290
-0.2960747480 -0.1119506657 0.5711530447 4283317809
-0.2961239517 -0.1113345698 0.5712479353 4283908907
-0.2966264486 -0.1108877212 0.5722173452 4286080076
-0.2966752052 -0.1102700755 0.5723114014 4288644462
-0.2971774340 -0.1098197848 0.5732802153 4291144596
-0.2967719734 -0.1090338603 0.5724980235 4292261722
-0.2977276742 -0.1087468490 0.5743416548 4292590687
-0.2982294858 -0.1082909331 0.5753096938 4293443162
-0.2987311780 -0.1078328192 0.5762774944 4293772127
-0.2992327511 -0.1073725075 0.5772451162 4293970784
-0.2997342050 -0.1069100127 0.5782124400 4293904991
-0.3006897867 -0.1066063568 0.5800558329 4294035291
-0.3016453683 -0.1062986180 0.5818992257 4294232670
-0.3007835448 -0.1053502336 0.5802366734 4294297445
-0.3063769639 -0.1053393260 0.5910269022 4293448580
-0.3377187550 -0.1809255928 0.6528866291 4292665831
-0.3369035125 -0.1797651947 0.6513106227 4290034111
-0.3347485960 -0.1778963506 0.6471446753 4288190090
-0.3308067024 -0.1750909388 0.6395241022 4286940023
-0.3241835237 -0.1708890647 0.6267200112 4289889821
-0.3148772717 -0.1653070599 0.6087288857 4289955614
-0.3069067597 -0.1604634076 0.5933201313 4289955614
-0.3025070727 -0.1575133055 0.5848145485 4290218786
-0.2998929024 -0.1555079669 0.5797607303 4290613544
-0.2977243364 -0.1537439674 0.5755684376 4290810923
-0.2964488268 -0.1524485350 0.5731025338 4291140137
-0.2956196964 -0.1513871849 0.5714997053 4291534895
-0.2956846356 -0.1507853270 0.5716252327 4291798317
-0.2948544621 -0.1497286409 0.5700203180 4292061489
-0.2940236926 -0.1486752182 0.5684142113 4292522552
-0.2940875292 -0.1480758190 0.5685376525 4292851517
-0.2937034369 -0.1472515613 0.5677950978 4292982850
-0.2924232781 -0.1459816247 0.5653202534 4293377608
-0.2929339409 -0.1456073523 0.5663075447 4293574476
-0.2921005487 -0.1445656866 0.5646963716 4293640269
-0.2921627760 -0.1439689249 0.5648166537 4294296669
-0.2917765379 -0.1431518793 0.5640699863 4294362462
-0.2918381989 -0.1425552815 0.5641891956 4293969747
-0.2918996215 -0.1419582963 0.5643079281 4294101333
-0.2919608057 -0.1413609385 0.5644262433 4293510487
-0.2920824885 -0.1401650906 0.5646614432 4292919136
-0.2921429873 -0.1395666003 0.5647783875 4291537483
-0.2917543948 -0.1387542784 0.5640271306 4288446518
-0.2918142974 -0.1381559819 0.5641430020 4286209556
-0.2914249599 -0.1373456866 0.5633903146 4284566310
-0.2914843261 -0.1367475688 0.5635051131 4283316243
-0.2911530435 -0.1353413910 0.5628646612 4282528811
-0.2912116349 -0.1347431093 0.5629778504 4282595889
-0.2908204496 -0.1339374483 0.5622217059 4283253819
-0.2899793088 -0.1329271942 0.5605955124 4283519051
-0.2909362316 -0.1327409297 0.5624455214 4284571739
-0.2909937799 -0.1321421415 0.5625567436 4285361515
-0.2915009260 -0.1317463070 0.5635371804 4285229929
-0.2915580571 -0.1311458796 0.5636476278 4285032041
-0.2916149795 -0.1305451095 0.5637576580 4284768869
-0.2916716337 -0.1299439818 0.5638672113 4285229420
-0.2917280793 -0.1293424964 0.5639762878 4285887350
-0.2917842567 -0.1287406683 0.5640848875 4285623662
-0.2918401957 -0.1281384975 0.5641930699 4286084213
-0.2923463583 -0.1277327985 0.5651715994 4285294184
-0.2915008366 -0.1267372370 0.5635370016 4285623149
-0.2924572229 -0.1265248656 0.5653859377 4285687911
-0.2925122976 -0.1259203851 0.5654923916 4285622118
-0.2925671041 -0.1253155619 0.5655983686 4285620829
-0.2917199433 -0.1243260875 0.5639605522 4285226071
-0.2922250628 -0.1239136830 0.5649371147 4285029723
-0.2922790647 -0.1233087778 0.5650414824 4284700758
-0.2923328280 -0.1227035448 0.5651454329 4284767321
-0.2923863530 -0.1220979765 0.5652489066 4284898907
-0.2924396098 -0.1214920729 0.5653519034 4283912782
-0.2924926579 -0.1208858415 0.5654543638 4283254852
-0.2920939624 -0.1200936660 0.5646836758 4283254850
-0.2925979495 -0.1196723953 0.5656579733 4282925885
-0.2926502526 -0.1190651804 0.5657590628 4282925887
-0.2931539714 -0.1186404526 0.5667328835 4283320645
-0.2932058573 -0.1180316508 0.5668331981 4284110169
-0.2937093377 -0.1176034585 0.5678065419 4283386446
-0.2942127287 -0.1171730608 0.5687797070 4282597449
-0.2942640185 -0.1165614203 0.5688788295 4282202691
-0.2938629389 -0.1157713532 0.5681034923 4281939778
-0.2943658233 -0.1153371781 0.5690756440 4281676606
-0.2944163382 -0.1147245839 0.5691733360 4282004786
-0.2944666147 -0.1141116768 0.5692705512 4282399544
-0.2949690521 -0.1136728004 0.5702418089 4283320368
-0.2950189114 -0.1130583212 0.5703381896 4283846712
-0.2946159244 -0.1122710779 0.5695591569 4286081068
-0.2951178253 -0.1118284389 0.5705294609 4288186444
-0.2951669097 -0.1112130284 0.5706243515 4290092624
-0.2956685424 -0.1107669473 0.5715940595 4291276898
-0.2957171798 -0.1101499870 0.5716881156 4291999077
-0.2953126431 -0.1093649864 0.5709061027 4292262249
-0.2958137095 -0.1089151576 0.5718747377 4292852306
-0.2972208261 -0.1087948233 0.5745950341 4293247064
-0.2972686887 -0.1081738174 0.5746875405 4294298199
-0.2982227206 -0.1078804210 0.5765318871 4294429785
-0.2978168726 -0.1070939153 0.5757473111 4294628465
-0.2987707555 -0.1067951769 0.5775914192 4294694258
-0.2997246683 -0.1064923555 0.5794355273 4294691679
-0.3006785810 -0.1061854437 0.5812796354 4294494300
-0.3016325235 -0.1058744416 0.5831238627 4294296418
-0.3030401468 -0.1057175994 0.5858450532 4294493797
-0.3039941788 -0.1053974628 0.5876894593 4292264043
-0.3362468481 -0.1805246621 0.6514398456 4292994285
-0.3349874020 -0.1791274101 0.6489998698 4290559944
-0.3328359723 -0.1772605330 0.6448317170 4288650389
-0.3284549415 -0.1742202789 0.6363439560 4287137150
-0.3133732677 -0.1655460447 0.6071249247 4289824288
-0.3219154179 -0.1693656594 0.6236743927 4289429530
-0.3063789308 -0.1605321318 0.5935742259 4289889566
-0.3019868731 -0.1575807929 0.5850651264 4289889566
-0.2993772626 -0.1555746347 0.5800092816 4290415391
-0.2976587713 -0.1540408581 0.5766798854 4290546977
-0.2959392071 -0.1525139511 0.5733484626 4290612762
-0.2946651280 -0.1512230486 0.5708800554 4291007520
-0.2942833304 -0.1503936499 0.5701404214 4291468324
-0.2934544683 -0.1493383646 0.5685345531 4291863082
-0.2926249802 -0.1482863426 0.5669274926 4292192047
-0.2926885784 -0.1476885378 0.5670506954 4292521012
-0.2919209898 -0.1460444480 0.5655635595 4292982593
-0.2915365398 -0.1452245712 0.5648187995 4293114438
-0.2911517024 -0.1444061399 0.5640732050 4293377610
-0.2912755907 -0.1432135999 0.5643132329 4293836881
-0.2913371921 -0.1426167637 0.5644325614 4293837651
-0.2909509242 -0.1418013871 0.5636842251 4293903444
-0.2910119891 -0.1412047148 0.5638024807 4293706324
-0.2910727859 -0.1406076699 0.5639203191 4293772117
-0.2911333740 -0.1400102377 0.5640376806 4293707353
-0.2911936939 -0.1394124478 0.5641545653 4293707353
-0.2908057272 -0.1386007220 0.5634029508 4292984410
-0.2908655107 -0.1380031109 0.5635187626 4292721238
-0.2904767990 -0.1371934116 0.5627656579 4291603290
-0.2905360162 -0.1365959793 0.5628803968 4289826879
-0.2905950248 -0.1359981894 0.5629947186 4287656500
-0.2902052402 -0.1351910830 0.5622395277 4286472226
-0.2907122970 -0.1348015070 0.5632219315 4285814822
-0.2903218567 -0.1339955330 0.5624654889 4285420064
-0.2899309993 -0.1331910342 0.5617082715 4284107825
-0.2895397544 -0.1323880404 0.5609502196 4284173618
-0.2900460362 -0.1319951862 0.5619311333 4284436288
-0.2901031971 -0.1313967258 0.5620418191 4283975737
-0.2901601195 -0.1307979226 0.5621521473 4283252029
-0.2902168036 -0.1301987618 0.5622619390 4283383615
-0.2902732491 -0.1295992434 0.5623713136 4283187779
-0.2903294563 -0.1289993823 0.5624802113 4282924607
-0.2903854251 -0.1283991784 0.5625886321 4282267958
-0.2904411554 -0.1277986169 0.5626965761 4282596923
-0.2909463346 -0.1273946166 0.5636752844 4282465849
-0.2910016477 -0.1267924458 0.5637825131 4282268470
-0.2906068861 -0.1259948909 0.5630176663 4281874226
-0.2911115885 -0.1255870759 0.5639954805 4281611054
-0.2911662161 -0.1249838695 0.5641012788 4281808693
-0.2907704711 -0.1241880953 0.5633345842 4282006072
-0.2912746966 -0.1237764582 0.5643115044 4282661692
-0.2913285792 -0.1231722459 0.5644158721 4282398520
-0.2918325663 -0.1227571443 0.5653923154 4282399544
-0.2914355993 -0.1219628230 0.5646231771 4282662716
-0.2914887369 -0.1213576123 0.5647261739 4282400571
-0.2915416360 -0.1207520738 0.5648286343 4282268985
-0.2915942967 -0.1201462001 0.5649306774 4282007101
-0.2916466892 -0.1195400059 0.5650321841 4282007101
-0.2916988730 -0.1189334840 0.5651332736 4282467138
-0.2917507887 -0.1183266342 0.5652338266 4282138173
-0.2922534645 -0.1179014072 0.5662077069 4282267955
-0.2923049629 -0.1172929779 0.5663074851 4282070576
-0.2928073704 -0.1168642938 0.5672808886 4282726437
-0.2928584516 -0.1162542775 0.5673798323 4283121195
-0.2929092944 -0.1156439483 0.5674782991 4283975716
-0.2934112549 -0.1152105480 0.5684508681 4284896818
-0.2934616804 -0.1145986393 0.5685485005 4286410822
-0.2935118377 -0.1139864251 0.5686456561 4287529303
-0.2935617268 -0.1133738905 0.5687423348 4289303643
-0.2940630913 -0.1129345223 0.5697137117 4290553710
-0.2941125631 -0.1123204231 0.5698095560 4291933288
-0.2941617966 -0.1117060184 0.5699049234 4292262253
-0.2937588394 -0.1109206602 0.5691242218 4292787552
-0.2942594886 -0.1104762852 0.5700941682 4292984931
-0.2947600186 -0.1100297123 0.5710639358 4293510750
-0.2943561375 -0.1092453301 0.5702814460 4293576543
-0.2957607806 -0.1091299951 0.5730028152 4294036065
-0.2967133224 -0.1088427603 0.5748481750 4294299237
-0.2967611253 -0.1082214937 0.5749408007 4294365032
-0.2968086600 -0.1075999290 0.5750329494 4294365032
-0.2982135415 -0.1074673012 0.5777546763 4294365034
-0.2987133563 -0.1070044190 0.5787230730 4294365034
-0.2987604141 -0.1063781753 0.5788142085 4294232929
-0.2997126877 -0.1060720906 0.5806591511 4294035550
-0.3011177778 -0.1059211865 0.5833813548 4293904992
-0.3020701408 -0.1056059673 0.5852264762 4293839199
-0.3034754992 -0.1054440290 0.5879491568 4292721498
-0.3048809767 -0.1052760929 0.5906720757 4293905772
-0.3067396879 -0.1052576378 0.5942731500 4294045413
-0.3343326747 -0.1798840612 0.6491281986 4292928490
-0.3330751657 -0.1784889549 0.6466866732 4290625735
-0.3304823935 -0.1763866246 0.6416526437 4289374110
-0.3265534937 -0.1735852212 0.6340244412 4287926664
-0.3195075393 -0.1691505760 0.6203442812 4290087206
-0.3115679324 -0.1642751545 0.6049290299 4289626655
-0.3062956631 -0.1608345807 0.5946925282 4289626396
-0.3023566306 -0.1581139565 0.5870446563 4289626396
-0.2997517586 -0.1561051458 0.5819871426 4290020637
-0.2975909710 -0.1543378830 0.5777918696 4290283809
-0.2958745658 -0.1528094411 0.5744593143 4290283545
-0.2950485051 -0.1517463326 0.5728554726 4290415131
-0.2942218482 -0.1506864727 0.5712504387 4290810141
-0.2938404381 -0.1498572528 0.5705099702 4291139106
-0.2930126190 -0.1488029808 0.5689026713 4291533862
-0.2926302850 -0.1479775459 0.5681603551 4291797034
-0.2922475040 -0.1471535414 0.5674171448 4292060719
-0.2918643057 -0.1463309824 0.5666731596 4292389684
-0.2914806902 -0.1455098540 0.5659283400 4292653625
-0.2910966575 -0.1446901858 0.5651826859 4292916797
-0.2907121778 -0.1438719630 0.5644362569 4293244231
-0.2907739580 -0.1432752758 0.5645561814 4293507403
-0.2908355296 -0.1426782012 0.5646756887 4293770834
-0.2904499769 -0.1418624967 0.5639271736 4293902420
-0.2905109823 -0.1412656009 0.5640455484 4293706065
-0.2905717194 -0.1406683177 0.5641635060 4293706065
-0.2901851237 -0.1398551613 0.5634129047 4293706835
-0.2902453244 -0.1392580569 0.5635297894 4293772628
-0.2898579836 -0.1384469271 0.5627777576 4293510485
-0.2899176180 -0.1378500015 0.5628935695 4293313106
-0.2899770439 -0.1372527033 0.5630089045 4293116246
-0.2895886302 -0.1364441514 0.5622547865 4293182039
-0.2896474600 -0.1358470470 0.5623690486 4293116507
-0.2892583311 -0.1350405365 0.5616134405 4292853335
-0.2897644639 -0.1346517503 0.5625962019 4291866188
-0.2893746495 -0.1338463724 0.5618393421 4290681914
-0.2889844477 -0.1330424696 0.5610817075 4288319046
-0.2890419364 -0.1324454099 0.5611933470 4287266358
-0.2890991867 -0.1318480074 0.5613045096 4286081330
-0.2891562283 -0.1312502325 0.5614152551 4284897056
-0.2896614075 -0.1308546811 0.5623960495 4283909672
-0.2897180319 -0.1302552819 0.5625060201 4283646500
-0.2897744179 -0.1296555251 0.5626155138 4283252014
-0.2898305953 -0.1290554255 0.5627245307 4282857256
-0.2898865044 -0.1284549832 0.5628331304 4282857776
-0.2899421751 -0.1278541833 0.5629412532 4282923569
-0.2899976373 -0.1272530407 0.5630488992 4282858033
-0.2900528312 -0.1266515553 0.5631560683 4282792240
-0.2896586955 -0.1258546114 0.5623908639 4282529838
-0.2901625037 -0.1254475713 0.5633689761 4282529838
-0.2902169824 -0.1248450577 0.5634747744 4282595889
-0.2898218930 -0.1240498871 0.5627076626 4282595889
-0.2903251946 -0.1236390248 0.5636848807 4282989342
-0.2908284664 -0.1232259646 0.5646619797 4282923549
-0.2908820510 -0.1226211712 0.5647660494 4282923298
-0.2909353971 -0.1220160499 0.5648696423 4283054884
-0.2909885049 -0.1214105934 0.5649726987 4283055405
-0.2910413444 -0.1208048090 0.5650753379 4283384370
-0.2910939455 -0.1201986969 0.5651775002 4283713083
-0.2911463380 -0.1195922494 0.5652791262 4283976255
-0.2911984324 -0.1189854816 0.5653803349 4284501568
-0.2912503183 -0.1183783859 0.5654810667 4285093705
-0.2913019359 -0.1177709624 0.5655812621 4286473802
-0.2918036282 -0.1173443124 0.5665553212 4287658076
-0.2918548286 -0.1167353094 0.5666547418 4289104726
-0.2919057906 -0.1161259860 0.5667536855 4289894242
-0.2919565141 -0.1155163497 0.5668521523 4290815066
-0.2924575806 -0.1150837168 0.5678250790 4291538789
-0.2925078869 -0.1144725010 0.5679227114 4292524394
-0.2925579250 -0.1138609722 0.5680198669 4292787566
