VERSION 0.7
FIELDS x y z rgba
SIZE 4 4 4 4
TYPE F F F U
COUNT 1 1 1 1
WIDTH 920
HEIGHT 1
VIEWPOINT 0.0 0.0 0.0 1.0 0.0 0.0 0.0
POINTS 920
DATA ascii
-0.3144959211 -0.1402143687 0.5406600237 4289863448
-0.3145602643 -0.1396422237 0.5407706499 4289863448
-0.3146243691 -0.1390697211 0.5408808589 4289863448
-0.3146882653 -0.1384968758 0.5409907103 4290060827
-0.3147518933 -0.1379236877 0.5411000848 4289996314
-0.3148152828 -0.1373501420 0.5412091017 4290062107
-0.3143872321 -0.1365628839 0.5404731631 4290127390
-0.3144500554 -0.1359895468 0.5405811667 4291509043
-0.3145126402 -0.1354158670 0.5406887531 4291123542
-0.3145749867 -0.1348418444 0.5407959223 4291781472
-0.3146370947 -0.1342674941 0.5409027338 4291715945
-0.3146989346 -0.1336927861 0.5410090685 4291058015
-0.3147605658 -0.1331177503 0.5411149859 4290663510
-0.3153138459 -0.1327494681 0.5420661569 4290992475
-0.3148830831 -0.1319666654 0.5413256288 4290535772
-0.3154360950 -0.1315959096 0.5422763228 4291127909
-0.3159890175 -0.1312230229 0.5432268977 4292177773
-0.3160496354 -0.1306445152 0.5433310866 4292572531
-0.3166023493 -0.1302682608 0.5442813039 4293231993
-0.3171550333 -0.1298898757 0.5452314019 4294021509
-0.3177076578 -0.1295093596 0.5461814404 4294941840
-0.3172748983 -0.1287269145 0.5454374552 4294546568
-0.3183199465 -0.1285429150 0.5472340584 4293754223
-0.3183794618 -0.1279588044 0.5473363400 4291714640
-0.3189316392 -0.1275715530 0.5482856035 4291118647
-0.3199767768 -0.1273784190 0.5500823855 4290658096
-0.3205289245 -0.1269859821 0.5510315299 4290262305
-0.3210809827 -0.1265914142 0.5519806147 4289735961
-0.3216329813 -0.1261947006 0.5529295802 4289011980
-0.3221848905 -0.1257958561 0.5538784266 4289275152
-0.3227367401 -0.1253948659 0.5548270941 4290128151
-0.3232885301 -0.1249917448 0.5557757020 4290325530
-0.3238402009 -0.1245864779 0.5567241311 4290784286
-0.3243918121 -0.1241790801 0.5576723814 4290586907
-0.3244495094 -0.1235814467 0.5577715635 4290061848
-0.3245069385 -0.1229834855 0.5578703284 4289732883
-0.3240701258 -0.1221989319 0.5571193695 4289601297
-0.3236328661 -0.1214158908 0.5563676357 4289535504
-0.3231951594 -0.1206343547 0.5556151867 4289928460
-0.3227570355 -0.1198543310 0.5548620224 4290060046
-0.3218241334 -0.1188931912 0.5532581806 4290257176
-0.3213850558 -0.1181171089 0.5525034070 4290454555
-0.3209455609 -0.1173425540 0.5517478585 4290587422
-0.3205056489 -0.1165695190 0.5509915352 4290784801
-0.3200652897 -0.1157980114 0.5502344966 4291507233
-0.3201192915 -0.1152060926 0.5503273606 4293020472
-0.3196781874 -0.1144367307 0.5495690107 4294279287
-0.3202265203 -0.1140213683 0.5505116582 4294944156
-0.3202797472 -0.1134285554 0.5506031513 4294952651
-0.3203327060 -0.1128354520 0.5506942272 4294953422
-0.3203853965 -0.1122420579 0.5507848263 4294953940
-0.3204378486 -0.1116483659 0.5508749485 4294886862
-0.3209853768 -0.1112260297 0.5518162251 4294946991
-0.3210373521 -0.1106308401 0.5519056320 4291986049
-0.3210890889 -0.1100353673 0.5519945621 4290923084
-0.3211405575 -0.1094395965 0.5520830750 4289738810
-0.3211917877 -0.1088435501 0.5521711111 4290854200
-0.3212427199 -0.1082472131 0.5522586703 4293156955
-0.3217892349 -0.1078167260 0.5531982183 4294670187
-0.3223356307 -0.1073841080 0.5541375279 4294209636
-0.3228819072 -0.1069493741 0.5550766587 4293287506
-0.3229320347 -0.1063491479 0.5551628470 4292234818
-0.3234780133 -0.1059110835 0.5561014414 4291772725
-0.3240238726 -0.1054708958 0.5570398569 4291772725
-0.3245696425 -0.1050285921 0.5579780936 4291837489
-0.3251152635 -0.1045841575 0.5589160919 4291574317
-0.3266536593 -0.1044550985 0.5615608096 4290655782
-0.3271991909 -0.1040045694 0.5624986291 4290195231
-0.3259553015 -0.1774147749 0.5614322424 4285015592
-0.3270037472 -0.1773596257 0.5632380843 4286199088
-0.3280524313 -0.1773006022 0.5650443435 4286922811
-0.3276472986 -0.1764546186 0.5643465519 4286854961
-0.3282113075 -0.1761302650 0.5653180480 4286525996
-0.3282904327 -0.1755444556 0.5654543042 4287050800
-0.3273992240 -0.1744413674 0.5639193058 4287116593
-0.3279628158 -0.1741140038 0.5648899674 4287574321
-0.3270705938 -0.1730144024 0.5633532405 4287508528
-0.3261776865 -0.1719178557 0.5618152618 4287442735
-0.3247985840 -0.1705694050 0.5594398379 4287311149
-0.3239041865 -0.1694798321 0.5578993559 4287245097
-0.3215519190 -0.1676336676 0.5538477302 4287179304
-0.3225991726 -0.1675622612 0.5556515455 4287309858
-0.3207309246 -0.1659780890 0.5524336696 4287244065
-0.3198336959 -0.1649016887 0.5508882403 4287505695
-0.3189357817 -0.1638283730 0.5493416190 4287505695
-0.3185234666 -0.1630070210 0.5486314893 4287833117
-0.3181107342 -0.1621870100 0.5479205847 4287833117
-0.3172110021 -0.1611212343 0.5463708639 4288094234
-0.3172838688 -0.1605510563 0.5464963913 4288028441
-0.3163830340 -0.1594897509 0.5449447632 4288290326
-0.3159683943 -0.1586760432 0.5442305803 4288224533
-0.3155532777 -0.1578636914 0.5435155630 4288747538
-0.3151377439 -0.1570527107 0.5427998304 4288747538
-0.3147217333 -0.1562431008 0.5420833230 4288747025
-0.3143053055 -0.1554348618 0.5413660407 4288615439
-0.3143758178 -0.1548681110 0.5414875150 4288615439
-0.3139586151 -0.1540617496 0.5407688618 4288615439
-0.3140285611 -0.1534951180 0.5408893824 4288549644
-0.3136105835 -0.1526906341 0.5401694179 4288615437
-0.3131921291 -0.1518875360 0.5394486785 4288681230
-0.3132611811 -0.1513215303 0.5395676494 4288878609
-0.3133300245 -0.1507551521 0.5396862030 4289009681
-0.3133986294 -0.1501884013 0.5398043394 4288878095
-0.3134670258 -0.1496212780 0.5399221182 4288943886
-0.3130467832 -0.1488216072 0.5391983390 4289009679
-0.3131146133 -0.1482546329 0.5393151045 4289141265
-0.3131821752 -0.1476872861 0.5394315124 4289272851
-0.3127608597 -0.1468900591 0.5387058258 4289207060
-0.3128278553 -0.1463228613 0.5388212800 4289075474
-0.3128946424 -0.1457553059 0.5389363170 4289140241
-0.3129612207 -0.1451873779 0.5390509367 4289140241
-0.3130275309 -0.1446190923 0.5391651392 4289074448
-0.3130936325 -0.1440504491 0.5392789841 4289008655
-0.3131594956 -0.1434814483 0.5393924713 4288943375
-0.3137145340 -0.1431353986 0.5403484702 4289009168
-0.3137800097 -0.1425647885 0.5404612422 4289140241
-0.3138452768 -0.1419938207 0.5405736566 4289403413
-0.3139103055 -0.1414224952 0.5406856537 4289600276
-0.3139750957 -0.1408508271 0.5407972932 4289600276
-0.3140396476 -0.1402787864 0.5409084558 4289797655
-0.3141039610 -0.1397064179 0.5410192609 4289731862
-0.3141680360 -0.1391336769 0.5411295891 4289600792
-0.3142319024 -0.1385605931 0.5412395597 4289863964
-0.3138051927 -0.1377719045 0.5405045748 4290322197
-0.3138684332 -0.1371990144 0.5406135917 4290716955
-0.3139314651 -0.1366257817 0.5407221317 4290522405
-0.3139942586 -0.1360522062 0.5408302546 4291509300
-0.3140568137 -0.1354782879 0.5409380198 4290796887
-0.3141191304 -0.1349040419 0.5410453677 4291257438
-0.3141812086 -0.1343294382 0.5411522388 4291260016
-0.3142430484 -0.1337544918 0.5412587523 4291325809
-0.3143046200 -0.1331792176 0.5413648486 4291126116
-0.3138747811 -0.1323964000 0.5406244993 4290928737
-0.3149183691 -0.1322339326 0.5424219966 4291124831
-0.3149793446 -0.1316567510 0.5425269604 4290993245
-0.3150400519 -0.1310792267 0.5426315665 4290532176
-0.3155921102 -0.1307049543 0.5435824394 4290269004
-0.3161440790 -0.1303285509 0.5445331931 4290534476
-0.3171877861 -0.1301517934 0.5463308692 4291192406
-0.3167560399 -0.1293684542 0.5455872416 4293032818
-0.3173077703 -0.1289865375 0.5465375185 4293756541
-0.3178594112 -0.1286024898 0.5474876761 4294213493
-0.3184110224 -0.1282163113 0.5484377742 4293095012
-0.3179780841 -0.1274334639 0.5476921201 4292697936
-0.3190217018 -0.1272411644 0.5494896173 4291908420
-0.3195729852 -0.1268494725 0.5504391789 4291118127
-0.3201242387 -0.1264556497 0.5513886809 4290328611
-0.3206754029 -0.1260596812 0.5523380041 4289866260
-0.3212264776 -0.1256615818 0.5532872081 4289668881
-0.3217774928 -0.1252613366 0.5542362928 4290128403
-0.3218355775 -0.1246680394 0.5543363094 4290062610
-0.3228792846 -0.1244544312 0.5561340451 4290522397
-0.3224439919 -0.1236695796 0.5553842783 4290193432
-0.3234876394 -0.1234507859 0.5571818948 4289994774
-0.3235449791 -0.1228534803 0.5572806001 4289797395
-0.3236020207 -0.1222558618 0.5573788881 4289601297
-0.3226720691 -0.1212870181 0.5557771325 4289535504
-0.3222349584 -0.1205060482 0.5550242662 4289862921
-0.3217974603 -0.1197265908 0.5542706251 4289994507
-0.3213594854 -0.1189486533 0.5535163283 4289995283
-0.3204273880 -0.1179904267 0.5519108176 4290258455
-0.3199884892 -0.1172164455 0.5511548519 4290259995
-0.3195491731 -0.1164439768 0.5503981709 4290457374
-0.3196033835 -0.1158521026 0.5504915714 4291376674
-0.3191632926 -0.1150817871 0.5497335196 4293416257
-0.3192169368 -0.1144902259 0.5498259068 4294872455
-0.3197645247 -0.1140746847 0.5507690907 4294945187
-0.3198177218 -0.1134816185 0.5508607030 4294952397
-0.3198706508 -0.1128882542 0.5509518981 4294952140
-0.3199233413 -0.1122945920 0.5510426164 4294951373
-0.3199757636 -0.1117006466 0.5511329174 4294950859
-0.3200278878 -0.1111064032 0.5512227416 4294879399
-0.3205744922 -0.1106826738 0.5521641970 4292247679
-0.3206262290 -0.1100869328 0.5522533059 4291382864
-0.3206776679 -0.1094909087 0.5523418784 4290132797
-0.3212237954 -0.1090626419 0.5532825589 4290723384
-0.3212747872 -0.1084651276 0.5533704162 4292236623
-0.3213255405 -0.1078673229 0.5534577966 4294143843
-0.3218711913 -0.1074345186 0.5543976426 4294275429
-0.3224167228 -0.1069995910 0.5553373098 4293220430
-0.3224668205 -0.1063991040 0.5554236174 4292036156
-0.3230120838 -0.1059608459 0.5563627481 4291444273
-0.3235571980 -0.1055204719 0.5573017001 4291378480
-0.3241022229 -0.1050779670 0.5582404137 4291443499
-0.3246470988 -0.1046333462 0.5591789484 4291180327
-0.3251918852 -0.1041865945 0.5601173043 4290786081
-0.3257365525 -0.1037377194 0.5610554218 4290062358
-0.3267769516 -0.1034436971 0.5628474355 4288892497
-0.3278173804 -0.1031456962 0.5646394491 4292840335
-0.3254776895 -0.1774943620 0.5616840720 4285212201
-0.3280557394 -0.1776422411 0.5661330819 4287316286
-0.3281353712 -0.1770561934 0.5662705302 4286591789
-0.3282147646 -0.1764697134 0.5664075613 4286394410
-0.3278097510 -0.1756234020 0.5657085776 4286788653
-0.3274042606 -0.1747784019 0.5650088191 4286722860
-0.3265138865 -0.1736770272 0.5634722710 4287376942
-0.3256227970 -0.1725786924 0.5619345307 4287442735
-0.3242463470 -0.1712274849 0.5595591664 4287376942
-0.3262625337 -0.1716665924 0.5630384684 4287245356
-0.3248850703 -0.1703189015 0.5606613755 4287179304
-0.3210815787 -0.1677093059 0.5540976524 4287047718
-0.3221273720 -0.1676379144 0.5559024215 4287112479
-0.3202619553 -0.1660530418 0.5526831746 4287112479
-0.3193660676 -0.1649761945 0.5511371493 4287308829
-0.3184695542 -0.1639024317 0.5495899916 4287308829
-0.3180579245 -0.1630807370 0.5488796234 4287702045
-0.3176458478 -0.1622603983 0.5481684804 4287702045
-0.3167474866 -0.1611941755 0.5466182232 4287963161
-0.3168203235 -0.1606237739 0.5467438698 4287963161
-0.3164069057 -0.1598074883 0.5460304618 4288290584
-0.3159930408 -0.1589925736 0.5453162193 4288224791
-0.3155786991 -0.1581790149 0.5446012020 4288616981
-0.3151639402 -0.1573668271 0.5438854098 4288682774
-0.3147487342 -0.1565559953 0.5431689024 4288550673
-0.3143330812 -0.1557465494 0.5424515605 4288419087
-0.3139169812 -0.1549384743 0.5417335033 4288615952
-0.3139872253 -0.1543711126 0.5418547392 4288550159
-0.3135703504 -0.1535649151 0.5411353111 4288484366
-0.3136400580 -0.1529976726 0.5412555933 4288484366
-0.3132223785 -0.1521933526 0.5405348539 4288615437
-0.3128730953 -0.1508238316 0.5399320126 4288943375
-0.3129416406 -0.1502568424 0.5400503874 4288943375
-0.3130099773 -0.1496894956 0.5401682854 4289140754
-0.3125904500 -0.1488894969 0.5394442677 4289074961
-0.3121704459 -0.1480908990 0.5387194753 4289009168
-0.3122378886 -0.1475242078 0.5388358831 4289272340
-0.3118171394 -0.1467275172 0.5381097794 4288944402
-0.3118840158 -0.1461609900 0.5382251740 4288878609
-0.3119506538 -0.1455940902 0.5383402109 4289074961
-0.3120170832 -0.1450268179 0.5384547710 4289009168
-0.3120832443 -0.1444591880 0.5385690331 4288943375
-0.3121491969 -0.1438912004 0.5386828184 4288811789
-0.3127035201 -0.1435471475 0.5396394134 4288746509
-0.3132578135 -0.1432009637 0.5405960083 4288746509
-0.3133232892 -0.1426301152 0.5407089591 4288878095
-0.3133884966 -0.1420589238 0.5408214927 4289207060
-0.3134534955 -0.1414873600 0.5409336686 4289469460
-0.3135182559 -0.1409154534 0.5410454273 4289403667
-0.3135827780 -0.1403431892 0.5411567688 4289600276
-0.3136470616 -0.1397705674 0.5412676930 4289468690
-0.3132216930 -0.1389804482 0.5405336618 4289338133
-0.3132854104 -0.1384080201 0.5406435728 4289667098
-0.3133488595 -0.1378352493 0.5407531261 4290651423
-0.3129223883 -0.1370476484 0.5400171280 4291111974
-0.3129853010 -0.1364750862 0.5401256680 4291115825
-0.3130479455 -0.1359021664 0.5402337909 4292563271
-0.3131103814 -0.1353289038 0.5403415561 4293821309
-0.3131725490 -0.1347552985 0.5404488444 4294940304
-0.3132345080 -0.1341813654 0.5405557156 4294420131
-0.3134188950 -0.1324574947 0.5408739448 4293891987
-0.3134798706 -0.1318822056 0.5409791470 4293692041
-0.3140312731 -0.1315120608 0.5419307351 4292705146
-0.3140918612 -0.1309351921 0.5420353413 4291717738
-0.3146430552 -0.1305616796 0.5429865718 4290336085
-0.3151942194 -0.1301860213 0.5439376831 4289744453
-0.3157453239 -0.1298082322 0.5448887348 4290468176
-0.3158051968 -0.1292273402 0.5449920893 4291254867
-0.3158648610 -0.1286461055 0.5450950265 4291978590
-0.3164155781 -0.1282637119 0.5460454226 4292437082
-0.3169662654 -0.1278791726 0.5469956994 4292371289
-0.3175168633 -0.1274925023 0.5479459167 4293027671
-0.3175757825 -0.1269072443 0.5480476022 4292764499
-0.3181261718 -0.1265172064 0.5489974022 4292170815
-0.3181846738 -0.1259303987 0.5490983725 4291381299
-0.3187348247 -0.1255369931 0.5500478148 4290985252
-0.3197768629 -0.1253342628 0.5518460870 4290261529
-0.3203269541 -0.1249356791 0.5527953506 4289997844
-0.3208769858 -0.1245349497 0.5537445545 4289668879
-0.3209346831 -0.1239419878 0.5538440943 4290390810
-0.3219767809 -0.1237270758 0.5556424856 4290061845
-0.3225265443 -0.1233199239 0.5565912724 4289863188
-0.3225837648 -0.1227232739 0.5566899776 4289928981
-0.3226406872 -0.1221263111 0.5567882657 4289732111
-0.3222047091 -0.1213434860 0.5560358763 4289666318
-0.3212755620 -0.1203775406 0.5544323921 4289928452
-0.3208386302 -0.1195986569 0.5536783934 4289994245
-0.3204012811 -0.1188212857 0.5529236197 4289798927
-0.3199634850 -0.1180454344 0.5521681309 4290127892
-0.3195252717 -0.1172711104 0.5514118671 4290063385
-0.3190866411 -0.1164983064 0.5506549478 4290129178
-0.3186475933 -0.1157270297 0.5498972535 4291048992
-0.3187014461 -0.1151355132 0.5499901772 4292628024
-0.3187550604 -0.1145436913 0.5500826836 4293753976
-0.3188084066 -0.1139515787 0.5501747131 4294941077
-0.3193550706 -0.1135346442 0.5511181355 4294947519
-0.3194079697 -0.1129410267 0.5512094498 4294355125
-0.3194606304 -0.1123471037 0.5513002872 4294613412
-0.3195130229 -0.1117528975 0.5513907075 4294679205
-0.3195651472 -0.1111583933 0.5514806509 4293232260
-0.3201110065 -0.1107344851 0.5524227023 4291390056
-0.3201626837 -0.1101384833 0.5525118709 4291448398
-0.3202140927 -0.1095421910 0.5526006222 4291053640
-0.3207595050 -0.1091137454 0.5535417795 4291184448
-0.3208104670 -0.1085159630 0.5536297560 4291316034
-0.3213555813 -0.1080841795 0.5545704961 4293024851
-0.3214060962 -0.1074849069 0.5546576381 4293748574
-0.3219509125 -0.1070497930 0.5555978417 4293088332
-0.3220009804 -0.1064490303 0.5556842685 4291904058
-0.3225454688 -0.1060105860 0.5566238761 4291116335
-0.3230898678 -0.1055700183 0.5575633645 4290984749
-0.3236341476 -0.1051273271 0.5585026145 4291049766
-0.3241782784 -0.1046825051 0.5594416857 4290983973
-0.3247223198 -0.1042355597 0.5603805184 4291048222
-0.3252662420 -0.1037864909 0.5613191724 4290258706
-0.3263051808 -0.1034923419 0.5631121397 4288429377
-0.3273441494 -0.1031942144 0.5649051070 4293166473
-0.3278968930 -0.1791570336 0.5669456720 4285476655
-0.3270109892 -0.1780447811 0.5654138923 4286989381
-0.3285401464 -0.1782461852 0.5680578351 4286660416
-0.3281366825 -0.1773969233 0.5673602223 4286525483
-0.3282161653 -0.1768093556 0.5674976707 4286459690
-0.3282954097 -0.1762213707 0.5676347017 4286852908
-0.3278908432 -0.1753742844 0.5669351220 4286721322
-0.3274857700 -0.1745285094 0.5662348270 4287115049
-0.3265964389 -0.1734271348 0.5646970868 4287115049
-0.3228793442 -0.1702127606 0.5582701564 4286982950
-0.3219874799 -0.1691240221 0.5567280650 4287244066
-0.3206106126 -0.1677849144 0.5543473959 4287112480
-0.3197172880 -0.1667031944 0.5528028011 4287374111
-0.3188232481 -0.1656245440 0.5512569547 4287374111
-0.3179285526 -0.1645489931 0.5497099757 4287504927
-0.3170331717 -0.1634765267 0.5481618643 4287439134
-0.3175917268 -0.1631544232 0.5491276383 4287570974
-0.3181502819 -0.1628301740 0.5500934124 4287570974
-0.3167684376 -0.1615144163 0.5477041602 4287832606
-0.3163561523 -0.1606964469 0.5469912887 4287832606
-0.3159433901 -0.1598798335 0.5462775826 4288290845
-0.3155301809 -0.1590645760 0.5455631614 4288225052
-0.3151165545 -0.1582506746 0.5448479652 4288486422
-0.3147024512 -0.1574381590 0.5441319942 4288486422
-0.3147736788 -0.1568690836 0.5442551374 4288551445
-0.3138729334 -0.1558172107 0.5426976681 4288419859
-0.3139434755 -0.1552491188 0.5428196788 4288419089
-0.3135277033 -0.1544412076 0.5421007872 4288484882
-0.3131115139 -0.1536346823 0.5413811803 4288681232
-0.3131811619 -0.1530672014 0.5415015817 4288615439
-0.3127641678 -0.1522625536 0.5407806039 4288812048
-0.3123467565 -0.1514593065 0.5400588512 4288877841
-0.3124155104 -0.1508924663 0.5401777625 4288943634
-0.3124840558 -0.1503252536 0.5402962565 4289009427
-0.3125523329 -0.1497576833 0.5404143333 4288944404
-0.3121334612 -0.1489573419 0.5396900773 4288944404
-0.3117141426 -0.1481584013 0.5389651060 4288944917
-0.3117815554 -0.1475914866 0.5390816331 4288944917
-0.3113614619 -0.1467944682 0.5383552909 4289075990
-0.3114283085 -0.1462277025 0.5384708643 4288944404
-0.3114949167 -0.1456605792 0.5385860205 4289009427
-0.3115613163 -0.1450930834 0.5387008190 4289009427
-0.3116274476 -0.1445252150 0.5388152003 4288943634
-0.3116933703 -0.1439570040 0.5389291644 4288877841
-0.3117590547 -0.1433884203 0.5390427113 4288812048
-0.3123124838 -0.1430429965 0.5399996638 4288746255
-0.3123778105 -0.1424728036 0.5401125550 4288943888
-0.3129310906 -0.1421239823 0.5410692096 4289009681
-0.3129960597 -0.1415521950 0.5411815047 4289271827
-0.3130607605 -0.1409800500 0.5412934422 4289403413
-0.3131252527 -0.1404075474 0.5414049029 4289271827
-0.3131895065 -0.1398346871 0.5415160060 4289140241
-0.3127648234 -0.1390442252 0.5407817364 4289338133
-0.3128284812 -0.1384715736 0.5408918262 4289798684
-0.3124030232 -0.1376830935 0.5401561856 4290456604
-0.3124661446 -0.1371106356 0.5402653217 4291114534
-0.3125289977 -0.1365378201 0.5403739810 4290920247
-0.3125916123 -0.1359646618 0.5404822826 4292499279
-0.3121647239 -0.1351792812 0.5397441387 4294216843
-0.3122267723 -0.1346063465 0.5398514271 4294944164
-0.3122885823 -0.1340330541 0.5399582982 4294685874
-0.3123501539 -0.1334594339 0.5400647521 4294950074
-0.3124114871 -0.1328854710 0.5401707888 4294754749
-0.3129623532 -0.1325185597 0.5411232710 4294754749
-0.3125334382 -0.1317365319 0.5403816700 4294883251
-0.3130840063 -0.1313671470 0.5413336158 4294159528
-0.3136345148 -0.1309956163 0.5422855020 4293232517
-0.3136948347 -0.1304181814 0.5423897505 4291719278
-0.3142451346 -0.1300432831 0.5433412790 4291452508
-0.3147954047 -0.1296662390 0.5442926884 4291320922
-0.3148551583 -0.1290860027 0.5443960428 4291254091
-0.3149147034 -0.1285054237 0.5444989204 4291056712
-0.3154645860 -0.1281237751 0.5454497337 4291317566
-0.3160144091 -0.1277399957 0.5464003682 4291580738
-0.3160733879 -0.1271566302 0.5465023518 4292237124
-0.3166229725 -0.1267694831 0.5474526286 4292566089
-0.3166815341 -0.1261845529 0.5475538969 4292499528
-0.3172309101 -0.1257940382 0.5485037565 4291512633
-0.3177802265 -0.1254013777 0.5494535565 4291249978
-0.3183294833 -0.1250065714 0.5504032373 4291052599
-0.3188786507 -0.1246096343 0.5513527393 4290196263
-0.3194277287 -0.1242105588 0.5523021221 4289406747
-0.3189937174 -0.1234289780 0.5515516996 4290523685
-0.3210172951 -0.1235952675 0.5550505519 4289997341
-0.3215662241 -0.1231888607 0.5559996963 4289535501
-0.3216233253 -0.1225928664 0.5560984015 4289732880
-0.3216801584 -0.1219965518 0.5561966300 4290060046
-0.3212447762 -0.1212142929 0.5554438829 4289862667
-0.3208089471 -0.1204335541 0.5546903610 4289796877
-0.3203727305 -0.1196543202 0.5539360642 4289796877
-0.3199360669 -0.1188766062 0.5531810522 4290125331
-0.3194989562 -0.1181004196 0.5524253249 4290256917
-0.3190614283 -0.1173257455 0.5516688228 4290322967
-0.3186234832 -0.1165525988 0.5509116054 4290586139
-0.3181851208 -0.1157809868 0.5501536131 4290392102
-0.3182389438 -0.1151892096 0.5502467155 4291378997
-0.3177998066 -0.1144197360 0.5494874120 4291910228
-0.3178530335 -0.1138282865 0.5495794415 4293160295
-0.3183988929 -0.1134120896 0.5505232215 4293624446
-0.3189446628 -0.1129937693 0.5514668822 4293690239
-0.3189972639 -0.1123995930 0.5515578389 4291849575
-0.3190496266 -0.1118051186 0.5516483784 4290599508
-0.3191017210 -0.1112103537 0.5517385006 4291251530
-0.3196468353 -0.1107862666 0.5526810288 4291185737
-0.3196985126 -0.1101900041 0.5527703166 4290724673
-0.3197498918 -0.1095934510 0.5528591871 4291579982
-0.3202945590 -0.1091648191 0.5538008809 4292762968
-0.3203454912 -0.1085667685 0.5538889766 4292499796
-0.3208898604 -0.1081347987 0.5548301935 4292037956
-0.3209403455 -0.1075352654 0.5549175143 4292235335
-0.3214844167 -0.1070999578 0.5558582544 4291971131
-0.3215344548 -0.1064989343 0.5559447408 4291378994
-0.3220782280 -0.1060603037 0.5568849444 4291049513
-0.3226218820 -0.1056195423 0.5578249097 4290983720
-0.3231653869 -0.1051766574 0.5587646961 4291114533
-0.3237088025 -0.1047316417 0.5597043037 4291048740
-0.3242520988 -0.1042845026 0.5606436729 4291112988
-0.3247952759 -0.1038352326 0.5615828037 4290652437
-0.3253383338 -0.1033838466 0.5625217557 4289146146
-0.3268702626 -0.1032427102 0.5651705861 4293554277
-0.3274137378 -0.1792372465 0.5671994686 4285477425
-0.3274938464 -0.1786507517 0.5673382282 4287055687
-0.3280561566 -0.1783260554 0.5683124065 4286726722
-0.3276533782 -0.1774764508 0.5676146150 4286591789
-0.3277328014 -0.1768886745 0.5677522421 4286460203
-0.3282948136 -0.1765601039 0.5687258244 4286787115
-0.3278909922 -0.1757118106 0.5680263042 4286721322
-0.3270037174 -0.1746069193 0.5664891601 4286917672
-0.3261157572 -0.1735050827 0.5649508834 4286917672
-0.3247438371 -0.1721501052 0.5625742674 4287048229
-0.3233710229 -0.1707999408 0.5601959825 4286982436
-0.3224807382 -0.1697090119 0.5586537719 4287178019
-0.3215897977 -0.1686211526 0.5571103096 4287178019
-0.3206981719 -0.1675363779 0.5555657148 4287308576
-0.3198058605 -0.1664546728 0.5540198684 4287242783
-0.3189128935 -0.1653760374 0.5524729490 4287242525
-0.3180192411 -0.1643005162 0.5509247780 4287242525
-0.3166407347 -0.1629788578 0.5485367179 4287374111
-0.3162298799 -0.1621587276 0.5478249788 4287439904
-0.3158185780 -0.1613399386 0.5471124649 4287766813
-0.3154068291 -0.1605224907 0.5463991761 4287832606
-0.3149946332 -0.1597064286 0.5456851125 4288225568
-0.3145820200 -0.1588917077 0.5449702740 4288225568
-0.3141689301 -0.1580783576 0.5442546606 4288486936
-0.3137553930 -0.1572663784 0.5435382724 4288486936
-0.3138264716 -0.1566979438 0.5436614156 4288486422
-0.3134121597 -0.1558878273 0.5429436564 4288354836
-0.3129974008 -0.1550790817 0.5422251225 4288484882
-0.3125821948 -0.1542717218 0.5415058732 4288484882
-0.3121665418 -0.1534657329 0.5407858491 4288681234
-0.3127216697 -0.1531367004 0.5417474508 4288615441
-0.3123053610 -0.1523317248 0.5410262346 4288746257
-0.3118886054 -0.1515281349 0.5403043032 4288812050
-0.3119572997 -0.1509610713 0.5404233336 4288943634
-0.3120258152 -0.1503936350 0.5405420065 4289075220
-0.3116079569 -0.1495924443 0.5398181081 4289075990
-0.3116758764 -0.1490251571 0.5399357677 4289075990
-0.3112572432 -0.1482258886 0.5392105579 4289075990
-0.3113245964 -0.1476587355 0.5393272638 4289075990
-0.3109051883 -0.1468613893 0.5386006832 4288944663
-0.3109720051 -0.1462943852 0.5387164354 4288944663
-0.3110385537 -0.1457270235 0.5388317108 4288944406
-0.3111049235 -0.1451593041 0.5389466882 4288944406
-0.3111710250 -0.1445912123 0.5390611887 4288943634
-0.3112368882 -0.1440227628 0.5391753316 4288812048
-0.3113025427 -0.1434539557 0.5392890573 4288812048
-0.3113679588 -0.1428847760 0.5394023657 4288812048
-0.3119205236 -0.1425379664 0.5403596163 4288943634
-0.3119855821 -0.1419671923 0.5404723287 4288943634
-0.3125379682 -0.1416169852 0.5414292812 4289074963
-0.3126026690 -0.1410446167 0.5415413380 4289206549
-0.3126671016 -0.1404718757 0.5416529775 4289140243
-0.3127313256 -0.1398987770 0.5417641997 4289008657
-0.3123073280 -0.1391079873 0.5410296917 4289206549
-0.3123709559 -0.1385350823 0.5411399007 4289601307
-0.3119461834 -0.1377462745 0.5404040813 4290127898
-0.3120092452 -0.1371735781 0.5405133367 4290785828
-0.3120720685 -0.1366005242 0.5406221747 4290919475
-0.3116461933 -0.1358142644 0.5398843884 4292103749
-0.3117084503 -0.1352414191 0.5399922132 4293160556
-0.3117704690 -0.1346682310 0.5400996804 4294410623
-0.3118322492 -0.1340947151 0.5402066708 4294220182
-0.3118937910 -0.1335208565 0.5403133035 4294945961
-0.3119550943 -0.1329466403 0.5404194593 4294949299
-0.3120161295 -0.1323721111 0.5405252576 4294948785
-0.3120769560 -0.1317972243 0.5406306386 4294949042
-0.3126267791 -0.1314276904 0.5415831208 4294948271
-0.3126872182 -0.1308512390 0.5416877866 4294416532
-0.3132368326 -0.1304783374 0.5426399112 4292705914
-0.3137863874 -0.1301032752 0.5435919762 4292504683
-0.3138462901 -0.1295240223 0.5436957479 4292504683
-0.3139059246 -0.1289444417 0.5437990427 4292174680
-0.3144551218 -0.1285647899 0.5447504520 4291582543
-0.3150042593 -0.1281829923 0.5457018018 4291186240
-0.3150633574 -0.1276006103 0.5458041430 4290988861
-0.3156122863 -0.1272154301 0.5467550755 4291250490
-0.3156709671 -0.1266314983 0.5468567610 4291250490
-0.3162196875 -0.1262429506 0.5478072762 4291381564
-0.3162779510 -0.1256574541 0.5479082465 4291381564
-0.3168264329 -0.1252655387 0.5488584042 4291513152
-0.3173748255 -0.1248714924 0.5498084426 4291184187
-0.3179231584 -0.1244753003 0.5507583618 4290722353
-0.3189621270 -0.1242681518 0.5525582433 4290788146
-0.3195104003 -0.1238667741 0.5535080433 4292563270
-0.3200585842 -0.1234632507 0.5544576645 4292234305
-0.3206067085 -0.1230575889 0.5554072261 4289601556
-0.3206636608 -0.1224622503 0.5555059314 4289404177
-0.3202292323 -0.1216799617 0.5547533035 4289732362
-0.3197943568 -0.1208991930 0.5539999604 4289666569
-0.3193590641 -0.1201199293 0.5532458425 4289600780
-0.3189233541 -0.1193421856 0.5524910092 4289600780
-0.3189786971 -0.1187489331 0.5525869131 4289797393
-0.3185421824 -0.1179733127 0.5518307686 4289928979
-0.3181052804 -0.1171992123 0.5510738492 4290125588
-0.3176679313 -0.1164266393 0.5503162146 4290322967
-0.3177219927 -0.1158349141 0.5504098535 4290455584
-0.3172838688 -0.1150644869 0.5496509075 4290718756
-0.3173373342 -0.1144730672 0.5497435331 4290720813
-0.3178826272 -0.1140579134 0.5506881475 4291049778
-0.3184278309 -0.1136406288 0.5516325831 4291380285
-0.3184806705 -0.1130464822 0.5517241359 4291775043
-0.3185332716 -0.1124520451 0.5518152714 4291183417
-0.3185856044 -0.1118573174 0.5519059300 4290722866
-0.3191301525 -0.1114342585 0.5528492928 4290327597
-0.3191820383 -0.1108380184 0.5529391766 4290722355
-0.3192336857 -0.1102414951 0.5530286431 4290722357
-0.3197777569 -0.1098138839 0.5539712310 4291775045
-0.3198289573 -0.1092158630 0.5540598631 4293287769
-0.3203727603 -0.1087849140 0.5550019145 4293485148
-0.3204234838 -0.1081853956 0.5550898314 4292168513
-0.3209669888 -0.1077511087 0.5560313463 4291115825
-0.3215103745 -0.1073146984 0.5569727421 4291181101
-0.3215604722 -0.1067124829 0.5570595264 4290917929
-0.3221035898 -0.1062727347 0.5580003262 4290720550
-0.3226465583 -0.1058308631 0.5589410067 4290720550
-0.3231894076 -0.1053868532 0.5598814487 4290917157
-0.3237321675 -0.1049407274 0.5608216524 4290851364
-0.3242747784 -0.1044924632 0.5617616773 4290784799
-0.3248172998 -0.1040420756 0.5627015233 4290587420
-0.3258533776 -0.1037467495 0.5644963980 4289340441
-0.3263957202 -0.1032911837 0.5654358864 4293024849
-0.3264484406 -0.1790533215 0.5666174293 4285806390
-0.3284547925 -0.1795203686 0.5700998902 4287055687
-0.3280532658 -0.1786682606 0.5694029331 4286595136
-0.3276512623 -0.1778174490 0.5687052011 4286525996
-0.3277307749 -0.1772285700 0.5688431859 4286394410
-0.3282921314 -0.1768990159 0.5698175430 4286589736
-0.3269247115 -0.1755317301 0.5674441457 4286523943
-0.3284502327 -0.1757173985 0.5700919628 4286720293
-0.3261168301 -0.1738401353 0.5660418868 4286720293
-0.3247471452 -0.1724837273 0.5636644959 4286916389
-0.3233765066 -0.1711321324 0.5612854958 4286850596
-0.3220049739 -0.1697853208 0.5589049459 4287112228
-0.3211154342 -0.1686970145 0.5573609471 4287178021
-0.3202251792 -0.1676117778 0.5558157563 4287308578
-0.3188511431 -0.1662776768 0.5534307957 4287176992
-0.3184426725 -0.1654505432 0.5527217984 4287242526
-0.3175503910 -0.1643745601 0.5511730909 4287242526
-0.3161740005 -0.1630523503 0.5487840772 4287308319
-0.3172144890 -0.1629771888 0.5505900383 4287308319
-0.3158368468 -0.1616603136 0.5481988788 4287701279
-0.3154259026 -0.1608416736 0.5474855900 4287767072
-0.3150144815 -0.1600243747 0.5467715263 4288094497
-0.3146026134 -0.1592084467 0.5460566282 4288094497
-0.3141903281 -0.1583938897 0.5453410149 4288355864
-0.3137775660 -0.1575806886 0.5446246266 4288290071
-0.3133643866 -0.1567688584 0.5439074039 4288355350
-0.3134351969 -0.1561998278 0.5440303087 4288289557
-0.3130212128 -0.1553898752 0.5433117747 4288419347
-0.3126068115 -0.1545812935 0.5425924659 4288419347
-0.3117071688 -0.1535353065 0.5410310030 4288615699
-0.3117766380 -0.1529682726 0.5411515832 4288615699
-0.3113608956 -0.1521638334 0.5404299498 4288615441
-0.3114984930 -0.1510296315 0.5406687856 4288812820
-0.3115669489 -0.1504619718 0.5407875776 4289010199
-0.3111497462 -0.1496604532 0.5400635004 4289141785
-0.3107321262 -0.1488603354 0.5393385887 4289141785
-0.3107996881 -0.1482933164 0.5394558907 4289075992
-0.3103812933 -0.1474951208 0.5387296677 4289010199
-0.3104482889 -0.1469282657 0.5388459563 4288944663
-0.3105150461 -0.1463610381 0.5389618278 4288944663
-0.3105815947 -0.1457934380 0.5390773416 4288878870
-0.3101617396 -0.1449982077 0.5383486152 4288813077
-0.3102277219 -0.1444307864 0.5384631157 4288812820
-0.3107798100 -0.1440884918 0.5394213796 4288681234
-0.3108454347 -0.1435194463 0.5395352840 4288681234
-0.3109107912 -0.1429500431 0.5396487117 4288747027
-0.3114626110 -0.1426030993 0.5406064987 4288877843
-0.3115276396 -0.1420320868 0.5407193303 4288877843
-0.3115924001 -0.1414607167 0.5408318043 4288943123
-0.3116569519 -0.1408889890 0.5409438610 4289008916
-0.3117212653 -0.1403169185 0.5410554409 4289008403
-0.3117853403 -0.1397444904 0.5411666632 4289008403
-0.3118491769 -0.1391717046 0.5412774682 4289074709
-0.3119128048 -0.1385985613 0.5413879156 4289337881
-0.3114886880 -0.1378094107 0.5406517982 4289667609
-0.3115517199 -0.1372364759 0.5407611728 4290062367
-0.3111268580 -0.1364493221 0.5400237441 4290523434
-0.3111893237 -0.1358765960 0.5401321650 4291115571
-0.3112515509 -0.1353035122 0.5402401686 4291380287
-0.3108255863 -0.1345189214 0.5395008326 4291906631
-0.3108872175 -0.1339460611 0.5396078229 4292568417
-0.3114367723 -0.1335822344 0.5405616760 4294081656
-0.3114980459 -0.1330077797 0.5406680107 4294350222
-0.3115590811 -0.1324330121 0.5407739282 4294350222
-0.3116198480 -0.1318578869 0.5408794284 4294747035
-0.3121689260 -0.1314882040 0.5418324471 4294812828
-0.3122293353 -0.1309115142 0.5419372916 4294349710
-0.3127782047 -0.1305384487 0.5428899527 4293033850
-0.3133270144 -0.1301632524 0.5438425541 4293161585
-0.3138757646 -0.1297859102 0.5447950363 4293227378
-0.3139354587 -0.1292051822 0.5448986292 4293226339
-0.3139949143 -0.1286241114 0.5450018644 4292371030
-0.3145433068 -0.1282421649 0.5459536910 4291712071
-0.3150916398 -0.1278580725 0.5469054580 4291317313
-0.3151505589 -0.1272742152 0.5470076799 4291119421
-0.3156986535 -0.1268867403 0.5479590297 4290790456
-0.3157571554 -0.1263013184 0.5480605960 4291184187
-0.3163050413 -0.1259104759 0.5490115285 4292039496
-0.3163631260 -0.1253235042 0.5491123796 4292367693
-0.3169108033 -0.1249292865 0.5500629544 4291775556
-0.3174583614 -0.1245329380 0.5510133505 4291182393
-0.3180058897 -0.1241344437 0.5519636869 4291708737
-0.3180632293 -0.1235434487 0.5520632267 4293549912
-0.3186104894 -0.1231415793 0.5530130863 4293286740
-0.3191576898 -0.1227375716 0.5539628863 4290326055
-0.3197048008 -0.1223314255 0.5549125075 4289470746
-0.3197613955 -0.1217364222 0.5550107360 4289666058
-0.3198177218 -0.1211411059 0.5551084876 4289666058
-0.3193832040 -0.1203605905 0.5543543100 4289666318
-0.3189482689 -0.1195815951 0.5535993576 4289600525
-0.3185128868 -0.1188041121 0.5528436899 4289600527
-0.3185679317 -0.1182102934 0.5529392362 4289666320
-0.3181317747 -0.1174349338 0.5521821976 4289797393
-0.3176952302 -0.1166611090 0.5514244437 4289994772
-0.3172582090 -0.1158888116 0.5506659746 4290125588
-0.3173120022 -0.1152965203 0.5507593155 4290322967
-0.3173655272 -0.1147039309 0.5508521795 4290586141
-0.3174187839 -0.1141110435 0.5509446263 4290717727
-0.3174717724 -0.1135178506 0.5510366559 4290849054
-0.3175245225 -0.1129243672 0.5511281490 4290849054
-0.3180685937 -0.1125044748 0.5520725250 4290717208
-0.3181208968 -0.1119094864 0.5521633625 4290388243
-0.3181729615 -0.1113141999 0.5522536635 4290127389
-0.3187165856 -0.1108897477 0.5531972647 4290522147
-0.3187682033 -0.1102929637 0.5532867908 4290522660
-0.3193115294 -0.1098651662 0.5542299151 4291443762
-0.3193627000 -0.1092668846 0.5543187261 4292957001
-0.3199057579 -0.1088357493 0.5552612543 4293680724
-0.3199564517 -0.1082359701 0.5553492904 4292430657
-0.3200069070 -0.1076359004 0.5554368496 4290983211
-0.3205494881 -0.1072002202 0.5563786030 4290916905
-0.3210919499 -0.1067624167 0.5573201776 4290851112
-0.3216342926 -0.1063224748 0.5582615137 4290654246
-0.3216838837 -0.1057185084 0.5583476424 4290654246
-0.3222259283 -0.1052752361 0.5592884421 4290654246
-0.3222751021 -0.1046697944 0.5593737364 4290588453
-0.3233096600 -0.1043823063 0.5611695051 4290391074
-0.3238513470 -0.1039326489 0.5621097088 4290325281
-0.3243929148 -0.1034808680 0.5630496740 4289994774
-0.3254274428 -0.1031832919 0.5648452640 4292626494
-0.3280482888 -0.1790106446 0.5704941154 4286332734
-0.3281281888 -0.1784202307 0.5706330538 4286657582
-0.3282078803 -0.1778293997 0.5707716346 4286394410
-0.3287687004 -0.1774980128 0.5717469454 4286392102
-0.3274036348 -0.1761284173 0.5693730116 4286326309
-0.3255560398 -0.1745054424 0.5661599636 4286653987
-0.3241890073 -0.1731462777 0.5637826324 4286719780
-0.3228210807 -0.1717919111 0.5614036918 4286916132
-0.3214522004 -0.1704423428 0.5590231419 4286850339
-0.3229747415 -0.1706255823 0.5616708994 4287111458
-0.3196760714 -0.1682652384 0.5559343696 4287177251
-0.3202338219 -0.1679400504 0.5569043159 4287176992
-0.3183796108 -0.1663524657 0.5536797643 4287111199
-0.3174892962 -0.1652738154 0.5521314144 4287242783
-0.3170809150 -0.1644485593 0.5514212251 4287176990
-0.3157066107 -0.1631257981 0.5490312576 4287176733
-0.3167456388 -0.1630506366 0.5508381724 4287242526
-0.3153701127 -0.1617331952 0.5484460592 4287635486
-0.3149598241 -0.1609142125 0.5477325320 4287635486
-0.3145490885 -0.1600965858 0.5470182300 4287897118
-0.3141379058 -0.1592803299 0.5463031530 4287897118
-0.3137262762 -0.1584654301 0.5455873013 4288027671
-0.3133141994 -0.1576519012 0.5448707342 4287961878
-0.3129016757 -0.1568397433 0.5441533327 4287961621
-0.3129724562 -0.1562704742 0.5442763567 4287961621
-0.3125591576 -0.1554601789 0.5435576439 4288222997
-0.3126293421 -0.1548910439 0.5436797142 4288222997
-0.3117312193 -0.1538437307 0.5421178341 4288419347
-0.3118007779 -0.1532755792 0.5422387719 4288419347
-0.3113858104 -0.1524699330 0.5415171385 4288549906
-0.3109703958 -0.1516656727 0.5407947302 4288615699
-0.3110390604 -0.1510981470 0.5409141183 4288813078
-0.3111074567 -0.1505302638 0.5410330892 4288944664
-0.3106909394 -0.1497284174 0.5403087139 4289010457
-0.3102740049 -0.1489279568 0.5395836234 4289010457
-0.3098566234 -0.1481289119 0.5388577580 4288878870
-0.3099237978 -0.1475621909 0.5389746428 4288813077
-0.3099907637 -0.1469950974 0.5390910506 4288748054
-0.3100574911 -0.1464276463 0.5392071009 4288748054
-0.3101239800 -0.1458598226 0.5393227339 4288682261
-0.3101902604 -0.1452916265 0.5394380093 4288682261
-0.3097707629 -0.1444966048 0.5387084484 4288747284
-0.3098364472 -0.1439285725 0.5388227105 4288681491
-0.3103876710 -0.1435848922 0.5397813320 4288681234
-0.3104530275 -0.1430152655 0.5398949385 4288681234
-0.3110040724 -0.1426681876 0.5408532619 4288681234
-0.3110690415 -0.1420969367 0.5409662724 4288615441
-0.3111338019 -0.1415253431 0.5410788655 4288746257
-0.3111982942 -0.1409533918 0.5411910415 4288812050
-0.3112625778 -0.1403810680 0.5413028598 4288943123
-0.3113266230 -0.1398084015 0.5414142013 4289008916
-0.3109038770 -0.1390178353 0.5406790376 4289140502
-0.3109673560 -0.1384453475 0.5407894254 4289272088
-0.3110305965 -0.1378725320 0.5408993959 4289273369
-0.3106067479 -0.1370844841 0.5401622653 4289339162
-0.3106693923 -0.1365118623 0.5402712822 4289864990
-0.3102447987 -0.1357258260 0.5395328403 4290193955
-0.3103068769 -0.1351534128 0.5396407843 4290193183
-0.3103687167 -0.1345806420 0.5397483706 4290324769
-0.3104303479 -0.1340075433 0.5398555398 4290983985
-0.3104917109 -0.1334341019 0.5399622321 4291839294
-0.3110403717 -0.1330688894 0.5409163833 4291975505
-0.3111013770 -0.1324938685 0.5410224795 4292567642
-0.3111621141 -0.1319185048 0.5411280990 4293098354
-0.3117104471 -0.1315486878 0.5420816541 4293295733
-0.3117707968 -0.1309717447 0.5421866775 4293295479
-0.3123189211 -0.1305985451 0.5431398749 4292834928
-0.3123788834 -0.1300200373 0.5432441831 4293161326
-0.3129267991 -0.1296434551 0.5441970229 4293292912
-0.3134746552 -0.1292647272 0.5451497436 4293621097
-0.3135340810 -0.1286834180 0.5452530980 4292765788
-0.3135932684 -0.1281017661 0.5453560352 4292238415
-0.3141407669 -0.1277184337 0.5463081598 4291843657
-0.3141995370 -0.1271352321 0.5464103818 4291842628
-0.3147467971 -0.1267485172 0.5473620892 4291316284
-0.3148051798 -0.1261637509 0.5474635959 4291315773
-0.3153522313 -0.1257736534 0.5484149456 4292236875
-0.3154101968 -0.1251873374 0.5485157371 4292763221
-0.3159570098 -0.1247938722 0.5494667292 4293092186
-0.3165037632 -0.1243982688 0.5504175425 4292104521
-0.3165611327 -0.1238091663 0.5505173206 4291643970
-0.3171076477 -0.1234101877 0.5514677167 4292564300
-0.3181435466 -0.1231985986 0.5532692075 4292893265
-0.3186899722 -0.1227944270 0.5542194843 4292694857
-0.3187467158 -0.1222003996 0.5543181300 4290523688
-0.3188031912 -0.1216060594 0.5544163585 4289862159
-0.3188593984 -0.1210113987 0.5545141101 4289862159
-0.3189153671 -0.1204164252 0.5546114445 4289862416
-0.3184811175 -0.1196370795 0.5538562536 4289862416
-0.3180464208 -0.1188592613 0.5531002879 4289600273
-0.3176113069 -0.1180829555 0.5523436069 4289600273
-0.3171757758 -0.1173081771 0.5515862107 4289600273
-0.3167397976 -0.1165349260 0.5508280396 4289797652
-0.3163034022 -0.1157632023 0.5500690937 4289863186
-0.3163570762 -0.1151715741 0.5501624346 4289994772
-0.3164104819 -0.1145796403 0.5502552986 4290191381
-0.3164636195 -0.1139874160 0.5503477454 4290125588
-0.3165165186 -0.1133948863 0.5504397154 4290060049
-0.3170599639 -0.1129769459 0.5513848066 4290060049
-0.3176032901 -0.1125568748 0.5523297191 4290257427
-0.3176555634 -0.1119616255 0.5524206161 4290257427
-0.3177075982 -0.1113660783 0.5525110960 4290520346
-0.3182504773 -0.1109414473 0.5534551740 4290454553
-0.3183020651 -0.1103444025 0.5535448790 4290126358
-0.3188446462 -0.1099164262 0.5544884801 4290652702
-0.3188957870 -0.1093178764 0.5545774102 4291245098
-0.3194380999 -0.1088865548 0.5555204749 4291968821
-0.3194887638 -0.1082865149 0.5556086302 4291771442
-0.3195391893 -0.1076861843 0.5556963086 4291113512
-0.3200810254 -0.1072503179 0.5566385984 4290850340
-0.3206227422 -0.1068123206 0.5575806499 4290718754
-0.3211643398 -0.1063721925 0.5585225224 4290652963
-0.3212139308 -0.1057679579 0.5586087704 4290652963
-0.3217552304 -0.1053244919 0.5595501065 4290587940
-0.3222964108 -0.1048789024 0.5604912639 4290522147
-0.3223453164 -0.1042719781 0.5605763197 4290325281
-0.3233784139 -0.1039813235 0.5623729229 4290259488
-0.3239192069 -0.1035293415 0.5633134246 4290256402
-0.3249522746 -0.1032316387 0.5651099682 4291901227
-0.3279610276 -0.1799442768 0.5714460611 4287122250
-0.3270806372 -0.1788280159 0.5699120760 4286464320
-0.3281212151 -0.1787617207 0.5717251897 4286854961
-0.3282009661 -0.1781697869 0.5718641877 4286525996
-0.3287611604 -0.1778374165 0.5728402734 4286326564
-0.3278790414 -0.1767255068 0.5713032484 4286260771
-0.3269962668 -0.1756166369 0.5697650909 4286588194
-0.3251507878 -0.1739960313 0.5665494800 4286588194
-0.3237853050 -0.1726384908 0.5641702414 4286915360
-0.3214564323 -0.1707744449 0.5601123571 4286849567
-0.3200888634 -0.1694282442 0.5577294827 4287045406
-0.3192018569 -0.1683407724 0.5561839342 4287111199
-0.3183141351 -0.1672563702 0.5546371937 4287176733
-0.3169440925 -0.1659228951 0.5522499681 4287176733
-0.3165367246 -0.1650968343 0.5515401363 4287242526
-0.3151650727 -0.1637712866 0.5491501689 4287176733
-0.3162026405 -0.1636982709 0.5509580374 4287307548
-0.3148297668 -0.1623780429 0.5485659242 4287307548
-0.3144204915 -0.1615582556 0.5478528142 4287634973
-0.3140107691 -0.1607398093 0.5471388698 4287569180
-0.3136005998 -0.1599227339 0.5464242101 4287699737
-0.3141551316 -0.1595973223 0.5473904014 4287699737
-0.3132615983 -0.1585369408 0.5458335280 4287699989
-0.3128501773 -0.1577230692 0.5451166630 4287568403
-0.3124383390 -0.1569105685 0.5443990827 4287698706
-0.3125090599 -0.1563410908 0.5445222855 4287764499
-0.3120964468 -0.1555304527 0.5438033342 4288026901
-0.3116833866 -0.1547212005 0.5430836082 4288026901
-0.3117532134 -0.1541523337 0.5432053208 4288354069
-0.3113393784 -0.1533449590 0.5424842238 4288419862
-0.3109250963 -0.1525389701 0.5417623520 4288419347
-0.3109940290 -0.1519707292 0.5418824553 4288485140
-0.3105789721 -0.1511666328 0.5411592722 4288682262
-0.3106473386 -0.1505985260 0.5412784219 4288748055
-0.3102315068 -0.1497963369 0.5405538678 4288748312
-0.3102993369 -0.1492283493 0.5406720042 4288682519
-0.3098827302 -0.1484280825 0.5399460793 4288616726
-0.3094656765 -0.1476292163 0.5392194390 4288550933
-0.3095326126 -0.1470618993 0.5393360257 4288682519
-0.3095992804 -0.1464942098 0.5394522548 4288616726
-0.3096657395 -0.1459261626 0.5395680666 4288616726
-0.3097319901 -0.1453577429 0.5396834612 4288550933
-0.3097979724 -0.1447889656 0.5397984385 4288616469
-0.3093788326 -0.1439941227 0.5390681028 4288616469
-0.3099292815 -0.1436503083 0.5400272608 4288681492
-0.3099946082 -0.1430804431 0.5401410460 4288615699
-0.3105449080 -0.1427332461 0.5410999060 4288615186
-0.3106098473 -0.1421617717 0.5412130356 4288549393
-0.3106745481 -0.1415899247 0.5413258076 4288680465
-0.3107390106 -0.1410177350 0.5414381623 4288746258
-0.3108032644 -0.1404451877 0.5415500998 4288812051
-0.3108672798 -0.1398722827 0.5416616201 4288877844
-0.3104452193 -0.1390813738 0.5409262180 4289074710
-0.3105086386 -0.1385086626 0.5410367250 4289272089
-0.3100858033 -0.1377197355 0.5402999520 4289009946
-0.3101486862 -0.1371472329 0.5404095054 4288878360
-0.3102113008 -0.1365743726 0.5405186415 4289272599
-0.3097873628 -0.1357879937 0.5397799611 4289667357
-0.3098494411 -0.1352153420 0.5398880839 4290192412
-0.3099112511 -0.1346423328 0.5399957895 4290521377
-0.3099728227 -0.1340689957 0.5401030779 4291179048
-0.3100341558 -0.1334953159 0.5402099490 4291442220
-0.3100952804 -0.1329212934 0.5403164625 4290655274
-0.3106430173 -0.1325547099 0.5412708521 4291313204
-0.3107037544 -0.1319791079 0.5413766503 4291974991
-0.3112513125 -0.1316091269 0.5423307419 4292567128
-0.3113116324 -0.1310319602 0.5424358845 4292832870
-0.3118590117 -0.1306585968 0.5433896184 4292898663
-0.3119189441 -0.1300798506 0.5434940457 4293029738
-0.3124661148 -0.1297031194 0.5444474816 4293227117
-0.3125256598 -0.1291227937 0.5445511937 4293357927
-0.3130726218 -0.1287426800 0.5455042124 4292699997
-0.3131317496 -0.1281607896 0.5456072688 4292303949
-0.3131906688 -0.1275785714 0.5457099080 4291843398
-0.3137372434 -0.1271938533 0.5466622710 4292104770
-0.3137957454 -0.1266100705 0.5467642546 4291710012
-0.3143421113 -0.1262219697 0.5477162004 4291512635
-0.3144001961 -0.1256366223 0.5478174686 4292104772
-0.3149463236 -0.1252451390 0.5487690568 4293224029
-0.3154923916 -0.1248515174 0.5497205257 4293487201
-0.3160383999 -0.1244557500 0.5506718755 4293092445
-0.3160957396 -0.1238663942 0.5507718325 4292631894
-0.3161528707 -0.1232767180 0.5508713126 4293354075
-0.3171871901 -0.1230659708 0.5526735783 4292301387
-0.3177327812 -0.1226625443 0.5536242127 4294010716
-0.3177894056 -0.1220691726 0.5537228584 4292892235
-0.3183347583 -0.1216623709 0.5546730757 4290322458
-0.3183909357 -0.1210674569 0.5547710061 4290059286
-0.3179577291 -0.1202871725 0.5540161133 4289862418
-0.3175240755 -0.1195084006 0.5532605052 4289796625
-0.3170899749 -0.1187311485 0.5525041819 4289665807
-0.3171449006 -0.1181377321 0.5525998473 4289665807
-0.3167100549 -0.1173626110 0.5518421531 4289665807
-0.3162747622 -0.1165890247 0.5510837436 4289731600
-0.3158390522 -0.1158169582 0.5503245592 4289731600
-0.3158926964 -0.1152250767 0.5504180193 4289928979
-0.3159460723 -0.1146328822 0.5505110025 4290060565
-0.3159992099 -0.1140403971 0.5506035686 4290192151
-0.3160520494 -0.1134476140 0.5506956577 4289995801
-0.3161046803 -0.1128545329 0.5507873297 4289930008
-0.3171373308 -0.1126092523 0.5525866747 4289930523
-0.3171896040 -0.1120137423 0.5526777506 4289930523
-0.3172415793 -0.1114179343 0.5527683496 4290322969
-0.3177837133 -0.1109931245 0.5537129641 4290257176
-0.3178352714 -0.1103958115 0.5538027883 4290060567
-0.3183771074 -0.1099676564 0.5547469258 4290323739
-0.3184282184 -0.1093688384 0.5548359752 4290389532
-0.3189697862 -0.1089373380 0.5557795763 4290850083
-0.3190204203 -0.1083370298 0.5558678508 4291047462
-0.3195616901 -0.1079021841 0.5568109751 4290915876
-0.3196119070 -0.1073003784 0.5568984151 4290652704
-0.3201528788 -0.1068621948 0.5578410029 4290586911
-0.3202026188 -0.1062588990 0.5579277277 4290651934
-0.3207432926 -0.1058173776 0.5588697791 4290717727
-0.3212838471 -0.1053737178 0.5598116517 4290586911
-0.3218242824 -0.1049279347 0.5607532859 4290586911
-0.3223645985 -0.1044800133 0.5616947412 4290323998
-0.3229047656 -0.1040299684 0.5626360178 4290126619
-0.3234448433 -0.1035777852 0.5635770559 4289993485
-0.3239848018 -0.1031234711 0.5645178556 4291046173
-0.3273919523 -0.1806153953 0.5715606809 4287122250
-0.3284312487 -0.1805517077 0.5733751059 4287253066
-0.3280320764 -0.1796959639 0.5726782084 4286660929
-0.3281121254 -0.1791033745 0.5728179812 4286789168
-0.3281919658 -0.1785103530 0.5729573369 4286460203
-0.3287515044 -0.1781770140 0.5739341378 4286392357
-0.3278709054 -0.1770637780 0.5723968148 4286326564
-0.3269896209 -0.1759535819 0.5708582401 4286456606
-0.3251470625 -0.1743314266 0.5676415563 4286390813
-0.3237837851 -0.1729724258 0.5652615428 4286652188
-0.3224195838 -0.1716182530 0.5628799200 4286652188
-0.3210544586 -0.1702688634 0.5604966879 4286979611
-0.3196884394 -0.1689243019 0.5581119061 4287045404
-0.3188023567 -0.1678377092 0.5565649867 4287110939
