VERSION 0.7
FIELDS x y z rgba
SIZE 4 4 4 4
TYPE F F F U
COUNT 1 1 1 1
WIDTH 920
HEIGHT 1
VIEWPOINT 0.0 0.0 0.0 1.0 0.0 0.0 0.0
POINTS 920
DATA ascii
-0.2981597781 -0.1062174216 0.5642939210 4288290073
-0.2986679971 -0.1057704240 0.5652557015 4288421659
-0.2987151146 -0.1051589772 0.5653449297 4288487452
-0.2987619936 -0.1045472324 0.5654336214 4288487452
-0.2988085747 -0.1039352044 0.5655217767 4288749854
-0.2993161380 -0.1034823433 0.5664823651 4288749854
-0.2998235524 -0.1030273065 0.5674427152 4288881440
-0.3003308475 -0.1025700867 0.5684028268 4289078819
-0.3008380234 -0.1021106988 0.5693627000 4289407784
-0.3008836210 -0.1014934778 0.5694489479 4289539370
-0.3009289205 -0.1008759663 0.5695347190 4289473577
-0.3014355898 -0.1004119515 0.5704936385 4289341991
-0.3019421399 -0.0999457613 0.5714523196 4289407784
-0.3019868135 -0.0993255302 0.5715368986 4289276198
-0.3024930358 -0.0988559499 0.5724949241 4289145382
-0.3025372326 -0.0982342213 0.5725786090 4289079589
-0.3030431271 -0.0977612436 0.5735360384 4288948003
-0.3030868769 -0.0971380174 0.5736188293 4288882210
-0.3035924137 -0.0966616571 0.5745756626 4288816417
-0.3040978611 -0.0961831212 0.5755321980 4288750624
-0.3046031296 -0.0957024172 0.5764884949 4288356890
-0.3051082790 -0.0952195451 0.5774444938 4288554269
-0.3065379858 -0.0950211436 0.5801503658 4288949802
-0.3075053990 -0.0946744010 0.5819812417 4290134076
-0.3084727824 -0.0943235829 0.5838121176 4290140240
-0.3089776039 -0.0938282236 0.5847675800 4292048237
-0.3520690203 -0.2080362886 0.6677255034 4288119171
-0.3517077565 -0.2070817053 0.6670403481 4288768875
-0.3513460457 -0.2061283588 0.6663542986 4288176738
-0.3509838581 -0.2051762491 0.6656673551 4289093730
-0.3497209847 -0.2037010789 0.6632722616 4289027937
-0.3484572172 -0.2022306919 0.6608754396 4288764250
-0.3462918997 -0.2002443075 0.6567687392 4288369492
-0.3409722149 -0.1964496821 0.6466795802 4288367434
-0.3248367608 -0.1864688098 0.6160774827 4288038469
-0.3113970160 -0.1780976802 0.5905879140 4288167998
-0.3074162900 -0.1751731932 0.5830382109 4288102205
-0.3047859967 -0.1730321199 0.5780496597 4288429628
-0.3030560911 -0.1714114249 0.5747687817 4288232249
-0.3013251126 -0.1697973907 0.5714858174 4288100406
-0.3004954159 -0.1686966419 0.5699122548 4288034613
-0.2996650636 -0.1675990373 0.5683374405 4288099638
-0.2988340557 -0.1665045470 0.5667613745 4288099638
-0.2980024219 -0.1654132158 0.5651840568 4288099125
-0.2976217270 -0.1645747572 0.5644620657 4288033332
-0.2972406149 -0.1637376547 0.5637392998 4288164400
-0.2964072526 -0.1626539826 0.5621587038 4288230193
-0.2960251570 -0.1618205160 0.5614340901 4287968566
-0.2960947156 -0.1612346023 0.5615659356 4288363324
-0.2957118750 -0.1604029983 0.5608398914 4288563271
-0.2957808673 -0.1598171443 0.5609707236 4289089615
-0.2953972518 -0.1589874029 0.5602431893 4289025364
-0.2954657078 -0.1584016234 0.5603730083 4289091157
-0.2950813472 -0.1575737745 0.5596441031 4289025364
-0.2951492667 -0.1569880843 0.5597728491 4288827985
-0.2952169478 -0.1564019918 0.5599012375 4288761165
-0.2952843904 -0.1558154970 0.5600291491 4288366407
-0.2953516245 -0.1552285999 0.5601566434 4288430400
-0.2949655354 -0.1544041187 0.5594244599 4288167228
-0.2950322330 -0.1538173258 0.5595508814 4287968820
-0.2950986922 -0.1532301307 0.5596769452 4287705648
-0.2951649129 -0.1526425481 0.5598025918 4287967535
-0.2952309251 -0.1520545632 0.5599277616 4287967535
-0.2948431075 -0.1512335241 0.5591922402 4288032560
-0.2949085832 -0.1506456584 0.5593163967 4287900974
-0.2940661907 -0.1495956928 0.5577187538 4287769642
-0.2945849001 -0.1492388099 0.5587025285 4287769642
-0.2941955924 -0.1484216303 0.5579641461 4287769127
-0.2942599356 -0.1478340179 0.5580862164 4287703334
-0.2938698530 -0.1470187902 0.5573464036 4287768870
-0.2934793532 -0.1462050080 0.5566057563 4287703077
-0.2930884361 -0.1453926414 0.5558643341 4287637284
-0.2931515574 -0.1448062360 0.5559840798 4287637284
-0.2927598953 -0.1439958513 0.5552412271 4287636513
-0.2923677862 -0.1431868970 0.5544975996 4287373341
-0.2919752598 -0.1423794031 0.5537531376 4287241755
-0.2920372188 -0.1417942196 0.5538706183 4287110169
-0.2911889553 -0.1407687664 0.5522618294 4287176216
-0.2907951772 -0.1399656236 0.5515149832 4287176216
-0.2904009521 -0.1391639411 0.5507673621 4287240726
-0.2904615998 -0.1385809332 0.5508823395 4287109140
-0.2900666595 -0.1377812624 0.5501332879 4287174676
-0.2896712720 -0.1369830519 0.5493834615 4287108883
-0.2892754972 -0.1361863166 0.5486328006 4287239186
-0.2893349230 -0.1356046051 0.5487455726 4287304979
-0.2889384031 -0.1348099113 0.5479934812 4287436052
-0.2889972925 -0.1342283934 0.5481051803 4287436052
-0.2890559435 -0.1336465329 0.5482164621 4287304979
-0.2891143858 -0.1330643147 0.5483272672 4287239186
-0.2887164652 -0.1322727799 0.5475725532 4287173393
-0.2883181274 -0.1314827353 0.5468171239 4287173393
-0.2883756757 -0.1309013069 0.5469262600 4287174163
-0.2884329855 -0.1303195208 0.5470349193 4287371542
-0.2884900570 -0.1297374070 0.5471432209 4287568151
-0.2880903482 -0.1289505810 0.5463851094 4287568151
-0.2881468832 -0.1283686757 0.5464923382 4287633431
-0.2882031798 -0.1277864426 0.5465990901 4287633431
-0.2882592380 -0.1272038817 0.5467054248 4287567638
-0.2883150578 -0.1266209632 0.5468112826 4287567638
-0.2879136205 -0.1258379668 0.5460499525 4287567638
-0.2875117958 -0.1250564903 0.5452878475 4287567638
-0.2875667512 -0.1244744137 0.5453920364 4287501845
-0.2876214385 -0.1238920093 0.5454958081 4287501845
-0.2872185707 -0.1231132373 0.5447316766 4287698708
-0.2872727215 -0.1225310937 0.5448343754 4287764501
-0.2873266339 -0.1219486222 0.5449366570 4287764501
-0.2873803079 -0.1213658303 0.5450384617 4287830294
-0.2874337435 -0.1207827032 0.5451397896 4287830296
-0.2879447043 -0.1203906611 0.5461089015 4287896089
-0.2879977524 -0.1198059618 0.5462095141 4287961882
-0.2880505621 -0.1192209423 0.5463096499 4288027675
-0.2885611653 -0.1188242063 0.5472780466 4288027675
-0.2886135876 -0.1182376146 0.5473774672 4288027675
-0.2886657417 -0.1176507026 0.5474764109 4288027673
-0.2887176871 -0.1170634702 0.5475748777 4288027673
-0.2892277241 -0.1166608036 0.5485422015 4288092953
-0.2892792523 -0.1160720065 0.5486399531 4288092953
-0.2897890806 -0.1156659201 0.5496068597 4287961367
-0.2898401916 -0.1150755584 0.5497038364 4287961367
-0.2903497517 -0.1146660447 0.5506702662 4288027160
-0.2908592522 -0.1142543405 0.5516365170 4288092953
-0.2918274999 -0.1140197366 0.5534728765 4288092953
-0.2923368812 -0.1136027426 0.5544389486 4287961367
-0.2928461730 -0.1131835580 0.5554049015 4287895574
-0.2933554053 -0.1127621979 0.5563706756 4287895574
-0.2934053540 -0.1121631265 0.5564653873 4287764501
-0.2934550643 -0.1115637496 0.5565596819 4287632915
-0.2939638197 -0.1111377254 0.5575246215 4287632915
-0.2944725156 -0.1107095182 0.5584893227 4287567122
-0.2949810922 -0.1102791280 0.5594539046 4287566609
-0.2950300276 -0.1096757278 0.5595467091 4287698195
-0.2955383360 -0.1092419177 0.5605107546 4287895574
-0.2960465252 -0.1088059321 0.5614746213 4287961367
-0.2965546250 -0.1083677635 0.5624382496 4288224539
-0.2970626354 -0.1079274192 0.5634016991 4288224539
-0.2975704968 -0.1074848920 0.5643649697 4288355868
-0.2976182997 -0.1068750024 0.5644555688 4288355868
-0.2981258929 -0.1064290553 0.5654182434 4288553245
-0.2981732190 -0.1058176383 0.5655080676 4288750624
-0.2986805439 -0.1053682864 0.5664702058 4288816417
-0.2987274230 -0.1047553420 0.5665591359 4288816417
-0.2987740636 -0.1041421071 0.5666475892 4288882210
-0.2997412980 -0.1038476303 0.5684820414 4288948003
-0.2997875810 -0.1032319367 0.5685697794 4289014309
-0.3002941310 -0.1027735844 0.5695305467 4289343274
-0.3008005917 -0.1023130640 0.5704910755 4289540653
-0.3008462191 -0.1016946286 0.5705775619 4289606446
-0.3008915782 -0.1010759100 0.5706635714 4289540140
-0.3009366691 -0.1004569083 0.5707491040 4289474347
-0.3014424145 -0.0999905318 0.5717082620 4289474347
-0.3019480407 -0.0995219722 0.5726672411 4289408554
-0.3019924760 -0.0989002511 0.5727515221 4289211688
-0.3024977446 -0.0984282941 0.5737098455 4289080102
-0.3025417328 -0.0978050828 0.5737932324 4288948516
-0.3030466735 -0.0973297358 0.5747509003 4288948516
-0.3035515249 -0.0968522131 0.5757083893 4288948003
-0.3040561974 -0.0963725299 0.5766655803 4288882210
-0.3045607507 -0.0958906710 0.5776224732 4288488990
-0.3050651848 -0.0954066366 0.5785791278 4288752162
-0.3064926267 -0.0952072069 0.5812863708 4289213746
-0.3074585199 -0.0948593691 0.5831183195 4290463813
-0.3079626858 -0.0943659693 0.5840744972 4290338646
-0.3089285195 -0.0940109342 0.5859062672 4292509815
-0.3501302898 -0.2073274404 0.6654502749 4288448650
-0.3502183855 -0.2066400498 0.6656177044 4288901231
-0.3498571217 -0.2056881040 0.6649311185 4288243301
-0.3490461707 -0.2044742554 0.6633898020 4289093988
-0.3482345045 -0.2032634169 0.6618471742 4289028195
-0.3469727039 -0.2017942071 0.6594490409 4288764765
-0.3452604115 -0.2000692934 0.6561947465 4288304214
-0.3408490121 -0.1967932284 0.6478104591 4288367949
-0.3305879831 -0.1901708096 0.6283085942 4288104777
-0.3131233752 -0.1794630885 0.5951157212 4288168768
-0.3082499802 -0.1760190278 0.5858534575 4288037182
-0.3051743805 -0.1736183316 0.5800079703 4288363835
-0.3029974401 -0.1717400104 0.5758705735 4288232249
-0.3017198443 -0.1703787446 0.5734423995 4288100406
-0.3004413843 -0.1690223664 0.5710126162 4287968820
-0.2996126115 -0.1679234207 0.5694374442 4288099638
-0.2987831831 -0.1668276191 0.5678610206 4288033845
-0.2979530990 -0.1657349467 0.5662834048 4288033330
-0.2971223593 -0.1646454334 0.5647045374 4288099123
-0.2967419326 -0.1638080180 0.5639815331 4288164400
-0.2963611186 -0.1629719585 0.5632576942 4288230193
-0.2959798276 -0.1621372849 0.5625330806 4287968566
-0.2955981195 -0.1613039672 0.5618075728 4288297531
-0.2956673801 -0.1607174128 0.5619392395 4288628550
-0.2952849269 -0.1598859727 0.5612123609 4289089101
-0.2953536510 -0.1592994779 0.5613429546 4288959571
-0.2954221368 -0.1587125957 0.5614731312 4289091157
-0.2950386107 -0.1578835100 0.5607441664 4288959571
-0.2951065600 -0.1572967023 0.5608733296 4288827985
-0.2951742709 -0.1567094922 0.5610020161 4288761165
-0.2952417731 -0.1561218649 0.5611303449 4288432200
-0.2953090668 -0.1555338502 0.5612581968 4288496450
-0.2949237823 -0.1547081470 0.5605259538 4288233278
-0.2949905097 -0.1541202217 0.5606527925 4288100406
-0.2950570285 -0.1535319090 0.5607792139 4287771441
-0.2951233089 -0.1529431939 0.5609051585 4288033330
-0.2947366238 -0.1521204114 0.5601702332 4287967537
-0.2948023677 -0.1515318155 0.5602951646 4287967537
-0.2944149077 -0.1507109553 0.5595588088 4287835951
-0.2940270603 -0.1498915106 0.5588216186 4287835181
-0.2940919101 -0.1493035406 0.5589448810 4287769388
-0.2941565216 -0.1487151980 0.5590677261 4287769642
-0.2942209244 -0.1481264532 0.5591901541 4287638056
-0.2938316464 -0.1473099887 0.5584502816 4287834920
-0.2934419513 -0.1464949697 0.5577096343 4287769127
-0.2930518389 -0.1456813663 0.5569681525 4287834663
-0.2926613092 -0.1448692232 0.5562258959 4287768870
-0.2927241623 -0.1442822069 0.5563454032 4287703077
-0.2923328578 -0.1434720159 0.5556017160 4287439905
-0.2919411659 -0.1426632851 0.5548572540 4287176732
-0.2915490270 -0.1418559998 0.5541119576 4287110939
-0.2911564708 -0.1410501748 0.5533658266 4287307802
-0.2907634676 -0.1402457952 0.5526189804 4287242009
-0.2903700769 -0.1394428760 0.5518712997 4287306519
-0.2899762690 -0.1386414170 0.5511227846 4287240726
-0.2895820141 -0.1378414184 0.5503734946 4287305749
-0.2891873717 -0.1370428950 0.5496234298 4287239956
-0.2892470658 -0.1364603937 0.5497369170 4287304979
-0.2888516784 -0.1356638968 0.5489854217 4287370772
-0.2889108360 -0.1350815892 0.5490978956 4287436052
-0.2889697850 -0.1344989389 0.5492098927 4287436052
-0.2890284657 -0.1339159161 0.5493214726 4287370772
-0.2886316776 -0.1331225783 0.5485673547 4287304979
-0.2882345021 -0.1323307306 0.5478124022 4287239186
-0.2882923186 -0.1317484826 0.5479223132 4287239186
-0.2878943682 -0.1309586912 0.5471659899 4287174163
-0.2879516482 -0.1303766817 0.5472748876 4287239956
-0.2880086899 -0.1297943294 0.5473832488 4287568151
-0.2880654931 -0.1292116195 0.5474911928 4287568151
-0.2876661718 -0.1284250468 0.5467323065 4287699224
-0.2877224088 -0.1278425753 0.5468391776 4287699224
-0.2877784371 -0.1272597760 0.5469456315 4287633431
-0.2878341973 -0.1266766191 0.5470516682 4287501845
-0.2878897488 -0.1260931343 0.5471572280 4287501845
-0.2874887288 -0.1253104061 0.5463950634 4287501845
-0.2870872915 -0.1245291978 0.5456320643 4287501845
-0.2871419489 -0.1239465550 0.5457359552 4287501845
-0.2867397964 -0.1231674552 0.5449716449 4287698710
-0.2867938876 -0.1225850806 0.5450744629 4287764503
-0.2868477702 -0.1220023781 0.5451768637 4287896089
-0.2869013846 -0.1214193404 0.5452787876 4287896089
-0.2874117196 -0.1210284010 0.5462486744 4287830810
-0.2874649763 -0.1204437837 0.5463498831 4287896603
-0.2875179648 -0.1198588461 0.5464506149 4288093466
-0.2880279124 -0.1194632128 0.5474198461 4288093466
-0.2880805135 -0.1188766956 0.5475198030 4288159259
-0.2881329060 -0.1182898656 0.5476193428 4288159259
-0.2881850302 -0.1177027076 0.5477184057 4288027673
-0.2886944413 -0.1173011363 0.5486865640 4287961880
-0.2887461483 -0.1167124137 0.5487849116 4288027675
-0.2892553210 -0.1163074076 0.5497525930 4288093468
-0.2897644341 -0.1159002185 0.5507201552 4288158748
-0.2898155749 -0.1153086871 0.5508174300 4288158748
-0.2907823622 -0.1150792986 0.5526548624 4288224541
-0.2908332050 -0.1144852713 0.5527514815 4288290334
-0.2913418710 -0.1140702814 0.5537182093 4288224541
-0.2918504477 -0.1136531159 0.5546848774 4288027162
-0.2923589647 -0.1132337749 0.5556513071 4287895576
-0.2928673625 -0.1128122434 0.5566175580 4287829783
-0.2929172814 -0.1122129187 0.5567124486 4287633431
-0.2929669321 -0.1116132960 0.5568068027 4287567638
-0.2934749126 -0.1111871004 0.5577722788 4287501845
-0.2939828038 -0.1107587144 0.5587375164 4287501845
-0.2944905758 -0.1103281528 0.5597025752 4287567122
-0.2945394814 -0.1097244993 0.5597955585 4287698708
-0.2950469851 -0.1092905104 0.5607600808 4287961880
-0.2955543697 -0.1088543460 0.5617244244 4288159259
-0.2965206802 -0.1085840911 0.5635609627 4288487711
-0.2965688705 -0.1079754755 0.5636525750 4288619297
-0.2970759571 -0.1075327694 0.5646163225 4288619297
-0.2975829244 -0.1070878804 0.5655798912 4288553504
-0.2976304889 -0.1064764932 0.5656702518 4288751137
-0.2981371880 -0.1060281917 0.5666332841 4288882723
-0.2986437380 -0.1055776998 0.5675960183 4289079589
-0.2986906767 -0.1049635559 0.5676852465 4289145382
-0.2987373471 -0.1043491215 0.5677739382 4289145895
-0.2997030914 -0.1040535793 0.5696094036 4289211688
-0.2997494042 -0.1034366786 0.5696974397 4289277738
-0.3002552390 -0.1029771939 0.5706588030 4289540910
-0.3003010750 -0.1023587734 0.5707459450 4289606703
-0.3008066118 -0.1018958837 0.5717067719 4289540910
-0.3008520007 -0.1012759507 0.5717930198 4289540653
-0.3008971214 -0.1006557420 0.5718787909 4289606446
-0.3014021516 -0.1001882181 0.5728386045 4289540653
-0.3019070327 -0.0997185186 0.5737981796 4289474860
-0.3024117947 -0.0992466360 0.5747575164 4289277738
-0.3024560809 -0.0986224785 0.5748416781 4289146152
-0.3025000691 -0.0979980454 0.5749253035 4289080359
-0.3025438190 -0.0973733366 0.5750083923 4288948773
-0.3030478358 -0.0968956202 0.5759663582 4288948516
-0.3035517335 -0.0964157283 0.5769240260 4289014309
-0.3045161664 -0.0960790142 0.5787570477 4288817957
-0.3050198555 -0.0955938324 0.5797143579 4289146922
-0.3064450324 -0.0953933746 0.5824229717 4289674043
-0.3069485426 -0.0949019343 0.5833799839 4290924110
-0.3079128861 -0.0945498720 0.5852127671 4290733662
-0.3088771999 -0.0941937268 0.5870454907 4293036417
-0.3482830524 -0.2059328407 0.6633397341 4288967283
-0.3479221463 -0.2049831897 0.6626523137 4288375146
-0.3475607336 -0.2040347755 0.6619639993 4289357162
-0.3467502892 -0.2028252333 0.6604204178 4288962404
-0.3454904854 -0.2013572156 0.6580209732 4288764765
-0.3437809348 -0.1996333748 0.6547650099 4288501593
-0.3398256898 -0.1966174543 0.6472318769 4288367949
-0.3318270445 -0.1912873685 0.6319975853 4288104777
-0.3148415089 -0.1808295250 0.5996469855 4288365377
-0.3086292148 -0.1766083688 0.5878150463 4288102205
-0.3051097095 -0.1739487350 0.5811117887 4288429628
-0.3029366136 -0.1720687598 0.5769729018 4288232249
-0.3016613424 -0.1707060486 0.5745440722 4288166197
-0.3003852069 -0.1693482399 0.5721135139 4288034611
-0.2995580137 -0.1682479680 0.5705379844 4288099636
-0.2987301350 -0.1671508402 0.5689612627 4287968050
-0.2979016006 -0.1660568416 0.5673832297 4288033330
-0.2970724404 -0.1649660021 0.5658040047 4288099123
-0.2966928482 -0.1641273648 0.5650810003 4287837491
-0.2963128090 -0.1632900834 0.5643572211 4287837491
-0.2959323525 -0.1624541879 0.5636326075 4288099638
-0.2955514491 -0.1616196632 0.5629070997 4288362810
-0.2956207693 -0.1610319912 0.5630391240 4288562246
-0.2952390909 -0.1601993293 0.5623122454 4289220176
-0.2953078747 -0.1596117169 0.5624431968 4289090900
-0.2949254513 -0.1587809324 0.5617148876 4289025107
-0.2949936688 -0.1581934094 0.5618448257 4288959314
-0.2950616777 -0.1576054692 0.5619742870 4288893521
-0.2946781814 -0.1567770541 0.5612438917 4288696399
-0.2947456241 -0.1561892182 0.5613723993 4288433227
-0.2948128581 -0.1556009650 0.5615004301 4288169796
-0.2948798537 -0.1550123245 0.5616280437 4287775038
-0.2944949567 -0.1541868001 0.5608949661 4288100406
-0.2945614159 -0.1535982490 0.5610215068 4287903027
-0.2946276367 -0.1530093104 0.5611476898 4288033330
-0.2946936488 -0.1524199843 0.5612733960 4287967537
-0.2943073511 -0.1515973806 0.5605376363 4287835951
-0.2943727970 -0.1510081589 0.5606622696 4287704365
-0.2939857543 -0.1501874924 0.5599250793 4287835181
-0.2935982645 -0.1493682414 0.5591870546 4287835181
-0.2936628461 -0.1487796605 0.5593100786 4287834922
-0.2937271893 -0.1481906921 0.5594326258 4287769129
-0.2937912941 -0.1476013362 0.5595547557 4287834922
-0.2934024036 -0.1467850655 0.5588140488 4287834922
-0.2930130959 -0.1459702402 0.5580725670 4287769642
-0.2926233709 -0.1451568604 0.5573303103 4287703849
-0.2922331989 -0.1443449110 0.5565872192 4287637543
-0.2918426096 -0.1435344070 0.5558432937 4287440164
-0.2914516032 -0.1427253485 0.5550985932 4287439135
-0.2910601795 -0.1419177353 0.5543530583 4287307549
-0.2906683385 -0.1411115676 0.5536067486 4287175701
-0.2902760804 -0.1403068751 0.5528596640 4287175701
-0.2898833752 -0.1395036280 0.5521117449 4287372566
-0.2894902825 -0.1387018412 0.5513629913 4287372566
-0.2895506024 -0.1381180137 0.5514779091 4287306773
-0.2891567349 -0.1373182386 0.5507277846 4287175187
-0.2887624800 -0.1365199536 0.5499768257 4287109394
-0.2888219059 -0.1359368563 0.5500900745 4287043601
-0.2884269059 -0.1351405978 0.5493377447 4287240467
-0.2884857953 -0.1345577091 0.5494498610 4287174674
-0.2885444462 -0.1339744627 0.5495616198 4287239954
-0.2886028588 -0.1333908588 0.5496728420 4287239954
-0.2877518833 -0.1323886216 0.5480520725 4287239954
-0.2878096700 -0.1318061501 0.5481621623 4287239954
-0.2878672183 -0.1312233359 0.5482717156 4287239954
-0.2874696851 -0.1304337978 0.5475145578 4287305747
-0.2875266671 -0.1298512071 0.5476230979 4287502358
-0.2875834107 -0.1292682588 0.5477312207 4287568151
-0.2876399457 -0.1286849827 0.5478388667 4287568151
-0.2872410119 -0.1278986633 0.5470790863 4287502358
-0.2872969806 -0.1273156255 0.5471856594 4287436565
-0.2873527110 -0.1267322451 0.5472918153 4287436565
-0.2874082327 -0.1261485219 0.5473975539 4287436565
-0.2870079279 -0.1253654659 0.5466350913 4287502358
-0.2866072059 -0.1245839372 0.5458719134 4287304979
-0.2866618335 -0.1240010634 0.5459759235 4287370772
-0.2867161930 -0.1234178543 0.5460795164 4287502358
-0.2867703438 -0.1228343099 0.5461826324 4287633944
-0.2868242562 -0.1222504452 0.5462853312 4287699737
-0.2868779302 -0.1216662452 0.5463875532 4287699737
-0.2869313657 -0.1210817173 0.5464893579 4287699737
-0.2869845629 -0.1204968691 0.5465906858 4287699737
-0.2874938846 -0.1201023310 0.5475606918 4288027675
-0.2875466943 -0.1195158958 0.5476612449 4288225054
-0.2880557477 -0.1191179231 0.5486308336 4288356127
-0.2881081700 -0.1185299158 0.5487306714 4288290334
-0.2881603539 -0.1179415882 0.5488300323 4288224541
-0.2882122695 -0.1173529476 0.5489289165 4288290334
-0.2887207866 -0.1169490293 0.5498974919 4288225052
-0.2892292440 -0.1165429279 0.5508658290 4288159259
-0.2897376120 -0.1161346436 0.5518341064 4288225052
-0.2897888124 -0.1155419350 0.5519316196 4288290845
-0.2907540798 -0.1153115258 0.5537700653 4288356125
-0.2908049822 -0.1147163138 0.5538669825 4288224539
-0.2913129032 -0.1143002287 0.5548344254 4288092953
-0.2913633883 -0.1137034595 0.5549305677 4288092953
-0.2918710709 -0.1132839471 0.5558974743 4287961878
-0.2923786938 -0.1128622442 0.5568642616 4287896085
-0.2928861976 -0.1124383584 0.5578308702 4287830294
-0.2929359078 -0.1118375510 0.5579255819 4287764501
-0.2934431434 -0.1114102378 0.5588916540 4287764501
-0.2939502895 -0.1109807417 0.5598575473 4287764501
-0.2939994037 -0.1103771403 0.5599511266 4287764501
-0.2945062816 -0.1099442169 0.5609164834 4287961880
-0.2950130403 -0.1095091179 0.5618817210 4288290845
-0.2955197394 -0.1090718284 0.5628467202 4288554017
-0.2960262895 -0.1086323634 0.5638115406 4288816930
-0.2965327501 -0.1081907153 0.5647761226 4288816930
-0.2965807319 -0.1075806022 0.5648674965 4288882723
-0.2970868945 -0.1071355343 0.5658315420 4288816930
-0.2975929677 -0.1066882834 0.5667954087 4288816930
-0.2976403236 -0.1060753986 0.5668855906 4289080102
-0.2981460690 -0.1056247279 0.5678488612 4289343274
-0.2986517251 -0.1051718816 0.5688119531 4289409067
-0.2986984551 -0.1045562401 0.5689008832 4289147175
-0.2992037833 -0.1040999740 0.5698633790 4289344554
-0.2997090220 -0.1036415249 0.5708256364 4289344812
-0.2997550964 -0.1030231342 0.5709133744 4289410605
-0.3002600074 -0.1025612727 0.5718750954 4289541678
-0.3003056347 -0.1019413695 0.5719619393 4289541678
-0.3008102477 -0.1014761031 0.5729230046 4289606957
-0.3008553982 -0.1008546799 0.5730090141 4289541164
-0.3009003103 -0.1002329811 0.5730945468 4289541164
-0.3014043868 -0.0997630805 0.5740546584 4289409578
-0.3019083440 -0.0992910117 0.5750144720 4289277740
-0.3024121821 -0.0988167599 0.5759740472 4289211947
-0.3024562001 -0.0981911048 0.5760579109 4289080361
-0.3024999797 -0.0975651816 0.5761412978 4288948775
-0.3030032814 -0.0970863104 0.5770998597 4289079848
-0.3035064340 -0.0966052637 0.5780581832 4289211434
-0.3044693768 -0.0962674618 0.5798922181 4288360229
-0.3049723208 -0.0957811177 0.5808501244 4288952366
-0.3059351742 -0.0954361185 0.5826839805 4289478720
-0.3068980277 -0.0950870290 0.5845177770 4290597201
-0.3078608513 -0.0947338715 0.5863515735 4290339937
-0.3083634079 -0.0942359716 0.5873087645 4293169036
-0.3463515043 -0.2052248865 0.6610592604 4289296250
-0.3468861282 -0.2048060447 0.6620796919 4288440941
-0.3456299007 -0.2033313960 0.6596819758 4289094758
-0.3448205590 -0.2021240443 0.6581372619 4288765793
-0.3440105319 -0.2009197026 0.6565912366 4288764765
-0.3423037231 -0.1991969496 0.6533335447 4288501593
-0.3388032019 -0.1964413971 0.6466522813 4288433742
-0.3312662542 -0.1913689226 0.6322670579 4288170570
-0.3169997633 -0.1824550778 0.6050374508 4288300354
-0.3094532192 -0.1774552912 0.5906338096 4288102975
-0.3054914474 -0.1745355874 0.5830723047 4288298042
-0.3033223152 -0.1726530641 0.5789321661 4288232249
-0.3016006947 -0.1710335165 0.5756462216 4288231990
-0.3003268838 -0.1696742773 0.5732149482 4288100404
-0.2995012403 -0.1685726792 0.5716391206 4288165429
-0.2982257903 -0.1672223806 0.5692047477 4288099636
-0.2978479564 -0.1663789004 0.5684836507 4288099123
-0.2974697053 -0.1655367911 0.5677617192 4288099123
-0.2966415882 -0.1644468755 0.5661810637 4287837745
-0.2962623537 -0.1636083722 0.5654572845 4287837745
-0.2958827019 -0.1627712548 0.5647326112 4288165431
-0.2955026031 -0.1619355083 0.5640071630 4288362810
-0.2955719531 -0.1613467187 0.5641395450 4288496451
-0.2951911092 -0.1605128348 0.5634126663 4289154381
-0.2952599227 -0.1599241048 0.5635440350 4289090900
-0.2948783338 -0.1590920985 0.5628156662 4289025107
-0.2949465811 -0.1585034430 0.5629459620 4288893521
-0.2950146496 -0.1579144001 0.5630758405 4288827728
-0.2946319580 -0.1570847481 0.5623454452 4288630606
-0.2946994603 -0.1564957947 0.5624742508 4288433227
-0.2947667241 -0.1559064239 0.5626026988 4288235589
-0.2948337793 -0.1553166509 0.5627306700 4287906624
-0.2944496870 -0.1544899046 0.5619975328 4288231992
-0.2940651774 -0.1536645442 0.5612636209 4288034613
-0.2941313386 -0.1530753821 0.5613899827 4288361525
-0.2941972911 -0.1524858177 0.5615158081 4288229939
-0.2942630351 -0.1518958658 0.5616412759 4288098353
-0.2938770950 -0.1510734409 0.5609046817 4287966767
-0.2934907377 -0.1502524465 0.5601672530 4287966767
-0.2940072119 -0.1498933733 0.5611530542 4287966767
-0.2931684852 -0.1488440633 0.5595521927 4287900715
-0.2932327986 -0.1482548714 0.5596749187 4287834922
-0.2932968438 -0.1476652920 0.5597972274 4287834922
-0.2929086685 -0.1468487084 0.5590563416 4287834922
-0.2925200760 -0.1460335553 0.5583146214 4287834922
-0.2921310365 -0.1452198327 0.5575721264 4287834922
-0.2921939194 -0.1446314454 0.5576921105 4287703336
-0.2918041348 -0.1438197047 0.5569481254 4287505957
-0.2909614146 -0.1427873522 0.5553397536 4287439651
-0.2905707061 -0.1419794112 0.5545939803 4287308065
-0.2901795805 -0.1411729306 0.5538474917 4287373082
-0.2897880375 -0.1403679103 0.5531001091 4287373082
-0.2893960476 -0.1395643353 0.5523520112 4287503898
-0.2894566357 -0.1389797181 0.5524676442 4287503898
-0.2890639305 -0.1381781697 0.5517180562 4287372312
-0.2891239524 -0.1375937462 0.5518326759 4287306519
-0.2887305021 -0.1367942095 0.5510817170 4287240726
-0.2883366346 -0.1359961331 0.5503299236 4287174933
-0.2883957922 -0.1354124546 0.5504428744 4287240469
-0.2880011797 -0.1346164346 0.5496896505 4287240469
-0.2880597711 -0.1340329498 0.5498015285 4287371542
-0.2881181538 -0.1334491223 0.5499129295 4287371542
-0.2877224684 -0.1326557100 0.5491577387 4287502358
-0.2873263955 -0.1318637729 0.5484017730 4287568151
-0.2873838842 -0.1312807202 0.5485115051 4287503128
-0.2874411643 -0.1306973249 0.5486208200 4287503128
-0.2870440185 -0.1299080253 0.5478627682 4287503128
-0.2871007025 -0.1293248683 0.5479710102 4287503128
-0.2871572077 -0.1287413538 0.5480788350 4287437335
-0.2867589891 -0.1279547065 0.5473188162 4287371542
-0.2868148983 -0.1273714304 0.5474255681 4287305749
-0.2868705988 -0.1267878115 0.5475318432 4287305749
-0.2869260609 -0.1262038648 0.5476377010 4287305749
-0.2865264714 -0.1254204959 0.5468750000 4287305749
-0.2865813673 -0.1248367876 0.5469797850 4287436565
-0.2861810625 -0.1240555197 0.5462157130 4287502358
-0.2862353921 -0.1234720796 0.5463194251 4287568151
-0.2862895131 -0.1228883043 0.5464227200 4287699737
-0.2863433659 -0.1223041937 0.5465255380 4287699737
-0.2863970101 -0.1217197627 0.5466278791 4287765530
-0.2864503860 -0.1211349964 0.5467298031 4287831323
-0.2865035534 -0.1205499098 0.5468312502 4287831323
-0.2870120406 -0.1201552153 0.5478017926 4287830810
-0.2870648205 -0.1195685491 0.5479025245 4288028189
-0.2875730693 -0.1191704124 0.5488725901 4288356640
-0.2880812585 -0.1187700927 0.5498425364 4288356640
-0.2881334722 -0.1181805953 0.5499421954 4288356640
-0.2881854475 -0.1175907776 0.5500414371 4288422433
-0.2882371843 -0.1170006394 0.5501401424 4288291361
-0.2887448370 -0.1165943816 0.5511090159 4288291361
-0.2892523706 -0.1161859334 0.5520777702 4288357154
-0.2893035412 -0.1155929789 0.5521754622 4288422947
-0.2902672589 -0.1153624803 0.5540148020 4288488224
-0.2907745838 -0.1149474829 0.5549830794 4288356638
-0.2908252478 -0.1143507734 0.5550798178 4288290845
-0.2913323045 -0.1139323413 0.5560475588 4288290845
-0.2918392718 -0.1135117188 0.5570151806 4288160029
-0.2923461497 -0.1130889133 0.5579826236 4288094236
-0.2923960686 -0.1124881580 0.5580779314 4287962650
-0.2924457192 -0.1118870899 0.5581727028 4287962650
-0.2929521501 -0.1114596054 0.5591393113 4288094236
-0.2934585214 -0.1110299379 0.5601057410 4288160029
-0.2939647436 -0.1105980873 0.5610719919 4288160029
-0.2940136492 -0.1099929884 0.5611653328 4288291615
-0.2949769497 -0.1097278297 0.5630038977 4288620580
-0.2954829037 -0.1092894226 0.5639695525 4288817959
-0.2955312431 -0.1086805984 0.5640618801 4289081131
-0.2960369289 -0.1082387641 0.5650269985 4289015338
-0.2965424657 -0.1077947542 0.5659919381 4289015336
-0.2970479131 -0.1073485538 0.5669566393 4289015336
-0.2970954776 -0.1067357138 0.5670474172 4289015336
-0.2976006269 -0.1062860936 0.5680115819 4289146922
-0.2981056571 -0.1058342904 0.5689755082 4289344301
-0.2986105978 -0.1053803116 0.5699391961 4289410094
-0.2986573279 -0.1047634631 0.5700284243 4289410604
-0.2987038195 -0.1041463315 0.5701171756 4289542190
-0.2992082536 -0.1036876962 0.5710799098 4289477168
-0.2992542982 -0.1030690372 0.5711677670 4289542961
-0.2997584045 -0.1026069894 0.5721299648 4289739570
-0.2998039722 -0.1019868180 0.5722169876 4289739570
-0.3003077805 -0.1015213579 0.5731785297 4289739057
-0.3003529012 -0.1008996740 0.5732646585 4289673264
-0.3008564115 -0.1004308090 0.5742256641 4289541680
-0.3013597429 -0.0999597609 0.5751863718 4289475887
-0.3014042079 -0.0993353426 0.5752712488 4289410096
-0.3019072413 -0.0988608971 0.5762313008 4289278510
-0.3024101257 -0.0983842686 0.5771911740 4289343533
-0.3024539351 -0.0977571234 0.5772747397 4289146154
-0.3029564917 -0.0972770974 0.5782339573 4289211947
-0.3034589291 -0.0967949033 0.5791929364 4289409326
-0.3044203520 -0.0964560062 0.5810279250 4288886573
-0.3049225807 -0.0959685072 0.5819864869 4289083952
-0.3054246306 -0.0954788253 0.5829447508 4289281857
-0.3063859046 -0.0951296017 0.5847795010 4290268752
-0.3073471785 -0.0947762877 0.5866141319 4290142816
-0.3083083928 -0.0944188982 0.5884488225 4293300880
-0.3448704779 -0.2047814429 0.6596308947 4289428610
-0.3445103765 -0.2038354874 0.6589421034 4288375922
-0.3441497982 -0.2028907686 0.6582524180 4289094760
-0.3433416784 -0.2016847134 0.6567067504 4288765795
-0.3425328732 -0.2004816830 0.6551597714 4288764765
-0.3412761092 -0.1990208328 0.6527559161 4288567386
-0.3382288516 -0.1965249926 0.6469274759 4288565328
-0.3315997720 -0.1919685304 0.6342481375 4288236363
-0.3182529509 -0.1835655123 0.6087197661 4288366147
-0.3102720082 -0.1783027947 0.5934546590 4288168768
-0.3058695197 -0.1751228273 0.5850340724 4288233019
-0.3032563925 -0.1729822457 0.5800359249 4288167226
-0.3015378416 -0.1713611484 0.5767489076 4288231990
-0.3002663553 -0.1700004637 0.5743169188 4288100404
-0.2994422913 -0.1688975394 0.5727407336 4288099636
-0.2981691658 -0.1675458103 0.5703056455 4288099636
-0.2973436713 -0.1664500535 0.5687267780 4288164916
-0.2969661355 -0.1656076163 0.5680046082 4288164916
-0.2965881526 -0.1647665352 0.5672816634 4287903025
-0.2953121066 -0.1634300649 0.5648410320 4287903025
-0.2962797880 -0.1633359492 0.5666918755 4288165431
-0.2954515815 -0.1622515023 0.5651077628 4288297017
-0.2950718701 -0.1614159197 0.5643814802 4288364865
-0.2946917415 -0.1605817080 0.5636544228 4289022795
-0.2952098250 -0.1602366567 0.5646453500 4289025107
-0.2943795919 -0.1591604203 0.5630573630 4289025107
-0.2944478095 -0.1585715562 0.5631878376 4288893521
-0.2945157886 -0.1579822749 0.5633178949 4288827728
-0.2945835590 -0.1573926061 0.5634475350 4288696399
-0.2942012548 -0.1565631181 0.5627163053 4288433227
-0.2942684889 -0.1559735388 0.5628448725 4288235589
-0.2943354845 -0.1553835422 0.5629729629 4287972417
-0.2939520776 -0.1545564532 0.5622397065 4288298044
-0.2940185368 -0.1539665610 0.5623667836 4288166458
-0.2940847576 -0.1533762664 0.5624934435 4288558647
-0.2937003076 -0.1525516063 0.5617581010 4288361268
-0.2937659621 -0.1519614309 0.5618836880 4288032560
-0.2938314080 -0.1513708532 0.5620088577 4287900974
-0.2929950953 -0.1503173560 0.5604093075 4287835181
-0.2935107648 -0.1499581635 0.5613955855 4287835181
-0.2931244671 -0.1491378695 0.5606567264 4287900715
-0.2927377522 -0.1483190060 0.5599170327 4287900715
-0.2928017676 -0.1477291882 0.5600394607 4287834922
-0.2924143076 -0.1469122767 0.5592983365 4287834922
-0.2924777567 -0.1463226080 0.5594197512 4287834922
-0.2916380763 -0.1452827603 0.5578137040 4287834922
-0.2917008996 -0.1446941495 0.5579338670 4287769129
-0.2913118303 -0.1438820809 0.5571897030 4287637543
-0.2909223437 -0.1430714577 0.5564447641 4287505957
-0.2905324399 -0.1422622949 0.5556989908 4287374371
-0.2901421189 -0.1414545625 0.5549523830 4287439904
-0.2892993391 -0.1404288858 0.5533404350 4287374111
-0.2889080942 -0.1396249980 0.5525920391 4287504927
-0.2889686227 -0.1390401572 0.5527078509 4287439134
-0.2890289426 -0.1384549439 0.5528231859 4287438877
-0.2886365950 -0.1376536191 0.5520728230 4287373084
-0.2882438600 -0.1368537545 0.5513216257 4287307291
-0.2883032858 -0.1362692863 0.5514352918 4287307291
-0.2879098058 -0.1354714632 0.5506826639 4287372314
-0.2879686952 -0.1348871887 0.5507953167 4287372314
-0.2875744700 -0.1340914071 0.5500412583 4287437594
-0.2876327932 -0.1335073411 0.5501528382 4287437594
-0.2872378528 -0.1327136010 0.5493974090 4287568921
-0.2868424654 -0.1319213361 0.5486412048 4287634714
-0.2868999243 -0.1313380599 0.5487510562 4287700507
-0.2869571447 -0.1307544261 0.5488605499 4287700507
-0.2870141268 -0.1301704496 0.5489695072 4287569180
-0.2870709002 -0.1295861304 0.5490781069 4287503387
-0.2871274054 -0.1290014684 0.5491861701 4287437594
-0.2867300212 -0.1282135695 0.5484260917 4287306008
-0.2867859900 -0.1276291460 0.5485331416 4287306262
-0.2868417203 -0.1270443648 0.5486397147 4287240469
-0.2864432633 -0.1262591630 0.5478776097 4287305749
-0.2864984274 -0.1256746352 0.5479831696 4287305749
-0.2860992551 -0.1248915270 0.5472196341 4287305749
-0.2861538827 -0.1243072525 0.5473241210 4287371542
-0.2862082422 -0.1237226427 0.5474281311 4287437335
-0.2862623930 -0.1231377050 0.5475316644 4287503128
-0.2863163054 -0.1225524321 0.5476347804 4287765530
-0.2863699794 -0.1219668314 0.5477374792 4287765530
-0.2864234149 -0.1213809028 0.5478396416 4287831323
-0.2864766121 -0.1207946464 0.5479414463 4287897116
-0.2865295708 -0.1202080622 0.5480427146 4287962909
-0.2870371938 -0.1198110282 0.5490136147 4288028702
-0.2875447273 -0.1194118038 0.5499843955 4288160288
-0.2875971496 -0.1188223884 0.5500846505 4288226081
-0.2881044447 -0.1184197217 0.5510549545 4288291874
-0.2881564796 -0.1178287342 0.5511544347 4288357667
-0.2882082462 -0.1172374189 0.5512534976 4288423460
-0.2887151539 -0.1168300584 0.5522230268 4288555046
-0.2892220020 -0.1164205149 0.5531924367 4288555046
-0.2897287309 -0.1160087883 0.5541617274 4288489253
-0.2897797823 -0.1154134050 0.5542593598 4288422947
-0.2902862728 -0.1149982363 0.5552281141 4288357154
-0.2907927036 -0.1145808771 0.5561967492 4288291361
-0.2908431590 -0.1139826775 0.5562932491 4288291361
-0.2913493216 -0.1135618910 0.5572614074 4288357154
-0.2918553948 -0.1131389141 0.5582293868 4288422947
-0.2919052839 -0.1125379056 0.5583247542 4288095265
-0.2924110889 -0.1121115014 0.5592921972 4288095265
-0.2929167747 -0.1116828993 0.5602594614 4288423458
-0.2934224010 -0.1112521216 0.5612265468 4288489251
-0.2934715152 -0.1106470674 0.5613204837 4288489251
-0.2939768434 -0.1102128550 0.5622870326 4288752423
-0.2944820821 -0.1097764596 0.5632534027 4289081388
-0.2954438627 -0.1095071286 0.5650929809 4289147181
-0.2954922616 -0.1088971049 0.5651856065 4289344560
-0.2959972024 -0.1084541529 0.5661513805 4289278767
-0.2965020239 -0.1080090106 0.5671169162 4289279021
-0.2970067263 -0.1075616926 0.5680822730 4289279021
-0.2970543206 -0.1069476455 0.5681733489 4289279021
-0.2975587547 -0.1064969003 0.5691381097 4289279021
-0.2976059020 -0.1058813184 0.5692282915 4289344814
-0.2985672355 -0.1055888459 0.5710670948 4289344814
-0.2986140251 -0.1049707979 0.5711565614 4289345582
-0.2986605465 -0.1043524519 0.5712454915 4289477168
-0.2987067997 -0.1037338227 0.5713340044 4289542707
-0.2987528145 -0.1031149104 0.5714219809 4289608500
-0.2992561162 -0.1026526690 0.5723846555 4289674293
-0.2993016541 -0.1020322293 0.5724717975 4289674293
-0.2998046577 -0.1015665829 0.5734338760 4289739572
-0.2998497486 -0.1009446308 0.5735201240 4289739572
-0.3003524244 -0.1004755720 0.5744815469 4289673779
-0.3008549809 -0.1000043303 0.5754427910 4289673779
-0.3013574183 -0.0995309055 0.5764037967 4289607732
-0.3014016449 -0.0989049971 0.5764883757 4289541939
-0.3019037247 -0.0984281749 0.5774487257 4289476146
-0.3024056852 -0.0979491696 0.5784088373 4289344560
-0.3024492562 -0.0973205343 0.5784921646 4289410096
-0.3029508591 -0.0968381315 0.5794515610 4289673268
-0.3043691218 -0.0966446474 0.5821642876 4289215799
-0.3048706055 -0.0961559862 0.5831234455 4289018420
-0.3053719401 -0.0956651494 0.5840823054 4289084737
-0.3058731258 -0.0951721370 0.5850409269 4290203218
-0.3068327904 -0.0948186740 0.5868765116 4289880673
-0.3077924550 -0.0944611356 0.5887120366 4293367702
-0.3433917761 -0.2043374777 0.6582008004 4289298568
-0.3430321217 -0.2033929229 0.6575114131 4288377466
-0.3422258198 -0.2021860182 0.6559659243 4289226346
-0.3418651223 -0.2012448609 0.6552745700 4288831588
-0.3410575390 -0.2000431269 0.6537266374 4288764765
-0.3402492702 -0.1988444328 0.6521773934 4288567386
-0.3376537859 -0.1966085285 0.6472024322 4288631121
-0.3319295347 -0.1925685257 0.6362304091 4288236363
-0.3199462593 -0.1849350631 0.6132612824 4288365892
-0.3110855520 -0.1791508943 0.5962774158 4288102720
-0.3062438667 -0.1757104248 0.5869970322 4288298812
-0.3031882942 -0.1733115613 0.5811402202 4288233019
-0.3014728129 -0.1716889292 0.5778521299 4288297785
-0.3002036810 -0.1703268141 0.5754194260 4288034613
-0.2980386317 -0.1684637070 0.5712695718 4288033843
-0.2990055978 -0.1683734953 0.5731230378 4288033843
-0.2977341712 -0.1670234650 0.5706859827 4288099636
-0.2969097197 -0.1659286469 0.5691056848 4288099636
-0.2960846126 -0.1648369730 0.5675241947 4287903025
-0.2952588499 -0.1637484580 0.5659413934 4287968818
-0.2957769036 -0.1634058505 0.5669343472 4288164916
-0.2949501574 -0.1623209715 0.5653496981 4288296502
-0.2950195074 -0.1617308408 0.5654826164 4288364352
-0.2946401834 -0.1608954072 0.5647555590 4289022282
-0.2947089970 -0.1603053510 0.5648874044 4288959314
-0.2943288982 -0.1594717801 0.5641589165 4288959314
-0.2943971455 -0.1588817984 0.5642897487 4288893267
-0.2944651842 -0.1582913995 0.5644201040 4288893267
-0.2940840125 -0.1574602127 0.5636895299 4288696399
-0.2941515148 -0.1568699032 0.5638188720 4288433227
-0.2942187786 -0.1562791765 0.5639477968 4288235589
-0.2942858040 -0.1556880623 0.5640763044 4287972417
-0.2939032316 -0.1548597515 0.5633429885 4288363837
-0.2939697206 -0.1542687267 0.5634704828 4288232251
-0.2940360010 -0.1536773145 0.5635975003 4288558647
-0.2936523557 -0.1528514177 0.5628620982 4288361268
-0.2937180698 -0.1522601098 0.5629880428 4288032560
-0.2933336496 -0.1514361352 0.5622512698 4287835181
-0.2933988273 -0.1508449316 0.5623761415 4287704365
-0.2930136621 -0.1500228941 0.5616378784 4287704365
-0.2930782735 -0.1494318098 0.5617617369 4287835181
-0.2926923633 -0.1486117095 0.5610220432 4287835181
-0.2923060358 -0.1477930397 0.5602815151 4287900715
-0.2923697531 -0.1472026259 0.5604037046 4287900715
-0.2919826806 -0.1463859081 0.5596617460 4287900715
-0.2915951908 -0.1455706358 0.5589190125 4287834922
-0.2912072539 -0.1447567940 0.5581754446 4287703849
-0.2908188999 -0.1439443976 0.5574310422 4287572263
-0.2904301286 -0.1431334615 0.5566858649 4287506470
-0.2900409400 -0.1423239708 0.5559398532 4287440677
-0.2896513343 -0.1415159255 0.5551930666 4287243812
-0.2892612815 -0.1407093257 0.5544455051 4287243812
-0.2888708413 -0.1399042010 0.5536970496 4287374884
-0.2884799540 -0.1391005367 0.5529478788 4287374884
-0.2885402441 -0.1385150999 0.5530633926 4287440164
-0.2881486118 -0.1377134472 0.5523127317 4287374371
-0.2882083356 -0.1371281892 0.5524272323 4287308576
-0.2878159881 -0.1363285631 0.5516751409 4287308576
-0.2874232233 -0.1355304122 0.5509223342 4287373342
-0.2874820530 -0.1349459141 0.5510351062 4287307549
-0.2875406444 -0.1343610585 0.5511474013 4287307036
-0.2871468365 -0.1335655153 0.5503925681 4287307036
-0.2872048616 -0.1329808682 0.5505037904 4287438108
-0.2868103087 -0.1321873665 0.5497475266 4287503901
-0.2868677974 -0.1316029280 0.5498577356 4287569693
-0.2869250774 -0.1310181469 0.5499675274 4287569693
-0.2865294516 -0.1302272826 0.5492091775 4287569694
-0.2865861654 -0.1296427250 0.5493178964 4287438108
-0.2866426408 -0.1290578246 0.5494261384 4287372314
-0.2866988778 -0.1284725815 0.5495339632 4287240728
-0.2863018811 -0.1276849508 0.5487729907 4287240728
-0.2863575518 -0.1270999461 0.5488797426 4287306521
-0.2859598398 -0.1263144016 0.5481173396 4287371801
-0.2860149741 -0.1257296503 0.5482230186 4287371801
-0.2860698700 -0.1251445413 0.5483282804 4287306008
-0.2856710851 -0.1243617088 0.5475639105 4287371801
-0.2857254148 -0.1237768680 0.5476680398 4287503128
-0.2857795060 -0.1231916919 0.5477717519 4287634714
-0.2858333886 -0.1226061806 0.5478749871 4287700507
-0.2858870029 -0.1220203415 0.5479778051 4287832093
-0.2859404087 -0.1214341745 0.5480801463 4287832093
-0.2859935462 -0.1208476797 0.5481820107 4287832093
-0.2865005136 -0.1204517484 0.5491537452 4287963679
-0.2865532935 -0.1198636740 0.5492548943 4287963679
-0.2870600224 -0.1194642931 0.5502261519 4288029472
-0.2875666618 -0.1190627292 0.5511972904 4288095265
-0.2876188755 -0.1184718162 0.5512973666 4288095265
-0.2876708508 -0.1178805828 0.5513970256 4288161058
-0.2877225876 -0.1172890291 0.5514961481 4288358437
-0.2886832952 -0.1170658618 0.5533376336 4288555816
-0.2891894281 -0.1166552231 0.5543076992 4288620839
-0.2892406583 -0.1160599068 0.5544059277 4288555046
-0.2892916501 -0.1154642776 0.5545036793 4288423462
-0.2897973359 -0.1150489450 0.5554729700 4288423462
-0.2903029621 -0.1146314219 0.5564421415 4288423462
-0.2903533876 -0.1140329838 0.5565387607 4288423462
-0.2908587456 -0.1136120185 0.5575073957 4288489255
-0.2913639843 -0.1131888777 0.5584758520 4288555048
-0.2918691635 -0.1127635390 0.5594441891 4288358437
-0.2919188440 -0.1121610403 0.5595393777 4288424230
-0.2924237251 -0.1117322743 0.5605071187 4288555816
-0.2929285467 -0.1113013178 0.5614747405 4288753195
-0.2934332490 -0.1108681709 0.5624421239 4288884781
-0.2934821546 -0.1102616265 0.5625358820 4289147953
-0.2939865887 -0.1098250523 0.5635027289 4289345330
-0.2949467897 -0.1095556170 0.5653432012 4289345330
-0.2954510748 -0.1091137305 0.5663098693 4289607732
-0.2954992652 -0.1085022092 0.5664021969 4289476146
-0.2960032821 -0.1080568880 0.5673682690 4289410353
-0.2965071797 -0.1076093763 0.5683341622 4289410353
-0.2970109880 -0.1071596891 0.5692998171 4289410353
-0.2975146770 -0.1067078039 0.5702652335 4289410353
-0.2975618541 -0.1060910225 0.5703557134 4289410607
-0.2980652452 -0.1056357250 0.5713205934 4289344814
-0.2981119752 -0.1050174087 0.5714101791 4289279535
-0.2986150682 -0.1045586839 0.5723744631 4289411121
-0.2986613512 -0.1039388478 0.5724632144 4289411634
-0.2987073958 -0.1033187211 0.5725514293 4289477427
-0.2987531722 -0.1026983112 0.5726391673 4289543222
-0.2992555499 -0.1022336930 0.5736021399 4289543222
-0.2993008792 -0.1016117632 0.5736889839 4289608502
-0.2998029292 -0.1011437401 0.5746513009 4289542709
-0.2998477817 -0.1005202979 0.5747373104 4289608502
-0.3008067012 -0.1002011374 0.5765752792 4289608502
-0.3008511662 -0.0995752439 0.5766605139 4289608502
-0.3013526499 -0.0990994424 0.5776217580 4289608502
-0.3013966382 -0.0984720364 0.5777060986 4289608504
-0.3018977940 -0.0979928374 0.5786666870 4289542711
-0.3023988008 -0.0975114554 0.5796270370 4289608502
-0.3028996885 -0.0970278904 0.5805870891 4289871674
-0.3038580716 -0.0966877714 0.5824240446 4288953656
-0.3043587208 -0.0961989015 0.5833836794 4288756277
-0.3053169847 -0.0958515629 0.5852204561 4289151558
-0.3058174551 -0.0953573883 0.5861797333 4290401625
-0.3067756295 -0.0950028300 0.5880163312 4290275433
-0.3414701223 -0.2036274970 0.6559138298 4289169039
-0.3411108255 -0.2026852369 0.6552236676 4288379523
-0.3407510817 -0.2017442435 0.6545326114 4289423984
-0.3403908312 -0.2008044869 0.6538406610 4288831847
-0.3395844698 -0.1996040642 0.6522917747 4288764510
-0.3361028731 -0.1968403161 0.6456041932 4288567131
-0.3388614655 -0.1977326870 0.6509029865 4288434258
-0.3318095505 -0.1929095984 0.6373572946 4288171086
-0.3211851418 -0.1860472411 0.6169493794 4288300614
-0.3065394461 -0.1769094616 0.5888171196 4288037442
-0.3119702041 -0.1793778390 0.5992488265 4288298814
-0.3031179905 -0.1736410409 0.5822450519 4288233021
-0.3014056087 -0.1720168591 0.5789558291 4288297531
-0.2996921837 -0.1703993529 0.5756645203 4288034359
-0.2979776263 -0.1687885523 0.5723711848 4288033845
-0.2989431322 -0.1686974466 0.5742257237 4288033845
-0.2972270548 -0.1670947224 0.5709294677 4288099638
-0.2968511283 -0.1662498266 0.5702073574 4288099638
-0.2960276008 -0.1651568264 0.5686254501 4287903025
-0.2956506908 -0.1643155813 0.5679014325 4287968818
-0.2952733636 -0.1634756923 0.5671766400 4288164916
-0.2948955894 -0.1626371741 0.5664510131 4288230709
-0.2945173979 -0.1618000269 0.5657245517 4288298559
-0.2941387594 -0.1609642655 0.5649972558 4288890696
-0.2942075133 -0.1603739858 0.5651292801 4288827728
-0.2942760289 -0.1597833037 0.5652609468 4288893521
-0.2938963175 -0.1589498967 0.5645315647 4288959060
-0.2939642966 -0.1583592743 0.5646621585 4288893267
-0.2940320671 -0.1577682495 0.5647922754 4288696399
-0.2936512530 -0.1569372267 0.5640608668 4288433227
-0.2937184870 -0.1563462913 0.5641899705 4288235589
-0.2937854528 -0.1557549387 0.5643185973 4287972417
-0.2938522100 -0.1551631987 0.5644468665 4288363837
-0.2934700251 -0.1543350667 0.5637127161 4288232251
-0.2935362458 -0.1537434161 0.5638399124 4288493111
-0.2936022282 -0.1531513631 0.5639666319 4288361525
-0.2932189703 -0.1523256600 0.5632304549 4288033330
-0.2932843864 -0.1517337263 0.5633561611 4287901744
-0.2933495939 -0.1511413902 0.5634813905 4287901744
-0.2925159335 -0.1500875652 0.5618799925 4287901744
-0.2925804853 -0.1494962573 0.5620040298 4287835951
-0.2926447988 -0.1489045769 0.5621275902 4287835951
-0.2922592759 -0.1480846703 0.5613870621 4287901228
-0.2918733358 -0.1472661942 0.5606456995 4287901228
-0.2919367850 -0.1466751546 0.5607675910 4287901228
-0.2915500998 -0.1458586454 0.5600247979 4287835435
-0.2907129526 -0.1448193938 0.5584167838 4287703849
-0.2907754481 -0.1442299485 0.5585368276 4287572263
-0.2903874815 -0.1434177607 0.5577915907 4287441191
-0.2899990976 -0.1426070333 0.5570455790 4287375398
-0.2896102965 -0.1417977512 0.5562987328 4287310120
-0.2887705564 -0.1407703012 0.5546857715 4287310120
-0.2883808315 -0.1399648488 0.5539371371 4287310120
-0.2879906893 -0.1391608566 0.5531876683 4287375913
-0.2880508900 -0.1385751963 0.5533033609 4287441191
-0.2876600027 -0.1377732158 0.5525525212 4287375398
-0.2877196670 -0.1371877491 0.5526670814 4287440677
-0.2873280346 -0.1363877952 0.5519148111 4287374884
-0.2869359851 -0.1355893165 0.5511617661 4287440164
-0.2869947553 -0.1350045949 0.5512746572 4287308578
-0.2870533168 -0.1344195008 0.5513871312 4287242272
-0.2871116400 -0.1338340640 0.5514991879 4287176479
-0.2867182195 -0.1330387443 0.5507434607 4287307549
-0.2863243520 -0.1322449297 0.5499869585 4287307549
-0.2863818109 -0.1316602677 0.5500972867 4287438622
-0.2864390314 -0.1310752481 0.5502071977 4287438622
-0.2864960134 -0.1304898858 0.5503166318 4287504417
-0.2861007750 -0.1296992749 0.5495575070 4287438624
-0.2861572206 -0.1291141361 0.5496658683 4287307036
-0.2862134278 -0.1285286546 0.5497738123 4287241243
-0.2858171463 -0.1277407110 0.5490126610 4287175450
-0.2858727872 -0.1271554679 0.5491195321 4287241243
-0.2854757607 -0.1263696104 0.5483568907 4287372315
-0.2855308354 -0.1257846206 0.5484627485 4287372315
-0.2855857015 -0.1251992881 0.5485680699 4287372315
-0.2856403291 -0.1246136129 0.5486729741 4287438108
-0.2856946886 -0.1240276024 0.5487774611 4287569180
