VERSION 0.7
FIELDS x y z rgba
SIZE 4 4 4 4
TYPE F F F U
COUNT 1 1 1 1
WIDTH 920
HEIGHT 1
VIEWPOINT 0.0 0.0 0.0 1.0 0.0 0.0 0.0
POINTS 920
DATA ascii
-0.2411640137 -0.0563787036 0.5432037711 4282072126
-0.2411869168 -0.0557804629 0.5432553887 4281940540
-0.2412095815 -0.0551820546 0.5433064103 4282269507
-0.2412320077 -0.0545834750 0.5433569551 4282532679
-0.2412541807 -0.0539847314 0.5434069037 4282532680
-0.2412761301 -0.0533858202 0.5434563160 4282598473
-0.2417020202 -0.0528751686 0.5444155931 4282795851
-0.2413192838 -0.0521875173 0.5435535312 4282795851
-0.2413405031 -0.0515881255 0.5436013341 4282862163
-0.2413614839 -0.0509885773 0.5436486006 4282664784
-0.2413822263 -0.0503888763 0.5436953306 4282335817
-0.2414027154 -0.0497890189 0.5437414646 4282204231
-0.2414229661 -0.0491890088 0.5437870622 4282467403
-0.2410385609 -0.0485074595 0.5429211855 4282533196
-0.2410582900 -0.0479081571 0.5429656506 4282401612
-0.2410777807 -0.0473087095 0.5430095792 4282335819
-0.2415015548 -0.0467874855 0.5439640880 4282467405
-0.2415205985 -0.0461867452 0.5440069437 4282598991
-0.2415393889 -0.0455858633 0.5440493226 4282598991
-0.2415579408 -0.0449848399 0.5440911055 4282598991
-0.2415762544 -0.0443836786 0.5441323519 4282795600
-0.2415943146 -0.0437823832 0.5441730022 4282795600
-0.2416121364 -0.0431809537 0.5442131758 4282795602
-0.2416297197 -0.0425793901 0.5442527533 4282795602
-0.2416470498 -0.0419776961 0.5442917943 4282992977
-0.2420689464 -0.0414451845 0.5452420712 4282927184
-0.2416809946 -0.0407739282 0.5443682671 4282862161
-0.2421024442 -0.0402391441 0.5453175306 4282796368
-0.2417139411 -0.0395696610 0.5444424748 4282927954
-0.2417300493 -0.0389673412 0.5444787741 4283191126
-0.2417459190 -0.0383649059 0.5445144773 4283256921
-0.2417615354 -0.0377623513 0.5445497036 4283388507
-0.2417769134 -0.0371596813 0.5445843339 4283783265
-0.2417920530 -0.0365568958 0.5446184278 4283191128
-0.2418069243 -0.0359539986 0.5446519256 4283388507
-0.2422266304 -0.0354102068 0.5455972552 4283125335
-0.2422410548 -0.0348060802 0.5456297398 4283059542
-0.2422552109 -0.0342018455 0.5456616282 4283520093
-0.2422691435 -0.0335975066 0.5456930399 4283519839
-0.2422828227 -0.0329930671 0.5457237959 4283322460
-0.2422962487 -0.0323885232 0.5457540751 4288586152
-0.2423094362 -0.0317838825 0.5457837582 4290757321
-0.2431328148 -0.0312834196 0.5476383567 4284901744
-0.2439560294 -0.0307788141 0.5494925976 4282862161
-0.2459948659 -0.0304204188 0.5540849566 4285822846
-0.2476283759 -0.0300027076 0.5577642918 4291217872
-0.2413792312 -0.1740553677 0.5450521111 4291087062
-0.2414451092 -0.1734971255 0.5452008843 4290889683
-0.2411219180 -0.1726599336 0.5444710851 4290955476
-0.2411873490 -0.1721016765 0.5446188450 4290823890
-0.2412526011 -0.1715429574 0.5447661877 4290691790
-0.2413176745 -0.1709837914 0.5449131131 4290428618
-0.2413825840 -0.1704241782 0.5450596809 4290099653
-0.2414472997 -0.1698641181 0.5452058315 4289639102
-0.2415118366 -0.1693035960 0.5453515649 4289178551
-0.2415762097 -0.1687426269 0.5454968810 4288718000
-0.2416403890 -0.1681812108 0.5456418395 4287862431
-0.2417043895 -0.1676193476 0.5457863212 4287007122
-0.2417682111 -0.1670570523 0.5459304452 4286151041
-0.2414418012 -0.1662257612 0.5451934338 4285229939
-0.2415051609 -0.1656634659 0.5453364849 4284440423
-0.2415683419 -0.1651007384 0.5454791188 4283782493
-0.2416313291 -0.1645375639 0.5456213951 4283124563
-0.2416941375 -0.1639739573 0.5457631946 4282466633
-0.2417567670 -0.1634099036 0.5459046364 4282071875
-0.2418192178 -0.1628454179 0.5460456610 4281413945
-0.2418814749 -0.1622804999 0.5461862087 4280821808
-0.2419435531 -0.1617151350 0.5463263988 4280690222
-0.2420054376 -0.1611493379 0.5464661717 4280756015
-0.2420671433 -0.1605831087 0.5466054678 4280887601
-0.2421286702 -0.1600164473 0.5467444062 4280822062
-0.2421900034 -0.1594493538 0.5468829274 4280558890
-0.2422511429 -0.1588818282 0.5470209718 4280821808
-0.2419206500 -0.1580581218 0.5462746620 4280690222
-0.2419813275 -0.1574906558 0.5464116931 4280887855
-0.2420418113 -0.1569227725 0.5465482473 4281151027
-0.2421021014 -0.1563544571 0.5466844440 4281151027
-0.2421622127 -0.1557857245 0.5468201637 4281019441
-0.2422221303 -0.1552165598 0.5469554663 4281085234
-0.2422818542 -0.1546469778 0.5470902920 4281216820
-0.2415571213 -0.1535783410 0.5454537868 4281347892
-0.2416162789 -0.1530097723 0.5455873609 4281150513
-0.2416752428 -0.1524407715 0.5457205176 4280953388
-0.2417340130 -0.1518713683 0.5458532572 4281019181
-0.2414000779 -0.1510559171 0.5450991988 4281150767
-0.2414583713 -0.1504866034 0.5452308059 4281216560
-0.2415164709 -0.1499168873 0.5453619957 4281545525
-0.2415743768 -0.1493467540 0.5454927683 4282071869
-0.2416320890 -0.1487762034 0.5456231236 4283190089
-0.2412966341 -0.1479642689 0.5448656082 4283519054
-0.2413538694 -0.1473938376 0.5449948311 4284176984
-0.2414109111 -0.1468230039 0.5451236367 4284834914
-0.2414677590 -0.1462517530 0.5452520251 4285361258
-0.2415243983 -0.1456801146 0.5453799367 4285821809
-0.2411874086 -0.1448717415 0.5446189642 4286282358
-0.2412435710 -0.1443002224 0.5447458029 4286611323
-0.2412995547 -0.1437283158 0.5448721647 4287071104
-0.2413553298 -0.1431560069 0.5449981093 4287202690
-0.2414109111 -0.1425832957 0.5451236367 4287071104
-0.2414662838 -0.1420101970 0.5452486873 4287202690
-0.2415214628 -0.1414366961 0.5453733206 4287597448
-0.2411823720 -0.1406330168 0.5446075797 4287663241
-0.2412370592 -0.1400596797 0.5447310805 4287926668
-0.2412915677 -0.1394859552 0.5448541641 4288518805
-0.2413458675 -0.1389118284 0.5449767709 4288847517
-0.2410055250 -0.1381112933 0.5442082286 4289242275
-0.2410593331 -0.1375373304 0.5443297625 4289374631
-0.2407183200 -0.1367388368 0.5435597301 4289374631
-0.2403769344 -0.1359418333 0.5427888632 4289440422
-0.2404299676 -0.1353686154 0.5429086089 4289572008
-0.2404828072 -0.1347950250 0.5430279374 4289703594
-0.2405354381 -0.1342210472 0.5431467891 4289769387
-0.2405878752 -0.1336466968 0.5432651639 4289900972
-0.2406401038 -0.1330719739 0.5433831215 4290032558
-0.2406921238 -0.1324968785 0.5435006022 4290098351
-0.2407439500 -0.1319214106 0.5436176062 4290098351
-0.2407955676 -0.1313455701 0.5437341332 4290098351
-0.2408469766 -0.1307693571 0.5438502431 4290164144
-0.2405026257 -0.1299789995 0.5430727005 4290229937
-0.2409491986 -0.1296158284 0.5440810919 4289900972
-0.2406042665 -0.1288266331 0.5433021784 4290098864
-0.2410506010 -0.1284608394 0.5443100333 4290098864
-0.2407050878 -0.1276728213 0.5435298681 4290098864
-0.2407552004 -0.1270953566 0.5436429977 4290164657
-0.2408050895 -0.1265175492 0.5437556505 4290164657
-0.2408547699 -0.1259393841 0.5438678861 4290033071
-0.2405080348 -0.1251546741 0.5430848598 4290164657
-0.2405572236 -0.1245767325 0.5431959629 4289967278
-0.2402098179 -0.1237941682 0.5424115062 4290033071
-0.2414479107 -0.1238264665 0.5452072024 4290098864
-0.2407035530 -0.1228408217 0.5435264111 4290164657
-0.2407519072 -0.1222614869 0.5436356068 4290164657
-0.2404033542 -0.1214813367 0.5428485274 4290098864
-0.2408480048 -0.1211017668 0.5438525677 4290164657
-0.2404988706 -0.1203228310 0.5430641770 4290230450
-0.2405463010 -0.1197430640 0.5431712866 4290164657
-0.2409905493 -0.1193595901 0.5441744328 4289901485
-0.2406405509 -0.1185825020 0.5433841348 4289967278
-0.2406873554 -0.1180017143 0.5434898138 4290164657
-0.2407339513 -0.1174205840 0.5435950160 4290230450
-0.2407803386 -0.1168391183 0.5436998010 4290230450
-0.2408265173 -0.1162573174 0.5438040495 4290230450
-0.2408724725 -0.1156751812 0.5439078212 4290164657
-0.2405206561 -0.1149027944 0.5431134105 4290296243
-0.2409637421 -0.1145099178 0.5441139340 4290164657
-0.2410090566 -0.1139267907 0.5442162156 4289901485
-0.2410541624 -0.1133433357 0.5443180799 4289835692
-0.2407011986 -0.1125734746 0.5435210466 4290033071
-0.2411437184 -0.1121754423 0.5445203185 4290164657
-0.2407901734 -0.1114068627 0.5437219739 4290164657
-0.2408343405 -0.1108230725 0.5438216925 4290164657
-0.2408782989 -0.1102389619 0.5439209938 4290164657
-0.2405238152 -0.1094732881 0.5431205034 4290230451
-0.2405672520 -0.1088895053 0.5432186127 4290164658
-0.2410088480 -0.1084847227 0.5442157388 4289901486
-0.2406535000 -0.1077210009 0.5434133410 4289769900
-0.2406962961 -0.1071362793 0.5435100198 4289967279
-0.2407388687 -0.1065512449 0.5436061621 4290098865
-0.2403825819 -0.1057904586 0.5428016186 4290098865
-0.2404246479 -0.1052057818 0.5428966284 4290230451
-0.2404665053 -0.1046207920 0.5429911017 4290230451
-0.2405081391 -0.1040354967 0.5430850983 4290164658
-0.2409484684 -0.1036214605 0.5440794230 4290033072
-0.2405907512 -0.1028640047 0.5432716608 4289901486
-0.2406317145 -0.1022778004 0.5433641672 4289901486
-0.2406724691 -0.1016913056 0.5434561968 4289901486
-0.2407130003 -0.1011045128 0.5435477495 4289967279
-0.2407533079 -0.1005174220 0.5436387658 4290033072
-0.2407934070 -0.0999300405 0.5437292457 4289967278
-0.2408332676 -0.0993423611 0.5438193083 4289967278
-0.2408729196 -0.0987543911 0.5439088345 4290033071
-0.2409123480 -0.0981661379 0.5439978242 4290033071
-0.2405519485 -0.0974157676 0.5431840420 4289901486
-0.2405908704 -0.0968279168 0.5432719588 4289638314
-0.2406295538 -0.0962397754 0.5433592796 4289704107
-0.2406680286 -0.0956513509 0.5434461832 4289901486
-0.2403064221 -0.0949047357 0.5426296592 4289901486
-0.2403443754 -0.0943167284 0.5427153111 4289835693
-0.2403821051 -0.0937284455 0.5428005457 4289901486
-0.2404196113 -0.0931398869 0.5428852439 4289835693
-0.2404568940 -0.0925510526 0.5429694057 4289769900
-0.2408941090 -0.0921149552 0.5439566970 4289769900
-0.2409310043 -0.0915246010 0.5440399647 4289704107
-0.2409676611 -0.0909339711 0.5441227555 4289638314
-0.2410041094 -0.0903430656 0.5442050695 4289769900
-0.2410403192 -0.0897518992 0.5442868471 4289835693
-0.2410763055 -0.0891604722 0.5443680882 4289769900
-0.2407115549 -0.0884216502 0.5435444713 4289769900
-0.2407470196 -0.0878306776 0.5436245203 4289769900
-0.2407822609 -0.0872394368 0.5437041521 4289704107
-0.2408172786 -0.0866479427 0.5437831879 4289638060
-0.2404513210 -0.0859130025 0.5429568291 4289309095
-0.2404858321 -0.0853219777 0.5430347323 4289440681
-0.2405201048 -0.0847307071 0.5431121588 4289506474
-0.2401532233 -0.0839989409 0.5422837138 4289638060
-0.2401869893 -0.0834081545 0.5423599482 4289638060
-0.2406215519 -0.0829553679 0.5433412194 4289572267
-0.2402538210 -0.0822258219 0.5425108671 4289572267
-0.2406880409 -0.0817705765 0.5434913635 4289638060
-0.2407209277 -0.0811778158 0.5435656309 4289638060
-0.2403523475 -0.0804504976 0.5427333117 4289440681
-0.2407860309 -0.0799915567 0.5437126160 4289440681
-0.2408182472 -0.0793980733 0.5437853336 4289638060
-0.2404488027 -0.0786730126 0.5429511070 4289703853
-0.2404804826 -0.0780800432 0.5430226922 4289572267
-0.2405119538 -0.0774868429 0.5430937409 4289638060
-0.2405431718 -0.0768934041 0.5431642532 4289638060
-0.2405741662 -0.0762997419 0.5432342291 4289703853
-0.2402032465 -0.0755794644 0.5423966646 4289638062
-0.2402337343 -0.0749863312 0.5424655080 4289506476
-0.2402639687 -0.0743929818 0.5425337553 4289374890
-0.2402939796 -0.0737994015 0.5426015258 4289440683
-0.2407256514 -0.0733280256 0.5435763001 4289506476
-0.2407552451 -0.0727330148 0.5436431170 4289506476
-0.2407846004 -0.0721377805 0.5437093973 4289638062
-0.2408137321 -0.0715423375 0.5437752008 4289638062
-0.2404405475 -0.0708282292 0.5429325104 4289506474
-0.2404691577 -0.0702333525 0.5429971218 4289638060
-0.2404975295 -0.0696382597 0.5430611968 4289572267
-0.2405256778 -0.0690429583 0.5431247354 4289440681
-0.2405535877 -0.0684474483 0.5431877375 4289506474
-0.2401789427 -0.0677382648 0.5423417687 4289572267
-0.2402063310 -0.0671433434 0.5424036384 4289506474
-0.2402334809 -0.0665482134 0.5424649119 4289440681
-0.2406628430 -0.0660633594 0.5434345007 4289901234
-0.2406895757 -0.0654668361 0.5434948206 4289901234
-0.2407160699 -0.0648701116 0.5435546637 4289703853
-0.2407423109 -0.0642731935 0.5436139107 4289374888
-0.2407683283 -0.0636760816 0.5436726809 4288914337
-0.2403914481 -0.0629732907 0.5428216457 4288387993
-0.2404169440 -0.0623767935 0.5428792238 4287861651
-0.2404422015 -0.0617801063 0.5429362655 4287664272
-0.2404672354 -0.0611832328 0.5429927707 4286808961
-0.2400891781 -0.0604846887 0.5421391129 4285887859
-0.2405165583 -0.0599889271 0.5431041718 4284900964
-0.2401379496 -0.0592920184 0.5422492027 4284177241
-0.2405649424 -0.0587938949 0.5432133675 4283519311
-0.2405887693 -0.0581961125 0.5432671905 4282795588
-0.2406123728 -0.0575981513 0.5433204770 4282071865
-0.2406357229 -0.0570000149 0.5433732271 4281611314
-0.2406588346 -0.0564017072 0.5434253812 4280953897
-0.2406817079 -0.0558032244 0.5434770584 4280690725
-0.2407043427 -0.0552045740 0.5435281992 4280690727
-0.2403235137 -0.0545142889 0.5426682234 4280493348
-0.2403456271 -0.0539163090 0.5427181721 4280295969
-0.2403675020 -0.0533181615 0.5427675843 4280624934
-0.2403891385 -0.0527198538 0.5428164005 4281282864
-0.2408139110 -0.0522088371 0.5437756181 4281611829
-0.2408351153 -0.0516092032 0.5438234210 4282730059
-0.2408560663 -0.0510094129 0.5438707471 4282598473
-0.2408767641 -0.0504094698 0.5439175367 4282401608
-0.2408972383 -0.0498093702 0.5439637303 4282533194
-0.2405139208 -0.0491266921 0.5430981517 4282730573
-0.2405338734 -0.0485272966 0.5431432128 4282730573
-0.2405535728 -0.0479277521 0.5431877375 4282927954
-0.2405730486 -0.0473280624 0.5432316661 4283388505
-0.2401885837 -0.0466498211 0.5423635840 4283717470
-0.2406112552 -0.0461282469 0.5433179736 4283717470
-0.2406299859 -0.0455281287 0.5433602929 4283520091
-0.2406484932 -0.0449278690 0.5434020758 4283191126
-0.2406667471 -0.0443274714 0.5434432626 4283256921
-0.2406847626 -0.0437269397 0.5434839725 4283454300
-0.2407025248 -0.0431262739 0.5435240865 4283388507
-0.2411239445 -0.0425968282 0.5444756746 4283388507
-0.2415451854 -0.0420652367 0.5454268456 4283058770
-0.2411583215 -0.0413928255 0.5445532799 4282861391
-0.2411751449 -0.0407906361 0.5445913076 4283256149
-0.2407877296 -0.0401210003 0.5437164307 4283321942
-0.2408040315 -0.0395195670 0.5437532663 4283585114
-0.2412241548 -0.0389833152 0.5447019339 4283650907
-0.2412399948 -0.0383806340 0.5447376966 4283256919
-0.2408514917 -0.0377145521 0.5438604355 4283980642
-0.2416750938 -0.0372371860 0.5457202196 4284178023
-0.2408819050 -0.0365106277 0.5439291000 4283717472
-0.2413009405 -0.0359687470 0.5448753238 4284046437
-0.2417197675 -0.0354247317 0.5458210707 4283651679
-0.2417341620 -0.0348203592 0.5458535552 4283980644
-0.2413440496 -0.0341586620 0.5449727178 4284901746
-0.2413579375 -0.0335550904 0.5450040102 4284178023
-0.2417758852 -0.0330066085 0.5459477901 4284572781
-0.2426111698 -0.0319032706 0.5478339195 4291086799
-0.2426241338 -0.0312962607 0.5478631854 4284901744
-0.2434456348 -0.0307914522 0.5497182012 4283059540
-0.2442669719 -0.0302824993 0.5515728593 4287138704
-0.2406732142 -0.1685345620 0.5448243022 4291087317
-0.2407372147 -0.1679738760 0.5449691415 4291283926
-0.2408010215 -0.1674127430 0.5451136231 4291086547
-0.2408646494 -0.1668511629 0.5452576280 4290757582
-0.2409281135 -0.1662891358 0.5454012752 4290560203
-0.2409913838 -0.1657266617 0.5455445051 4290297031
-0.2402756214 -0.1646301150 0.5439242125 4289902273
-0.2411173731 -0.1646004021 0.5458297729 4289375670
-0.2411801070 -0.1640366167 0.5459717512 4288717740
-0.2404631823 -0.1629441977 0.5443488359 4287730845
-0.2413050085 -0.1629077047 0.5462545156 4287270294
-0.2413671762 -0.1623425931 0.5463952422 4286546571
-0.2414291650 -0.1617770493 0.5465355515 4285625469
-0.2414909750 -0.1612110734 0.5466755033 4284769390
-0.2415526062 -0.1606446654 0.5468149781 4283914081
-0.2416140288 -0.1600778103 0.5469540954 4283256151
-0.2416752875 -0.1595105380 0.5470927358 4282861393
-0.2413458228 -0.1586860418 0.5463469028 4282400842
-0.2414066046 -0.1581188291 0.5464844704 4281742912
-0.2414671928 -0.1575511843 0.5466216207 4281413945
-0.2415275872 -0.1569831073 0.5467583537 4281348152
-0.2415878028 -0.1564145982 0.5468946695 4281084980
-0.2416478395 -0.1558456719 0.5470305681 4281019187
-0.2417076677 -0.1552763283 0.5471660495 4280953648
-0.2417673171 -0.1547065526 0.5473010540 4280756269
-0.2418267727 -0.1541363597 0.5474356413 4281413686
-0.2414946407 -0.1533172578 0.5466837883 4281282100
-0.2415536195 -0.1527471393 0.5468173027 4281545271
-0.2416124046 -0.1521766186 0.5469503999 4281611064
-0.2412793189 -0.1513599604 0.5461963415 4281676857
-0.2413376272 -0.1507895291 0.5463283658 4281216306
-0.2413957417 -0.1502186954 0.5464599133 4281347892
-0.2414536774 -0.1496474296 0.5465910435 4281676857
-0.2411193401 -0.1488337666 0.5458341837 4281414198
-0.2411767840 -0.1482626200 0.5459642410 4281151026
-0.2412340343 -0.1476910561 0.5460938215 4281151024
-0.2412910908 -0.1471191049 0.5462229848 4281414196
-0.2413479537 -0.1465467364 0.5463517308 4281545525
-0.2410120964 -0.1457366049 0.5455914140 4281545525
-0.2410684824 -0.1451643705 0.5457190871 4281940283
-0.2411246598 -0.1445917338 0.5458462238 4282532420
-0.2411806583 -0.1440186799 0.5459730029 4283124555
-0.2412364483 -0.1434452534 0.5460993052 4283519313
-0.2412920445 -0.1428714097 0.5462251306 4284110937
-0.2413474321 -0.1422971785 0.5463505387 4284966246
-0.2414026409 -0.1417225450 0.5464755297 4285756016
-0.2410643846 -0.1409176439 0.5457097888 4286084981
-0.2411191016 -0.1403431743 0.5458336473 4286348153
-0.2411736101 -0.1397683024 0.5459570885 4286808704
-0.2408344150 -0.1389659792 0.5451892018 4286939520
-0.2408884317 -0.1383912712 0.5453115106 4287136899
-0.2409422547 -0.1378161758 0.5454333425 4287400071
-0.2406021059 -0.1370164603 0.5446633101 4287465864
-0.2402615696 -0.1362182200 0.5438924432 4287400839
-0.2403146178 -0.1356438696 0.5440125465 4287664011
-0.2403674722 -0.1350691319 0.5441321731 4288058769
-0.2404201180 -0.1344940066 0.5442513227 4288321941
-0.2404725701 -0.1339185238 0.5443700552 4288585112
-0.2401305139 -0.1331240535 0.5435957313 4288914077
-0.2401824743 -0.1325487494 0.5437133312 4289177249
-0.2402342260 -0.1319730729 0.5438305140 4289440421
-0.2402857691 -0.1313970387 0.5439472198 4289638054
-0.2403371185 -0.1308206171 0.5440634489 4289769640
-0.2403882593 -0.1302438378 0.5441792011 4289835433
-0.2404392064 -0.1296666861 0.5442945361 4289638054
-0.2408848256 -0.1293011308 0.5453033447 4289638313
-0.2405404598 -0.1285112798 0.5445237756 4289901485
-0.2405907810 -0.1279330403 0.5446376801 4289901485
-0.2406409085 -0.1273544282 0.5447511673 4290033071
-0.2402955890 -0.1265672892 0.5439694524 4290033071
-0.2403452098 -0.1259889156 0.5440817475 4289967278
-0.2407900095 -0.1256164461 0.5450887084 4289967791
-0.2408393025 -0.1250364035 0.5452002883 4289638826
-0.2404928356 -0.1242516413 0.5444159508 4289441447
-0.2405416220 -0.1236718446 0.5445263982 4289770412
-0.2401944995 -0.1228892356 0.5437405705 4290099122
-0.2402427942 -0.1223096922 0.5438499451 4290099122
-0.2402908802 -0.1217297912 0.5439587831 4290033329
-0.2403387576 -0.1211495474 0.5440671444 4290033329
-0.2403864264 -0.1205689609 0.5441750288 4289967536
-0.2400377840 -0.1197903529 0.5433858037 4289835950
-0.2400849462 -0.1192100272 0.5434925556 4289769899
-0.2401318997 -0.1186293662 0.5435988903 4289835692
-0.2401786447 -0.1180483624 0.5437046885 4290098864
-0.2402251810 -0.1174670234 0.5438100696 4290230450
-0.2402714938 -0.1168853492 0.5439149141 4290230450
-0.2403176129 -0.1163033321 0.5440192819 4290164657
-0.2403635085 -0.1157209873 0.5441231728 4290098864
-0.2404091954 -0.1151383072 0.5442265868 4290164657
-0.2404546589 -0.1145552918 0.5443295240 4290164657
-0.2404999137 -0.1139719486 0.5444319844 4289901485
-0.2405449599 -0.1133882850 0.5445339680 4289967278
-0.2405897826 -0.1128042862 0.5446354151 4290164657
-0.2406343967 -0.1122199595 0.5447364450 4290164657
-0.2402816415 -0.1114510968 0.5439378619 4290164657
-0.2403257489 -0.1108670905 0.5440376997 4290296243
-0.2403696477 -0.1102827638 0.5441370606 4290427829
-0.2404133230 -0.1096981168 0.5442359447 4290230451
-0.2404567748 -0.1091131568 0.5443343520 4290230451
-0.2405000180 -0.1085278764 0.5444322228 4289967279
-0.2401454598 -0.1077638641 0.5436295867 4289835693
-0.2401881963 -0.1071789190 0.5437263250 4290033072
-0.2398329824 -0.1064171866 0.5429221988 4290164658
-0.2398752123 -0.1058325991 0.5430178046 4290164658
-0.2403151095 -0.1054222360 0.5440136194 4290230451
-0.2399590313 -0.1046624854 0.5432075262 4290296244
-0.2403986156 -0.1042495742 0.5442026854 4290230451
-0.2404400408 -0.1036627889 0.5442964435 4290098865
-0.2400830984 -0.1029050425 0.5434884429 4290033072
-0.2401240170 -0.1023186222 0.5435810685 4289967279
-0.2401647270 -0.1017319039 0.5436731577 4289901486
-0.2402051985 -0.1011448950 0.5437648296 4289967279
-0.2402454615 -0.1005575806 0.5438559651 4290098865
-0.2402855009 -0.0999699757 0.5439465642 4290033071
-0.2399267554 -0.0992172658 0.5431345105 4290033071
-0.2403649092 -0.0987938866 0.5441263318 4290098864
-0.2400055975 -0.0980425477 0.5433129668 4290033071
-0.2400446832 -0.0974547565 0.5434014201 4289901485
-0.2400835454 -0.0968666747 0.5434893966 4289638313
-0.2401221842 -0.0962783098 0.5435768962 4289704107
-0.2397616655 -0.0955307111 0.5427607298 4289967279
-0.2397997826 -0.0949427634 0.5428470373 4289901486
-0.2398376912 -0.0943545327 0.5429328680 4289901486
-0.2398753762 -0.0937660262 0.5430181623 4289967279
-0.2399128377 -0.0931772441 0.5431029797 4289901486
-0.2403493226 -0.0927422419 0.5440910459 4289901486
-0.2403863817 -0.0921519250 0.5441749692 4289901486
-0.2404232323 -0.0915613398 0.5442583561 4289835693
-0.2404598445 -0.0909704864 0.5443412662 4289835693
-0.2404962480 -0.0903793573 0.5444236398 4289901486
-0.2405324131 -0.0897879675 0.5445055366 4289967279
-0.2401687354 -0.0890481398 0.5436822772 4289901486
-0.2402043939 -0.0884571970 0.5437629819 4289901486
-0.2402398139 -0.0878659934 0.5438431501 4289835693
-0.2398752272 -0.0871293172 0.5430178046 4289835693
-0.2403099835 -0.0866828114 0.5440019965 4289769900
-0.2399448156 -0.0859475881 0.5431753993 4289638314
-0.2399792820 -0.0853563324 0.5432533622 4289704107
-0.2400135100 -0.0847648308 0.5433308482 4289704107
-0.2400475144 -0.0841730759 0.5434078574 4289769646
-0.2396811545 -0.0834417641 0.5425785184 4289769646
-0.2397146374 -0.0828504935 0.5426542759 4289703853
-0.2401481420 -0.0823963061 0.5436356664 4289638060
-0.2401812226 -0.0818035528 0.5437105298 4289703853
-0.2402140796 -0.0812105611 0.5437849164 4289703853
-0.2402467132 -0.0806173235 0.5438587666 4289440935
-0.2402791083 -0.0800238475 0.5439320803 4289375142
-0.2403112650 -0.0794301331 0.5440049171 4289572521
-0.2399426252 -0.0787047818 0.5431703925 4289638314
-0.2399742752 -0.0781115815 0.5432420373 4289572267
-0.2400056869 -0.0775181502 0.5433131456 4289572267
-0.2400368750 -0.0769244879 0.5433837771 4289572267
-0.2400678247 -0.0763305873 0.5434538126 4289506474
-0.2400985509 -0.0757364631 0.5435233712 4289703853
-0.2401290387 -0.0751421079 0.5435923934 4289572267
-0.2401593029 -0.0745475292 0.5436608791 4289506476
-0.2401893288 -0.0739527345 0.5437288880 4289638062
-0.2402191162 -0.0733577088 0.5437963009 4289703855
-0.2402486652 -0.0727624595 0.5438632369 4289703855
-0.2402779907 -0.0721670017 0.5439295769 4289638062
-0.2403070778 -0.0715713203 0.5439954400 4289572269
-0.2403359413 -0.0709754229 0.5440607667 4289703853
-0.2403645664 -0.0703793094 0.5441255569 4289703853
-0.2399916202 -0.0696664900 0.5432813168 4289506474
-0.2400197238 -0.0690709502 0.5433449745 4289309095
-0.2400476038 -0.0684752092 0.5434080362 4289243302
-0.2400752306 -0.0678792596 0.5434706211 4289374888
-0.2397011220 -0.0671705827 0.5426236987 4289506474
-0.2401297987 -0.0666867420 0.5435941219 4289638060
-0.2401567250 -0.0660901815 0.5436550975 4289506474
-0.2401834130 -0.0654934198 0.5437154770 4289440681
-0.2402098626 -0.0648964569 0.5437753797 4289506474
-0.2402360886 -0.0642993003 0.5438347459 4289638060
-0.2402620763 -0.0637019500 0.5438935757 4289638060
-0.2398860008 -0.0629988834 0.5430422425 4289440681
-0.2399114668 -0.0624021478 0.5430998802 4289374888
-0.2399366945 -0.0618052222 0.5431569815 4289440681
-0.2399616838 -0.0612081103 0.5432135463 4289638314
-0.2399864346 -0.0606108122 0.5432695746 4289506728
-0.2404129803 -0.0601138547 0.5442351699 4289638314
-0.2404372990 -0.0595151931 0.5442902446 4289835693
-0.2404613793 -0.0589163452 0.5443447232 4289572267
-0.2404852211 -0.0583173223 0.5443987250 4288782751
-0.2405088246 -0.0577181205 0.5444521308 4287730574
-0.2405321896 -0.0571187437 0.5445050001 4287072644
-0.2405553013 -0.0565191917 0.5445573926 4286941060
-0.2405781895 -0.0559194684 0.5446091890 4286151544
-0.2401984930 -0.0552270673 0.5437496305 4285296235
-0.2398184836 -0.0545365028 0.5428893566 4284440926
-0.2398405671 -0.0539382845 0.5429393649 4283585617
-0.2398624122 -0.0533398986 0.5429888368 4282927687
-0.2402865142 -0.0528298430 0.5439488888 4282138171
-0.2403079271 -0.0522301272 0.5439973474 4281348655
-0.2399265319 -0.0515437722 0.5431339741 4280756520
-0.2399474084 -0.0509447455 0.5431812406 4280690727
-0.2399680614 -0.0503455661 0.5432279706 4280624934
-0.2399884760 -0.0497462302 0.5432741642 4280690727
-0.2400086373 -0.0491467416 0.5433198214 4280822313
-0.2396258265 -0.0484656505 0.5424532890 4281019692
-0.2400482446 -0.0479473211 0.5434095263 4281479989
-0.2396648973 -0.0472679473 0.5425416827 4282006333
-0.2400868833 -0.0467473119 0.5434969664 4282927435
-0.2401058525 -0.0461470895 0.5435398817 4283387986
-0.2401245683 -0.0455467291 0.5435822606 4283915102
-0.2401430458 -0.0449462272 0.5436241031 4283980895
-0.2401612699 -0.0443455875 0.5436653495 4283980895
-0.2401792556 -0.0437448137 0.5437061191 4283980895
-0.2401970029 -0.0431439057 0.5437462926 4283914847
-0.2402145118 -0.0425428636 0.5437858701 4284112226
-0.2406348437 -0.0420120656 0.5447373986 4283980126
-0.2406518906 -0.0414097570 0.5447760224 4283914333
-0.2406686991 -0.0408073179 0.5448140502 4283585368
-0.2406852543 -0.0402047597 0.5448515415 4283651161
-0.2402983755 -0.0395357385 0.5439757705 4285098607
-0.2407176346 -0.0389992669 0.5449248552 4286414467
-0.2407334596 -0.0383963399 0.5449606776 4286743432
-0.2403457761 -0.0377299897 0.5440830588 4287269776
-0.2407643795 -0.0371901356 0.5450306535 4287203983
-0.2411827892 -0.0366481468 0.5459778309 4287269776
-0.2407943159 -0.0359834731 0.5450984240 4286941327
-0.2412122786 -0.0354392380 0.5460445881 4286546569
-0.2412266582 -0.0348346196 0.5460771322 4287599257
-0.2412407994 -0.0342298932 0.5461091399 4288388773
-0.2412546873 -0.0336250626 0.5461405516 4286612362
-0.2412683219 -0.0330201313 0.5461714864 4286875534
-0.2412817180 -0.0324150920 0.5462017655 4290363074
-0.2416983694 -0.0318631530 0.5471450090 4290889418
-0.2425183505 -0.0313612707 0.5490012169 4284573290
-0.2429346144 -0.0308040734 0.5499435067 4283981153
-0.2441578060 -0.0303450692 0.5527125597 4288980908
-0.2400254309 -0.1660836935 0.5447274446 4291218648
-0.2402766794 -0.1638340801 0.5452976227 4291087317
-0.2404012084 -0.1627066284 0.5455802679 4291349719
-0.2404631972 -0.1621422470 0.5457209349 4291086547
-0.2405249923 -0.1615774333 0.5458611846 4290823375
-0.2405866235 -0.1610121876 0.5460010767 4290625996
-0.2406480610 -0.1604464948 0.5461404920 4290099652
-0.2407093197 -0.1598803848 0.5462794900 4289310136
-0.2407703847 -0.1593138278 0.5464180708 4288717999
-0.2404415607 -0.1584899873 0.5456718802 4288190626
-0.2405021638 -0.1579234898 0.5458093882 4287401110
-0.2405625731 -0.1573565751 0.5459464788 4286677387
-0.2410127819 -0.1570433527 0.5469682217 4285953664
-0.2406828254 -0.1562214643 0.5462194085 4285032560
-0.2407426834 -0.1556532681 0.5463551879 4284308837
-0.2408023328 -0.1550846547 0.5464906096 4283519321
-0.2408618033 -0.1545156091 0.5466255546 4282664012
-0.2413115501 -0.1541956514 0.5476462841 4282005823
-0.2409801781 -0.1533762664 0.5468941927 4281611065
-0.2410390824 -0.1528059691 0.5470278859 4281676858
-0.2410977781 -0.1522352546 0.5471611023 4281545272
-0.2411562949 -0.1516641229 0.5472939014 4281611064
-0.2412146330 -0.1510925740 0.5474262834 4281018927
-0.2412727624 -0.1505206078 0.5475581884 4281084720
-0.2413306981 -0.1499482244 0.5476897359 4281084720
-0.2413884550 -0.1493754387 0.5478207469 4281151541
-0.2410546839 -0.1485610753 0.5470632911 4281348920
-0.2411119491 -0.1479883939 0.5471932888 4281545785
-0.2411690205 -0.1474153101 0.5473228097 4281479992
-0.2412258983 -0.1468418241 0.5474518538 4281479992
-0.2412825823 -0.1462679207 0.5475804806 4281611578
-0.2409472913 -0.1454571038 0.5468195677 4281545784
-0.2410034835 -0.1448833346 0.5469471216 4281414198
-0.2410594821 -0.1443091631 0.5470741987 4281545784
-0.2411153018 -0.1437346041 0.5472008586 4281414198
-0.2411709130 -0.1431596279 0.5473270416 4281216560
-0.2412263155 -0.1425842643 0.5474528074 4281150767
-0.2412815392 -0.1420084983 0.5475781560 4281084974
-0.2405517101 -0.1409724057 0.5459218621 4281150767
-0.2406063527 -0.1403977275 0.5460458398 4281479732
-0.2406608015 -0.1398226619 0.5461694002 4282006076
-0.2407150418 -0.1392472088 0.5462924838 4282729284
-0.2403763086 -0.1384451389 0.5455237627 4282992456
-0.2404300570 -0.1378698498 0.5456457734 4283584593
-0.2404836118 -0.1372941732 0.5457673073 4284242523
-0.2401439399 -0.1364947259 0.5449963808 4284769121
-0.2398038805 -0.1356967688 0.5442246795 4285229672
-0.2398566604 -0.1351218224 0.5443444252 4285756016
-0.2399092466 -0.1345465034 0.5444637537 4286216567
-0.2399616241 -0.1339708120 0.5445826054 4286413944
-0.2400137931 -0.1333947331 0.5447010398 4286677116
-0.2396722138 -0.1326005459 0.5439258218 4286742908
-0.2397238910 -0.1320246756 0.5440431237 4286940287
-0.2405628115 -0.1318801194 0.5459470153 4287203459
-0.2406142652 -0.1313015968 0.5460637808 4287466631
-0.2402716130 -0.1305087656 0.5452861786 4287795596
-0.2403225750 -0.1299304664 0.5454018116 4287861389
-0.2407673746 -0.1295638531 0.5464112759 4288256658
-0.2404238731 -0.1287727654 0.5456317067 4288914588
-0.2404742092 -0.1281933635 0.5457459092 4289111967
-0.2405243367 -0.1276135892 0.5458596945 4289243553
-0.2405742556 -0.1270334721 0.5459730029 4289440934
-0.2402295172 -0.1262456775 0.5451906323 4289638313
-0.2402789444 -0.1256657839 0.5453028083 4289835692
-0.2403281629 -0.1250855327 0.5454145074 4289506727
-0.2403771877 -0.1245049313 0.5455257297 4289440934
-0.2404259890 -0.1239239648 0.5456364751 4289901485
-0.2400797158 -0.1231401190 0.5448506474 4290230450
-0.2401280254 -0.1225594059 0.5449603200 4290164657
-0.2397810966 -0.1217777207 0.5441729426 4290033071
-0.2402240187 -0.1213969365 0.5451781154 4290033071
-0.2398765087 -0.1206164733 0.5443894863 4290033071
-0.2399239093 -0.1200353280 0.5444970727 4289967278
-0.2403664291 -0.1196506321 0.5455013514 4289769899
-0.2396226376 -0.1186761707 0.5438133478 4289835692
-0.2400648147 -0.1182898358 0.5448168516 4290098864
-0.2397157997 -0.1175134033 0.5440247655 4290230450
-0.2397620529 -0.1169315130 0.5441297293 4290164657
-0.2402038276 -0.1165412888 0.5451323390 4290098864
-0.2398539484 -0.1157667339 0.5443382859 4290098864
-0.2398995608 -0.1151838377 0.5444418192 4290164657
-0.2399449795 -0.1146006137 0.5445448756 4290098864
-0.2399901748 -0.1140170544 0.5446474552 4289769899
-0.2400351465 -0.1134331673 0.5447494984 4289901486
-0.2400799245 -0.1128489599 0.5448511243 4290164658
-0.2401244789 -0.1122644171 0.5449522138 4290098865
-0.2401688099 -0.1116795540 0.5450528860 4290098865
-0.2402129322 -0.1110943705 0.5451530218 4290230451
-0.2398603857 -0.1103265062 0.5443528891 4290230451
-0.2399040014 -0.1097416431 0.5444518924 4290230451
-0.2399474084 -0.1091564596 0.5445503592 4290230451
-0.2395939082 -0.1083915085 0.5437481403 4289967279
-0.2396368086 -0.1078066602 0.5438454747 4289835693
-0.2396794856 -0.1072215065 0.5439423323 4290033072
-0.2401188463 -0.1068125889 0.5449394584 4290098865
-0.2397641987 -0.1060502604 0.5441346169 4290164658
-0.2398062348 -0.1054641679 0.5442299843 4290296244
-0.2398480475 -0.1048777699 0.5443248749 4290296244
-0.2394924611 -0.1041183993 0.5435178876 4290164658
-0.2395337671 -0.1035323665 0.5436116457 4290033072
-0.2395748496 -0.1029460281 0.5437048674 4289967279
-0.2396157235 -0.1023593917 0.5437976122 4289901486
-0.2400538027 -0.1019412354 0.5447918177 4289901486
-0.2400942892 -0.1013530195 0.5448837280 4290033072
-0.2401345670 -0.1007645130 0.5449751616 4290164658
-0.2397769839 -0.1000098586 0.5441635847 4290098864
-0.2394190282 -0.0992568657 0.5433512926 4290098864
-0.2398562878 -0.0988333300 0.5443435907 4290098864
-0.2398955971 -0.0982446298 0.5444328189 4290098864
-0.2395367920 -0.0974936858 0.5436185002 4289901485
-0.2395756096 -0.0969053879 0.5437065959 4289769899
-0.2396142036 -0.0963167995 0.5437941551 4289901485
-0.2392544746 -0.0955689177 0.5429778099 4290164657
-0.2392925471 -0.0949807391 0.5430642366 4290098865
-0.2393303961 -0.0943922922 0.5431501269 4290033072
-0.2393680364 -0.0938035548 0.5432355404 4290033072
-0.2398037910 -0.0933696479 0.5442244411 4289967279
-0.2398410290 -0.0927793831 0.5443089604 4289901486
-0.2398780584 -0.0921888426 0.5443930030 4289901486
-0.2399148494 -0.0915980339 0.5444765091 4289835693
-0.2399514169 -0.0910069495 0.5445594788 4289901486
-0.2399877757 -0.0904156044 0.5446419716 4290033072
-0.2400238812 -0.0898239836 0.5447239280 4290098865
-0.2396610081 -0.0890838727 0.5439004302 4289967279
-0.2396966219 -0.0884927064 0.5439812541 4289967279
-0.2397319973 -0.0879012719 0.5440615416 4290033072
-0.2393682003 -0.0871643126 0.5432358980 4289967279
-0.2398020774 -0.0867176354 0.5442205667 4289901486
-0.2394377142 -0.0859821215 0.5433936715 4289704107
-0.2394721210 -0.0853906423 0.5434717536 4289835693
-0.2395063043 -0.0847989097 0.5435493588 4289901486
-0.2391410321 -0.0840665847 0.5427203774 4289967279
-0.2395740002 -0.0836146921 0.5437029600 4289967279
-0.2396074980 -0.0830222070 0.5437789559 4289901486
-0.2396407574 -0.0824294686 0.5438544750 4289769900
-0.2396738082 -0.0818364918 0.5439294577 4289704107
-0.2401061356 -0.0813786760 0.5449106097 4289769900
-0.2397391945 -0.0806498006 0.5440778732 4289572521
-0.2397715449 -0.0800560936 0.5441513062 4289506728
-0.2398036718 -0.0794621482 0.5442242026 4289835693
-0.2394358367 -0.0787365139 0.5433893800 4289901486
-0.2398672253 -0.0782735422 0.5443683863 4289769900
-0.2394988239 -0.0775494203 0.5435323119 4289835693
-0.2395299673 -0.0769555196 0.5436030030 4289835693
-0.2395608723 -0.0763613954 0.5436731577 4289704107
-0.2395915538 -0.0757670403 0.5437428355 4289769646
-0.2396220118 -0.0751724541 0.5438119173 4289506474
-0.2396522313 -0.0745776445 0.5438804626 4289309095
-0.2396822125 -0.0739826113 0.5439485312 4289440681
-0.2397119701 -0.0733873472 0.5440160632 4289638060
-0.2397414893 -0.0727918744 0.5440830588 4289638060
-0.2397707701 -0.0721961781 0.5441495180 4289638060
-0.2397998273 -0.0716002584 0.5442154408 4289506474
-0.2398286313 -0.0710041299 0.5442808270 4289506474
-0.2398572266 -0.0704077855 0.5443457365 4289440681
-0.2394850999 -0.0696946830 0.5435011983 4289374888
-0.2395131588 -0.0690989122 0.5435649157 4289243302
-0.2395409942 -0.0685029328 0.5436280370 4289309095
-0.2395685911 -0.0679067448 0.5436906815 4289440681
-0.2399966270 -0.0674229115 0.5446620584 4289506474
-0.2400237918 -0.0668253228 0.5447237492 4289506474
-0.2396499813 -0.0661169589 0.5438753963 4289572267
-0.2396766394 -0.0655199662 0.5439358950 4289638060
-0.2397030592 -0.0649227649 0.5439958572 4289703853
-0.2393283546 -0.0642178059 0.5431454778 4289638060
-0.2393542677 -0.0636212230 0.5432042480 4289309095
-0.2397809029 -0.0631300062 0.5441725254 4288980130
-0.2394053638 -0.0624274686 0.5433202386 4289111716
-0.2394305617 -0.0618303046 0.5433773994 4289506474
-0.2394555211 -0.0612329580 0.5434340835 4289374888
-0.2394802421 -0.0606354214 0.5434901714 4289440681
-0.2399059087 -0.0601382703 0.5444561839 4289506987
-0.2399301827 -0.0595393665 0.5445113182 4289704366
-0.2399542332 -0.0589402840 0.5445659161 4289704366
-0.2399780452 -0.0583410189 0.5446199179 4289506987
-0.2400016189 -0.0577415787 0.5446734428 4289309608
-0.2396466285 -0.0564476177 0.5438677669 4289770159
-0.2396694422 -0.0558486618 0.5439195633 4289638573
-0.2396920174 -0.0552495308 0.5439708233 4289638573
-0.2397143543 -0.0546502322 0.5440214872 4289441194
-0.2397364527 -0.0540507659 0.5440716147 4289112229
-0.2393567115 -0.0533616059 0.5432097912 4288783264
-0.2397799343 -0.0528513454 0.5441703200 4288256922
-0.2398013026 -0.0522513911 0.5442188382 4287533199
-0.2398224473 -0.0516512766 0.5442668200 4286546042
-0.2398433387 -0.0510510057 0.5443142056 4285822319
-0.2398639917 -0.0504505783 0.5443611145 4284901218
-0.2394825965 -0.0497664958 0.5434955359 4284045909
-0.2391008884 -0.0490842760 0.5426292419 4283322186
-0.2395226359 -0.0485668890 0.5435863733 4282598463
-0.2395422906 -0.0479668640 0.5436310172 4281611827
-0.2399636656 -0.0474461652 0.5445872545 4280822311
-0.2395808846 -0.0467663705 0.5437185764 4280098588
-0.2395998240 -0.0461659096 0.5437615514 4280230174
-0.2396185100 -0.0455653071 0.5438039899 4280756520
-0.2396369725 -0.0449645631 0.5438458323 4280953899
-0.2396551818 -0.0443636812 0.5438871980 4281019438
-0.2396731377 -0.0437626652 0.5439279675 4281348403
-0.2396908700 -0.0431615114 0.5439682007 4281940540
-0.2397083491 -0.0425602309 0.5440078378 4282664263
-0.2397255898 -0.0419588163 0.5440469384 4283387986
-0.2401448339 -0.0414266624 0.5449984074 4283651158
-0.2397593260 -0.0407555997 0.5441235304 4283980123
-0.2397758365 -0.0401538052 0.5441610217 4285624948
-0.2397921085 -0.0395518877 0.5441979170 4288256668
-0.2398081273 -0.0389498472 0.5442342758 4289967286
-0.2398239076 -0.0383476876 0.5442700982 4290822597
-0.2398394346 -0.0377454087 0.5443053842 4291414734
-0.2398547381 -0.0371430144 0.5443400741 4291612113
-0.2402722389 -0.0366018154 0.5452876091 4291480527
-0.2402870655 -0.0359981805 0.5453212261 4291217355
-0.2403016537 -0.0353944376 0.5453543067 4291151562
-0.2403159887 -0.0347905867 0.5453868508 4290822597
-0.2407326400 -0.0342438929 0.5463324785 4289638323
-0.2407465130 -0.0336388163 0.5463639498 4288322463
-0.2407601476 -0.0330336355 0.5463948250 4289375151
-0.2407735139 -0.0324283540 0.5464252234 4290757832
-0.2415919602 -0.0319294035 0.5482826233 4290560453
-0.2420075685 -0.0313741006 0.5492258072 4284375398
-0.2424229681 -0.0308166780 0.5501685739 4285493879
-0.2436435968 -0.0303574875 0.5529386997 4290823367
-0.2395987958 -0.1577278823 0.5451332927 4291415253
-0.2396590263 -0.1571616977 0.5452703238 4291414999
-0.2401082218 -0.1568492949 0.5462923646 4291217620
-0.2401681840 -0.1562813371 0.5464287400 4290823116
-0.2398386002 -0.1554605812 0.5456789136 4290428358
-0.2398980707 -0.1548926979 0.5458142161 4289704633
-0.2399573624 -0.1543243974 0.5459491014 4288915117
-0.2404061109 -0.1540052742 0.5469700694 4288256417
-0.2404651195 -0.1534352005 0.5471043587 4287401108
-0.2401341051 -0.1526169628 0.5463512540 4286808971
-0.2401926368 -0.1520469785 0.5464844108 4285953662
-0.2402509898 -0.1514765769 0.5466171503 4285295986
-0.2403091341 -0.1509057581 0.5467494726 4283980126
-0.2407573014 -0.1505785882 0.5477691293 4282993231
-0.2408151627 -0.1500060111 0.5479007959 4282137922
-0.2408728302 -0.1494330317 0.5480319858 4281414199
-0.2405398190 -0.1486183852 0.5472742915 4281216820
-0.2405970097 -0.1480455101 0.5474044085 4281019441
-0.2406540066 -0.1474722326 0.5475341082 4280953648
-0.2403200418 -0.1466600746 0.5467742682 4281019441
-0.2403765619 -0.1460869163 0.5469028354 4281019441
-0.2404328734 -0.1455133557 0.5470309854 4280822062
-0.2404889911 -0.1449393779 0.5471586585 4280756269
-0.2405449301 -0.1443650126 0.5472859144 4280822061
-0.2406006604 -0.1437902451 0.5474126935 4280887854
-0.2406561971 -0.1432150900 0.5475390553 4281150513
-0.2407115251 -0.1426395178 0.5476650000 4281347892
-0.2407666743 -0.1420635581 0.5477904081 4281347892
-0.2404300272 -0.1412571371 0.5470244884 4281216306
-0.2404846847 -0.1406813264 0.5471488833 4281347892
-0.2405391335 -0.1401051283 0.5472727418 4281545271
-0.2405934036 -0.1395285428 0.5473961830 4281150513
-0.2406474501 -0.1389515549 0.5475192070 4280821548
-0.2403092831 -0.1381488144 0.5467498302 4280690216
-0.2403628528 -0.1375720054 0.5468716621 4280756009
-0.2400240302 -0.1367713064 0.5461007953 4280887595
-0.2400771081 -0.1361946613 0.5462215543 4281150767
-0.2401299924 -0.1356176436 0.5463418961 4281611318
-0.2401826680 -0.1350402385 0.5464617014 4282071869
-0.2402351499 -0.1344624460 0.5465811491 4282466625
-0.2398947924 -0.1336655170 0.5458067656 4283124555
-0.2399467826 -0.1330879182 0.5459250212 4283716692
-0.2399985641 -0.1325099617 0.5460428596 4284440415
-0.2400501519 -0.1319316179 0.5461602211 4285032552
-0.2401015311 -0.1313529015 0.5462771058 4285493103
-0.2401527017 -0.1307738125 0.5463935137 4285887859
-0.2402036637 -0.1301943511 0.5465095043 4286085238
-0.2402544320 -0.1296145320 0.5466250181 4286282611
-0.2403049916 -0.1290343404 0.5467399955 4286874748
-0.2403553426 -0.1284537762 0.5468545556 4287006334
-0.2404054850 -0.1278728545 0.5469686985 4287072127
-0.2400618792 -0.1270832419 0.5461869240 4287335299
-0.2401115298 -0.1265025437 0.5462998748 4287795850
-0.2401609868 -0.1259214878 0.5464123487 4288190608
-0.2398164272 -0.1251346022 0.5456284285 4288124815
-0.2398653775 -0.1245537922 0.5457398295 4288387987
-0.2399141192 -0.1239726171 0.5458506942 4288980124
-0.2395686209 -0.1231884807 0.5450646281 4289309089
-0.2400109768 -0.1228092164 0.5460711122 4289309089
-0.2396648973 -0.1220262945 0.5452836752 4289440675
-0.2397127301 -0.1214446723 0.5453925133 4289638054
-0.2393660098 -0.1206639186 0.5446036458 4289835433
-0.2398077548 -0.1202803925 0.5456086993 4289901226
-0.2398549467 -0.1196977347 0.5457161069 4289440934
-0.2395073622 -0.1189188212 0.5449252725 4289572520
-0.2395540625 -0.1183364391 0.5450314879 4289901485
-0.2399952710 -0.1179477125 0.5460353494 4289967278
-0.2396468222 -0.1171706542 0.5452425480 4290033071
-0.2396928817 -0.1165872589 0.5453473330 4290033071
-0.2397387326 -0.1160035208 0.5454516411 4289967278
-0.2393893301 -0.1152293086 0.5446567535 4290098864
-0.2394346893 -0.1146458685 0.5447599292 4290033071
-0.2398750037 -0.1142503172 0.5457617044 4289638313
-0.2395247370 -0.1134779975 0.5449647903 4289769900
-0.2395694554 -0.1128935739 0.5450665355 4290098865
-0.2396139503 -0.1123088226 0.5451677442 4289967536
-0.2396582216 -0.1117237434 0.5452684760 4290033329
-0.2397022843 -0.1111383364 0.5453687310 4290164915
-0.2397461385 -0.1105526164 0.5454685092 4290033329
-0.2393940687 -0.1097851098 0.5446675420 4290098865
-0.2398331910 -0.1093802080 0.5456665754 4290098865
-0.2394805551 -0.1086139977 0.5448642373 4289901486
-0.2395234555 -0.1080279648 0.5449618697 4289835693
-0.2395661622 -0.1074416265 0.5450590253 4290033072
-0.2396086305 -0.1068549678 0.5451557040 4290098865
-0.2396508902 -0.1062680036 0.5452518463 4290098865
-0.2396929413 -0.1056807265 0.5453475118 4290230451
-0.2397347540 -0.1050931364 0.5454426408 4290230451
-0.2393800467 -0.1043325067 0.5446355939 4290098865
-0.2394213527 -0.1037452817 0.5447295904 4289967279
-0.2394624501 -0.1031577513 0.5448231101 4289901486
-0.2395033389 -0.1025699228 0.5449160933 4289901486
-0.2395439893 -0.1019817963 0.5450085998 4289967279
-0.2391877770 -0.1012254953 0.5441981554 4290098865
-0.2392279208 -0.1006377414 0.5442894697 4290164658
-0.2392678559 -0.1000496969 0.5443803668 4290098864
-0.2393075675 -0.0994613543 0.5444706678 4290098864
-0.2393470556 -0.0988727212 0.5445605516 4290164657
-0.2393863201 -0.0982837975 0.5446498990 4290098864
-0.2390283048 -0.0975325704 0.5438353419 4289967278
-0.2390670627 -0.0969440490 0.5439234972 4289835692
-0.2391056120 -0.0963552371 0.5440111756 4290033071
-0.2391439229 -0.0957661495 0.5440983772 4290296243
-0.2391820103 -0.0951767713 0.5441850424 4290230450
-0.2392198741 -0.0945871174 0.5442711711 4290164657
-0.2396549582 -0.0941533223 0.5452610850 4290164658
-0.2392949462 -0.0934069678 0.5444419980 4290098865
-0.2393321395 -0.0928164795 0.5445266366 4290098865
-0.2393691093 -0.0922257155 0.5446107388 4290033072
-0.2394058555 -0.0916346833 0.5446943641 4289835693
-0.2394423783 -0.0910433754 0.5447774529 4289901486
-0.2394786775 -0.0904517993 0.5448600054 4290164658
-0.2395147532 -0.0898599476 0.5449420810 4290230451
-0.2395505905 -0.0892678425 0.5450236201 4290033072
-0.2391882390 -0.0885281637 0.5441991687 4290033072
-0.2392235696 -0.0879365057 0.5442795753 4290098865
-0.2392586768 -0.0873445868 0.5443594456 4290033072
-0.2392935455 -0.0867524073 0.5444387794 4289967279
-0.2389299870 -0.0860166103 0.5436116457 4289704107
-0.2389643490 -0.0854249075 0.5436898470 4289901486
-0.2389984876 -0.0848329440 0.5437675118 4289967279
-0.2390324026 -0.0842407346 0.5438446403 4289967279
-0.2394645363 -0.0837876871 0.5448278189 4289967279
-0.2394980490 -0.0831939802 0.5449040532 4289967279
-0.2391327769 -0.0824625939 0.5440729856 4289835693
-0.2395643741 -0.0820058361 0.5450549722 4289769900
-0.2395972013 -0.0814113915 0.5451296568 4289835693
-0.2392310798 -0.0806822330 0.5442966819 4289638314
-0.2392633855 -0.0800882950 0.5443701744 4289638314
-0.2392954677 -0.0794941187 0.5444431901 4290033072
-0.2389284372 -0.0787682086 0.5436081290 4290098865
-0.2393589318 -0.0783050507 0.5445875525 4289967279
-0.2389913350 -0.0775806457 0.5437512398 4290033072
-0.2390224487 -0.0769865215 0.5438219905 4290098865
-0.2390533090 -0.0763921589 0.5438922048 4290033072
-0.2390839607 -0.0757975727 0.5439619422 4290164658
-0.2391143590 -0.0752027556 0.5440311432 4289835693
-0.2391445488 -0.0746077150 0.5440998077 4289506728
-0.2391744852 -0.0740124434 0.5441679358 4289572521
-0.2392041981 -0.0734169558 0.5442355275 4289638314
-0.2392336875 -0.0728212446 0.5443025827 4289572521
-0.2392629236 -0.0722253174 0.5443691611 4289572267
-0.2392919362 -0.0716291666 0.5444351435 4289572267
-0.2393207252 -0.0710327998 0.5445006490 4289835439
-0.2389496863 -0.0703186318 0.5436564684 4289769646
-0.2389779538 -0.0697228387 0.5437207818 4289703853
-0.2390059829 -0.0691268370 0.5437845588 4289506474
-0.2390337735 -0.0685306191 0.5438477993 4289506474
-0.2394611090 -0.0680477992 0.5448200107 4289572267
-0.2390886694 -0.0673375726 0.5439726710 4289638060
-0.2391157597 -0.0667407438 0.5440343022 4289572267
-0.2391426265 -0.0661437064 0.5440953970 4289835439
-0.2391692400 -0.0655464754 0.5441559553 4289638060
-0.2391956300 -0.0649490431 0.5442160368 4289572267
-0.2392217815 -0.0643514171 0.5442755222 4289638060
-0.2392476946 -0.0637535900 0.5443344712 4289572269
-0.2388732433 -0.0630499646 0.5434825420 4289440683
-0.2388986498 -0.0624527559 0.5435402989 4289374888
-0.2389238179 -0.0618553571 0.5435975790 4289374888
-0.2389487326 -0.0612577721 0.5436542630 4289638573
-0.2389734238 -0.0606600009 0.5437104702 4289638573
-0.2393982112 -0.0601626486 0.5446768999 4289638573
-0.2394224703 -0.0595635101 0.5447320938 4289704366
-0.2394464761 -0.0589641891 0.5447867513 4289770159
-0.2394702584 -0.0583646856 0.5448408723 4289572780
-0.2394938022 -0.0577650070 0.5448943973 4289375403
-0.2395171076 -0.0571651496 0.5449474454 4289375403
-0.2395401597 -0.0565651208 0.5449998975 4289901747
-0.2391623855 -0.0558713339 0.5441403985 4289704368
-0.2391849309 -0.0552719645 0.5441916585 4289638575
-0.2396079153 -0.0547640063 0.5451540351 4289638575
-0.2396300286 -0.0541632958 0.5452043414 4289770161
-0.2392511368 -0.0534728542 0.5443422794 4289967540
-0.2392727286 -0.0528728217 0.5443914533 4290033333
-0.2392940819 -0.0522726290 0.5444400311 4289770161
-0.2393151820 -0.0516722724 0.5444880128 4289638313
-0.2393360585 -0.0510717630 0.5445355177 4289572520
-0.2393566817 -0.0504710935 0.5445824265 4289572521
-0.2389761060 -0.0497867353 0.5437165499 4289440935
-0.2393972278 -0.0492692962 0.5446746945 4289111970
-0.2390161008 -0.0485866480 0.5438075662 4288519833
-0.2394367903 -0.0480668955 0.5447646976 4287598731
-0.2390551269 -0.0473859683 0.5438963175 4286546043
-0.2390742749 -0.0467854068 0.5439398885 4285887859
-0.2394943386 -0.0462621935 0.5448956490 4284703585
