VERSION 0.7
FIELDS x y z rgba
SIZE 4 4 4 4
TYPE F F F U
COUNT 1 1 1 1
WIDTH 920
HEIGHT 1
VIEWPOINT 0.0 0.0 0.0 1.0 0.0 0.0 0.0
POINTS 920
DATA ascii
-0.2337654382 -0.0852288529 0.5239177346 4281546303
-0.2337998003 -0.0846591815 0.5239947438 4281677889
-0.2346743196 -0.0838070959 0.5259546638 4281546303
-0.2351114154 -0.0833777338 0.5269343257 4281743682
-0.2351450771 -0.0828041211 0.5270097256 4281940291
-0.2355818897 -0.0823713169 0.5279887915 4282006084
-0.2360186130 -0.0819362924 0.5289675593 4282071877
-0.2364552170 -0.0814990550 0.5299460888 4282137670
-0.2364881486 -0.0809215158 0.5300198793 4282137670
-0.2365208566 -0.0803437382 0.5300931931 4282137670
-0.2365533412 -0.0797657147 0.5301659703 4282269256
-0.2369893193 -0.0793225914 0.5311430693 4282269256
-0.2370214015 -0.0787431151 0.5312150121 4282138186
-0.2370532602 -0.0781634003 0.5312864184 4282269772
-0.2374887764 -0.0777156204 0.5322625041 4282335819
-0.2375202328 -0.0771344528 0.5323330164 4282335819
-0.2371474653 -0.0764228627 0.5314975381 4282335817
-0.2379865199 -0.0761006325 0.5333780050 4282533196
-0.2384214401 -0.0756460056 0.5343527794 4282795598
-0.2372396141 -0.0746802762 0.5317040682 4282729805
-0.2376740873 -0.0742252022 0.5326778293 4283124817
-0.2385126948 -0.0738931671 0.5345572829 4290296254
-0.2398808300 -0.2002565563 0.5389652252 4288981169
-0.2399548739 -0.1997193545 0.5391315818 4282467401
-0.2400287539 -0.1991816461 0.5392975807 4282072643
-0.2401024848 -0.1986434460 0.5394632220 4284572003
-0.2401760668 -0.1981047541 0.5396285653 4285756277
-0.2402494848 -0.1975655705 0.5397934914 4286085240
-0.2407085150 -0.1973421425 0.5408248305 4286743170
-0.2403958738 -0.1964857131 0.5401223898 4287269514
-0.2393108606 -0.1950014830 0.5376846194 4288322202
-0.2362944931 -0.1919537336 0.5309073925 4288650906
-0.2375245094 -0.1923599839 0.5336710215 4288453527
-0.2310283631 -0.1865223348 0.5190754533 4288585372
-0.2345758379 -0.1888008267 0.5270459652 4288256407
-0.2288476527 -0.1836191416 0.5141758323 4288387993
-0.2277560234 -0.1821746975 0.5117231607 4288124821
-0.2274371535 -0.1813518852 0.5110067129 4287927442
-0.2271178961 -0.1805303544 0.5102893710 4287927442
-0.2264112234 -0.1794034392 0.5087016225 4287466891
-0.2264782339 -0.1788911521 0.5088521838 4287598477
-0.2269323468 -0.1786833555 0.5098724961 4287533199
-0.2269991636 -0.1781692952 0.5100226402 4287335820
-0.2266783416 -0.1773516089 0.5093017817 4287204234
-0.2267447412 -0.1768375188 0.5094509721 4287072648
-0.2268109918 -0.1763229817 0.5095998049 4286941062
-0.2268770784 -0.1758079976 0.5097483397 4286809476
-0.2273309529 -0.1755921990 0.5107680559 4286348412
-0.2273968309 -0.1750754267 0.5109161139 4285953654
-0.2270744145 -0.1742603332 0.5101916790 4285756275
-0.2275281549 -0.1740405411 0.5112111568 4285756275
-0.2272051871 -0.1732263118 0.5104855299 4285690482
-0.2272703350 -0.1727086306 0.5106318593 4285427310
-0.2273353338 -0.1721905172 0.5107778907 4285032550
-0.2274001688 -0.1716719568 0.5109235644 4284703585
-0.2274648398 -0.1711529493 0.5110688806 4284506206
-0.2271404117 -0.1703418195 0.5103399754 4284374620
-0.2272046655 -0.1698228121 0.5104843378 4284308827
-0.2272687554 -0.1693033725 0.5106283426 4284243034
-0.2273326814 -0.1687834859 0.5107719302 4284111702
-0.2270070612 -0.1679750383 0.5100403428 4283914323
-0.2270705551 -0.1674551815 0.5101830363 4283716944
-0.2271338999 -0.1669348776 0.5103253126 4283585358
-0.2271970659 -0.1664141417 0.5104672909 4283190346
-0.2272600681 -0.1658929735 0.5106088519 4282992967
-0.2273229212 -0.1653713584 0.5107500553 4282795590
-0.2273856103 -0.1648493260 0.5108909011 4282598211
-0.2278382629 -0.1646087170 0.5119078755 4282335039
-0.2279007137 -0.1640849262 0.5120482445 4282203453
-0.2279630154 -0.1635607034 0.5121881962 4282071865
-0.2280251533 -0.1630360484 0.5123277903 4282071865
-0.2280871123 -0.1625109613 0.5124670267 4281940281
-0.2277582437 -0.1617080867 0.5117281079 4281874488
-0.2274290025 -0.1609065831 0.5109883547 4281808697
-0.2274902612 -0.1603820175 0.5111259818 4281808697
-0.2275513411 -0.1598570347 0.5112632513 4281545525
-0.2276122570 -0.1593316197 0.5114001036 4281084974
-0.2276730090 -0.1588058025 0.5115365982 4280690214
-0.2281248868 -0.1585515141 0.5125519037 4280558628
-0.2281854004 -0.1580239385 0.5126878619 4280559141
-0.2282457501 -0.1574959457 0.5128234625 4280559141
-0.2283059359 -0.1569675356 0.5129586458 4280361508
-0.2283659428 -0.1564387083 0.5130934715 4280164129
-0.2284257710 -0.1559094638 0.5132279396 4280032543
-0.2284854352 -0.1553798020 0.5133619905 4279966750
-0.2281529158 -0.1545841247 0.5126148462 4279901211
-0.2278200090 -0.1537898481 0.5118669271 4279901211
-0.2278789580 -0.1532607675 0.5119993091 4279967004
-0.2279377282 -0.1527312845 0.5121313930 4280295969
-0.2283887416 -0.1524633467 0.5131447315 4280361508
-0.2280547470 -0.1516710818 0.5123943090 4280295715
-0.2281129956 -0.1511403620 0.5125252008 4280295715
-0.2281710654 -0.1506092399 0.5126556754 4280493094
-0.2282289714 -0.1500777155 0.5127857327 4280690473
-0.2282866836 -0.1495457888 0.5129154325 4280822059
-0.2283442318 -0.1490134597 0.5130447149 4280887593
-0.2284016013 -0.1484807283 0.5131736398 4280887593
-0.2284588069 -0.1479475945 0.5133021474 4280953386
-0.2285158187 -0.1474140584 0.5134302378 4280953386
-0.2285726517 -0.1468801200 0.5135579705 4280887593
-0.2282358110 -0.1460939050 0.5128011107 4280887593
-0.2282921970 -0.1455601007 0.5129278302 4280887593
-0.2283484042 -0.1450258940 0.5130540729 4280953386
-0.2284044325 -0.1444913000 0.5131799579 4281085485
-0.2284602672 -0.1439563185 0.5133054256 4281085485
-0.2285159379 -0.1434209347 0.5134305358 4281085231
-0.2289655209 -0.1431315094 0.5144406557 4281085231
-0.2290209234 -0.1425944269 0.5145651102 4281085231
-0.2286818624 -0.1418124437 0.5138033032 4281019438
-0.2291311771 -0.1415190846 0.5148128271 4281085231
-0.2291860282 -0.1409808397 0.5149360895 4281282610
-0.2292407006 -0.1404422075 0.5150589347 4281348403
-0.2292951941 -0.1399031729 0.5151813626 4281479989
-0.2293494940 -0.1393637806 0.5153033733 4281545523
-0.2294036150 -0.1388239861 0.5154249668 4281479730
-0.2294575572 -0.1382838190 0.5155461431 4281545525
-0.2295113057 -0.1377432644 0.5156669021 4281545525
-0.2295648605 -0.1372023374 0.5157872438 4281677370
-0.2296182513 -0.1366610378 0.5159071684 4282006335
-0.2296714336 -0.1361193508 0.5160266757 4281941312
-0.2297244519 -0.1355772913 0.5161457658 4281809726
-0.2297772616 -0.1350348592 0.5162644386 4281808956
-0.2298298925 -0.1344920397 0.5163826942 4281808956
-0.2298823446 -0.1339488626 0.5165005326 4281743933
-0.2299345881 -0.1334053129 0.5166179538 4281941312
-0.2295908034 -0.1326327175 0.5158455372 4281941057
-0.2296425998 -0.1320893615 0.5159618855 4281809471
-0.2296941876 -0.1315456331 0.5160778165 4281743678
-0.2293494940 -0.1307756901 0.5153033137 4281809471
-0.2294006199 -0.1302321702 0.5154182315 4281809471
-0.2294515520 -0.1296882927 0.5155326724 4281809471
-0.2295023054 -0.1291440576 0.5156466961 4281809471
-0.2295528650 -0.1285994649 0.5157603025 4281875264
-0.2296032310 -0.1280544996 0.5158734322 4282006850
-0.2300500423 -0.1277294159 0.5168773532 4281875264
-0.2301001102 -0.1271827966 0.5169898272 4281743678
-0.2301499844 -0.1266358346 0.5171018839 4281875264
-0.2301996648 -0.1260885000 0.5172135234 4281941057
-0.2302491367 -0.1255408227 0.5173246861 4282006850
-0.2302984297 -0.1249927953 0.5174354315 4282006850
-0.2303475291 -0.1244444102 0.5175457597 4282006850
-0.2299991995 -0.1236820668 0.5167630911 4281875264
-0.2304451466 -0.1233465970 0.5177650452 4281743678
-0.2304936498 -0.1227971688 0.5178740621 4281940542
-0.2305419743 -0.1222473904 0.5179826021 4281874749
-0.2305900902 -0.1216972694 0.5180907249 4281874749
-0.2302403599 -0.1209379286 0.5173049569 4281874749
-0.2306857258 -0.1205959991 0.5183055997 4281809471
-0.2307332456 -0.1200448498 0.5184124112 4281875264
-0.2303826809 -0.1192873344 0.5176247358 4281809471
-0.2304297239 -0.1187364608 0.5177304149 4281677885
-0.2308746427 -0.1183893681 0.5187300444 4281809471
-0.2305232286 -0.1176337004 0.5179405212 4281612092
-0.2305696756 -0.1170818210 0.5180448294 4281612092
-0.2310142219 -0.1167308614 0.5190436840 4281809471
-0.2310603559 -0.1161773577 0.5191473365 4281809473
-0.2311062813 -0.1156235263 0.5192505121 4281677887
-0.2311520129 -0.1150693670 0.5193532705 4281677887
-0.2307989150 -0.1143174395 0.5185599327 4281677887
-0.2312428504 -0.1139600575 0.5195573568 4281874750
-0.2312879711 -0.1134049222 0.5196587443 4281940543
-0.2313328832 -0.1128494516 0.5197596550 4282006336
-0.2313776016 -0.1122936606 0.5198600888 4281940543
-0.2318211198 -0.1119301990 0.5208566189 4282006336
-0.2314664125 -0.1111811176 0.5200596452 4282137922
-0.2315105200 -0.1106243730 0.5201587677 4281940543
-0.2319536507 -0.1102570742 0.5211544037 4281545785
-0.2319974154 -0.1096987277 0.5212526917 4281282613
-0.2320409715 -0.1091400683 0.5213505626 4281282613
-0.2324837893 -0.1087679788 0.5223454833 4281348920
-0.2321274728 -0.1080218107 0.5215449333 4281348920
-0.2325700223 -0.1076471731 0.5225392580 4281283129
-0.2322131544 -0.1069023013 0.5217374563 4281414715
-0.2322556823 -0.1063420847 0.5218330026 4281480508
-0.2326978296 -0.1059636325 0.5228263736 4281348922
-0.2327399999 -0.1054018363 0.5229211450 4281413947
-0.2327819765 -0.1048397347 0.5230154395 4281479740
-0.2324237078 -0.1040981635 0.5222104788 4281611326
-0.2324651778 -0.1035364270 0.5223037004 4281611326
-0.2329066396 -0.1031516269 0.5232955813 4281479740
-0.2329477668 -0.1025883183 0.5233879685 4281413947
-0.2325883657 -0.1018494144 0.5225804448 4281479740
-0.2326290160 -0.1012864858 0.5226717591 4281611326
-0.2326694429 -0.1007232666 0.5227625966 4281545533
-0.2327096611 -0.1001597494 0.5228529572 4281874498
-0.2327496707 -0.0995959416 0.5229428411 4281742912
-0.2327894568 -0.0990318432 0.5230322480 4281479740
-0.2328290343 -0.0984674543 0.5231212378 4281413947
-0.2328684032 -0.0979027823 0.5232096910 4281479740
-0.2325066924 -0.0971702859 0.5223969221 4281677119
-0.2329465002 -0.0967725813 0.5233851075 4281677119
-0.2337872535 -0.0965382308 0.5252740979 4281809471
-0.2334248126 -0.0958058611 0.5244597793 4281875264
-0.2338643223 -0.0954024419 0.5254473090 4281875264
-0.2339025438 -0.0948341191 0.5255331397 4281875264
-0.2339405417 -0.0942655280 0.5256185532 4281941059
-0.2339783162 -0.0936966613 0.5257034302 4281677887
-0.2344172895 -0.0932872519 0.5266897082 4280493613
-0.2336517721 -0.0923993364 0.5249696970 4280362027
-0.2344918996 -0.0921461955 0.5268573165 4281612094
-0.2345288694 -0.0915752575 0.5269404054 4281875266
-0.2345656306 -0.0910040438 0.5270229578 4281283131
-0.2337987423 -0.0901228711 0.5252999067 4282006854
-0.2338349372 -0.0895530879 0.5253812671 4281677889
-0.2334690690 -0.0888301507 0.5245592594 4281677889
-0.2343085706 -0.0885646418 0.5264454484 4281875268
-0.2327363342 -0.0873893648 0.5229129195 4281546303
-0.2327714711 -0.0868214816 0.5229918361 4281480510
-0.2328063846 -0.0862533376 0.5230703354 4281875268
-0.2328410894 -0.0856849402 0.5231482983 4281743682
-0.2328755707 -0.0851162821 0.5232257247 4281480510
-0.2337143570 -0.0848394260 0.5251103640 4281612096
-0.2341508418 -0.0844133496 0.5260910392 4281414717
-0.2337824553 -0.0836969391 0.5252633691 4281546303
-0.2342186123 -0.0832683966 0.5262433290 4281677889
-0.2350571603 -0.0829797238 0.5281273723 4281480510
-0.2354931533 -0.0825457647 0.5291069746 4281743682
-0.2355264425 -0.0819694698 0.5291817188 4281941061
-0.2347541600 -0.0811146647 0.5274465680 4282006854
-0.2359950542 -0.0809542984 0.5302346349 4281875266
-0.2340138257 -0.0796904936 0.5257831812 4281743680
-0.2340459824 -0.0791171789 0.5258554220 4281941059
-0.2340779305 -0.0785436332 0.5259271860 4282072645
-0.2341096401 -0.0779698566 0.5259984732 4282006600
-0.2341411263 -0.0773958415 0.5260692239 4282203979
-0.2365906984 -0.0776149333 0.5315729380 4282204233
-0.2350096405 -0.0765095949 0.5280206203 4282006854
-0.2370563447 -0.0765841380 0.5326191187 4281941059
-0.2374905199 -0.0761315450 0.5335946679 4282270024
-0.2375213057 -0.0755484700 0.5336638093 4282598989
-0.2379551679 -0.0750924498 0.5346386433 4282598989
-0.2367754579 -0.0741290823 0.5319880247 4282533196
-0.2384191155 -0.0740484968 0.5356810093 4289112496
-0.2382180244 -0.1993659139 0.5365681648 4287533723
-0.2382916063 -0.1988311410 0.5367339253 4281151541
-0.2383650243 -0.1982958764 0.5368992686 4282401608
-0.2384383082 -0.1977601200 0.5370643735 4286282621
-0.2396655083 -0.1981781721 0.5398285389 4288453790
-0.2389692068 -0.1970043629 0.5382601619 4289506476
-0.2394270599 -0.1967826188 0.5392914414 4289901234
-0.2387298644 -0.1956121475 0.5377210379 4290032820
-0.2391875237 -0.1953885704 0.5387519002 4290295992
-0.2384894341 -0.1942214519 0.5371795297 4289966766
-0.2323951274 -0.1886767745 0.5234525800 4289966766
-0.2293810695 -0.1856556833 0.5166636109 4290164147
-0.2348488718 -0.1894934475 0.5289794207 4289966768
-0.2268186510 -0.1824464351 0.5108919740 4290164404
-0.2280441076 -0.1828614473 0.5136522055 4290098611
-0.2265682518 -0.1811110079 0.5103279352 4290032818
-0.2262496203 -0.1802900732 0.5096102357 4290098611
-0.2263167948 -0.1797772348 0.5097615719 4289967025
-0.2259975076 -0.1789580137 0.5090423822 4290032818
-0.2260642797 -0.1784451455 0.5091927648 4290032818
-0.2261308879 -0.1779318005 0.5093427896 4290032818
-0.2261973470 -0.1774180084 0.5094925165 4289967025
-0.2262636423 -0.1769037694 0.5096418262 4290032818
-0.2263298035 -0.1763890833 0.5097908378 4289967027
-0.2263958007 -0.1758739352 0.5099394917 4289901234
-0.2264616489 -0.1753583401 0.5100877881 4289967025
-0.2265273333 -0.1748422980 0.5102357864 4289901232
-0.2265928686 -0.1743258089 0.5103833675 4289835439
-0.2266582400 -0.1738088578 0.5105306506 4289835439
-0.2267234623 -0.1732914746 0.5106775165 4289835439
-0.2267885208 -0.1727736443 0.5108240843 4289703853
-0.2264656425 -0.1719609052 0.5100967884 4289506474
-0.2265302688 -0.1714430749 0.5102424026 4289440681
-0.2269827574 -0.1712174714 0.5112615824 4289506728
-0.2266590744 -0.1704060733 0.5105324984 4289506728
-0.2267232239 -0.1698869020 0.5106770396 4289506728
-0.2267872244 -0.1693673134 0.5108211637 4289440935
-0.2268510610 -0.1688472629 0.5109649897 4289375142
-0.2265261859 -0.1680385470 0.5102332234 4289375142
-0.2269782573 -0.1678058654 0.5112514496 4289309349
-0.2270416170 -0.1672845036 0.5113941431 4289309349
-0.2271048129 -0.1667627096 0.5115365386 4289177763
-0.2267788649 -0.1659558266 0.5108023286 4289177763
-0.2268416137 -0.1654340625 0.5109437108 4289243556
-0.2269042134 -0.1649118662 0.5110846758 4289243556
-0.2273559570 -0.1646711975 0.5121021867 4289177763
-0.2274183333 -0.1641472429 0.5122426748 4288914591
-0.2274805456 -0.1636228561 0.5123828053 4288717212
-0.2275425941 -0.1630980372 0.5125225782 4288585626
-0.2276044786 -0.1625727862 0.5126619935 4288125075
-0.2272763550 -0.1617696285 0.5119228959 4288059282
-0.2273377925 -0.1612444222 0.5120612979 4287927955
-0.2270090282 -0.1604431272 0.5113207698 4287862162
-0.2270700336 -0.1599179655 0.5114581585 4287598990
-0.2271308601 -0.1593924016 0.5115951896 4287270025
-0.2271915376 -0.1588664055 0.5117318630 4287006853
-0.2272520363 -0.1583399922 0.5118681192 4286941060
-0.2277029306 -0.1580843031 0.5128837228 4286874754
-0.2273725271 -0.1572858989 0.5121394992 4286743168
-0.2278233021 -0.1570275575 0.5131548643 4286414205
-0.2278832197 -0.1564985663 0.5132898092 4286019447
-0.2279429734 -0.1559691578 0.5134243965 4285493103
-0.2276114672 -0.1551727057 0.5126777291 4285098345
-0.2276707888 -0.1546433568 0.5128113031 4284704098
-0.2277299166 -0.1541136205 0.5129445195 4284506719
-0.2277888805 -0.1535834521 0.5130773187 4284046168
-0.2278476804 -0.1530528814 0.5132097602 4283980375
-0.2275146991 -0.1522598267 0.5124597549 4283651412
-0.2275730520 -0.1517293453 0.5125911832 4283256654
-0.2276312262 -0.1511984617 0.5127221942 4282993482
-0.2272973210 -0.1504078507 0.5119701028 4282796103
-0.2277470380 -0.1501354724 0.5129830837 4282532931
-0.2278046757 -0.1496033669 0.5131129026 4282401345
-0.2278621495 -0.1490708590 0.5132423639 4282335039
-0.2279194444 -0.1485379487 0.5133714080 4282006074
-0.2279765606 -0.1480046362 0.5135000348 4281742902
-0.2280334979 -0.1474709213 0.5136283040 4281479730
-0.2276976854 -0.1466839164 0.5128719211 4281282351
-0.2277541757 -0.1461503208 0.5129991174 4281084972
-0.2278104872 -0.1456163377 0.5131259561 4280887593
-0.2278666198 -0.1450819522 0.5132523775 4280624421
-0.2279225588 -0.1445471793 0.5133784413 4280295456
-0.2279783338 -0.1440120190 0.5135040283 4280098077
-0.2280339301 -0.1434764564 0.5136292577 4279900698
-0.2280893475 -0.1429404914 0.5137540698 4279900698
-0.2281445712 -0.1424041539 0.5138785243 4280098077
-0.2281996310 -0.1418674290 0.5140025020 4280295456
-0.2282544971 -0.1413303018 0.5141260624 4280558628
-0.2283091843 -0.1407928020 0.5142492652 4280756007
-0.2287574261 -0.1404967308 0.5152589083 4280493348
-0.2288118303 -0.1399575174 0.5153814554 4280493348
-0.2288660705 -0.1394179314 0.5155035853 4280492835
-0.2289201170 -0.1388779581 0.5156253576 4280492835
-0.2289739847 -0.1383376122 0.5157466531 4280558628
-0.2290276587 -0.1377968639 0.5158675909 4280558628
-0.2290811539 -0.1372557580 0.5159880519 4280493094
-0.2291344553 -0.1367142648 0.5161081553 4280558887
-0.2291875780 -0.1361723989 0.5162277818 4280953645
-0.2292405218 -0.1356301457 0.5163470507 4280756266
-0.2292932719 -0.1350875199 0.5164658427 4280822059
-0.2289510816 -0.1343129575 0.5156950951 4281085231
-0.2290033698 -0.1337705255 0.5158128738 4281151024
-0.2290554643 -0.1332277209 0.5159301758 4281151024
-0.2291073650 -0.1326845437 0.5160471201 4281151796
-0.2291590869 -0.1321409941 0.5161635876 4281217589
-0.2288154215 -0.1313702017 0.5153895617 4281282612
-0.2288666815 -0.1308268607 0.5155049562 4281348405
-0.2289177328 -0.1302831620 0.5156199932 4281414198
-0.2289686054 -0.1297390908 0.5157345533 4281545784
-0.2290192842 -0.1291946620 0.5158486962 4281611577
-0.2290697843 -0.1286498755 0.5159624219 4281677370
-0.2291200757 -0.1281047314 0.5160757303 4281808956
-0.2291701883 -0.1275592148 0.5161886215 4281743163
-0.2292200923 -0.1270133555 0.5163010359 4281874749
-0.2296658009 -0.1266855597 0.5173049569 4282006335
-0.2297154069 -0.1261380315 0.5174166560 4281874749
-0.2297648340 -0.1255901605 0.5175279975 4281874749
-0.2298140526 -0.1250419319 0.5176388621 4282072128
-0.2298630923 -0.1244933605 0.5177493095 4282137921
-0.2299119234 -0.1239444315 0.5178593397 4282072128
-0.2295640856 -0.1231824011 0.5170758367 4282137921
-0.2300090194 -0.1228455305 0.5180780292 4282203714
-0.2296606153 -0.1220846996 0.5172932744 4282335300
-0.2297085971 -0.1215353310 0.5174013376 4282401093
-0.2297563702 -0.1209856197 0.5175089240 4282401093
-0.2298039496 -0.1204355657 0.5176160932 4282401093
-0.2302483022 -0.1200922281 0.5186169744 4282401093
-0.2298985124 -0.1193344370 0.5178291202 4282466886
-0.2299454957 -0.1187833622 0.5179349184 4282466886
-0.2299922854 -0.1182319522 0.5180402994 4282335301
-0.2300388664 -0.1176801994 0.5181452632 4282401094
-0.2300852537 -0.1171281189 0.5182497501 4282532680
-0.2301314473 -0.1165757030 0.5183537602 4282532680
-0.2305749804 -0.1162233427 0.5193527937 4282270022
-0.2306208462 -0.1156693101 0.5194560885 4282138436
-0.2306665033 -0.1151149496 0.5195589662 4282204229
-0.2307119668 -0.1145602539 0.5196613669 4282467401
-0.2303593755 -0.1138086766 0.5188671947 4282598472
-0.2308022976 -0.1134498939 0.5198647976 4282730058
-0.2308471501 -0.1128942221 0.5199658275 4282861644
-0.2308918089 -0.1123382300 0.5200664401 4282861644
-0.2313344330 -0.1119746417 0.5210633874 4282730058
-0.2313787490 -0.1114170477 0.5211632252 4282532679
-0.2310245484 -0.1106683239 0.5203654170 4282336070
-0.2318651825 -0.1104907468 0.5222588778 4282401863
-0.2315104902 -0.1097423509 0.5214599967 4282533194
-0.2315540016 -0.1091834828 0.5215579867 4282467401
-0.2315973043 -0.1086243019 0.5216554999 4282467401
-0.2316403836 -0.1080648080 0.5217525363 4282335815
-0.2320820391 -0.1076900363 0.5227473378 4282138436
-0.2321247905 -0.1071289554 0.5228436589 4282072643
-0.2317684293 -0.1063844636 0.5220409632 4281875264
-0.2322096676 -0.1060058698 0.5230348110 4281677885
-0.2322517931 -0.1054438725 0.5231297016 4281875264
-0.2322937250 -0.1048815623 0.5232241154 4281612092
-0.2323354334 -0.1043189466 0.5233180523 4281414713
-0.2323769331 -0.1037560329 0.5234115720 4281414713
-0.2320188731 -0.1030155122 0.5226050615 4281546299
-0.2320598811 -0.1024529636 0.5226974487 4281612092
-0.2325001657 -0.1020654961 0.5236891508 4281546299
-0.2321412712 -0.1013269797 0.5228807330 4281414713
-0.2321816385 -0.1007635519 0.5229716897 4281875264
-0.2322218120 -0.1001998186 0.5230621696 4282006850
-0.2322617620 -0.0996358022 0.5231521726 4282138438
-0.2323015034 -0.0990714878 0.5232416987 4281941059
-0.2323410362 -0.0985068902 0.5233306885 4281612094
-0.2323803604 -0.0979420021 0.5234192610 4281612094
-0.2324194610 -0.0973768309 0.5235073566 4281743680
-0.2320582569 -0.0966447443 0.5226937532 4281809473
-0.2328971922 -0.0964112878 0.5245833993 4281875264
-0.2329357266 -0.0958442912 0.5246701837 4282006850
-0.2329740375 -0.0952770188 0.5247564912 4282006850
-0.2334125042 -0.0948721915 0.5257441401 4282072643
-0.2334504575 -0.0943033844 0.5258296132 4282138436
-0.2334881872 -0.0937342942 0.5259146094 4281875264
-0.2335257083 -0.0931649357 0.5259990692 4280888371
-0.2335630059 -0.0925953016 0.5260831118 4280822578
-0.2336000949 -0.0920253918 0.5261666179 4281612094
-0.2336369604 -0.0914552137 0.5262496471 4281875266
-0.2332727909 -0.0907288790 0.5254294276 4281414717
-0.2337100357 -0.0903140530 0.5264142752 4282072647
-0.2333453149 -0.0895891413 0.5255927444 4281875268
-0.2333812416 -0.0890188739 0.5256736875 4281809475
-0.2334169596 -0.0884483457 0.5257541537 4281809475
-0.2330513299 -0.0877265632 0.5249305964 4281480510
-0.2330865413 -0.0871564969 0.5250099301 4281612096
-0.2327203006 -0.0864371434 0.5241849422 4282006854
-0.2327550203 -0.0858675390 0.5242631435 4281809475
-0.2335922420 -0.0855918154 0.5261489153 4281612096
-0.2336266339 -0.0850197449 0.5262264013 4281677889
-0.2336608022 -0.0844474211 0.5263034105 4281677889
-0.2336947620 -0.0838748515 0.5263798833 4281809475
-0.2337284982 -0.0833020285 0.5264558792 4281743682
-0.2337620109 -0.0827289522 0.5265313387 4281743680
-0.2337953001 -0.0821556374 0.5266063213 4281875266
-0.2342301309 -0.0817222521 0.5275857449 4282006852
-0.2342630327 -0.0811474621 0.5276598334 4282006852
-0.2342957109 -0.0805724338 0.5277334452 4281875266
-0.2343281657 -0.0799971670 0.5278065801 4281941059
-0.2347623855 -0.0795578882 0.5287846327 4282138438
-0.2347944528 -0.0789811537 0.5288568139 4282401610
-0.2348262817 -0.0784041882 0.5289285183 4282467405
-0.2352600545 -0.0779602528 0.5299055576 4282270026
-0.2352914959 -0.0773818269 0.5299763680 4282138440
-0.2353226990 -0.0768031701 0.5300467014 4282401612
-0.2357560098 -0.0763545856 0.5310226679 4282533196
-0.2353844643 -0.0756451786 0.5301857591 4282270024
-0.2350125760 -0.0749375224 0.5293481350 4282335817
-0.2350428253 -0.0743589476 0.5294163227 4282467403
-0.2354753762 -0.0739064962 0.5303905606 4282466887
-0.2355052382 -0.0733264834 0.5304578543 4288519843
-0.2384765744 -0.2000828534 0.5384976864 4286415242
-0.2385502905 -0.1995462030 0.5386641622 4280888369
-0.2386238575 -0.1990090609 0.5388302803 4282533194
-0.2386972606 -0.1984714121 0.5389960408 4286480000
-0.2387705147 -0.1979332715 0.5391614437 4288190618
-0.2380756289 -0.1967599392 0.5375923514 4289177511
-0.2381483465 -0.1962225437 0.5377565026 4289506476
-0.2378366739 -0.1953690350 0.5370527506 4289703853
-0.2375246137 -0.1945167780 0.5363481045 4289835439
-0.2372121662 -0.1936657727 0.5356425643 4289769389
-0.2307460904 -0.1878077984 0.5210416913 4289769389
-0.2362014055 -0.1916553676 0.5333602428 4289835182
-0.2281915098 -0.1845835745 0.5152732730 4289703596
-0.2267203182 -0.1828247011 0.5119512081 4289835182
-0.2260181159 -0.1816914082 0.5103656054 4289769389
-0.2260856330 -0.1811784655 0.5105180144 4289900975
-0.2257677168 -0.1803572625 0.5098001361 4289900975
-0.2254494131 -0.1795373708 0.5090814233 4289769389
-0.2259017378 -0.1793308109 0.5101028085 4289835182
-0.2255829126 -0.1785117537 0.5093828440 4289835182
-0.2256494313 -0.1779982746 0.5095330477 4289900975
-0.2257158011 -0.1774843335 0.5096829534 4289900975
-0.2257820070 -0.1769699305 0.5098324418 4289835182
-0.2258480787 -0.1764550805 0.5099816322 4289769389
-0.2259139866 -0.1759397835 0.5101304650 4289769389
-0.2259797305 -0.1754240394 0.5102789402 4289638314
-0.2260453254 -0.1749078333 0.5104270577 4289638314
-0.2261107713 -0.1743911952 0.5105748177 4289704107
-0.2261760533 -0.1738740951 0.5107222199 4289704107
-0.2262411863 -0.1733565480 0.5108692646 4289769900
-0.2263061553 -0.1728385538 0.5110160112 4289769900
-0.2259840071 -0.1720255613 0.5102885962 4289769900
-0.2264356315 -0.1718012393 0.5113083720 4289835693
-0.2261129469 -0.1709891260 0.5105797052 4289901486
-0.2261771858 -0.1704702377 0.5107247829 4289967279
-0.2262412459 -0.1699509174 0.5108694434 4289901486
-0.2263051569 -0.1694311649 0.5110137463 4289835693
-0.2263689190 -0.1689109504 0.5111576915 4289769900
-0.2264325023 -0.1683903188 0.5113012791 4289769900
-0.2264959365 -0.1678692400 0.5114445090 4289835693
-0.2265592068 -0.1673477143 0.5115873814 4289835693
-0.2266223133 -0.1668257564 0.5117298961 4289572520
-0.2262970954 -0.1660186052 0.5109955668 4289638313
-0.2263597697 -0.1654966772 0.5111370683 4289769900
-0.2264222801 -0.1649743170 0.5112782121 4289901486
-0.2268731147 -0.1647336036 0.5122962594 4289967279
-0.2269354016 -0.1642094702 0.5124368668 4289901486
-0.2269975394 -0.1636849195 0.5125771761 4289835693
-0.2270594984 -0.1631599367 0.5127170682 4289769900
-0.2271212935 -0.1626345217 0.5128566623 4289704364
-0.2267939150 -0.1618310958 0.5121173859 4289704364
-0.2268552780 -0.1613057256 0.5122559667 4289770157
-0.2265272439 -0.1605041474 0.5115152001 4289835950
-0.2265881598 -0.1599788219 0.5116527677 4289835950
-0.2266489118 -0.1594530940 0.5117899776 4289770157
-0.2267095000 -0.1589269191 0.5119267702 4289770157
-0.2267699242 -0.1584003419 0.5120632052 4289770157
-0.2268301696 -0.1578733325 0.5121992826 4289835693
-0.2268902510 -0.1573459059 0.5123349428 4289769900
-0.2269501686 -0.1568180621 0.5124701858 4289769900
-0.2270099074 -0.1562898010 0.5126051307 4289769900
-0.2270694673 -0.1557611227 0.5127395988 4289703853
-0.2271288782 -0.1552320272 0.5128737688 4289638060
-0.2271880955 -0.1547025293 0.5130075216 4289572521
-0.2272471637 -0.1541725993 0.5131408572 4289506728
-0.2273060381 -0.1536422670 0.5132738352 4289638314
-0.2273647487 -0.1531115174 0.5134063959 4289572521
-0.2274232954 -0.1525803655 0.5135385990 4289309608
-0.2274816632 -0.1520487964 0.5136703849 4289178022
-0.2267579287 -0.1509961486 0.5120361447 4289178022
-0.2272068113 -0.1507250220 0.5130497217 4289046436
-0.2272645533 -0.1501931399 0.5131801367 4288783264
-0.2277133763 -0.1499184519 0.5141935945 4288585885
-0.2273795158 -0.1491281837 0.5134397149 4288519579
-0.2274367213 -0.1485950947 0.5135689378 4288124821
-0.2274937630 -0.1480616033 0.5136977434 4287927442
-0.2275506258 -0.1475277245 0.5138261318 4287730063
-0.2272155732 -0.1467404366 0.5130695105 4287466891
-0.2276638299 -0.1464587450 0.5140817165 4287203719
-0.2273282111 -0.1456725001 0.5133239031 4286808961
-0.2273842692 -0.1451379359 0.5134504437 4286348410
-0.2274401486 -0.1446029842 0.5135766268 4285887859
-0.2274958491 -0.1440676451 0.5137023926 4285558894
-0.2275513560 -0.1435319036 0.5138277411 4285229929
-0.2276066989 -0.1429957598 0.5139527321 4284966757
-0.2276618630 -0.1424592435 0.5140772462 4284703585
-0.2277168334 -0.1419223249 0.5142014027 4284637792
-0.2277716249 -0.1413850337 0.5143251419 4284571999
-0.2278262377 -0.1408473402 0.5144484639 4284440413
-0.2278806716 -0.1403092593 0.5145713687 4284243036
-0.2283279151 -0.1400117874 0.5155813098 4283979864
-0.2283820808 -0.1394720227 0.5157035589 4283716690
-0.2284360528 -0.1389318556 0.5158254504 4283453518
-0.2284898460 -0.1383913159 0.5159469247 4283124555
-0.2285434455 -0.1378504038 0.5160679817 4282729797
-0.2285968661 -0.1373091042 0.5161886215 4282269246
-0.2286501080 -0.1367674172 0.5163088441 4281940281
-0.2287031561 -0.1362253726 0.5164285898 4281677622
-0.2287560254 -0.1356829256 0.5165479779 4281217071
-0.2288087010 -0.1351401210 0.5166669488 4281084972
-0.2284672856 -0.1343652755 0.5158959627 4281084972
-0.2285194993 -0.1338226497 0.5160139203 4280821800
-0.2285715193 -0.1332796663 0.5161313415 4280361249
-0.2286233604 -0.1327362955 0.5162484050 4280164383
-0.2282807380 -0.1319646537 0.5154747367 4280295969
-0.2283321172 -0.1314214915 0.5155907869 4280295715
-0.2283833027 -0.1308779567 0.5157063603 4280295715
-0.2284342945 -0.1303340644 0.5158214569 4280295715
-0.2284850925 -0.1297898144 0.5159361959 4280361508
-0.2285357118 -0.1292451918 0.5160505176 4280361508
-0.2285861224 -0.1287002116 0.5161643624 4280361508
-0.2286363542 -0.1281548738 0.5162777901 4280558887
-0.2286864072 -0.1276091784 0.5163907409 4280493094
-0.2287362516 -0.1270631254 0.5165033340 4280624680
-0.2287859023 -0.1265167147 0.5166154504 4280690473
-0.2292305976 -0.1261875033 0.5176196098 4280493094
-0.2292799503 -0.1256394386 0.5177310705 4280295715
-0.2293291092 -0.1250910163 0.5178420544 4280427301
-0.2293780744 -0.1245422438 0.5179526210 4280295715
-0.2294268459 -0.1239931211 0.5180627704 4280164129
-0.2294754237 -0.1234436482 0.5181724429 4280295715
-0.2295238078 -0.1228938252 0.5182816982 4280360997
-0.2295719981 -0.1223436594 0.5183905363 4280492583
-0.2296199948 -0.1217931435 0.5184988976 4280624169
-0.2296677828 -0.1212422848 0.5186067820 4280755755
-0.2297153771 -0.1206910834 0.5187143087 4280822061
-0.2297627777 -0.1201395392 0.5188212991 4280953647
-0.2294137627 -0.1193814725 0.5180332065 4281216819
-0.2298569828 -0.1190354303 0.5190340281 4281479991
-0.2295074016 -0.1182785854 0.5182446837 4281940542
-0.2295539379 -0.1177266389 0.5183497071 4282203714
-0.2296002656 -0.1171743646 0.5184543133 4282335300
-0.2296463847 -0.1166217476 0.5185585022 4282203714
-0.2296923101 -0.1160688028 0.5186622143 4282072128
-0.2297380418 -0.1155155227 0.5187654495 4282006335
-0.2301804274 -0.1151604652 0.5197644234 4282137921
-0.2302258313 -0.1146055758 0.5198669434 4282401093
-0.2298740149 -0.1138537154 0.5190725327 4282269507
-0.2303160429 -0.1134948060 0.5200706124 4282137921
-0.2303608358 -0.1129389331 0.5201717615 4282137921
-0.2304054350 -0.1123827398 0.5202724934 4282335300
-0.2304498255 -0.1118262187 0.5203727484 4282401093
-0.2304940224 -0.1112693772 0.5204725266 4282335300
-0.2305380106 -0.1107122228 0.5205718279 4282336070
-0.2309793383 -0.1103446633 0.5215684175 4282599242
-0.2306253612 -0.1095969528 0.5207691193 4282730828
-0.2310664356 -0.1092268378 0.5217650533 4282796621
-0.2311096787 -0.1086674556 0.5218627453 4282796621
-0.2311527133 -0.1081077531 0.5219599009 4282862414
-0.2311955541 -0.1075477451 0.5220565796 4282862414
-0.2312381715 -0.1069874167 0.5221528411 4282796621
-0.2312805802 -0.1064267904 0.5222486258 4282730828
-0.2313227952 -0.1058658510 0.5223439336 4282665035
-0.2313647866 -0.1053046063 0.5224387646 4282467656
-0.2314065844 -0.1047430560 0.5225331187 4282533449
-0.2314481735 -0.1041812003 0.5226270556 4282599242
-0.2314895391 -0.1036190391 0.5227204561 4282533449
-0.2315307111 -0.1030565873 0.5228134394 4282467656
-0.2315716594 -0.1024938300 0.5229058862 4282599242
-0.2316124141 -0.1019307747 0.5229979157 4282862414
-0.2316529453 -0.1013674214 0.5230894089 4283125586
-0.2316932678 -0.1008037776 0.5231804848 4283125586
-0.2317333817 -0.1002398431 0.5232710838 4282994000
-0.2317732871 -0.0996756107 0.5233611465 4283256917
-0.2314139903 -0.0989404991 0.5225498676 4282862159
-0.2318524569 -0.0985462740 0.5235399604 4282335815
-0.2314925939 -0.0978125334 0.5227273703 4282598987
-0.2319307774 -0.0974157900 0.5237168074 4282730573
-0.2319696099 -0.0968501195 0.5238044858 4282467401
-0.2320082337 -0.0962841660 0.5238917470 4282796366
-0.2320466489 -0.0957179293 0.5239784718 4282862159
-0.2324843109 -0.0953151882 0.5249667168 4282862159
-0.2325223535 -0.0947474167 0.5250526667 4282993745
-0.2325601876 -0.0941793621 0.5251380801 4282862159
-0.2325978130 -0.0936110392 0.5252230167 4282467401
-0.2326352149 -0.0930424407 0.5253074765 4281480508
-0.2326724082 -0.0924735665 0.5253914595 4281217336
-0.2327093780 -0.0919044167 0.5254749656 4281677887
-0.2327461392 -0.0913350061 0.5255579352 4281875266
-0.2323826998 -0.0906093642 0.5247372985 4281480510
-0.2328189909 -0.0901953653 0.5257224441 4281809475
-0.2324550003 -0.0894711465 0.5249005556 4281677889
-0.2324908227 -0.0889016464 0.5249814391 4281743682
-0.2325264364 -0.0883318782 0.5250618458 4281677889
-0.2321615368 -0.0876107961 0.5242378712 4281546303
-0.2321966439 -0.0870414972 0.5243171453 4281743682
-0.2330323309 -0.0867701098 0.5262042284 4282270026
-0.2330671251 -0.0861983299 0.5262827873 4282138440
-0.2331016958 -0.0856262892 0.5263608694 4281941061
-0.2331360579 -0.0850539953 0.5264384151 4281809475
-0.2331701815 -0.0844814554 0.5265154839 4281809475
-0.2332040966 -0.0839086547 0.5265920758 4281941061
-0.2332377881 -0.0833356157 0.5266681314 4281809475
-0.2332712561 -0.0827623233 0.5267437100 4281809473
-0.2333045006 -0.0821887851 0.5268187523 4281809473
-0.2329365909 -0.0814747661 0.5259880424 4282138438
-0.2329693437 -0.0809017271 0.5260619521 4282138438
-0.2330018729 -0.0803284496 0.5261353850 4281941059
-0.2330341637 -0.0797549337 0.5262083411 4281941059
-0.2326651067 -0.0790448934 0.5253749490 4281941059
-0.2326969057 -0.0784718841 0.5254467726 4282138438
-0.2331297398 -0.0780329555 0.5264241695 4282204233
-0.2331611514 -0.0774584934 0.5264950991 4282006854
-0.2335937023 -0.0770161301 0.5274717808 4281809475
-0.2340261340 -0.0765715614 0.5284482837 4282006854
-0.2340569645 -0.0759944320 0.5285179019 4282204231
-0.2340875864 -0.0754170716 0.5285870433 4282006852
-0.2341179848 -0.0748394951 0.5286556482 4282335817
-0.2345497757 -0.0743890628 0.5296307206 4282862161
-0.2353831232 -0.0740628168 0.5315124393 4282927438
-0.2358147204 -0.0736069903 0.5324870348 4288388257
-0.2364357859 -0.1988693774 0.5352318287 4286481289
-0.2365089208 -0.1983360350 0.5353973508 4280822576
-0.2373475432 -0.1984423250 0.5372958183 4281941057
-0.2366547436 -0.1972678602 0.5357275009 4286348414
-0.2371104807 -0.1970513612 0.5367591381 4288453790
-0.2367999554 -0.1961977035 0.5360562205 4289374890
-0.2368723303 -0.1956618875 0.5362200141 4289506476
-0.2365611494 -0.1948098540 0.5355156064 4289769389
-0.2358660549 -0.1936441809 0.5339420438 4289835182
-0.2363212556 -0.1934235096 0.5349725485 4289637803
-0.2329389900 -0.1900693178 0.5273159146 4289637803
-0.2322415709 -0.1889161170 0.5257371664 4289769389
-0.2292396277 -0.1858976185 0.5189414620 4289769389
-0.2273879796 -0.1838241369 0.5147498250 4289769389
-0.2263034731 -0.1823782027 0.5122947693 4289769389
-0.2256024480 -0.1812458187 0.5107078552 4289966768
-0.2256697118 -0.1807322502 0.5108600855 4289900975
-0.2253522575 -0.1799112111 0.5101414919 4289769389
-0.2254191041 -0.1793976128 0.5102927685 4289769389
-0.2251674384 -0.1780646443 0.5097230673 4289900975
-0.2252998352 -0.1770360023 0.5100227594 4289835182
-0.2253658026 -0.1765210032 0.5101721287 4289769389
-0.2258169800 -0.1763064116 0.5111934543 4289835182
-0.2254972756 -0.1754896343 0.5104697347 4289704107
-0.2255627811 -0.1749732792 0.5106180310 4289835693
-0.2256281376 -0.1744564772 0.5107659698 4289835693
-0.2256933302 -0.1739392281 0.5109135509 4289769900
-0.2257583737 -0.1734215319 0.5110607743 4289769900
-0.2258232534 -0.1729033887 0.5112076402 4289835693
-0.2258879840 -0.1723847836 0.5113542080 4289835693
-0.2259525508 -0.1718657464 0.5115003586 4289901486
-0.2260169536 -0.1713462621 0.5116461515 4289704107
-0.2256947458 -0.1705343276 0.5109167695 4289769900
-0.2257587314 -0.1700148433 0.5110616088 4289704107
-0.2258225530 -0.1694949269 0.5112060905 4289638314
-0.2258862108 -0.1689745635 0.5113502145 4289638314
-0.2259497195 -0.1684537530 0.5114939213 4289704107
-0.2260130644 -0.1679325104 0.5116373301 4289769900
-0.2260762453 -0.1674108356 0.5117803812 4289769900
-0.2261392623 -0.1668887287 0.5119230151 4289835180
-0.2258147895 -0.1660812944 0.5111885071 4289900973
-0.2258773744 -0.1655592024 0.5113301873 4289900973
-0.2263897210 -0.1647959054 0.5124899745 4289704107
-0.2264519334 -0.1642716229 0.5126308203 4289704107
-0.2265139669 -0.1637468934 0.5127712488 4289835693
-0.2265758514 -0.1632217467 0.5129113197 4289901486
-0.2266375571 -0.1626961678 0.5130510330 4289901486
-0.2263109237 -0.1618924737 0.5123116374 4289901486
-0.2263721973 -0.1613669395 0.5124503374 4289835950
-0.2260449082 -0.1605650932 0.5117094517 4289770157
-0.2261057496 -0.1600396037 0.5118471384 4289770157
-0.2261664122 -0.1595136970 0.5119845271 4289770157
-0.2262269258 -0.1589873582 0.5121214390 4289704364
-0.2262872607 -0.1584606171 0.5122580528 4289572778
-0.2263474166 -0.1579334289 0.5123942494 4289769387
-0.2264074236 -0.1574058384 0.5125300884 4289769387
-0.2264672518 -0.1568778306 0.5126655102 4289769387
-0.2265269160 -0.1563494056 0.5128005743 4289835180
-0.2265864015 -0.1558205485 0.5129352212 4289769900
-0.2266457230 -0.1552912891 0.5130695105 4289769900
-0.2267048657 -0.1547616124 0.5132034421 4289769900
-0.2267638445 -0.1542315185 0.5133368969 4289704107
-0.2268226445 -0.1537010074 0.5134700537 4289704107
-0.2268812805 -0.1531700939 0.5136027932 4289704107
-0.2269397378 -0.1526387632 0.5137351155 4289704366
-0.2269980311 -0.1521070153 0.5138670802 4289835952
-0.2266660035 -0.1513144374 0.5131154656 4289835952
-0.2271140814 -0.1510423124 0.5141297579 4289835952
-0.2267815173 -0.1502507329 0.5133768916 4289704364
-0.2272294313 -0.1499759704 0.5143908858 4289704364
-0.2268963158 -0.1491854340 0.5136368275 4289835952
-0.2269534469 -0.1486521661 0.5137661695 4289704366
-0.2270104140 -0.1481184959 0.5138950944 4289769646
-0.2270672023 -0.1475844383 0.5140236616 4289835439
-0.2267328948 -0.1467968673 0.5132668614 4289901232
-0.2267892212 -0.1462629288 0.5133944154 4289967025
-0.2268453836 -0.1457285881 0.5135214925 4289967279
-0.2269013673 -0.1451938450 0.5136482716 4289901486
-0.2269571722 -0.1446587145 0.5137745738 4289835693
-0.2270127833 -0.1441231817 0.5139004588 4289901486
-0.2270682305 -0.1435872614 0.5140259862 4289967279
-0.2271234989 -0.1430509537 0.5141510963 4289835693
-0.2271785736 -0.1425142586 0.5142757893 4289704107
-0.2272334844 -0.1419771612 0.5144000649 4289572521
-0.2272882015 -0.1414396763 0.5145239234 4289506728
-0.2273427397 -0.1409018040 0.5146474242 4289375142
-0.2273970991 -0.1403635442 0.5147704482 4289045923
-0.2278434336 -0.1400659829 0.5157808661 4288980130
-0.2278975248 -0.1395260245 0.5159032941 4288980130
-0.2279514223 -0.1389856935 0.5160253048 4288914337
-0.2280051410 -0.1384449601 0.5161468983 4288848544
-0.2280586809 -0.1379038543 0.5162681341 4288651165
-0.2281120270 -0.1373623759 0.5163888931 4288387993
-0.2281651944 -0.1368205100 0.5165092349 4288190614
-0.2282181680 -0.1362782717 0.5166291595 4287993235
-0.2282709628 -0.1357356459 0.5167486668 4287466891
-0.2283235788 -0.1351926476 0.5168677568 4287072133
-0.2279829234 -0.1344175339 0.5160965919 4286808961
-0.2280350626 -0.1338747144 0.5162146688 4286348410
-0.2280870229 -0.1333315372 0.5163322687 4285756273
-0.2281387895 -0.1327879876 0.5164494514 4285361515
-0.2281903625 -0.1322440654 0.5165662169 4285361515
-0.2278482318 -0.1314727068 0.5157917142 4284835686
-0.2278993577 -0.1309289932 0.5159074068 4284704100
-0.2279502749 -0.1303849220 0.5160227418 4284375135
-0.2283947915 -0.1300647259 0.5170289874 4284177756
-0.2284454256 -0.1295189708 0.5171436071 4283848791
-0.2284958661 -0.1289728582 0.5172578096 4283454033
-0.2285461277 -0.1284263879 0.5173715353 4283322447
-0.2282020450 -0.1276590675 0.5165926814 4283190861
-0.2282518297 -0.1271128207 0.5167053342 4283125068
-0.2283014208 -0.1265662163 0.5168176293 4283256654
-0.2283508182 -0.1260192543 0.5169294477 4283125068
-0.2284000218 -0.1254719347 0.5170408487 4282861896
-0.2284490317 -0.1249242723 0.5171517730 4282598724
-0.2284978479 -0.1243762523 0.5172622800 4282269759
-0.2289412022 -0.1240417436 0.5182659030 4281940794
-0.2289897203 -0.1234920770 0.5183757544 4281940794
-0.2290380299 -0.1229420602 0.5184851289 4281742904
-0.2290861607 -0.1223917007 0.5185940862 4281545525
-0.2291340828 -0.1218409911 0.5187025666 4281348146
-0.2291818112 -0.1212899312 0.5188106298 4281150767
-0.2292293459 -0.1207385361 0.5189182162 4280887852
-0.2292766869 -0.1201867908 0.5190253854 4280624680
-0.2289284319 -0.1194284409 0.5182370543 4280493094
-0.2289752960 -0.1188769713 0.5183430910 4280493094
-0.2294175029 -0.1185295284 0.5193441510 4280690473
-0.2290684283 -0.1177730188 0.5185539126 4280756266
-0.2291146964 -0.1172205433 0.5186586380 4280690473
-0.2291607559 -0.1166677251 0.5187629461 4280427301
-0.2296024859 -0.1163151264 0.5197629333 4280229922
-0.2296482325 -0.1157606915 0.5198664665 4280164129
-0.2296937853 -0.1152059212 0.5199695826 4280098336
-0.2297391295 -0.1146508306 0.5200722218 4280032543
-0.2297842652 -0.1140954047 0.5201744437 4280164129
-0.2298292071 -0.1135396585 0.5202761292 4280229922
-0.2298739552 -0.1129835844 0.5203774571 4280229922
-0.2299184948 -0.1124271825 0.5204782486 4280295715
-0.2299628258 -0.1118704677 0.5205786228 4280229924
-0.2300069481 -0.1113134250 0.5206785202 4280164131
-0.2300508767 -0.1107560620 0.5207779408 4280361510
-0.2304913253 -0.1103883758 0.5217750072 4280756268
-0.2301381230 -0.1096403822 0.5209754705 4281479991
-0.2305783033 -0.1092701405 0.5219719410 4281479991
-0.2306214869 -0.1087105498 0.5220696926 4281480761
-0.2306644619 -0.1081506386 0.5221669674 4281546554
-0.2307072431 -0.1075904220 0.5222637653 4281678140
-0.2303526402 -0.1068456769 0.5214610696 4281743933
-0.2307921648 -0.1064690575 0.5224560499 4281809726
-0.2308343202 -0.1059079096 0.5225514770 4281941312
-0.2308762670 -0.1053464562 0.5226464272 4282137921
-0.2305205464 -0.1046043485 0.5218411684 4282532679
-0.2309595197 -0.1042226329 0.5228348970 4282927437
-0.2310008407 -0.1036602706 0.5229284167 4282927437
-0.2306443006 -0.1029201522 0.5221213102 4282730058
-0.2310828567 -0.1025346369 0.5231140852 4282730058
-0.2311235517 -0.1019713730 0.5232062340 4283124816
-0.2311640382 -0.1014078110 0.5232978463 4283585367
-0.2308063656 -0.1006703898 0.5224881768 4283716953
-0.2312443703 -0.1002798080 0.5234797001 4283387988
-0.2312842160 -0.0997153670 0.5235699415 4283387988
-0.2317219973 -0.0993212834 0.5245609283 4282730058
-0.2317615002 -0.0987552926 0.5246503353 4282335301
-0.2314024866 -0.0980202928 0.5238376856 4283124817
-0.2314414978 -0.0974546969 0.5239259601 4283387989
-0.2314802855 -0.0968888104 0.5240137577 4282861645
-0.2315188646 -0.0963226482 0.5241010785 4283387989
-0.2315572202 -0.0957561955 0.5241879225 4283716954
-0.2319939882 -0.0953533053 0.5251766443 4283848540
-0.2320319861 -0.0947853178 0.5252627134 4284111712
-0.2320697755 -0.0942170545 0.5253482461 4283848540
-0.2321073413 -0.0936485156 0.5254333019 4283124817
-0.2317458242 -0.0929197669 0.5246148705 4281808703
-0.2317828983 -0.0923516527 0.5246988535 4281216566
-0.2322187573 -0.0919412449 0.5256854892 4281611324
-0.2322554737 -0.0913716108 0.5257685781 4281611324
-0.2318928391 -0.0906456932 0.5249477029 4281348154
-0.2319290489 -0.0900764987 0.5250296593 4281348154
-0.2319650352 -0.0895070434 0.5251111388 4281216568
-0.2320008129 -0.0889373273 0.5251921415 4281545533
-0.2320363820 -0.0883673429 0.5252726078 4281545533
-0.2320717126 -0.0877970979 0.5253526568 4281742912
-0.2317073494 -0.0870764554 0.5245277882 4281809475
-0.2321417481 -0.0866558254 0.5255111456 4282270026
-0.2325760424 -0.0862329751 0.5264943242 4282335819
-0.2326105684 -0.0856607184 0.5265724659 4282335819
-0.2334443480 -0.0853806064 0.5284599066 4282006854
-0.2326789647 -0.0845154375 0.5267273188 4282072647
-0.2323129773 -0.0837981924 0.5258988142 4282335819
-0.2323465645 -0.0832259133 0.5259748101 4282467405
-0.2323799431 -0.0826533809 0.5260503888 4282335817
-0.2324130833 -0.0820806101 0.5261253715 4282270024
-0.2324460000 -0.0815075934 0.5261999369 4282664782
-0.2324787080 -0.0809343308 0.5262739658 4282533196
-0.2325111926 -0.0803608298 0.5263475180 4282204231
-0.2325434536 -0.0797870904 0.5264205337 4282072645
-0.2325754911 -0.0792131126 0.5264930725 4281941059
-0.2326073050 -0.0786388963 0.5265650749 4282072645
-0.2330393046 -0.0781988055 0.5275430083 4282138440
-0.2330707312 -0.0776231363 0.5276141167 4282401612
-0.2331019193 -0.0770472288 0.5276847482 4282335819
-0.2331328988 -0.0764710903 0.5277549028 4282335819
-0.2331636548 -0.0758947283 0.5278245211 4282664782
-0.2331941724 -0.0753181353 0.5278936028 4283059540
-0.2340259403 -0.0749981627 0.5297765136 4283651675
-0.2336553335 -0.0742917061 0.5289375186 4284178019
-0.2336852401 -0.0737134516 0.5290052295 4283651160
-0.2341157943 -0.0732604191 0.5299798846 4289309358
-0.2351645380 -0.1982986927 0.5336958766 4286875534
-0.2352373302 -0.1977669150 0.5338611007 4281677370
-0.2360739708 -0.1978750229 0.5357598066 4281151026
-0.2361467034 -0.1973405331 0.5359248519 4285361519
-0.2354548126 -0.1961686462 0.5343546271 4288322204
-0.2359093577 -0.1959524900 0.5353862047 4289309095
-0.2359815240 -0.1954173893 0.5355499387 4289572267
-0.2349057794 -0.1939342320 0.5331085920 4289637803
-0.2334464788 -0.1921408176 0.5297967792 4289769389
-0.2342829853 -0.1922385693 0.5316952467 4289572010
-0.2312904894 -0.1891999096 0.5249038935 4289506217
-0.2279129475 -0.1858623326 0.5172387362 4289637803
-0.2275984734 -0.1850319803 0.5165250301 4289900975
-0.2253672332 -0.1826497614 0.5114613175 4289769389
-0.2250514328 -0.1818263382 0.5107445717 4289769389
-0.2251187414 -0.1813130826 0.5108973384 4289835182
-0.2248022854 -0.1804913580 0.5101791620 4289769389
-0.2248691916 -0.1799780577 0.5103310347 4290032561
-0.2245520949 -0.1791580468 0.5096113682 4289900975
-0.2246185839 -0.1786447167 0.5097622871 4289835182
-0.2246849090 -0.1781309247 0.5099127889 4289900975
-0.2247510999 -0.1776166707 0.5100629926 4289900975
-0.2252014279 -0.1774047166 0.5110850334 4289835182
-0.2248830050 -0.1765868217 0.5103623271 4289835182
-0.2253332436 -0.1763721853 0.5113841891 4289900975
-0.2250142843 -0.1755551547 0.5106602907 4289835180
-0.2250797004 -0.1750386506 0.5108087659 4289900973
-0.2251449674 -0.1745216846 0.5109568834 4289966766
-0.2252100706 -0.1740042716 0.5111046433 4289900973
-0.2252750099 -0.1734864265 0.5112520456 4289769387
-0.2253398150 -0.1729681194 0.5113990903 4289835180
-0.2254044414 -0.1724493653 0.5115457773 4289835180
-0.2254689187 -0.1719301641 0.5116921067 4289769387
-0.2255332470 -0.1714105308 0.5118380785 4289835180
-0.2252117693 -0.1705983281 0.5111084580 4289835180
-0.2252756655 -0.1700786799 0.5112534761 4289835180
-0.2253393978 -0.1695585996 0.5113981366 4289769387
-0.2254029661 -0.1690380722 0.5115423799 4289703594
-0.2254663855 -0.1685171127 0.5116863251 4289769387
-0.2255296409 -0.1679957062 0.5118298531 4289769387
-0.2255927324 -0.1674738675 0.5119730830 4289769387
-0.2256556600 -0.1669515967 0.5121158957 4289769387
-0.2257184386 -0.1664288789 0.5122583508 4289769387
-0.2257810533 -0.1659057289 0.5124004483 4289769387
-0.2254567742 -0.1650989503 0.5116645098 4289769387
-0.2259057760 -0.1648581326 0.5126835108 4289703594
-0.2259678990 -0.1643336713 0.5128244758 4289703594
-0.2260298580 -0.1638087928 0.5129650831 4289703594
-0.2260916382 -0.1632834822 0.5131053329 4289703594
-0.2261532694 -0.1627577245 0.5132451653 4289638314
-0.2258273810 -0.1619537622 0.5125055909 4289638314
-0.2258885652 -0.1614280641 0.5126444697 4289638314
-0.2255620360 -0.1606259495 0.5119034052 4289572521
-0.2256227881 -0.1601002961 0.5120412707 4289638314
-0.2256833762 -0.1595742106 0.5121787786 4289769900
-0.2257437855 -0.1590477228 0.5123158693 4289835693
-0.2258040458 -0.1585208029 0.5124526024 4289769900
