VERSION 0.7
FIELDS x y z rgba
SIZE 4 4 4 4
TYPE F F F U
COUNT 1 1 1 1
WIDTH 920
HEIGHT 1
VIEWPOINT 0.0 0.0 0.0 1.0 0.0 0.0 0.0
POINTS 920
DATA ascii
-0.3236539960 -0.1543392688 0.5683410168 4288255655
-0.3237237334 -0.1537409127 0.5684634447 4286216072
-0.3237932324 -0.1531421840 0.5685854554 4284044903
-0.3238624632 -0.1525430530 0.5687070489 4284505454
-0.3239314854 -0.1519435495 0.5688282251 4285031798
-0.3240002394 -0.1513436586 0.5689489841 4285623935
-0.3245509863 -0.1509677172 0.5699161291 4286939795
-0.3246193826 -0.1503661722 0.5700362325 4286808463
-0.3242050707 -0.1495417058 0.5693086386 4287269014
-0.3242728412 -0.1489402950 0.5694277287 4287203221
-0.3243404031 -0.1483385116 0.5695462823 4286413705
-0.3244076967 -0.1477363557 0.5696644783 4285755775
-0.3244747519 -0.1471338272 0.5697821975 4284966259
-0.3245415390 -0.1465309113 0.5698995590 4284439915
-0.3246081173 -0.1459276378 0.5700163841 4284768880
-0.3241912723 -0.1451077312 0.5692844391 4286874255
-0.3242572248 -0.1445046216 0.5694002509 4288124322
-0.3243229389 -0.1439011246 0.5695156455 4288584873
-0.3239049613 -0.1430837214 0.5687816739 4287334806
-0.3239700794 -0.1424804032 0.5688960552 4287795357
-0.3235513270 -0.1416649669 0.5681607127 4288519080
-0.3236158490 -0.1410618275 0.5682740211 4288058529
-0.3236801326 -0.1404583156 0.5683868527 4287203220
-0.3232602179 -0.1396454126 0.5676495433 4287466392
-0.3233239055 -0.1390420943 0.5677613616 4288519080
-0.3233873248 -0.1384384185 0.5678727031 4288913838
-0.3234505057 -0.1378343999 0.5679836869 4288124322
-0.3230291307 -0.1370245814 0.5672436953 4286808462
-0.3230917156 -0.1364207566 0.5673536062 4288453287
-0.3231540322 -0.1358165890 0.5674630404 4288387494
-0.3227315247 -0.1350093484 0.5667211413 4287400599
-0.3227932751 -0.1344053745 0.5668295026 4287926944
-0.3223699629 -0.1336001605 0.5660862327 4287400600
-0.3219462335 -0.1327964216 0.5653421283 4287334553
-0.3220070302 -0.1321932375 0.5654488802 4287400346
-0.3220675588 -0.1315897107 0.5655551553 4287466139
-0.3216426969 -0.1307885796 0.5648090839 4288387241
-0.3212173879 -0.1299889386 0.5640622973 4287663772
-0.3212769926 -0.1293862164 0.5641669035 4287926944
-0.3213362992 -0.1287831664 0.5642710924 4288453287
-0.3209098876 -0.1279861629 0.5635222793 4288519080
-0.3209686279 -0.1273833513 0.5636254549 4288387495
-0.3205414414 -0.1265884191 0.5628752708 4288716460
-0.3201138079 -0.1257949769 0.5621243715 4289242803
-0.3196857274 -0.1250030398 0.5613726377 4288979631
-0.3192572594 -0.1242126003 0.5606202483 4288716459
-0.3188283145 -0.1234236658 0.5598670244 4289242803
-0.3188850880 -0.1228234693 0.5599666834 4289505975
-0.3184553981 -0.1220366433 0.5592121482 4289703354
-0.3180252612 -0.1212513298 0.5584568381 4289374389
-0.3175947070 -0.1204675287 0.5577008128 4289571768
-0.3171637356 -0.1196852550 0.5569440126 4289834940
-0.3172188699 -0.1190871447 0.5570408106 4289703354
-0.3167871237 -0.1183069944 0.5562826395 4289900733
-0.3163549602 -0.1175283641 0.5555237532 4289703354
-0.3164091408 -0.1169311628 0.5556188822 4288979631
-0.3159762025 -0.1161546856 0.5548586845 4289111217
-0.3160297871 -0.1155577898 0.5549527407 4288979631
-0.3155960739 -0.1147834584 0.5541911721 4289177010
-0.3151619732 -0.1140106693 0.5534288883 4289177010
-0.3152146041 -0.1134147123 0.5535213351 4288650666
-0.3152669966 -0.1128184646 0.5536133051 4288913838
-0.3158065081 -0.1123953611 0.5545606613 4289242803
-0.3153710067 -0.1116250679 0.5537959337 4288913838
-0.3154226243 -0.1110279262 0.5538865924 4288650666
-0.3159615993 -0.1106011793 0.5548329949 4289045424
-0.3160127699 -0.1100025326 0.5549228787 4289374389
-0.3155759275 -0.1092347652 0.5541557670 4289045424
-0.3156265020 -0.1086364612 0.5542445779 4287663771
-0.3161647022 -0.1082048565 0.5551896691 4287795358
-0.3162148297 -0.1076050624 0.5552777052 4288782253
-0.3157766461 -0.1068398505 0.5545082092 4289308597
-0.3158261478 -0.1062404066 0.5545951724 4288255909
-0.3158754110 -0.1056406870 0.5546816587 4287663772
-0.3154361248 -0.1048783362 0.5539102554 4287466393
-0.3154847622 -0.1042789817 0.5539957285 4288190116
-0.3155331612 -0.1036793590 0.5540806651 4287926944
-0.3155812919 -0.1030794531 0.5541651845 4288584620
-0.3151405752 -0.1023206413 0.5533912778 4288716206
-0.3151880801 -0.1017211229 0.5534747243 4288519081
-0.3152353466 -0.1011213288 0.5535576940 4288782253
-0.3152823448 -0.1005212739 0.5536402464 4288453288
-0.3158179522 -0.1000758633 0.5545808077 4288321702
-0.3158644736 -0.0994743332 0.5546624660 4288584874
-0.3159107566 -0.0988725498 0.5547437668 4289440183
-0.3154676557 -0.0981183723 0.5539656281 4288979632
-0.3155133128 -0.0975169912 0.5540458560 4289505976
-0.3150694668 -0.0967650861 0.5532664061 4289177011
-0.3151145279 -0.0961641222 0.5533455610 4287795358
-0.3151593208 -0.0955628902 0.5534241796 4288387495
-0.3152038455 -0.0949614123 0.5535023808 4289177011
-0.3147585690 -0.0942131579 0.5527204871 4288453288
-0.3143129051 -0.0934665129 0.5519378781 4288519081
-0.3143564761 -0.0928661451 0.5520144105 4289177011
-0.3139100671 -0.0921218097 0.5512304902 4289703355
-0.3139530122 -0.0915218815 0.5513059497 4288782252
-0.3135058880 -0.0907798633 0.5505207181 4288782252
-0.3135482371 -0.0901803747 0.5505951047 4289111217
-0.3135903478 -0.0895806551 0.5506690741 4288848045
-0.3136321604 -0.0889806896 0.5507425070 4288848045
-0.3136737347 -0.0883804783 0.5508154631 4288979631
-0.3137150109 -0.0877800360 0.5508880019 4288584871
-0.3137560189 -0.0871793553 0.5509600043 4288782250
-0.3137967587 -0.0865784436 0.5510315299 4289242801
-0.3138372302 -0.0859772936 0.5511026382 4289440180
-0.3138774335 -0.0853759199 0.5511732101 4289308596
-0.3139173687 -0.0847743079 0.5512433052 4288848045
-0.3139570355 -0.0841724649 0.5513129830 4288519080
-0.3135057986 -0.0834398195 0.5505205989 4287400599
-0.3135448396 -0.0828384757 0.5505891442 4286150530
-0.3130928874 -0.0821081996 0.5497955084 4286413702
-0.3131313324 -0.0815073475 0.5498629808 4287992734
-0.3131694794 -0.0809062719 0.5499300361 4288979629
-0.3132073879 -0.0803049728 0.5499966145 4286742667
-0.3132449985 -0.0797034651 0.5500626564 4286940046
-0.3132823706 -0.0791017339 0.5501282215 4288979629
-0.3128283322 -0.0783767477 0.5493309498 4288979629
-0.3128650784 -0.0777755380 0.5493955016 4286808460
-0.3129015565 -0.0771741122 0.5494595170 4287729562
-0.3129377365 -0.0765724853 0.5495231152 4287992734
-0.3124823272 -0.0758513808 0.5487233996 4286940046
-0.3125179112 -0.0752502754 0.5487858653 4288650664
-0.3125532269 -0.0746489689 0.5488479137 4288913836
-0.3120967746 -0.0739310309 0.5480463505 4288650666
-0.3121314943 -0.0733302683 0.5481072664 4288650666
-0.3116743267 -0.0726147667 0.5473045111 4289111217
-0.3117084205 -0.0720145553 0.5473643541 4288913838
-0.3112505376 -0.0713014975 0.5465603471 4290032319
-0.3122675419 -0.0709252283 0.5483462214 4289242803
-0.3123008907 -0.0703234822 0.5484047532 4288453287
-0.3128257990 -0.0698313415 0.5493264794 4288979631
-0.3128586113 -0.0692282617 0.5493841171 4288387494
-0.3128911555 -0.0686249956 0.5494412780 4288190115
-0.3129234314 -0.0680215359 0.5494979620 4288453287
-0.3134474754 -0.0675239041 0.5504181981 4289703354
-0.3124949932 -0.0667090192 0.5487456322 4287861150
-0.3135107160 -0.0663141683 0.5505292416 4286018946
-0.3140341341 -0.0658121854 0.5514484048 4287597978
-0.3140650988 -0.0652059168 0.5515027642 4288979631
-0.3140957952 -0.0645994693 0.5515566468 4289242803
-0.3136338592 -0.0638925433 0.5507454276 4289045424
-0.3136639297 -0.0632866919 0.5507982969 4289177010
-0.3136937320 -0.0626806691 0.5508505702 4288584873
-0.3142157495 -0.0621719249 0.5517672896 4288913839
-0.3142450154 -0.0615646094 0.5518186688 4288848046
-0.3147666156 -0.0610526688 0.5527346134 4285689981
-0.3147953749 -0.0604440607 0.5527850986 4284505707
-0.3153165281 -0.0599289313 0.5537002683 4286940048
-0.3153447807 -0.0593190417 0.5537498593 4287334806
-0.3158655167 -0.0588007234 0.5546642542 4286742669
-0.3158932030 -0.0581895560 0.5547129512 4287137427
-0.3159206510 -0.0575782284 0.5547611117 4287532185
-0.3159478009 -0.0569667444 0.5548087955 4287861150
-0.3159746528 -0.0563551039 0.5548559427 4287466390
-0.3160012364 -0.0557433069 0.5549026132 4288387492
-0.3165205419 -0.0552173629 0.5558145046 4288190113
-0.3160535097 -0.0545192547 0.5549944639 4288190113
-0.3165723383 -0.0539910980 0.5559055209 4288255908
-0.3165978193 -0.0533777438 0.5559502244 4288979631
-0.3171161711 -0.0528464280 0.5568604469 4288848558
-0.3171411157 -0.0522318222 0.5569042563 4288124835
-0.3171657622 -0.0516170710 0.5569475293 4288190628
-0.3171901107 -0.0510021821 0.5569903255 4288453800
-0.3177075088 -0.0504655093 0.5578988791 4286611083
-0.3177313507 -0.0498493798 0.5579407215 4287992736
-0.3182482719 -0.0493095629 0.5588484406 4288584873
-0.3182715476 -0.0486922041 0.5588893294 4288650666
-0.3182945251 -0.0480747111 0.5589296818 4288650666
-0.3183172345 -0.0474570841 0.5589695573 4288321701
-0.3183396459 -0.0468393266 0.5590088964 4288058527
-0.3183617592 -0.0462214351 0.5590477586 4288782250
-0.3183835745 -0.0456034206 0.5590860844 4288124320
-0.3188987672 -0.0450550243 0.5599907041 4288716457
-0.3189200461 -0.0444357991 0.5600280762 4287926941
-0.3194347322 -0.0438842773 0.5609319210 4288255906
-0.3194554746 -0.0432638489 0.5609682798 4288585382
-0.3194758892 -0.0426432975 0.5610041618 4288519589
-0.3194960356 -0.0420226306 0.5610395670 4288651945
-0.3195158839 -0.0414018482 0.5610743761 4288454566
-0.3195354342 -0.0407809503 0.5611087680 4288586152
-0.3195546865 -0.0401599407 0.5611425638 4288915117
-0.3195736706 -0.0395388156 0.5611758828 4288980140
-0.3200863004 -0.0389777347 0.5620760322 4289967035
-0.3201047182 -0.0383554325 0.5621083975 4289901242
-0.3201228380 -0.0377330258 0.5621401668 4290230207
-0.3201406300 -0.0371105149 0.5621714592 4289836219
-0.3201581836 -0.0364878997 0.5622022748 4289375668
-0.3196812868 -0.0358098336 0.5613648891 4289441461
-0.3223330379 -0.1773241311 0.5671274662 4288717486
-0.3262272775 -0.1788287163 0.5739791393 4288191142
-0.3272607923 -0.1787555218 0.5757975578 4287664798
-0.3282945454 -0.1786783934 0.5776163936 4287730591
-0.3288512528 -0.1783385277 0.5785958767 4287796895
-0.3294079602 -0.1779964864 0.5795754194 4287862688
-0.3294871449 -0.1773951799 0.5797147155 4287862688
-0.3300437331 -0.1770496517 0.5806940198 4288125860
-0.3306003213 -0.1767019480 0.5816733241 4288783533
-0.3306790590 -0.1760975868 0.5818118453 4288520361
-0.3307575583 -0.1754928082 0.5819499493 4287994276
-0.3303577304 -0.1746348590 0.5812464356 4288257448
-0.3294792473 -0.1735263765 0.5797008276 4288389034
-0.3271651268 -0.1716680527 0.5756292939 4288717999
-0.3286770582 -0.1718188524 0.5782894492 4289375416
-0.3258826137 -0.1697209775 0.5733727217 4289507002
-0.3245225251 -0.1683782488 0.5709797740 4289178037
-0.3236403167 -0.1672878265 0.5694275498 4289046451
-0.3227574229 -0.1662005186 0.5678741336 4287928483
-0.3223528266 -0.1653620154 0.5671622753 4286810002
-0.3219477832 -0.1645248681 0.5664496422 4287006869
-0.3215422928 -0.1636890769 0.5657361746 4287467420
-0.3216156662 -0.1630977094 0.5658652782 4287466650
-0.3212093711 -0.1622637510 0.5651504397 4286150790
-0.3212821782 -0.1616724581 0.5652785301 4285427067
-0.3208750784 -0.1608403474 0.5645622611 4286611341
-0.3209472895 -0.1602491289 0.5646893382 4286413962
-0.3210192919 -0.1596575230 0.5648159981 4286150790
-0.3210910261 -0.1590655148 0.5649422407 4288453545
-0.3216426075 -0.1587099880 0.5659126639 4286150790
-0.3217139840 -0.1581163108 0.5660383105 4286940306
-0.3217851520 -0.1575222313 0.5661634803 4287861408
-0.3218560517 -0.1569277495 0.5662882328 4288321702
-0.3219267428 -0.1563328803 0.5664125681 4287795358
-0.3219971657 -0.1557376236 0.5665364861 4287137685
-0.3220673501 -0.1551419795 0.5666600466 4286677134
-0.3221373260 -0.1545459479 0.5667831302 4285492349
-0.3222070336 -0.1539495289 0.5669057965 4285689728
-0.3222765326 -0.1533527076 0.5670280457 4286150279
-0.3228268921 -0.1529835016 0.5679963231 4286018693
-0.3228959739 -0.1523850411 0.5681179166 4285492603
-0.3229648471 -0.1517861784 0.5682390928 4286084740
-0.3230334520 -0.1511869431 0.5683598518 4286742670
-0.3231018484 -0.1505873203 0.5684801340 4286347912
-0.3231699765 -0.1499873251 0.5685999990 4286940049
-0.3232378662 -0.1493869424 0.5687194467 4287663772
-0.3233055174 -0.1487861872 0.5688384771 4287861151
-0.3233729303 -0.1481850445 0.5689570904 4287663772
-0.3234400749 -0.1475835443 0.5690752268 4287926944
-0.3235069811 -0.1469816566 0.5691929460 4288124323
-0.3235736489 -0.1463794112 0.5693102479 4288058530
-0.3231577575 -0.1455595195 0.5685784817 4288058530
-0.3232238293 -0.1449574232 0.5686947107 4286479498
-0.3228071332 -0.1441394985 0.5679615736 4286084740
-0.3228726089 -0.1435375661 0.5680767894 4287400600
-0.3229378462 -0.1429352611 0.5681915879 4287532186
-0.3230028152 -0.1423325986 0.5683059096 4287861151
-0.3225846589 -0.1415177137 0.5675701499 4289045425
-0.3226490319 -0.1409152299 0.5676834583 4288913838
-0.3222300708 -0.1401023269 0.5669463277 4288453287
-0.3222938776 -0.1395000219 0.5670585632 4288321701
-0.3223574162 -0.1388973594 0.5671703815 4287137427
-0.3219373226 -0.1380870044 0.5664312243 4287466392
-0.3220002651 -0.1374845505 0.5665419698 4288650666
-0.3220629692 -0.1368817240 0.5666522980 4287269013
-0.3221254349 -0.1362785548 0.5667621493 4287597978
-0.3212200999 -0.1352676004 0.5651692748 4287861150
-0.3212818503 -0.1346655339 0.5652779341 4287992736
-0.3213433623 -0.1340631396 0.5653861761 4288848045
-0.3209205568 -0.1332593858 0.5646423101 4288650666
-0.3209814727 -0.1326572001 0.5647494793 4288519081
-0.3205579221 -0.1318555027 0.5640042424 4287992737
-0.3206182122 -0.1312535405 0.5641103387 4287597979
-0.3206782937 -0.1306512505 0.5642160177 4288782253
-0.3202535808 -0.1298521608 0.5634687543 4288650666
-0.3198284507 -0.1290545613 0.5627207756 4288453287
-0.3198875785 -0.1284530759 0.5628247857 4288584873
-0.3194616735 -0.1276575476 0.5620754361 4288782252
-0.3190353215 -0.1268635094 0.5613253117 4289308596
-0.3186085522 -0.1260709614 0.5605744123 4289374389
-0.3186663985 -0.1254708916 0.5606761575 4289242803
-0.3182388544 -0.1246804446 0.5599239469 4289374389
-0.3178108633 -0.1238914877 0.5591709614 4289440180
-0.3173824549 -0.1231040433 0.5584172010 4289571766
-0.3169536293 -0.1223181114 0.5576626658 4289374387
-0.3170098364 -0.1217200905 0.5577616096 4289440180
-0.3165802360 -0.1209362671 0.5570057034 4289505973
-0.3161502182 -0.1201539561 0.5562490821 4289374387
-0.3157197535 -0.1193731725 0.5554917455 4289308594
-0.3152888715 -0.1185939088 0.5547336340 4289571766
-0.3153434694 -0.1179979816 0.5548296571 4289571766
-0.3149118125 -0.1172208562 0.5540702343 4290295489
-0.3144797385 -0.1164452583 0.5533100367 4289966524
-0.3145334125 -0.1158502549 0.5534044504 4289571766
-0.3141005635 -0.1150768027 0.5526428819 4288913836
-0.3141536415 -0.1144821122 0.5527362227 4288782250
-0.3137200475 -0.1137108281 0.5519733429 4289308594
-0.3137724996 -0.1131164581 0.5520656705 4289242801
-0.3138247132 -0.1125217900 0.5521575212 4289242801
-0.3143632710 -0.1121003553 0.5531051159 4289769145
-0.3139283359 -0.1113315672 0.5523398519 4289966526
-0.3139797449 -0.1107360125 0.5524303317 4289966526
-0.3140309155 -0.1101401672 0.5525203347 4289834940
-0.3145687878 -0.1097138748 0.5534666777 4289308596
-0.3141324818 -0.1089476123 0.5526990294 4289177010
-0.3141828775 -0.1083509028 0.5527876616 4289111217
-0.3147201836 -0.1079209596 0.5537330508 4289374389
-0.3147701025 -0.1073227525 0.5538209081 4289440182
-0.3148198128 -0.1067242622 0.5539083481 4289505975
-0.3148692250 -0.1061254889 0.5539952517 4289374389
-0.3149183691 -0.1055264324 0.5540817380 4288782253
-0.3144797087 -0.1047646701 0.5533099174 4287992737
-0.3145282567 -0.1041659787 0.5533953905 4288321702
-0.3145765364 -0.1035670191 0.5534803271 4288387495
-0.3141367733 -0.1028081402 0.5527065992 4288453288
-0.3141844571 -0.1022095531 0.5527904630 4288190116
-0.3142319024 -0.1016106978 0.5528739095 4287137428
-0.3142790496 -0.1010115743 0.5529568791 4288913839
-0.3143259585 -0.1004121825 0.5530394316 4289177011
-0.3138844073 -0.0996575281 0.5522625446 4288650667
-0.3144189417 -0.0992125943 0.5532030463 4288848046
-0.3144650459 -0.0986123979 0.5532841086 4289440183
-0.3145108819 -0.0980119407 0.5533647537 4288979632
-0.3145564198 -0.0974112228 0.5534449220 4289900734
-0.3141132295 -0.0966599211 0.5526651144 4290229699
-0.3136695921 -0.0959102288 0.5518845916 4289505976
-0.3137142062 -0.0953105986 0.5519630909 4289374390
-0.3132698536 -0.0945631936 0.5511812568 4289374390
-0.3133138716 -0.0939639956 0.5512587428 4289111218
-0.3128687739 -0.0932188854 0.5504755974 4288584874
-0.3124232590 -0.0924753994 0.5496917367 4288255909
-0.3124663532 -0.0918773189 0.5497675538 4288913839
-0.3120200932 -0.0911361501 0.5489823818 4288979631
-0.3120625615 -0.0905385166 0.5490571260 4289308596
-0.3121047914 -0.0899406374 0.5491313934 4288913838
-0.3121467233 -0.0893425196 0.5492051840 4288650666
-0.3121883869 -0.0887441561 0.5492784977 4289374389
-0.3122298121 -0.0881455541 0.5493513346 4290032319
-0.3122709394 -0.0875467211 0.5494237542 4290032319
-0.3123117983 -0.0869476497 0.5494956374 4289966526
-0.3123523891 -0.0863483399 0.5495670438 4289900731
-0.3123927116 -0.0857487991 0.5496379733 4289703352
-0.3124327660 -0.0851490349 0.5497084856 4289308596
-0.3124725521 -0.0845490322 0.5497784615 4289177010
-0.3120222390 -0.0838172212 0.5489861369 4288979631
-0.3115715086 -0.0830870643 0.5481931567 4288058529
-0.3116103709 -0.0824882686 0.5482615232 4287400597
-0.3116489351 -0.0818892419 0.5483293533 4287795355
-0.3116872311 -0.0812899992 0.5483967662 4287992734
-0.3117252588 -0.0806905329 0.5484636426 4288979629
-0.3112728298 -0.0799649209 0.5476676226 4287466390
-0.3118005097 -0.0794909522 0.5485960245 4286940046
-0.3113474250 -0.0787667930 0.5477988720 4289440180
-0.3113842905 -0.0781674087 0.5478637218 4289505973
-0.3114209175 -0.0775678158 0.5479281545 4288782250
-0.3114572465 -0.0769680068 0.5479920506 4288716457
-0.3110027611 -0.0762477219 0.5471924543 4289440182
-0.3110384941 -0.0756484419 0.5472553372 4288650666
-0.3105832934 -0.0749305859 0.5464544296 4289111217
-0.3106184304 -0.0743318424 0.5465162396 4289440182
-0.3101625144 -0.0736164078 0.5457140803 4289374389
-0.3101970255 -0.0730182081 0.5457748175 4288913838
-0.3102312684 -0.0724198073 0.5458350778 4289177010
-0.3092834055 -0.0715939328 0.5441673398 4289242803
-0.3107899427 -0.0713351145 0.5468180180 4288716459
-0.3108234107 -0.0707351789 0.5468769073 4289440182
-0.3113476932 -0.0702458471 0.5477993488 4288716459
-0.3113806844 -0.0696445778 0.5478574038 4288190115
-0.3114133775 -0.0690431222 0.5479149222 4287926943
-0.3119370341 -0.0685494244 0.5488362908 4287926943
-0.3119692504 -0.0679466426 0.5488929152 4288321701
-0.3110184968 -0.0671315715 0.5472201109 4289242803
-0.3120328188 -0.0667405203 0.5490047336 4289308596
-0.3120641708 -0.0661371872 0.5490599275 4287992736
-0.3125867546 -0.0656368658 0.5499793887 4287729564
-0.3126176000 -0.0650322214 0.5500336885 4289308596
-0.3126481771 -0.0644273981 0.5500874519 4289571768
-0.3126784861 -0.0638223961 0.5501407981 4289440182
-0.3127084970 -0.0632172152 0.5501936078 4289308596
-0.3127382398 -0.0626118630 0.5502458811 4287992736
-0.3132594526 -0.0621038340 0.5511629581 4287466392
-0.3132886589 -0.0614971891 0.5512143970 4289440182
-0.3133176267 -0.0608903728 0.5512652993 4287400599
-0.3133462667 -0.0602833927 0.5513157248 4286676876
-0.3143585622 -0.0598636121 0.5530967712 4288124322
-0.3143867254 -0.0592543930 0.5531463623 4288321701
-0.3144146204 -0.0586450100 0.5531954765 4288190115
-0.3144422472 -0.0580354668 0.5532440543 4287992736
-0.3144695759 -0.0574257635 0.5532920957 4288058529
-0.3149887919 -0.0569048189 0.5542056561 4287005841
-0.3150155842 -0.0562938452 0.5542528033 4286676874
-0.3150421083 -0.0556827188 0.5542994738 4287137425
-0.3150683343 -0.0550714359 0.5543456078 4286545288
-0.3160789609 -0.0546301901 0.5561237335 4288190113
-0.3161047101 -0.0540166982 0.5561690331 4288848045
-0.3161301613 -0.0534030534 0.5562138557 4289111217
-0.3166477978 -0.0528714880 0.5571245551 4288980144
-0.3166727126 -0.0522565953 0.5571684241 4288585386
-0.3166973293 -0.0516415611 0.5572117567 4289045937
-0.3167216778 -0.0510263778 0.5572546124 4288980144
-0.3167457581 -0.0504110605 0.5572969317 4287400599
-0.3177548051 -0.0499504842 0.5590723157 4288190115
-0.3177783489 -0.0493329726 0.5591137409 4288058529
-0.3178016245 -0.0487153232 0.5591546893 4288453287
-0.3178246021 -0.0480975360 0.5591951013 4288782250
-0.3178472817 -0.0474796221 0.5592350364 4288190113
-0.3178696632 -0.0468615703 0.5592744350 4287992734
-0.3178917766 -0.0462433919 0.5593132973 4288190113
-0.3179135919 -0.0456250869 0.5593516827 4287663769
-0.3179351091 -0.0450066552 0.5593895316 4288782250
-0.3189422488 -0.0445257351 0.5611615777 4288058527
-0.3189632595 -0.0439051352 0.5611985326 4287861148
-0.3189839721 -0.0432844125 0.5612349510 4287993247
-0.3190043867 -0.0426635705 0.5612708926 4288453798
-0.3185314536 -0.0419776328 0.5604387522 4288322212
-0.3190443516 -0.0414215364 0.5613412261 4288256419
-0.3190639019 -0.0408003442 0.5613756180 4288388005
-0.3195763230 -0.0402411409 0.5622771978 4288782763
-0.3191021085 -0.0395576246 0.5614427924 4288651177
-0.3196139932 -0.0389962792 0.5623434782 4288980142
-0.3196324110 -0.0383736826 0.5623758435 4289703865
-0.3191572130 -0.0376927257 0.5615397692 4289967037
-0.3191750050 -0.0370708779 0.5615710616 4289836221
-0.3191924989 -0.0364489295 0.5616018176 4289638842
-0.3197030723 -0.0358822532 0.5625001788 4289507256
-0.3192265928 -0.0352047309 0.5616618395 4289244084
-0.3240674138 -0.1798968315 0.5712953806 4288849072
-0.3255750537 -0.1800960451 0.5739532113 4289375416
-0.3256548643 -0.1795023382 0.5740939379 4289243830
-0.3276393414 -0.1799544394 0.5775923133 4288585900
-0.3281954825 -0.1796170622 0.5785727501 4288388521
-0.3282752037 -0.1790176928 0.5787132978 4288256935
-0.3288312554 -0.1786768436 0.5796935558 4287862688
-0.3289106190 -0.1780757457 0.5798334479 4288389032
-0.3289897740 -0.1774742007 0.5799729824 4288454825
-0.3290686905 -0.1768722236 0.5801120996 4288191653
-0.3296243846 -0.1765252650 0.5810917020 4288191653
-0.3297029436 -0.1759215593 0.5812302232 4288125860
-0.3288267851 -0.1748099774 0.5796856284 4288125860
-0.3279499114 -0.1737014651 0.5781398416 4288389032
-0.3270723820 -0.1725960374 0.5765928030 4287928483
-0.3238061965 -0.1702382416 0.5708348751 4287467932
-0.3253152370 -0.1703944206 0.5734952092 4287664798
-0.3239578605 -0.1690489054 0.5711022615 4288717486
-0.3225995600 -0.1677082330 0.5687077045 4288191142
-0.3217183948 -0.1666200012 0.5671543479 4287862177
-0.3213147223 -0.1657815725 0.5664426684 4288322728
-0.3209105730 -0.1649444997 0.5657302737 4288322728
-0.3205060065 -0.1641087681 0.5650169849 4286084999
-0.3201009631 -0.1632743925 0.5643029809 4284769139
-0.3201740682 -0.1626845598 0.5644318461 4286348169
-0.3202469349 -0.1620943248 0.5645602942 4286545548
-0.3198407590 -0.1612622589 0.5638442636 4286019204
-0.3199130595 -0.1606720984 0.5639716983 4285953411
-0.3199851215 -0.1600815356 0.5640987754 4287203478
-0.3200569451 -0.1594905853 0.5642253757 4287927201
-0.3201285601 -0.1588992327 0.5643516183 4288519338
-0.3206792474 -0.1585444659 0.5653224587 4286479755
-0.3207505047 -0.1579514295 0.5654480457 4286019204
-0.3208214939 -0.1573579907 0.5655732155 4287598236
-0.3208922446 -0.1567641795 0.5656979084 4286413705
-0.3209627867 -0.1561699510 0.5658222437 4287597979
-0.3210330606 -0.1555753499 0.5659461617 4287466650
-0.3211031258 -0.1549803615 0.5660696626 4286940306
-0.3211729228 -0.1543849707 0.5661927462 4286347912
-0.3212425113 -0.1537891924 0.5663154125 4286940049
-0.3213118315 -0.1531930417 0.5664376616 4286084740
-0.3213809431 -0.1525964886 0.5665594339 4286676877
-0.3219302893 -0.1522267759 0.5675278902 4287071635
-0.3219990134 -0.1516285688 0.5676490068 4287071635
-0.3220674992 -0.1510299742 0.5677697659 4287795358
-0.3221357167 -0.1504310071 0.5678900480 4286676877
-0.3222037256 -0.1498316526 0.5680099130 4285689982
-0.3222714663 -0.1492319256 0.5681293011 4287532186
-0.3223389685 -0.1486318260 0.5682483315 4288453288
-0.3224062324 -0.1480313390 0.5683668852 4287861151
-0.3224732578 -0.1474304944 0.5684850812 4287334807
-0.3225400150 -0.1468292624 0.5686027408 4287729565
-0.3226065338 -0.1462276578 0.5687200427 4287992737
-0.3221912384 -0.1454083323 0.5679878592 4287663772
-0.3222571611 -0.1448068768 0.5681041479 4286940049
-0.3218410611 -0.1439895034 0.5673705935 4287005842
-0.3219063878 -0.1433882266 0.5674857497 4288058530
-0.3219715059 -0.1427865773 0.5676005483 4288255909
-0.3215542436 -0.1419717222 0.5668649673 4287532186
-0.3211365640 -0.1411582977 0.5661286712 4287926944
-0.3212007284 -0.1405573636 0.5662417412 4288519081
-0.3207822740 -0.1397459209 0.5655040145 4288650667
-0.3208458424 -0.1391451806 0.5656160712 4288453287
-0.3209091425 -0.1385440677 0.5657277107 4287466392
-0.3204895556 -0.1377351880 0.5649880171 4287926943
-0.3205522895 -0.1371342689 0.5650985837 4289637561
-0.3206147552 -0.1365330070 0.5652087331 4288979631
-0.3206769824 -0.1359314024 0.5653184056 4288387494
-0.3197728693 -0.1349218190 0.5637245774 4288124322
-0.3198344111 -0.1343213320 0.5638330579 4288584873
-0.3198956847 -0.1337204874 0.5639411211 4289045424
-0.3194734156 -0.1329182088 0.5631966591 4288519080
-0.3195340931 -0.1323175877 0.5633036494 4288650666
-0.3191110492 -0.1315173656 0.5625578165 4288716459
-0.3186875284 -0.1307186186 0.5618112683 4288255908
-0.3187472820 -0.1301187873 0.5619165897 4289242803
-0.3188067973 -0.1295186281 0.5620214939 4289637561
-0.3183821738 -0.1287225187 0.5612729192 4289769147
-0.3184410632 -0.1281225979 0.5613767505 4289374389
-0.3180156648 -0.1273285449 0.5606268644 4289637561
-0.3175898492 -0.1265359968 0.5598761439 4289637561
-0.3171635866 -0.1257449389 0.5591247082 4289177010
-0.3162526190 -0.1247643083 0.5575187206 4289374389
-0.3167941868 -0.1243574694 0.5584735274 4289834940
-0.3158822656 -0.1233807653 0.5568658710 4289637559
-0.3154542744 -0.1225957274 0.5561113954 4289769145
-0.3155105412 -0.1219995990 0.5562105775 4289374387
-0.3150818050 -0.1212166697 0.5554547310 4289505973
-0.3146526217 -0.1204352528 0.5546981692 4289571766
-0.3147079647 -0.1198400110 0.5547956824 4289440180
-0.3142780364 -0.1190607175 0.5540378094 4289308594
-0.3138476610 -0.1182829514 0.5532791018 4289374387
-0.3134168983 -0.1175067127 0.5525196791 4288979629
-0.3134709597 -0.1169129834 0.5526149869 4289769145
-0.3130393922 -0.1161388829 0.5518542528 4290163903
-0.3126074374 -0.1153663173 0.5510927439 4289769145
-0.3126605749 -0.1147735119 0.5511863828 4289571766
-0.3122278452 -0.1140031070 0.5504235029 4289571766
-0.3122803569 -0.1134106219 0.5505161285 4289834938
-0.3118468821 -0.1126423851 0.5497519374 4289308594
-0.3118988276 -0.1120502278 0.5498434901 4288519078
-0.3124364018 -0.1116313860 0.5507912040 4289111215
-0.3124879003 -0.1110377163 0.5508819818 4289308596
-0.3125391304 -0.1104437485 0.5509722829 4288913838
-0.3125901222 -0.1098494977 0.5510621667 4289177010
-0.3126408160 -0.1092549488 0.5511515737 4289571768
-0.3126913011 -0.1086601168 0.5512405634 4289834940
-0.3127414882 -0.1080649942 0.5513290167 4289571768
-0.3127914369 -0.1074695885 0.5514171124 4289571768
-0.3128411174 -0.1068738997 0.5515046716 4289571768
-0.3128905296 -0.1062779278 0.5515918136 4289637561
-0.3129397035 -0.1056816727 0.5516784787 4290032319
-0.3129886091 -0.1050851345 0.5517646670 4290229698
-0.3130372465 -0.1044883206 0.5518504381 4289769147
-0.3125987053 -0.1037296504 0.5510773063 4289440182
-0.3126467466 -0.1031332165 0.5511620045 4289637561
-0.3126945198 -0.1025364995 0.5512462258 4289637561
-0.3122549057 -0.1017807275 0.5504712462 4288782252
-0.3123020828 -0.1011843979 0.5505543947 4287663771
-0.3123489916 -0.1005878001 0.5506370664 4289308596
-0.3123956323 -0.0999909341 0.5507193208 4289703354
-0.3124420345 -0.0993938074 0.5508010983 4289308596
-0.3124881387 -0.0987964049 0.5508823991 4289505975
-0.3130215704 -0.0983519405 0.5518227816 4289900733
-0.3130672276 -0.0977530852 0.5519033074 4289111217
-0.3126249313 -0.0970026404 0.5511235595 4289769147
-0.3126699924 -0.0964041948 0.5512029529 4289769147
-0.3122269213 -0.0956560299 0.5504218936 4289703354
-0.3122713864 -0.0950580016 0.5505002737 4289900733
-0.3118275702 -0.0943121314 0.5497179031 4289703354
-0.3118714392 -0.0937145352 0.5497952104 4289374389
-0.3114269078 -0.0929709673 0.5490115285 4289177010
-0.3114701509 -0.0923738033 0.5490878224 4288716459
-0.3115131557 -0.0917763934 0.5491635799 4288124322
-0.3110675216 -0.0910358205 0.5483780503 4287663771
-0.3106215298 -0.0902968794 0.5475917459 4288782252
-0.3106635809 -0.0897006094 0.5476658940 4288716460
-0.3107053638 -0.0891040936 0.5477395654 4288519081
-0.3107468784 -0.0885073468 0.5478127599 4288848045
-0.3107881248 -0.0879103541 0.5478854775 4289374389
-0.3103404045 -0.0871758386 0.5470961928 4289966526
-0.3108698428 -0.0867156610 0.5480294824 4289769147
-0.3109102845 -0.0861179680 0.5481008291 4289703354
-0.3109504580 -0.0855200365 0.5481716394 4289045424
-0.3109903634 -0.0849218741 0.5482419729 4288255908
-0.3105409443 -0.0841908976 0.5474497080 4288650666
-0.3105802536 -0.0835932195 0.5475190282 4289571768
-0.3106192946 -0.0829953179 0.5475878119 4289571768
-0.3101688325 -0.0822674334 0.5467936993 4289505975
-0.3097179830 -0.0815412030 0.5459989309 4289571768
-0.3097560704 -0.0809445158 0.5460660458 4289571768
-0.3097939193 -0.0803476125 0.5461327434 4289637561
-0.3098314703 -0.0797504857 0.5461989641 4288979631
-0.3098687530 -0.0791531429 0.5462647080 4288453287
-0.3099057674 -0.0785555914 0.5463299751 4289834940
-0.3099425137 -0.0779578164 0.5463947654 4289637561
-0.3099789917 -0.0773598403 0.5464590192 4290361284
-0.3100151718 -0.0767616481 0.5465228558 4290098112
-0.3100511134 -0.0761632472 0.5465862155 4290163905
-0.3095968962 -0.0754452646 0.5457854867 4290032319
-0.3096322119 -0.0748473927 0.5458477139 4289834940
-0.3091773093 -0.0741318390 0.5450457335 4289242803
-0.3092120290 -0.0735345110 0.5451069474 4289045424
-0.3087563813 -0.0728213936 0.5443037152 4288650666
-0.3087905049 -0.0722246170 0.5443638563 4288255908
-0.3093145490 -0.0717413351 0.5452877283 4288913838
-0.3098384142 -0.0712559596 0.5462112427 4288058529
-0.3098718226 -0.0706567019 0.5462701321 4288453287
-0.3099049628 -0.0700572431 0.5463285446 4288913838
-0.3099378347 -0.0694575980 0.5463864803 4288584873
-0.3104608655 -0.0689667165 0.5473085642 4288519080
-0.3104932308 -0.0683657378 0.5473656058 4288190115
-0.3095441759 -0.0675504729 0.5456925035 4288387494
-0.3105570972 -0.0671632290 0.5474781990 4289177010
-0.3105886281 -0.0665616989 0.5475338101 4289374389
-0.3106198907 -0.0659599826 0.5475888848 4288190115
-0.3111416101 -0.0654613450 0.5485086441 4287532185
-0.3111723661 -0.0648583174 0.5485628247 4288584873
-0.3112028241 -0.0642551109 0.5486165285 4288716459
-0.3112330139 -0.0636517331 0.5486697555 4289111217
-0.3117538691 -0.0631476268 0.5495879650 4288650666
-0.3117835224 -0.0625429451 0.5496402383 4288190115
-0.3123039603 -0.0620356351 0.5505577326 4288584873
-0.3123331368 -0.0614296608 0.5506091118 4289111217
-0.3123620152 -0.0608235188 0.5506600142 4287992736
-0.3123905957 -0.0602172092 0.5507104397 4288453287
-0.3134013712 -0.0597981885 0.5524923205 4288453287
-0.3134294748 -0.0591896400 0.5525419116 4287992736
-0.3134573102 -0.0585809276 0.5525909662 4288190115
-0.3134848773 -0.0579720587 0.5526395440 4287992736
-0.3130207658 -0.0572731160 0.5518213511 4288321701
-0.3135391474 -0.0567538328 0.5527352095 4287992736
-0.3135658503 -0.0561444871 0.5527822971 4287400597
-0.3140837848 -0.0556220338 0.5536953807 4287334804
-0.3141099811 -0.0550114214 0.5537415147 4287203218
-0.3141358793 -0.0544006601 0.5537871718 4288321699
-0.3141614795 -0.0537897460 0.5538322926 4287532185
-0.3151701689 -0.0533451289 0.5556105375 4287992736
-0.3151952922 -0.0527320094 0.5556548238 4288453800
-0.3157118857 -0.0522000492 0.5565655231 4288190628
-0.3157364726 -0.0515856817 0.5566088557 4287927456
-0.3157607615 -0.0509711727 0.5566516519 4288388007
-0.3157847524 -0.0503565185 0.5566939712 4287861150
-0.3158084750 -0.0497417301 0.5567358136 4288716459
-0.3158319294 -0.0491268001 0.5567771196 4289111217
-0.3168390393 -0.0486628637 0.5585525632 4287992736
-0.3168619573 -0.0480457470 0.5585929751 4289308594
-0.3168846071 -0.0474284999 0.5586328506 4289111215
-0.3169069290 -0.0468111187 0.5586722493 4288913836
-0.3169290125 -0.0461936109 0.5587111712 4288782250
-0.3169507682 -0.0455759726 0.5587495565 4288058527
-0.3169722557 -0.0449582078 0.5587874055 4288650664
-0.3174856603 -0.0444091707 0.5596925020 4288519078
-0.3179988563 -0.0438580886 0.5605971813 4288058527
-0.3180195093 -0.0432380363 0.5606335998 4288124322
-0.3180398941 -0.0426178612 0.5606695414 4288519080
-0.3180599809 -0.0419975705 0.5607049465 4288059042
-0.3180797696 -0.0413771644 0.5607398748 4288388007
-0.3180992901 -0.0407566391 0.5607742071 4288322212
-0.3181184828 -0.0401360020 0.5608081222 4287401110
-0.3186298907 -0.0395764224 0.5617096424 4286611081
-0.3186485469 -0.0389546044 0.5617424846 4286940046
-0.3186669052 -0.0383326784 0.5617748499 4288848556
-0.3186849654 -0.0377106443 0.5618067384 4289045935
-0.3187027276 -0.0370885022 0.5618380904 4289045935
-0.3187202215 -0.0364662595 0.5618689060 4288914349
-0.3187374175 -0.0358439162 0.5618991852 4289177521
-0.3187542856 -0.0352214724 0.5619289279 4289440693
-0.3192635775 -0.0346524082 0.5628267527 4289309107
-0.3187871873 -0.0339762941 0.5619869232 4289506486
-0.3188031912 -0.0333535597 0.5620151758 4289112496
-0.3188189268 -0.0327307358 0.5620428920 4289309875
-0.3188343346 -0.0321078189 0.5620700717 4289309875
-0.3183566630 -0.0314361490 0.5612279773 4289046703
-0.3178786337 -0.0307663176 0.5603852272 4288783531
-0.3174002469 -0.0300983265 0.5595419407 4288651945
-0.3255569637 -0.1804393232 0.5750472546 4289704381
-0.3265875876 -0.1803696156 0.5768676996 4289441209
-0.3261919916 -0.1795109659 0.5761688948 4288980658
-0.3267471194 -0.1791752279 0.5771495104 4289178037
-0.3273023069 -0.1788372993 0.5781301260 4289112244
-0.3273816109 -0.1782381535 0.5782701969 4288980912
-0.3279366493 -0.1778967530 0.5792506337 4288651947
-0.3280156553 -0.1772958487 0.5793901086 4288191396
-0.3280943930 -0.1766945124 0.5795292258 4287862431
-0.3281728923 -0.1760927439 0.5796679258 4288191142
-0.3282511830 -0.1754905432 0.5798062086 4288059556
-0.3283292353 -0.1748879105 0.5799440742 4287335833
-0.3274537921 -0.1737789512 0.5783976912 4287270040
-0.3261008859 -0.1724209785 0.5760080218 4286677389
-0.3252239525 -0.1713190526 0.5744590163 4286480010
-0.3224384189 -0.1692189127 0.5695387721 4286874768
-0.3210825622 -0.1678772122 0.5671439171 4288124835
-0.3202030361 -0.1667889506 0.5655903816 4288651179
-0.3198001683 -0.1659514606 0.5648787022 4288190628
-0.3198742568 -0.1653621495 0.5650095940 4286743182
-0.3194705546 -0.1645264775 0.5642965436 4286874768
-0.3190664351 -0.1636921763 0.5635827184 4288782510
-0.3191396296 -0.1631034017 0.5637120008 4287532443
-0.3192125559 -0.1625142097 0.5638408065 4287532443
-0.3188073039 -0.1616822183 0.5631250143 4287071892
-0.3188796937 -0.1610931158 0.5632528663 4288650924
-0.3194300234 -0.1607442349 0.5642248988 4287992994
-0.3195020258 -0.1601534337 0.5643521547 4287927201
-0.3195738196 -0.1595622450 0.5644789338 4288585131
-0.3196453750 -0.1589706540 0.5646052957 4288190373
-0.3197166920 -0.1583786756 0.5647312999 4286150790
-0.3197877705 -0.1577862948 0.5648568273 4287006099
-0.3198586404 -0.1571935117 0.5649819970 4288190373
-0.3204081655 -0.1568347663 0.5659527183 4287203221
-0.3199996352 -0.1560067832 0.5652310252 4288716460
-0.3200697601 -0.1554128230 0.5653549433 4288256166
-0.3201396763 -0.1548184752 0.5654783845 4287203478
-0.3202093244 -0.1542237401 0.5656014681 4287005842
-0.3207582235 -0.1538586020 0.5665709972 4288584874
-0.3208275139 -0.1532622129 0.5666933656 4288650667
-0.3208965659 -0.1526654214 0.5668153763 4287992737
-0.3209653795 -0.1520682573 0.5669369102 4287334807
-0.3215138316 -0.1516971141 0.5679056644 4287663772
-0.3206223249 -0.1506472528 0.5663309693 4288387495
-0.3216504455 -0.1504990757 0.5681470037 4287466393
-0.3217184246 -0.1498994827 0.5682670474 4285492603
-0.3217861056 -0.1492995173 0.5683866143 4287269014
-0.3218535781 -0.1486991644 0.5685057640 4288321702
-0.3214403391 -0.1478773952 0.5677758455 4288321702
-0.3215072155 -0.1472771913 0.5678939819 4288058530
-0.3215738237 -0.1466766149 0.5680116415 4288058530
-0.3216402233 -0.1460756660 0.5681289434 4288255909
-0.3212254941 -0.1452568918 0.5673963428 4288190116
-0.3208103180 -0.1444395483 0.5666630268 4286676877
-0.3208757639 -0.1438392848 0.5667786002 4285821568
-0.3204598129 -0.1430239081 0.5660438538 4287466393
-0.3205246627 -0.1424238086 0.5661584735 4288650667
-0.3201079071 -0.1416103989 0.5654223561 4287861150
-0.3201721907 -0.1410104930 0.5655358434 4288519080
-0.3197546601 -0.1401990652 0.5647983551 4288913838
-0.3193366826 -0.1393890977 0.5640600920 4289177010
-0.3194000125 -0.1387899071 0.5641719699 4289834940
-0.3189812601 -0.1379819214 0.5634322762 4290032319
-0.3190440238 -0.1373829395 0.5635431409 4289966526
-0.3186244965 -0.1365769655 0.5628020763 4290295491
-0.3186866343 -0.1359781772 0.5629118681 4290032319
-0.3187485337 -0.1353790313 0.5630211830 4289769147
-0.3183279037 -0.1345756352 0.5622781515 4289505975
-0.3179067969 -0.1337737143 0.5615344048 4289769147
-0.3179677725 -0.1331753433 0.5616420507 4289966526
-0.3180284798 -0.1325766295 0.5617493391 4289308596
-0.3176062703 -0.1317773163 0.5610035658 4289177010
-0.3171836436 -0.1309794635 0.5602570176 4289505975
-0.3172434270 -0.1303815544 0.5603626370 4288913838
-0.3173029423 -0.1297833025 0.5604677796 4289308596
-0.3168791831 -0.1289880872 0.5597192645 4289703354
-0.3164549768 -0.1281943619 0.5589699745 4289703354
-0.3165135980 -0.1275969297 0.5590735078 4289966526
-0.3160886168 -0.1268052608 0.5583228469 4289900733
-0.3156632185 -0.1260151118 0.5575714707 4289703354
-0.3152374029 -0.1252264529 0.5568192601 4289769147
-0.3148111403 -0.1244392917 0.5560663939 4289703354
-0.3143844604 -0.1236536354 0.5553126931 4289571768
-0.3139573336 -0.1228694916 0.5545582771 4289571768
-0.3135298193 -0.1220868602 0.5538030863 4289177010
-0.3135857582 -0.1214932278 0.5539019704 4289111215
-0.3136414886 -0.1208992749 0.5540003777 4289637559
-0.3132128417 -0.1201193556 0.5532432199 4288584871
-0.3127837777 -0.1193409562 0.5524853468 4288584871
-0.3123542964 -0.1185640767 0.5517266989 4288650664
-0.3119243681 -0.1177887246 0.5509673357 4288519078
-0.3119784892 -0.1171968877 0.5510628819 4288321699
-0.3115478158 -0.1164236739 0.5503022075 4288584871
-0.3116013110 -0.1158321425 0.5503966808 4289045422
-0.3111698925 -0.1150610819 0.5496346354 4289637559
-0.3107380271 -0.1142915636 0.5488718748 4289834938
-0.3107906282 -0.1137009636 0.5489647388 4289703352
-0.3103580177 -0.1129336059 0.5482006073 4290032317
-0.3099249899 -0.1121677980 0.5474357605 4290427075
-0.3099766374 -0.1115781516 0.5475269556 4289637559
-0.3100280464 -0.1109882146 0.5476177931 4289045422
-0.3100791872 -0.1103979796 0.5477080941 4289440182
-0.3106154203 -0.1099793017 0.5486552715 4289505975
-0.3106661439 -0.1093875617 0.5487448573 4289834940
-0.3107165992 -0.1087955311 0.5488339663 4290032319
-0.3107667863 -0.1082032174 0.5489226580 4289966526
-0.3108167350 -0.1076106131 0.5490108728 4289834940
-0.3108664155 -0.1070177257 0.5490986109 4289703354
-0.3109158278 -0.1064245552 0.5491859317 4289374389
-0.3109650016 -0.1058311015 0.5492727160 4289571768
-0.3110139072 -0.1052373722 0.5493591428 4289966526
-0.3110625446 -0.1046433523 0.5494450331 4289571768
-0.3111109436 -0.1040490642 0.5495305061 4289440182
-0.3111590445 -0.1034544930 0.5496155024 4289440182
-0.3107206523 -0.1026989371 0.5488411188 4289703354
-0.3107681870 -0.1021047458 0.5489251018 4289834940
-0.3108154535 -0.1015102863 0.5490086079 4290163905
-0.3103759587 -0.1007576361 0.5482323170 4290032319
-0.3104226291 -0.1001635641 0.5483147502 4290163905
-0.3104690313 -0.0995692313 0.5483967066 4290229698
-0.3105151951 -0.0989746302 0.5484781861 4290163905
-0.3105610609 -0.0983797684 0.5485592484 4290163905
-0.3106066883 -0.0977846384 0.5486398339 4290361284
-0.3106520176 -0.0971892476 0.5487199426 4289900733
-0.3106971085 -0.0965936035 0.5487995744 4290163905
-0.3107419312 -0.0959976912 0.5488787293 4289966526
-0.3102993667 -0.0952519923 0.5480970144 4290163905
-0.3103435934 -0.0946565121 0.5481751561 4290558663
-0.3103875518 -0.0940607712 0.5482528210 4290558663
-0.3099439144 -0.0933180526 0.5474691987 4290558663
-0.3094998896 -0.0925769508 0.5466848612 4290558663
-0.3095429242 -0.0919823349 0.5467608571 4290361284
-0.3095856905 -0.0913874656 0.5468363762 4289703354
-0.3096281886 -0.0907923579 0.5469114780 4288782252
-0.3091827333 -0.0900549516 0.5461246371 4289440182
-0.3087368906 -0.0893191919 0.5453371406 4289637561
-0.3087784648 -0.0887252241 0.5454105735 4289637561
-0.3088197708 -0.0881310180 0.5454835296 4289505975
-0.3088608086 -0.0875365809 0.5455560088 4289769147
-0.3089015782 -0.0869418979 0.5456280112 4290098112
-0.3094301224 -0.0864833966 0.5465616584 4289440182
-0.3094704151 -0.0858873129 0.5466328263 4289900733
-0.3095104396 -0.0852909908 0.5467035174 4289505975
-0.3095502257 -0.0846944451 0.5467737317 4288387494
-0.3091014028 -0.0839650184 0.5459809303 4288650666
-0.3086521626 -0.0832372531 0.5451874733 4289637561
-0.3086909950 -0.0826419070 0.5452560782 4289834940
-0.3087295592 -0.0820463300 0.5453242064 4289900731
-0.3082793057 -0.0813216642 0.5445288420 4289637559
-0.3083172441 -0.0807265937 0.5445958972 4289769147
-0.3083549440 -0.0801312998 0.5446624756 4289834940
-0.3079036176 -0.0794097409 0.5438652635 4289308596
-0.3079407215 -0.0788149610 0.5439308286 4288650666
-0.3084663749 -0.0783441290 0.5448593497 4289242803
-0.3080140948 -0.0776247606 0.5440604091 4289505975
-0.3080503643 -0.0770293474 0.5441244841 4290032319
-0.3080863655 -0.0764337182 0.5441880822 4289769147
-0.3081220984 -0.0758378804 0.5442512035 4290229698
-0.3081575632 -0.0752418414 0.5443138480 4289966526
-0.3077035844 -0.0745271072 0.5435119271 4290032317
-0.3077384531 -0.0739316046 0.5435734987 4289308594
-0.3072837293 -0.0732193068 0.5427703261 4288848043
-0.3073180020 -0.0726243481 0.5428308845 4288321699
-0.3073520064 -0.0720291883 0.5428909063 4287400597
-0.3073857129 -0.0714338347 0.5429505110 4289374387
-0.3079086840 -0.0709510893 0.5438742638 4289045424
-0.3084315062 -0.0704662427 0.5447977185 4287861150
-0.3084644973 -0.0698684156 0.5448560119 4289703354
-0.3084972501 -0.0692703873 0.5449138284 4289703354
-0.3085297048 -0.0686721802 0.5449711680 4288913838
-0.3085618913 -0.0680737719 0.5450280309 4288913838
-0.3090836108 -0.0675822943 0.5459495783 4289177010
-0.3091153204 -0.0669825673 0.5460055470 4288519080
-0.3091467321 -0.0663826615 0.5460610390 4288913838
-0.3091778457 -0.0657825693 0.5461159945 4287795357
-0.3092087209 -0.0651823059 0.5461705327 4287466392
-0.3102194369 -0.0647865534 0.5479558110 4288190115
-0.3092695773 -0.0639812276 0.5462780595 4288716459
-0.3102799654 -0.0635813177 0.5480627418 4289177010
-0.3103097975 -0.0629784390 0.5481154323 4288255908
-0.3103393614 -0.0623753816 0.5481676459 4288255908
-0.3108589649 -0.0618697442 0.5490854383 4288519080
-0.3108880222 -0.0612653941 0.5491367579 4288913838
-0.3109167814 -0.0606608801 0.5491876006 4288782252
-0.3109452724 -0.0600561947 0.5492379069 4289308596
-0.3114639819 -0.0595451184 0.5501541495 4289177010
-0.3124730289 -0.0591247864 0.5519364476 4288913838
-0.3125008047 -0.0585167445 0.5519855618 4288058529
-0.3125283122 -0.0579085462 0.5520340800 4287861150
-0.3125555217 -0.0573001839 0.5520821810 4287532185
-0.3130731583 -0.0567806661 0.5529965162 4288453287
-0.3130998611 -0.0561710335 0.5530436635 4287861148
-0.3131262660 -0.0555612482 0.5530903339 4287729562
-0.3131524026 -0.0549513102 0.5531364679 4287663769
-0.3136691153 -0.0544263944 0.5540491343 4288584871
-0.3136947155 -0.0538151972 0.5540943742 4287532183
-0.3142109811 -0.0532871112 0.5550062656 4286940046
-0.3142360449 -0.0526746623 0.5550505519 4285822080
-0.3142608106 -0.0520620644 0.5550943017 4285427322
-0.3142853081 -0.0514493249 0.5551375747 4287006354
-0.3143095076 -0.0508364439 0.5551803112 4287269526
-0.3148245811 -0.0503018945 0.5560901165 4286347911
-0.3148482442 -0.0496877730 0.5561318994 4287334806
-0.3148716390 -0.0490735173 0.5561732054 4288453285
-0.3153859675 -0.0485347211 0.5570817590 4288519078
-0.3159001172 -0.0479938760 0.5579898953 4288716457
-0.3159227073 -0.0473772958 0.5580297709 4288979629
-0.3159449995 -0.0467605852 0.5580691695 4288913836
-0.3159670234 -0.0461437441 0.5581080317 4288190113
-0.3159887493 -0.0455267765 0.5581464171 4286874253
-0.3160101771 -0.0449096821 0.5581842661 4286479495
-0.3160313070 -0.0442924611 0.5582216382 4287005839
-0.3170352280 -0.0438109674 0.5599948764 4287926941
-0.3170558512 -0.0431915857 0.5600312948 4288255908
-0.3175677657 -0.0426380821 0.5609355569 4287926943
-0.3170962334 -0.0419524573 0.5601026416 4288190628
-0.3171159923 -0.0413327180 0.5601375103 4288848558
-0.3171354532 -0.0407128632 0.5601719022 4288124835
-0.3176463246 -0.0401550531 0.5610743165 4287401112
-0.3176652491 -0.0395340137 0.5611076951 4286940559
-0.3181756139 -0.0389731005 0.5620092154 4286808973
-0.3177021742 -0.0382916033 0.5611729622 4287730075
-0.3177202046 -0.0376702398 0.5612047911 4288651177
-0.3182297945 -0.0371061191 0.5621049404 4288914349
-0.3182472587 -0.0364835821 0.5621357560 4288585384
-0.3182644546 -0.0358609445 0.5621660948 4289045933
-0.3182813227 -0.0352382064 0.5621959567 4289572277
-0.3187898695 -0.0346688740 0.5630941987 4289243312
-0.3183141947 -0.0339924395 0.5622540116 4289374898
-0.3183301985 -0.0333694108 0.5622822642 4289112498
-0.3183459044 -0.0327462927 0.5623100400 4289441463
-0.3183613122 -0.0321230814 0.5623372197 4289375670
-0.3183764517 -0.0314997807 0.5623639226 4289112498
-0.3178991675 -0.0308286678 0.5615208745 4289178289
-0.3174215257 -0.0301593971 0.5606772304 4289046703
-0.3179278672 -0.0295835603 0.5615715981 4289046703
-0.3233987987 -0.1815033108 0.5723580718 4288717740
-0.3215817213 -0.1798511297 0.5691421628 4288717740
-0.3240332901 -0.1805850565 0.5734810233 4288125603
-0.3255367577 -0.1807827950 0.5761418343 4288125603
-0.3256166875 -0.1801868975 0.5762833357 4288322728
-0.3261711895 -0.1798523515 0.5772646666 4288125349
-0.3267256916 -0.1795156300 0.5782459974 4288520107
-0.3263301551 -0.1786566377 0.5775460601 4289046451
-0.3268844485 -0.1783172935 0.5785270333 4289835453
-0.3269634843 -0.1777174771 0.5786669254 4289374902
-0.3270422816 -0.1771172136 0.5788064003 4288190628
-0.3271208704 -0.1765165180 0.5789454579 4286874768
-0.3271992207 -0.1759154052 0.5790841579 4287664284
-0.3272773623 -0.1753138453 0.5792223811 4287993249
-0.3268794417 -0.1744579226 0.5785181522 4286216838
-0.3255292475 -0.1730971783 0.5761285424 4285558908
-0.3246541619 -0.1719934642 0.5745797753 4286151045
-0.3233022392 -0.1706415117 0.5721871257 4286874768
-0.3214731812 -0.1690439731 0.5689500570 4287006354
-0.3205957115 -0.1679521501 0.5673971176 4287927456
-0.3197175860 -0.1668634266 0.5658429861 4288190373
-0.3193153739 -0.1660256088 0.5651311278 4288321959
-0.3189127147 -0.1651891470 0.5644184947 4288255909
-0.3185096085 -0.1643540263 0.5637050271 4286742670
-0.3181060553 -0.1635202616 0.5629908442 4287071892
-0.3181790709 -0.1629321277 0.5631200671 4288124580
-0.3182518482 -0.1623436064 0.5632488728 4288782510
-0.3183244169 -0.1617546678 0.5633773208 4288453545
-0.3179194033 -0.1609236896 0.5626604557 4288848303
-0.3179913759 -0.1603348404 0.5627878904 4287795615
-0.3185407221 -0.1599854380 0.5637601018 4286808720
-0.3186123669 -0.1593949050 0.5638868809 4287664029
-0.3186837733 -0.1588039547 0.5640132427 4288453287
-0.3187549412 -0.1582126319 0.5641392469 4287861150
