VERSION 0.7
FIELDS x y z rgba
SIZE 4 4 4 4
TYPE F F F U
COUNT 1 1 1 1
WIDTH 920
HEIGHT 1
VIEWPOINT 0.0 0.0 0.0 1.0 0.0 0.0 0.0
POINTS 920
DATA ascii
-0.3105538487 -0.1704637259 0.6176102757 4288125108
-0.3093165755 -0.1691011041 0.6151496172 4287730099
-0.3072057068 -0.1672682911 0.6109517217 4287466927
-0.3064030111 -0.1661542207 0.6093553901 4287663797
-0.3047265708 -0.1645717770 0.6060213447 4287663797
-0.3039224148 -0.1634659320 0.6044220924 4287663797
-0.3026808500 -0.1621293426 0.6019529700 4287729590
-0.3018753529 -0.1610308439 0.6003510356 4287795383
-0.3010692000 -0.1599355638 0.5987477899 4287795383
-0.3002624512 -0.1588435322 0.5971433520 4287861177
-0.2998922169 -0.1579850167 0.5964070559 4287861177
-0.2995215356 -0.1571279168 0.5956699252 4288123579
-0.2987131178 -0.1560437679 0.5940621495 4288255165
-0.2983414829 -0.1551904082 0.5933231115 4288518083
-0.2979694307 -0.1543384790 0.5925831795 4288715462
-0.2971593440 -0.1532622576 0.5909720659 4288583876
-0.2967863381 -0.1524140984 0.5902302861 4288715462
-0.2964129150 -0.1515673697 0.5894876719 4288847048
-0.2956011593 -0.1504991055 0.5878732800 4288781255
-0.2952267826 -0.1496561617 0.5871287584 4288912841
-0.2944138646 -0.1485935450 0.5855121017 4288715462
-0.2940385640 -0.1477544010 0.5847657323 4288715462
-0.2936628461 -0.1469167173 0.5840185285 4288781255
-0.2932867110 -0.1460804790 0.5832704306 4288715462
-0.2933486104 -0.1454631239 0.5833935738 4288781255
-0.2929717302 -0.1446288675 0.5826440454 4288912841
-0.2925944030 -0.1437960863 0.5818936229 4288912841
-0.2917779088 -0.1427500844 0.5802698135 4288912845
-0.2918384969 -0.1421348751 0.5803903341 4288912845
-0.2918988764 -0.1415192932 0.5805104375 4288912591
-0.2915199697 -0.1406914443 0.5797568560 4288846798
-0.2915797830 -0.1400760263 0.5798758268 4288847052
-0.2916393280 -0.1394602209 0.5799942613 4288912845
-0.2912593484 -0.1386349350 0.5792385936 4288978638
-0.2913183570 -0.1380193233 0.5793558955 4288978638
-0.2913771272 -0.1374033242 0.5794727802 4288979404
-0.2914356291 -0.1367869526 0.5795891881 4288979404
-0.2914939225 -0.1361702085 0.5797050595 4289045199
-0.2911122143 -0.1353486478 0.5789459348 4289176785
-0.2911699116 -0.1347321123 0.5790607333 4289242578
-0.2907874882 -0.1339126080 0.5783001184 4289242578
-0.2908446193 -0.1332962662 0.5784137845 4289176785
-0.2909015119 -0.1326795518 0.5785269737 4289176785
-0.2905180156 -0.1318627000 0.5777642131 4289045201
-0.2905743420 -0.1312462091 0.5778762698 4288979408
-0.2901900709 -0.1304314286 0.5771120787 4288979408
-0.2902458608 -0.1298151612 0.5772230029 4289045201
-0.2898608446 -0.1290024817 0.5764573216 4289241556
-0.2894754410 -0.1281913221 0.5756908655 4289307349
-0.2895303071 -0.1275758594 0.5757999420 4289307349
-0.2895849347 -0.1269600540 0.5759086013 4289307349
-0.2891984582 -0.1261515915 0.5751399994 4289241806
-0.2892525196 -0.1255360395 0.5752475262 4289241806
-0.2893063128 -0.1249201298 0.5753545165 4289241806
-0.2893598974 -0.1243038774 0.5754610300 4289241806
-0.2894132137 -0.1236872822 0.5755670667 4289373392
-0.2894662619 -0.1230703518 0.5756726265 4289504978
-0.2895191014 -0.1224530861 0.5757776499 4289570771
-0.2895716727 -0.1218354777 0.5758822560 4289504978
-0.2896240056 -0.1212175339 0.5759863257 4289702357
-0.2896761000 -0.1205992550 0.5760899186 4289570771
-0.2897279263 -0.1199806407 0.5761929750 4289504978
-0.2893377841 -0.1191797480 0.5754171014 4289439185
-0.2893890440 -0.1185614169 0.5755190253 4289504467
-0.2894400656 -0.1179427654 0.5756204724 4289504467
-0.2890488505 -0.1171446592 0.5748425126 4289570260
-0.2890993059 -0.1165262982 0.5749427676 4289570260
-0.2891494930 -0.1159076169 0.5750426054 4289636568
-0.2891994119 -0.1152886152 0.5751419067 4289504982
-0.2892491221 -0.1146692857 0.5752407312 4289702359
-0.2892985344 -0.1140496433 0.5753390789 4289636566
-0.2897901535 -0.1136031225 0.5763167739 4289504980
-0.2898391783 -0.1129818931 0.5764142275 4289439187
-0.2903304994 -0.1125319004 0.5773913264 4289176267
-0.2903790772 -0.1119090989 0.5774879456 4289110474
-0.2904274166 -0.1112859845 0.5775840878 4288913864
-0.2904754877 -0.1106625572 0.5776796341 4289111243
-0.2905232906 -0.1100388318 0.5777747631 4289308620
-0.2905708551 -0.1094147861 0.5778693557 4289440206
-0.2906181514 -0.1087904423 0.5779634118 4289505999
-0.2906652093 -0.1081657931 0.5780569911 4289769171
-0.2907119989 -0.1075408384 0.5781500340 4290361562
-0.2912017703 -0.1070785671 0.5791240931 4290756320
-0.3089839816 -0.1713459790 0.6158485413 4289046464
-0.3081851602 -0.1702205092 0.6142563820 4287466929
-0.3060795069 -0.1683796793 0.6100594997 4287269550
-0.3039726317 -0.1665474921 0.6058601737 4287729337
-0.3018645048 -0.1647239476 0.6016584039 4287729337
-0.3006265163 -0.1633826643 0.5991909504 4287860923
-0.2993877232 -0.1620464027 0.5967218280 4287926716
-0.2981480956 -0.1607151777 0.5942510962 4287926716
-0.2977796197 -0.1598571092 0.5935166478 4287926716
-0.2965385318 -0.1585341692 0.5910429955 4287926716
-0.2957327962 -0.1574485153 0.5894370675 4287992509
-0.2953627408 -0.1565974057 0.5886995196 4288058302
-0.2954286337 -0.1559781134 0.5888308287 4288255681
-0.2950578332 -0.1551289260 0.5880917311 4288320704
-0.2946865857 -0.1542811394 0.5873517990 4288320704
-0.2943149209 -0.1534347981 0.5866110325 4288583876
-0.2939428389 -0.1525898725 0.5858693719 4288649669
-0.2931334376 -0.1515205652 0.5842561722 4288518083
-0.2931973636 -0.1509043127 0.5843836069 4288649669
-0.2928240001 -0.1500636786 0.5836394429 4288715462
-0.2920130789 -0.1490014344 0.5820231438 4288518083
-0.2920760214 -0.1483867466 0.5821486115 4288716234
-0.2912640572 -0.1473292261 0.5805302262 4288518855
-0.2913263440 -0.1467155814 0.5806543827 4288584648
-0.2909508646 -0.1458821744 0.5799059868 4288716234
-0.2910125852 -0.1452686638 0.5800290108 4288650441
-0.2906363904 -0.1444372386 0.5792791843 4288650441
-0.2906975448 -0.1438238770 0.5794010758 4288782029
-0.2903205752 -0.1429944634 0.5786497593 4288782029
-0.2899432182 -0.1421664953 0.5778976083 4288847568
-0.2900034785 -0.1415538341 0.5780177116 4288781775
-0.2900635302 -0.1409407854 0.5781373978 4288781775
-0.2896850705 -0.1401153952 0.5773831010 4288847568
-0.2901828885 -0.1397135556 0.5783753395 4288847568
-0.2902422249 -0.1390993744 0.5784935951 4288913361
-0.2903013229 -0.1384848207 0.5786113739 4288979154
-0.2899215519 -0.1376616210 0.5778544545 4288913361
-0.2899800837 -0.1370472461 0.5779711008 4288715982
-0.2900383770 -0.1364324987 0.5780872703 4288781775
-0.2900964320 -0.1358173788 0.5782029629 4288847568
-0.2897152901 -0.1349973530 0.5774433017 4288979154
-0.2897727787 -0.1343824267 0.5775578618 4289044948
-0.2898299992 -0.1337671429 0.5776720047 4289044948
-0.2894477844 -0.1329497546 0.5769101381 4288979154
-0.2895044684 -0.1323346645 0.5770231485 4289044947
-0.2895609140 -0.1317192316 0.5771356225 4289044948
-0.2891776264 -0.1309044808 0.5763716698 4289044948
-0.2892335057 -0.1302892566 0.5764830112 4289110741
-0.2888494730 -0.1294766068 0.5757176280 4289110741
-0.2884650528 -0.1286654770 0.5749514103 4289110741
-0.2885200083 -0.1280510575 0.5750609636 4289110741
-0.2885747552 -0.1274362952 0.5751700401 4289176534
-0.2886292338 -0.1268211901 0.5752786398 4289110741
-0.2882434130 -0.1260133386 0.5745096803 4289373394
-0.2882973552 -0.1253984720 0.5746171474 4289373394
-0.2883510292 -0.1247832626 0.5747241378 4289373394
-0.2884044647 -0.1241677031 0.5748306513 4289373394
-0.2884576321 -0.1235518083 0.5749366283 4289373394
-0.2885105908 -0.1229355708 0.5750421882 4289439187
-0.2885632813 -0.1223189980 0.5751472116 4289504980
-0.2886157334 -0.1217020825 0.5752517581 4289504980
-0.2886679471 -0.1210848391 0.5753557682 4289570773
-0.2887198925 -0.1204672530 0.5754593611 4289504980
-0.2887715995 -0.1198493391 0.5755624175 4289504980
-0.2883821130 -0.1190490574 0.5747861266 4289504980
-0.2884332538 -0.1184314266 0.5748880506 4289504980
-0.2884841561 -0.1178134680 0.5749894381 4289504980
-0.2880935967 -0.1170159876 0.5742110610 4289504980
-0.2881439030 -0.1163983196 0.5743113160 4289439187
-0.2881939709 -0.1157803312 0.5744111538 4289439189
-0.2882438004 -0.1151620224 0.5745103955 4289307603
-0.2882933617 -0.1145434007 0.5746092200 4289373396
-0.2883426845 -0.1139244512 0.5747075081 4289373396
-0.2888333797 -0.1134786978 0.5756855607 4289307601
-0.2888822854 -0.1128581762 0.5757830143 4289307601
-0.2889309227 -0.1122373343 0.5758799314 4289307601
-0.2889792919 -0.1116161793 0.5759763718 4289307601
-0.2890274227 -0.1109947115 0.5760723352 4289176783
-0.2890753150 -0.1103729308 0.5761677623 4289242576
-0.2891229391 -0.1097508520 0.5762626529 4289373392
-0.2891703248 -0.1091284603 0.5763571262 4289241806
-0.2892174423 -0.1085057631 0.5764510036 4288979404
-0.2892642915 -0.1078827605 0.5765444040 4289242576
-0.2893109024 -0.1072594598 0.5766373277 4289900760
-0.2897996902 -0.1067989096 0.5776115656 4290361311
-0.2902883887 -0.1063361540 0.5785855651 4290428117
-0.2907769680 -0.1058711857 0.5795593858 4290428117
-0.3082851171 -0.1727061570 0.6158188581 4290362324
-0.3061857522 -0.1708504856 0.6116251945 4288321725
-0.3040851057 -0.1690034568 0.6074290872 4287598002
-0.3024177551 -0.1674055755 0.6040983796 4287729339
-0.2994455099 -0.1650956720 0.5981611609 4288058304
-0.2977757752 -0.1635141820 0.5948257446 4288058306
-0.2961049974 -0.1619395465 0.5914883018 4287860927
-0.2948681116 -0.1606086493 0.5890175104 4287992511
-0.2940654159 -0.1595187783 0.5874140859 4287992511
-0.2936971784 -0.1586671919 0.5866785049 4288058304
-0.2928933203 -0.1575828493 0.5850727558 4288058304
-0.2929594517 -0.1569682211 0.5852048397 4288058304
-0.2925899625 -0.1561208665 0.5844667554 4288189890
-0.2917845249 -0.1550435126 0.5828578472 4288321478
-0.2914140821 -0.1541998833 0.5821178555 4288321478
-0.2914789021 -0.1535872668 0.5822473764 4288518087
-0.2911077142 -0.1527455896 0.5815058947 4288518087
-0.2907360792 -0.1519053280 0.5807635784 4288715466
-0.2908000350 -0.1512933224 0.5808912516 4288649673
-0.2904276550 -0.1504549980 0.5801474452 4288386501
-0.2900548577 -0.1496181190 0.5794028044 4288452294
-0.2901179194 -0.1490067542 0.5795287490 4288649673
-0.2897444069 -0.1481718421 0.5787826180 4288649673
-0.2893704474 -0.1473383605 0.5780355930 4288715212
-0.2894326150 -0.1467276514 0.5781598091 4288386247
-0.2894945741 -0.1461165398 0.5782835484 4288452041
-0.2891195416 -0.1452855617 0.5775344372 4288583627
-0.2891809344 -0.1446745992 0.5776570439 4288517834
-0.2888051569 -0.1438456178 0.5769064426 4288517834
-0.2893030047 -0.1434514970 0.5779008865 4288649420
-0.2893636823 -0.1428393573 0.5780221224 4288583627
-0.2889869511 -0.1420120001 0.5772695541 4288517834
-0.2890470922 -0.1414000243 0.5773896575 4288386248
-0.2891069651 -0.1407876760 0.5775092840 4288452041
-0.2891666293 -0.1401749402 0.5776284933 4288517834
-0.2892260551 -0.1395618170 0.5777471662 4288517836
-0.2892852426 -0.1389483362 0.5778654218 4288517836
-0.2889064550 -0.1381251812 0.5771087408 4288583629
-0.2889650762 -0.1375118792 0.5772258639 4288583629
-0.2885855436 -0.1366907656 0.5764676929 4288780497
-0.2886435986 -0.1360776424 0.5765836835 4288846290
-0.2887014151 -0.1354641467 0.5766991973 4288780756
-0.2887589931 -0.1348502785 0.5768142343 4288780756
-0.2883780897 -0.1340323538 0.5760533214 4288780754
-0.2884351015 -0.1334186941 0.5761672258 4288780754
-0.2884918749 -0.1328046769 0.5762805939 4288714961
-0.2885484099 -0.1321902871 0.5763935447 4288780754
-0.2881661057 -0.1313755661 0.5756298900 4288846801
-0.2882220745 -0.1307613999 0.5757417083 4288846801
-0.2882778049 -0.1301468760 0.5758529902 4288846547
-0.2878944576 -0.1293348223 0.5750871897 4288912340
-0.2879496217 -0.1287205219 0.5751973987 4288846547
-0.2875654995 -0.1279105842 0.5744301081 4288846547
-0.2876200974 -0.1272965223 0.5745391846 4288846801
-0.2876744568 -0.1266821027 0.5746477842 4288846801
-0.2877285779 -0.1260673404 0.5747558475 4288715213
-0.2873430848 -0.1252606958 0.5739858150 4288781006
-0.2873966396 -0.1246461794 0.5740927458 4288846799
-0.2874499261 -0.1240313202 0.5741992593 4288912592
-0.2875029743 -0.1234161183 0.5743052363 4288912592
-0.2875557840 -0.1228005812 0.5744107366 4288912592
-0.2876083553 -0.1221847013 0.5745157599 4288978384
-0.2876606882 -0.1215684861 0.5746202469 4289109970
-0.2877127528 -0.1209519356 0.5747242570 4289044177
-0.2877646089 -0.1203350499 0.5748277903 4289044177
-0.2873761058 -0.1195347756 0.5740517378 4289109970
-0.2874273658 -0.1189181656 0.5741541386 4289241556
-0.2874783576 -0.1183012351 0.5742560625 4289241810
-0.2870888114 -0.1175037548 0.5734778643 4289241810
-0.2871392369 -0.1168871075 0.5735786557 4289373396
-0.2871894240 -0.1162701398 0.5736789107 4289307603
-0.2872393727 -0.1156528518 0.5737786889 4289241556
-0.2872890830 -0.1150352433 0.5738779306 4289307349
-0.2873385251 -0.1144173145 0.5739766955 4289307349
-0.2878285050 -0.1139736027 0.5749554634 4289307349
-0.2878775001 -0.1133540869 0.5750533938 4289241556
-0.2879262865 -0.1127342582 0.5751507878 4289307349
-0.2879748046 -0.1121141091 0.5752477050 4289373396
-0.2880230844 -0.1114936545 0.5753441453 4289307603
-0.2880710959 -0.1108728871 0.5754400492 4289307601
-0.2876776159 -0.1100829691 0.5746541023 4289373394
-0.2877250612 -0.1094625369 0.5747488737 4289439187
-0.2877722383 -0.1088417917 0.5748431087 4289439187
-0.2878191769 -0.1082207486 0.5749368668 4289702359
-0.2878658473 -0.1075994000 0.5750300884 4290097117
-0.2879122794 -0.1069777533 0.5751228333 4290557666
-0.2884001136 -0.1065189242 0.5760973096 4290820838
-0.2888878286 -0.1060578898 0.5770715475 4290362072
-0.2893754244 -0.1055946499 0.5780455470 4289901521
-0.2903047502 -0.1052894592 0.5799019337 4290954712
-0.3080181181 -0.1743105501 0.6166536212 4290888664
-0.3063574731 -0.1726893336 0.6133289933 4288980166
-0.3042623699 -0.1708315611 0.6091346145 4288190650
-0.3017325103 -0.1687399745 0.6040697694 4288321476
-0.2996348143 -0.1669003665 0.5998702049 4288584648
-0.2971021533 -0.1648287773 0.5947998166 4288452810
-0.2954356968 -0.1632470936 0.5914635658 4288321224
-0.2937682271 -0.1616722494 0.5881252289 4288189638
-0.2929677665 -0.1605800688 0.5865227580 4288189638
-0.2917325497 -0.1592541039 0.5840498805 4288584648
-0.2913649976 -0.1584053487 0.5833140016 4288518855
-0.2909969687 -0.1575579941 0.5825772285 4288518855
-0.2906285524 -0.1567120403 0.5818396211 4288518855
-0.2902597189 -0.1558675170 0.5811012387 4288518087
-0.2903250456 -0.1552568078 0.5812320113 4288518087
-0.2903901637 -0.1546456963 0.5813624263 4288452040
-0.2900202572 -0.1538035870 0.5806218386 4288188868
-0.2900848389 -0.1531925797 0.5807510614 4288320455
-0.2897141576 -0.1523523927 0.5800089836 4288057283
-0.2897781730 -0.1517414898 0.5801371932 4288123076
-0.2894067466 -0.1509032547 0.5793936253 4288188869
-0.2894702256 -0.1502924412 0.5795206428 4288188871
-0.2890980542 -0.1494561583 0.5787755847 4288452043
-0.2891609669 -0.1488454789 0.5789015293 4288583629
-0.2887880504 -0.1480111629 0.5781549811 4288320457
-0.2888503969 -0.1474006027 0.5782797933 4287794111
-0.2880409956 -0.1463468522 0.5766593218 4287201974
-0.2881026864 -0.1457373500 0.5767828822 4287070390
-0.2881641686 -0.1451274604 0.5769059062 4287201976
-0.2877893448 -0.1442985535 0.5761555433 4287004343
-0.2882864177 -0.1439065188 0.5771506429 4287004343
-0.2879109383 -0.1430786699 0.5763989687 4287135929
-0.2879714072 -0.1424681544 0.5765199661 4287004343
-0.2880316079 -0.1418572515 0.5766405463 4287201976
-0.2880915999 -0.1412459761 0.5767605901 4287070390
-0.2881513238 -0.1406343132 0.5768802166 4287070390
-0.2882108390 -0.1400222629 0.5769993663 4287070390
-0.2882701159 -0.1394098550 0.5771180391 4287004343
-0.2883291543 -0.1387970448 0.5772362351 4287070136
-0.2883879542 -0.1381838769 0.5773539543 4287201722
-0.2880094945 -0.1373618841 0.5765962601 4287267515
-0.2880677283 -0.1367488950 0.5767128468 4287332285
-0.2881257236 -0.1361355335 0.5768289566 4287398078
-0.2881835103 -0.1355217993 0.5769446492 4287463871
-0.2882410288 -0.1349076927 0.5770598054 4287398078
-0.2878608406 -0.1340894401 0.5762986541 4287464384
-0.2879177928 -0.1334755421 0.5764127374 4287464384
-0.2879745364 -0.1328612864 0.5765262842 4287530430
-0.2875932753 -0.1320456713 0.5757629871 4287596223
-0.2876494527 -0.1314316243 0.5758754611 4287727809
-0.2877053618 -0.1308172047 0.5759873986 4287727809
-0.2877610326 -0.1302024424 0.5760988593 4287859395
-0.2873784006 -0.1293900758 0.5753328204 4287990981
-0.2874335051 -0.1287755221 0.5754431486 4287990981
-0.2870501578 -0.1279652566 0.5746756792 4288122567
-0.2871046960 -0.1273509562 0.5747848749 4288188358
-0.2871589959 -0.1267362982 0.5748935938 4288188358
-0.2872130573 -0.1261212826 0.5750018358 4288451278
-0.2868283093 -0.1253143102 0.5742315054 4288451278
-0.2868818045 -0.1246995553 0.5743386149 4288517325
-0.2869350612 -0.1240844578 0.5744452477 4288648911
-0.2865492404 -0.1232802197 0.5736728311 4288780497
-0.2870408297 -0.1228532270 0.5746569633 4288780497
-0.2870933414 -0.1222371012 0.5747621059 4288846288
-0.2871456146 -0.1216206402 0.5748667717 4288912081
-0.2871976495 -0.1210038438 0.5749709606 4289044180
-0.2868102193 -0.1202026308 0.5741952658 4288978387
-0.2868616581 -0.1195861101 0.5742983222 4288978385
-0.2869128883 -0.1189692616 0.5744008422 4288978385
-0.2869638503 -0.1183520779 0.5745028853 4288912592
-0.2865750194 -0.1175542697 0.5737244487 4288978385
-0.2866254151 -0.1169373840 0.5738253593 4289044178
-0.2866755724 -0.1163201705 0.5739257336 4289109971
-0.2867254615 -0.1157026291 0.5740256310 4289109973
-0.2872149348 -0.1152612790 0.5750055909 4289307352
-0.2872644067 -0.1146421507 0.5751046538 4289241046
-0.2873136401 -0.1140227094 0.5752031803 4289241046
-0.2873626053 -0.1134029403 0.5753012300 4289372632
-0.2874113321 -0.1127828583 0.5753987432 4289372632
-0.2874598205 -0.1121624634 0.5754958391 4289438935
-0.2875080407 -0.1115417555 0.5755923390 4289307349
-0.2871156633 -0.1107508764 0.5748068094 4289307349
-0.2871632874 -0.1101304963 0.5749021769 4289438935
-0.2872107029 -0.1095098108 0.5749970675 4289636057
-0.2872578204 -0.1088888124 0.5750914216 4289899229
-0.2873047292 -0.1082675159 0.5751852989 4290425571
-0.2873513699 -0.1076459140 0.5752786994 4290688743
-0.2873977423 -0.1070240140 0.5753715038 4290557668
-0.2874438763 -0.1064018086 0.5754638910 4290426082
-0.2879306674 -0.1059415415 0.5764384866 4290098901
-0.2888583839 -0.1056403518 0.5782957077 4289704143
-0.2897861004 -0.1053350493 0.5801530480 4290691540
-0.3069562614 -0.1747810692 0.6158972383 4289505734
-0.3052992225 -0.1731569320 0.6125724912 4288518839
-0.3027760684 -0.1710508913 0.6075098515 4288452030
-0.3002514541 -0.1689552814 0.6024443507 4288452030
-0.2946962416 -0.1651722938 0.5912979245 4288649419
-0.2973621190 -0.1660035700 0.5966469646 4288781005
-0.2926689684 -0.1627311409 0.5872303247 4288649422
-0.2914377451 -0.1613968313 0.5847598910 4288386250
-0.2906388044 -0.1603064686 0.5831568837 4288320455
-0.2902725041 -0.1594573110 0.5824218988 4288320455
-0.2894724309 -0.1583724767 0.5808165669 4288188617
-0.2891051769 -0.1575270444 0.5800796747 4288057031
-0.2891710401 -0.1569182724 0.5802118182 4287991238
-0.2888030410 -0.1560747325 0.5794734359 4287925445
-0.2884346247 -0.1552326232 0.5787342191 4287728066
-0.2884996235 -0.1546244323 0.5788646340 4287530687
-0.2885643840 -0.1540158391 0.5789945722 4287399101
-0.2886289060 -0.1534068435 0.5791240931 4287333308
-0.2886932194 -0.1527974308 0.5792531371 4287070136
-0.2887573242 -0.1521876156 0.5793817043 4286938550
-0.2883868515 -0.1513494551 0.5786383748 4287070138
-0.2880159616 -0.1505127400 0.5778942108 4287070138
-0.2880791724 -0.1499035358 0.5780210495 4286872759
-0.2881421447 -0.1492939442 0.5781474113 4286938552
-0.2882049084 -0.1486839652 0.5782732964 4287202494
-0.2878326178 -0.1478502303 0.5775263309 4287728838
-0.2878948152 -0.1472403705 0.5776511431 4287530689
-0.2875218093 -0.1464086175 0.5769026875 4286478001
-0.2875834405 -0.1457988769 0.5770263672 4286280622
-0.2876448631 -0.1451887637 0.5771495700 4286478001
-0.2872707844 -0.1443595290 0.5763990283 4286149036
-0.2873316407 -0.1437495500 0.5765210986 4286083243
-0.2869568169 -0.1429223120 0.5757690668 4286280622
-0.2870171070 -0.1423124820 0.5758900642 4286149036
-0.2870771885 -0.1417022794 0.5760105848 4286280622
-0.2871370018 -0.1410916895 0.5761306286 4286280622
-0.2871966064 -0.1404807121 0.5762501955 4286280622
-0.2872559726 -0.1398693621 0.5763692856 4286280622
-0.2873151004 -0.1392576396 0.5764879584 4286149036
-0.2873739898 -0.1386455297 0.5766060948 4286149036
-0.2874326408 -0.1380330473 0.5767238140 4286083243
-0.2874910831 -0.1374201924 0.5768410563 4286083243
-0.2875492573 -0.1368069649 0.5769577622 4286149036
-0.2871707678 -0.1359867007 0.5761983991 4286214829
-0.2872284055 -0.1353736669 0.5763139725 4286346415
-0.2872857749 -0.1347602606 0.5764291286 4286412208
-0.2873429358 -0.1341464818 0.5765438080 4286412208
-0.2873998582 -0.1335323453 0.5766580105 4286478001
-0.2870196700 -0.1327158362 0.5758951306 4286478001
-0.2870759964 -0.1321019083 0.5760082006 4286346415
-0.2866950631 -0.1312874854 0.5752438903 4286412208
-0.2867508531 -0.1306737661 0.5753558278 4286543794
-0.2868064046 -0.1300596893 0.5754672885 4286543794
-0.2868617177 -0.1294452548 0.5755782127 4286543794
-0.2869167626 -0.1288304776 0.5756887197 4286609587
-0.2865341306 -0.1280198842 0.5749209523 4286609587
-0.2865886092 -0.1274053305 0.5750302672 4286675380
-0.2862052619 -0.1265968531 0.5742610693 4286872759
-0.2862591743 -0.1259825528 0.5743693113 4287004345
-0.2863128781 -0.1253678948 0.5744770169 4287070138
-0.2863663137 -0.1247528866 0.5745842457 4287201724
-0.2864195108 -0.1241375431 0.5746909976 4287267517
-0.2860344350 -0.1233329773 0.5739183426 4287333308
-0.2865251899 -0.1229058206 0.5749030113 4287530687
-0.2865776718 -0.1222894564 0.5750082731 4287793859
-0.2866298854 -0.1216727495 0.5751130581 4287991238
-0.2866818607 -0.1210557073 0.5752173662 4288254410
-0.2862951756 -0.1202541739 0.5744414926 4288385996
-0.2863465846 -0.1196374074 0.5745446086 4288517582
-0.2863977253 -0.1190203056 0.5746473074 4288649168
-0.2864486575 -0.1184028760 0.5747494698 4288780754
-0.2860605717 -0.1176047474 0.5739707947 4288912340
-0.2861109376 -0.1169876084 0.5740718246 4289043926
-0.2857221365 -0.1161916628 0.5732917190 4289175512
-0.2862108648 -0.1157523617 0.5742723346 4289306837
-0.2862604856 -0.1151342541 0.5743718743 4289306837
-0.2863098383 -0.1145158261 0.5744708776 4289306837
-0.2863589227 -0.1138970777 0.5745694041 4289372630
-0.2864077687 -0.1132780090 0.5746674538 4289438938
-0.2864563763 -0.1126586273 0.5747649670 4289504731
-0.2865047455 -0.1120389327 0.5748620033 4289504731
-0.2865528464 -0.1114189252 0.5749585032 4289438938
-0.2866007090 -0.1107986048 0.5750545263 4289438936
-0.2862086594 -0.1100089923 0.5742679238 4289504729
-0.2862559259 -0.1093890071 0.5743627548 4289702361
-0.2863029540 -0.1087687090 0.5744571090 4290755049
-0.2863497436 -0.1081481129 0.5745509863 4291478768
-0.2863962650 -0.1075272113 0.5746443272 4290886631
-0.2864425182 -0.1069060117 0.5747371316 4290426334
-0.2869286239 -0.1064477712 0.5757124424 4290294748
-0.2874145806 -0.1059873253 0.5766875744 4289901009
-0.2879004478 -0.1055246666 0.5776624084 4289901009
-0.2888264656 -0.1052201912 0.5795204639 4290559699
-0.3066850603 -0.1763871312 0.6167275310 4290822871
-0.3054639399 -0.1750023216 0.6142718792 4288651702
-0.3038104177 -0.1733761877 0.6109467745 4288057522
-0.3017241955 -0.1715115011 0.6067514420 4287531178
-0.2992049456 -0.1694109589 0.6016854048 4288057273
-0.2962524295 -0.1670772880 0.5957480073 4287794101
-0.2941621542 -0.1652411968 0.5915445685 4287530938
-0.2907744646 -0.1626885384 0.5847321153 4287333559
-0.2921386659 -0.1627990901 0.5874754786 4287201976
-0.2900452018 -0.1609844118 0.5832656026 4287070390
-0.2892475724 -0.1598954499 0.5816616416 4287004597
-0.2888818085 -0.1590477824 0.5809260607 4286873011
-0.2885155976 -0.1582015306 0.5801896453 4286412206
-0.2885816097 -0.1575929523 0.5803224444 4286346413
-0.2882146537 -0.1567486078 0.5795844793 4286346413
-0.2878472805 -0.1559056640 0.5788457394 4286280620
-0.2879124284 -0.1552976668 0.5789767504 4286280620
-0.2875443101 -0.1544566453 0.5782364607 4286214827
-0.2876089215 -0.1538487375 0.5783663988 4286280620
-0.2876732945 -0.1532404274 0.5784958601 4286280620
-0.2881707847 -0.1528615803 0.5794962645 4286280622
-0.2878013849 -0.1520225853 0.5787534118 4286149036
-0.2878650725 -0.1514130533 0.5788815022 4286214829
-0.2874949276 -0.1505759954 0.5781371593 4286214829
-0.2875580490 -0.1499665827 0.5782641172 4286149036
-0.2876209915 -0.1493567675 0.5783906579 4286083243
-0.2876836658 -0.1487465352 0.5785167217 4286346415
-0.2873121202 -0.1479124874 0.5777695179 4286806966
-0.2873742580 -0.1473023891 0.5778945088 4287267515
-0.2870019674 -0.1464703232 0.5771458149 4286609585
-0.2870635390 -0.1458603591 0.5772696733 4286280622
-0.2871249020 -0.1452500075 0.5773930550 4286214829
-0.2867515385 -0.1444204450 0.5766422749 4286149036
-0.2868123353 -0.1438102424 0.5767645240 4286149036
-0.2864382565 -0.1429826766 0.5760122538 4286280620
-0.2864984870 -0.1423726231 0.5761333704 4286412206
-0.2865585089 -0.1417621821 0.5762540102 4286346413
-0.2866182625 -0.1411513537 0.5763742328 4286280620
-0.2866778076 -0.1405401528 0.5764939785 4286280622
-0.2867371142 -0.1399285644 0.5766132474 4286280622
-0.2867961824 -0.1393166035 0.5767320395 4286214829
-0.2868550122 -0.1387042552 0.5768503547 4286280622
-0.2869136333 -0.1380915493 0.5769681931 4286346413
-0.2869719863 -0.1374784559 0.5770855546 4286280620
-0.2870301306 -0.1368649900 0.5772024393 4286346415
-0.2870880067 -0.1362511516 0.5773189068 4286346415
-0.2867099345 -0.1354311258 0.5765585899 4286412208
-0.2867672741 -0.1348174810 0.5766738653 4286346415
-0.2868243754 -0.1342034638 0.5767887235 4286346415
-0.2868812382 -0.1335890889 0.5769030452 4286412208
-0.2865017653 -0.1327722520 0.5761399865 4286478001
-0.2861219049 -0.1319569349 0.5753760934 4286478001
-0.2861778736 -0.1313433349 0.5754886270 4286346415
-0.2862336040 -0.1307293773 0.5756006837 4286346415
-0.2862890959 -0.1301150620 0.5757122636 4286346415
-0.2863443494 -0.1295003891 0.5758233666 4286412208
-0.2863993347 -0.1288853735 0.5759339929 4286478001
-0.2864541113 -0.1282699853 0.5760441422 4286478001
-0.2860718966 -0.1274596602 0.5752754807 4286412208
-0.2861261070 -0.1268445253 0.5753844976 4286478001
-0.2861800492 -0.1262290329 0.5754930377 4286280620
-0.2862337828 -0.1256131828 0.5756010413 4286346413
-0.2858501673 -0.1248061657 0.5748296380 4286477999
-0.2859033048 -0.1241905764 0.5749365091 4286543792
-0.2859562337 -0.1235746443 0.5750429034 4286609585
-0.2860088944 -0.1229583696 0.5751488209 4286609585
-0.2860613167 -0.1223417595 0.5752542019 4286543792
-0.2861134708 -0.1217248067 0.5753591657 4286477999
-0.2861654162 -0.1211075187 0.5754635930 4286280620
-0.2857794464 -0.1203056574 0.5746874213 4286412206
-0.2858308256 -0.1196886450 0.5747907162 4286543792
-0.2858819366 -0.1190713048 0.5748935342 4286806964
-0.2859328091 -0.1184536293 0.5749958158 4287135929
-0.2855454683 -0.1176551729 0.5742169023 4287399101
-0.2851577401 -0.1168582812 0.5734372139 4287530687
-0.2852077186 -0.1162415221 0.5735377073 4287662273
-0.2856956124 -0.1158020422 0.5745188594 4287925184
-0.2857451737 -0.1151836887 0.5746185184 4288188356
-0.2857944667 -0.1145650148 0.5747176409 4288385737
-0.2858435512 -0.1139460132 0.5748162866 4288517323
-0.2858923376 -0.1133266985 0.5749144554 4288780754
-0.2859409153 -0.1127070710 0.5750120878 4288978133
-0.2859892249 -0.1120871231 0.5751092434 4289109719
-0.2860372663 -0.1114668623 0.5752058625 4289241305
-0.2860850692 -0.1108462960 0.5753020048 4289109973
-0.2856937945 -0.1100563556 0.5745151639 4289307352
-0.2857410312 -0.1094361171 0.5746101141 4289899486
-0.2857879996 -0.1088155732 0.5747045875 4291017967
-0.2858347297 -0.1081947237 0.5747985840 4291149805
-0.2854420543 -0.1074083224 0.5740089417 4290426082
-0.2854882181 -0.1067878231 0.5741017461 4290294494
-0.2859733999 -0.1063303575 0.5750774741 4290228701
-0.2868978381 -0.1060330570 0.5769364238 4290098647
-0.2873828411 -0.1055702120 0.5779117942 4290032854
-0.2878677547 -0.1051051617 0.5788869262 4290493906
-0.3048355281 -0.1757158339 0.6143803596 4287993265
-0.3031857014 -0.1740859151 0.6110552549 4286348440
-0.3011040688 -0.1722164005 0.6068598032 4286610080
-0.2981594503 -0.1698645502 0.6009250879 4286610080
-0.2952131629 -0.1675249487 0.5949870348 4287004333
-0.2926963270 -0.1654412746 0.5899144411 4286741161
-0.2910403609 -0.1638535559 0.5865769386 4286412458
-0.2898146510 -0.1625144929 0.5841065645 4286280872
-0.2894508541 -0.1616623253 0.5833733678 4286280874
-0.2886551619 -0.1605715305 0.5817697048 4286346667
-0.2878588438 -0.1594839543 0.5801647902 4286215597
-0.2874935865 -0.1586378068 0.5794286132 4286149804
-0.2875596583 -0.1580303311 0.5795617700 4286280620
-0.2876255214 -0.1574224383 0.5796945095 4286280620
-0.2872591913 -0.1565786898 0.5789561868 4286280622
-0.2873245180 -0.1559708714 0.5790878534 4286280622
-0.2869574428 -0.1551290303 0.5783479810 4286280622
-0.2870222032 -0.1545213163 0.5784785151 4286280622
-0.2866543829 -0.1536813825 0.5777372122 4286280622
-0.2871510386 -0.1533046365 0.5787382722 4286280622
-0.2872151434 -0.1526957005 0.5788674355 4286214829
-0.2868463695 -0.1518573016 0.5781241655 4286083243
-0.2869099081 -0.1512484550 0.5782521963 4286083243
-0.2869732082 -0.1506392062 0.5783798099 4286083243
-0.2870362997 -0.1500295550 0.5785069466 4286083243
-0.2866661251 -0.1491941363 0.5777608752 4286017450
-0.2867286503 -0.1485846192 0.5778869390 4286017450
-0.2867909670 -0.1479746848 0.5780124664 4286412208
-0.2864197195 -0.1471417546 0.5772643089 4287004345
-0.2864814699 -0.1465319544 0.5773887634 4286806966
-0.2861094773 -0.1457010061 0.5766390562 4286346415
-0.2861706913 -0.1450913548 0.5767623782 4286083243
-0.2862316668 -0.1444813013 0.5768852234 4286280622
-0.2862924039 -0.1438708603 0.5770076513 4286346415
-0.2859190404 -0.1430429816 0.5762551427 4286280622
-0.2859792113 -0.1424326897 0.5763764381 4286543794
-0.2860391438 -0.1418220103 0.5764972568 4286412208
-0.2860988677 -0.1412109584 0.5766176581 4286346415
-0.2857241333 -0.1403861642 0.5758623481 4286412208
-0.2857832909 -0.1397752762 0.5759815574 4286412208
-0.2862766087 -0.1393755078 0.5769758821 4286412208
-0.2863354087 -0.1387629360 0.5770943761 4286412208
-0.2863939404 -0.1381499767 0.5772123337 4286478001
-0.2860175669 -0.1373279542 0.5764538050 4286346415
-0.2865103185 -0.1369229555 0.5774469376 4286412208
-0.2865681648 -0.1363088787 0.5775634646 4286412208
-0.2861908376 -0.1354885250 0.5768029690 4286412208
-0.2862481177 -0.1348746419 0.5769184232 4286346415
-0.2863051593 -0.1342603862 0.5770333409 4286412208
-0.2863619626 -0.1336457729 0.5771478415 4286412208
-0.2859832346 -0.1328286231 0.5763845444 4286412208
-0.2860394716 -0.1322142184 0.5764979124 4286543794
-0.2856599987 -0.1313991398 0.5757331252 4286478001
-0.2857156694 -0.1307849437 0.5758453608 4286412208
-0.2857711315 -0.1301703900 0.5759570599 4286346415
-0.2858263254 -0.1295554787 0.5760682821 4286346415
-0.2858812809 -0.1289402097 0.5761790872 4286478001
-0.2859359980 -0.1283245832 0.5762893558 4286478001
-0.2859904766 -0.1277086139 0.5763991475 4286412208
-0.2856086493 -0.1268985569 0.5756295919 4286412208
-0.2856625617 -0.1262828261 0.5757382512 4286477742
-0.2857162356 -0.1256667376 0.5758464336 4286477742
-0.2853333652 -0.1248593926 0.5750747919 4286543535
-0.2853864729 -0.1242435575 0.5751817822 4286609328
-0.2854393125 -0.1236273870 0.5752883554 4286740914
-0.2854919434 -0.1230108663 0.5753943920 4286740914
-0.2855443060 -0.1223940104 0.5754998922 4286543792
-0.2855964303 -0.1217768118 0.5756049752 4286477999
-0.2856483161 -0.1211592853 0.5757095218 4286609585
-0.2856999338 -0.1205414161 0.5758135915 4286609585
-0.2853144109 -0.1197398454 0.5750365853 4286477999
-0.2853654623 -0.1191222519 0.5751395226 4286477999
-0.2854162753 -0.1185043305 0.5752419233 4286543792
-0.2850297093 -0.1177055538 0.5744627714 4286543792
-0.2850799561 -0.1170879230 0.5745640397 4286412206
-0.2851299644 -0.1164699644 0.5746648312 4286412206
-0.2851797044 -0.1158516854 0.5747650862 4286543533
-0.2852292061 -0.1152330786 0.5748648643 4286675119
-0.2852784693 -0.1146141514 0.5749641657 4286740914
-0.2853274941 -0.1139949113 0.5750629306 4286806707
-0.2853762507 -0.1133753434 0.5751612186 4286872757
-0.2854247689 -0.1127554625 0.5752589703 4287004343
-0.2854730189 -0.1121352687 0.5753562450 4287070138
-0.2855210304 -0.1115147620 0.5754530430 4287267517
-0.2855688035 -0.1108939350 0.5755493045 4287464894
-0.2856163085 -0.1102728024 0.5756450295 4287662273
-0.2852254510 -0.1094831824 0.5748572946 4288846799
-0.2852723897 -0.1088623852 0.5749518871 4290294245
-0.2853190601 -0.1082412899 0.5750459433 4290360291
-0.2853654921 -0.1076198816 0.5751395226 4289965533
-0.2854116857 -0.1069981754 0.5752326250 4290426080
-0.2854576111 -0.1063761637 0.5753251910 4290557666
-0.2859418392 -0.1059162989 0.5763011575 4290230233
-0.2868645787 -0.1056157202 0.5781608820 4290164440
-0.2873486578 -0.1051504835 0.5791365504 4290493908
-0.3042063117 -0.1764293015 0.6144877672 4289639366
-0.3029899895 -0.1750438511 0.6120308042 4286611358
-0.3009130359 -0.1731686145 0.6078354716 4286216600
-0.2984048724 -0.1710555106 0.6027690768 4286215069
-0.2950350940 -0.1684616804 0.5959622264 4286280862
-0.2929540277 -0.1666159183 0.5917584896 4286346407
-0.2908716798 -0.1647787839 0.5875522494 4286412200
-0.2892185152 -0.1631931663 0.5842128396 4286346667
-0.2884252667 -0.1620982438 0.5826105475 4286346667
-0.2880619764 -0.1612475812 0.5818766952 4286149804
-0.2876982987 -0.1603983045 0.5811420679 4286149804
-0.2873341739 -0.1595504135 0.5804065466 4286215597
-0.2869696319 -0.1587039381 0.5796701908 4286149804
-0.2866046429 -0.1578588635 0.5789329410 4286214827
-0.2866703570 -0.1572516710 0.5790656209 4286280620
-0.2867358327 -0.1566440463 0.5791978836 4286280620
-0.2863698006 -0.1558013856 0.5784585476 4286280620
-0.2864347100 -0.1551938504 0.5785896778 4286280620
-0.2864994109 -0.1545859128 0.5787203908 4286346413
-0.2865639031 -0.1539775580 0.5788506269 4286346413
-0.2866281569 -0.1533687860 0.5789803863 4286280620
-0.2866921723 -0.1527596116 0.5791097283 4286280622
-0.2863241136 -0.1519208997 0.5783662796 4286214829
-0.2863875926 -0.1513118297 0.5784944892 4286280622
-0.2864508331 -0.1507023573 0.5786222816 4286280622
-0.2865138650 -0.1500924826 0.5787495375 4286280109
-0.2861444056 -0.1492567360 0.5780032873 4286148523
-0.2862069011 -0.1486469805 0.5781294703 4286148523
-0.2862691283 -0.1480368227 0.5782551765 4286477488
-0.2858986259 -0.1472035646 0.5775067806 4286806966
-0.2859603167 -0.1465935409 0.5776314139 4286872759
-0.2860217690 -0.1459831297 0.5777555704 4286412208
-0.2856501937 -0.1451523751 0.5770049691 4286149036
-0.2857111096 -0.1445420980 0.5771279931 4286412208
-0.2857717872 -0.1439314336 0.5772505999 4286478001
-0.2853991389 -0.1431032270 0.5764978528 4286280622
-0.2854592800 -0.1424926966 0.5766193271 4286412208
-0.2855191529 -0.1418817937 0.5767402649 4286478001
-0.2855788171 -0.1412705034 0.5768607855 4286412208
-0.2856382430 -0.1406588405 0.5769808292 4286412208
-0.2856974304 -0.1400467902 0.5771003962 4286478001
-0.2857564092 -0.1394343525 0.5772194862 4286412208
-0.2858151197 -0.1388215423 0.5773380995 4286412208
-0.2858736217 -0.1382083595 0.5774562359 4286412208
-0.2859318554 -0.1375947893 0.5775739551 4286346415
-0.2859898806 -0.1369808614 0.5776911378 4286478001
-0.2860476673 -0.1363665462 0.5778078437 4286412208
-0.2856710553 -0.1355458647 0.5770471096 4286346415
-0.2857282758 -0.1349317580 0.5771626830 4286346415
-0.2857852578 -0.1343172640 0.5772777796 4286412208
-0.2858420014 -0.1337024122 0.5773923993 4286412208
-0.2854640186 -0.1328849345 0.5766289234 4286412208
-0.2855201960 -0.1322702765 0.5767424107 4286478001
-0.2855761349 -0.1316552758 0.5768554211 4286478001
-0.2851971090 -0.1308404505 0.5760897398 4286478001
-0.2852524817 -0.1302256584 0.5762016177 4286478001
-0.2857425511 -0.1298080832 0.5771915317 4286478001
-0.2853625417 -0.1289950013 0.5764238834 4286478001
-0.2854171991 -0.1283791363 0.5765343308 4286543794
-0.2854716182 -0.1277629286 0.5766442418 4286543794
-0.2855257988 -0.1271463633 0.5767536759 4286543794
-0.2855797410 -0.1265294403 0.5768626332 4286675121
-0.2856334448 -0.1259121746 0.5769711137 4286609328
-0.2852513790 -0.1251035631 0.5761994123 4286543535
-0.2848689258 -0.1242964938 0.5754268765 4286477742
-0.2849217355 -0.1236800775 0.5755335093 4286543535
-0.2849743068 -0.1230633184 0.5756397247 4286543535
-0.2850266397 -0.1224462166 0.5757454038 4286543792
-0.2850787044 -0.1218287721 0.5758505464 4286543792
-0.2851305306 -0.1212109998 0.5759552717 4286477999
-0.2851821184 -0.1205928847 0.5760594606 4286543792
-0.2852334678 -0.1199744344 0.5761631727 4286543794
-0.2848483324 -0.1191731542 0.5753852725 4286543794
-0.2848991156 -0.1185549870 0.5754877925 4286609587
-0.2853859961 -0.1181170940 0.5764713287 4286609587
-0.2854363620 -0.1174973249 0.5765730143 4286478771
-0.2854864597 -0.1168772206 0.5766742229 4286478771
-0.2850997448 -0.1160790324 0.5758930445 4286609328
-0.2851492763 -0.1154592335 0.5759931207 4286609328
-0.2851985693 -0.1148391142 0.5760926604 4286543281
-0.2852475941 -0.1142186671 0.5761917233 4286477488
-0.2852963805 -0.1135979071 0.5762903094 4286478001
-0.2849079370 -0.1128038093 0.5755056739 4286478001
-0.2849561572 -0.1121833622 0.5756030679 4286412208
-0.2850041389 -0.1115626097 0.5756999254 4286478001
-0.2850518525 -0.1109415367 0.5757963061 4286149034
-0.2850993276 -0.1103201509 0.5758922100 4286214827
-0.2851465344 -0.1096984595 0.5759875774 4287399355
-0.2847560942 -0.1089091599 0.5751988888 4289241559
-0.2848027349 -0.1082878038 0.5752931237 4289636568
-0.2848491073 -0.1076661497 0.5753868222 4289702361
-0.2848952413 -0.1070441902 0.5754799843 4290426082
-0.2849411368 -0.1064219251 0.5755726695 4290689254
-0.2854245305 -0.1059618816 0.5765491724 4290230233
-0.2863456607 -0.1056611910 0.5784097910 4290230233
-0.2868289053 -0.1051957607 0.5793859363 4290493908
-0.3027917147 -0.1760037392 0.6130055785 4288717750
-0.2985745370 -0.1728808284 0.6044679284 4286085015
-0.3012205362 -0.1737353504 0.6098247170 4286742945
-0.2957128882 -0.1698935181 0.5986744165 4286412196
-0.2923488319 -0.1673031896 0.5918638706 4286214817
-0.2907004654 -0.1657059938 0.5885267854 4286477738
-0.2890511155 -0.1641156375 0.5851876140 4286609324
-0.2878302932 -0.1627750546 0.5827160478 4286675119
-0.2874680758 -0.1619235724 0.5819827318 4286543533
-0.2871054113 -0.1610734910 0.5812485218 4286412206
-0.2867423296 -0.1602247953 0.5805134177 4286346413
-0.2863788307 -0.1593775153 0.5797775388 4286215597
-0.2864449918 -0.1587700099 0.5799114704 4286149804
-0.2860807478 -0.1579246223 0.5791741014 4286346413
-0.2861464024 -0.1573171914 0.5793069601 4286412206
-0.2857814133 -0.1564737111 0.5785680413 4286346413
-0.2858465016 -0.1558663696 0.5786998272 4286280620
-0.2859113514 -0.1552586108 0.5788311362 4286280620
-0.2859759927 -0.1546504498 0.5789619684 4286346413
-0.2860403955 -0.1540418565 0.5790923834 4286346413
-0.2861045897 -0.1534328759 0.5792223215 4286280620
-0.2861685455 -0.1528234780 0.5793518424 4286412206
-0.2858012319 -0.1519844234 0.5786081553 4286214827
-0.2858646214 -0.1513751298 0.5787365437 4286346156
-0.2859278321 -0.1507654339 0.5788644552 4286346156
-0.2859907746 -0.1501553357 0.5789919496 4286280363
-0.2856220603 -0.1493192613 0.5782454610 4286214570
-0.2856844664 -0.1487092823 0.5783718228 4286280363
-0.2857466638 -0.1480989009 0.5784977078 4286411949
-0.2853768766 -0.1472653300 0.5777490735 4286609587
-0.2854385078 -0.1466550678 0.5778738260 4286806966
-0.2854999006 -0.1460444182 0.5779981017 4286543792
-0.2855610847 -0.1454333663 0.5781219602 4286280620
-0.2851898968 -0.1446028352 0.5773705244 4286412206
-0.2852505147 -0.1439919472 0.5774932504 4286412206
-0.2848786116 -0.1431634128 0.5767403245 4286280622
-0.2849386930 -0.1425526589 0.5768619180 4286412208
-0.2849985063 -0.1419415176 0.5769830346 4286478001
-0.2850581110 -0.1413300037 0.5771037340 4286478001
-0.2851174772 -0.1407181025 0.5772238970 4286412206
-0.2851766050 -0.1401058137 0.5773436427 4286346413
-0.2852355242 -0.1394931525 0.5774628520 4286412206
-0.2852941751 -0.1388801038 0.5775816441 4286346413
-0.2853526175 -0.1382666826 0.5776999593 4286346415
-0.2854107916 -0.1376528889 0.5778177381 4286346415
-0.2854687572 -0.1370387077 0.5779350996 4286478001
-0.2855264843 -0.1364241689 0.5780519843 4286346415
-0.2851506174 -0.1356031597 0.5772910118 4286346415
-0.2852077782 -0.1349887997 0.5774067640 4286346415
-0.2852647007 -0.1343740821 0.5775219798 4286346415
-0.2853214145 -0.1337589920 0.5776367784 4286412208
-0.2849441469 -0.1329411864 0.5768730044 4286478001
-0.2850002944 -0.1323263049 0.5769866705 4286478001
-0.2850561738 -0.1317110509 0.5770998001 4286346415
-0.2851118147 -0.1310954392 0.5772124529 4286346415
-0.2851672471 -0.1304794699 0.5773246288 4286412208
-0.2852224112 -0.1298631430 0.5774363279 4286478001
-0.2852773368 -0.1292464584 0.5775475502 4286478001
-0.2848977447 -0.1284336299 0.5767790675 4286478001
-0.2849521041 -0.1278171837 0.5768890977 4286478001
-0.2850062549 -0.1272003651 0.5769987106 4286478001
-0.2850601375 -0.1265832186 0.5771077871 4286609328
-0.2851137817 -0.1259656996 0.5772163868 4286609328
-0.2847324610 -0.1251567751 0.5764444470 4286543535
-0.2847855389 -0.1245395094 0.5765519142 4286543535
-0.2844035029 -0.1237327158 0.5757784843 4286543535
-0.2844560146 -0.1231157109 0.5758848190 4286609328
-0.2845082879 -0.1224983707 0.5759906173 4286543794
-0.2845603228 -0.1218806803 0.5760959387 4286609587
-0.2846120894 -0.1212626621 0.5762007833 4286609587
-0.2846636474 -0.1206443012 0.5763050914 4286609587
-0.2851502597 -0.1202091351 0.5772902966 4286675380
-0.2847659588 -0.1194065809 0.5765122771 4286675380
-0.2848167717 -0.1187872216 0.5766151547 4286609587
-0.2848673165 -0.1181675345 0.5767174959 4286609587
-0.2849176228 -0.1175475121 0.5768193007 4286544564
-0.2849676907 -0.1169271618 0.5769206882 4286544564
-0.2845816910 -0.1161286533 0.5761392117 4286609328
-0.2846311927 -0.1155086011 0.5762394071 4286543535
-0.2846804261 -0.1148882359 0.5763390660 4286543281
-0.2847294211 -0.1142675430 0.5764382482 4286609074
-0.2847781479 -0.1136465296 0.5765369534 4286543794
-0.2848266661 -0.1130251959 0.5766351223 4286543794
-0.2844386399 -0.1122314185 0.5758495927 4286478002
-0.2844865620 -0.1116104051 0.5759466290 4286346416
-0.2845342457 -0.1109890863 0.5760431290 4286149036
-0.2845816612 -0.1103674546 0.5761391521 4286017450
-0.2846288383 -0.1097455099 0.5762346387 4286873011
-0.2846757472 -0.1091232523 0.5763296485 4288715215
-0.2842857242 -0.1083342806 0.5755400062 4289504728
-0.2843320668 -0.1077123731 0.5756338239 4289702107
-0.2843781710 -0.1070901603 0.5757271647 4290491875
-0.2844240069 -0.1064676493 0.5758199692 4290689254
-0.2849065661 -0.1060074195 0.5767968893 4290296280
-0.2858260572 -0.1057066098 0.5786584020 4290230487
-0.2867455781 -0.1054016724 0.5805199742 4290428113
-0.3009514511 -0.1753282994 0.6106531024 4289441471
-0.2988827825 -0.1734493226 0.6064556241 4286216601
-0.2959562540 -0.1710837632 0.6005174518 4286479773
-0.2934564948 -0.1689771265 0.5954452157 4286477991
-0.2905267477 -0.1666351557 0.5895006061 4286149026
-0.2888811827 -0.1650400609 0.5861616135 4286543535
-0.2876633108 -0.1636957526 0.5836904049 4286609328
-0.2868734002 -0.1625995189 0.5820876360 4286543535
-0.2865117788 -0.1617486328 0.5813539028 4286477742
-0.2861497402 -0.1608991325 0.5806193352 4286477999
-0.2857872844 -0.1600510329 0.5798838735 4286477999
-0.2858536243 -0.1594437361 0.5800184608 4286281388
-0.2854904234 -0.1585975289 0.5792815089 4286281388
-0.2855561972 -0.1579903066 0.5794149637 4286412460
-0.2856217623 -0.1573826671 0.5795480013 4286412460
-0.2852575183 -0.1565388441 0.5788089037 4286412460
-0.2853225470 -0.1559312791 0.5789408088 4286412460
-0.2853873372 -0.1553233117 0.5790722966 4286346413
-0.2854519188 -0.1547149122 0.5792033076 4286346413
-0.2855162621 -0.1541061103 0.5793339014 4286280620
-0.2855803668 -0.1534968913 0.5794640183 4286214827
-0.2856442928 -0.1528872699 0.5795936584 4286477999
-0.2852776647 -0.1520479023 0.5788497925 4286280620
-0.2853410244 -0.1514383852 0.5789783597 4286346156
-0.2854041457 -0.1508284509 0.5791064501 4286346156
-0.2854670286 -0.1502181292 0.5792340636 4286346156
-0.2850990593 -0.1493817419 0.5784873366 4286411949
-0.2851614058 -0.1487715244 0.5786138773 4286411949
-0.2852235138 -0.1481609046 0.5787399411 4286411949
-0.2848544717 -0.1473270208 0.5779910684 4286280622
-0.2849160433 -0.1467165351 0.5781159997 4286478001
-0.2849773765 -0.1461056471 0.5782404542 4286675378
-0.2850384712 -0.1454943717 0.5783644915 4286609585
-0.2846680582 -0.1446635276 0.5776128173 4286412206
-0.2847285867 -0.1440523863 0.5777357221 4286214827
-0.2847889364 -0.1434408724 0.5778580904 4286280622
-0.2844174206 -0.1426125467 0.5771043301 4286412208
-0.2844772041 -0.1420011818 0.5772255659 4286412208
-0.2845367491 -0.1413894296 0.5773463845 4286478001
-0.2845960557 -0.1407772899 0.5774667263 4286412206
-0.2846551239 -0.1401647776 0.5775865912 4286346413
-0.2847139537 -0.1395518780 0.5777059793 4286412206
-0.2852047086 -0.1391494274 0.5787017345 4286346413
-0.2848309577 -0.1383249462 0.5779433846 4286280622
-0.2848891020 -0.1377109140 0.5780613422 4286412208
-0.2849470079 -0.1370965093 0.5781788230 4286346415
-0.2850046754 -0.1364817172 0.5782958269 4286346415
-0.2850621045 -0.1358665675 0.5784123540 4286412208
-0.2851192951 -0.1352510452 0.5785284042 4286478001
-0.2851762474 -0.1346351504 0.5786439776 4286346415
-0.2848001420 -0.1338155121 0.5778808594 4286412208
-0.2848565280 -0.1331998259 0.5779953003 4286478001
-0.2849127054 -0.1325837523 0.5781092644 4286478001
-0.2849686146 -0.1319673359 0.5782226920 4286412208
-0.2845911384 -0.1311509311 0.5774567723 4286346415
-0.2846464813 -0.1305347234 0.5775690675 4286412208
-0.2851349413 -0.1301158965 0.5785602331 4286412208
-0.2847564816 -0.1293012202 0.5777922869 4286412208
-0.2848111391 -0.1286839396 0.5779031515 4286478001
-0.2848655283 -0.1280663013 0.5780135393 4286478001
-0.2849196792 -0.1274483204 0.5781234503 4286412208
-0.2845398486 -0.1266369373 0.5773527026 4286411695
-0.2845934331 -0.1260191798 0.5774614811 4286411695
-0.2846468091 -0.1254010797 0.5775697231 4286477488
-0.2842659056 -0.1245924234 0.5767968893 4286543281
-0.2843186855 -0.1239745766 0.5769039392 4286543281
-0.2843712270 -0.1233563870 0.5770105720 4286543281
-0.2844235301 -0.1227378547 0.5771166682 4286478001
-0.2844755948 -0.1221189871 0.5772222877 4286412208
-0.2845273912 -0.1214997694 0.5773274302 4286478001
-0.2841444910 -0.1206956729 0.5765504837 4286412208
-0.2846302688 -0.1202603355 0.5775361657 4286478001
-0.2842467129 -0.1194574609 0.5767579079 4286543794
-0.2842974663 -0.1188378558 0.5768609047 4286478001
-0.2843479812 -0.1182179227 0.5769633651 4286543794
-0.2843982279 -0.1175976545 0.5770653486 4286609587
-0.2844482362 -0.1169770584 0.5771668553 4286609587
-0.2840630114 -0.1161782220 0.5763851404 4286609328
-0.2841124535 -0.1155579239 0.5764854550 4286477742
-0.2841616273 -0.1149373055 0.5765852928 4286543281
-0.2842105925 -0.1143163666 0.5766845942 4286609074
-0.2842592597 -0.1136951074 0.5767834187 4286478001
-0.2843077183 -0.1130735278 0.5768817067 4286478001
-0.2843559086 -0.1124516279 0.5769795179 4286478001
-0.2839683294 -0.1116581634 0.5761930346 4286346415
-0.2840159535 -0.1110365912 0.5762897134 4286280620
-0.2840633392 -0.1104147062 0.5763857961 4286214827
-0.2841104567 -0.1097925156 0.5764814615 4286741425
-0.2841573358 -0.1091700122 0.5765765309 4288320457
-0.2837680578 -0.1083807126 0.5757867098 4289373142
-0.2838143706 -0.1077585518 0.5758806467 4289767900
-0.2838604152 -0.1071360856 0.5759740472 4290491875
-0.2839061916 -0.1065133214 0.5760669708 4290820840
