VERSION 0.7
FIELDS x y z rgba
SIZE 4 4 4 4
TYPE F F F U
COUNT 1 1 1 1
WIDTH 920
HEIGHT 1
VIEWPOINT 0.0 0.0 0.0 1.0 0.0 0.0 0.0
POINTS 920
DATA ascii
-0.3132773340 -0.1532685161 0.6230265498 4289045710
-0.3089538515 -0.1504706144 0.6144282818 4289506261
-0.3033114672 -0.1470523775 0.6032070518 4289703129
-0.2972274423 -0.1434459388 0.5911075473 4289637336
-0.2937754095 -0.1411308050 0.5842423439 4289768922
-0.2916393280 -0.1394602209 0.5799942613 4289768922
-0.2903807461 -0.1382167339 0.5774912834 4289768922
-0.2895607650 -0.1371866167 0.5758605599 4289768922
-0.2896191776 -0.1365743428 0.5759767294 4289768922
-0.2896773517 -0.1359616965 0.5760924220 4289703129
-0.2897352874 -0.1353486776 0.5762075782 4289768922
-0.2897929847 -0.1347352862 0.5763223171 4289900508
-0.2898504138 -0.1341215372 0.5764365792 4289834976
-0.2899076343 -0.1335074157 0.5765503645 4289834976
-0.2899646163 -0.1328929514 0.5766636729 4290032605
-0.2900213301 -0.1322780997 0.5767765045 4290493156
-0.2905180156 -0.1318627000 0.5777642131 4289834974
-0.2910146117 -0.1314450651 0.5787518620 4290690283
-0.3156520128 -0.1561702043 0.6291388273 4289506510
-0.3144044876 -0.1548567414 0.6266523600 4288059064
-0.3118422329 -0.1529041529 0.6215454340 4288914124
-0.3084025085 -0.1505346000 0.6146895289 4289506261
-0.3027702272 -0.1471149325 0.6034636497 4289637849
-0.2966971099 -0.1435069889 0.5913590789 4289572056
-0.2928129435 -0.1409798414 0.5836173892 4289768922
-0.2906806469 -0.1393094957 0.5793674588 4289768922
-0.2894242704 -0.1380664408 0.5768632889 4289703127
-0.2886057198 -0.1370368302 0.5752317905 4289703127
-0.2886639833 -0.1364252418 0.5753479600 4289768922
-0.2887220085 -0.1358132958 0.5754635930 4289768922
-0.2887797952 -0.1352009624 0.5755787492 4289768922
-0.2888373435 -0.1345882714 0.5756934881 4289834715
-0.2888946831 -0.1339752078 0.5758076906 4289834976
-0.2885126173 -0.1331591159 0.5750461817 4289769183
-0.2885693610 -0.1325462610 0.5751593113 4289966812
-0.2890651524 -0.1321338564 0.5761475563 4290295777
-0.2891215086 -0.1315193474 0.5762598515 4289966560
-0.2896171212 -0.1311034262 0.5772476196 4290361318
-0.3142127693 -0.1558030546 0.6276597381 4289835475
-0.3129673898 -0.1544909030 0.6251719594 4288059064
-0.3108467758 -0.1527542025 0.6209359169 4288913865
-0.3069758713 -0.1501706839 0.6132035255 4289571795
-0.3013535738 -0.1467514485 0.6019726396 4289637849
-0.2957286537 -0.1433559060 0.5907365084 4289506263
-0.2918514013 -0.1408286393 0.5829914808 4289703129
-0.2897228897 -0.1391585469 0.5787396431 4289703129
-0.2884687185 -0.1379159093 0.5762343407 4289703127
-0.2876515985 -0.1368868202 0.5746020675 4289703127
-0.2877097130 -0.1362759173 0.5747181773 4289768922
-0.2873295844 -0.1354581714 0.5739588737 4289768922
-0.2873871624 -0.1348474622 0.5740738511 4289768924
-0.2874444723 -0.1342363954 0.5741883516 4289834717
-0.2875015438 -0.1336249709 0.5743023753 4289834977
-0.2875584066 -0.1330131739 0.5744159222 4289834977
-0.2876150012 -0.1324010044 0.5745289922 4289966812
-0.2876713872 -0.1317884922 0.5746415854 4290229984
-0.2881661057 -0.1313755661 0.5756298900 4290295527
-0.2882220745 -0.1307613999 0.5757417083 4290163941
-0.3123397529 -0.1552186757 0.6253055334 4290230233
-0.3115326762 -0.1541246474 0.6236898303 4288124857
-0.3094157577 -0.1523890793 0.6194517016 4288848072
-0.3055516779 -0.1498063356 0.6117157936 4289571795
-0.2999393344 -0.1463875324 0.6004799008 4289637849
-0.2947610915 -0.1432045996 0.5901129842 4289506263
-0.2908907533 -0.1406772137 0.5823645592 4289637336
-0.2887660265 -0.1390073448 0.5781108141 4289637336
-0.2875140607 -0.1377651393 0.5756043792 4289637334
-0.2866983712 -0.1367365718 0.5739713907 4289703127
-0.2863192260 -0.1359188557 0.5732123256 4289768922
-0.2863768637 -0.1353092194 0.5733277202 4289703129
-0.2864342928 -0.1346992105 0.5734426975 4289703131
-0.2864914536 -0.1340888292 0.5735571384 4289834717
-0.2865484059 -0.1334780902 0.5736711621 4289900770
-0.2866051197 -0.1328669935 0.5737847090 4289900770
-0.2862239182 -0.1320536137 0.5730215311 4290032607
-0.2867178023 -0.1316437125 0.5740103126 4290164193
-0.2867738008 -0.1310315281 0.5741224289 4290492906
-0.2872674465 -0.1306180954 0.5751107335 4290032355
-0.3109061718 -0.1548505723 0.6238226295 4290756831
-0.3101004362 -0.1537579447 0.6222059131 4288388283
-0.3079871833 -0.1520235389 0.6179658175 4288716747
-0.3041299284 -0.1494415700 0.6102263331 4289440470
-0.2989633977 -0.1462363750 0.5998598337 4289572054
-0.2933585346 -0.1428408027 0.5886138678 4289440468
-0.2899310291 -0.1405255347 0.5817366838 4289506012
-0.2878100574 -0.1388559192 0.5774810910 4289440219
-0.2865603268 -0.1376141310 0.5749735236 4289571545
-0.2857460678 -0.1365860850 0.5733397007 4289768924
-0.2853675485 -0.1357689798 0.5725802779 4289637338
-0.2854250669 -0.1351600289 0.5726956725 4289637338
-0.2854823470 -0.1345507205 0.5728105903 4289637595
-0.2855393589 -0.1339410394 0.5729250312 4289834974
-0.2855961621 -0.1333310008 0.5730389953 4289966562
-0.2852159739 -0.1325176656 0.5722761154 4289966562
-0.2852722108 -0.1319078207 0.5723889470 4289966563
-0.2857651412 -0.1314986944 0.5733780265 4290098149
-0.2858209908 -0.1308872104 0.5734900832 4290361568
-0.2858766317 -0.1302753687 0.5736016631 4290098396
-0.3094750047 -0.1544820368 0.6223379374 4290888417
-0.3086706102 -0.1533908248 0.6207203269 4288454076
-0.3065610528 -0.1516575664 0.6164781451 4288782540
-0.3031455874 -0.1492905766 0.6096097827 4289308884
-0.2971182764 -0.1456584483 0.5974891782 4289572054
-0.2915233076 -0.1422642469 0.5862380266 4289506261
-0.2885369956 -0.1401622295 0.5802326798 4289571291
-0.2864197493 -0.1384937912 0.5759750009 4289571291
-0.2851721048 -0.1372533590 0.5734661222 4289571545
-0.2843591869 -0.1362267584 0.5718313456 4289768924
-0.2839812338 -0.1354111880 0.5710713267 4289637336
-0.2844741642 -0.1350106299 0.5720625520 4289703129
-0.2845312953 -0.1344020069 0.5721774697 4289703642
-0.2845881879 -0.1337930262 0.5722918510 4289835228
-0.2846448421 -0.1331836879 0.5724058151 4289900769
-0.2847012877 -0.1325739771 0.5725193024 4289900769
-0.2847574651 -0.1319639087 0.5726322532 4289966562
-0.2848134041 -0.1313534677 0.5727447867 4290098148
-0.2848691344 -0.1307426840 0.5728568435 4290229982
-0.2849245965 -0.1301315278 0.5729683638 4289901017
-0.2854162455 -0.1297183782 0.5739570856 4291152608
-0.3080463111 -0.1541130692 0.6208515167 4291020003
-0.3072432280 -0.1530232877 0.6192329526 4288651455
-0.3051373661 -0.1512911618 0.6149887443 4288979406
-0.3017279506 -0.1489250660 0.6081172228 4289242578
-0.2957114577 -0.1452932805 0.5959912539 4289637334
-0.2901265025 -0.1418995261 0.5847350955 4289637334
-0.2867110372 -0.1395870000 0.5778514147 4289571291
-0.2850319147 -0.1381312311 0.5744671822 4289637084
-0.2837864161 -0.1368921697 0.5719569921 4289702361
-0.2834095061 -0.1360757202 0.5711973906 4289899740
-0.2830322087 -0.1352607608 0.5704369545 4289505750
-0.2830893397 -0.1346541494 0.5705521107 4289571543
-0.2835811973 -0.1342530698 0.5715433955 4289768922
-0.2836379409 -0.1336447895 0.5716577768 4289966301
-0.2832593620 -0.1328320950 0.5708947182 4290032096
-0.2833155394 -0.1322240084 0.5710079670 4290097889
-0.2833715081 -0.1316155791 0.5711207390 4290163428
-0.2834272385 -0.1310067773 0.5712330937 4290163428
-0.2834827304 -0.1303976178 0.5713449121 4290164191
-0.2835379839 -0.1297881007 0.5714562535 4289769433
-0.2844642401 -0.1295750886 0.5733231306 4290494424
-0.3070531189 -0.1539608240 0.6202382445 4290164694
-0.3062514365 -0.1528715342 0.6186189055 4288783041
-0.3041493893 -0.1511396319 0.6143727899 4289045199
-0.3003127873 -0.1485591233 0.6066229343 4289110992
-0.2943070829 -0.1449276954 0.5944916606 4289768150
-0.2891657054 -0.1417468935 0.5841061473 4289768150
-0.2857564092 -0.1394343525 0.5772194862 4289767901
-0.2840802670 -0.1379789263 0.5738337636 4289833694
-0.2828370035 -0.1367402822 0.5713224411 4289767900
-0.2824607491 -0.1359244436 0.5705624223 4289965279
-0.2816501260 -0.1349022388 0.5689249635 4289899738
-0.2817070186 -0.1342972517 0.5690398812 4289899738
-0.2821978629 -0.1338979006 0.5700313449 4289900508
-0.2822543681 -0.1332912445 0.5701454878 4289966301
-0.2823106647 -0.1326842308 0.5702592134 4290097889
-0.2823667228 -0.1320768446 0.5703724623 4290163682
-0.2824225426 -0.1314691156 0.5704852343 4290097635
-0.2824781239 -0.1308610141 0.5705974698 4289966049
-0.2825334668 -0.1302525550 0.5707092881 4290032607
-0.2825886011 -0.1296437383 0.5708206296 4289901021
-0.2830783129 -0.1292330772 0.5718098283 4290098901
-0.3056285083 -0.1535910964 0.6187487245 4289243338
-0.3048281670 -0.1525032222 0.6171284914 4289374924
-0.3027298450 -0.1507724822 0.6128803492 4289045201
-0.2984675169 -0.1479783058 0.6042512655 4289110994
-0.2920399010 -0.1441346258 0.5912384391 4289702357
-0.2873403132 -0.1411688328 0.5817241073 4289768150
-0.2848026752 -0.1392814666 0.5765866041 4289898974
-0.2826966643 -0.1376156360 0.5723229051 4289964767
-0.2818885446 -0.1365881711 0.5706868768 4289899229
-0.2810798287 -0.1355640739 0.5690496564 4290162401
-0.2807037234 -0.1347512603 0.5682882071 4290162912
-0.2807604969 -0.1341469735 0.5684031248 4290162912
-0.2808170319 -0.1335423291 0.5685175657 4290162910
-0.2813067734 -0.1331424564 0.5695090890 4290162910
-0.2813629210 -0.1325361431 0.5696227551 4290228705
-0.2809852064 -0.1317261755 0.5688580871 4290294498
-0.2810408175 -0.1311200708 0.5689706206 4290163428
-0.2810961604 -0.1305136085 0.5690827370 4290097635
-0.2811512947 -0.1299067885 0.5691943169 4290032096
-0.2812061906 -0.1292996109 0.5693054199 4290229475
-0.2816948891 -0.1288906783 0.5702947974 4289901272
-0.2821835279 -0.1284795254 0.5712840557 4290888167
-0.3042063415 -0.1532209218 0.6172575355 4288914116
-0.3034073710 -0.1521344781 0.6156362891 4289045702
-0.3013127148 -0.1504049003 0.6113861203 4289110994
-0.2966263294 -0.1473968774 0.6018770337 4289110994
-0.2897783816 -0.1433407664 0.5879820585 4289636566
-0.2855190337 -0.1405901611 0.5793395042 4289833945
-0.2834178507 -0.1389165968 0.5750761032 4289898974
-0.2817476690 -0.1374627799 0.5716871619 4289964767
-0.2805087864 -0.1362259388 0.5691733360 4289965022
-0.2801337242 -0.1354122460 0.5684123635 4290162401
-0.2797582746 -0.1346000582 0.5676505566 4290097119
-0.2798148990 -0.1339964718 0.5677654147 4290228705
-0.2798712850 -0.1333925128 0.5678798556 4290294498
-0.2799274325 -0.1327881962 0.5679937601 4290228705
-0.2799833715 -0.1321835220 0.5681072474 4290294498
-0.2800390422 -0.1315784752 0.5682202578 4290294498
-0.2800945044 -0.1309730709 0.5683327317 4290163428
-0.2801497281 -0.1303673089 0.5684447885 4290229221
-0.2802047133 -0.1297611892 0.5685563684 4289966050
-0.2802594602 -0.1291547120 0.5686674714 4290360808
-0.2807472348 -0.1287465692 0.5696572065 4289900508
-0.2812349200 -0.1283361912 0.5706467628 4290361059
-0.3030885458 -0.1543724239 0.6163785458 4291217620
-0.3031530976 -0.1537203044 0.6165097356 4290493897
-0.3027866781 -0.1528503448 0.6157645583 4289374667
-0.3015582263 -0.1515488178 0.6132663488 4289243081
-0.2994672060 -0.1498213112 0.6090139151 4289241810
-0.2947891653 -0.1468148381 0.5995004177 4289176017
-0.2879535854 -0.1427598447 0.5855991244 4289570514
-0.2845641375 -0.1404364705 0.5787062049 4289899479
-0.2824667692 -0.1387631446 0.5744408369 4289898974
-0.2807996273 -0.1373096704 0.5710504651 4289898974
-0.2795629501 -0.1360732615 0.5685355067 4290030815
-0.2791885734 -0.1352601945 0.5677741170 4290030815
-0.2788137496 -0.1344486177 0.5670118928 4290096865
-0.2788702250 -0.1338457316 0.5671266913 4290228451
-0.2789264619 -0.1332424879 0.5672410727 4290359778
-0.2789824903 -0.1326388717 0.5673549771 4290359778
-0.2790382802 -0.1320348829 0.5674684644 4290293985
-0.2790938020 -0.1314305514 0.5675814152 4290228192
-0.2791491151 -0.1308258474 0.5676938891 4290162912
-0.2792042196 -0.1302207857 0.5678058863 4290097119
-0.2792590559 -0.1296153665 0.5679174662 4289900257
-0.2793136835 -0.1290096045 0.5680285096 4290229222
-0.2798005044 -0.1286022365 0.5690186024 4289966303
-0.2798547447 -0.1279948205 0.5691288710 4290229475
-0.3014436662 -0.1607088596 0.6144211888 4291547098
-0.3015104532 -0.1600616574 0.6145573258 4291349719
-0.3015770316 -0.1594140232 0.6146929860 4291218133
-0.3016433418 -0.1587659568 0.6148281693 4291283926
-0.3012802303 -0.1578925550 0.6140880585 4291415510
-0.3013459742 -0.1572445631 0.6142220497 4291349717
-0.3014114797 -0.1565961391 0.6143555641 4291546586
-0.3014767468 -0.1559472978 0.6144886017 4290164933
-0.3015417457 -0.1552980393 0.6146211028 4287533212
-0.3016065061 -0.1546483636 0.6147531271 4286217352
-0.3016710579 -0.1539982706 0.6148846149 4285624701
-0.3013055027 -0.1531293243 0.6141395569 4287203733
-0.3005096316 -0.1520442814 0.6125173569 4288848323
-0.2992831171 -0.1507459581 0.6100174189 4288848323
-0.2976257503 -0.1492371410 0.6066392660 4289241810
-0.2925259173 -0.1460174769 0.5962444544 4289176017
-0.2865631580 -0.1423921287 0.5840907693 4289570514
-0.2836101949 -0.1402825415 0.5780718327 4289965272
-0.2815166414 -0.1386094689 0.5738046765 4289899229
-0.2798525095 -0.1371563375 0.5704127550 4289833436
-0.2790487111 -0.1361304373 0.5687744021 4289965279
-0.2782443464 -0.1351079047 0.5671348572 4289767900
-0.2778701782 -0.1342969537 0.5663722157 4289965279
-0.2779265046 -0.1336947680 0.5664870143 4289965279
-0.2779825926 -0.1330922097 0.5666013956 4290096606
-0.2780384719 -0.1324893087 0.5667152405 4290228192
-0.2780941129 -0.1318860352 0.5668286681 4290228190
-0.2781495154 -0.1312823892 0.5669416189 4290293983
-0.2782046795 -0.1306784004 0.5670540333 4290228705
-0.2782596350 -0.1300740391 0.5671660304 4290097119
-0.2783143520 -0.1294693351 0.5672775507 4289966050
-0.2783688307 -0.1288642585 0.5673885942 4290163429
-0.2784230709 -0.1282588392 0.5674991608 4290162658
-0.2789088190 -0.1278509796 0.5684892535 4290360037
-0.3000968993 -0.1596727222 0.6130639911 4291547096
-0.3001632094 -0.1590266824 0.6131994724 4291546839
-0.2998009920 -0.1581542939 0.6124594808 4291612632
-0.2998667061 -0.1575083286 0.6125937104 4291415253
-0.2999322116 -0.1568619460 0.6127275229 4291349460
-0.2999974489 -0.1562151313 0.6128607988 4291217620
-0.3000624478 -0.1555678993 0.6129935980 4286743696
-0.2996984422 -0.1546989381 0.6122500300 4282598989
-0.2997628748 -0.1540517956 0.6123816371 4282533196
-0.2998270690 -0.1534042358 0.6125127673 4281546050
-0.2994619906 -0.1525377184 0.6117669344 4285822595
-0.2986673415 -0.1514550447 0.6101436019 4289702862
-0.2974429131 -0.1501589864 0.6076421738 4289702862
-0.2949297726 -0.1482208520 0.6025081277 4289307603
-0.2906977236 -0.1454341561 0.5938625336 4289110224
-0.2856047153 -0.1422378868 0.5834580660 4289504982
-0.2826571465 -0.1401283592 0.5774365664 4289899740
-0.2805674374 -0.1384555399 0.5731675029 4289833436
-0.2793360949 -0.1372138560 0.5706520081 4289833436
-0.2781039774 -0.1359774023 0.5681349635 4290030564
-0.2773010433 -0.1349553913 0.5664946437 4289964771
-0.2769275308 -0.1341450363 0.5657315850 4289899487
-0.2765536308 -0.1333362013 0.5649677515 4289899487
-0.2766095102 -0.1327352971 0.5650818944 4290030815
-0.2770954072 -0.1323395073 0.5660745502 4290030815
-0.2771508992 -0.1317369491 0.5661879182 4290031075
-0.2772061825 -0.1311340034 0.5663008094 4290162661
-0.2772611976 -0.1305307150 0.5664132237 4290097382
-0.2773160040 -0.1299270689 0.5665251613 4290031589
-0.2773705721 -0.1293230653 0.5666366816 4290097889
-0.2774249017 -0.1287186891 0.5667476654 4290361061
-0.2774789929 -0.1281139851 0.5668581724 4290163682
-0.2779638171 -0.1277069002 0.5678486228 4290032096
-0.2986858189 -0.1592833400 0.6115689874 4291481303
-0.2987518609 -0.1586389095 0.6117041707 4291349460
-0.2983901799 -0.1577680260 0.6109636426 4291415253
-0.2984556556 -0.1571236700 0.6110976934 4291217872
-0.2985208929 -0.1564788818 0.6112312675 4290888907
-0.2985858917 -0.1558336914 0.6113643050 4289967807
-0.2986506522 -0.1551880687 0.6114969254 4284901746
-0.2982871830 -0.1543206125 0.6107527614 4281743678
-0.2979233265 -0.1534546018 0.6100077033 4283322710
-0.2979871631 -0.1528095752 0.6101384163 4282795347
-0.2976225317 -0.1519455165 0.6093918085 4286874513
-0.2968291640 -0.1508651972 0.6077673435 4289966032
-0.2951783240 -0.1493546367 0.6043872237 4289571274
-0.2926695347 -0.1474194378 0.5992504358 4289373396
-0.2888736427 -0.1448502392 0.5914781690 4289110224
-0.2850758731 -0.1422973871 0.5837021470 4289504982
-0.2817050517 -0.1399739534 0.5768002868 4289833947
-0.2800480425 -0.1385135055 0.5734074712 4289702107
-0.2771032155 -0.1364265829 0.5673778057 4289833693
-0.2784473300 -0.1364548802 0.5701299310 4289965028
-0.2763586938 -0.1348026395 0.5658534169 4289899235
-0.2759858370 -0.1339929104 0.5650900006 4289899487
-0.2751832902 -0.1329772323 0.5634467006 4289899487
-0.2756683230 -0.1325844824 0.5644398332 4289965020
-0.2757238150 -0.1319839060 0.5645534992 4289965020
-0.2757790685 -0.1313829869 0.5646666288 4289965280
-0.2758341134 -0.1307816952 0.5647793412 4290096866
-0.2758889198 -0.1301800460 0.5648915768 4290031843
-0.2759434879 -0.1295780391 0.5650032759 4290097636
-0.2759978473 -0.1289756745 0.5651145577 4290032096
-0.2764819264 -0.1285729110 0.5661057830 4290295268
-0.2765358984 -0.1279688925 0.5662162900 4290229475
-0.2770197988 -0.1275626123 0.5672070384 4290032096
-0.2770733535 -0.1269569546 0.5673167109 4291414248
-0.2968507409 -0.1586655378 0.6091969013 4291283924
-0.2969164252 -0.1580236405 0.6093317270 4291086288
-0.2969818711 -0.1573813111 0.6094660759 4291217874
-0.2970471084 -0.1567385644 0.6095998883 4291086286
-0.2966851890 -0.1558711231 0.6088572145 4290428356
-0.2967498302 -0.1552284509 0.6089898944 4289374900
-0.2968142331 -0.1545853615 0.6091220379 4284506218
-0.2968783975 -0.1539418548 0.6092537045 4281348406
-0.2965150774 -0.1530773640 0.6085081100 4283387989
-0.2961513400 -0.1522143036 0.6077616215 4283387739
-0.2957871556 -0.1513527036 0.6070142388 4287203733
-0.2949950397 -0.1502747387 0.6053886414 4289505736
-0.2933470607 -0.1487663686 0.6020066738 4289374150
-0.2912704349 -0.1470490992 0.5977450013 4289504982
-0.2883370519 -0.1449107230 0.5917251110 4289110224
-0.2845463753 -0.1423568279 0.5839459896 4289570521
-0.2816098630 -0.1402455866 0.5779196024 4289833693
-0.2795279622 -0.1385714114 0.5736471415 4289702107
-0.2765886486 -0.1364836395 0.5676151514 4289833693
-0.2779303193 -0.1365119666 0.5703684688 4289899489
-0.2754172981 -0.1346496493 0.5652112961 4289899489
-0.2746166885 -0.1336320639 0.5635682344 4289899489
-0.2742439806 -0.1328253895 0.5628033876 4289899489
-0.2742994726 -0.1322268397 0.5629172921 4289965022
-0.2743547559 -0.1316279024 0.5630307198 4289965022
-0.2744098008 -0.1310286224 0.5631436706 4289965280
-0.2748934627 -0.1306327730 0.5641362071 4290031073
-0.2749481201 -0.1300318241 0.5642483830 4290096866
-0.2750025690 -0.1294305325 0.5643600821 4290162659
-0.2750567496 -0.1288288683 0.5644713640 4290032096
-0.2755399346 -0.1284268945 0.5654628873 4290229475
-0.2755937576 -0.1278235912 0.5655733347 4290361061
-0.2756473422 -0.1272199303 0.5656833053 4289966303
-0.2757006884 -0.1266159266 0.5657928586 4291085283
-0.2956731319 -0.1604243070 0.6081664562 4291547098
-0.2957393825 -0.1597843766 0.6083027124 4291349719
-0.2958053648 -0.1591440141 0.6084384918 4291020495
-0.2954454124 -0.1582751572 0.6076980829 4290625737
-0.2955108583 -0.1576348692 0.6078326702 4290428358
-0.2955760658 -0.1569941640 0.6079667807 4290428358
-0.2956410348 -0.1563530266 0.6081004143 4290296770
-0.2952796519 -0.1554870903 0.6073571444 4289573047
-0.2953440547 -0.1548460424 0.6074895859 4288782763
-0.2954082191 -0.1542045623 0.6076215506 4284835183
-0.2950457633 -0.1533410847 0.6068760157 4281414199
-0.2946828902 -0.1524790376 0.6061296463 4282598473
-0.2943195999 -0.1516184211 0.6053823829 4282335051
-0.2939558625 -0.1507592648 0.6046342850 4286677389
-0.2931649983 -0.1496836692 0.6030075550 4289505736
-0.2915198803 -0.1481774896 0.5996236801 4289571529
-0.2898738086 -0.1466783285 0.5962378979 4289504982
-0.2873727679 -0.1447560489 0.5910935402 4288978638
-0.2840162218 -0.1424162090 0.5841895342 4289504729
-0.2815124094 -0.1405173391 0.5790393949 4289767901
-0.2794345319 -0.1388415545 0.5747655034 4289702108
-0.2773555517 -0.1371747255 0.5704892278 4289899487
-0.2757028937 -0.1357272863 0.5670899749 4289833696
-0.2744768560 -0.1344964355 0.5645681024 4289899489
-0.2736776769 -0.1334793866 0.5629243255 4289898978
-0.2733056545 -0.1326733381 0.5621590614 4289898978
-0.2733609974 -0.1320754737 0.5622729063 4289964767
-0.2734161317 -0.1314772516 0.5623862743 4290030560
-0.2734710276 -0.1308786869 0.5624992251 4289965280
-0.2735256851 -0.1302797347 0.5626116395 4289965280
-0.2740082741 -0.1298833936 0.5636042953 4290031073
-0.2740625739 -0.1292827874 0.5637159348 4290162659
-0.2741166353 -0.1286818534 0.5638271570 4290031842
-0.2741704583 -0.1280805469 0.5639379025 4290229221
-0.2746525407 -0.1276780665 0.5649294853 4290492393
-0.2747060061 -0.1270751208 0.5650393963 4290031842
-0.2747592032 -0.1264718175 0.5651488900 4290887906
-0.2941376567 -0.1613041013 0.6063934565 4291481306
-0.2942040861 -0.1606666446 0.6065304279 4291218134
-0.2942703068 -0.1600287557 0.6066669226 4290823375
-0.2943362892 -0.1593904346 0.6068029404 4290362824
-0.2944020331 -0.1587516814 0.6069384813 4289573049
-0.2944675386 -0.1581125110 0.6070735455 4288980912
-0.2941077948 -0.1572456658 0.6063319445 4288454566
-0.2941727340 -0.1566065550 0.6064658165 4288059808
-0.2938122451 -0.1557416469 0.6057226062 4287796636
-0.2938766181 -0.1551026255 0.6058553457 4287270292
-0.2939407825 -0.1544631869 0.6059876084 4286940559
-0.2935791910 -0.1536007077 0.6052421331 4284769390
-0.2932172120 -0.1527396739 0.6044958830 4281348406
-0.2928547859 -0.1518800855 0.6037487388 4281479992
-0.2924919426 -0.1510219276 0.6030007005 4281084984
-0.2921286821 -0.1501652300 0.6022518277 4285295736
-0.2913390696 -0.1490920037 0.6006239653 4288650427
-0.2901228368 -0.1478050500 0.5981165767 4289308357
-0.2889058292 -0.1465232670 0.5956075788 4289373396
-0.2868356407 -0.1448163092 0.5913396478 4288847052
-0.2839117050 -0.1426897645 0.5853117108 4289438936
-0.2809863091 -0.1405758858 0.5792806745 4289767901
-0.2789123654 -0.1388994306 0.5750050545 4289767903
-0.2768373191 -0.1372319311 0.5707271695 4289899489
-0.2751878202 -0.1357839108 0.5673265457 4289833696
-0.2739641070 -0.1345525682 0.5648037195 4289899489
-0.2731664777 -0.1335351169 0.5631593466 4289964517
-0.2727951705 -0.1327287555 0.5623939037 4289898724
-0.2728504837 -0.1321306676 0.5625078678 4289898974
-0.2724784613 -0.1313263774 0.5617409348 4289898974
-0.2725332081 -0.1307285130 0.5618538260 4289899487
-0.2725877464 -0.1301302761 0.5619662404 4289965280
-0.2730693817 -0.1297347248 0.5629591346 4290031075
-0.2731235325 -0.1291348338 0.5630708337 4290162661
-0.2731774449 -0.1285346001 0.5631819963 4290096866
-0.2732311487 -0.1279340088 0.5632926822 4290294245
-0.2737122774 -0.1275323182 0.5642845631 4290558186
-0.2737655938 -0.1269300878 0.5643944740 4290097635
-0.2738186717 -0.1263274848 0.5645039082 4290756320
-0.2922478914 -0.1613065302 0.6038802862 4291481306
-0.2923142016 -0.1606720388 0.6040173173 4290889168
-0.2923803031 -0.1600371003 0.6041538715 4290494410
-0.2924461365 -0.1594017446 0.6042899489 4290165445
-0.2925117612 -0.1587659419 0.6044255495 4289375929
-0.2925771475 -0.1581297219 0.6045606732 4288520361
-0.2926423252 -0.1574930847 0.6046953201 4287599259
-0.2927072346 -0.1568560153 0.6048294306 4286874764
-0.2923476100 -0.1559921205 0.6040863395 4286282627
-0.2924119830 -0.1553551257 0.6042193174 4285888639
-0.2920516133 -0.1544931680 0.6034746766 4285559674
-0.2921154201 -0.1538562626 0.6036065221 4285887871
-0.2921789587 -0.1532189399 0.6037378907 4285164148
-0.2918175161 -0.1523594409 0.6029909849 4282400840
-0.2914556563 -0.1515013725 0.6022432446 4281940289
-0.2906683981 -0.1504248232 0.6006165743 4281545280
-0.2907306552 -0.1497895718 0.6007452011 4284834930
-0.2903675437 -0.1489358395 0.5999948382 4287729325
-0.2887283266 -0.1474321783 0.5966076851 4289242564
-0.2879387736 -0.1463679522 0.5949761868 4289373394
-0.2862978280 -0.1448765099 0.5915854573 4288847050
-0.2833794355 -0.1427491158 0.5855551362 4289372630
-0.2808851302 -0.1408477724 0.5804011226 4289833181
-0.2783895731 -0.1389572471 0.5752444267 4289833183
-0.2746154070 -0.1364429295 0.5674457550 4289964769
-0.2763754725 -0.1366828978 0.5710826516 4289898976
-0.2734507024 -0.1346086413 0.5650391579 4289964769
-0.2722285986 -0.1333820522 0.5625138283 4289964769
-0.2718579471 -0.1325763166 0.5617479682 4289898976
-0.2719131112 -0.1319789439 0.5618619323 4289899229
-0.2719680369 -0.1313811988 0.5619754195 4289965022
-0.2715963721 -0.1305781156 0.5612074137 4289899487
-0.2716507316 -0.1299805939 0.5613198280 4289965280
-0.2717049122 -0.1293827146 0.5614317060 4290031073
-0.2721854448 -0.1289866567 0.5624246597 4290096866
-0.2722392380 -0.1283871233 0.5625358224 4289965279
-0.2722927928 -0.1277872473 0.5626464486 4290228451
-0.2727729976 -0.1273863614 0.5636387467 4290558440
-0.2728261650 -0.1267848313 0.5637485981 4290163682
-0.2728791237 -0.1261829436 0.5638580322 4290558939
-0.2908516526 -0.1609051675 0.6023776531 4291152341
-0.2909177244 -0.1602722704 0.6025144458 4290625996
-0.2909835279 -0.1596389413 0.6026508212 4290165445
-0.2910491228 -0.1590051949 0.6027866602 4289770687
-0.2911145091 -0.1583710164 0.6029220223 4288915378
-0.2911796272 -0.1577364057 0.6030569077 4288125603
-0.2912445366 -0.1571013778 0.6031913161 4287204501
-0.2913092077 -0.1564659178 0.6033252478 4286414213
-0.2909501195 -0.1556035429 0.6025815606 4286151041
-0.2910142243 -0.1549681723 0.6027143598 4285888639
-0.2910780907 -0.1543323696 0.6028466225 4285625467
-0.2907179296 -0.1534724385 0.6021007299 4285624699
-0.2903573811 -0.1526139528 0.6013539433 4284900976
-0.2899963856 -0.1517568976 0.6006063223 4283650907
-0.2896349728 -0.1509012729 0.5998578072 4282927184
-0.2896972895 -0.1502671242 0.5999869108 4281874247
-0.2893351316 -0.1494134814 0.5992368460 4284900725
-0.2889725864 -0.1485612839 0.5984859467 4287400360
-0.2877607346 -0.1472761035 0.5959761143 4288979392
-0.2869726419 -0.1462123990 0.5943439007 4289504467
-0.2857593298 -0.1449366510 0.5918310285 4288912330
-0.2832711637 -0.1430228204 0.5866778493 4289241299
-0.2803569436 -0.1409062892 0.5806422234 4289833436
-0.2778660953 -0.1390150040 0.5754835010 4289898974
-0.2757989168 -0.1373461634 0.5712022185 4289898974
-0.2741557062 -0.1358969808 0.5677989721 4289898976
-0.2725115418 -0.1344549060 0.5643937588 4289898976
-0.2717168927 -0.1334375888 0.5627480149 4289898976
-0.2704963982 -0.1322157532 0.5602202415 4289898976
-0.2705512941 -0.1316200197 0.5603339672 4289965020
-0.2706060112 -0.1310239434 0.5604472756 4289965020
-0.2706604600 -0.1304274946 0.5605600476 4289899487
-0.2707147002 -0.1298306733 0.5606724024 4289965280
-0.2707687318 -0.1292335093 0.5607842803 4290096355
-0.2708225250 -0.1286359876 0.5608956814 4290096355
-0.2708760798 -0.1280381083 0.5610066056 4289965279
-0.2713553905 -0.1276402622 0.5619993210 4290162658
-0.2714085877 -0.1270407289 0.5621094704 4290558440
-0.2714615464 -0.1264408529 0.5622191429 4290229475
-0.2723667324 -0.1262357235 0.5640938878 4290295767
-0.2893919349 -0.1611341834 0.6007362604 4291547099
-0.2894579470 -0.1605033427 0.6008733511 4291086548
-0.2895237505 -0.1598720551 0.6010099053 4290560203
-0.2895893157 -0.1592403352 0.6011460423 4290099652
-0.2896546423 -0.1586081982 0.6012816429 4289573308
-0.2897197306 -0.1579756290 0.6014168262 4288717999
-0.2897846103 -0.1573426425 0.6015514731 4287928224
-0.2898492515 -0.1567092240 0.6016856432 4286809743
-0.2899136543 -0.1560753882 0.6018193364 4286085248
-0.2895551324 -0.1552145332 0.6010751128 4286019455
-0.2896189988 -0.1545807719 0.6012076139 4285691260
-0.2896825969 -0.1539465934 0.6013396978 4285362295
-0.2893230021 -0.1530881822 0.6005932093 4285624697
-0.2893860638 -0.1524541080 0.6007241011 4285098353
-0.2886025310 -0.1513756961 0.5990976095 4284506216
-0.2882416844 -0.1505216062 0.5983485579 4283190356
-0.2887271047 -0.1501091719 0.5993562341 4282269005
-0.2879421413 -0.1490369588 0.5977267623 4285163897
-0.2875801325 -0.1481862962 0.5969752669 4287137188
-0.2863704562 -0.1469024718 0.5944641232 4288913599
-0.2860074341 -0.1460565925 0.5937105417 4289636307
-0.2847963870 -0.1447812766 0.5911965966 4288978377
-0.2827367783 -0.1430821270 0.5869211555 4289175504
-0.2798280716 -0.1409647465 0.5808830857 4289767641
-0.2769179046 -0.1388600469 0.5748420358 4289898974
-0.2748546004 -0.1371914744 0.5705589056 4289898974
-0.2732144296 -0.1357426494 0.5671541095 4289964767
-0.2719976604 -0.1345107704 0.5646283031 4289833181
-0.2707801461 -0.1332841516 0.5621009469 4289964769
-0.2699863911 -0.1322707385 0.5604531765 4289964769
-0.2700412571 -0.1316747814 0.5605670810 4289965022
-0.2700959146 -0.1310784668 0.5606805086 4289899229
-0.2697255611 -0.1302766353 0.5599117279 4289899489
-0.2702044845 -0.1298847646 0.5609059334 4290031075
-0.2702584565 -0.1292873621 0.5610179305 4290162150
-0.2703121901 -0.1286896169 0.5611295104 4290096357
-0.2703656852 -0.1280915141 0.5612405539 4289965280
-0.2704189718 -0.1274930537 0.5613511205 4290162659
-0.2708972692 -0.1270937473 0.5623440742 4290558440
-0.2709501684 -0.1264936477 0.5624538660 4290295268
-0.2714282870 -0.1260908246 0.5634463429 4290098390
-0.2880010009 -0.1607302874 0.5992305279 4291415259
-0.2880667448 -0.1601010561 0.5993673205 4291020501
-0.2881322801 -0.1594713777 0.5995036960 4290560204
-0.2886189222 -0.1590735018 0.6005162001 4289968067
-0.2886840999 -0.1584420651 0.6006518006 4289770687
-0.2883275151 -0.1575798094 0.5999098420 4288915378
-0.2883921266 -0.1569484323 0.6000443101 4288190626
-0.2884564996 -0.1563166231 0.6001782417 4287072145
-0.2885206640 -0.1556843966 0.6003117561 4286019455
-0.2885845900 -0.1550517529 0.6004447341 4285756283
-0.2886482775 -0.1544186920 0.6005772352 4285887869
-0.2882896364 -0.1535603702 0.5998310447 4285624697
-0.2879305780 -0.1527034938 0.5990839601 4285624188
-0.2879933715 -0.1520710289 0.5992146730 4285689981
-0.2876335680 -0.1512161046 0.5984660387 4285295223
-0.2876958251 -0.1505837440 0.5985955596 4284308328
-0.2873352766 -0.1497307867 0.5978453755 4282334285
-0.2869743407 -0.1488792747 0.5970943570 4285097591
-0.2861902416 -0.1478108913 0.5954629183 4287071134
-0.2854055166 -0.1467458159 0.5938302279 4289044924
-0.2850431502 -0.1459005475 0.5930762291 4289636304
-0.2842573524 -0.1448411942 0.5914412737 4289438925
-0.2822016776 -0.1431413740 0.5871641636 4289175504
-0.2792985439 -0.1410231441 0.5811237097 4289965020
-0.2763939500 -0.1389175951 0.5750802755 4289701595
-0.2739112377 -0.1370365471 0.5699145794 4289964767
-0.2718506753 -0.1353772134 0.5656272769 4290096355
-0.2710596323 -0.1343566477 0.5639813542 4290096355
-0.2702679932 -0.1333394647 0.5623342395 4290031072
-0.2694757879 -0.1323256642 0.5606859326 4290031072
-0.2691068053 -0.1315223724 0.5599182248 4290030821
-0.2687374055 -0.1307205856 0.5591496229 4290096614
-0.2692155540 -0.1303308010 0.5601444840 4290162659
-0.2692695856 -0.1297344714 0.5602569580 4290096866
-0.2693234086 -0.1291377991 0.5603688955 4290096614
-0.2693769932 -0.1285407543 0.5604804158 4290228200
-0.2694303691 -0.1279433668 0.5605914593 4290096865
-0.2703322768 -0.1277467012 0.5624679923 4290096865
-0.2703853548 -0.1271467209 0.5625784397 4290820842
-0.2704381943 -0.1265463829 0.5626883507 4290689256
-0.2704907954 -0.1259456873 0.5627978444 4290031326
-0.2866126001 -0.1603259444 0.5977230072 4291415259
-0.2870984375 -0.1599324793 0.5987362266 4291020501
-0.2871638238 -0.1593035012 0.5988725424 4290560204
-0.2872289419 -0.1586740911 0.5990083814 4290099653
-0.2872938514 -0.1580442637 0.5991437435 4289836480
-0.2873585224 -0.1574140042 0.5992786288 4289046964
-0.2874229848 -0.1567833126 0.5994130373 4288191396
-0.2874872088 -0.1561522037 0.5995469689 4287072915
-0.2875511944 -0.1555206776 0.5996804237 4286151041
-0.2871938348 -0.1546619534 0.5989351869 4285756283
-0.2872572839 -0.1540305018 0.5990675092 4285756283
-0.2873204947 -0.1533986330 0.5991992950 4285558904
-0.2869620621 -0.1525423527 0.5984518528 4285755774
-0.2866032422 -0.1516875178 0.5977035165 4285755774
-0.2866655588 -0.1510562748 0.5978334546 4285624186
-0.2863059938 -0.1502033919 0.5970835686 4285229428
-0.2863677442 -0.1495722532 0.5972123742 4283058262
-0.2855856121 -0.1485019922 0.5955812335 4284571501
-0.2852247953 -0.1476534754 0.5948287845 4286742169
-0.2844415307 -0.1465889215 0.5931953192 4288715959
-0.2840797901 -0.1457442641 0.5924409628 4289438925
-0.2828732729 -0.1444698125 0.5899247527 4289373132
-0.2812436521 -0.1429858655 0.5865262747 4288978125
-0.2783460021 -0.1408677101 0.5804832578 4289701848
-0.2754468620 -0.1387622505 0.5744372010 4289701595
-0.2729688287 -0.1368813813 0.5692692995 4289964767
-0.2713347673 -0.1354332715 0.5658615232 4290030562
-0.2701225281 -0.1342023015 0.5633334517 4290096355
-0.2693323791 -0.1331856549 0.5616855621 4289965280
-0.2685416341 -0.1321723908 0.5600364804 4289965280
-0.2685962915 -0.1315769255 0.5601504445 4289899235
-0.2682276368 -0.1307748258 0.5593816638 4290030821
-0.2687049210 -0.1303849071 0.5603770614 4290162661
-0.2691821456 -0.1299927533 0.5613722801 4290096868
-0.2692359984 -0.1293949038 0.5614845753 4290096614
-0.2692896128 -0.1287966967 0.5615963936 4290228200
-0.2693430185 -0.1281981319 0.5617077351 4290031072
-0.2693961561 -0.1275992095 0.5618185997 4290096865
-0.2698727548 -0.1271996349 0.5628125072 4290886635
-0.2699255347 -0.1265990585 0.5629225969 4290886635
-0.2699781060 -0.1259981394 0.5630322099 4290031072
-0.2856462002 -0.1601563245 0.5970906019 4291481052
-0.2861310542 -0.1597636342 0.5981041789 4291086294
-0.2861962616 -0.1591353565 0.5982404351 4290691790
-0.2862612307 -0.1585066468 0.5983762741 4290231239
-0.2863259912 -0.1578775048 0.5985115767 4289968066
-0.2859705687 -0.1570173651 0.5977686644 4289178550
-0.2860347629 -0.1563882977 0.5979028344 4288322982
-0.2860987186 -0.1557588130 0.5980365276 4287336087
-0.2861624360 -0.1551288962 0.5981697440 4286283397
-0.2862259448 -0.1544985622 0.5983024836 4285691260
-0.2858688235 -0.1536418796 0.5975559950 4285559674
-0.2859317660 -0.1530116349 0.5976876020 4285428088
-0.2859944999 -0.1523809731 0.5978186727 4285755772
-0.2856363058 -0.1515267342 0.5970699787 4285689979
-0.2856984735 -0.1508961916 0.5971999168 4285755772
-0.2857604027 -0.1502652168 0.5973293781 4285887358
-0.2854011357 -0.1494134665 0.5965784192 4284045156
-0.2846204340 -0.1483437270 0.5949465036 4284505707
-0.2842602730 -0.1474958211 0.5941936374 4286807960
-0.2838996947 -0.1466493607 0.5934399366 4288781750
-0.2831174135 -0.1455877274 0.5918046832 4289504718
-0.2819131017 -0.1443137079 0.5892873406 4289833683
-0.2811295390 -0.1432596743 0.5876494050 4289372885
-0.2773943841 -0.1407120377 0.5798417926 4289767643
-0.2745007277 -0.1386066675 0.5737931132 4289898976
-0.2724491060 -0.1369379610 0.5695045590 4290030562
-0.2703964114 -0.1352782398 0.5652137399 4290096355
-0.2691864371 -0.1340477169 0.5626845360 4290293734
-0.2688197196 -0.1332407743 0.5619180202 4290162659
-0.2680305243 -0.1322271079 0.5602683425 4290031073
-0.2676629424 -0.1314241290 0.5594999790 4289965028
-0.2677172422 -0.1308290213 0.5596134663 4289965028
-0.2677713037 -0.1302335411 0.5597264767 4289965280
-0.2686700225 -0.1300466508 0.5616050959 4289899487
-0.2687238157 -0.1294485778 0.5617175102 4289899235
-0.2687773705 -0.1288501471 0.5618295074 4289965028
-0.2688307166 -0.1282513589 0.5619409680 4289899486
-0.2688837945 -0.1276522130 0.5620519519 4289965279
-0.2689366937 -0.1270527095 0.5621625185 4290886635
-0.2694122791 -0.1266516894 0.5631566048 4291215600
-0.2694647610 -0.1260505468 0.5632663369 4290360291
-0.2843271196 -0.1591258347 0.5957164168 4291283673
-0.2843919694 -0.1585000902 0.5958522558 4290823376
-0.2844565809 -0.1578739136 0.5959876776 4290362825
-0.2845209837 -0.1572473198 0.5961225629 4290099652
-0.2845851183 -0.1566202939 0.5962569714 4289244343
-0.2846490741 -0.1559928358 0.5963909030 4288454568
-0.2847127616 -0.1553649753 0.5965244174 4287599259
-0.2843568325 -0.1545087993 0.5957786441 4286612362
-0.2844199836 -0.1538810134 0.5959109664 4285822846
-0.2844829261 -0.1532528102 0.5960428119 4285625467
-0.2845456004 -0.1526241899 0.5961741805 4285559674
-0.2846080661 -0.1519951522 0.5963050723 4285689979
-0.2846703231 -0.1513657123 0.5964354277 4285689979
-0.2843123674 -0.1505135298 0.5956854820 4285821819
-0.2843740284 -0.1498841792 0.5958147049 4285953405
-0.2844354808 -0.1492544413 0.5959434509 4284900465
-0.2840764523 -0.1484047472 0.5951912403 4285032051
-0.2837170362 -0.1475565135 0.5944381356 4286873753
-0.2829367816 -0.1464920640 0.5928033590 4288715957
-0.2825764418 -0.1456476897 0.5920484066 4289175753
-0.2817950845 -0.1445889771 0.5904113650 4289767890
-0.2805924714 -0.1433187276 0.5878916383 4289438423
-0.2768644989 -0.1407700777 0.5800808668 4289570009
-0.2735555768 -0.1384508610 0.5731480718 4289570011
-0.2715078294 -0.1367824227 0.5688576698 4289570011
-0.2694589794 -0.1351229697 0.5645650029 4289570011
-0.2686724067 -0.1341030896 0.5629169345 4289767390
-0.2683064640 -0.1332958341 0.5621502399 4289767643
-0.2679401040 -0.1324900985 0.5613826513 4289701850
-0.2675733566 -0.1316858679 0.5606142282 4289570524
-0.2676276863 -0.1310895830 0.5607280731 4289438938
-0.2676817775 -0.1304929405 0.5608413815 4289373143
-0.2677356303 -0.1298959404 0.5609542727 4289373143
-0.2682109773 -0.1295022070 0.5619502068 4289372891
-0.2682645023 -0.1289035529 0.5620623231 4289504477
-0.2683177590 -0.1283045262 0.5621739030 4289175763
-0.2683708072 -0.1277051568 0.5622850657 4289241556
-0.2684236467 -0.1271054298 0.5623957515 4289899740
-0.2684762180 -0.1265053451 0.5625059009 4290557670
-0.2689507902 -0.1261028796 0.5635002255 4290097119
-0.2690030038 -0.1255011559 0.5636096597 4291544565
-0.2829453051 -0.1587218344 0.5942039490 4291284443
-0.2830098569 -0.1580976993 0.5943395495 4290954962
-0.2830742300 -0.1574731469 0.5944747329 4290428618
-0.2831383348 -0.1568481624 0.5946093798 4290297031
-0.2832022607 -0.1562227607 0.5947436094 4289441722
-0.2832659185 -0.1555969417 0.5948773026 4288586411
-0.2833293676 -0.1549706906 0.5950105786 4287796895
-0.2833925784 -0.1543440223 0.5951433182 4286875534
-0.2834555805 -0.1537169367 0.5952755809 4286086018
-0.2835183442 -0.1530894339 0.5954074264 4285757053
-0.2835808694 -0.1524615139 0.5955387354 4285625467
-0.2836431861 -0.1518331766 0.5956695676 4285887612
-0.2832861841 -0.1509810835 0.5949198604 4285821819
-0.2829287946 -0.1501304358 0.5941693187 4286019198
-0.2829902172 -0.1495027244 0.5942983031 4285953405
-0.2830514014 -0.1488745958 0.5944268107 4285624186
-0.2826929688 -0.1480264515 0.5936740637 4285229428
-0.2823340893 -0.1471797526 0.5929203629 4286281614
-0.2819747925 -0.1463345289 0.5921658874 4288452783
-0.2816151083 -0.1454907656 0.5914105177 4288517823
-0.2808352113 -0.1444325745 0.5897727013 4288846788
-0.2796348929 -0.1431627572 0.5872518420 4288583369
-0.2759140134 -0.1406140178 0.5794377923 4288385990
-0.2726113796 -0.1382948011 0.5725020170 4288319944
-0.2705675066 -0.1366266310 0.5682098269 4288188358
-0.2693630159 -0.1353898942 0.5656802654 4287990977
-0.2681577504 -0.1341583878 0.5631491542 4287990977
-0.2677925527 -0.1333508343 0.5623821616 4288056770
-0.2674269378 -0.1325447857 0.5616143942 4288122563
-0.2670609355 -0.1317402422 0.5608457327 4288254151
-0.2671152055 -0.1311437488 0.5609596968 4288254151
-0.2671692371 -0.1305468827 0.5610731840 4288254149
-0.2676438689 -0.1301542968 0.5620699525 4288254149
-0.2676975429 -0.1295557767 0.5621826649 4288188617
-0.2677509785 -0.1289568841 0.5622949004 4288188617
-0.2678042054 -0.1283576488 0.5624066591 4287859903
-0.2678571939 -0.1277580410 0.5625179410 4287925696
-0.2679099441 -0.1271580905 0.5626287460 4288189120
-0.2679624856 -0.1265577823 0.5627390742 4288781257
-0.2680147886 -0.1259571165 0.5628489256 4288847052
-0.2684883475 -0.1255532056 0.5638434291 4290294498
-0.2815659940 -0.1583173722 0.5926898122 4291350236
-0.2816303074 -0.1576948613 0.5928251743 4291152341
-0.2816944122 -0.1570719332 0.5929601192 4290625997
-0.2817582786 -0.1564485729 0.5930945277 4290560203
-0.2818219066 -0.1558247954 0.5932285190 4289770687
-0.2818853259 -0.1552005857 0.5933619738 4288915376
-0.2819485068 -0.1545759588 0.5934950113 4288125860
-0.2824292779 -0.1541789919 0.5945069790 4287138706
-0.2824921012 -0.1535526067 0.5946392417 4286217604
-0.2825547159 -0.1529258043 0.5947709680 4285822846
-0.2826170921 -0.1522985697 0.5949022770 4285625467
-0.2822610438 -0.1514465809 0.5941528678 4286019196
-0.2823228836 -0.1508194506 0.5942829847 4285756024
-0.2819661200 -0.1499694139 0.5935320258 4285953403
-0.2820273936 -0.1493424028 0.5936610103 4285953403
-0.2816699147 -0.1484943330 0.5929085016 4285887358
-0.2813120186 -0.1476477236 0.5921551585 4285229428
-0.2813723981 -0.1470213532 0.5922822952 4285887111
-0.2810137570 -0.1461767405 0.5915273428 4288650417
-0.2806547284 -0.1453335881 0.5907716155 4287925938
-0.2794573307 -0.1440599412 0.5882510543 4287596973
-0.2782591581 -0.1427914947 0.5857289433 4287399093
-0.2749644816 -0.1404577047 0.5787937045 4287135921
-0.2720873952 -0.1383516788 0.5727375150 4287267254
-0.2696281672 -0.1364706159 0.5675609112 4287530426
-0.2684259415 -0.1352343261 0.5650302768 4287201716
-0.2676424682 -0.1342136413 0.5633810759 4286938544
-0.2668583989 -0.1331963539 0.5617306232 4287004082
-0.2664934695 -0.1323909312 0.5609624386 4287135668
-0.2665478885 -0.1317945719 0.5610769987 4287398842
-0.2666020989 -0.1311978400 0.5611910820 4287530428
-0.2670759857 -0.1308064163 0.5621886849 4287530426
-0.2671298385 -0.1302080303 0.5623019934 4287398840
-0.2676035464 -0.1298130751 0.5632991195 4287201465
-0.2672368288 -0.1290101707 0.5625271797 4286938293
-0.2672899663 -0.1284106970 0.5626391172 4286675629
-0.2677632570 -0.1280118376 0.5636353493 4287136180
-0.2678160369 -0.1274107099 0.5637464523 4287202225
-0.2678686082 -0.1268092245 0.5638570786 4287465397
-0.2679209411 -0.1262073964 0.5639672279 4287794364
-0.2679730356 -0.1256052107 0.5640769005 4288912845
-0.2798368931 -0.1570578516 0.5904304385 4291283927
-0.2803171575 -0.1566702574 0.5914437771 4290823376
-0.2803807557 -0.1560485214 0.5915779471 4290625996
-0.2804441452 -0.1554263681 0.5917117000 4290033859
-0.2805072963 -0.1548037827 0.5918449759 4289244341
-0.2805702388 -0.1541807950 0.5919777155 4288389032
-0.2806329429 -0.1535573751 0.5921100378 4287401878
-0.2806954086 -0.1529335380 0.5922418833 4286414983
-0.2807576656 -0.1523092836 0.5923731923 4285953662
-0.2808196843 -0.1516846120 0.5925040841 4285756283
-0.2808814943 -0.1510595381 0.5926344395 4285887609
-0.2809430659 -0.1504340470 0.5927643776 4285821816
-0.2810043991 -0.1498081386 0.5928937793 4285756024
-0.2810655236 -0.1491818279 0.5930227041 4285821817
-0.2807086706 -0.1483343840 0.5922698379 4285887358
-0.2803514302 -0.1474883854 0.5915160775 4285426807
-0.2799937725 -0.1466438472 0.5907614231 4286018695
-0.2800536752 -0.1460187137 0.5908878446 4288518829
-0.2792772055 -0.1449591666 0.5892496109 4287597226
-0.2789183259 -0.1441190243 0.5884923935 4287005089
-0.2773042619 -0.1426349580 0.5850868225 4287136171
-0.2740159035 -0.1403011680 0.5781486630 4287070378
-0.2711443007 -0.1381952316 0.5720899105 4287399091
-0.2695268393 -0.1367390156 0.5686771870 4287925435
-0.2679084539 -0.1352899075 0.5652624965 4287530677
-0.2671265304 -0.1342688352 0.5636126995 4287201712
-0.2667628229 -0.1334606558 0.5628453493 4287201714
-0.2659798265 -0.1324454099 0.5611933470 4287267507
-0.2660341859 -0.1318488270 0.5613080263 4287464888
-0.2665073872 -0.1314585805 0.5623064041 4287530681
-0.2665613890 -0.1308603138 0.5624203086 4287464886
-0.2670343518 -0.1304665208 0.5634182692 4287333300
-0.2670879960 -0.1298666000 0.5635313988 4287135670
-0.2671414018 -0.1292663217 0.5636441112 4286806705
-0.2671945989 -0.1286656857 0.5637563467 4286610090
-0.2672475278 -0.1280646771 0.5638680458 4287333813
-0.2673002779 -0.1274633259 0.5639793277 4287596981
-0.2673527598 -0.1268616170 0.5640900731 4287728567
-0.2678248286 -0.1264577657 0.5650860667 4287860153
-0.2678769529 -0.1258544028 0.5651960969 4288452290
-0.2784632742 -0.1566540152 0.5889123082 4291349720
-0.2785267532 -0.1560352594 0.5890465379 4290954962
-0.2790058255 -0.1556480378 0.5900596976 4290625996
-0.2790689468 -0.1550274938 0.5901932120 4290165445
-0.2791318297 -0.1544065475 0.5903261900 4289441720
-0.2791945040 -0.1537851691 0.5904587507 4288520618
-0.2792569697 -0.1531633884 0.5905908346 4287533464
-0.2793191671 -0.1525411755 0.5907224417 4286546569
-0.2793811858 -0.1519185603 0.5908535719 4285953662
-0.2794429362 -0.1512955129 0.5909841657 4285756283
-0.2795045078 -0.1506720632 0.5911143422 4285756277
-0.2795658112 -0.1500482112 0.5912440419 4286019449
-0.2796269059 -0.1494239420 0.5913732052 4285756023
-0.2796877623 -0.1487992555 0.5915019512 4285756023
-0.2793314755 -0.1479533464 0.5907484293 4285887612
-0.2793917954 -0.1473287940 0.5908759832 4285624440
-0.2790347934 -0.1464848667 0.5901209712 4286084486
-0.2786773741 -0.1456423998 0.5893650651 4287795104
-0.2783195376 -0.1448014081 0.5886083245 4287794603
-0.2775439620 -0.1437457353 0.5869680643 4287268259
-0.2730107605 -0.1407563835 0.5773809552 4287859893
-0.2764085531 -0.1418586969 0.5845668912 4287794100
-0.2702022195 -0.1380385607 0.5714412928 4287925689
-0.2685878277 -0.1365826875 0.5680270791 4288188861
-0.2678081095 -0.1355569065 0.5663780570 4287596724
-0.2666099668 -0.1343239546 0.5638441443 4287201966
-0.2662470043 -0.1335154772 0.5630764961 4287070380
-0.2658836246 -0.1327084899 0.5623080730 4287070380
-0.2659380138 -0.1321107447 0.5624230504 4287070126
-0.2664104104 -0.1317194104 0.5634221435 4287004333
-0.2660461366 -0.1309141666 0.5626516938 4287004587
-0.2665182352 -0.1305202246 0.5636501312 4287136173
-0.2669903040 -0.1301240325 0.5646485090 4287267509
-0.2670437396 -0.1295225769 0.5647615194 4287135923
-0.2670969367 -0.1289207786 0.5648739934 4287070380
-0.2671499252 -0.1283186078 0.5649860501 4287991482
-0.2672026753 -0.1277160794 0.5650976300 4288386750
-0.2672551870 -0.1271131933 0.5652087331 4288452543
-0.2673074901 -0.1265099645 0.5653192997 4288518336
-0.2677786052 -0.1261037141 0.5663157105 4288584129
-0.2770922482 -0.1562497318 0.5873924494 4291350234
-0.2771554589 -0.1556326002 0.5875265002 4290823890
-0.2776334286 -0.1552470922 0.5885397196 4290757582
-0.2776963115 -0.1546281874 0.5886729956 4290362824
-0.2777589262 -0.1540088654 0.5888057947 4289573306
-0.2778213620 -0.1533891112 0.5889381170 4288652204
-0.2778835595 -0.1527689546 0.5890699029 4287599259
-0.2779455185 -0.1521483809 0.5892012715 4286546571
-0.2780072689 -0.1515273899 0.5893321633 4285954434
-0.2780687809 -0.1509059817 0.5894625783 4285625469
-0.2781300545 -0.1502841562 0.5895925164 4285821565
-0.2781911492 -0.1496619433 0.5897219777 4285558393
-0.2782519758 -0.1490392983 0.5898509622 4285755772
-0.2783125937 -0.1484162509 0.5899794102 4285689979
-0.2783729732 -0.1477928013 0.5901074409 4285821568
-0.2780169249 -0.1469489634 0.5893526673 4285624189
-0.2776604891 -0.1461065859 0.5885970592 4285887109
-0.2777200043 -0.1454837918 0.5887232423 4287795106
-0.2773628235 -0.1446434259 0.5879660845 4288255406
-0.2765887082 -0.1435882598 0.5863250494 4285952651
-0.2724809051 -0.1408139616 0.5776171684 4285689481
-0.2754554451 -0.1417023838 0.5839227438 4285228930
-0.2696779072 -0.1380950809 0.5716752410 4288386742
-0.2680667043 -0.1366386414 0.5682597160 4287597226
-0.2672885358 -0.1356124580 0.5666101575 4287991731
-0.2665098310 -0.1345896572 0.5649594069 4287333801
-0.2657305300 -0.1335702389 0.5633074641 4287398580
-0.2653679252 -0.1327629387 0.5625387430 4287266994
-0.2658395767 -0.1323727816 0.5635386109 4287333300
-0.2658937871 -0.1317735016 0.5636534691 4287530679
-0.2659477293 -0.1311738640 0.5637678504 4287728056
-0.2664190531 -0.1307788342 0.5647670031 4287596470
-0.2664726675 -0.1301775277 0.5648806095 4287662002
