VERSION 0.7
FIELDS x y z rgba
SIZE 4 4 4 4
TYPE F F F U
COUNT 1 1 1 1
WIDTH 920
HEIGHT 1
VIEWPOINT 0.0 0.0 0.0 1.0 0.0 0.0 0.0
POINTS 920
DATA ascii
-0.2492004335 -0.1770505905 0.4858273566 4285893443
-0.2484040260 -0.1759472042 0.4842747450 4286288201
-0.2480413616 -0.1751535386 0.4835677147 4285960262
-0.2481127977 -0.1746670604 0.4837069809 4285631297
-0.2477494478 -0.1738751084 0.4829986095 4285828412
-0.2473856807 -0.1730844527 0.4822894335 4285104689
-0.2470215112 -0.1722950935 0.4815794528 4284710178
-0.2462219149 -0.1712045372 0.4800206125 4284381213
-0.2458567917 -0.1704186052 0.4793088138 4284184085
-0.2459265441 -0.1699347496 0.4794448018 4285236773
-0.2455607504 -0.1691505760 0.4787316620 4285565742
-0.2451945543 -0.1683676988 0.4780177176 4284513054
-0.2452635765 -0.1678843349 0.4781523049 4284051486
-0.2448966950 -0.1671032161 0.4774370492 4284117279
-0.2449652851 -0.1666198969 0.4775707424 4284511789
-0.2445977032 -0.1658405513 0.4768541455 4284709168
-0.2442297190 -0.1650625318 0.4761367440 4285432892
-0.2438613325 -0.1642858237 0.4754185677 4285235513
-0.2439289242 -0.1638034582 0.4755503237 4284774448
-0.2435598522 -0.1630285382 0.4748308063 4284511276
-0.2431903780 -0.1622549593 0.4741105139 4284445484
-0.2432572395 -0.1617731303 0.4742408395 4284511277
-0.2433239222 -0.1612909138 0.4743708670 4284708658
-0.2433904558 -0.1608082950 0.4745005667 4284840244
-0.2430197299 -0.1600374430 0.4737778306 4284642863
-0.2430858165 -0.1595549136 0.4739066660 4284511277
-0.2427144051 -0.1587858796 0.4731825888 4284379439
-0.2427800447 -0.1583034247 0.4733105600 4284511025
-0.2428455204 -0.1578205824 0.4734381735 4285168704
-0.2429108322 -0.1573373377 0.4735655189 4285760841
-0.2429759651 -0.1568537205 0.4736925066 4285892427
-0.2430409491 -0.1563697010 0.4738191664 4285826634
-0.2431057543 -0.1558852941 0.4739455283 4285826887
-0.2436085492 -0.1556805074 0.4749257267 4285826887
-0.2436731309 -0.1551944613 0.4750516713 4285695301
-0.2437375635 -0.1547080278 0.4751772583 4285761094
-0.2438018173 -0.1542212069 0.4753025174 4285891911
-0.2438659072 -0.1537339985 0.4754274786 4285826118
-0.2434910983 -0.1529707909 0.4746967554 4285826118
-0.2435547262 -0.1524837017 0.4748208225 4285891911
-0.2436181903 -0.1519962251 0.4749445617 4285957704
-0.2436814904 -0.1515083611 0.4750679433 4286089290
-0.2433054298 -0.1507480145 0.4743348062 4286286415
-0.2429289669 -0.1499890536 0.4736008942 4286220622
-0.2429915220 -0.1495018303 0.4737228453 4286351697
-0.2421748638 -0.1484752893 0.4721307158 4286680662
-0.2422368526 -0.1479890794 0.4722515643 4287009627
-0.2422986627 -0.1475024819 0.4723720849 4287338592
-0.2423603088 -0.1470155269 0.4724922478 4287470178
-0.2419818044 -0.1462622583 0.4717543423 4287404385
-0.2420429885 -0.1457754374 0.4718736112 4287600745
-0.2425441891 -0.1455524117 0.4728507400 4288127089
-0.2426051348 -0.1450639665 0.4729695618 4288456056
-0.2422254980 -0.1443127692 0.4722294211 4288587642
-0.2422859818 -0.1438244879 0.4723473489 4288061298
-0.2423463017 -0.1433358341 0.4724649191 4287600747
-0.2424064428 -0.1428468078 0.4725821614 4287534952
-0.2424663901 -0.1423574239 0.4726990759 4287074401
-0.2429671437 -0.1421256214 0.4736752808 4286943069
-0.2430268526 -0.1416346282 0.4737917185 4286811483
-0.2430863976 -0.1411432773 0.4739077687 4286614101
-0.2431457490 -0.1406515539 0.4740234911 4286350929
-0.2432049364 -0.1401594728 0.4741388857 4286153802
-0.2432639450 -0.1396670341 0.4742539227 4285956423
-0.2433227599 -0.1391742378 0.4743686020 4285956676
-0.2433814108 -0.1386810839 0.4744829237 4286219848
-0.2434398681 -0.1381875724 0.4745969176 4286220363
-0.2434981614 -0.1376937181 0.4747105241 4286154570
-0.2435562611 -0.1371994913 0.4748238027 4286154570
-0.2436141819 -0.1367049217 0.4749367237 4286154570
-0.2432296872 -0.1359627992 0.4741871357 4286022986
-0.2432871461 -0.1354684234 0.4742991328 4286088779
-0.2433444113 -0.1349736899 0.4744108021 4286350929
-0.2429589480 -0.1342341155 0.4736593068 4286416722
-0.2430157512 -0.1337395906 0.4737700522 4286482518
-0.2430723757 -0.1332447231 0.4738804400 4287008862
-0.2431288064 -0.1327495128 0.4739904702 4287403366
-0.2427420914 -0.1320130527 0.4732365608 4288061296
-0.2427980602 -0.1315180510 0.4733456671 4288719230
-0.2428538352 -0.1310227066 0.4734543860 4288785023
-0.2429094315 -0.1305270344 0.4735627770 4288916097
-0.2429648340 -0.1300310045 0.4736708105 4289113476
-0.2430200577 -0.1295346469 0.4737784564 4289507467
-0.2430750877 -0.1290379465 0.4738857448 4289639053
-0.2435736060 -0.1287754774 0.4748576283 4289244548
-0.2431846112 -0.1280435473 0.4740992486 4288849790
-0.2432390749 -0.1275458336 0.4742054641 4288586870
-0.2432933599 -0.1270477921 0.4743112922 4288257905
-0.2433474660 -0.1265494227 0.4744167626 4287797354
-0.2434013784 -0.1260507256 0.4745218456 4287534182
-0.2434550971 -0.1255516857 0.4746265709 4287007836
-0.2435086221 -0.1250523180 0.4747309387 4286481492
-0.2435619682 -0.1245526299 0.4748349190 4286153040
-0.2436151206 -0.1240526065 0.4749385417 4286153040
-0.2441127300 -0.1237777174 0.4759086668 4286021456
-0.2437208444 -0.1230515838 0.4751446843 4285955663
-0.2437734157 -0.1225505844 0.4752471745 4285955411
-0.2438258082 -0.1220492572 0.4753493071 4285889618
-0.2443230301 -0.1217694208 0.4763186574 4285824334
-0.2443751246 -0.1212665364 0.4764202237 4286350678
-0.2448722422 -0.1209833026 0.4773893952 4286942815
-0.2449240535 -0.1204788610 0.4774903655 4287271780
-0.2449756563 -0.1199740991 0.4775909781 4287534952
-0.2454725653 -0.1196862310 0.4785597324 4287469159
-0.2450782806 -0.1189636216 0.4777910411 4287534956
-0.2455749959 -0.1186732873 0.4787594080 4287863921
-0.2456259131 -0.1181663349 0.4788586795 4288258424
-0.2452307492 -0.1174455360 0.4780882895 4288653182
-0.2457271516 -0.1171514988 0.4790560603 4288916354
-0.2448853552 -0.1162202209 0.4774149358 4288982147
-0.2449353039 -0.1157138646 0.4775123000 4289047940
-0.2449850440 -0.1152071953 0.4776092768 4288916354
-0.2450345904 -0.1147002280 0.4777058661 4288653184
-0.2446375191 -0.1139849424 0.4769317806 4288455805
-0.2446865886 -0.1134782806 0.4770274162 4288258428
-0.2447354347 -0.1129713133 0.4771226645 4287929463
-0.2447841018 -0.1124640480 0.4772175550 4287666287
-0.2448325604 -0.1119564772 0.4773120284 4287534701
-0.2448808253 -0.1114486009 0.4774061143 4287403366
-0.2449288815 -0.1109404266 0.4774998128 4287140194
-0.2449767441 -0.1104319617 0.4775930941 4286811481
-0.2450243980 -0.1099231914 0.4776860178 4286679895
-0.2446246445 -0.1092144698 0.4769066870 4286548560
-0.2446718216 -0.1087060347 0.4769986272 4286482767
-0.2447187901 -0.1081973165 0.4770902097 4286023237
-0.2447655499 -0.1076883003 0.4771813750 4285496893
-0.2448121160 -0.1071789935 0.4772721529 4284839214
-0.2444108278 -0.1064743847 0.4764898121 4283983905
-0.2444569021 -0.1059654281 0.4765796363 4283062803
-0.2445027679 -0.1054561883 0.4766690433 4282536459
-0.2445484251 -0.1049466655 0.4767580926 4283062801
-0.2445938885 -0.1044368520 0.4768466949 4282997008
-0.2446391433 -0.1039267555 0.4769349098 4283128594
-0.2446841896 -0.1034163758 0.4770227373 4283062801
-0.2447290272 -0.1029057205 0.4771101773 4282997010
-0.2447736710 -0.1023947820 0.4771972001 4282997010
-0.2448180914 -0.1018835604 0.4772838056 4282734096
-0.2448623180 -0.1013720632 0.4773700237 4282668303
-0.2453548908 -0.1010450199 0.4783303142 4282602512
-0.2453987747 -0.1005320325 0.4784158766 4282536719
-0.2454424649 -0.1000187695 0.4785010517 4282996759
-0.2454859316 -0.0995052382 0.4785858095 4283523103
-0.2455292046 -0.0989914313 0.4786701500 4283523103
-0.2455722541 -0.0984773561 0.4787540734 4283523103
-0.2456151098 -0.0979630053 0.4788376093 4283654948
-0.2456577420 -0.0974483863 0.4789207578 4283523362
-0.2457001805 -0.0969335064 0.4790034592 4283720228
-0.2457423955 -0.0964183584 0.4790857732 4283654435
-0.2462337315 -0.0960782692 0.4800436497 4283588642
-0.2462756038 -0.0955616459 0.4801253080 4283457056
-0.2463172674 -0.0950447619 0.4802065194 4283259678
-0.2463587224 -0.0945276171 0.4802873135 4283062299
-0.2468495965 -0.0941817611 0.4812442958 4282996505
-0.2473403960 -0.0938337594 0.4822011590 4282996505
-0.2469315678 -0.0931442827 0.4814041257 4283588643
-0.2474220991 -0.0927938744 0.4823604524 4283786022
-0.2479125708 -0.0924413204 0.4833166301 4283654438
-0.2479529530 -0.0919197947 0.4833953679 4283457059
-0.2484432161 -0.0915638879 0.4843511283 4283457059
-0.2484832406 -0.0910409018 0.4844291806 4283522852
-0.2485230565 -0.0905176699 0.4845068157 4283654438
-0.2485626638 -0.0899941772 0.4845840037 4283851817
-0.2490524054 -0.0896325260 0.4855387807 4283917608
-0.2490916401 -0.0891075954 0.4856152833 4283917608
-0.2495811582 -0.0887425989 0.4865696132 4283786022
-0.2496200353 -0.0882162228 0.4866454005 4283654436
-0.2501093149 -0.0878478885 0.4875992835 4283522852
-0.2501478195 -0.0873200670 0.4876743555 4283193887
-0.2506368756 -0.0869483873 0.4886277914 4282864920
-0.2511258721 -0.0865745693 0.4895810783 4282930713
-0.2516147494 -0.0861985981 0.4905342162 4283128094
-0.2521035671 -0.0858204812 0.4914871752 4283128094
-0.2525922954 -0.0854402259 0.4924399555 4283193633
-0.2530809343 -0.0850578174 0.4933925569 4283193633
-0.2535694540 -0.0846732631 0.4943449795 4283193633
-0.2540579140 -0.0842865705 0.4952972233 4283259426
-0.2545462549 -0.0838977322 0.4962493181 4283391266
-0.2550345063 -0.0835067406 0.4972011745 4283457059
-0.2555226684 -0.0831136107 0.4981528819 4283325219
-0.2560107410 -0.0827183351 0.4991043806 4283127840
-0.2564986944 -0.0823209211 0.5000556707 4282930972
-0.2569865584 -0.0819213539 0.5010067821 4283062558
-0.2579260170 -0.0816626623 0.5028383136 4283325730
-0.2597690523 -0.0816840306 0.5064314008 4283588902
-0.2602568567 -0.0812742040 0.5073823929 4284048944
-0.2611964345 -0.0810023695 0.5092141628 4284114737
-0.2616840899 -0.0805872902 0.5101647973 4283917359
-0.2626236379 -0.0803082958 0.5119965076 4283785773
-0.2631111145 -0.0798879638 0.5129468441 4283719726
-0.2635984421 -0.0794654936 0.5138969421 4283719726
-0.2645379007 -0.0791762173 0.5157284141 4283851312
-0.2659296095 -0.0790172666 0.5184416175 4283982898
-0.2668690979 -0.0787189007 0.5202732086 4284113970
-0.2678085864 -0.0784164667 0.5221047997 4284048177
-0.2687480748 -0.0781099573 0.5239363313 4284048175
-0.2710450292 -0.0781909972 0.5284143686 4284113968
-0.2719846666 -0.0778734609 0.5302462578 4284179761
-0.2733768821 -0.0776804686 0.5329604149 4284245554
-0.2743165195 -0.0773538277 0.5347923040 4284377142
-0.2757088840 -0.0771498010 0.5375067592 4284311349
-0.2748374045 -0.0763111711 0.5358077884 4284245556
-0.2762296498 -0.0760999620 0.5385220051 4284179763
-0.2767161727 -0.0756351650 0.5394705534 4284179763
-0.2776555121 -0.0752910450 0.5413018465 4284048177
-0.2785948217 -0.0749428496 0.5431330204 4284048177
-0.2790810168 -0.0744696856 0.5440809131 4284179763
-0.2800201774 -0.0741143078 0.5459118485 4284245556
-0.2814124823 -0.0738738105 0.5486261845 4284311349
-0.2818983793 -0.0733913183 0.5495734811 4284245556
-0.2841972113 -0.0733747855 0.5540551543 4283850798
-0.2851363122 -0.0730001926 0.5558860302 4283653935
-0.2869821191 -0.0728517026 0.5594844818 4283719728
-0.2883746624 -0.0725811422 0.5621992946 4283785523
-0.2902207077 -0.0724177063 0.5657982230 4283522351
-0.2920668721 -0.0722463205 0.5693973899 4283785005
-0.2934595942 -0.0719557628 0.5721126199 4284113970
-0.2943987548 -0.0715489388 0.5739434958 4284048695
-0.2957914770 -0.0712473020 0.5766586661 4284180281
-0.2958230674 -0.0706147254 0.5767202973 4284048693
-0.2981232107 -0.0705186278 0.5812045336 4284180279
-0.3244052827 -0.2450525165 0.6338134408 4290167737
-0.3240728974 -0.2440985739 0.6331639886 4287470224
-0.3246021867 -0.2437932789 0.6341981292 4287405437
-0.3247003555 -0.2431627959 0.6343898773 4287602816
-0.3243669569 -0.2422096580 0.6337385774 4287866488
-0.3236016631 -0.2409363687 0.6322433352 4287932281
-0.3232672513 -0.2399863005 0.6315899491 4288064386
-0.3225006461 -0.2387177646 0.6300922036 4287932800
-0.3213014603 -0.2371332943 0.6277492642 4287538040
-0.3205333054 -0.2358711958 0.6262484789 4287406454
-0.3206286728 -0.2352460027 0.6264348030 4287604086
-0.2563197315 -0.1875064820 0.5007898808 4287867258
-0.2572603822 -0.1876366585 0.5026276708 4288129910
-0.2517139018 -0.1830453426 0.4917911291 4288195703
-0.2509228289 -0.1819258779 0.4902455509 4287538024
-0.2501310706 -0.1808093786 0.4886986911 4286880094
-0.2497715652 -0.1800078005 0.4879962802 4286222415
-0.2494116277 -0.1792074889 0.4872930348 4286222415
-0.2490512878 -0.1784084439 0.4865890145 4285958982
-0.2491238117 -0.1779200882 0.4867306948 4285695810
-0.2491961569 -0.1774313152 0.4868720472 4286222408
-0.2488348484 -0.1766343862 0.4861661494 4286353994
-0.2484731227 -0.1758387387 0.4854594171 4285828676
-0.2481109947 -0.1750443727 0.4847519100 4285960262
-0.2477484494 -0.1742512882 0.4840435684 4285894205
-0.2473855168 -0.1734595001 0.4833344817 4285696826
-0.2470221668 -0.1726689935 0.4826245606 4285762866
-0.2466583997 -0.1718797833 0.4819138646 4285565487
-0.2467286140 -0.1713936180 0.4820510447 4285499945
-0.2454951555 -0.1700043529 0.4796411693 4285960496
-0.2455646843 -0.1695199311 0.4797770083 4284907557
-0.2456340641 -0.1690350920 0.4799125493 4283920662
-0.2452684045 -0.1682515293 0.4791981280 4283854109
-0.2449023277 -0.1674692780 0.4784829021 4284183074
-0.2441007346 -0.1663917303 0.4769167900 4284643376
-0.2446042150 -0.1662044376 0.4779004753 4284906548
-0.2438016981 -0.1651303917 0.4763325453 4285367099
-0.2434340268 -0.1643534154 0.4756141603 4285103927
-0.2430659384 -0.1635777503 0.4748950005 4284511790
-0.2431331724 -0.1630956978 0.4750263691 4284314411
-0.2427643985 -0.1623218209 0.4743058980 4284379950
-0.2428312004 -0.1618398279 0.4744363725 4284445743
-0.2428978235 -0.1613574475 0.4745665491 4284643124
-0.2429642975 -0.1608746797 0.4746964276 4284906296
-0.2430305928 -0.1603914946 0.4748259783 4285037623
-0.2426602989 -0.1596208364 0.4741024971 4285037623
-0.2427261621 -0.1591377407 0.4742311537 4284708406
-0.2427918464 -0.1586542577 0.4743595123 4284708406
-0.2424205840 -0.1578858942 0.4736341536 4285234497
-0.2429227382 -0.1576860994 0.4746152461 4285958220
-0.2429879457 -0.1572014391 0.4747426212 4286418773
-0.2430529743 -0.1567163914 0.4748696983 4286550359
-0.2431178391 -0.1562309563 0.4749964178 4286418769
-0.2431825399 -0.1557451189 0.4751228392 4286352976
-0.2432470769 -0.1552589089 0.4752489030 4286155852
-0.2433114350 -0.1547722965 0.4753746688 4286155852
-0.2433756441 -0.1542853117 0.4755001068 4286089290
-0.2434396595 -0.1537979394 0.4756251872 4285891911
-0.2430655658 -0.1530344486 0.4748942852 4285891911
-0.2431291491 -0.1525471807 0.4750185013 4285957704
-0.2431925535 -0.1520595402 0.4751423895 4285957704
-0.2428174764 -0.1512984037 0.4744095802 4286023497
-0.2420036048 -0.1502664387 0.4728194773 4286220622
-0.2425046861 -0.1500516385 0.4737984538 4286352208
-0.2421285510 -0.1492937654 0.4730635583 4286549076
-0.2417519987 -0.1485372931 0.4723278880 4286680662
-0.2418139279 -0.1480509043 0.4724488854 4286878041
-0.2418756932 -0.1475641429 0.4725695550 4287009627
-0.2419372797 -0.1470770091 0.4726898670 4287075933
-0.2419986874 -0.1465895027 0.4728098512 4287141726
-0.2420599312 -0.1461016238 0.4729295075 4287337827
-0.2421209961 -0.1456133872 0.4730488062 4287864171
-0.2417423427 -0.1448613852 0.4723090231 4288192882
-0.2418029606 -0.1443732828 0.4724274278 4288456054
-0.2418633848 -0.1438848227 0.4725455046 4288390263
-0.2419236451 -0.1433959901 0.4726632535 4287995505
-0.2419837266 -0.1429067999 0.4727806151 4287666538
-0.2420436293 -0.1424172372 0.4728976786 4287337573
-0.2425435483 -0.1421853751 0.4738743901 4287140448
-0.2426032126 -0.1416942030 0.4739909768 4286943069
-0.2426626980 -0.1412026584 0.4741071761 4286679894
-0.2431625277 -0.1409661323 0.4750837088 4286548308
-0.2432217598 -0.1404729784 0.4751994610 4286416974
-0.2432808131 -0.1399794817 0.4753148258 4286153802
-0.2433396876 -0.1394856125 0.4754298627 4286088262
-0.2433983833 -0.1389913708 0.4755445421 4286285641
-0.2430158705 -0.1382458955 0.4747971892 4286286156
-0.2430740893 -0.1377518475 0.4749109447 4286286156
-0.2431321442 -0.1372574419 0.4750243723 4286286156
-0.2431900203 -0.1367626935 0.4751374424 4286286156
-0.2428062409 -0.1360202730 0.4743876159 4286351181
-0.2428636402 -0.1355257183 0.4744997621 4286351181
-0.2429208606 -0.1350308061 0.4746115506 4286350929
-0.2425361127 -0.1342909485 0.4738598764 4286350929
-0.2425928712 -0.1337962449 0.4739707410 4286548311
-0.2426494360 -0.1333011836 0.4740812778 4287140448
-0.2427058220 -0.1328057945 0.4741914272 4287600747
-0.2423198223 -0.1320690513 0.4734372795 4288192884
-0.2423757464 -0.1315738708 0.4735465348 4288916096
-0.2424314767 -0.1310783327 0.4736554027 4288850303
-0.2424870133 -0.1305824667 0.4737639427 4288850304
-0.2425423712 -0.1300862730 0.4738720953 4289179269
-0.2430402488 -0.1298262030 0.4748448133 4289704332
-0.2430953383 -0.1293283999 0.4749524295 4289704332
-0.2431502342 -0.1288302839 0.4750597179 4289047169
-0.2432049513 -0.1283318102 0.4751665890 4288652411
-0.2432594746 -0.1278330088 0.4752731323 4288455286
-0.2433138043 -0.1273338795 0.4753792882 4288060528
-0.2433679551 -0.1268344074 0.4754850864 4287599975
-0.2434219122 -0.1263345927 0.4755905271 4287271010
-0.2434756905 -0.1258344650 0.4756955802 4286744666
-0.2435292751 -0.1253339946 0.4758002460 4286481494
-0.2435826659 -0.1248332039 0.4759045839 4286153042
-0.2431920767 -0.1241056100 0.4751414657 4286087249
-0.2436888665 -0.1238306239 0.4761120677 4286021202
-0.2432977110 -0.1231041998 0.4753478467 4285955409
-0.2437943071 -0.1228267401 0.4763180912 4286021205
-0.2438467443 -0.1223243102 0.4764205217 4286152791
-0.2438989878 -0.1218215525 0.4765225947 4286415960
-0.2443953902 -0.1215394586 0.4774924517 4286876511
-0.2444473356 -0.1210351437 0.4775939584 4287271269
-0.2449436337 -0.1207496524 0.4785636067 4287468648
-0.2449952960 -0.1202437803 0.4786645472 4287666027
-0.2450467497 -0.1197375879 0.4787650704 4287929199
-0.2450980246 -0.1192310750 0.4788652360 4288192373
-0.2451490909 -0.1187242493 0.4789650142 4288389752
-0.2447549403 -0.1180025563 0.4781949520 4288521596
-0.2452506274 -0.1177096441 0.4791634083 4288784768
-0.2448559105 -0.1169891581 0.4783922136 4288916354
-0.2444608212 -0.1162702143 0.4776203036 4288916354
-0.2445107251 -0.1157636568 0.4777177870 4288784770
-0.2445604205 -0.1152567938 0.4778148830 4288587391
-0.2446099222 -0.1147496253 0.4779116213 4288324219
-0.2446592301 -0.1142421439 0.4780079424 4288192633
-0.2447083294 -0.1137343571 0.4781038761 4287994995
-0.2447572500 -0.1132262647 0.4781994522 4287666030
-0.2448059469 -0.1127178743 0.4782946110 4287402857
-0.2448544651 -0.1122091711 0.4783893824 4287337064
-0.2449027598 -0.1117001772 0.4784837663 4287272034
-0.2449508756 -0.1111908779 0.4785777330 4287140448
-0.2449987829 -0.1106812730 0.4786713421 4286877273
-0.2446001321 -0.1099707037 0.4778924882 4286679894
-0.2446475476 -0.1094614342 0.4779851139 4286745937
-0.2446947545 -0.1089518741 0.4780773520 4286680144
-0.2447417676 -0.1084420159 0.4781692028 4286351430
-0.2447885871 -0.1079318672 0.4782606661 4285890879
-0.2448351830 -0.1074214280 0.4783517122 4285102386
-0.2444347292 -0.1067156047 0.4775693119 4284378663
-0.2444808334 -0.1062055156 0.4776594043 4283523352
-0.2445267439 -0.1056951359 0.4777491093 4282865422
-0.2445724607 -0.1051844731 0.4778383970 4282865420
-0.2446179539 -0.1046735197 0.4779272974 4283128592
-0.2442159653 -0.1039718613 0.4771419168 4283260178
-0.2442609817 -0.1034612805 0.4772298634 4283128592
-0.2443057895 -0.1029504165 0.4773173928 4283062801
-0.2443503886 -0.1024392694 0.4774045348 4282997008
-0.2448423803 -0.1021145284 0.4783657789 4282668302
-0.2453343421 -0.1017876267 0.4793269634 4282602509
-0.2453784794 -0.1012737751 0.4794132113 4282602510
-0.2454224229 -0.1007596403 0.4794990420 4282734096
-0.2454661429 -0.1002452374 0.4795844555 4283194136
-0.2455096692 -0.0997305512 0.4796694815 4283588894
-0.2455529720 -0.0992155969 0.4797541201 4283457567
-0.2455960661 -0.0987003744 0.4798383117 4283325981
-0.2456389666 -0.0981848761 0.4799221158 4283391774
-0.2456816435 -0.0976691097 0.4800055027 4283194395
-0.2457241118 -0.0971530750 0.4800884724 4283128345
-0.2457663715 -0.0966367722 0.4801710248 4283194138
-0.2458084226 -0.0961202011 0.4802531898 4283325470
-0.2458502501 -0.0956033692 0.4803349376 4283391263
-0.2458918840 -0.0950862765 0.4804162681 4283391263
-0.2459332943 -0.0945689231 0.4804971814 4283391263
-0.2464233488 -0.0942229256 0.4814546406 4283325470
-0.2469133586 -0.0938747898 0.4824119806 4283193884
-0.2469542772 -0.0933547616 0.4824919403 4282996505
-0.2474440783 -0.0930032656 0.4834488928 4283259677
-0.2474846393 -0.0924817771 0.4835281372 4283457057
-0.2479742318 -0.0921269283 0.4844846725 4283391264
-0.2480144352 -0.0916039869 0.4845632613 4283325471
-0.2485038191 -0.0912457854 0.4855193794 4283259678
-0.2485436648 -0.0907213837 0.4855972230 4283193885
-0.2485833019 -0.0901967362 0.4856746793 4283259678
-0.2486227155 -0.0896718353 0.4857516885 4283720229
-0.2495612353 -0.0894690901 0.4875853360 4284114987
-0.2496003658 -0.0889417976 0.4876617789 4284246575
-0.2496392727 -0.0884142444 0.4877378047 4283917610
-0.2496779561 -0.0878864527 0.4878133833 4283522852
-0.2501663566 -0.0875158235 0.4887675941 4283128094
-0.2506546676 -0.0871430412 0.4897216856 4282864920
-0.2511429191 -0.0867681131 0.4906755984 4282864920
-0.2516310811 -0.0863910317 0.4916293323 4282996508
-0.2521191537 -0.0860118121 0.4925828874 4283062301
-0.2530573905 -0.0857830793 0.4944160283 4283128094
-0.2526446581 -0.0850952417 0.4936096370 4283193887
-0.2535828054 -0.0848612636 0.4954425693 4283259680
-0.2531695366 -0.0841739029 0.4946351647 4283259680
-0.2541075647 -0.0839346722 0.4964678288 4283193887
-0.2545950115 -0.0835435316 0.4974201918 4283193887
-0.2550823689 -0.0831502378 0.4983723760 4283193633
-0.2555696368 -0.0827547982 0.4993243515 4283127840
-0.2560567856 -0.0823572129 0.5002761483 4282996765
-0.2565438449 -0.0819574818 0.5012277365 4283128351
-0.2579326332 -0.0818417668 0.5039411187 4283325732
-0.2584196031 -0.0814358294 0.5048925877 4283654697
-0.2593575418 -0.0811689124 0.5067250729 4284048944
-0.2602954805 -0.0808979273 0.5085575581 4284048944
-0.2607822418 -0.0804836378 0.5095086098 4283917359
-0.2617201209 -0.0802054852 0.5113410354 4283851566
-0.2635606527 -0.0801979154 0.5149369836 4283719726
-0.2644986808 -0.0799097121 0.5167696476 4283653933
-0.2654367089 -0.0796174332 0.5186023712 4283785519
-0.2677291930 -0.0797244161 0.5230813622 4283851312
-0.2668612301 -0.0788871944 0.5213855505 4284047923
-0.2691539824 -0.0789812356 0.5258650780 4284047923
-0.2700921297 -0.0786707550 0.5276979804 4284048177
-0.2710302472 -0.0783561990 0.5295308232 4284113970
-0.2719683349 -0.0780375749 0.5313636661 4284179763
-0.2729064226 -0.0777148753 0.5331964493 4284245556
-0.2738444805 -0.0773881003 0.5350292325 4284245556
-0.2747825384 -0.0770572424 0.5368619561 4284245556
-0.2757205367 -0.0767223164 0.5386946201 4284245556
-0.2762064636 -0.0762585029 0.5396440029 4284245556
-0.2766922414 -0.0757925436 0.5405930877 4284311095
-0.2771778703 -0.0753244385 0.5415419340 4284113716
-0.2790200412 -0.0752199218 0.5451410413 4284113716
-0.2799578309 -0.0748655722 0.5469732881 4284179509
-0.2822525501 -0.0748670846 0.5514566302 4284245302
-0.2809284925 -0.0739066079 0.5488697290 4284376888
-0.2832233310 -0.0738960877 0.5533533096 4284179509
-0.2832559943 -0.0732902959 0.5534171462 4283850544
-0.2841934860 -0.0729165152 0.5552487969 4283653935
-0.2855835259 -0.0726537928 0.5579645634 4283917107
-0.2869735658 -0.0723850578 0.5606804490 4284048695
-0.2883636653 -0.0721102953 0.5633963943 4283851316
-0.2902065516 -0.0719417483 0.5669969320 4284048177
-0.2915967703 -0.0716539770 0.5697131157 4284311349
-0.2929870188 -0.0713601783 0.5724292994 4284377660
-0.2943772674 -0.0710603595 0.5751456022 4284509246
-0.2957675457 -0.0707545057 0.5778619051 4284311095
-0.2967048585 -0.0703352541 0.5796931982 4284903232
-0.3234022558 -0.2448254824 0.6332262158 4290825668
-0.3226401806 -0.2435473353 0.6317341328 4288128155
-0.3231683671 -0.2432436347 0.6327683330 4287537023
-0.3228357136 -0.2422915846 0.6321169734 4287273851
-0.3220720589 -0.2410184145 0.6306216717 4287406189
-0.3217383623 -0.2400694191 0.6299683452 4287603568
-0.3209733963 -0.2388009876 0.6284704804 4287669880
-0.3206386566 -0.2378550619 0.6278151274 4287406708
-0.3198724091 -0.2365913987 0.6263147593 4287077742
-0.3191054165 -0.2353305370 0.6248129606 4286880363
-0.3179063797 -0.2337553203 0.6224652529 4287011947
-0.2537102699 -0.1860007495 0.4967683852 4287406705
-0.2576699257 -0.1883436143 0.5045214295 4287866738
-0.2508383393 -0.1828048825 0.4911450744 4288064117
-0.2517760694 -0.1829410344 0.4929811358 4287866989
-0.2505541742 -0.1815086305 0.4905886650 4287077473
-0.2501955926 -0.1807050705 0.4898865521 4286354002
-0.2494043708 -0.1795915365 0.4883373380 4286617174
-0.2490448505 -0.1787913591 0.4876333773 4286485587
-0.2486849129 -0.1779924482 0.4869286418 4286222415
-0.2487571985 -0.1775035113 0.4870701730 4286485841
-0.2483965904 -0.1767063141 0.4863640666 4286288462
-0.2480355650 -0.1759103835 0.4856571853 4286223435
-0.2476741225 -0.1751157343 0.4849494994 4286289228
-0.2473122776 -0.1743223667 0.4842410088 4285828412
-0.2473832816 -0.1738347262 0.4843800068 4286157377
-0.2465873808 -0.1727395058 0.4828216434 4286618175
-0.2462243289 -0.1719499975 0.4821107686 4285894452
-0.2462944686 -0.1714636832 0.4822480977 4285105191
-0.2454969883 -0.1703749001 0.4806866050 4284644640
-0.2451326996 -0.1695893109 0.4799733460 4283986459
-0.2452020049 -0.1691043079 0.4801090658 4283328529
-0.2448370457 -0.1683204621 0.4793944657 4283788064
-0.2449059039 -0.1678355038 0.4795292914 4284380201
-0.2445402592 -0.1670534313 0.4788133502 4284643122
-0.2441742122 -0.1662726551 0.4780966043 4284708915
-0.2438077480 -0.1654932052 0.4773790836 4284774708
-0.2434408963 -0.1647150666 0.4766607583 4284511536
-0.2430736274 -0.1639382541 0.4759416580 4284577329
-0.2427059710 -0.1631627828 0.4752217531 4284379950
-0.2427729815 -0.1626801640 0.4753529727 4284511538
-0.2428398281 -0.1621971577 0.4754838645 4284511538
-0.2429065108 -0.1617137492 0.4756144285 4284577333
-0.2429730296 -0.1612299383 0.4757446945 4284840505
-0.2430393994 -0.1607457250 0.4758746326 4285103164
-0.2431055903 -0.1602611244 0.4760042429 4285168957
-0.2431716323 -0.1597761363 0.4761335254 4285168702
-0.2432374954 -0.1592907310 0.4762625098 4284971323
-0.2428671718 -0.1585203558 0.4755374193 4285234497
-0.2424964458 -0.1577513218 0.4748115242 4285892427
-0.2425615937 -0.1572664976 0.4749390781 4286746968
-0.2430629432 -0.1570632607 0.4759207368 4287010140
-0.2431278676 -0.1565767676 0.4760478437 4286878554
-0.2431926280 -0.1560899019 0.4761746526 4286944347
-0.2432572097 -0.1556026489 0.4763011038 4286813013
-0.2433216274 -0.1551149935 0.4764272571 4286878806
-0.2433858812 -0.1546269655 0.4765530527 4286549587
-0.2434499711 -0.1541385502 0.4766785204 4286089036
-0.2430766970 -0.1533738822 0.4759476483 4285957450
-0.2431403250 -0.1528855711 0.4760722518 4285891657
-0.2427663654 -0.1521227807 0.4753400385 4285891657
-0.2428295463 -0.1516345888 0.4754637480 4285957450
-0.2424549013 -0.1508736759 0.4747301936 4286220622
-0.2420798689 -0.1501141489 0.4739958644 4286418001
-0.2417044342 -0.1493560076 0.4732607603 4286615382
-0.2417666018 -0.1488689333 0.4733824730 4286615382
-0.2413904816 -0.1481126845 0.4726460278 4286681175
-0.2414521873 -0.1476257443 0.4727668464 4286746968
-0.2415137142 -0.1471384466 0.4728873074 4286812761
-0.2415750623 -0.1466507614 0.4730074406 4286944347
-0.2416362464 -0.1461627185 0.4731272459 4287009376
-0.2416972518 -0.1456743032 0.4732466936 4287404134
-0.2417580932 -0.1451855004 0.4733658135 4287667306
-0.2418187559 -0.1446963549 0.4734845757 4288062064
-0.2418792397 -0.1442068219 0.4736030102 4288653433
-0.2415004671 -0.1434561014 0.4728613794 4288324468
-0.2415604889 -0.1429667324 0.4729788899 4287798124
-0.2416203469 -0.1424770057 0.4730961025 4287600745
-0.2416800112 -0.1419869065 0.4732129276 4287469413
-0.2421790510 -0.1417537034 0.4741900563 4287140448
-0.2422384769 -0.1412619948 0.4743064046 4286811480
-0.2422977239 -0.1407699138 0.4744224250 4286614101
-0.2427966595 -0.1405320764 0.4753993154 4286416974
-0.2428556532 -0.1400383860 0.4755148590 4286088009
-0.2429144830 -0.1395443380 0.4756300449 4285956676
-0.2429731190 -0.1390499324 0.4757448733 4286022469
-0.2430315912 -0.1385551542 0.4758593440 4286286156
-0.2430898696 -0.1380600333 0.4759734571 4286417742
-0.2427074909 -0.1373153478 0.4752247632 4286614351
-0.2427653074 -0.1368204206 0.4753379524 4286548558
-0.2428229451 -0.1363251209 0.4754508138 4286614353
-0.2424395978 -0.1355829686 0.4747002125 4286548560
-0.2424967736 -0.1350878775 0.4748121500 4286482516
-0.2425537556 -0.1345924437 0.4749237299 4286482516
-0.2426105589 -0.1340966523 0.4750349522 4286811229
-0.2422259599 -0.1333575994 0.4742819071 4287337573
-0.2422823012 -0.1328620315 0.4743922055 4287863406
-0.2423384488 -0.1323660910 0.4745021462 4288455543
-0.2419528961 -0.1316296309 0.4737472236 4288916096
-0.2420085669 -0.1311339140 0.4738562405 4288784510
-0.2420640588 -0.1306378692 0.4739648998 4288850304
-0.2421193719 -0.1301414818 0.4740732014 4289245062
-0.2421744913 -0.1296447366 0.4741811454 4289704332
-0.2426714599 -0.1293833405 0.4751541913 4289441160
-0.2427263111 -0.1288850307 0.4752615988 4288849020
-0.2427809685 -0.1283863783 0.4753686190 4288520055
-0.2428354472 -0.1278873831 0.4754753113 4288192114
-0.2428897470 -0.1273880601 0.4755815864 4287797356
-0.2429438382 -0.1268884093 0.4756875336 4287402596
-0.2429977506 -0.1263884157 0.4757930934 4287073631
-0.2430514693 -0.1258880794 0.4758982658 4286678873
-0.2431050092 -0.1253874302 0.4760031104 4286415701
-0.2431583554 -0.1248864457 0.4761075377 4286086995
-0.2432115078 -0.1243851259 0.4762116075 4285955409
-0.2432644665 -0.1238834858 0.4763153195 4286021204
-0.2433172315 -0.1233815104 0.4764186442 4286086997
-0.2429265231 -0.1226553917 0.4756536186 4286350170
-0.2434222102 -0.1223765910 0.4766241610 4286547549
-0.2434743941 -0.1218736470 0.4767263830 4286679134
-0.2439699769 -0.1215914562 0.4776967168 4287073892
-0.2440218925 -0.1210869476 0.4777983427 4287402857
-0.2445173711 -0.1208013520 0.4787685275 4287534443
-0.2445689738 -0.1202952862 0.4788695574 4287863408
-0.2450643480 -0.1200063005 0.4798395038 4288389752
-0.2446716130 -0.1192821935 0.4790705144 4288652925
-0.2447226346 -0.1187751666 0.4791704118 4288587132
-0.2447734624 -0.1182678267 0.4792699516 4288718464
-0.2448240817 -0.1177601665 0.4793690741 4288718464
-0.2448745221 -0.1172521934 0.4794678092 4288718718
-0.2444802523 -0.1165320352 0.4786958396 4288652925
-0.2445301861 -0.1160243601 0.4787936211 4288455805
-0.2441352457 -0.1153063476 0.4780203104 4288126840
-0.2441847026 -0.1147989780 0.4781171679 4287863668
-0.2442339659 -0.1142912954 0.4782136083 4287797875
-0.2442830354 -0.1137833148 0.4783096910 4287666029
-0.2443318963 -0.1132750213 0.4784053564 4287402857
-0.2443805635 -0.1127664298 0.4785006642 4287205730
-0.2444290221 -0.1122575328 0.4785955548 4287074144
-0.2444772869 -0.1117483303 0.4786900580 4287139933
-0.2445253581 -0.1112388298 0.4787841737 4287139933
-0.2445732206 -0.1107290313 0.4788778722 4286877527
-0.2446208894 -0.1102189347 0.4789712131 4286680148
-0.2446683496 -0.1097085327 0.4790641367 4286811985
-0.2442698479 -0.1089989394 0.4782838821 4286614606
-0.2443168312 -0.1084888801 0.4783758521 4286351684
-0.2443635911 -0.1079785302 0.4784674346 4285956926
-0.2444101572 -0.1074678823 0.4785585999 4285496372
-0.2444565147 -0.1069569513 0.4786493778 4284970028
-0.2445026785 -0.1064457223 0.4787397385 4284180766
-0.2441023737 -0.1057408974 0.4779559672 4283457043
-0.2441480458 -0.1052300259 0.4780453742 4282865420
-0.2441935092 -0.1047188714 0.4781343937 4283062799
-0.2442387640 -0.1042074338 0.4782229960 4283194385
-0.2442838103 -0.1036957130 0.4783112109 4282997006
-0.2438819855 -0.1029950678 0.4775244296 4282865422
-0.2443733066 -0.1026714221 0.4784864485 4282799629
-0.2444177419 -0.1021588519 0.4785734415 4282602509
-0.2444619685 -0.1016460061 0.4786600471 4282602509
-0.2449529916 -0.1013177633 0.4796214700 4282799891
-0.2449968755 -0.1008034274 0.4797074199 4283063063
-0.2450405657 -0.1002888158 0.4797929525 4283457567
-0.2450840473 -0.0997739211 0.4798780680 4283786532
-0.2451273203 -0.0992587581 0.4799627960 4283720739
-0.2451703846 -0.0987433270 0.4800471365 4283589153
-0.2452132404 -0.0982276201 0.4801310301 4283458339
-0.2452558726 -0.0977116376 0.4802145362 4283260960
-0.2452983111 -0.0971953943 0.4802975953 4283523103
-0.2453405261 -0.0966788828 0.4803802967 4283457310
-0.2453825474 -0.0961621031 0.4804625511 4283522849
-0.2454243451 -0.0956450626 0.4805443883 4283588642
-0.2454659343 -0.0951277539 0.4806258380 4283522849
-0.2455073148 -0.0946101844 0.4807068408 4283522849
-0.2455484867 -0.0940923542 0.4807874560 4283522849
-0.2460375875 -0.0937450230 0.4817451239 4283325470
-0.2460784018 -0.0932257250 0.4818250537 4283062298
-0.2465673089 -0.0928750411 0.4827823341 4283062298
-0.2470561564 -0.0925222039 0.4837394953 4283128091
-0.2470964789 -0.0920002386 0.4838184416 4283128091
-0.2475851029 -0.0916440487 0.4847751856 4283062299
-0.2476250678 -0.0911206380 0.4848534465 4283062299
-0.2481134832 -0.0907610878 0.4858097732 4283193884
-0.2481530905 -0.0902362242 0.4858872890 4283325470
-0.2481924742 -0.0897110999 0.4859644175 4283391266
-0.2486805171 -0.0893470123 0.4869200289 4283720231
-0.2491684854 -0.0889807716 0.4878754914 4283851817
-0.2492073625 -0.0884530023 0.4879516065 4283786024
-0.2492460161 -0.0879249945 0.4880272746 4283917610
-0.2497336119 -0.0875542089 0.4889819920 4283851817
-0.2497718930 -0.0870247558 0.4890569448 4283391266
-0.2502592504 -0.0866506249 0.4900112152 4282930715
-0.2507465184 -0.0862743482 0.4909652770 4282996506
-0.2512337267 -0.0858959258 0.4919192195 4283062299
-0.2517208159 -0.0855153501 0.4928729534 4283062301
-0.2517582476 -0.0849808827 0.4929462671 4282996508
-0.2522450984 -0.0845969692 0.4938995540 4282996508
-0.2531815767 -0.0843607485 0.4957331419 4282930715
-0.2536683083 -0.0839715898 0.4966861904 4282733334
-0.2541549504 -0.0835802779 0.4976390302 4282733334
-0.2550913692 -0.0833337978 0.4994725883 4282798875
-0.2555778921 -0.0829372406 0.5004251599 4282930461
-0.2569643557 -0.0828286484 0.5031398535 4283062047
-0.2574507892 -0.0824258775 0.5040923357 4283325219
-0.2579371035 -0.0820209607 0.5050445795 4283588393
-0.2584233284 -0.0816138983 0.5059965849 4283917358
-0.2589094341 -0.0812046900 0.5069484115 4284180531
-0.2598457932 -0.0809335932 0.5087817907 4284114738
-0.2607821524 -0.0806584358 0.5106152296 4283917359
-0.2612680495 -0.0802408680 0.5115666389 4283785773
-0.2622043788 -0.0799585357 0.5133999586 4283719980
-0.2631407082 -0.0796721280 0.5152332783 4283785773
-0.2640770376 -0.0793816596 0.5170665979 4283785519
-0.2654640675 -0.0792216212 0.5197824240 4283851312
-0.2664004266 -0.0789220482 0.5216158628 4283982130
-0.2673368156 -0.0786183998 0.5234493017 4283982130
-0.2687240541 -0.0784422904 0.5261655450 4284113970
-0.2701114118 -0.0782601908 0.5288820267 4284113970
-0.2710478604 -0.0779423937 0.5307155848 4284179763
-0.2719843090 -0.0776205212 0.5325491428 4284245556
-0.2729206979 -0.0772945732 0.5343826413 4284245302
-0.2738571167 -0.0769645497 0.5362161398 4284245302
-0.2743422389 -0.0765046179 0.5371660590 4284311095
-0.2752785385 -0.0761674047 0.5389993191 4284245302
-0.2762147784 -0.0758261085 0.5408325195 4284376888
-0.2776023746 -0.0756036714 0.5435494184 4284179509
-0.2794415057 -0.0754971877 0.5471504331 4284179509
-0.2803778052 -0.0751407519 0.5489837527 4284245302
-0.2808625102 -0.0746602044 0.5499328375 4284245302
-0.2822502553 -0.0744156390 0.5526500940 4284311095
-0.2831864357 -0.0740469620 0.5544831157 4284179509
-0.2841225266 -0.0736741945 0.5563160181 4283916337
-0.2855103612 -0.0734135136 0.5590333343 4283851314
-0.2868981957 -0.0731468052 0.5617508292 4284180279
-0.2882860899 -0.0728740767 0.5644683242 4284246074
-0.2901259363 -0.0727085769 0.5680707693 4284048695
-0.2915139794 -0.0724228323 0.5707885027 4284245302
-0.2929020226 -0.0721310526 0.5735063553 4284508474
-0.2938380241 -0.0717229098 0.5753390789 4284771650
-0.2938697338 -0.0710919350 0.5754011869 4284837443
-0.2952576578 -0.0707859546 0.5781187415 4284376888
-0.2961933911 -0.0703665242 0.5799508691 4285166404
-0.3219707310 -0.2442723960 0.6317957044 4291022536
-0.3220686913 -0.2436451912 0.6319879293 4288522402
-0.3213073611 -0.2423693538 0.6304939985 4287799941
-0.3214046657 -0.2417426854 0.6306849718 4287273597
-0.3210719824 -0.2407930940 0.6300321221 4287011433
-0.3203088939 -0.2395230979 0.6285347342 4287077226
-0.3195450902 -0.2382559031 0.6270359159 4287142765
-0.3183503747 -0.2366716713 0.6246915460 4287142765
-0.3175850213 -0.2354109138 0.6231897473 4287077226
-0.3189712763 -0.2357436866 0.6259099245 4286945640
-0.3164827824 -0.2332151532 0.6210268140 4286945638
-0.3161461651 -0.2322784513 0.6203662753 4287011431
-0.2541983128 -0.1862105131 0.4988074303 4287274855
-0.2521186471 -0.1841379255 0.4947265983 4287406441
-0.2496064752 -0.1817594320 0.4897970259 4287406438
-0.2514048815 -0.1825213879 0.4933259785 4286945887
-0.2493219674 -0.1804661006 0.4892387390 4286682969
-0.2489635497 -0.1796643734 0.4885354340 4286551383
-0.2481731325 -0.1785533875 0.4869843721 4286485588
-0.2491089553 -0.1786840856 0.4888207316 4286682967
-0.2478858531 -0.1772668213 0.4864206910 4286551380
-0.2479577959 -0.1767781526 0.4865618348 4286156622
-0.2475974560 -0.1759819388 0.4858547747 4286420044
-0.2468044907 -0.1748807430 0.4842987359 4286222665
-0.2468755841 -0.1743933707 0.4844382405 4285696826
-0.2465140224 -0.1736010015 0.4837287664 4285959998
-0.2461520731 -0.1728099436 0.4830185175 4286026040
-0.2457897067 -0.1720201671 0.4823074639 4284973352
-0.2449940890 -0.1709296852 0.4807462394 4283986455
-0.2450637668 -0.1704445034 0.4808829725 4283525904
-0.2455663830 -0.1702591777 0.4818692505 4283919900
-0.2452026457 -0.1694728881 0.4811554849 4283722521
-0.2448385060 -0.1686878949 0.4804409444 4284314411
-0.2444739640 -0.1679042280 0.4797255993 4284840755
-0.2441090196 -0.1671218574 0.4790094793 4284905783
-0.2437436581 -0.1663407981 0.4782925546 4284774197
-0.2433779091 -0.1655610651 0.4775748253 4284642611
-0.2434457093 -0.1650769114 0.4777078629 4284642611
-0.2430792600 -0.1642989516 0.4769888222 4284577333
-0.2427124232 -0.1635223180 0.4762689769 4284511540
-0.2427794933 -0.1630386859 0.4764005840 4284577078
-0.2428463995 -0.1625546515 0.4765318632 4284577078
-0.2429131418 -0.1620701998 0.4766628444 4284708153
-0.2429797202 -0.1615853757 0.4767934680 4284971325
-0.2430461347 -0.1611001343 0.4769238234 4285300290
-0.2431124002 -0.1606144905 0.4770538211 4285497669
-0.2431784868 -0.1601284593 0.4771835208 4285825864
-0.2432444096 -0.1596420407 0.4773128629 4285496899
-0.2428749055 -0.1588705033 0.4765878022 4285496899
-0.2425050139 -0.1581003219 0.4758619666 4285957450
-0.2425702065 -0.1576144546 0.4759899080 4286549589
-0.2426352352 -0.1571281999 0.4761174917 4286812761
-0.2427000999 -0.1566415429 0.4762447774 4286812763
-0.2427647859 -0.1561545134 0.4763717353 4286944349
-0.2428293228 -0.1556670815 0.4764983654 4287141724
-0.2428936809 -0.1551792622 0.4766246378 4287273310
-0.2429578751 -0.1546910703 0.4767506123 4287009881
-0.2430219054 -0.1542024761 0.4768762589 4286417744
-0.2426493317 -0.1534375399 0.4761451781 4286088525
-0.2427129000 -0.1529490501 0.4762699008 4285956939
-0.2423396558 -0.1521859765 0.4755375087 4285957452
-0.2424027771 -0.1516976207 0.4756613672 4286089038
-0.2420288473 -0.1509364247 0.4749276042 4286286417
-0.2416545302 -0.1501765996 0.4741930664 4286483796
-0.2417169064 -0.1496888697 0.4743154943 4286615382
-0.2413419038 -0.1489309371 0.4735796154 4286615382
-0.2414038330 -0.1484433264 0.4737011492 4286681175
-0.2410281450 -0.1476873010 0.4729639590 4286746968
-0.2410896122 -0.1471998245 0.4730845690 4286812761
-0.2411509156 -0.1467119753 0.4732048512 4286812761
-0.2412120402 -0.1462237537 0.4733248055 4286878044
-0.2417108715 -0.1459996551 0.4743036628 4287207009
-0.2417717576 -0.1455097944 0.4744231403 4287469927
-0.2418324798 -0.1450195760 0.4745422900 4287930478
-0.2414548099 -0.1442671567 0.4738011956 4288522617
-0.2415150702 -0.1437770873 0.4739194214 4288259445
-0.2415751517 -0.1432866603 0.4740373194 4287732331
-0.2416350543 -0.1427958608 0.4741548598 4287600745
-0.2416947782 -0.1423046887 0.4742720723 4287403620
-0.2421930879 -0.1420705467 0.4752498865 4287074655
-0.2422525734 -0.1415777504 0.4753666222 4286877274
-0.2423118800 -0.1410846114 0.4754830003 4286745688
-0.2423710078 -0.1405910999 0.4755990207 4286613842
-0.2424299568 -0.1400972307 0.4757147133 4286219084
-0.2424887270 -0.1396030039 0.4758300185 4286087750
-0.2425473183 -0.1391084194 0.4759449959 4286153543
-0.2426057309 -0.1386134773 0.4760596156 4286219593
-0.2426639646 -0.1381181777 0.4761738777 4286482765
-0.2427220196 -0.1376225203 0.4762878120 4286680144
-0.2427798808 -0.1371265054 0.4764013588 4286680144
-0.2423976511 -0.1363826096 0.4756512940 4286614355
-0.2424550503 -0.1358867884 0.4757639468 4286614355
-0.2425122708 -0.1353906244 0.4758762121 4286614102
-0.2421290725 -0.1346492767 0.4751242697 4286614102
-0.2421858311 -0.1341533065 0.4752356410 4287074144
-0.2422423959 -0.1336569786 0.4753466547 4287600488
-0.2422987819 -0.1331603229 0.4754572809 4288060785
-0.2419143319 -0.1324221045 0.4747028947 4288652922
-0.2419702560 -0.1319256425 0.4748126268 4288916097
-0.2420259863 -0.1314288378 0.4749219716 4288652925
-0.2420815229 -0.1309317052 0.4750309587 4288784257
-0.2421368808 -0.1304342151 0.4751396179 4289310601
-0.2421920598 -0.1299363971 0.4752478600 4289506951
-0.2422470450 -0.1294382364 0.4753557742 4289177986
-0.2423018515 -0.1289397329 0.4754633009 4288651641
-0.2423564643 -0.1284408867 0.4755704701 4288322676
-0.2424108982 -0.1279417127 0.4756772816 4288059758
-0.2424651384 -0.1274421960 0.4757837057 4287730793
-0.2425191849 -0.1269423515 0.4758897722 4287271010
-0.2425730526 -0.1264421791 0.4759954810 4287007838
-0.2426267266 -0.1259416640 0.4761008024 4286547800
-0.2426802069 -0.1254408062 0.4762057662 4286284628
-0.2427335083 -0.1249396354 0.4763103426 4286021202
-0.2427866012 -0.1244381294 0.4764145315 4285889616
-0.2428395301 -0.1239362955 0.4765183628 4286021204
-0.2428922504 -0.1234341338 0.4766218364 4286284376
-0.2429447770 -0.1229316443 0.4767249227 4286547808
-0.2434397340 -0.1226518378 0.4776961505 4286876773
-0.2434919775 -0.1221477762 0.4777986705 4287138919
-0.2439868450 -0.1218645722 0.4787697196 4287533677
-0.2440387905 -0.1213589534 0.4788716733 4287928689
-0.2445335388 -0.1210723445 0.4798425138 4288191861
-0.2445852011 -0.1205651611 0.4799438715 4288455546
-0.2446366549 -0.1200576574 0.4800448418 4288850304
-0.2446879297 -0.1195498332 0.4801454544 4288915843
-0.2442956269 -0.1188260391 0.4793756604 4288784257
-0.2443464100 -0.1183184981 0.4794752896 4288586878
-0.2443969995 -0.1178106442 0.4795745611 4288455292
-0.2440037429 -0.1170895919 0.4788028896 4288258426
-0.2440538406 -0.1165820286 0.4789012074 4288192633
-0.2441037446 -0.1160741597 0.4789991081 4288061047
-0.2441534400 -0.1155659780 0.4790966511 4287797875
-0.2442029566 -0.1150574833 0.4791938066 4287534703
-0.2442522645 -0.1145486832 0.4792905450 4287468910
-0.2443013638 -0.1140395701 0.4793869257 4287468902
-0.2443502843 -0.1135301590 0.4794828892 4287337316
-0.2443989813 -0.1130204350 0.4795784652 4287205728
-0.2444474995 -0.1125104129 0.4796736538 4287008349
-0.2444958091 -0.1120000854 0.4797684550 4286942809
-0.2445439249 -0.1114894524 0.4798628688 4286942809
-0.2445918322 -0.1109785214 0.4799568653 4286811732
-0.2446395308 -0.1104672924 0.4800505042 4286680146
-0.2446870357 -0.1099557653 0.4801436961 4286614604
-0.2442893684 -0.1092449501 0.4793633819 4286548811
-0.2443363816 -0.1087337583 0.4794556201 4286285891
-0.2443832010 -0.1082222760 0.4795475006 4286022719
-0.2444298118 -0.1077104956 0.4796389341 4285759544
-0.2444762141 -0.1071984246 0.4797300100 4285364786
-0.2440770119 -0.1064917296 0.4789466858 4284576038
-0.2441229373 -0.1059800163 0.4790367782 4283852315
-0.2441686392 -0.1054680049 0.4791264832 4283128592
-0.2442141473 -0.1049557105 0.4792157710 4282931213
-0.2438137233 -0.1042525470 0.4784300029 4282931215
-0.2438587248 -0.1037406176 0.4785183370 4282931215
-0.2443494350 -0.1034171209 0.4794812202 4282799631
-0.2443941236 -0.1029036939 0.4795689285 4282799631
-0.2444385886 -0.1023899838 0.4796561897 4282733583
-0.2444828600 -0.1018759906 0.4797430634 4282799376
-0.2445269376 -0.1013617218 0.4798295200 4282734098
-0.2450170815 -0.1010311991 0.4807913601 4283128856
-0.2450608164 -0.1005154401 0.4808771610 4283720739
-0.2451043278 -0.0999994054 0.4809625745 4284115497
-0.2451476455 -0.0994830877 0.4810475409 4284115499
-0.2447441369 -0.0987862349 0.4802557528 4284049706
-0.2447869480 -0.0982703194 0.4803397655 4283918635
-0.2448295504 -0.0977541357 0.4804233611 4283721256
-0.2448719591 -0.0972376838 0.4805065691 4283588643
-0.2449141443 -0.0967209563 0.4805893600 4283654436
-0.2449561208 -0.0962039679 0.4806717038 4283720229
-0.2449978739 -0.0956867188 0.4807536602 4283654436
-0.2454865873 -0.0953428671 0.4817126393 4283588643
-0.2455280125 -0.0948241353 0.4817939103 4283654436
-0.2460165173 -0.0944769308 0.4827525020 4283720229
-0.2465049624 -0.0941275656 0.4837109745 4283588643
-0.2460984439 -0.0934362784 0.4829132557 4283325471
-0.2465866059 -0.0930845067 0.4838711917 4283128092
-0.2470747083 -0.0927305818 0.4848289788 4282864920
-0.2471150607 -0.0922074541 0.4849081635 4282667541
-0.2476029545 -0.0918501765 0.4858655334 4282601750
-0.2476429492 -0.0913255960 0.4859440327 4282667543
-0.2481306195 -0.0909649581 0.4869009852 4282799127
-0.2481702715 -0.0904389247 0.4869787693 4282930713
-0.2486577183 -0.0900749341 0.4879352748 4283325473
-0.2491450906 -0.0897087902 0.4888916612 4283457059
-0.2487360537 -0.0890197083 0.4880889952 4283588645
-0.2492231280 -0.0886511728 0.4890447855 4283786024
-0.2497101277 -0.0882804841 0.4900004268 4284180782
-0.2493002862 -0.0875925571 0.4891961813 4284180782
-0.2493385375 -0.0870628878 0.4892712533 4283588645
-0.2498250902 -0.0866886079 0.4902259707 4282864922
-0.2503115535 -0.0863121748 0.4911805689 4282864920
-0.2503492832 -0.0857798681 0.4912545681 4282930713
-0.2508354783 -0.0854000971 0.4922086895 4282864920
-0.2513216138 -0.0850181729 0.4931626022 4282799127
-0.2518076599 -0.0846341029 0.4941163361 4282733334
-0.2522936165 -0.0842478871 0.4950699210 4282667541
-0.2527794838 -0.0838595182 0.4960232973 4282667541
-0.2532652318 -0.0834690109 0.4969764948 4282733334
-0.2537508905 -0.0830763504 0.4979295135 4282798875
-0.2546856403 -0.0828276202 0.4997637570 4283062047
-0.2556204200 -0.0825748295 0.5015980601 4283259426
-0.2561059296 -0.0821738094 0.5025507212 4283456805
-0.2570406795 -0.0819138438 0.5043849945 4283785773
-0.2584249079 -0.0817920640 0.5071011782 4284180531
-0.2593597770 -0.0815230161 0.5089356899 4284312117
-0.2602946460 -0.0812498927 0.5107701421 4284180531
-0.2607799172 -0.0808333308 0.5117223859 4283785773
-0.2617147565 -0.0805530325 0.5135567784 4283719980
-0.2630993426 -0.0804061070 0.5162737370 4283719980
-0.2631346583 -0.0798437372 0.5163430572 4283785773
-0.2640694380 -0.0795521885 0.5181773901 4283851314
-0.2650042474 -0.0792565644 0.5200116634 4283851314
-0.2659390271 -0.0789568648 0.5218459964 4283982132
-0.2668738067 -0.0786530897 0.5236803293 4284047925
-0.2687087953 -0.0786085948 0.5272810459 4284113970
-0.2696436644 -0.0782947391 0.5291154981 4284113970
-0.2705785334 -0.0779768154 0.5309499502 4284179763
-0.2715133727 -0.0776548088 0.5327844024 4284245556
-0.2728985250 -0.0774565488 0.5355024338 4284179763
-0.2733829916 -0.0769985691 0.5364531279 4284179763
