VERSION 0.7
FIELDS x y z rgba
SIZE 4 4 4 4
TYPE F F F U
COUNT 1 1 1 1
WIDTH 920
HEIGHT 1
VIEWPOINT 0.0 0.0 0.0 1.0 0.0 0.0 0.0
POINTS 920
DATA ascii
-0.3598581851 -0.0992096812 0.6643068194 4286652190
-0.3599033952 -0.0984839648 0.6643902659 4286323995
-0.3599483073 -0.0977579728 0.6644731760 4286258202
-0.3595204651 -0.0969043747 0.6636833549 4286258202
-0.3595646620 -0.0961787999 0.6637649536 4286258202
-0.3596085310 -0.0954529569 0.6638459563 4286192668
-0.3591794968 -0.0946023688 0.6630539298 4286192668
-0.3596953154 -0.0940004736 0.6640061736 4286126875
-0.3597382307 -0.0932738408 0.6640853882 4286061082
-0.3597808182 -0.0925469548 0.6641640067 4286061852
-0.3598231077 -0.0918198004 0.6642420292 4285930266
-0.3593921363 -0.0909726992 0.6634464860 4285864473
-0.3594337106 -0.0902459994 0.6635231972 4285864473
-0.3594749570 -0.0895190462 0.6635993719 4285864730
-0.3595158756 -0.0887918472 0.6636748910 4285996316
-0.3590833545 -0.0879485235 0.6628764868 4286062109
-0.3591235876 -0.0872217864 0.6629506946 4286193695
-0.3591634631 -0.0864948034 0.6630243063 4286127903
-0.3587297797 -0.0856545866 0.6622236967 4286193696
-0.3582956493 -0.0848160386 0.6614223123 4286258976
-0.3578611016 -0.0839791745 0.6606200933 4286258976
-0.3578995168 -0.0832541212 0.6606910825 4286258976
-0.3579376340 -0.0825288296 0.6607614160 4286258976
-0.3575018942 -0.0816951096 0.6599570513 4286259489
-0.3570657372 -0.0808630735 0.6591519117 4286259489
-0.3571027815 -0.0801390186 0.6592202783 4286194209
-0.3571394980 -0.0794147402 0.6592879891 4286128416
-0.3567021489 -0.0785858780 0.6584807038 4286259491
-0.3572119176 -0.0779655203 0.6594217420 4286325284
-0.3567738533 -0.0771381333 0.6586130261 4286259748
-0.3568091989 -0.0764139444 0.6586782932 4286259748
-0.3563703299 -0.0755890161 0.6578681469 4286325541
-0.3564049900 -0.0748653561 0.6579321027 4286325541
-0.3559653163 -0.0740428939 0.6571204662 4286259748
-0.3555252552 -0.0732221529 0.6563081145 4286325541
-0.3555588424 -0.0724997967 0.6563701034 4286260518
-0.3555921018 -0.0717772320 0.6564314961 4286326311
-0.3551508486 -0.0709597319 0.6556169391 4286326311
-0.3547092080 -0.0701439530 0.6548016667 4286392104
-0.3542671502 -0.0693299100 0.6539856195 4286326570
-0.3542989492 -0.0686094463 0.6540443301 4286260777
-0.3538561165 -0.0677979141 0.6532268524 4286195754
-0.3534128666 -0.0669881105 0.6524085999 4286195754
-0.3534436226 -0.0662690103 0.6524653435 4286195754
-0.3534740508 -0.0655497164 0.6525215507 4286261547
-0.3535041511 -0.0648302361 0.6525771022 4286262062
-0.3535339236 -0.0641105771 0.6526320577 4286393648
-0.3530887961 -0.0633056462 0.6518103480 4286525234
-0.3526432514 -0.0625024736 0.6509878635 4286591027
-0.3526719511 -0.0617842078 0.6510408521 4286394673
-0.3527003527 -0.0610657707 0.6510932446 4286460466
-0.3522536755 -0.0602659397 0.6502686739 4286526259
-0.3518065810 -0.0594678707 0.6494433880 4286592052
-0.3518339097 -0.0587508567 0.6494938135 4286657077
-0.3513860703 -0.0579553582 0.6486670971 4286591284
-0.3509378433 -0.0571616329 0.6478396058 4286459698
-0.3504891992 -0.0563696809 0.6470113993 4286328112
-0.3500401676 -0.0555795059 0.6461824775 4286262062
-0.3495907187 -0.0547911115 0.6453528404 4286327855
-0.3491408825 -0.0540044978 0.6445224285 4286458928
-0.3491657078 -0.0532921776 0.6445682645 4286524721
-0.3487151265 -0.0525081679 0.6437364817 4286524721
-0.3487392962 -0.0517965183 0.6437810659 4286524721
-0.3487631083 -0.0510847196 0.6438249946 4286458928
-0.3483113945 -0.0503041483 0.6429911852 4286524721
-0.3478593230 -0.0495253764 0.6421566010 4286852914
-0.3474068642 -0.0487484038 0.6413213611 4287050293
-0.3474292755 -0.0480389483 0.6413627267 4287378999
-0.3469760716 -0.0472646132 0.6405261159 4287839550
-0.3474731445 -0.0466196351 0.6414437294 4288496710
-0.3465438485 -0.0457841679 0.6397281885 4288825675
-0.3465648890 -0.0450761244 0.6397670507 4288891211
-0.3456347883 -0.0442462265 0.6380500793 4288693832
-0.3451796770 -0.0434799828 0.6372098923 4288035648
-0.3447241783 -0.0427155569 0.6363691092 4287640890
-0.3447438478 -0.0420108996 0.6364053488 4287574068
-0.3447631598 -0.0413061231 0.6364409924 4287442482
-0.3447821438 -0.0406012274 0.6364760995 4287442225
-0.3443252444 -0.0398411900 0.6356326342 4287442225
-0.3443435431 -0.0391370356 0.6356664300 4287508018
-0.3438859284 -0.0383796915 0.6348215938 4287508018
-0.3434278965 -0.0376241803 0.6339761019 4287771701
-0.3434451818 -0.0369216464 0.6340080500 4288100666
-0.3434621692 -0.0362190083 0.6340393424 4288233279
-0.3434788287 -0.0355162658 0.6340700984 4288233279
-0.3430193961 -0.0347652063 0.6332219839 4287970366
-0.3425595760 -0.0340159945 0.6323731542 4287772987
-0.3420994282 -0.0332686305 0.6315237284 4287574840
-0.3411630690 -0.0324778259 0.6297951937 4287311668
-0.3402262926 -0.0316908211 0.6280658841 4287506994
-0.3383654058 -0.0294354577 0.6246306300 4287507764
-0.3398066759 -0.0288638733 0.6272912621 4287314748
-0.3393439949 -0.0281285550 0.6264371276 4286854197
-0.3379290104 -0.0273181535 0.6238250732 4286595904
-0.3379415572 -0.0266260263 0.6238481998 4288898659
-0.3370018005 -0.0258607697 0.6221133471 4289434261
-0.3365376294 -0.0251348913 0.6212565303 4291342258
-0.3069182336 -0.2412274778 0.5677424669 4288689722
-0.3065709472 -0.2403244227 0.5670999885 4289215037
-0.3075604141 -0.2404679507 0.5689303875 4288557107
-0.3076585233 -0.2399123460 0.5691118240 4288029478
-0.3086485267 -0.2400499880 0.5709431767 4288424236
-0.3083004355 -0.2391456068 0.5702992678 4289478209
-0.3088444769 -0.2389328778 0.5713056922 4290004553
-0.3080493212 -0.2376845777 0.5698347688 4289412163
-0.3090398014 -0.2378136367 0.5716669559 4290070093
-0.3091371953 -0.2372532189 0.5718470812 4289937990
-0.3092344105 -0.2366922796 0.5720269680 4289740611
-0.3097784817 -0.2364720404 0.5730333924 4289740611
-0.3103226721 -0.2362496406 0.5740399957 4289543232
-0.3117615283 -0.2367043048 0.5767016411 4288687923
-0.3114113510 -0.2357983887 0.5760539174 4288029993
-0.3115082979 -0.2352315485 0.5762332082 4288819509
-0.3125004768 -0.2353385091 0.5780685544 4289872197
-0.3121494949 -0.2344326377 0.5774192810 4290530129
-0.3140379786 -0.2352055013 0.5809126496 4290201164
-0.3132386506 -0.2339630425 0.5794340372 4289806406
-0.3146799207 -0.2343927920 0.5821001530 4289411648
-0.3129830360 -0.2324855775 0.5789611936 4289214269
-0.3148731589 -0.2332424372 0.5824576020 4289148476
-0.3149695098 -0.2326664627 0.5826358199 4289082170
-0.3155145049 -0.2324205637 0.5836439729 4288884791
-0.3156106472 -0.2318427116 0.5838217735 4288884787
-0.3166047633 -0.2319222689 0.5856607556 4288950580
-0.3175992370 -0.2319979966 0.5875003338 4288884787
-0.3185940683 -0.2320699096 0.5893406272 4288753201
-0.3191397786 -0.2318114936 0.5903500915 4288752944
-0.3196855783 -0.2315509021 0.5913597345 4288687151
-0.3206812441 -0.2316129655 0.5932014585 4288687151
-0.3212273419 -0.2313471735 0.5942116380 4288687151
-0.3217734993 -0.2310791910 0.5952219963 4288687151
-0.3227699399 -0.2311313897 0.5970652103 4288752944
-0.3228661120 -0.2305366695 0.5972430706 4288752944
-0.3234125376 -0.2302621305 0.5982538462 4288752944
-0.3239590228 -0.2299854010 0.5992648005 4288818737
-0.3245055974 -0.2297064662 0.6002758145 4288818737
-0.3250522316 -0.2294253409 0.6012870073 4288818737
-0.3255989254 -0.2291420102 0.6022983193 4288752944
-0.3261457086 -0.2288565040 0.6033097506 4288817965
-0.3266925812 -0.2285687774 0.6043213606 4288883758
-0.3272394836 -0.2282788604 0.6053330302 4288817965
-0.3273349702 -0.2276726961 0.6055096388 4288817965
-0.3278819025 -0.2273792177 0.6065213680 4288949551
-0.3279771209 -0.2267711610 0.6066974998 4289015344
-0.3280721307 -0.2261625826 0.6068732738 4288950323
-0.3286189735 -0.2258641571 0.6078848243 4289016116
-0.3287137151 -0.2252536714 0.6080600619 4289081655
-0.3292605579 -0.2249516696 0.6090716124 4289015862
-0.3298074305 -0.2246474624 0.6100832820 4288950582
-0.3303543627 -0.2243410349 0.6110950112 4289082168
-0.3309013546 -0.2240324020 0.6121068597 4289082168
-0.3314484060 -0.2237215489 0.6131187677 4289082168
-0.3319955170 -0.2234084904 0.6141307950 4289148476
-0.3320896029 -0.2227892727 0.6143048406 4289280062
-0.3326366544 -0.2224726081 0.6153168082 4288754232
-0.3331837654 -0.2221537530 0.6163288951 4288951611
-0.3332774937 -0.2215312570 0.6165022254 4288755515
-0.3333710134 -0.2209082395 0.6166751981 4289018687
-0.3339180052 -0.2205844074 0.6176870465 4288363334
-0.3340111971 -0.2199594975 0.6178594828 4290008159
-0.3345581591 -0.2196320742 0.6188712120 4291532448
-0.3351051509 -0.2193024307 0.6198830605 4294164168
-0.3356521726 -0.2189705521 0.6208949089 4294562784
-0.3366535306 -0.2189319134 0.6227473021 4294562784
-0.3367463052 -0.2183001339 0.6229189038 4294237669
-0.3372934461 -0.2179615796 0.6239309907 4294698220
-0.3378405869 -0.2176208049 0.6249431372 4294959335
-0.3379329443 -0.2169857621 0.6251139641 4294103512
-0.3384800553 -0.2166413665 0.6261259913 4292327614
-0.3385720849 -0.2160044312 0.6262962818 4290551203
-0.3391191065 -0.2156564295 0.6273081899 4290345354
-0.3392108381 -0.2150175869 0.6274778247 4288897908
-0.3397577703 -0.2146659940 0.6284896135 4288499549
-0.3398491740 -0.2140252590 0.6286586523 4288104791
-0.3403960466 -0.2136700451 0.6296702623 4288889679
-0.3404871225 -0.2130274177 0.6298387647 4288955472
-0.3410339057 -0.2126685828 0.6308501959 4289019976
-0.3415806890 -0.2123075277 0.6318616271 4288691011
-0.3421275020 -0.2119442225 0.6328731179 4288625216
-0.3422180414 -0.2112969607 0.6330406070 4288559423
-0.3427647650 -0.2109300345 0.6340519190 4288559934
-0.3428549469 -0.2102808803 0.6342187524 4288494141
-0.3434015512 -0.2099103332 0.6352298856 4288363325
-0.3434914052 -0.2092592865 0.6353961229 4288429118
-0.3435810208 -0.2086077332 0.6355618834 4288363325
-0.3436703980 -0.2079556584 0.6357272267 4288231739
-0.3437595665 -0.2073030919 0.6358921528 4288689469
-0.3438484669 -0.2066500038 0.6360566020 4288952641
-0.3439371586 -0.2059964091 0.6362206340 4288821568
-0.3449405432 -0.2058884352 0.6380767822 4288492603
-0.3445714116 -0.2049599141 0.6373938918 4287838269
-0.3451172113 -0.2045752555 0.6384035349 4288035648
-0.3452051878 -0.2039179057 0.6385662556 4287120967
-0.3457508683 -0.2035296410 0.6395756602 4287318346
-0.3458384573 -0.2028704137 0.6397377253 4287520866
-0.3463840187 -0.2024785131 0.6407468915 4288113003
-0.3469295502 -0.2020843774 0.6417559981 4288641149
-0.3470166624 -0.2014219016 0.6419171691 4289430665
-0.3475620449 -0.2010241300 0.6429260373 4290284950
-0.3481074274 -0.2006241083 0.6439349055 4291337638
-0.3481940627 -0.1999583989 0.6440951228 4292849080
-0.3487392962 -0.1995547563 0.6451036930 4293507010
-0.3488255143 -0.1988871694 0.6452632546 4294232530
-0.3493705988 -0.1984798908 0.6462715268 4294429909
-0.3489972651 -0.1975505054 0.6455808878 4294757845
-0.3486234248 -0.1966223866 0.6448894143 4294494673
-0.3487085700 -0.1959537119 0.6450468898 4294229443
-0.3487934470 -0.1952845305 0.6452038884 4293308341
-0.3488780856 -0.1946148872 0.6453604698 4292843937
-0.3494222462 -0.1942002624 0.6463670731 4291791249
-0.3495064676 -0.1935287565 0.6465228796 4290932084
-0.3495904803 -0.1928567588 0.6466782689 4289747810
-0.3496742249 -0.1921842843 0.6468331814 4289480525
-0.3497577012 -0.1915113181 0.6469876170 4288888388
-0.3503012657 -0.1910889745 0.6479930878 4289084225
-0.3503843546 -0.1904141605 0.6481468081 4289084225
-0.3504671752 -0.1897388697 0.6482999921 4289216066
-0.3510104120 -0.1893115491 0.6493048668 4288952894
-0.3510928452 -0.1886344105 0.6494573951 4289412416
-0.3516358733 -0.1882034540 0.6504619122 4289478209
-0.3521788716 -0.1877702624 0.6514663100 4289412416
-0.3522607386 -0.1870899200 0.6516177654 4289280830
-0.3523423672 -0.1864091009 0.6517687440 4289345853
-0.3524237275 -0.1857278198 0.6519192457 4289477439
-0.3529662192 -0.1852882653 0.6529227495 4289543232
-0.3525856435 -0.1843638271 0.6522187591 4289345853
-0.3526662290 -0.1836811304 0.6523678303 4289082681
-0.3527465165 -0.1829979718 0.6525163651 4289016888
-0.3528265655 -0.1823143363 0.6526644826 4289016888
-0.3533682823 -0.1818679720 0.6536664963 4288951095
-0.3534479141 -0.1811825186 0.6538137794 4288950582
-0.3535272479 -0.1804966033 0.6539605856 4288884789
-0.3536063433 -0.1798102260 0.6541069150 4288753201
-0.3536851704 -0.1791233867 0.6542527080 4288687408
-0.3542261720 -0.1786693335 0.6552534699 4288622130
-0.3543045521 -0.1779806912 0.6553984880 4288753716
-0.3543826938 -0.1772915721 0.6555429697 4288753714
-0.3544605374 -0.1766020060 0.6556870341 4288622128
-0.3550009727 -0.1761416495 0.6566867232 4288556335
-0.3550783992 -0.1754502654 0.6568298936 4288424749
-0.3556185961 -0.1749862880 0.6578291655 4288358956
-0.3556955755 -0.1742931157 0.6579715610 4288424749
-0.3562355042 -0.1738255322 0.6589703560 4288556335
-0.3563120365 -0.1731305569 0.6591119170 4288556335
-0.3563883007 -0.1724351346 0.6592530012 4288490796
-0.3564642668 -0.1717392653 0.6593935490 4288425003
-0.3570036292 -0.1712653637 0.6603912115 4288425003
-0.3566154242 -0.1703461856 0.6596730947 4288425003
-0.3566905856 -0.1696489900 0.6598121524 4288359210
-0.3572293818 -0.1691710502 0.6608088613 4288293417
-0.3573040664 -0.1684720665 0.6609470248 4288162345
-0.3573784828 -0.1677726358 0.6610846519 4288228138
-0.3574526310 -0.1670727879 0.6612218022 4288228138
-0.3579908311 -0.1665885597 0.6622173786 4288293931
-0.3576000631 -0.1656717658 0.6614945531 4288425003
-0.3576733768 -0.1649706066 0.6616301537 4288359210
-0.3582110107 -0.1644823402 0.6626246572 4288425003
-0.3582838476 -0.1637794226 0.6627593637 4288359210
-0.3583563864 -0.1630760580 0.6628935933 4288425003
-0.3579637706 -0.1621616781 0.6621673107 4288556589
-0.3580356538 -0.1614583731 0.6623002887 4288490796
-0.3581072390 -0.1607546508 0.6624327302 4288359210
-0.3581785858 -0.1600505114 0.6625646949 4288293417
-0.3582496047 -0.1593459547 0.6626960635 4288227624
-0.3583203554 -0.1586409807 0.6628269553 4288293417
-0.3588562608 -0.1581406891 0.6638182998 4288359210
-0.3589265347 -0.1574339569 0.6639482379 4288228138
-0.3589965105 -0.1567268223 0.6640776992 4288162345
-0.3595319092 -0.1562216282 0.6650680900 4288162345
-0.3596014082 -0.1555127352 0.6651966572 4288096552
-0.3596706092 -0.1548034400 0.6653246880 4287964966
-0.3597395420 -0.1540937424 0.6654521823 4287899173
-0.3598081470 -0.1533836275 0.6655790806 4287964966
-0.3598764837 -0.1526731104 0.6657055020 4288030759
-0.3599445224 -0.1519621909 0.6658313870 4288162345
-0.3600122929 -0.1512508690 0.6659566760 4288096552
-0.3600797355 -0.1505391449 0.6660814881 4288030759
-0.3601469100 -0.1498270184 0.6662057042 4288030759
-0.3597471714 -0.1489213556 0.6654663086 4288096552
-0.3593469858 -0.1480171233 0.6647260189 4288096552
-0.3594130874 -0.1473056674 0.6648483276 4288096552
-0.3594789207 -0.1465938091 0.6649700403 4288096552
-0.3595444262 -0.1458815634 0.6650912762 4288227370
-0.3596096635 -0.1451689303 0.6652119160 4288293163
-0.3596745729 -0.1444559097 0.6653320193 4288293163
-0.3597392142 -0.1437425017 0.6654515862 4288227370
-0.3598035574 -0.1430287063 0.6655705571 4288161577
-0.3598675728 -0.1423145384 0.6656890512 4288161577
-0.3599313200 -0.1415999830 0.6658069491 4288096554
-0.3599947691 -0.1408850551 0.6659243107 4288162347
-0.3600579202 -0.1401697546 0.6660410762 4288293933
-0.3601207435 -0.1394540668 0.6661573648 4288293933
-0.3601832986 -0.1387380064 0.6662730575 4288359726
-0.3602455258 -0.1380215734 0.6663881540 4288491312
-0.3603074849 -0.1373047829 0.6665027738 4288491312
-0.3603691161 -0.1365876049 0.6666167974 4288491312
-0.3604304492 -0.1358700693 0.6667302251 4288425519
-0.3604914844 -0.1351521611 0.6668431163 4288425519
-0.3605522215 -0.1344338953 0.6669554710 4288556335
-0.3606126606 -0.1337152719 0.6670672894 4288556335
-0.3606727719 -0.1329962909 0.6671785116 4288556335
-0.3607325852 -0.1322769374 0.6672891378 4288622128
-0.3607921004 -0.1315572262 0.6673992276 4288687921
-0.3608513176 -0.1308371723 0.6675087810 4288819507
-0.3609102368 -0.1301167607 0.6676177382 4288754484
-0.3609688282 -0.1293959916 0.6677260995 4288754484
-0.3610271215 -0.1286748797 0.6678339839 4288754482
-0.3606161475 -0.1277872473 0.6670737863 4288688689
-0.3606737554 -0.1270663738 0.6671802998 4288622896
-0.3607310653 -0.1263451576 0.6672862768 4288491310
-0.3607880473 -0.1256235838 0.6673917174 4288359724
-0.3613139689 -0.1250641048 0.6683645844 4288228138
-0.3613704145 -0.1243409291 0.6684689522 4288228138
-0.3614265323 -0.1236174107 0.6685727835 4288162345
-0.3614823520 -0.1228935570 0.6686760783 4288162345
-0.3610683382 -0.1220107079 0.6679102182 4288096552
-0.3611234725 -0.1212871224 0.6680122018 4288162345
-0.3611782789 -0.1205632165 0.6681135893 4288096552
-0.3607630432 -0.1196831390 0.6673454642 4287965479
-0.3603473604 -0.1188046187 0.6665765047 4287899686
-0.3604010940 -0.1180816069 0.6666759253 4287899688
-0.3604545295 -0.1173582822 0.6667747498 4287833895
-0.3600376248 -0.1164825633 0.6660035253 4287768616
-0.3600903451 -0.1157595366 0.6661010981 4287637030
-0.3601427674 -0.1150361970 0.6661980748 4287571237
-0.3597246408 -0.1141633093 0.6654246449 4287439651
-0.3597763777 -0.1134402826 0.6655203104 4287373860
-0.3602981567 -0.1128642857 0.6664854884 4287373860
-0.3603492975 -0.1121396944 0.6665801406 4287308580
-0.3604001403 -0.1114147976 0.6666741967 4287242787
-0.3604506850 -0.1106895953 0.6667676568 4287177505
-0.3605009019 -0.1099640802 0.6668605804 4287111712
-0.3605507910 -0.1092382744 0.6669528484 4287111712
-0.3606003821 -0.1085121632 0.6670445800 4287177505
-0.3601788282 -0.1076450348 0.6662647724 4287111712
-0.3597568274 -0.1067795157 0.6654841304 4287045919
-0.3598053455 -0.1060544103 0.6655738950 4287045919
-0.3598535061 -0.1053290144 0.6656630039 4286980126
-0.3594303131 -0.1044664159 0.6648801565 4286914333
-0.3590066731 -0.1036054268 0.6640964746 4286914333
-0.3590537608 -0.1028810591 0.6641836166 4286913822
-0.3595718145 -0.1022904813 0.6651419401 4286913822
-0.3596183360 -0.1015646011 0.6652280092 4286913822
-0.3591931760 -0.1007062793 0.6644415259 4286979615
-0.3587675691 -0.0998495892 0.6636542082 4286914079
-0.3588130176 -0.0991247743 0.6637382507 4286914079
-0.3588581383 -0.0983996913 0.6638217568 4286586913
-0.3589029610 -0.0976743326 0.6639046669 4286455327
-0.3589474559 -0.0969487056 0.6639869809 4286389534
-0.3585198820 -0.0960963592 0.6631960273 4286323741
-0.3585636914 -0.0953711495 0.6632770300 4286323741
-0.3586071432 -0.0946456790 0.6633574367 4286323741
-0.3591222167 -0.0940435156 0.6643102169 4286192668
-0.3586931229 -0.0931939408 0.6635164618 4286126875
-0.3587356210 -0.0924676806 0.6635951400 4286258461
-0.3587778211 -0.0917411670 0.6636731625 4286192668
-0.3588196635 -0.0910143927 0.6637505889 4286126875
-0.3583890200 -0.0901685730 0.6629539728 4286126875
-0.3584301770 -0.0894422531 0.6630300879 4286061852
-0.3579987288 -0.0885988027 0.6622319818 4286127645
-0.3580391705 -0.0878729448 0.6623067856 4286193438
-0.3580793142 -0.0871468410 0.6623810530 4286259231
-0.3581191003 -0.0864204913 0.6624546647 4286455841
-0.3576861024 -0.0855808482 0.6616536975 4286390048
-0.3572526574 -0.0847428888 0.6608518958 4286455841
-0.3572913706 -0.0840177462 0.6609235406 4286521634
-0.3568571210 -0.0831821859 0.6601202488 4286258976
-0.3568951488 -0.0824575350 0.6601905823 4286258976
-0.3569328487 -0.0817326531 0.6602603197 4286324769
-0.3560246229 -0.0807929486 0.6585802436 4286324769
-0.3560615778 -0.0800695270 0.6586486101 4286259489
-0.3560982049 -0.0793458819 0.6587163806 4286259489
-0.3561345339 -0.0786220208 0.6587835550 4286259491
-0.3561705053 -0.0778979361 0.6588501334 4286325284
-0.3557331264 -0.0770711377 0.6580410004 4286259491
-0.3557684124 -0.0763475820 0.6581062675 4286325284
-0.3558033705 -0.0756238103 0.6581709385 4286325541
-0.3558380008 -0.0748998225 0.6582350135 4286325541
-0.3553990722 -0.0740769878 0.6574230790 4286325541
-0.3549597263 -0.0732558742 0.6566103697 4286391334
-0.3545199633 -0.0724364817 0.6557968855 4286457127
-0.3545531332 -0.0717145577 0.6558582783 4286522920
-0.3541125953 -0.0708976462 0.6550433636 4286392104
-0.3536716402 -0.0700824708 0.6542276740 4286392104
-0.3537037671 -0.0693618730 0.6542870998 4286392106
-0.3532620072 -0.0685491934 0.6534699202 4286392106
-0.3532934487 -0.0678291768 0.6535280943 4286326570
-0.3528509140 -0.0670190081 0.6527094841 4286326570
-0.3528816700 -0.0662995800 0.6527663469 4286326570
-0.3529120684 -0.0655799583 0.6528226137 4286392363
-0.3524684012 -0.0647730902 0.6520019174 4286327340
-0.3529719114 -0.0641401634 0.6529332995 4286458926
-0.3525274992 -0.0633348674 0.6521112323 4286458926
-0.3520826995 -0.0625313297 0.6512884498 4286524719
-0.3516374826 -0.0617295466 0.6504648924 4286197294
-0.3511918783 -0.0609295219 0.6496405602 4286197294
-0.3512198329 -0.0602125190 0.6496922970 4286394159
-0.3507734537 -0.0594150536 0.6488665938 4286394159
-0.3508007228 -0.0586986803 0.6489170194 4286393905
-0.3503535986 -0.0579037890 0.6480898857 4286328112
-0.3503801823 -0.0571880527 0.6481390595 4286328112
-0.3494580984 -0.0563193224 0.6464334130 4286262319
-0.3490097821 -0.0555297546 0.6456040740 4286327855
-0.3485610485 -0.0547419675 0.6447740197 4286262062
-0.3481119275 -0.0539559647 0.6439431906 4286262062
-0.3481366932 -0.0532442890 0.6439890265 4286262062
-0.3476868272 -0.0524608903 0.6431568265 4286393135
-0.3481852710 -0.0518204831 0.6440789104 4286458928
-0.3477346897 -0.0510387309 0.6432453990 4286524721
-0.3477581441 -0.0503274314 0.6432887912 4286524721
-0.3468323350 -0.0494806096 0.6415761709 4286722100
-0.3468550444 -0.0487709716 0.6416182518 4286458928
-0.3464029431 -0.0479954444 0.6407818794 4286655537
-0.3459504247 -0.0472217239 0.6399448514 4287050295
-0.3459721208 -0.0465136133 0.6399849653 4287444540
-0.3455188870 -0.0457425416 0.6391465664 4287707712
-0.3450652659 -0.0449732803 0.6383074522 4288036677
-0.3446112275 -0.0442058370 0.6374676228 4288299849
-0.3441568613 -0.0434402116 0.6366270781 4288561992
-0.3437020779 -0.0426764041 0.6357858181 4288561992
-0.3432469368 -0.0419144221 0.6349439025 4288364354
-0.3432661891 -0.0412112661 0.6349794865 4287838010
-0.3432851136 -0.0405079946 0.6350145340 4287639861
-0.3433037400 -0.0398046039 0.6350489259 4287574068
-0.3433220088 -0.0391011015 0.6350827813 4287311668
-0.3428650796 -0.0383443795 0.6342375278 4286982703
-0.3424077928 -0.0375894941 0.6333916187 4287310639
-0.3419501185 -0.0368364491 0.6325449944 4287705397
-0.3424420059 -0.0361856222 0.6334548593 4287838008
-0.3419836164 -0.0354343131 0.6326069832 4288166973
-0.3415248990 -0.0346848555 0.6317584515 4288365378
-0.3410657942 -0.0339372419 0.6309091449 4288365378
-0.3406063318 -0.0331914835 0.6300592422 4287970109
-0.3401465118 -0.0324475802 0.6292086244 4287443765
-0.3396863043 -0.0317055285 0.6283573508 4287508277
-0.3392257392 -0.0309653375 0.6275054216 4287639863
-0.3392399549 -0.0302694030 0.6275317073 4287441201
-0.3387786746 -0.0295319613 0.6266784668 4287309615
-0.3387922347 -0.0288368277 0.6267035007 4287509047
-0.3369047046 -0.0279837362 0.6232119203 4287640633
-0.3373927474 -0.0273308363 0.6241146922 4287247672
-0.3355043828 -0.0264883153 0.6206216216 4287510844
-0.3364669979 -0.0258727800 0.6224022508 4286860876
-0.3350530863 -0.0250754282 0.6197867990 4288966252
-0.3355398476 -0.0244222302 0.6206871867 4290681759
-0.3350757360 -0.0236997753 0.6198286414 4292129205
-0.3055230379 -0.2406252623 0.5663251281 4288821053
-0.3061637580 -0.2398687750 0.5675127506 4288425267
-0.3067066371 -0.2396624535 0.5685190558 4288358958
-0.3072496653 -0.2394539863 0.5695255995 4289082681
-0.3064565063 -0.2382046878 0.5680553913 4289544259
-0.3065537512 -0.2376489341 0.5682356954 4289346880
-0.3079879880 -0.2381264865 0.5708941817 4288952124
-0.3080853224 -0.2375672460 0.5710746646 4289807433
-0.3081825078 -0.2370074689 0.5712547898 4289872197
-0.3087256551 -0.2367893457 0.5722615719 4289674818
-0.3092688918 -0.2365690768 0.5732685328 4289411646
-0.3098122776 -0.2363466620 0.5742757320 4288556337
-0.3103557229 -0.2361220717 0.5752831101 4288358956
-0.3100059330 -0.2352174819 0.5746347308 4289016886
-0.3105493486 -0.2349902093 0.5756419897 4290332748
-0.3106458783 -0.2344234884 0.5758209229 4290595920
-0.3116364777 -0.2345291972 0.5776571631 4289806406
-0.3121801913 -0.2342954427 0.5786650181 4289609027
-0.3113818467 -0.2330549955 0.5771851540 4289477186
-0.3137154579 -0.2341554910 0.5815107822 4289477186
-0.3138119578 -0.2335812151 0.5816896558 4289477441
-0.3143560886 -0.2333388031 0.5826982856 4289477441
-0.3140044212 -0.2324310690 0.5820463896 4289213754
-0.3154445887 -0.2328474671 0.5847159624 4288753203
-0.3150925636 -0.2319386750 0.5840634704 4288621615
-0.3165335059 -0.2323474288 0.5867343545 4288687408
-0.3179750443 -0.2327507138 0.5894064903 4288687408
-0.3171741366 -0.2315112352 0.5879218578 4288621615
-0.3195137680 -0.2325609326 0.5922586918 4288687151
-0.3191612363 -0.2316470295 0.5916052461 4288752944
-0.3206043541 -0.2320341617 0.5942802429 4288818737
-0.3202514648 -0.2311191857 0.5936260819 4288752944
-0.3216952682 -0.2314986289 0.5963023901 4288687151
-0.3226902783 -0.2315500677 0.5981467366 4288752944
-0.3223369420 -0.2306326777 0.5974918008 4288818737
-0.3228825629 -0.2303580791 0.5985031724 4288818737
-0.3238780499 -0.2304012775 0.6003484130 4288818737
-0.3235240281 -0.2294831276 0.5996921659 4288884530
-0.3245198131 -0.2295211107 0.6015380025 4288884530
-0.3255159259 -0.2295552194 0.6033844352 4288818737
-0.3251613081 -0.2286354750 0.6027271152 4288883501
-0.3261576891 -0.2286643535 0.6045740247 4288949294
-0.3267037868 -0.2283743620 0.6055862904 4288883758
-0.3267992139 -0.2277680188 0.6057631373 4288883758
-0.3273453116 -0.2274744660 0.6067754030 4289015344
-0.3269894421 -0.2265537232 0.6061157584 4289146930
-0.3275353909 -0.2262574285 0.6071277857 4289081909
-0.3276301324 -0.2256481200 0.6073033810 4289081909
-0.3281760812 -0.2253482491 0.6083154082 4289082168
-0.3287221193 -0.2250461727 0.6093274951 4288950582
-0.3292681873 -0.2247418910 0.6103397012 4289016375
-0.3298143148 -0.2244353890 0.6113520265 4289082168
-0.3303604722 -0.2241266817 0.6123644114 4289082681
-0.3309067190 -0.2238157541 0.6133769155 4289082681
-0.3314529955 -0.2235026062 0.6143895388 4289148476
-0.3319993317 -0.2231872529 0.6154022217 4289280062
-0.3320932686 -0.2225664556 0.6155763268 4288754233
-0.3326395452 -0.2222474962 0.6165890098 4289214784
-0.3322805166 -0.2213232666 0.6159234047 4288298561
-0.3328266442 -0.2210015804 0.6169357300 4288824905
-0.3329198658 -0.2203778327 0.6171085835 4289686897
-0.3334659636 -0.2200525403 0.6181207895 4293766063
-0.3340120912 -0.2197250277 0.6191331148 4294959850
-0.3345582485 -0.2193952948 0.6201454997 4294962420
-0.3351044655 -0.2190633267 0.6211580038 4294502642
-0.3356507123 -0.2187291384 0.6221705079 4293186782
-0.3361969888 -0.2183927298 0.6231831312 4292794586
-0.3367432952 -0.2180540860 0.6241957545 4294176239
-0.3372896314 -0.2177132070 0.6252084970 4294965500
-0.3373819292 -0.2170779407 0.6253795624 4294965243
-0.3379282057 -0.2167334557 0.6263921261 4294702331
-0.3375658691 -0.2158058435 0.6257205009 4294373366
-0.3381119370 -0.2154586017 0.6267327070 4294629606
-0.3382034600 -0.2148203999 0.6269024014 4293116367
-0.3387494683 -0.2144695520 0.6279144883 4291731627
-0.3392955065 -0.2141164839 0.6289266348 4289428872
-0.3393866122 -0.2134750038 0.6290954947 4288700008
-0.3399325609 -0.2131183147 0.6301074624 4288107871
-0.3400233388 -0.2124749422 0.6302757263 4288957012
-0.3405691981 -0.2121146321 0.6312875748 4288825426
-0.3411150873 -0.2117520869 0.6322994232 4289413966
-0.3416609764 -0.2113873065 0.6333112717 4289150794
-0.3417511880 -0.2107392848 0.6334785223 4289086030
-0.3418411911 -0.2100907713 0.6336453557 4289086030
-0.3423868716 -0.2097209841 0.6346568465 4287971914
-0.3429325819 -0.2093489617 0.6356683373 4287708742
-0.3430221081 -0.2086971700 0.6358343363 4287251532
-0.3426551819 -0.2077682018 0.6351541877 4287712083
-0.3432005048 -0.2073920518 0.6361650229 4287910743
-0.3432893753 -0.2067387402 0.6363297105 4288568673
-0.3433779776 -0.2060849071 0.6364939809 4289555568
-0.3434663415 -0.2054305822 0.6366577744 4290674049
-0.3440113366 -0.2050480545 0.6376680136 4291530389
-0.3440993726 -0.2043918371 0.6378311515 4292451491
-0.3441871405 -0.2037351280 0.6379938722 4292915641
-0.3447318971 -0.2033476084 0.6390036345 4293770950
-0.3448193371 -0.2026890069 0.6391656995 4293643222
-0.3453639448 -0.2022978663 0.6401752234 4294366945
-0.3454509974 -0.2016374022 0.6403365731 4294435310
-0.3459954858 -0.2012426257 0.6413458586 4294764275
-0.3460821807 -0.2005802989 0.6415065527 4294962170
-0.3466265202 -0.2001819015 0.6425155401 4294962170
-0.3471708596 -0.1997812539 0.6435245275 4294697717
-0.3472570479 -0.1991156787 0.6436843276 4294368752
-0.3478012085 -0.1987114102 0.6446930170 4293643735
-0.3478870392 -0.1980439574 0.6448521018 4292854219
-0.3475141227 -0.1971159726 0.6441608667 4291865782
-0.3475993276 -0.1964484155 0.6443188190 4290155164
-0.3476842940 -0.1957803667 0.6444762945 4288968063
-0.3477689922 -0.1951118261 0.6446332932 4287849582
-0.3478534520 -0.1944428086 0.6447898746 4288371813
-0.3483966887 -0.1940289438 0.6457967758 4288634985
-0.3484807611 -0.1933580637 0.6459526420 4289880683
-0.3485645950 -0.1926866919 0.6461080313 4290341234
-0.3486481607 -0.1920148432 0.6462629437 4291127408
-0.3491909504 -0.1915946156 0.6472690105 4290403685
-0.3492740989 -0.1909209192 0.6474232078 4289810003
-0.3498167098 -0.1904970706 0.6484289765 4289349452
-0.3498994708 -0.1898215264 0.6485823989 4289085765
-0.3504419029 -0.1893940419 0.6495878696 4288493628
-0.3505242765 -0.1887166500 0.6497405171 4289083449
-0.3506063819 -0.1880387813 0.6498927474 4289215035
-0.3511484563 -0.1876063198 0.6508975625 4288951863
-0.3512301743 -0.1869266182 0.6510490179 4288688691
-0.3513116241 -0.1862464249 0.6511999965 4288491312
-0.3513928056 -0.1855657697 0.6513504982 4288491312
-0.3519343734 -0.1851269603 0.6523543596 4288491312
-0.3520151675 -0.1844444722 0.6525040865 4288162347
-0.3516348004 -0.1835209876 0.6517990828 4288425519
-0.3517149687 -0.1828384548 0.6519476175 4288425519
-0.3517948389 -0.1821554601 0.6520956755 4288556335
-0.3523356318 -0.1817098260 0.6530981064 4288622128
-0.3524150848 -0.1810250133 0.6532453895 4288622128
-0.3524942994 -0.1803397238 0.6533921957 4288622128
-0.3525732160 -0.1796539724 0.6535385251 4288622128
-0.3526518941 -0.1789677739 0.6536843181 4288556335
-0.3527302742 -0.1782811135 0.6538296342 4288622128
-0.3532702029 -0.1778264344 0.6548304558 4288687921
-0.3533481658 -0.1771379560 0.6549749970 4288687921
-0.3534258604 -0.1764490306 0.6551190019 4288622128
-0.3539654016 -0.1759893894 0.6561190486 4288622128
-0.3540426493 -0.1752986461 0.6562622786 4288556335
-0.3545819521 -0.1748353988 0.6572619081 4288556335
-0.3546587527 -0.1741428524 0.6574043036 4288556335
-0.3551977873 -0.1736759990 0.6584035158 4288490542
-0.3552741706 -0.1729816496 0.6585450768 4288490542
-0.3553502858 -0.1722868681 0.6586861014 4288490796
-0.3554261029 -0.1715916246 0.6588267088 4288425003
-0.3559645414 -0.1711184531 0.6598247886 4288490796
-0.3555769324 -0.1701998115 0.6591062546 4288490796
-0.3556519449 -0.1695032418 0.6592453122 4288490796
-0.3561898470 -0.1690260321 0.6602423787 4288490796
-0.3562643826 -0.1683276743 0.6603805423 4288490796
-0.3563386500 -0.1676288843 0.6605182290 4288556589
-0.3564126492 -0.1669296622 0.6606553793 4288622382
-0.3569499254 -0.1664461493 0.6616513133 4288688175
-0.3565597832 -0.1655298918 0.6609281301 4288622382
-0.3566329479 -0.1648293585 0.6610637307 4288753968
-0.3571696579 -0.1643418372 0.6620585918 4288951347
-0.3572423458 -0.1636395305 0.6621933579 4288885554
-0.3573147655 -0.1629368067 0.6623275280 4288622382
-0.3573868871 -0.1622336507 0.6624612212 4288753968
-0.3569944799 -0.1613202989 0.6617338657 4288622382
-0.3570659459 -0.1606172025 0.6618663073 4288622382
-0.3571371138 -0.1599136889 0.6619982719 4288556589
-0.3572080135 -0.1592097580 0.6621296406 4288490796
-0.3572786152 -0.1585054100 0.6622605324 4288556589
-0.3578136265 -0.1580058485 0.6632522345 4288490796
-0.3578837514 -0.1572997570 0.6633822322 4288556335
-0.3579536080 -0.1565932333 0.6635116935 4288490542
-0.3580231369 -0.1558863074 0.6636406183 4288490796
-0.3580923975 -0.1551789790 0.6637690067 4288490796
-0.3581613898 -0.1544712335 0.6638968587 4288425003
-0.3586952984 -0.1539627761 0.6648865342 4288556589
-0.3587637842 -0.1532532871 0.6650134921 4288688175
-0.3588320017 -0.1525433958 0.6651399136 4288688175
-0.3588998914 -0.1518331170 0.6652657986 4288227624
-0.3589675128 -0.1511224210 0.6653911471 4288227624
-0.3590348363 -0.1504113227 0.6655158997 4288161831
-0.3591018617 -0.1496998370 0.6656401753 4288161831
-0.3591685891 -0.1489879340 0.6657638550 4288227624
-0.3587690890 -0.1480833292 0.6650233269 4288227624
-0.3583691418 -0.1471801847 0.6642819643 4288227624
-0.3584348261 -0.1464689672 0.6644037366 4288227624
-0.3585002124 -0.1457573473 0.6645249128 4288161577
-0.3585653007 -0.1450453401 0.6646456122 4288095784
-0.3586301208 -0.1443329602 0.6647657156 4288095784
-0.3586946130 -0.1436201781 0.6648852825 4288161577
-0.3587588072 -0.1429070234 0.6650043130 4288095784
-0.3588227332 -0.1421934813 0.6651227474 4288029991
-0.3588863313 -0.1414795518 0.6652406454 4287964198
-0.3589496613 -0.1407652497 0.6653580070 4287964198
-0.3590126634 -0.1400505751 0.6654748321 4287767589
-0.3590753675 -0.1393355280 0.6655910611 4287701796
-0.3591378033 -0.1386200935 0.6657067537 4287636003
-0.3591999114 -0.1379043013 0.6658219099 4287636003
-0.3592617214 -0.1371881217 0.6659365296 4287833382
-0.3593232334 -0.1364715844 0.6660505533 4288030761
-0.3593844771 -0.1357546747 0.6661639810 4288162347
-0.3594453633 -0.1350374073 0.6662769318 4288162347
-0.3595059812 -0.1343197674 0.6663892865 4288293163
-0.3595663011 -0.1336017698 0.6665010452 4288293163
-0.3596262932 -0.1328834146 0.6666122675 4288293163
-0.3596859872 -0.1321647018 0.6667229533 4288293163
-0.3597453833 -0.1314456165 0.6668330431 4288358956
-0.3598044813 -0.1307261884 0.6669425964 4288424749
-0.3598632812 -0.1300064176 0.6670515537 4288490796
-0.3599217534 -0.1292862743 0.6671599150 4288490796
-0.3599799275 -0.1285657883 0.6672677994 4288688175
-0.3595696092 -0.1276787072 0.6665071845 4288753968
-0.3596270978 -0.1269584596 0.6666137576 4288753968
-0.3596842885 -0.1262378842 0.6667197347 4288753968
-0.3597411513 -0.1255169511 0.6668251753 4288753968
-0.3597977161 -0.1247956753 0.6669300199 4288753968
-0.3598539829 -0.1240740642 0.6670342684 4288819761
-0.3603785634 -0.1235127300 0.6680066586 4288819761
-0.3599655628 -0.1226298362 0.6672411561 4288688175
-0.3600208759 -0.1219072193 0.6673436761 4288622382
-0.3600758910 -0.1211842671 0.6674456596 4288622382
-0.3601306081 -0.1204609871 0.6675470471 4288556589
-0.3597160280 -0.1195814684 0.6667785645 4288359726
-0.3593009710 -0.1187035069 0.6660092473 4288293933
-0.3593545854 -0.1179811358 0.6661086679 4288228140
-0.3594079316 -0.1172584370 0.6662074924 4288096554
-0.3589916527 -0.1163832843 0.6654359102 4288031274
-0.3590442836 -0.1156608909 0.6655334234 4287899688
-0.3590965867 -0.1149381772 0.6656304002 4287833641
-0.3586791158 -0.1140658483 0.6648565531 4287702055
-0.3587307632 -0.1133434549 0.6649522781 4287571239
-0.3587820530 -0.1126207560 0.6650473475 4287571239
-0.3597724140 -0.1121906638 0.6668831110 4287571239
-0.3598232269 -0.1114654541 0.6669772863 4287439653
-0.3598737121 -0.1107399315 0.6670708656 4287439651
-0.3594540358 -0.1098704860 0.6662929654 4287373858
-0.3595038354 -0.1091453061 0.6663852334 4287373858
-0.3595533073 -0.1084198281 0.6664769650 4287439651
-0.3591324091 -0.1075532734 0.6656967998 4287374371
-0.3591811955 -0.1068281457 0.6657872200 4287242785
-0.3587594628 -0.1059638411 0.6650055051 4287176992
-0.3588075638 -0.1052390784 0.6650946140 4287176992
-0.3583849967 -0.1043770462 0.6643114090 4287045406
-0.3584324121 -0.1036526561 0.6643992066 4287045406
-0.3580090404 -0.1027929038 0.6636144519 4287045665
-0.3585262299 -0.1022030115 0.6645731330 4287045665
-0.3585726619 -0.1014777645 0.6646592617 4287045665
-0.3581481576 -0.1006200165 0.6638723612 4286979872
-0.3581939042 -0.0998951644 0.6639571190 4286914079
-0.3577685654 -0.0990397185 0.6631687284 4286848286
-0.3578136265 -0.0983152688 0.6632522345 4286717985
-0.3578583300 -0.0975905433 0.6633351445 4286652192
-0.3579027355 -0.0968655497 0.6634174585 4286652192
-0.3579468131 -0.0961402804 0.6634991765 4286586399
-0.3575195372 -0.0952892080 0.6627071500 4286520606
-0.3575629294 -0.0945643634 0.6627875566 4286520606
-0.3580771387 -0.0939628929 0.6637406945 4286455327
-0.3581199348 -0.0932365730 0.6638200283 4286455327
-0.3581624031 -0.0925099924 0.6638987660 4286521120
-0.3582045734 -0.0917831585 0.6639769077 4286521120
-0.3577750325 -0.0909362510 0.6631807089 4286455327
-0.3573450446 -0.0900910050 0.6623836756 4286389534
-0.3573861122 -0.0893653259 0.6624597907 4286323741
-0.3569553196 -0.0885224491 0.6616612673 4286323741
-0.3569957018 -0.0877972245 0.6617361307 4286324254
-0.3570357561 -0.0870717615 0.6618103981 4286390047
-0.3575471938 -0.0864601135 0.6627583504 4286521633
-0.3566431403 -0.0855069906 0.6610826254 4286455840
-0.3562103808 -0.0846696123 0.6602804065 4286455841
-0.3562490344 -0.0839451030 0.6603520513 4286521634
-0.3562873602 -0.0832203552 0.6604231000 4286455841
-0.3563253582 -0.0824953765 0.6604935527 4286390048
-0.3558910489 -0.0816618651 0.6596884727 4286258976
-0.3554562926 -0.0808300450 0.6588826180 4286324769
-0.3554932177 -0.0801062956 0.6589511037 4286259489
-0.3555298448 -0.0793823302 0.6590189338 4286193696
-0.3555661142 -0.0786581412 0.6590862274 4286193698
-0.3551298380 -0.0778302327 0.6582775116 4286259491
-0.3551654220 -0.0771065652 0.6583434343 4286325284
-0.3547283411 -0.0762811080 0.6575332880 4286391077
-0.3547632098 -0.0755579695 0.6575979590 4286391334
-0.3547977805 -0.0748346224 0.6576620340 4286325541
-0.3543595374 -0.0740123764 0.6568496823 4286391334
-0.3539208770 -0.0731918588 0.6560365558 4286391334
-0.3534817994 -0.0723730549 0.6552226543 4286326311
-0.3535149097 -0.0716517717 0.6552841067 4286392104
-0.3530750573 -0.0708354563 0.6544687152 4286392104
-0.3531074822 -0.0701147318 0.6545288563 4286326311
-0.3526668549 -0.0693009198 0.6537120938 4286326311
-0.3526985943 -0.0685807690 0.6537709236 4286392104
-0.3522571623 -0.0677694529 0.6529526711 4286326824
-0.3518153429 -0.0669598877 0.6521337032 4286326824
-0.3518460095 -0.0662410930 0.6521905661 4286326570
-0.3523493111 -0.0656101853 0.6531234980 4286392363
-0.3523793817 -0.0648900494 0.6531791687 4286327340
-0.3519360721 -0.0640836060 0.6523574591 4286393133
-0.3514923751 -0.0632789060 0.6515350342 4286393133
-0.3510482609 -0.0624759682 0.6507118344 4286393133
-0.3510769010 -0.0617580190 0.6507648826 4286132014
-0.3506320119 -0.0609576292 0.6499402523 4286132014
-0.3501867354 -0.0601590052 0.6491149068 4286197294
-0.3497410715 -0.0593621470 0.6482887864 4286197294
-0.3488216996 -0.0584876984 0.6465845704 4286262573
-0.3493218422 -0.0578521267 0.6475116611 4286262573
-0.3488750160 -0.0570596121 0.6466833949 4286262319
-0.3489011824 -0.0563453287 0.6467319131 4286262319
-0.3484535813 -0.0555553995 0.6459022164 4286131503
-0.3480055928 -0.0547672547 0.6450718045 4286065710
-0.3475571871 -0.0539808907 0.6442406774 4286065710
-0.3471084237 -0.0531963147 0.6434088349 4286065710
-0.3471328318 -0.0524851307 0.6434540749 4286196526
-0.3471569121 -0.0517738014 0.6434986591 4286262319
-0.3471806645 -0.0510623194 0.6435427070 4286459441
-0.3467304111 -0.0502820052 0.6427081227 4286459441
-0.3462797701 -0.0495034903 0.6418728232 4286524721
-0.3458287418 -0.0487267748 0.6410368085 4286327342
-0.3453773558 -0.0479518622 0.6402000785 4286393135
-0.3444517553 -0.0471139513 0.6384843588 4286524721
-0.3444733620 -0.0464074649 0.6385244131 4286656307
-0.3444946706 -0.0457008407 0.6385639310 4286722100
-0.3440417647 -0.0449322015 0.6377243400 4287116088
-0.3440623581 -0.0442262925 0.6377626061 4287379260
-0.3436087370 -0.0434603170 0.6369217038 4287970366
-0.3431546986 -0.0426961593 0.6360800862 4288628296
-0.3431742787 -0.0419918261 0.6361164451 4289022797
-0.3422455192 -0.0411733203 0.6343948245 4288693832
-0.3417903483 -0.0404146425 0.6335511208 4288167488
-0.3418088853 -0.0397128761 0.6335855126 4287904316
-0.3418271244 -0.0390109979 0.6336192489 4287706937
-0.3413708806 -0.0382558741 0.6327735782 4287443765
-0.3409142792 -0.0375025868 0.6319271922 4287245105
-0.3414056599 -0.0368535146 0.6328380704 4287179312
-0.3414225578 -0.0361521728 0.6328693628 4287114800
-0.3404906988 -0.0353522599 0.6311420798 4287443765
-0.3405069113 -0.0346526653 0.6311721206 4287773241
-0.3400485516 -0.0339056849 0.6303224564 4288167999
-0.3395898044 -0.0331605524 0.6294721365 4288167745
-0.3391306996 -0.0324172787 0.6286211014 4287970366
-0.3386712074 -0.0316758640 0.6277694106 4287706683
-0.3382113874 -0.0309363045 0.6269170642 4287311925
-0.3377511799 -0.0301986095 0.6260640621 4287508277
-0.3377650380 -0.0295042153 0.6260896921 4287442484
-0.3373041451 -0.0287692752 0.6252353787 4287179312
-0.3363684714 -0.0279967152 0.6235009432 4287508277
-0.3359068334 -0.0272664893 0.6226452589 4287706426
-0.3349703848 -0.0265006013 0.6209094524 4287509047
-0.3354569972 -0.0258482210 0.6218114495 4287314746
-0.3345198333 -0.0250870604 0.6200742722 4287643711
-0.3345313072 -0.0243989509 0.6200955510 4287122767
-0.3340679407 -0.0236771386 0.6192366481 4289293936
-0.3336042166 -0.0229572114 0.6183770895 4290748582
-0.3321910203 -0.0221758112 0.6157575250 4291801270
-0.3030471504 -0.2404185236 0.5628946424 4288490291
-0.3049201369 -0.2412751317 0.5663735867 4288426295
-0.3045741618 -0.2403728068 0.5657309294 4288294709
-0.3051159978 -0.2401707470 0.5667373538 4288490291
-0.3052136600 -0.2396177500 0.5669188499 4289016635
-0.3048667908 -0.2387162447 0.5662744641 4289345342
-0.3054085672 -0.2385101616 0.5672808290 4289608514
-0.3055057526 -0.2379555851 0.5674613714 4288491573
-0.3064924479 -0.2380915880 0.5692940950 4288491573
-0.3065896034 -0.2375343293 0.5694745183 4289412675
-0.3071317077 -0.2373204827 0.5704814792 4289807433
-0.3072286546 -0.2367613614 0.5706615448 4289609025
-0.3077708483 -0.2365440130 0.5716686249 4289082681
-0.3083131313 -0.2363245338 0.5726759434 4288358956
-0.3088555634 -0.2361028939 0.5736834407 4288358956
-0.3093980551 -0.2358790934 0.5746911168 4289872195
-0.3090487719 -0.2349749953 0.5740423203 4290332746
-0.3095912337 -0.2347485125 0.5750499368 4290069576
-0.3096875548 -0.2341824323 0.5752288103 4289411646
-0.3111228347 -0.2346256822 0.5778948069 4288819511
-0.3107727170 -0.2337202877 0.5772444606 4288885304
-0.3122087419 -0.2341559529 0.5799118280 4289279549
-0.3127518296 -0.2339178324 0.5809205770 4289476928
-0.3129442334 -0.2327700406 0.5812779069 4289542721
-0.3139345348 -0.2328587621 0.5831174254 4289279547
-0.3140305579 -0.2322818935 0.5832957625 4288753203
-0.3150213361 -0.2323646247 0.5851360559 4288555824
-0.3160125017 -0.2324435413 0.5869770646 4288555824
-0.3165562749 -0.2321902215 0.5879871249 4288621617
-0.3171001077 -0.2319347113 0.5889973044 4288621617
-0.3176440597 -0.2316770256 0.5900076628 4288752690
-0.3186362386 -0.2317430973 0.5918505788 4288884276
-0.3191804886 -0.2314802110 0.5928614736 4288884276
-0.3201732337 -0.2315394282 0.5947054625 4288818483
-0.3207177818 -0.2312713414 0.5957169533 4288818483
-0.3217111230 -0.2313236892 0.5975619555 4288818483
-0.3213582933 -0.2304068059 0.5969066620 4288818483
-0.3219029605 -0.2301329821 0.5979183316 4288818483
-0.3233458698 -0.2304972261 0.6005984545 4288884276
-0.3229924738 -0.2295787334 0.5999420285 4288950069
-0.3239867091 -0.2296167910 0.6017887592 4289015862
-0.3249812722 -0.2296509892 0.6036361456 4288950069
-0.3246273100 -0.2287309021 0.6029786468 4288949551
-0.3256221414 -0.2287598550 0.6048265100 4288949551
-0.3261674345 -0.2284698039 0.6058393717 4288949551
-0.3258127570 -0.2275489569 0.6051805615 4288949551
-0.3263579011 -0.2272561789 0.6061931849 4289015344
-0.3264528513 -0.2266485542 0.6063694954 4289212723
-0.3269979954 -0.2263521999 0.6073820591 4289147702
-0.3270926476 -0.2257426828 0.6075579524 4289081909
-0.3276377916 -0.2254427522 0.6085705161 4289147961
-0.3281829953 -0.2251406014 0.6095831394 4289016375
-0.3287282586 -0.2248362452 0.6105959415 4289016375
-0.3292735517 -0.2245296687 0.6116088033 4289082168
-0.3293677270 -0.2239141464 0.6117837429 4289082681
-0.3303643167 -0.2239098698 0.6136348844 4289082681
-0.3300068974 -0.2229865640 0.6129710078 4289280062
-0.3310037255 -0.2229770273 0.6148225665 4289543234
-0.3315491676 -0.2226602137 0.6158356667 4289280325
-0.3316428363 -0.2220386714 0.6160096526 4288951360
-0.3312843144 -0.2211149633 0.6153436899 4288434260
-0.3318295181 -0.2207940221 0.6163563728 4291394945
-0.3323747516 -0.2204708755 0.6173691154 4292853182
-0.3329200149 -0.2201454937 0.6183819175 4294958815
-0.3325603902 -0.2192213833 0.6177139878 4294896371
-0.3335580826 -0.2191906720 0.6195671558 4294965247
-0.3350088000 -0.2194525898 0.6222617626 4294966271
-0.3346486688 -0.2185260504 0.6215928197 4294833917
-0.3351939917 -0.2181903869 0.6226057410 4294702583
-0.3357393742 -0.2178525180 0.6236187816 4294965755
-0.3362847865 -0.2175123990 0.6246318221 4294638330
-0.3363768756 -0.2168777585 0.6248028874 4294572537
-0.3369221985 -0.2165340483 0.6258158088 4294900223
-0.3365603983 -0.2156069428 0.6251437664 4294702844
-0.3371055424 -0.2152604610 0.6261563301 4294900991
-0.3371968865 -0.2146228999 0.6263260245 4294835198
-0.3377419710 -0.2142728120 0.6273384690 4294963447
-0.3378329873 -0.2136333436 0.6275075078 4293187036
-0.3383779526 -0.2132796496 0.6285198331 4291930546
-0.3389229774 -0.2129237205 0.6295321584 4290285721
-0.3390135765 -0.2122809887 0.6297004223 4290410626
-0.3395584822 -0.2119214386 0.6307125688 4290015868
-0.3401034176 -0.2115596384 0.6317247748 4290867067
-0.3406483829 -0.2111956179 0.6327369809 4290538102
-0.3407384157 -0.2105482370 0.6329042315 4290408573
-0.3408282399 -0.2099003494 0.6330710649 4291198089
-0.3413729668 -0.2095313221 0.6340829134 4291138462
-0.3419177234 -0.2091600448 0.6350947618 4291927978
-0.3415516913 -0.2082312405 0.6344148517 4291604922
-0.3416407108 -0.2075804472 0.6345801950 4292394438
-0.3421851099 -0.2072050422 0.6355913877 4292922581
-0.3422737718 -0.2065523565 0.6357560754 4293383132
-0.3423621953 -0.2058991790 0.6359203458 4294041834
-0.3429063857 -0.2055187672 0.6369311213 4294765557
-0.3429944515 -0.2048636973 0.6370947361 4294963450
-0.3430823088 -0.2042081207 0.6372578740 4294963707
-0.3431698978 -0.2035520524 0.6374205947 4294964220
-0.3437137306 -0.2031652778 0.6384307146 4294964220
-0.3438009620 -0.2025073171 0.6385927200 4294570229
-0.3443446457 -0.2021169215 0.6396026015 4294109678
-0.3444315195 -0.2014570981 0.6397640109 4293780198
-0.3449750841 -0.2010630667 0.6407735944 4293188061
-0.3450616002 -0.2004013658 0.6409342885 4292462030
-0.3456050158 -0.2000037283 0.6419436932 4291014584
-0.3456911445 -0.1993401498 0.6421036720 4290354601
-0.3462344110 -0.1989388764 0.6431127787 4290091429
-0.3463201821 -0.1982734352 0.6432721019 4290814634
-0.3468632996 -0.1978685409 0.6442809105 4290748841
-0.3464909792 -0.1969410777 0.6435893178 4290944421
-0.3465760052 -0.1962741464 0.6437472701 4290878628
-0.3466607928 -0.1956067383 0.6439047456 4291533220
-0.3467453122 -0.1949388385 0.6440617442 4291138462
-0.3468295932 -0.1942704469 0.6442183256 4290543495
-0.3473719060 -0.1938573271 0.6452255845 4289556600
-0.3474557996 -0.1931870729 0.6453814507 4289552488
-0.3475394547 -0.1925163418 0.6455368400 4288697179
-0.3476228416 -0.1918451339 0.6456916928 4288496203
-0.3481647074 -0.1914256513 0.6466981769 4287969859
-0.3482477069 -0.1907525808 0.6468523741 4288032311
-0.3487893939 -0.1903294772 0.6478585005 4287900725
-0.3488720059 -0.1896545589 0.6480119228 4288293684
-0.3494135141 -0.1892278194 0.6490177512 4288425270
-0.3494957089 -0.1885510683 0.6491704583 4288294446
-0.3495776355 -0.1878738254 0.6493226290 4288623411
