VERSION 0.7
FIELDS x y z rgba
SIZE 4 4 4 4
TYPE F F F U
COUNT 1 1 1 1
WIDTH 920
HEIGHT 1
VIEWPOINT 0.0 0.0 0.0 1.0 0.0 0.0 0.0
POINTS 920
DATA ascii
-0.3125525415 -0.1774959713 0.6134550571 4288422950
-0.3130669296 -0.1771053672 0.6144646406 4288488743
-0.3127016723 -0.1762168258 0.6137477756 4288488743
-0.3132157922 -0.1758235097 0.6147568226 4288488743
-0.3132898808 -0.1751818955 0.6149022579 4288488743
-0.3129236102 -0.1742946804 0.6141833663 4288554536
-0.3129971027 -0.1736530662 0.6143276095 4288554536
-0.3130703866 -0.1730109900 0.6144714355 4288488743
-0.3131434023 -0.1723684669 0.6146147847 4288554536
-0.3132162094 -0.1717254966 0.6147576571 4288620329
-0.3132887483 -0.1710820794 0.6149000525 4288554536
-0.3138017952 -0.1706779301 0.6159070134 4288488743
-0.3138739765 -0.1700327247 0.6160486937 4288488743
-0.3139459193 -0.1693870574 0.6161898971 4288488743
-0.3140176237 -0.1687409580 0.6163306236 4288488743
-0.3140890896 -0.1680944115 0.6164708734 4288555048
-0.3141602874 -0.1674474180 0.6166106462 4288489255
-0.3142312765 -0.1667999923 0.6167499423 4288489255
-0.3143019974 -0.1661521345 0.6168887615 4288489255
-0.3139309287 -0.1652713865 0.6161604524 4288489000
-0.3135594428 -0.1643920243 0.6154313684 4288489000
-0.3136292398 -0.1637446731 0.6155683398 4288489000
-0.3136987984 -0.1630968899 0.6157048345 4288489000
-0.3137681186 -0.1624486893 0.6158409119 4288422950
-0.3138371706 -0.1618000418 0.6159764528 4288422950
-0.3139059842 -0.1611509770 0.6161115170 4288488743
-0.3139745593 -0.1605014950 0.6162461042 4288488743
-0.3140428960 -0.1598515809 0.6163802147 4288488743
-0.3141109645 -0.1592012346 0.6165137887 4288488743
-0.3146212995 -0.1587737799 0.6175154448 4288488743
-0.3146889806 -0.1581216902 0.6176482439 4288488743
-0.3147563934 -0.1574691683 0.6177806258 4288554793
-0.3148235679 -0.1568162292 0.6179124713 4288554793
-0.3153333664 -0.1563825160 0.6189130545 4288554793
-0.3154001236 -0.1557278186 0.6190441251 4288554793
-0.3159097135 -0.1552905142 0.6200442910 4288489000
-0.3159760833 -0.1546340734 0.6201745272 4288489000
-0.3160421848 -0.1539772153 0.6203042269 4288554793
-0.3161080182 -0.1533199549 0.6204335093 4288423207
-0.3161736131 -0.1526622772 0.6205622554 4288555048
-0.3166824877 -0.1522173733 0.6215609908 4288686634
-0.3167476654 -0.1515579671 0.6216889024 4288818220
-0.3168125749 -0.1508981436 0.6218163371 4288884013
-0.3168772161 -0.1502379179 0.6219432354 4288949806
-0.3169416189 -0.1495772898 0.6220696568 4288884013
-0.3174497485 -0.1491248161 0.6230669618 4288752427
-0.3175137341 -0.1484624594 0.6231925488 4288686634
-0.3175774515 -0.1477997005 0.6233175993 4288686122
-0.3176409006 -0.1471365541 0.6234421134 4288686122
-0.3177041113 -0.1464729905 0.6235661507 4288751915
-0.3177670538 -0.1458090544 0.6236897111 4288751915
-0.3178297281 -0.1451447010 0.6238126755 4288751915
-0.3178921342 -0.1444799751 0.6239352226 4288751915
-0.3183989823 -0.1440159827 0.6249299645 4288751915
-0.3184609413 -0.1433495432 0.6250516176 4288751915
-0.3189675212 -0.1428819895 0.6260458827 4288817708
-0.3194740117 -0.1424121708 0.6270399690 4288817708
-0.3195353448 -0.1417427063 0.6271603703 4288817708
-0.3195964396 -0.1410728544 0.6272802949 4288817708
-0.3196572661 -0.1404026151 0.6273996830 4288817708
-0.3197178245 -0.1397319883 0.6275185347 4288817708
-0.3197780848 -0.1390609890 0.6276368499 4288752172
-0.3198381066 -0.1383896023 0.6277546287 4288752172
-0.3198978603 -0.1377178431 0.6278719306 4288883758
-0.3199573457 -0.1370457113 0.6279886961 4288883758
-0.3200165629 -0.1363732070 0.6281048656 4288883758
-0.3200755119 -0.1357003301 0.6282205582 4288883758
-0.3201341927 -0.1350270808 0.6283357143 4288817965
-0.3206385374 -0.1345405877 0.6293256283 4288752172
-0.3211427629 -0.1340518445 0.6303153634 4288817708
-0.3212007880 -0.1333756000 0.6304292083 4288949294
-0.3212585449 -0.1326990128 0.6305425763 4288883501
-0.3213160336 -0.1320220381 0.6306553483 4288883501
-0.3213732243 -0.1313447207 0.6307676435 4288883500
-0.3218765855 -0.1308485121 0.6317555904 4288817707
-0.3219333291 -0.1301695257 0.6318669319 4288686121
-0.3219897747 -0.1294901818 0.6319777369 4288686121
-0.3220459521 -0.1288104802 0.6320880055 4288751914
-0.3216551244 -0.1279527098 0.6313208938 4288751914
-0.3221574724 -0.1274500191 0.6323069334 4288817707
-0.3222128451 -0.1267692596 0.6324155927 4288817707
-0.3222679198 -0.1260881424 0.6325236559 4288817708
-0.3223226964 -0.1254066825 0.6326311827 4288817708
-0.3232714534 -0.1250708550 0.6344933510 4288948524
-0.3233258426 -0.1243868098 0.6346001029 4288948524
-0.3238272369 -0.1238735169 0.6355841756 4288882730
-0.3238811493 -0.1231878400 0.6356899738 4288882730
-0.3239347637 -0.1225018203 0.6357952356 4288882730
-0.3244355917 -0.1219837144 0.6367782354 4288882730
-0.3249363005 -0.1214633733 0.6377609968 4288816937
-0.3249891996 -0.1207744405 0.6378648281 4288882730
-0.3250418603 -0.1200851724 0.6379681230 4288948523
-0.3250941932 -0.1193955690 0.6380708814 4288882730
-0.3251462579 -0.1187056378 0.6381731033 4288882730
-0.3251980543 -0.1180153713 0.6382747293 4288948523
-0.3252495229 -0.1173247769 0.6383757591 4288949293
-0.3253007531 -0.1166338548 0.6384763122 4288949293
-0.3253516555 -0.1159426123 0.6385762095 4288883500
-0.3254022896 -0.1152510419 0.6386756301 4288883500
-0.3254526556 -0.1145591438 0.6387744546 4289015086
-0.3255026937 -0.1138669327 0.6388726830 4289015086
-0.3255524933 -0.1131744012 0.6389703751 4288883501
-0.3260504603 -0.1126364917 0.6399477720 4288883501
-0.3260997236 -0.1119423732 0.6400444508 4288817965
-0.3261486888 -0.1112479419 0.6401405334 4288817965
-0.3257486820 -0.1104011312 0.6393554211 4288883758
-0.3257969916 -0.1097070351 0.6394503117 4288949551
-0.3253962100 -0.1088624746 0.6386636496 4288949551
-0.3258927763 -0.1083179191 0.6396383047 4288949551
-0.3259402215 -0.1076228991 0.6397314072 4288949551
-0.3259873986 -0.1069275811 0.6398239732 4288883758
-0.3260342479 -0.1062319651 0.6399159431 4289014316
-0.3256316781 -0.1053906754 0.6391258240 4289080109
-0.3256779015 -0.1046954170 0.6392165422 4289015086
-0.3261730969 -0.1041433141 0.6401884556 4289015086
-0.3262187839 -0.1034465134 0.6402781606 4288949806
-0.3262642026 -0.1027494147 0.6403672695 4288949806
-0.3263092935 -0.1020520255 0.6404557824 4288883758
-0.3259045780 -0.1012147442 0.6396614313 4288883758
-0.3254994452 -0.1003791019 0.6388663054 4288752172
-0.3250938952 -0.0995450914 0.6380703449 4288752172
-0.3246879280 -0.0987127274 0.6372734904 4288556076
-0.3242815733 -0.0978820100 0.6364759207 4288556076
-0.3243245780 -0.0971877351 0.6365603805 4288556076
-0.3234675527 -0.0962255150 0.6348782182 4288621869
-0.3235098720 -0.0955326185 0.6349613070 4288687662
-0.3231019080 -0.0947075486 0.6341605783 4288621869
-0.3226935267 -0.0938841328 0.6333590150 4288162608
-0.3222847283 -0.0930623859 0.6325566769 4288096815
-0.3227758706 -0.0925003216 0.6335206628 4287834413
-0.3228166103 -0.0918080211 0.6336005926 4287702827
-0.3224067688 -0.0909883752 0.6327961683 4287505705
-0.3215461373 -0.0900442973 0.6311070323 4287505705
-0.3215858340 -0.0893541127 0.6311849356 4287702827
-0.3216252029 -0.0886636749 0.6312621832 4287834413
-0.3216643035 -0.0879729912 0.6313388944 4288031537
-0.3212525249 -0.0871598050 0.6305307150 4288163123
-0.3208403289 -0.0863483101 0.6297217011 4288229429
-0.3204277456 -0.0855385065 0.6289119124 4288229429
-0.3204654753 -0.0848497301 0.6289860010 4288098356
-0.3200521469 -0.0840423480 0.6281747222 4287900977
-0.3205400705 -0.0834714547 0.6291323900 4287637805
-0.3201260567 -0.0826655328 0.6283197403 4287440426
-0.3201625347 -0.0819767714 0.6283913851 4287506733
-0.3197477460 -0.0811732784 0.6275773048 4287375147
-0.3197836280 -0.0804850236 0.6276476979 4287375149
-0.3198191822 -0.0797965303 0.6277174354 4287572528
-0.3194032907 -0.0789962411 0.6269012094 4287638834
-0.3189870119 -0.0781976581 0.6260842085 4287836213
-0.3190215826 -0.0775104314 0.6261520386 4287968569
-0.3190558553 -0.0768229812 0.6262192726 4288100155
-0.3190898299 -0.0761353150 0.6262859702 4288231998
-0.3186721206 -0.0753407106 0.6254661083 4288166205
-0.3187054396 -0.0746535808 0.6255314946 4288100414
-0.3182870150 -0.0738614649 0.6247102022 4287837242
-0.3183196783 -0.0731748790 0.6247743964 4287442484
-0.3179005086 -0.0723852664 0.6239516139 4287179312
-0.3174809217 -0.0715973899 0.6231281161 4287114289
-0.3175126314 -0.0709121302 0.6231903434 4287114289
-0.3170923293 -0.0701267645 0.6223654151 4286917682
-0.3171233833 -0.0694420785 0.6224263310 4286983475
-0.3167023361 -0.0686592385 0.6215999722 4287115061
-0.3167327642 -0.0679751188 0.6216596961 4287180854
-0.3163110018 -0.0671948195 0.6208318472 4287115575
-0.3158888519 -0.0664162710 0.6200033426 4287115575
-0.3154663146 -0.0656394884 0.6191740036 4287050036
-0.3150434196 -0.0648644716 0.6183439493 4286984243
-0.3150721788 -0.0641833022 0.6184003949 4286984500
-0.3146485388 -0.0634108409 0.6175689101 4286984500
-0.3142245114 -0.0626401529 0.6167367101 4286984500
-0.3133479655 -0.0617820844 0.6150162816 4286984500
-0.3133753836 -0.0611041002 0.6150700450 4286919731
-0.3134024739 -0.0604259409 0.6151232123 4286788145
-0.3129769862 -0.0596613847 0.6142881513 4286722352
-0.3125511408 -0.0588986203 0.6134523153 4286788145
-0.3121249080 -0.0581376404 0.6126157641 4287050293
-0.3121507168 -0.0574617274 0.6126663685 4287247672
-0.3117237687 -0.0567033514 0.6118284464 4287182649
-0.3117489517 -0.0560280867 0.6118777990 4287314235
-0.3108687997 -0.0551919863 0.6101503372 4287380028
-0.3108932972 -0.0545183606 0.6101984382 4287314235
-0.3100123405 -0.0536878258 0.6084693670 4287183675
-0.3095835745 -0.0529384539 0.6076278090 4287249468
-0.3091544211 -0.0521908887 0.6067854762 4287052603
-0.3087249398 -0.0514451340 0.6059424877 4286789431
-0.3082950711 -0.0507011935 0.6050987840 4286658358
-0.3074120879 -0.0498856008 0.6033657789 4286724151
-0.3065286875 -0.0490737893 0.6016318798 4286527542
-0.3065504730 -0.0484087765 0.6016746759 4286264370
-0.3065719903 -0.0477436185 0.6017168760 4285869869
-0.3061403036 -0.0470087864 0.6008695960 4285672490
-0.3057082891 -0.0462757796 0.6000216603 4285475628
-0.3048229814 -0.0454770327 0.5982840657 4285278249
-0.3048431873 -0.0448152646 0.5983237028 4285409320
-0.3044101000 -0.0440877602 0.5974736810 4285409320
-0.3044296801 -0.0434267186 0.5975120664 4285605670
-0.3039959073 -0.0427019112 0.5966607332 4285737256
-0.3035618067 -0.0419789441 0.5958086848 4286064683
-0.3040335476 -0.0413811654 0.5967345834 4286064683
-0.3031456769 -0.0405992419 0.5949919224 4286523949
-0.3027105331 -0.0398808345 0.5941379070 4286589742
-0.3018218875 -0.0391055681 0.5923936963 4287510069
-0.2995731831 -0.0381609276 0.5879801512 4288102206
-0.2986836731 -0.0373962671 0.5862342715 4287640629
-0.2977937460 -0.0366354398 0.5844875574 4286916906
-0.2969034314 -0.0358784460 0.5827401280 4287179053
-0.2955594361 -0.0350714959 0.5801022649 4287113260
-0.2951216698 -0.0343759730 0.5792430043 4286980389
-0.2942302227 -0.0336304978 0.5774933696 4286783010
-0.2946985364 -0.0330413692 0.5784125328 4287244846
-0.2947131991 -0.0324003249 0.5784413218 4288165948
-0.2947275937 -0.0317591839 0.5784695148 4288166205
-0.2947416902 -0.0311179515 0.5784972310 4287639861
-0.2929416001 -0.0302890781 0.5749641657 4287114285
-0.2929550409 -0.0296516120 0.5749905705 4287114285
-0.2934217155 -0.0290589724 0.5759064555 4286916908
-0.2916204929 -0.0282446425 0.5723711252 4286916908
-0.2925401032 -0.0276957620 0.5741761327 4287838269
-0.2925523818 -0.0270589478 0.5742002130 4288430406
-0.2925643921 -0.0264220536 0.5742237568 4287772730
-0.2921224833 -0.0257451050 0.5733564496 4288496453
-0.2921338975 -0.0251090452 0.5733788610 4288561217
-0.3973032832 -0.3685199618 0.7815012336 4289875283
-0.2657983601 -0.2459612340 0.5228291154 4287834413
-0.2671464086 -0.2466248125 0.5254807472 4287637034
-0.2655676603 -0.2445869595 0.5223753452 4288820539
-0.2652427554 -0.2437080145 0.5217362046 4289346883
-0.2649174035 -0.2428301126 0.5210962892 4290071122
-0.2645916343 -0.2419532388 0.5204554796 4290268501
-0.2651030421 -0.2418415248 0.5214614272 4290333524
-0.2660335898 -0.2421090007 0.5232918262 4288557113
-0.2657073140 -0.2412313521 0.5226500630 4288096302
-0.2649613619 -0.2399750501 0.5211827159 4287833130
-0.2667310238 -0.2409949005 0.5246636868 4288754232
-0.2676626742 -0.2412516773 0.5264962912 4290333264
-0.2681750953 -0.2411274314 0.5275042057 4289280577
-0.2682678401 -0.2406245321 0.5276866555 4288556854
-0.2687804401 -0.2404968888 0.5286949277 4288622646
-0.2705535293 -0.2414921075 0.5321826339 4288622646
-0.2719073892 -0.2421063036 0.5348457098 4288819509
-0.2732619941 -0.2427152097 0.5375102162 4289148474
-0.2725145817 -0.2414557785 0.5360400081 4289280062
-0.2747112811 -0.2428017557 0.5403609872 4289082683
-0.2781718075 -0.2452523708 0.5471678972 4288885304
-0.2765827477 -0.2432468981 0.5440422297 4288885304
-0.2817303538 -0.2471583486 0.5541676283 4288687925
-0.2835111618 -0.2481009960 0.5576704144 4288424753
-0.2852929235 -0.2490367293 0.5611752272 4288358960
-0.2828602195 -0.2462949902 0.5563900471 4288424753
-0.2863293290 -0.2486898899 0.5632138848 4288621619
-0.2876914144 -0.2492441684 0.5658931136 4288555826
-0.2890542150 -0.2497931123 0.5685737133 4288490033
-0.2895734608 -0.2496089637 0.5695950985 4288292654
-0.2900928557 -0.2494226843 0.5706167221 4288226861
-0.2901899815 -0.2488719821 0.5708077550 4288490033
-0.2902869284 -0.2483207285 0.5709985495 4288424240
-0.2899610698 -0.2474082559 0.5703575611 4288226861
-0.2896347940 -0.2464968562 0.5697157383 4288095788
-0.2888850868 -0.2452274561 0.5682410598 4288227374
-0.2881346941 -0.2439607382 0.5667650104 4288687923
-0.2882300615 -0.2434115708 0.5669525862 4289411646
-0.2883252800 -0.2428618520 0.5671398640 4289806404
-0.2884203494 -0.2423115820 0.5673269033 4289740611
-0.2885152698 -0.2417607754 0.5675135851 4289674820
-0.2886100113 -0.2412094325 0.5676999688 4289872199
-0.2882806659 -0.2403041422 0.5670521855 4289871686
-0.2883749902 -0.2397525162 0.5672376752 4289805893
-0.2888933718 -0.2395521253 0.5682573318 4289740100
-0.2894118726 -0.2393495589 0.5692772269 4289542721
-0.2899304926 -0.2391448170 0.5702973604 4289345342
-0.2904492021 -0.2389379144 0.5713177323 4289213756
-0.2905432880 -0.2383803278 0.5715027452 4289213756
-0.2910621166 -0.2381698936 0.5725232959 4289279549
-0.2915810645 -0.2379572839 0.5735440850 4289345342
-0.2921001315 -0.2377424985 0.5745650530 4289345342
-0.2921939790 -0.2371802926 0.5747496486 4289410880
-0.2927131057 -0.2369619757 0.5757708549 4289345087
-0.2932323515 -0.2367414683 0.5767922401 4289279807
-0.2937517166 -0.2365187854 0.5778138041 4289345600
-0.2938453257 -0.2359519452 0.5779979229 4289345855
-0.2943647802 -0.2357257158 0.5790196657 4289148476
-0.2957365811 -0.2361779213 0.5817180276 4289082683
-0.2966827452 -0.2362851501 0.5835791826 4288885304
-0.2963500917 -0.2353725582 0.5829248428 4289148221
-0.2964435518 -0.2347988933 0.5831086636 4289214014
-0.2973901629 -0.2348987162 0.5849706531 4288951612
-0.2970567346 -0.2339861393 0.5843148232 4288885819
-0.2975767553 -0.2337453812 0.5853376389 4288754232
-0.2980968356 -0.2335024327 0.5863606930 4288820025
-0.2981898487 -0.2329235822 0.5865436196 4289017407
-0.2987099886 -0.2326770574 0.5875667930 4289017407
-0.2979478240 -0.2314322144 0.5860676169 4289083198
-0.2988953590 -0.2315149903 0.5879314542 4289083198
-0.2989878058 -0.2309331447 0.5881132483 4288951611
-0.2995079160 -0.2306803167 0.5891363025 4289148990
-0.2996001244 -0.2300965488 0.5893176794 4289214783
-0.3001202941 -0.2298401296 0.5903408527 4289083197
-0.3006405234 -0.2295815051 0.5913642049 4288885819
-0.3011608720 -0.2293206602 0.5923876762 4289148991
-0.3016812801 -0.2290576100 0.5934113264 4288951612
-0.3022017777 -0.2287923396 0.5944351554 4288885819
-0.3027223349 -0.2285248637 0.5954591036 4289018434
-0.3032429814 -0.2282551676 0.5964832306 4289018434
-0.3037637174 -0.2279832512 0.5975075364 4289742931
-0.3047136962 -0.2280302793 0.5993761420 4291650928
-0.3048053980 -0.2274327576 0.5995565057 4291588999
-0.3057557642 -0.2274736613 0.6014259458 4291194241
-0.3054178059 -0.2265547365 0.6007611156 4290206067
-0.3063684404 -0.2265903354 0.6026310325 4289679723
-0.3064597845 -0.2259881347 0.6028107405 4289090156
-0.3065509200 -0.2253853828 0.6029900312 4289353328
-0.3070719540 -0.2250973582 0.6040148735 4288960110
-0.3080232739 -0.2251215130 0.6058861017 4288499559
-0.3076838851 -0.2242010385 0.6052185893 4289089124
-0.3082049787 -0.2239071727 0.6062435508 4288431194
-0.3082955480 -0.2232991904 0.6064217091 4288234320
-0.3088166416 -0.2230017036 0.6074467301 4288365906
-0.3089069724 -0.2223917991 0.6076243520 4288761432
-0.3089970946 -0.2217813730 0.6078016162 4289353569
-0.3090870082 -0.2211704105 0.6079785228 4290863987
-0.3096079528 -0.2208665311 0.6090031862 4292508812
-0.3096975982 -0.2202536464 0.6091795564 4292389054
-0.3097870648 -0.2196402252 0.6093555093 4293639121
-0.3098763227 -0.2190262824 0.6095311046 4293905115
-0.3099653721 -0.2184118032 0.6097062826 4294234080
-0.3096224070 -0.2174934596 0.6090316772 4294565607
-0.3101429045 -0.2171812654 0.6100554466 4294960622
-0.3097992837 -0.2162635773 0.6093795896 4294960620
-0.3094552159 -0.2153470814 0.6087027788 4294960620
-0.3095430434 -0.2147316784 0.6088755131 4294959337
-0.3096306622 -0.2141157687 0.6090478897 4294695651
-0.3097180426 -0.2134993225 0.6092197895 4294626261
-0.3098052740 -0.2128823549 0.6093913317 4293310401
-0.3103250861 -0.2125613391 0.6104137897 4292184467
-0.3104119897 -0.2119424641 0.6105847955 4289157989
-0.3104987144 -0.2113230824 0.6107553840 4288494143
-0.3105852306 -0.2107031792 0.6109254956 4288362557
-0.3106715083 -0.2100827545 0.6110953093 4289476413
-0.3107576072 -0.2094618231 0.6112646461 4289147448
-0.3104099631 -0.2085490972 0.6105808020 4289015862
-0.3100618720 -0.2076375932 0.6098961234 4288818483
-0.3101471066 -0.2070168406 0.6100637913 4288817969
-0.3102321327 -0.2063955814 0.6102309823 4288883762
-0.3103169501 -0.2057738155 0.6103978157 4288752690
-0.3099674284 -0.2048646063 0.6097103357 4288555311
-0.3100517094 -0.2042426914 0.6098760962 4289015348
-0.3101357818 -0.2036202699 0.6100414395 4288949555
-0.3102196455 -0.2029973418 0.6102064252 4288949042
-0.3098686635 -0.2020904720 0.6095160842 4288949042
-0.3099519908 -0.2014674097 0.6096799374 4288949042
-0.3100350797 -0.2008438557 0.6098434329 4288949042
-0.3101179898 -0.2002197802 0.6100064516 4288883249
-0.3102006614 -0.1995952278 0.6101690531 4288883249
-0.3098479211 -0.1986910999 0.6094752550 4288554797
-0.3099300563 -0.1980664134 0.6096368432 4288423211
-0.3100119829 -0.1974412352 0.6097979546 4288094760
-0.3100936711 -0.1968155503 0.6099586487 4288292139
-0.3101751506 -0.1961893886 0.6101189256 4288423209
-0.3098206818 -0.1952880621 0.6094216108 4288357416
-0.3099015951 -0.1946617812 0.6095808148 4288620075
-0.3095463216 -0.1937621087 0.6088820100 4288620075
-0.3096267283 -0.1931357384 0.6090401411 4288488489
-0.3097068667 -0.1925088912 0.6091977954 4288422696
-0.3093504906 -0.1916112900 0.6084968448 4288291623
-0.3094301224 -0.1909843385 0.6086534262 4288291623
-0.3090729713 -0.1900884211 0.6079509258 4288422950
-0.3091520369 -0.1894613951 0.6081064343 4288488743
-0.3087941110 -0.1885671765 0.6074023843 4288619559
-0.3093094826 -0.1882058978 0.6084161401 4288553766
-0.3093878627 -0.1875774413 0.6085703373 4288489002
-0.3094660342 -0.1869484931 0.6087241173 4288423209
-0.3095439970 -0.1863190830 0.6088774204 4288292393
-0.3104963601 -0.1862137318 0.6107507348 4288226600
-0.3096992075 -0.1850588173 0.6091827750 4288226600
-0.3093389571 -0.1841674894 0.6084741354 4288226600
-0.3094159067 -0.1835370660 0.6086254716 4288423207
-0.3103681207 -0.1834235936 0.6104984879 4288423207
-0.3100069761 -0.1825326383 0.6097881198 4288423207
-0.3096453547 -0.1816430092 0.6090767980 4288291621
-0.3097214103 -0.1810107082 0.6092263460 4288160805
-0.3097971976 -0.1803779602 0.6093754768 4288226598
-0.3098727763 -0.1797447354 0.6095241308 4288357414
-0.3103865385 -0.1793643832 0.6105346680 4288423207
-0.3109002709 -0.1789817959 0.6115452051 4288423462
-0.3105367422 -0.1780938506 0.6108301878 4288423462
-0.3106115162 -0.1774578840 0.6109772325 4288422950
-0.3106860518 -0.1768214554 0.6111238599 4288422950
-0.3111992776 -0.1764334291 0.6121333838 4288422950
-0.3108344078 -0.1755472422 0.6114156842 4288488743
-0.3109082282 -0.1749094576 0.6115608811 4288554536
-0.3114210665 -0.1745173633 0.6125696898 4288488743
-0.3114945590 -0.1738777608 0.6127141714 4288488743
-0.3111283481 -0.1729933769 0.6119938493 4288488743
-0.3112012148 -0.1723537743 0.6121371984 4288422950
-0.3112738729 -0.1717137247 0.6122801304 4288422950
-0.3113462925 -0.1710732281 0.6124225855 4288423207
-0.3118583560 -0.1706730127 0.6134297848 4288423207
-0.3119303882 -0.1700307280 0.6135715246 4288357414
-0.3120022118 -0.1693879813 0.6137127280 4288489000
-0.3125139475 -0.1689828038 0.6147193313 4288489002
-0.3121451139 -0.1681011915 0.6139938235 4288357416
-0.3122161925 -0.1674571186 0.6141336560 4288422950
-0.3118465841 -0.1665773392 0.6134066582 4288422950
-0.3119170964 -0.1659333110 0.6135452986 4288488743
-0.3119873405 -0.1652888507 0.6136835217 4288422950
-0.3116166294 -0.1644113958 0.6129543185 4288357157
-0.3116863072 -0.1637669802 0.6130913496 4288357157
-0.3113147914 -0.1628914028 0.6123605967 4288422950
-0.3113838732 -0.1622470170 0.6124964952 4288422950
-0.3114527464 -0.1616022289 0.6126319766 4288357157
-0.3115213513 -0.1609569937 0.6127669215 4288357157
-0.3115897179 -0.1603113413 0.6129013896 4288422950
-0.3116578460 -0.1596652716 0.6130353808 4288488743
-0.3117257357 -0.1590187699 0.6131688952 4288488743
-0.3117933571 -0.1583718359 0.6133019328 4288488743
-0.3123024702 -0.1579478979 0.6143033504 4288488743
-0.3123697042 -0.1572992206 0.6144356132 4288488743
-0.3124366701 -0.1566501260 0.6145673990 4288423462
-0.3125034273 -0.1560006142 0.6146986485 4288423462
-0.3130120039 -0.1555704176 0.6156990528 4288555048
-0.3130783439 -0.1549191475 0.6158295274 4288489255
-0.3135867119 -0.1544853747 0.6168295145 4288357669
-0.3136526346 -0.1538323611 0.6169591546 4288489255
-0.3137183189 -0.1531789303 0.6170883775 4288554793
-0.3137837350 -0.1525251120 0.6172170043 4288423207
-0.3138488829 -0.1518708616 0.6173452139 4288357414
-0.3143565655 -0.1514295042 0.6183438301 4288554793
-0.3144212961 -0.1507735252 0.6184711456 4288620586
-0.3144858181 -0.1501171440 0.6185980439 4288620586
-0.3145500422 -0.1494603604 0.6187244058 4288686379
-0.3146140277 -0.1488031745 0.6188502312 4288620586
-0.3146777451 -0.1481456012 0.6189755797 4288488743
-0.3151845336 -0.1476953477 0.6199724078 4288422950
-0.3152478337 -0.1470360309 0.6200969219 4288489000
-0.3148674071 -0.1461704522 0.6193486452 4288423207
-0.3153736591 -0.1457162350 0.6203444600 4288554793
-0.3154361844 -0.1450557411 0.6204674244 4288554793
-0.3159421980 -0.1445979327 0.6214627624 4288489000
-0.3160042763 -0.1439357251 0.6215848923 4288554793
-0.3165100217 -0.1434743553 0.6225796938 4288620586
-0.3165716827 -0.1428104490 0.6227009892 4288686379
-0.3170771897 -0.1423455030 0.6236953139 4288620586
-0.3166942298 -0.1414814591 0.6229420304 4288620586
-0.3171993494 -0.1410138756 0.6239356399 4288752172
-0.3172600567 -0.1403474957 0.6240550280 4288817965
-0.3173204660 -0.1396807283 0.6241738796 4288752172
-0.3169361353 -0.1388188750 0.6234178543 4288686379
-0.3169959486 -0.1381522864 0.6235355139 4288686379
-0.3175001740 -0.1376781315 0.6245273352 4288620586
-0.3175595403 -0.1370098591 0.6246441007 4288686381
-0.3176186383 -0.1363411993 0.6247603297 4288620588
-0.3176774681 -0.1356721669 0.6248760819 4288620588
-0.3177360296 -0.1350027770 0.6249912381 4288686381
-0.3177943230 -0.1343329996 0.6251059175 4288686381
-0.3182975054 -0.1338500679 0.6260957122 4288620588
-0.3188005984 -0.1333648860 0.6270853281 4288620329
-0.3188582659 -0.1326921433 0.6271986961 4288686122
-0.3189156353 -0.1320190430 0.6273115873 4288686122
-0.3189727366 -0.1313455701 0.6274238825 4288817708
-0.3190295696 -0.1306717247 0.6275357008 4288817708
-0.3190861344 -0.1299975365 0.6276469231 4288817708
-0.3191424310 -0.1293229908 0.6277576685 4288751914
-0.3191984296 -0.1286480725 0.6278678179 4288686121
-0.3192541897 -0.1279728115 0.6279774904 4288686121
-0.3193096519 -0.1272971928 0.6280865669 4288686121
-0.3198108673 -0.1267980784 0.6290725470 4288686121
-0.3198658824 -0.1261208206 0.6291807294 4288751914
-0.3199205995 -0.1254432052 0.6292883158 4288948524
-0.3199750483 -0.1247652546 0.6293954253 4288948524
-0.3209218979 -0.1244330779 0.6312578917 4288948524
-0.3209759295 -0.1237525418 0.6313642263 4288882731
-0.3214761913 -0.1232428327 0.6323482394 4288882730
-0.3215297461 -0.1225606650 0.6324535608 4288882730
-0.3220296800 -0.1220474318 0.6334369183 4288882730
-0.3225294650 -0.1215319633 0.6344199777 4288816937
-0.3225823045 -0.1208468750 0.6345239878 4288948011
-0.3226349056 -0.1201614588 0.6346274018 4289013804
-0.3226872087 -0.1194757074 0.6347302794 4289014059
-0.3231862187 -0.1189541519 0.6357118487 4288948266
-0.3232380152 -0.1182667837 0.6358137727 4288948266
-0.3232895434 -0.1175790876 0.6359151006 4289014059
-0.3233407736 -0.1168910637 0.6360158920 4289079850
-0.3233917356 -0.1162027121 0.6361161470 4289014057
-0.3234423995 -0.1155140325 0.6362158060 4288948264
-0.3234927952 -0.1148250401 0.6363148689 4289014057
-0.3235428929 -0.1141357198 0.6364133954 4289080363
-0.3235926926 -0.1134460792 0.6365113854 4289146156
-0.3240898550 -0.1129120812 0.6374893188 4289080109
-0.3245868683 -0.1123758554 0.6384669542 4289014316
-0.3246359527 -0.1116833612 0.6385635138 4289080109
-0.3246847391 -0.1109905466 0.6386594772 4289080109
-0.3242853284 -0.1101452932 0.6378738284 4288949293
-0.3238855004 -0.1093016416 0.6370874047 4288949293
-0.3239333034 -0.1086098179 0.6371814013 4288949293
-0.3239808083 -0.1079176813 0.6372748017 4289015086
-0.3244761825 -0.1073735580 0.6382492781 4289015086
-0.3245231807 -0.1066798642 0.6383416653 4289015086
-0.3245698810 -0.1059858650 0.6384335160 4288949294
-0.3246162832 -0.1052915752 0.6385248303 4289080880
-0.3246623874 -0.1045969874 0.6386155486 4289015344
-0.3251567185 -0.1040456071 0.6395878792 4288949551
-0.3247537613 -0.1032069176 0.6387951970 4288949551
-0.3252476156 -0.1026530415 0.6397666335 4288949551
-0.3248439431 -0.1018156931 0.6389725804 4288949551
-0.3248885870 -0.1011196449 0.6390604377 4288883758
-0.3244841397 -0.1002846062 0.6382648945 4288949551
-0.3240792751 -0.0994512066 0.6374685168 4288817965
-0.3236739933 -0.0986194462 0.6366713047 4288621869
-0.3232682943 -0.0977893323 0.6358733177 4288621869
-0.3233112395 -0.0970957279 0.6359577775 4288490283
-0.3229047656 -0.0962679535 0.6351582408 4288490283
-0.3224979043 -0.0954418331 0.6343579292 4288621356
-0.3220905960 -0.0946173742 0.6335567832 4288752942
-0.3216829002 -0.0937945768 0.6327548623 4288359474
-0.3217241466 -0.0931034684 0.6328359246 4288227888
-0.3217650652 -0.0924120992 0.6329164505 4288096815
-0.3218057156 -0.0917204693 0.6329963803 4288031022
-0.3213965595 -0.0909014419 0.6321915984 4287834413
-0.3209869862 -0.0900840834 0.6313859224 4287768620
-0.3205770254 -0.0892684087 0.6305795312 4287702827
-0.3206163049 -0.0885786489 0.6306567788 4287702827
-0.3206553161 -0.0878886282 0.6307334900 4287768877
-0.3202442229 -0.0870760679 0.6299248934 4287768877
-0.3198327422 -0.0862651914 0.6291155219 4287834670
-0.3194208443 -0.0854559988 0.6283053160 4288032049
-0.3194585145 -0.0847679004 0.6283794045 4288360757
-0.3194958568 -0.0840795562 0.6284528971 4288492343
-0.3195329309 -0.0833909735 0.6285257936 4288622900
-0.3191196024 -0.0825856701 0.6277127266 4288425521
-0.3191560209 -0.0818975791 0.6277843714 4287835184
-0.3187419176 -0.0810947195 0.6269698739 4287637805
-0.3187777102 -0.0804071277 0.6270402670 4287440940
-0.3188131750 -0.0797193125 0.6271100044 4287506733
-0.3183979988 -0.0789196417 0.6262933612 4287572528
-0.3179824352 -0.0781216919 0.6254759431 4287638321
-0.3180169165 -0.0774351433 0.6255437732 4287639604
-0.3176006079 -0.0766396597 0.6247249246 4287836983
-0.3180850148 -0.0760613754 0.6256777048 4287967799
-0.3176680207 -0.0752673969 0.6248574853 4288165178
-0.3177012503 -0.0745809451 0.6249228716 4288428350
-0.3172835112 -0.0737894550 0.6241011620 4288428350
-0.3173161447 -0.0731035471 0.6241652966 4287902776
-0.3173484504 -0.0724174306 0.6242288947 4287508018
-0.3169296384 -0.0716292113 0.6234050393 4287180080
-0.3165104389 -0.0708427355 0.6225804687 4287114287
-0.3160908222 -0.0700580031 0.6217551231 4286851889
-0.3156708479 -0.0692750290 0.6209290624 4286917682
-0.3161525130 -0.0686897710 0.6218764186 4287049268
-0.3157318532 -0.0679083467 0.6210489869 4287180854
-0.3153108060 -0.0671286806 0.6202207804 4287180854
-0.3148893714 -0.0663507730 0.6193918586 4287246647
-0.3144675493 -0.0655746236 0.6185621619 4287050036
-0.3140453696 -0.0648002401 0.6177316904 4287050036
-0.3136228025 -0.0640276298 0.6169005036 4286984243
-0.3136511445 -0.0633479357 0.6169562340 4286918450
-0.3132278621 -0.0625778809 0.6161236167 4286918961
-0.3123528063 -0.0617204197 0.6144024134 4286918961
-0.3123801351 -0.0610431135 0.6144561768 4286918961
-0.3124071956 -0.0603656359 0.6145093441 4286853168
-0.3119824231 -0.0596017241 0.6136738658 4287050547
-0.3115572929 -0.0588396005 0.6128376126 4287247926
-0.3111318052 -0.0580792651 0.6120006442 4287115829
-0.3107059300 -0.0573207214 0.6111629605 4287379001
-0.3107313216 -0.0566463061 0.6112129092 4287379258
-0.3103047609 -0.0558903739 0.6103738546 4287510844
-0.3098778129 -0.0551362373 0.6095340252 4287445821
-0.3099022508 -0.0544632971 0.6095821261 4287314235
-0.3094746172 -0.0537117869 0.6087409258 4287183162
-0.3085947633 -0.0528846532 0.6070103049 4287183162
-0.3081663549 -0.0521377400 0.6061676145 4287183675
-0.3072856963 -0.0513171740 0.6044353247 4286920503
-0.3068565428 -0.0505748689 0.6035911441 4286658358
-0.3064270020 -0.0498343818 0.6027462482 4286724151
-0.3055451214 -0.0490231924 0.6010115743 4286330163
-0.3055668473 -0.0483588651 0.6010543108 4285738026
-0.3051362634 -0.0476238467 0.6002073288 4285409061
-0.3051573634 -0.0469602235 0.6002488732 4285409061
-0.3042739630 -0.0461592898 0.5985112190 4285737775
-0.3042944372 -0.0454973616 0.5985515118 4285408810
-0.3038624525 -0.0447686799 0.5977017283 4285605672
-0.3034301102 -0.0440418385 0.5968512893 4285671465
-0.3034496307 -0.0433814861 0.5968897343 4285801768
-0.3030166328 -0.0426573418 0.5960379839 4285999147
-0.3034878373 -0.0420604050 0.5969648957 4286196269
-0.3026018441 -0.0412762836 0.5952221155 4286196269
-0.3021678329 -0.0405566916 0.5943683982 4286327342
-0.3012810647 -0.0397792235 0.5926241279 4286524721
-0.2999415100 -0.0389468372 0.5899891853 4287181620
-0.2990539372 -0.0381780080 0.5882433057 4288102722
-0.2981659472 -0.0374130085 0.5864966512 4287904314
-0.2968251109 -0.0365960523 0.5838592052 4286917419
-0.2959363461 -0.0358397067 0.5821110010 4286982701
-0.2950471938 -0.0350872017 0.5803620219 4286719529
-0.2941576540 -0.0343385376 0.5786122680 4287046695
-0.2937203050 -0.0336455591 0.5777519941 4286849316
-0.2937352061 -0.0330053121 0.5777813196 4287441455
-0.2937498391 -0.0323649682 0.5778101087 4288428350
-0.2933115661 -0.0316756479 0.5769479871 4288363327
-0.2933256030 -0.0310361031 0.5769755840 4287771190
-0.2915286124 -0.0302088335 0.5734409094 4287114287
-0.2906365991 -0.0294812173 0.5716863275 4287180080
-0.2920078337 -0.0289821289 0.5743835568 4287443252
-0.2906624377 -0.0282133557 0.5717371106 4287377459
-0.2906749249 -0.0275793001 0.5717617273 4288429379
-0.2915927172 -0.0270291064 0.5735670328 4288824137
-0.2906990945 -0.0263109505 0.5718092322 4287772730
-0.2920691967 -0.0257966425 0.5745042562 4288364867
-0.2943560183 -0.0247119963 0.5790024400 4288363837
-0.3935277760 -0.3666791022 0.7757695317 4288034623
-0.3928332031 -0.3651714921 0.7744002938 4289679448
-0.3946408927 -0.3659875095 0.7779638171 4288887361
-0.2687510848 -0.2486494333 0.5297945738 4287176743
-0.2680109143 -0.2473776340 0.5283355713 4288360502
-0.2647644281 -0.2438011616 0.5219356418 4289281604
-0.2640219629 -0.2425392121 0.5204720497 4289611082
-0.2632788122 -0.2412798703 0.5190070271 4289216324
-0.2633710504 -0.2407875359 0.5191888213 4290729563
-0.2638813555 -0.2406761050 0.5201948285 4289216324
-0.2643918097 -0.2405626029 0.5212011337 4288162095
-0.2653209567 -0.2408268601 0.5230327249 4287635751
-0.2658318877 -0.2407083958 0.5240399837 4288819511
-0.2663429976 -0.2405878305 0.5250475407 4290332750
-0.2664353549 -0.2400876880 0.5252295732 4289214783
-0.2669466436 -0.2399637252 0.5262374878 4288359474
-0.2662004530 -0.2387099117 0.5247665048 4288424753
-0.2688084245 -0.2404597849 0.5299076438 4288424753
-0.2680619657 -0.2392049283 0.5284361839 4288489518
-0.2702523470 -0.2405675799 0.5327540636 4288950069
-0.2732836008 -0.2426673025 0.5387296677 4289280060
-0.2750569284 -0.2436395139 0.5422254801 4289148474
-0.2743108273 -0.2423778027 0.5407546163 4289016888
-0.2769257426 -0.2440817952 0.5459095240 4288819509
-0.2791219056 -0.2454061210 0.5502388477 4288622130
-0.2804783285 -0.2459843904 0.5529128313 4288556337
-0.2839387357 -0.2483973056 0.5597343445 4288490546
-0.2852973044 -0.2489609569 0.5624125600 4288358960
-0.2832891345 -0.2465880513 0.5584537387 4288622132
-0.2867533565 -0.2489754111 0.5652828813 4288490546
-0.2881136239 -0.2495254278 0.5679644346 4288556339
-0.2886318862 -0.2493420839 0.5689860582 4288687925
-0.2891502678 -0.2491565943 0.5700079799 4288621619
-0.2896687984 -0.2489689440 0.5710301399 4288424240
-0.2897656858 -0.2484175265 0.5712211132 4288358447
-0.2894404829 -0.2475047857 0.5705800653 4288424240
-0.2891148329 -0.2465930879 0.5699381232 4288226861
-0.2887887657 -0.2456824481 0.5692953467 4288358447
-0.2880399227 -0.2444144934 0.5678191185 4288687412
-0.2877128422 -0.2435067892 0.5671743751 4289213756
-0.2878079712 -0.2429569066 0.5673618913 4289805893
-0.2879029512 -0.2424065024 0.5675491095 4290069065
-0.2879977822 -0.2418555319 0.5677360296 4290003272
-0.2876693904 -0.2409496903 0.5670886636 4289871686
-0.2877637744 -0.2403984517 0.5672746897 4289805893
-0.2882812917 -0.2401993871 0.5682949424 4289740100
-0.2879520357 -0.2392943501 0.5676458478 4289805893
-0.2884695530 -0.2390925735 0.5686660409 4289740100
-0.2889871597 -0.2388886362 0.5696864128 4289411135
-0.2890810370 -0.2383330613 0.5698714852 4289082170
-0.2895987630 -0.2381255925 0.5708920956 4289016377
-0.2901165783 -0.2379159629 0.5719128847 4289279549
-0.2906345427 -0.2377041429 0.5729339719 4289411648
-0.2911525965 -0.2374901474 0.5739552379 4289609027
-0.2912462354 -0.2369286120 0.5741397738 4289609027
-0.2917643785 -0.2367110699 0.5751612186 4289411648
-0.2922826409 -0.2364913672 0.5761828423 4289345855
-0.2923760414 -0.2359265536 0.5763670206 4289214269
-0.2928943932 -0.2357033044 0.5773888230 4289082683
-0.2934128344 -0.2354778498 0.5784108043 4289148476
-0.2939313650 -0.2352502197 0.5794330835 4289016888
-0.2944500446 -0.2350204140 0.5804554820 4288885302
-0.2949687839 -0.2347884029 0.5814781189 4289213756
-0.2950618565 -0.2342162281 0.5816616416 4289345342
-0.2955806851 -0.2339806557 0.5826843977 4289082170
-0.2960996032 -0.2337428927 0.5837073326 4289016377
-0.2961924672 -0.2331674397 0.5838903785 4289213754
-0.2967114449 -0.2329261005 0.5849134326 4289213754
-0.2968040705 -0.2323487401 0.5850960612 4289148221
-0.2973231077 -0.2321038395 0.5861192346 4289148221
-0.2978422344 -0.2318567336 0.5871426463 4289017917
-0.2983614504 -0.2316074371 0.5881661773 4288820538
-0.2980268300 -0.2306949049 0.5875064731 4288886583
-0.2985459566 -0.2304428518 0.5885298848 4288820790
-0.2986379266 -0.2298597544 0.5887112021 4288885041
-0.2987297475 -0.2292761207 0.5888921618 4289148213
-0.2992488742 -0.2290191054 0.5899155736 4288424238
-0.3001957238 -0.2290862352 0.5917820930 4289016375
-0.2998596132 -0.2281729728 0.5911195278 4288755262
-0.3008067608 -0.2282348275 0.5929866433 4288689469
-0.3017542362 -0.2282927930 0.5948544145 4288429130
-0.3022738993 -0.2280238867 0.5958788395 4289679197
-0.3027936518 -0.2277527452 0.5969034433 4290601075
-0.3037418723 -0.2278006971 0.5987727046 4291193212
-0.3042618930 -0.2275242805 0.5997977853 4289945462
-0.3043532968 -0.2269260287 0.5999780297 4289879669
-0.3048733473 -0.2266460210 0.6010031700 4289222506
-0.3053934574 -0.2263637632 0.6020284891 4289156713
-0.3054845631 -0.2257622182 0.6022080779 4288567141
-0.3055754900 -0.2251601219 0.6023873687 4288830313
-0.3060955405 -0.2248728722 0.6034125686 4288957538
-0.3066156507 -0.2245834023 0.6044378877 4289023331
-0.3071358502 -0.2242916971 0.6054633260 4289815672
-0.3072263896 -0.2236849219 0.6056417823 4290802567
-0.3073167503 -0.2230775952 0.6058199406 4290222238
-0.3074069321 -0.2224697471 0.6059976816 4291406512
-0.3074969053 -0.2218613476 0.6061750650 4292198338
-0.3075866699 -0.2212524265 0.6063520312 4293119440
-0.3081065714 -0.2209515721 0.6073769331 4294628575
-0.3081960976 -0.2203407288 0.6075534225 4294960367
-0.3082854152 -0.2197293490 0.6077294946 4294964735
-0.3083745241 -0.2191174477 0.6079051495 4294964991
-0.3080326319 -0.2181998342 0.6072311997 4294966015
-0.3081212640 -0.2175877243 0.6074058414 4294965247
-0.3082096577 -0.2169750929 0.6075801253 4294964990
-0.3070043027 -0.2154541165 0.6052039862 4294767354
-0.3083858788 -0.2157482505 0.6079275012 4294961134
-0.3080422580 -0.2148331404 0.6072500944 4294236640
-0.3081297278 -0.2142192721 0.6074225903 4294622409
-0.3082170188 -0.2136048675 0.6075946093 4292385447
-0.3078722954 -0.2126916349 0.6069150567 4291457148
-0.3079590499 -0.2120770663 0.6070861220 4289351772
-0.3080455959 -0.2114619613 0.6072567105 4288558907
-0.3085641265 -0.2111420631 0.6082788706 4288493114
-0.3086503744 -0.2105250657 0.6084489822 4288820787
-0.3087364435 -0.2099075466 0.6086186171 4288689201
-0.3088223040 -0.2092895210 0.6087878942 4288884787
-0.3084753156 -0.2083787173 0.6081038713 4288818994
-0.3081278801 -0.2074691355 0.6074189544 4289016116
-0.3082128763 -0.2068512887 0.6075865030 4289016116
-0.3078646660 -0.2059432864 0.6069000959 4288884530
-0.3079491556 -0.2053252906 0.6070665717 4288884530
-0.3080334067 -0.2047068030 0.6072326899 4288950323
-0.3081174493 -0.2040877938 0.6073983908 4288818737
-0.3077678382 -0.2031821162 0.6067091227 4288687151
-0.3074177504 -0.2022776604 0.6060190201 4288687151
-0.3075009286 -0.2016588897 0.6061830521 4288752174
-0.3075839281 -0.2010396123 0.6063466072 4288752174
-0.3076666892 -0.2004198432 0.6065097451 4288686381
-0.3077492416 -0.1997995526 0.6066725254 4288620588
-0.3078315854 -0.1991787851 0.6068348289 4288554795
-0.3079137206 -0.1985575110 0.6069967747 4288489002
-0.3079956472 -0.1979357451 0.6071582437 4288554282
-0.3080773354 -0.1973134726 0.6073192954 4288554282
-0.3081588447 -0.1966907084 0.6074799299 4288554282
-0.3082401156 -0.1960674524 0.6076402068 4288554282
-0.3078863025 -0.1951680481 0.6069427133 4288554282
-0.3079670370 -0.1945446879 0.6071018577 4288554282
-0.3080475628 -0.1939208359 0.6072605848 4288488489
-0.3076926470 -0.1930234879 0.6065609455 4288488489
-0.3077726066 -0.1923995465 0.6067185998 4288422696
-0.3078523576 -0.1917751133 0.6068757772 4288356903
-0.3074963391 -0.1908798367 0.6061739922 4288356903
-0.3071398735 -0.1899858415 0.6054712534 4288422696
-0.3072187603 -0.1893617362 0.6056267619 4288553768
-0.3068615198 -0.1884694248 0.6049225330 4288553768
-0.3069398403 -0.1878452450 0.6050769091 4288619561
-0.3070179522 -0.1872205883 0.6052308679 4288553768
-0.3075320423 -0.1868605018 0.6062443256 4288226600
-0.3076097965 -0.1862340122 0.6063976288 4288226600
-0.3076873422 -0.1856070310 0.6065505147 4288357416
-0.3077646792 -0.1849795878 0.6067029238 4288423209
-0.3091517389 -0.1851361394 0.6094372869 4288489002
-0.3079186678 -0.1837232858 0.6070064902 4288489002
-0.3075584173 -0.1828347147 0.6062963605 4288423979
-0.3080717325 -0.1824650913 0.6073082685 4288358186
-0.3085850179 -0.1820932180 0.6083201170 4288423209
-0.3082239032 -0.1812050343 0.6076081991 4288489002
-0.3078623414 -0.1803181618 0.6068955064 4288554536
-0.3079377711 -0.1796878725 0.6070441604 4288357157
-0.3080129623 -0.1790571064 0.6071923971 4288357157
-0.3080879152 -0.1784258783 0.6073401570 4288488743
-0.3086003661 -0.1780467480 0.6083503366 4288357414
-0.3086749911 -0.1774137169 0.6084974408 4288357414
-0.3087493479 -0.1767802089 0.6086440682 4288422696
-0.3092615604 -0.1763961166 0.6096537709 4288488489
-0.3093355596 -0.1757608056 0.6097996831 4288488489
-0.3089711070 -0.1748769730 0.6090812087 4288488489
-0.3094829023 -0.1744888127 0.6100901365 4288620075
-0.3095562458 -0.1738521308 0.6102346778 4288554282
-0.3096293211 -0.1732150167 0.6103787422 4288357416
-0.3097021878 -0.1725774407 0.6105223894 4288489002
-0.3102135658 -0.1721829474 0.6115304828 4288423207
-0.3098472059 -0.1713009328 0.6108082533 4288489000
-0.3099193275 -0.1706620157 0.6109504700 4288423207
-0.3099912405 -0.1700226516 0.6110922098 4288489000
-0.3105021119 -0.1696227491 0.6120992899 4288554793
-0.3105736673 -0.1689815968 0.6122403145 4288423207
-0.3106449544 -0.1683399826 0.6123809218 4288489000
-0.3102765381 -0.1674607396 0.6116546392 4288489000
-0.3103472590 -0.1668191701 0.6117940545 4288423207
-0.3099780679 -0.1659417748 0.6110662222 4288423207
-0.3100481927 -0.1653002352 0.6112045050 4288423207
-0.3101181090 -0.1646582633 0.6113423109 4288423207
-0.3097477853 -0.1637832075 0.6106122732 4288423207
-0.3098171055 -0.1631412804 0.6107489467 4288357414
-0.3094460070 -0.1622680873 0.6100174189 4288357157
-0.3095147610 -0.1616262197 0.6101529002 4288291364
-0.3095832467 -0.1609839201 0.6102879643 4288225571
-0.3096515238 -0.1603411883 0.6104224920 4288422950
-0.3097195327 -0.1596980393 0.6105566025 4288488743
-0.3097873032 -0.1590544581 0.6106901765 4288554536
-0.3098548353 -0.1584104598 0.6108233333 4288816938
-0.3099221289 -0.1577660441 0.6109559536 4288685352
-0.3104301095 -0.1573446989 0.6119573712 4288619559
-0.3104969859 -0.1566985250 0.6120892167 4288685352
-0.3105636239 -0.1560519338 0.6122205853 4288554536
-0.3106300235 -0.1554049402 0.6123514771 4288554536
-0.3111374974 -0.1549773365 0.6133518219 4288554536
-0.3112034798 -0.1543285847 0.6134819388 4288554536
-0.3117107451 -0.1538974047 0.6144819260 4288554536
-0.3117763400 -0.1532469094 0.6146112084 4288488743
-0.3118416667 -0.1525959969 0.6147399545 4288422950
-0.3119067550 -0.1519446820 0.6148682833 4288554536
-0.3119715750 -0.1512929648 0.6149960756 4288554536
-0.3124781251 -0.1508542150 0.6159946918 4288554536
-0.3125425577 -0.1502007544 0.6161216497 4288554536
-0.3126067221 -0.1495468915 0.6162481308 4288620329
-0.3122283816 -0.1486820281 0.6155022979 4288620329
-0.3122919500 -0.1480282992 0.6156276464 4288620329
-0.3127976656 -0.1475829035 0.6166245937 4288554536
-0.3128608167 -0.1469274461 0.6167491078 4288422950
-0.3129237294 -0.1462716013 0.6168730855 4288555048
-0.3129863441 -0.1456153393 0.6169965267 4288489255
-0.3130487204 -0.1449587047 0.6171194911 4288489255
-0.3135537207 -0.1445057690 0.6181150079 4288555048
-0.3140586317 -0.1440505832 0.6191103458 4288489255
-0.3145634532 -0.1435931623 0.6201055050 4288555048
-0.3146250546 -0.1429321617 0.6202269793 4288620841
-0.3146864176 -0.1422707736 0.6203478575 4288555048
-0.3143041730 -0.1414095610 0.6195943952 4288620586
-0.3143649101 -0.1407483369 0.6197141409 4288554793
-0.3144253790 -0.1400867403 0.6198333502 4288554793
-0.3149291575 -0.1396214068 0.6208264232 4288620586
-0.3149892092 -0.1389581114 0.6209447980 4288686122
-0.3146052361 -0.1380996555 0.6201878786 4288686122
-0.3146646619 -0.1374365389 0.6203050613 4288620329
-0.3147238195 -0.1367730349 0.6204216480 4288554536
-0.3152267039 -0.1363011450 0.6214129925 4288489000
-0.3152854145 -0.1356359720 0.6215287447 4288489000
-0.3153438866 -0.1349704266 0.6216439605 4288423207
-0.3154020607 -0.1343045086 0.6217586398 4288423207
-0.3154599667 -0.1336382329 0.6218728423 4288620329
-0.3159620166 -0.1331588626 0.6228625178 4288620329
-0.3164639473 -0.1326772571 0.6238520145 4288620329
-0.3165212274 -0.1320080012 0.6239649057 4288686122
-0.3165782392 -0.1313383728 0.6240772605 4288686122
-0.3166349828 -0.1306684017 0.6241891384 4288817708
-0.3166914284 -0.1299980581 0.6243004203 4288751915
-0.3167476356 -0.1293273568 0.6244112253 4288686122
-0.3168035448 -0.1286562979 0.6245214939 4288686122
-0.3168592155 -0.1279848963 0.6246311665 4288686122
-0.3169145882 -0.1273131371 0.6247403622 4288620329
-0.3169696927 -0.1266410202 0.6248489618 4288554536
-0.3170245290 -0.1259685606 0.6249570847 4288620329
-0.3175244331 -0.1254717261 0.6259425282 4288751915
-0.3175787926 -0.1247976199 0.6260496974 4288751915
-0.3180783689 -0.1242972612 0.6270345449 4288817708
-0.3181322813 -0.1236215159 0.6271408200 4288949294
-0.3186315298 -0.1231176332 0.6281250119 4288949294
-0.3186849356 -0.1224402636 0.6282302737 4288883501
-0.3191838562 -0.1219328493 0.6292138100 4288949294
-0.3196826577 -0.1214231998 0.6301971078 4288817708
-0.3201813400 -0.1209113225 0.6311801672 4288883501
-0.3202338517 -0.1202297509 0.6312837005 4288883501
-0.3202860951 -0.1195478514 0.6313866973 4288883501
-0.3207842112 -0.1190311685 0.6323686242 4288817708
-0.3208359778 -0.1183476523 0.6324706674 4288751915
-0.3208874464 -0.1176638082 0.6325721145 4288751915
-0.3209386170 -0.1169796363 0.6326730251 4288817708
-0.3209895492 -0.1162951291 0.6327733994 4288817707
-0.3210401535 -0.1156103089 0.6328731775 4288883500
-0.3210905194 -0.1149251610 0.6329724193 4288817707
-0.3211405575 -0.1142396852 0.6330711246 4288751914
-0.3216370642 -0.1137118340 0.6340498328 4288817707
-0.3216866255 -0.1130247712 0.6341475248 4288817707
-0.3226296008 -0.1126494408 0.6360064745 4288883500
-0.3226787150 -0.1119598374 0.6361033320 4288949293
-0.3231745660 -0.1114240289 0.6370807290 4288883758
-0.3227761090 -0.1105796844 0.6362953186 4288817965
-0.3228243887 -0.1098891422 0.6363904476 4288883758
-0.3224251568 -0.1090470478 0.6356034875 4288949551
-0.3224727809 -0.1083568484 0.6356973052 4288883758
-0.3229674399 -0.1078156754 0.6366724372 4288949551
-0.3230145574 -0.1071239114 0.6367653012 4288949551
-0.3235088289 -0.1065792516 0.6377396584 4288883758
-0.3231078982 -0.1057394743 0.6369493604 4288753201
-0.3231541216 -0.1050468087 0.6370404959 4288818994
-0.3236477077 -0.1044983789 0.6380135417 4288884527
-0.3241411448 -0.1039477363 0.6389862299 4288818734
-0.3241866231 -0.1032522693 0.6390758753 4288949806
-0.3242318332 -0.1025565043 0.6391649842 4288884013
-0.3238288462 -0.1017197594 0.6383705735 4288752942
-0.3234254420 -0.1008846536 0.6375753284 4288752942
-0.3230216205 -0.1000511795 0.6367792487 4288752944
-0.3230654597 -0.0993571579 0.6368656754 4288687151
-0.3231090009 -0.0986628458 0.6369515061 4288687408
-0.3222558498 -0.0976965055 0.6352697015 4288687408
-0.3222986758 -0.0970035717 0.6353541017 4288687151
-0.3218929172 -0.0961764082 0.6345542073 4288621358
-0.3214867115 -0.0953508988 0.6337534785 4288621358
-0.3215285540 -0.0946590751 0.6338359714 4288555565
-0.3211216033 -0.0938359201 0.6330337524 4288555822
-0.3211628199 -0.0931445211 0.6331149340 4288490029
-0.3212037086 -0.0924528539 0.6331955791 4288687408
-0.3207956553 -0.0916327685 0.6323911548 4288753201
-0.3208359182 -0.0909415483 0.6324705482 4288490544
-0.3204270899 -0.0901238471 0.6316646338 4288490544
-0.3200178742 -0.0893078148 0.6308578849 4288228142
-0.3200571239 -0.0886177570 0.6309353113 4287899177
-0.3196471334 -0.0878041238 0.6301270723 4287767850
-0.3196857572 -0.0871145353 0.6302031875 4287636264
-0.3188259602 -0.0861819237 0.6285082698 4287571241
-0.3188638985 -0.0854937732 0.6285830140 4287900206
-0.3184523582 -0.0846859291 0.6277717948 4288229171
-0.3189388216 -0.0841167346 0.6287307739 4288360757
-0.3185265958 -0.0833103508 0.6279181242 4288295222
-0.3181139529 -0.0825056732 0.6271046996 4288361015
-0.3181503117 -0.0818182603 0.6271763444 4288098870
-0.3177369237 -0.0810160190 0.6263614297 4287967284
-0.3177726269 -0.0803291053 0.6264318228 4287835698
-0.3173584938 -0.0795293227 0.6256154180 4287572526
