VERSION 0.7
FIELDS x y z rgba
SIZE 4 4 4 4
TYPE F F F U
COUNT 1 1 1 1
WIDTH 920
HEIGHT 1
VIEWPOINT 0.0 0.0 0.0 1.0 0.0 0.0 0.0
POINTS 920
DATA ascii
-0.3128706515 -0.1145068556 0.5440993905 4289171558
-0.3124332726 -0.1137430891 0.5433387160 4289237351
-0.3129765689 -0.1133361384 0.5442835689 4289565803
-0.3130291402 -0.1127503365 0.5443750024 4289894768
-0.3135721684 -0.1123400480 0.5453193784 4290355319
-0.3131335080 -0.1115778536 0.5445564985 4290815870
-0.3136762083 -0.1111651361 0.5455002785 4290881663
-0.3142188191 -0.1107502952 0.5464438796 4290881663
-0.3137792051 -0.1099890694 0.5456793904 4291013763
-0.3138303459 -0.1094005927 0.5457683206 4291145349
-0.3138811886 -0.1088118404 0.5458567142 4290290299
-0.3144230843 -0.1083921567 0.5467991233 4289961334
-0.3149648607 -0.1079703495 0.5477412939 4290685573
-0.3155065477 -0.1075464115 0.5486833453 4291277710
-0.3155566156 -0.1069537550 0.5487703681 4291015053
-0.3156063855 -0.1063608155 0.5488569736 4290817674
-0.3161475956 -0.1059323400 0.5497981906 4290553989
-0.3161969483 -0.1053379178 0.5498840213 4290225024
-0.3167378902 -0.1049061120 0.5508247018 4290421887
-0.3167867661 -0.1043102071 0.5509096980 4290685059
-0.3173274100 -0.1038750708 0.5518499017 4290421887
-0.3173758388 -0.1032776982 0.5519341230 4290487680
-0.3174240291 -0.1026800424 0.5520179272 4291079817
-0.3169797361 -0.1019238532 0.5512452722 4291145610
-0.3170273304 -0.1013265848 0.5513280630 4291081624
-0.3170746267 -0.1007290483 0.5514103174 4291213210
-0.3171216846 -0.1001312509 0.5514921546 4290950812
-0.3171684742 -0.0995331854 0.5515735149 4290621847
-0.3177075386 -0.0990884826 0.5525109768 4290228382
-0.3182465136 -0.0986416563 0.5534482598 4290096796
-0.3072788417 -0.1257652640 0.5354090333 4289241746
-0.3088001311 -0.1257900894 0.5380597711 4289373332
-0.3088579774 -0.1252157092 0.5381605625 4289568383
-0.3094035685 -0.1248379201 0.5391112566 4289568383
-0.3099491298 -0.1244579926 0.5400617719 4289961332
-0.3104946017 -0.1240759268 0.5410122871 4290092918
-0.3105517328 -0.1234975383 0.5411118269 4290223987
-0.3106086254 -0.1229188368 0.5412108898 4290552952
-0.3111537099 -0.1225321740 0.5421606898 4290882177
-0.3112101853 -0.1219519228 0.5422590971 4290816384
-0.3117550611 -0.1215618923 0.5432084799 4290553473
-0.3118111491 -0.1209801063 0.5433062315 4290619266
-0.3118669689 -0.1203979999 0.5434034467 4290553989
-0.3119225204 -0.1198155880 0.5435003042 4290619782
-0.3119778335 -0.1192328632 0.5435966849 4291014024
-0.3125219941 -0.1188357994 0.5445448160 4291079817
-0.3125768900 -0.1182515398 0.5446404815 4290948231
-0.3126315475 -0.1176669747 0.5447357297 4290619266
-0.3126859665 -0.1170821041 0.5448305011 4290356092
-0.3127400875 -0.1164969355 0.5449248552 4290027127
-0.3127939999 -0.1159114540 0.5450187325 4289566576
-0.3128476441 -0.1153256744 0.5451122522 4289434990
-0.3129010201 -0.1147395894 0.5452052355 4289369197
-0.3124644160 -0.1139745712 0.5444445014 4289434990
-0.3125171959 -0.1133888066 0.5445364714 4289829748
-0.3125697374 -0.1128027514 0.5446280241 4290224506
-0.3121320307 -0.1120405123 0.5438653231 4290554239
-0.3131641448 -0.1118047237 0.5456637144 4290883204
-0.3137061894 -0.1113909110 0.5466081500 4291145606
-0.3132676184 -0.1106287166 0.5458440185 4291277192
-0.3138093054 -0.1102124825 0.5467878580 4291277194
-0.3138604760 -0.1096228361 0.5468769670 4291408780
-0.3139113784 -0.1090328991 0.5469657183 4290685059
-0.3134714663 -0.1082732379 0.5461992025 4290092922
-0.3140124083 -0.1078521684 0.5471417904 4290421887
-0.3145532608 -0.1074289754 0.5480841398 4290816645
-0.3150940239 -0.1070036516 0.5490263700 4290948231
-0.3146529198 -0.1062446982 0.5482577682 4291211403
-0.3156842589 -0.1059817895 0.5500548482 4291211919
-0.3157335818 -0.1053870991 0.5501407385 4290882954
-0.3162737489 -0.1049551144 0.5510819554 4290422916
-0.3158314526 -0.1041968986 0.5503112674 4290225537
-0.3163712323 -0.1037625000 0.5512518287 4289896572
-0.3164196014 -0.1031657830 0.5513360500 4290225537
-0.3159762621 -0.1024095267 0.5505636334 4291277712
-0.3165155053 -0.1019715369 0.5515031815 4291672470
-0.3165630400 -0.1013740003 0.5515860319 4291540631
-0.3166103363 -0.1007762030 0.5516684055 4291540631
-0.3166573644 -0.1001781374 0.5517503619 4291738265
-0.3167041242 -0.0995798036 0.5518318415 4292001437
-0.3172424436 -0.0991348997 0.5527698398 4291805085
-0.3172887564 -0.0985351130 0.5528504848 4291541913
-0.3178267777 -0.0980869010 0.5537879467 4290884504
-0.3178725839 -0.0974856541 0.5538678169 4290423953
-0.3184102774 -0.0970341265 0.5548046827 4289899417
-0.3184556663 -0.0964314416 0.5548837781 4289965210
-0.3081695735 -0.1275699139 0.5380022526 4289502598
-0.3072542548 -0.1265950203 0.5364042521 4289436805
-0.3082863986 -0.1264223009 0.5382061601 4289042039
-0.3093186617 -0.1262456328 0.5400083065 4289239418
-0.3093766570 -0.1256691962 0.5401095748 4289501553
-0.3094343841 -0.1250924468 0.5402103662 4289896311
-0.3099792898 -0.1247114465 0.5411615968 4289962101
-0.3105241060 -0.1243283153 0.5421127677 4290225273
-0.3105812967 -0.1237487718 0.5422126055 4290291066
-0.3111258745 -0.1233622730 0.5431633592 4290488445
-0.3106949031 -0.1225887313 0.5424109697 4290948999
-0.3112391829 -0.1221997738 0.5433611870 4291014792
-0.3112954795 -0.1216180548 0.5434594750 4290948231
-0.3113515079 -0.1210360155 0.5435572863 4290750852
-0.3114072978 -0.1204536632 0.5436546803 4290881925
-0.3119510412 -0.1200588793 0.5446038842 4291145097
-0.3120064139 -0.1194749922 0.5447005630 4291210379
-0.3120615482 -0.1188907921 0.5447968245 4291473551
-0.3121164143 -0.1183062866 0.5448926091 4291539857
-0.3121710420 -0.1177214682 0.5449879766 4290947720
-0.3117367923 -0.1169530377 0.5442298651 4290026618
-0.3122795224 -0.1165509224 0.5451774001 4289829239
-0.3118446171 -0.1157837063 0.5444180965 4290355581
-0.3118981421 -0.1151985899 0.5445115566 4290684546
-0.3114624619 -0.1144335344 0.5437509418 4290553473
-0.3115153909 -0.1138487309 0.5438433886 4290553473
-0.3115680814 -0.1132636368 0.5439353585 4290619780
-0.3111313283 -0.1125013530 0.5431728363 4290817159
-0.3116726875 -0.1120925620 0.5441179872 4291080331
-0.3127033412 -0.1118566766 0.5459172726 4291277710
-0.3117762804 -0.1109203026 0.5442988276 4291277710
-0.3128067553 -0.1106801629 0.5460978150 4291409296
-0.3128580749 -0.1100914627 0.5461874008 4291342989
-0.3129091263 -0.1095024794 0.5462765694 4290685059
-0.3129599392 -0.1089132056 0.5463652611 4290618753
-0.3135003150 -0.1084931716 0.5473086834 4290816132
-0.3135506809 -0.1079024002 0.5473966002 4290157689
-0.3140907884 -0.1074790284 0.5483395457 4289302380
-0.3136506379 -0.1067200229 0.5475711226 4289960562
-0.3146805465 -0.1064600572 0.5493690968 4291079043
-0.3147300184 -0.1058663130 0.5494554639 4291869331
-0.3152695596 -0.1054362655 0.5503973961 4291606159
-0.3148282170 -0.1046779901 0.5496268868 4291212430
-0.3153673708 -0.1042455360 0.5505681634 4291212430
-0.3159064054 -0.1038109511 0.5515092015 4291212432
-0.3149735034 -0.1028934270 0.5498805642 4291278225
-0.3160027862 -0.1026167125 0.5516774654 4291409298
-0.3160505891 -0.1020191908 0.5517609119 4291146126
-0.3160981238 -0.1014213935 0.5518438816 4291342738
-0.3161453903 -0.1008233279 0.5519263744 4291079566
-0.3161923885 -0.1002249941 0.5520084500 4291277196
-0.3172212243 -0.0999357924 0.5538045764 4291935126
-0.3157944381 -0.0988737643 0.5513137579 4292329623
-0.3173141778 -0.0987340882 0.5539668798 4292198037
-0.3178515136 -0.0982847437 0.5549049973 4291738261
-0.3178973794 -0.0976822972 0.5549850464 4291606675
-0.3184344172 -0.0972296447 0.5559225678 4290949784
-0.3179883361 -0.0964766368 0.5551438332 4290949784
-0.3185249567 -0.0960216001 0.5560806394 4290621857
-0.3185698390 -0.0954171941 0.5561590195 4290095513
-0.3092968464 -0.1457175314 0.5410192609 4288846980
-0.3094942272 -0.1440060437 0.5413645506 4289176207
-0.3092701733 -0.1414975524 0.5409726501 4288978576
-0.3085674942 -0.1291821897 0.5397434831 4288914315
-0.3081994653 -0.1278301626 0.5390997529 4289960310
-0.3087442815 -0.1274560839 0.5400527120 4289960310
-0.3092890084 -0.1270798743 0.5410055518 4289369197
-0.3093473017 -0.1265026033 0.5411075354 4289698162
-0.3099497259 -0.1255441904 0.5421612859 4290027895
-0.3095206916 -0.1247688755 0.5414108038 4289766005
-0.3106657565 -0.1234191433 0.5434137583 4290029177
-0.3107225001 -0.1228378043 0.5435130000 4290554751
-0.3107790053 -0.1222561449 0.5436118245 4290752130
-0.3108352721 -0.1216741800 0.5437102318 4291079813
-0.3108912706 -0.1210918874 0.5438082218 4291408778
-0.3109470308 -0.1205092892 0.5439057350 4291802512
-0.3114899993 -0.1201143488 0.5448555350 4291868305
-0.3115453422 -0.1195302084 0.5449523330 4291737226
-0.3116004467 -0.1189457625 0.5450487137 4291803019
-0.3112220764 -0.1175916195 0.5443868637 4291079555
-0.3112763166 -0.1170071587 0.5444817543 4290290039
-0.3108423352 -0.1162399203 0.5437226295 4290290039
-0.3113840818 -0.1158373281 0.5446702242 4291013760
-0.3109494448 -0.1150713190 0.5439099669 4291079553
-0.3110025823 -0.1144865677 0.5440029502 4290948480
-0.3105672002 -0.1137227044 0.5432413220 4290882687
-0.3111081719 -0.1133161634 0.5441876054 4290817410
-0.3106721044 -0.1125535443 0.5434248447 4291014789
-0.3117532432 -0.1117334738 0.5453159809 4291277961
-0.3118049800 -0.1111460254 0.5454064608 4291343238
-0.3118564487 -0.1105582863 0.5454965234 4291474824
-0.3124475777 -0.1095533818 0.5465304852 4290816130
-0.3124983311 -0.1089638472 0.5466192961 4290750339
-0.3125488758 -0.1083740368 0.5467076898 4290750339
-0.3130883276 -0.1079526097 0.5476512909 4289302378
-0.3131383955 -0.1073613018 0.5477389097 4287920725
-0.3136775792 -0.1069365367 0.5486820340 4289105252
-0.3137272298 -0.1063437313 0.5487688184 4291342214
-0.3142661154 -0.1059156358 0.5497114658 4292132244
-0.3138257265 -0.1051572934 0.5489411354 4292000658
-0.3143642247 -0.1047267839 0.5498831272 4291935124
-0.3139231801 -0.1039697453 0.5491116047 4291869331
-0.3144613206 -0.1035368294 0.5500529408 4291804054
-0.3145094514 -0.1029414386 0.5501371026 4291738261
-0.3150472939 -0.1025051922 0.5510779023 4291343757
-0.3150950074 -0.1019083336 0.5511613488 4291014792
-0.3151424229 -0.1013111994 0.5512443185 4291080593
-0.3151896000 -0.1007137969 0.5513268113 4291080593
-0.3162637949 -0.0998277366 0.5532057881 4291606677
-0.3163102865 -0.0992276743 0.5532871485 4291935126
-0.3163565397 -0.0986273512 0.5533680320 4292066712
-0.3168930709 -0.0981787443 0.5543065071 4292198044
-0.3174294829 -0.0977280140 0.5552448034 4292132251
-0.3174750507 -0.0971250460 0.5553244948 4291935644
-0.3180111349 -0.0966709927 0.5562621951 4291869851
-0.3180562258 -0.0960665718 0.5563411117 4291804318
-0.3181010783 -0.0954618976 0.5564195514 4291409560
-0.3181456625 -0.0948569626 0.5564975142 4290818712
-0.3186810017 -0.0943972319 0.5574339032 4290358161
-0.3182339966 -0.0936463401 0.5566520095 4290227352
-0.3182777464 -0.0930406526 0.5567286015 4290095766
-0.3094666600 -0.1490944028 0.5423700213 4288322441
-0.3071233034 -0.1473673731 0.5382630825 4288388234
-0.3076721430 -0.1470316052 0.5392249823 4288713064
-0.3087033033 -0.1469232589 0.5410321951 4288581478
-0.3087697625 -0.1463536322 0.5411486626 4288646501
-0.3088359833 -0.1457836330 0.5412647128 4289041259
-0.3089019656 -0.1452132761 0.5413803458 4289042031
-0.3099332452 -0.1450945437 0.5431877375 4289765754
-0.3090332747 -0.1440714449 0.5416104198 4289831553
-0.3090985417 -0.1435000002 0.5417248607 4289831553
-0.3096466959 -0.1431515068 0.5426855087 4289634178
-0.3092284501 -0.1423560083 0.5419524908 4289568385
-0.3088097870 -0.1415619254 0.5412187576 4289238909
-0.3088740408 -0.1409899294 0.5413314104 4288975737
-0.3094215393 -0.1406373233 0.5422909260 4289041788
-0.3090018630 -0.1398448646 0.5415554047 4289041788
-0.3085817695 -0.1390538514 0.5408191085 4288975743
-0.3091287613 -0.1386983842 0.5417777896 4289107329
-0.3082241118 -0.1376923025 0.5401923060 4289043846
-0.3082867563 -0.1371199787 0.5403020978 4288912260
-0.3078651130 -0.1363329440 0.5395631790 4288978317
-0.3088955283 -0.1361877471 0.5413690209 4289109903
-0.3054461777 -0.1305034906 0.5353237391 4289438608
-0.3059907258 -0.1301403046 0.5362780690 4289504401
-0.3060501814 -0.1295696348 0.5363823175 4289701509
-0.3075647652 -0.1296119541 0.5390367508 4289701509
-0.3071388304 -0.1288343817 0.5382902622 4289700983
-0.3076830804 -0.1284635365 0.5392441154 4289174639
-0.3082272708 -0.1280905455 0.5401979089 4290288759
-0.3082859218 -0.1275146008 0.5403006673 4290354552
-0.3083443344 -0.1269383281 0.5404030085 4289763442
-0.3088881671 -0.1265607327 0.5413561463 4290092407
-0.3089461923 -0.1259828955 0.5414578319 4289764723
-0.3090039492 -0.1254047453 0.5415590405 4290093688
-0.3090614676 -0.1248262674 0.5416598916 4289765233
-0.3091187477 -0.1242474690 0.5417602658 4289831026
-0.3091757894 -0.1236683428 0.5418602228 4289962351
-0.3097187877 -0.1232824400 0.5428118706 4289962351
-0.3097754121 -0.1227017716 0.5429111123 4290422387
-0.3093453944 -0.1219290644 0.5421574712 4290422387
-0.3103744090 -0.1217302680 0.5439609289 4290619515
-0.3104303777 -0.1211477369 0.5440590382 4291606410
-0.3104861081 -0.1205648854 0.5441566706 4292000919
-0.3105415702 -0.1199817210 0.5442538857 4291408782
-0.3105967939 -0.1193982512 0.5443506837 4291211401
-0.3101648688 -0.1186282337 0.5435937047 4291211401
-0.3107065260 -0.1182303727 0.5445429683 4291080331
-0.3102739155 -0.1174615696 0.5437847972 4291014538
-0.3103280365 -0.1168777794 0.5438796878 4290619780
-0.3098946810 -0.1161111146 0.5431201458 4290817159
-0.3104355633 -0.1157092750 0.5440680981 4291474573
-0.3104889691 -0.1151245758 0.5441616774 4291145608
-0.3105421066 -0.1145395711 0.5442547798 4291342987
-0.3101073802 -0.1137753725 0.5434929132 4291145608
-0.3101599216 -0.1131906882 0.5435850024 4291014538
-0.3097244799 -0.1124286577 0.5428218246 4291080331
-0.3102642596 -0.1120204329 0.5437678695 4291277710
-0.3103160560 -0.1114348620 0.5438586473 4291277710
-0.3103675842 -0.1108490005 0.5439489484 4291342987
-0.3109069467 -0.1104362234 0.5448942184 4291474573
-0.3114461899 -0.1100213006 0.5458393097 4292328342
-0.3114971220 -0.1094327271 0.5459285975 4292723100
-0.3120360970 -0.1090144664 0.5468732119 4292263578
-0.3120866120 -0.1084243879 0.5469617248 4291803027
-0.3121368289 -0.1078340337 0.5470497608 4291211403
-0.3121868074 -0.1072433889 0.5471373200 4290553473
-0.3122365177 -0.1066524610 0.5472244620 4291079556
-0.3127746880 -0.1062272340 0.5481676459 4292329623
-0.3128239512 -0.1056348160 0.5482540131 4292789661
-0.3133618534 -0.1052062511 0.5491966605 4292329110
-0.3129217327 -0.1044491529 0.5484253764 4291868820
-0.3139482439 -0.1041804552 0.5502244234 4291671441
-0.3139966428 -0.1035850719 0.5503092408 4291738261
-0.3135555983 -0.1028290018 0.5495362282 4291804054
-0.3136033714 -0.1022340059 0.5496199727 4291277964
-0.3141402006 -0.1017972976 0.5505608320 4290948999
-0.3141875267 -0.1012008339 0.5506438017 4290818701
-0.3142345846 -0.1006040946 0.5507262945 4291674010
-0.3142814040 -0.1000070944 0.5508083105 4292396452
-0.3148175478 -0.0995646641 0.5517479181 4292067487
-0.3153535724 -0.0991201103 0.5526873469 4292001182
-0.3153997064 -0.0985204503 0.5527682304 4292395940
-0.3164252341 -0.0982246324 0.5545656085 4292658598
-0.3169609010 -0.0977737010 0.5555043817 4292395426
-0.3170064390 -0.0971704647 0.5555841923 4292329884
-0.3175417781 -0.0967162177 0.5565224290 4292132505
-0.3175868690 -0.0961115286 0.5566014647 4292395162
-0.3176316917 -0.0955065787 0.5566799641 4292329369
-0.3176762164 -0.0949013755 0.5567580462 4292066712
-0.3182108104 -0.0944414362 0.5576949716 4291342989
-0.3182548881 -0.0938347951 0.5577722192 4291146128
-0.3182986975 -0.0932279006 0.5578489900 4291080335
-0.3183422387 -0.0926207528 0.5579252839 4289901473
-0.3068088591 -0.1504966319 0.5387607217 4288846978
-0.3078386486 -0.1504011452 0.5405690074 4288583806
-0.3083875477 -0.1500676274 0.5415328741 4289239931
-0.3084551990 -0.1494987458 0.5416516662 4289108345
-0.3094852567 -0.1493941545 0.5434604287 4289303673
-0.3090712428 -0.1485912949 0.5427334309 4289237880
-0.3096198440 -0.1482509524 0.5436968207 4288580449
-0.3092051744 -0.1474491209 0.5429686308 4288448863
-0.3092717826 -0.1468774825 0.5430855751 4288712294
-0.3093381524 -0.1463054717 0.5432021618 4288975466
-0.3094043136 -0.1457331032 0.5433183312 4289107054
-0.3099522889 -0.1453864574 0.5442805886 4289764984
-0.3095359504 -0.1445872486 0.5435494781 4290225024
-0.3096013963 -0.1440137774 0.5436643958 4289764473
-0.3101489842 -0.1436633617 0.5446259975 4289830013
-0.3092491627 -0.1426432133 0.5430459380 4290158978
-0.3088312745 -0.1418479085 0.5423120856 4290751630
-0.3088956177 -0.1412747800 0.5424250364 4289896321
-0.3094424605 -0.1409211457 0.5433853269 4289698688
-0.3090235591 -0.1401274502 0.5426497459 4289567102
-0.3090871871 -0.1395532489 0.5427614450 4289172344
-0.3096336126 -0.1391958594 0.5437210202 4289435516
-0.3087305725 -0.1381875426 0.5421352386 4289172598
-0.3083101511 -0.1373978257 0.5413969755 4289304184
-0.3083726466 -0.1368240267 0.5415067077 4288712047
-0.3084348738 -0.1362498701 0.5416160226 4289304184
-0.3080133498 -0.1354627162 0.5408757925 4289633149
-0.3075914085 -0.1346770078 0.5401348472 4289435770
-0.3076527417 -0.1341036111 0.5402425528 4289698939
-0.3072300255 -0.1333199292 0.5395002365 4290027904
-0.3068068624 -0.1325377077 0.5387572050 4290093438
-0.3073513210 -0.1321732551 0.5397132635 4289961852
-0.3069275022 -0.1313921511 0.5389690399 4290290817
-0.3069874644 -0.1308188736 0.5390743017 4290356610
-0.3070471883 -0.1302452534 0.5391792059 4290225024
-0.3071066737 -0.1296713054 0.5392836332 4290488196
-0.3071659207 -0.1290970296 0.5393876433 4290422401
-0.3077094853 -0.1287251264 0.5403422117 4290027643
-0.3077683449 -0.1281492710 0.5404455662 4290225274
-0.3078269660 -0.1275730878 0.5405485034 4290356860
-0.3078853190 -0.1269965768 0.5406509638 4290356860
-0.3084284067 -0.1266188323 0.5416046381 4290554239
-0.3084864020 -0.1260407567 0.5417064428 4290553469
-0.3085441291 -0.1254623532 0.5418078303 4289698160
-0.3086016178 -0.1248836294 0.5419088006 4289632622
-0.3086588681 -0.1243045852 0.5420092940 4290290552
-0.3087158501 -0.1237252206 0.5421093702 4290553724
-0.3087725937 -0.1231455281 0.5422090292 4291014275
-0.3093146980 -0.1227582395 0.5431609750 4291014273
-0.3088853657 -0.1219851971 0.5424070954 4290816894
-0.3094271421 -0.1215954423 0.5433584452 4290816894
-0.3094829917 -0.1210135743 0.5434564948 4291409031
-0.3095386028 -0.1204313934 0.5435541868 4291672203
-0.3095939755 -0.1198488921 0.5436514020 4290751101
-0.3096490800 -0.1192660853 0.5437481403 4290684798
-0.3097039461 -0.1186829656 0.5438444614 4290619005
-0.3092722595 -0.1179141402 0.5430864692 4290882436
-0.3093265593 -0.1173313186 0.5431817770 4290421885
-0.3093805611 -0.1167481914 0.5432766676 4290356092
-0.3089478314 -0.1159821078 0.5425167084 4290882436
-0.3094878793 -0.1155810207 0.5434650779 4291474571
-0.3095411360 -0.1149969846 0.5435585976 4291079813
-0.3095941544 -0.1144126505 0.5436517000 4290948227
-0.3096469343 -0.1138280109 0.5437443852 4291211399
-0.3092125058 -0.1130650192 0.5429815054 4290948999
-0.3092646897 -0.1124807075 0.5430731773 4291080585
-0.3098037243 -0.1120723113 0.5440196991 4291475343
-0.3098554909 -0.1114864871 0.5441105962 4291541136
-0.3099069893 -0.1109003723 0.5442010164 4290620034
-0.3099582195 -0.1103139669 0.5442910194 4290620034
-0.3104966581 -0.1098997965 0.5452365279 4291342727
-0.3105474710 -0.1093118861 0.5453257561 4291211141
-0.3110856414 -0.1088943705 0.5462707877 4290421625
-0.3111360073 -0.1083049625 0.5463592410 4290224246
-0.3111861348 -0.1077152714 0.5464472771 4290816384
-0.3112360239 -0.1071252897 0.5465348363 4291211142
-0.3107977211 -0.1063680500 0.5457651615 4291671954
-0.3118229508 -0.1061105430 0.5475655198 4292527263
-0.3118721247 -0.1055187955 0.5476518869 4293053607
-0.3124091923 -0.1050909758 0.5485949516 4291803540
-0.3119696975 -0.1043344662 0.5478231907 4291671950
-0.3125063777 -0.1039042324 0.5487655997 4291671950
-0.3130429387 -0.1034718752 0.5497078300 4291737747
-0.3126025200 -0.1027163938 0.5489344597 4291342989
-0.3126502037 -0.1021220610 0.5490181446 4291540117
-0.3131861985 -0.1016860902 0.5499594212 4291934875
-0.3132334352 -0.1010902897 0.5500423312 4292198298
-0.3132804036 -0.1004942209 0.5501248240 4292658849
-0.3138159215 -0.1000537276 0.5510651469 4293382572
-0.3138624132 -0.0994561985 0.5511468649 4292461470
-0.3148865700 -0.0991663635 0.5529452562 4291803540
-0.3149327040 -0.0985664427 0.5530262589 4292658849
-0.3154676557 -0.0981183723 0.5539656281 4292725156
-0.3160024881 -0.0976681784 0.5549048185 4292593570
-0.3165371716 -0.0972158611 0.5558437705 4292330398
-0.3165824413 -0.0966120884 0.5559232235 4291935640
-0.3171168268 -0.0961564481 0.5568616390 4292133019
-0.3176510632 -0.0956986919 0.5577997565 4292264605
-0.3172061443 -0.0949457586 0.5570184588 4292396193
-0.3177399933 -0.0944856182 0.5579558611 4292001435
-0.3177840412 -0.0938787013 0.5580332279 4291672470
-0.3183175325 -0.0934152529 0.5589700937 4292001435
-0.3183611035 -0.0928068981 0.5590465665 4291934872
-0.3179145455 -0.0920564532 0.5582624078 4291737493
-0.3179575205 -0.0914485380 0.5583378673 4291081371
-0.3189801574 -0.0911203176 0.5601336956 4290686613
-0.3185326755 -0.0903710127 0.5593478680 4289637274
-0.3190649748 -0.0898995176 0.5602825880 4289439895
-0.3090921044 -0.1531213671 0.5438307524 4288649092
-0.3088176847 -0.1511743218 0.5433478951 4288713335
-0.3088857234 -0.1506038010 0.5434676409 4289173365
-0.3099145293 -0.1504995674 0.5452777743 4289502330
-0.3090211749 -0.1494616419 0.5437059402 4289764473
-0.3095692396 -0.1491215527 0.5446702242 4289830266
-0.3096364737 -0.1485486478 0.5447885394 4289698162
-0.3097034991 -0.1479753554 0.5449064374 4289566576
-0.3097702861 -0.1474017054 0.5450239778 4289369967
-0.3093557060 -0.1465996951 0.5442945361 4288975209
-0.3099031448 -0.1462533027 0.5452577472 4288514658
-0.3094879091 -0.1454523355 0.5445271730 4288975209
-0.3095536828 -0.1448780894 0.5446428657 4289829750
-0.3096192181 -0.1443035007 0.5447581410 4290092922
-0.3092028797 -0.1435050070 0.5440256596 4290487680
-0.3087860942 -0.1427079439 0.5432923436 4291079817
-0.3088507354 -0.1421340406 0.5434060693 4291211919
-0.3089151084 -0.1415597945 0.5435193181 4289961852
-0.3089792728 -0.1409851760 0.5436322093 4289566324
-0.3090431988 -0.1404101998 0.5437446833 4289632117
-0.3091068864 -0.1398348659 0.5438567400 4289237361
-0.3086879849 -0.1390419304 0.5431197286 4289434740
-0.3082686961 -0.1382504404 0.5423820019 4289039980
-0.3078489602 -0.1374603957 0.5416435003 4289105773
-0.3079113960 -0.1368863434 0.5417533517 4288579429
-0.3074908853 -0.1360982955 0.5410134792 4289105773
-0.3065871298 -0.1350989491 0.5394234061 4289434738
-0.3066485822 -0.1345265806 0.5395315289 4289434738
-0.3067097962 -0.1339538544 0.5396391749 4289632369
-0.3062876463 -0.1331707388 0.5388965011 4289895541
-0.3063482940 -0.1325982213 0.5390031934 4289434990
-0.3064087033 -0.1320253760 0.5391094685 4289566576
-0.3064688742 -0.1314522028 0.5392153263 4290158713
-0.3065288067 -0.1308786720 0.5393207669 4290356092
-0.3065884709 -0.1303048283 0.5394257903 4290290297
-0.3071315885 -0.1299352497 0.5403813720 4290553469
-0.3071908951 -0.1293598264 0.5404856801 4290751103
-0.3072499633 -0.1287840605 0.5405896306 4290948482
-0.3073087931 -0.1282079667 0.5406931043 4290685308
-0.3073673546 -0.1276315451 0.5407961607 4290619515
-0.3079098463 -0.1272548735 0.5417506099 4290619515
-0.3079680204 -0.1266768873 0.5418530107 4290882687
-0.3080259562 -0.1260985732 0.5419549346 4290422136
-0.3080836535 -0.1255199313 0.5420564413 4289895792
-0.3076566160 -0.1247445121 0.5413051248 4290224757
-0.3081983328 -0.1243616715 0.5422582030 4290619515
-0.3082552850 -0.1237820610 0.5423584580 4291079807
-0.3078272641 -0.1230084077 0.5416052938 4291474565
-0.3083685040 -0.1226218715 0.5425575972 4291408772
-0.3084247112 -0.1220412999 0.5426565409 4291145600
-0.3084807098 -0.1214604154 0.5427550077 4291145600
-0.3080513179 -0.1206891462 0.5419995785 4291671944
-0.3081067204 -0.1201085448 0.5420970321 4291935116
-0.3086471558 -0.1197158620 0.5430479050 4291277186
-0.3082167804 -0.1189464033 0.5422906876 4291408007
-0.3082714379 -0.1183648631 0.5423868299 4291539593
-0.3083258569 -0.1177830175 0.5424825549 4291408520
-0.3074087203 -0.1168317273 0.5408689380 4291079555
-0.3084339201 -0.1166184023 0.5426726937 4291145348
-0.3084875643 -0.1160356402 0.5427671075 4291408520
-0.3085409999 -0.1154525727 0.5428611040 4291671692
-0.3090801239 -0.1150500998 0.5438096523 4290750590
-0.3091331124 -0.1144655123 0.5439028740 4289368937
-0.3086996973 -0.1137015596 0.5431403518 4289368937
-0.3087521195 -0.1131172925 0.5432325602 4289961332
-0.3088042736 -0.1125327274 0.5433242917 4291277192
-0.3088561594 -0.1119478643 0.5434156060 4291935122
-0.3089078069 -0.1113627106 0.5435065031 4291671950
-0.3089592159 -0.1107772663 0.5435969234 4290487676
-0.3094969690 -0.1103650555 0.5445430875 4290421883
-0.3095479310 -0.1097780988 0.5446327329 4291276934
-0.3095986545 -0.1091908589 0.5447219610 4291474313
-0.3101359606 -0.1087740883 0.5456673503 4290157940
-0.3101862371 -0.1081853509 0.5457558036 4288184150
-0.3107232749 -0.1077652350 0.5467007160 4287855185
-0.3102860153 -0.1070070118 0.5459313989 4288842080
-0.3108227253 -0.1065844819 0.5468756557 4290882177
-0.3113592863 -0.1061598137 0.5478197336 4293053346
-0.3114084303 -0.1055678055 0.5479062200 4292724127
-0.3109699190 -0.1048112363 0.5471346378 4291803025
-0.3115059435 -0.1043829545 0.5480777621 4291474062
-0.3120418787 -0.1039525345 0.5490207076 4291737234
-0.3120900393 -0.1033584923 0.5491054654 4291868820
-0.3121379614 -0.1027641743 0.5491898060 4291276683
-0.3121856153 -0.1021695808 0.5492736101 4291803540
-0.3122330010 -0.1015747115 0.5493569970 4292856228
-0.3122801483 -0.1009795815 0.5494399071 4293250473
-0.3128150105 -0.1005410254 0.5503810048 4293250473
-0.3133497834 -0.1001003459 0.5513219237 4293447852
-0.3133962750 -0.0995025411 0.5514037013 4292329371
-0.3134424686 -0.0989044756 0.5514850020 4291934613
-0.3149533272 -0.0987655222 0.5541432500 4293053094
-0.3154876232 -0.0983163267 0.5550832748 4293447852
-0.3155333102 -0.0977137461 0.5551637411 4293447852
-0.3160672784 -0.0972612277 0.5561031699 4292922021
-0.3161125183 -0.0966571867 0.5561827421 4292527263
-0.3166908920 -0.0955958664 0.5572004318 4292724642
-0.3172241747 -0.0951367095 0.5581387281 4292461470
-0.3172684908 -0.0945297778 0.5582166314 4292461470
-0.3173125088 -0.0939225927 0.5582941175 4292395677
-0.3173562586 -0.0933151543 0.5583711267 4292461470
-0.3178887963 -0.0928503051 0.5593080521 4292527263
-0.3179320991 -0.0922414362 0.5593842268 4292658849
-0.3185070753 -0.0911629722 0.5603958964 4291607453
-0.3190389276 -0.0906915218 0.5613316298 4290819741
-0.3191232681 -0.0894678086 0.5614800453 4289571992
-0.3191650212 -0.0888555944 0.5615535378 4288914062
-0.3056145310 -0.1528922468 0.5387650132 4288187518
-0.3085578978 -0.1537603885 0.5439538360 4287595381
-0.3071892262 -0.1524766535 0.5415409803 4288778105
-0.3077370524 -0.1521458030 0.5425067544 4289041277
-0.3092437387 -0.1522850096 0.5451629162 4289237878
-0.3088326454 -0.1514776498 0.5444381833 4289237878
-0.3093804121 -0.1511403471 0.5454038382 4289566578
-0.3094484210 -0.1505674422 0.5455237031 4289961336
-0.3099960685 -0.1502267271 0.5464891195 4289961587
-0.3095837235 -0.1494205296 0.5457622409 4290027380
-0.3096510470 -0.1488464922 0.5458809137 4289763957
-0.3097181022 -0.1482720971 0.5459991693 4289632371
-0.3097849488 -0.1476973295 0.5461170077 4289566578
-0.3093712032 -0.1468940824 0.5453875661 4289434992
-0.3094374835 -0.1463194638 0.5455043912 4289237611
-0.3095035255 -0.1457444727 0.5456208587 4289434990
-0.3095693290 -0.1451691091 0.5457369089 4289960821
-0.3096349239 -0.1445933878 0.5458524823 4290289786
-0.3092193902 -0.1437936723 0.5451199412 4290684544
-0.3092843890 -0.1432181001 0.5452345610 4291145095
-0.3088680804 -0.1424203515 0.5445006490 4291079302
-0.3089325428 -0.1418449581 0.5446142554 4289829235
-0.3085154593 -0.1410491616 0.5438789725 4289171559
-0.3085793257 -0.1404739618 0.5439916253 4289434731
-0.3086429834 -0.1398983896 0.5441038013 4289039973
-0.3082247972 -0.1391051263 0.5433666110 4289105766
-0.3087695539 -0.1387462020 0.5443269610 4288644702
-0.3083507121 -0.1379540265 0.5435885787 4288907874
-0.3079314232 -0.1371632963 0.5428494215 4289039460
-0.3075116873 -0.1363740116 0.5421094894 4289763183
-0.3070915341 -0.1355861872 0.5413687825 4290092148
-0.3066709638 -0.1347998083 0.5406273603 4290092148
-0.3067322373 -0.1342259496 0.5407353640 4289697902
-0.3063108921 -0.1334415972 0.5399925709 4289632109
-0.3063715696 -0.1328679472 0.5400995612 4289171558
-0.3059494793 -0.1320856214 0.5393554568 4289039972
-0.3060095906 -0.1315122098 0.5394614339 4289500523
-0.3060694933 -0.1309384406 0.5395670533 4290026867
-0.3061291575 -0.1303643584 0.5396721959 4290553209
-0.3061885536 -0.1297899187 0.5397769213 4291013760
-0.3067307770 -0.1294189692 0.5407328010 4291079553
-0.3067898154 -0.1288429648 0.5408368707 4291276932
-0.3063653708 -0.1280646324 0.5400885940 4290882939
-0.3069071174 -0.1276899576 0.5410436988 4290685560
-0.3069654405 -0.1271129698 0.5411464572 4290619767
-0.3070234954 -0.1265356392 0.5412488580 4290553974
-0.3070813119 -0.1259579957 0.5413507819 4290158703
-0.3076225817 -0.1255774647 0.5423049331 4290487668
-0.3076799810 -0.1249982566 0.5424062014 4291408772
-0.3072533011 -0.1242230982 0.5416539907 4291277186
-0.3073101640 -0.1236441508 0.5417541862 4291210880
-0.3073667586 -0.1230648831 0.5418539643 4291342466
-0.3064548373 -0.1220995188 0.5402463675 4291539845
-0.3074792027 -0.1219053939 0.5420522094 4291737224
-0.3075350821 -0.1213251725 0.5421506763 4292065419
-0.3071062863 -0.1205544844 0.5413948298 4292197005
-0.3071615696 -0.1199745536 0.5414922833 4292065419
-0.3072166145 -0.1193943024 0.5415892601 4291802247
-0.3072713912 -0.1188137457 0.5416858792 4291736454
-0.3073259294 -0.1182328761 0.5417820215 4291933833
-0.3073802292 -0.1176516935 0.5418777466 4291671433
-0.3074342906 -0.1170702130 0.5419729948 4291342468
-0.3065180779 -0.1161209494 0.5403578281 4291013503
-0.3070565462 -0.1157235056 0.5413070917 4290684538
-0.3075949252 -0.1153239235 0.5422561765 4291210882
-0.3076479435 -0.1147412211 0.5423496962 4291013503
-0.3077007532 -0.1141582206 0.5424427390 4289368678
-0.3077532947 -0.1135749146 0.5425353646 4289566057
-0.3082910776 -0.1131695360 0.5434834361 4290487418
-0.3078576326 -0.1124074236 0.5427193046 4291342727
-0.3083950877 -0.1119996086 0.5436667800 4291737485
-0.3084466755 -0.1114141941 0.5437577963 4291737485
-0.3084980547 -0.1108284965 0.5438483357 4290290039
-0.3085491657 -0.1102425009 0.5439383984 4289500523
-0.3090859950 -0.1098289043 0.5448848009 4290881664
-0.3091366887 -0.1092414111 0.5449741483 4291868559
-0.3091871142 -0.1086536199 0.5450630188 4291473801
-0.3092372715 -0.1080655530 0.5451514721 4289565804
-0.3097734749 -0.1076461822 0.5460968018 4288578908
-0.3098232150 -0.1070566177 0.5461844206 4288776287
-0.3098726869 -0.1064667627 0.5462716818 4289961074
-0.3099219203 -0.1058766320 0.5463584661 4291934864
-0.3104574978 -0.1054515019 0.5473026037 4293184678
-0.3109929562 -0.1050242409 0.5482465625 4292658334
-0.3105548024 -0.1042679846 0.5474741459 4291868822
-0.3110898733 -0.1038383171 0.5484174490 4291803029
-0.3111379743 -0.1032449380 0.5485022068 4292131992
-0.3111857772 -0.1026512831 0.5485864878 4291671441
-0.3117204010 -0.1022170708 0.5495289564 4292132244
-0.3117677569 -0.1016219407 0.5496124625 4292987553
-0.3118148744 -0.1010265499 0.5496954918 4293184682
-0.3118616939 -0.1004308760 0.5497780442 4292855717
-0.3123956323 -0.0999909341 0.5507193208 4293184682
-0.3124420345 -0.0993938074 0.5508010983 4292329373
-0.3134631515 -0.0991046652 0.5526012182 4292000408
-0.3130215704 -0.0983519405 0.5518227816 4293053096
-0.3140425086 -0.0980576128 0.5536226034 4293382059
-0.3145757616 -0.0976079553 0.5545626879 4293447852
-0.3151088953 -0.0971561745 0.5555025339 4293316266
-0.3156419098 -0.0967022702 0.5564421415 4292789922
-0.3156868517 -0.0960977003 0.5565213561 4292658336
-0.3157315254 -0.0954928771 0.5566001534 4292789922
-0.3162640035 -0.0950344577 0.5575388074 4292263578
-0.3163082004 -0.0944281891 0.5576167703 4292855715
-0.3168403208 -0.0939664543 0.5585548282 4293118885
-0.3168840706 -0.0933587402 0.5586319566 4292855713
-0.3169275224 -0.0927507803 0.5587085485 4292461216
-0.3169707060 -0.0921425670 0.5587846637 4292658595
-0.3175020814 -0.0916751474 0.5597214699 4292462245
-0.3175447881 -0.0910655037 0.5597967505 4292199073
-0.3180758059 -0.0905947834 0.5607329011 4291870879
-0.3181180358 -0.0899837092 0.5608072877 4291739293
-0.3186487257 -0.0895096809 0.5617428422 4291016605
-0.3186904490 -0.0888971910 0.5618163943 4290358675
-0.3187319338 -0.0882844552 0.5618895292 4289637274
-0.3177952766 -0.0874025524 0.5602383018 4289571481
-0.3060407341 -0.1540064514 0.5405747890 4287794569
-0.3075446188 -0.1541596800 0.5432311893 4286805605
-0.3090489209 -0.1543072015 0.5458883047 4287002984
-0.3081611097 -0.1532591432 0.5443201065 4288317035
-0.3082298636 -0.1526884139 0.5444415212 4288646000
-0.3097345829 -0.1528259367 0.5470993519 4288973677
-0.3088455200 -0.1517811567 0.5455290079 4289368435
-0.3093926609 -0.1514428407 0.5464954376 4289500272
-0.3094606996 -0.1508688331 0.5466156602 4289829237
-0.3095285296 -0.1502944380 0.5467354655 4289829486
-0.3095961511 -0.1497196704 0.5468548536 4289961072
-0.3096635044 -0.1491445154 0.5469738841 4290092920
-0.3097306490 -0.1485690027 0.5470924973 4290027127
-0.3093180060 -0.1477640122 0.5463635921 4289829748
-0.3093845844 -0.1471886337 0.5464811921 4289763955
-0.3089711666 -0.1463855803 0.5457509160 4289829748
-0.3090371788 -0.1458103657 0.5458675623 4289698162
-0.3091029525 -0.1452347785 0.5459837317 4289829235
-0.3091684878 -0.1446588188 0.5460994840 4290223993
-0.3092338145 -0.1440824866 0.5462148786 4290684544
-0.3088186085 -0.1432829648 0.5454815030 4290552958
-0.3084029853 -0.1424848735 0.5447473526 4290355579
-0.3079869151 -0.1416882128 0.5440124273 4289763442
-0.3080509901 -0.1411131322 0.5441256166 4289039973
-0.3081148267 -0.1405376792 0.5442383885 4289368938
-0.3081784546 -0.1399618834 0.5443507433 4289171559
-0.3082418144 -0.1393857300 0.5444626808 4289039973
-0.3078239858 -0.1385926753 0.5437245965 4288513115
-0.3078867793 -0.1380167007 0.5438355803 4288907873
-0.3074681759 -0.1372256428 0.5430961847 4289500523
-0.3070491552 -0.1364360303 0.5423560143 4290092660
-0.3066296875 -0.1356478631 0.5416150689 4290421625
-0.3066912591 -0.1350731999 0.5417238474 4290487418
-0.3062710166 -0.1342870593 0.5409815311 4289697900
-0.3058503568 -0.1335023791 0.5402384996 4289500521
-0.3059110343 -0.1329284906 0.5403456688 4289303142
-0.3054896295 -0.1321458369 0.5396013260 4289566314
-0.3055497110 -0.1315721720 0.5397074819 4290092658
-0.3056095541 -0.1309981793 0.5398131609 4290487416
-0.3056691885 -0.1304238439 0.5399184823 4290816381
-0.3052463531 -0.1296443641 0.5391715765 4291079553
-0.3057877123 -0.1292741746 0.5401278138 4291145346
-0.3058466017 -0.1286988407 0.5402318835 4291408518
-0.3054227531 -0.1279210895 0.5394831896 4291342976
-0.3059636652 -0.1275471747 0.5404386520 4290553460
-0.3060218394 -0.1269708425 0.5405414104 4290685046
-0.3065625727 -0.1265935451 0.5414965153 4291474562
-0.3061374724 -0.1258172095 0.5407456756 4291211391
-0.3066778779 -0.1254374385 0.5417001843 4290882426
-0.3067351878 -0.1248588935 0.5418013930 4291276671
-0.3063091040 -0.1240843087 0.5410488248 4291342464
-0.3063658178 -0.1235060319 0.5411490202 4290946938
-0.3059389889 -0.1227335408 0.5403950810 4290815352
-0.3059951365 -0.1221555322 0.5404942036 4291012733
-0.3060510159 -0.1215772107 0.5405929685 4291341698
-0.3061066866 -0.1209985763 0.5406912565 4291473284
-0.3061620891 -0.1204196215 0.5407891273 4290881147
-0.3062172532 -0.1198403537 0.5408865809 4289959532
-0.3057883382 -0.1190723702 0.5401289463 4289367395
-0.3058429062 -0.1184933931 0.5402253270 4289762664
-0.3058972359 -0.1179141104 0.5403213501 4290946938
-0.3059513271 -0.1173345149 0.5404168963 4291605638
-0.3060051799 -0.1167546213 0.5405119658 4291276673
-0.3055745065 -0.1159905940 0.5397512317 4290881917
-0.3061121106 -0.1155939028 0.5407008529 4290881917
-0.3066496551 -0.1151950732 0.5416503549 4290881917
-0.3067025840 -0.1146130413 0.5417438149 4290355573
-0.3067552745 -0.1140307114 0.5418368578 4289763436
-0.3068076968 -0.1134480760 0.5419294834 4290421366
-0.3073446453 -0.1130434498 0.5428779125 4291671692
-0.3069117963 -0.1122819185 0.5421133637 4291934864
-0.3074484169 -0.1118748561 0.5430611968 4292066450
-0.3074999154 -0.1112901196 0.5431522131 4292395415
-0.3075511754 -0.1107050851 0.5432427526 4291079555
-0.3076021671 -0.1101197600 0.5433328152 4289961074
-0.3081381619 -0.1097069159 0.5442795753 4291276421
-0.3086740673 -0.1092919260 0.5452261567 4291934351
-0.3087244630 -0.1087038890 0.5453152061 4292197270
-0.3087746203 -0.1081155613 0.5454037786 4291605133
-0.3088245094 -0.1075269431 0.5454918742 4291013250
-0.3093597889 -0.1071061864 0.5464373827 4290355320
-0.3094092309 -0.1065160781 0.5465247035 4290157940
-0.3094584048 -0.1059256867 0.5466116071 4291276421
-0.3095073402 -0.1053350195 0.5466980338 4292000658
-0.3100419939 -0.1049085036 0.5476423502 4292658588
-0.3100904822 -0.1043163463 0.5477280021 4292460959
-0.3106248081 -0.1038864851 0.5486718416 4292000408
-0.3106728792 -0.1032928452 0.5487567186 4292460959
-0.3107206523 -0.1026989371 0.5488411188 4292526752
-0.3107681870 -0.1021047458 0.5489251018 4292329623
-0.3108154535 -0.1015102863 0.5490086079 4292592795
-0.3113489449 -0.1010734886 0.5499508977 4292198044
-0.3113957345 -0.1004775614 0.5500335693 4291737493
-0.3119289279 -0.1000374258 0.5509753823 4292329884
-0.3119752705 -0.0994400308 0.5510572791 4292132505
-0.3125081658 -0.0989965647 0.5519984961 4291803027
-0.3125540614 -0.0983977094 0.5520795584 4292460957
-0.3135735095 -0.0981032550 0.5538803339 4292921508
-0.3141060174 -0.0976534039 0.5548208952 4293184680
-0.3146384060 -0.0972014293 0.5557612181 4293053092
-0.3146835268 -0.0965977833 0.5558409691 4292658334
-0.3152155578 -0.0961424857 0.5567806959 4292329369
-0.3152602017 -0.0955373943 0.5568596125 4292658334
-0.3153046072 -0.0949320421 0.5569379926 4292329623
-0.3158361018 -0.0944722295 0.5578768253 4293119139
-0.3158800304 -0.0938654393 0.5579543710 4293382311
-0.3159236610 -0.0932583958 0.5580314398 4293119139
-0.3159670234 -0.0926510990 0.5581080914 4292987303
-0.3164978027 -0.0921855941 0.5590456128 4292789924
-0.3165406883 -0.0915768594 0.5591213703 4292330400
-0.3170711100 -0.0911080465 0.5600582361 4292067228
-0.3171135187 -0.0904978886 0.5601331592 4291935642
-0.3171556294 -0.0898874849 0.5602076054 4292067228
-0.3181734979 -0.0895515308 0.5620054603 4292132768
-0.3182152212 -0.0889387652 0.5620791316 4292066975
-0.3182566464 -0.0883257538 0.5621523261 4291148195
-0.3182978034 -0.0877125040 0.5622250438 4290819230
-0.3093269765 -0.1565743983 0.5474534631 4287530881
-0.3089892864 -0.1551882774 0.5468557477 4287134822
-0.3090587556 -0.1546154469 0.5469787717 4287266408
-0.3091280162 -0.1540422142 0.5471013188 4287790945
-0.3096749485 -0.1537058204 0.5480692983 4287856738
-0.3087878525 -0.1526583135 0.5464993119 4288315233
-0.3088563383 -0.1520848423 0.5466204882 4288907370
-0.3089925945 -0.1509367228 0.5468616486 4289433196
-0.3090603948 -0.1503621042 0.5469816327 4289566057
-0.3091279566 -0.1497871131 0.5471011996 4289829229
-0.3091952801 -0.1492117345 0.5472203493 4289961587
-0.3092623949 -0.1486359835 0.5473391414 4290356345
-0.3088504076 -0.1478306651 0.5466099977 4290553211
-0.3084380031 -0.1470267475 0.5458801389 4290553211
-0.3085042238 -0.1464516670 0.5459973216 4290421625
-0.3085702062 -0.1458762139 0.5461140871 4289632109
-0.3081566691 -0.1450747699 0.5453822017 4289237352
-0.3082220852 -0.1444994807 0.5454979539 4289632110
-0.3082872629 -0.1439238191 0.5456133485 4289829489
-0.3078726530 -0.1431248486 0.5448795557 4289171559
-0.3074575961 -0.1423273236 0.5441449881 4289368171
-0.3075218797 -0.1417523623 0.5442587137 4289697136
-0.3075859249 -0.1411770433 0.5443720818 4288973413
-0.3071697652 -0.1403820217 0.5436355472 4289236585
-0.3077133000 -0.1400253326 0.5445975065 4289368171
-0.3072964847 -0.1392313987 0.5438598394 4289170792
-0.3068792224 -0.1384388953 0.5431213379 4289105252
-0.3059811890 -0.1374320984 0.5415320396 4289368424
-0.3070043325 -0.1372879446 0.5433427691 4289763182
-0.3061054349 -0.1362840533 0.5417519212 4290157940
-0.3052059412 -0.1352834105 0.5401599407 4290553209
-0.3057480156 -0.1349224746 0.5411192775 4290882174
-0.3053283691 -0.1341369003 0.5403766036 4290158451
-0.3049083054 -0.1333527863 0.5396331549 4290092658
-0.3049688339 -0.1327795684 0.5397403240 4289303142
-0.3050291240 -0.1322060078 0.5398470163 4289566314
-0.3050891757 -0.1316321045 0.5399532914 4289961072
-0.3046677113 -0.1308511645 0.5392073393 4290224244
-0.3047271967 -0.1302774996 0.5393126607 4290619002
-0.3052679300 -0.1299083978 0.5402696729 4291013760
-0.3048454523 -0.1291291565 0.5395219326 4291145346
-0.3049042225 -0.1285544932 0.5396259427 4291145346
-0.3054445386 -0.1281816661 0.5405821800 4290487921
-0.3055029213 -0.1276054233 0.5406855345 4290224749
-0.3050791025 -0.1268285066 0.5399354100 4290618994
-0.3056189418 -0.1264519691 0.5408908725 4291342717
-0.3056766093 -0.1258747429 0.5409929156 4291342719
-0.3057340384 -0.1252971888 0.5410945415 4290684789
-0.3053088784 -0.1245225966 0.5403421521 4290223213
-0.3058481216 -0.1241411120 0.5412964821 4290025834
-0.3054223061 -0.1233676970 0.5405429006 4289894250
-0.3054786623 -0.1227897704 0.5406426191 4289960043
-0.3055347800 -0.1222115159 0.5407419205 4290091118
-0.3051078916 -0.1214407980 0.5399863720 4289959532
-0.3051634133 -0.1208628267 0.5400846601 4289893741
-0.3047357798 -0.1200942248 0.5393278003 4289762155
-0.3047907352 -0.1195165366 0.5394250751 4289367397
-0.3048454225 -0.1189385429 0.5395219326 4289104225
-0.3048999012 -0.1183602437 0.5396183133 4289105506
-0.3049541116 -0.1177816242 0.5397142768 4289763436
-0.3050080836 -0.1172027066 0.5398097634 4290881917
-0.3040949106 -0.1162538305 0.5381935835 4291342468
-0.3055988252 -0.1162278503 0.5408552885 4291539847
-0.3056521416 -0.1156470925 0.5409496427 4292066191
-0.3057052195 -0.1150660291 0.5410435796 4291605386
-0.3062418103 -0.1146658137 0.5419932604 4290947456
-0.3062944710 -0.1140832305 0.5420864224 4291013249
-0.3068308234 -0.1136796549 0.5430356860 4291342214
-0.3059149683 -0.1127387807 0.5414147973 4292263829
-0.3069350421 -0.1125111505 0.5432201624 4292263829
-0.3069867790 -0.1119264513 0.5433117151 4292461209
-0.3065539598 -0.1111658439 0.5425456762 4292921760
-0.3070894778 -0.1107561812 0.5434934497 4292395416
-0.3071404397 -0.1101706028 0.5435836315 4292132244
-0.3076756895 -0.1097575799 0.5445309281 4292197777
-0.3077262342 -0.1091704965 0.5446203947 4292066191
-0.3077765107 -0.1085831225 0.5447093844 4292197270
-0.3083113134 -0.1081655398 0.5456559062 4292131477
-0.3083611727 -0.1075766683 0.5457441211 4291868307
-0.3084107637 -0.1069875136 0.5458319187 4291276170
-0.3089451194 -0.1065653712 0.5467776060 4290947457
-0.3089942634 -0.1059747189 0.5468646288 4291473801
-0.3090431690 -0.1053837910 0.5469511747 4291013762
-0.3086065948 -0.1046280712 0.5461784601 4292132243
-0.3096255064 -0.1043646783 0.5479817986 4293053094
-0.3101591170 -0.1039346308 0.5489261746 4293053094
-0.3097216785 -0.1031790152 0.5481519699 4293184680
-0.3102548718 -0.1027465612 0.5490956903 4292855715
-0.3103023767 -0.1021521166 0.5491797328 4291868818
-0.3103496134 -0.1015573964 0.5492633581 4292263576
-0.3108823597 -0.1011204049 0.5502061844 4291671441
-0.3109291494 -0.1005242094 0.5502889752 4290816132
-0.3114615679 -0.1000838876 0.5512312651 4291605648
-0.3115078807 -0.0994862244 0.5513132811 4292131992
-0.3110679090 -0.0987340286 0.5505346060 4292000404
-0.3125720024 -0.0985967889 0.5531965494 4292263576
-0.3131038547 -0.0981488749 0.5541378856 4292395162
-0.3136356175 -0.0976988301 0.5550789237 4292329369
-0.3141672313 -0.0972466469 0.5560198426 4292329623
-0.3142123222 -0.0966427401 0.5560996532 4292395416
-0.3147436082 -0.0961872414 0.5570399165 4292263830
-0.3147882521 -0.0955818817 0.5571188927 4292724381
-0.3148325980 -0.0949762613 0.5571973920 4292461209
-0.3153633475 -0.0945162475 0.5581367612 4292790174
-0.3154072464 -0.0939091817 0.5582144260 4292658587
-0.3154508471 -0.0933018699 0.5582916141 4292724380
-0.3159810603 -0.0928373486 0.5592299700 4293249960
-0.3160242140 -0.0922285914 0.5593063235 4293513132
-0.3160670698 -0.0916195884 0.5593822002 4293382572
-0.3161096573 -0.0910103396 0.5594576001 4292922021
-0.3156648576 -0.0902615488 0.5586703420 4292527263
-0.3171684444 -0.0900678039 0.5613314509 4292461470
-0.3176976144 -0.0895933583 0.5622679591 4292460959
-0.3177393079 -0.0889803097 0.5623417497 4292395166
-0.3177807331 -0.0883670300 0.5624150634 4292002211
-0.3173344135 -0.0876189098 0.5616251230 4291673246
-0.3173752129 -0.0870060921 0.5616973639 4290754979
-0.3174157143 -0.0863930359 0.5617690682 4290426014
-0.3111695647 -0.1584303826 0.5517991781 4287597450
-0.3083805442 -0.1564027816 0.5468533635 4287003762
-0.3089271784 -0.1560713500 0.5478227139 4287332727
-0.3099506497 -0.1559777260 0.5496376753 4287725928
-0.3095434606 -0.1551629305 0.5489155650 4287396963
-0.3091358244 -0.1543495208 0.5481927395 4287921501
-0.3092049360 -0.1537747979 0.5483152270 4287855708
-0.3092738092 -0.1531997025 0.5484373569 4288380762
-0.3088650703 -0.1523886770 0.5477125645 4288775520
-0.3089333773 -0.1518137008 0.5478336811 4288906591
-0.3085238636 -0.1510045826 0.5471075177 4289103970
-0.3085916042 -0.1504297405 0.5472276807 4289367908
-0.3086591363 -0.1498545110 0.5473473668 4289828459
-0.3087264299 -0.1492789090 0.5474666953 4289895273
-0.3087934852 -0.1487029195 0.5475856066 4290224238
-0.3088603020 -0.1481265724 0.5477041602 4290421362
-0.3084487021 -0.1473214328 0.5469742417 4290750327
-0.3080366552 -0.1465177089 0.5462435484 4290815352
-0.3081025779 -0.1459420323 0.5463604331 4289894250
-0.3081682622 -0.1453659683 0.5464769602 4288973920
-0.3082337379 -0.1447895467 0.5465930104 4289039713
-0.3078202605 -0.1439888328 0.5458598137 4288380759
-0.3078851402 -0.1434125602 0.5459748507 4287920208
-0.3074708879 -0.1426137984 0.5452402830 4288578139
-0.3070561886 -0.1418164670 0.5445048809 4289499241
-0.3071202040 -0.1412409246 0.5446183681 4289104485
-0.3071839809 -0.1406650096 0.5447314382 4289038692
-0.3067681789 -0.1398701966 0.5439941287 4289499243
-0.3063519597 -0.1390768290 0.5432560444 4289367657
-0.3055182099 -0.1374944150 0.5417775512 4289894252
-0.3055804074 -0.1369203329 0.5418878198 4290223217
-0.3051625490 -0.1361318529 0.5411468744 4290289010
-0.3047442734 -0.1353448331 0.5404051542 4290487159
-0.3043255508 -0.1345592737 0.5396626592 4290881917
-0.3043865263 -0.1339865029 0.5397707224 4290026606
-0.3044472635 -0.1334133893 0.5398784280 4289895020
-0.3040274680 -0.1326304078 0.5391340256 4289960813
-0.3040876389 -0.1320575178 0.5392407179 4290158192
-0.3037266731 -0.1307039112 0.5386006236 4290223983
-0.3037860096 -0.1301309168 0.5387058258 4290684534
-0.3033643663 -0.1293525994 0.5379581451 4290816120
-0.3043848872 -0.1291880161 0.5397678018 4290750327
-0.3039626777 -0.1284099221 0.5390191078 4290289776
-0.3035400212 -0.1276333183 0.5382696390 4290092648
-0.3045603633 -0.1274622977 0.5400789976 4289895269
-0.3046183884 -0.1268863976 0.5401818752 4290618478
-0.3046761751 -0.1263101697 0.5402843356 4291342201
-0.3047909737 -0.1251567304 0.5404879451 4289170778
-0.3048480451 -0.1245795190 0.5405891538 4287591748
-0.3044231534 -0.1238060892 0.5398356915 4287920713
-0.3049614131 -0.1234241351 0.5407902002 4286867259
-0.3050177395 -0.1228459626 0.5408900380 4288446291
-0.3045918643 -0.1220743135 0.5401348472 4289235809
-0.3041655719 -0.1213041767 0.5393788815 4288577879
