VERSION 0.7
FIELDS x y z rgba
SIZE 4 4 4 4
TYPE F F F U
COUNT 1 1 1 1
WIDTH 920
HEIGHT 1
VIEWPOINT 0.0 0.0 0.0 1.0 0.0 0.0 0.0
POINTS 920
DATA ascii
-0.2695989311 -0.1221200451 0.5742117167 4289102167
-0.2696491480 -0.1215046868 0.5743187070 4289102167
-0.2701166272 -0.1210761145 0.5753143430 4288971097
-0.2701664269 -0.1204591095 0.5754204392 4289036890
-0.2702160180 -0.1198417693 0.5755260587 4289037663
-0.2702653706 -0.1192240864 0.5756311417 4289498214
-0.2703144848 -0.1186060682 0.5757357478 4289565036
-0.2703633606 -0.1179877147 0.5758398771 4289499243
-0.2704119980 -0.1173690259 0.5759434700 4289433966
-0.2708784044 -0.1169304475 0.5769369006 4289499759
-0.2709266543 -0.1163101420 0.5770395994 4289501301
-0.2713928223 -0.1158680320 0.5780324936 4289369715
-0.2714406550 -0.1152461022 0.5781343579 4289763705
-0.2719065547 -0.1148004606 0.5791266561 4290224256
-0.2719539702 -0.1141769141 0.5792276263 4289961601
-0.2724196017 -0.1137277484 0.5802193880 4289040499
-0.2728851438 -0.1132763326 0.5812109709 4288909950
-0.2733505964 -0.1128226668 0.5822023153 4290028431
-0.2738159299 -0.1123667657 0.5831934214 4291478199
-0.2742811739 -0.1119086146 0.5841842890 4293057231
-0.2702307105 -0.2008986771 0.5769220591 4291612891
-0.2703086138 -0.2003154010 0.5770883560 4291481305
-0.2703863084 -0.1997316182 0.5772542953 4291283926
-0.2708687186 -0.1994454563 0.5782842040 4291152340
-0.2705411911 -0.1985625476 0.5775849223 4290955731
-0.2706183493 -0.1979772598 0.5777496696 4290560973
-0.2702901065 -0.1970959753 0.5770488977 4290428617
-0.2703667879 -0.1965105683 0.5772126317 4290231238
-0.2708487511 -0.1962184012 0.5782415271 4289968064
-0.2709251642 -0.1956311315 0.5784047246 4289770685
-0.2714070976 -0.1953353286 0.5794336200 4289507513
-0.2714832723 -0.1947461665 0.5795962214 4289046962
-0.2715592384 -0.1941565275 0.5797584057 4288915117
-0.2720410526 -0.1938557178 0.5807870626 4288651945
-0.2721167803 -0.1932641864 0.5809487104 4288454564
-0.2721922994 -0.1926721781 0.5811099410 4288191392
-0.2722676396 -0.1920796782 0.5812708139 4287796119
-0.2719362974 -0.1912008673 0.5805634260 4287467154
-0.2720111310 -0.1906082630 0.5807231665 4287269775
-0.2720857859 -0.1900151819 0.5808825493 4286940810
-0.2721602619 -0.1894215941 0.5810415149 4286874754
-0.2718275785 -0.1885452718 0.5803313255 4286677375
-0.2719015479 -0.1879516095 0.5804892182 4286479739
-0.2719753087 -0.1873574704 0.5806466937 4286216567
-0.2720488906 -0.1867628396 0.5808038116 4286215797
-0.2725296617 -0.1864464134 0.5818301439 4286150004
-0.2726029456 -0.1858499348 0.5819866061 4286018418
-0.2726760507 -0.1852529645 0.5821427107 4285952625
-0.2727489471 -0.1846555173 0.5822983384 4286018418
-0.2732294500 -0.1843327135 0.5833241940 4285952625
-0.2733020782 -0.1837334186 0.5834792256 4285952625
-0.2733744979 -0.1831336468 0.5836338401 4285952625
-0.2734467089 -0.1825333983 0.5837880373 4285952112
-0.2739269733 -0.1822042167 0.5848133564 4285886319
-0.2739988863 -0.1816021204 0.5849668980 4285951342
-0.2740706205 -0.1809995472 0.5851200223 4285885549
-0.2745507061 -0.1806653589 0.5861449838 4285754987
-0.2746221423 -0.1800609380 0.5862974524 4285820780
-0.2751021385 -0.1797230989 0.5873222351 4285754987
-0.2751732767 -0.1791168451 0.5874741077 4285689194
-0.2752442062 -0.1785101295 0.5876255035 4285689194
-0.2753149271 -0.1779029369 0.5877765417 4285689194
-0.2757946253 -0.1775587052 0.5888006687 4285491815
-0.2758650482 -0.1769496799 0.5889509916 4285426022
-0.2759352624 -0.1763401777 0.5891008973 4285622631
-0.2760052681 -0.1757302135 0.5892503262 4285556838
-0.2760750651 -0.1751198024 0.5893993378 4285491045
-0.2761446536 -0.1745089144 0.5895479321 4285425252
-0.2762140334 -0.1738975644 0.5896960497 4285293666
-0.2758733034 -0.1730286479 0.5889685750 4285162080
-0.2755321562 -0.1721611023 0.5882402658 4285162080
-0.2756007016 -0.1715501845 0.5883865952 4285162080
-0.2756690383 -0.1709388196 0.5885325074 4284834142
-0.2757371664 -0.1703270078 0.5886779428 4284768349
-0.2758050859 -0.1697147340 0.5888229609 4284637018
-0.2758727968 -0.1691020131 0.5889675021 4284571225
-0.2759402692 -0.1684888452 0.5891115665 4284570710
-0.2760075629 -0.1678752154 0.5892552137 4284373331
-0.2760746181 -0.1672611535 0.5893984437 4284372302
-0.2761414945 -0.1666466296 0.5895411372 4284306509
-0.2762081325 -0.1660316736 0.5896834135 4284372042
-0.2762745619 -0.1654162556 0.5898252726 4284174663
-0.2767519951 -0.1650456488 0.5908445120 4284042561
-0.2768180966 -0.1644284427 0.5909856558 4283779389
-0.2764725387 -0.1635673791 0.5902479291 4283778874
-0.2765381038 -0.1629502028 0.5903879404 4283713081
-0.2761918604 -0.1620910317 0.5896486640 4283647542
-0.2758451700 -0.1612332612 0.5889085531 4283647542
-0.2754980922 -0.1603768915 0.5881675482 4283779127
-0.2751505971 -0.1595219225 0.5874256492 4283976506
-0.2739786804 -0.1581926048 0.5849237442 4284370494
-0.2732180953 -0.1571053565 0.5832999349 4284567873
-0.2724568844 -0.1560213715 0.5816748142 4284896577
-0.2721073627 -0.1551757604 0.5809286237 4285159749
-0.2717574537 -0.1543315947 0.5801815391 4285751111
-0.2714071274 -0.1534888446 0.5794336200 4286080076
-0.2714689672 -0.1528798789 0.5795656443 4285947460
-0.2711179256 -0.1520390809 0.5788161755 4286144839
-0.2711792290 -0.1514302045 0.5789470673 4286473030
-0.2708274424 -0.1505913585 0.5781961083 4286604616
-0.2708882391 -0.1499825865 0.5783258677 4286866760
-0.2705357671 -0.1491457075 0.5775733590 4286866760
-0.2705959976 -0.1485370547 0.5777019262 4287129416
-0.2702428102 -0.1477021426 0.5769479275 4287195209
-0.2703025043 -0.1470936090 0.5770754218 4287326019
-0.2699486017 -0.1462606937 0.5763198137 4287720777
-0.2695943117 -0.1454292387 0.5755634308 4287852363
-0.2696531713 -0.1448213607 0.5756890774 4287720777
-0.2692981660 -0.1439919025 0.5749311447 4287786570
-0.2693564892 -0.1433841586 0.5750557184 4287786570
-0.2694146037 -0.1427760273 0.5751797557 4287720779
-0.2694725096 -0.1421675086 0.5753033757 4287720779
-0.2691161335 -0.1413411498 0.5745425820 4287589193
-0.2691735029 -0.1407327801 0.5746650696 4287523400
-0.2692306340 -0.1401240230 0.5747870207 4287391812
-0.2692875564 -0.1395148784 0.5749085546 4287326019
-0.2693442404 -0.1389053464 0.5750295520 4287522884
-0.2694007158 -0.1382954419 0.5751500726 4287720263
-0.2694569528 -0.1376851350 0.5752701759 4287851595
-0.2695129514 -0.1370744556 0.5753897429 4287917388
-0.2695687413 -0.1364634037 0.5755088329 4287392324
-0.2696242929 -0.1358519644 0.5756274462 4287721289
-0.2696796358 -0.1352401525 0.5757455826 4288116047
-0.2693197727 -0.1344208419 0.5749772787 4288510805
-0.2693745494 -0.1338092238 0.5750942826 4288707925
-0.2694291174 -0.1331972182 0.5752108097 4288773718
-0.2694834769 -0.1325848550 0.5753268003 4288773718
-0.2695375681 -0.1319721192 0.5754423141 4288905304
-0.2695914507 -0.1313590258 0.5755573511 4288905304
-0.2696450949 -0.1307455450 0.5756719112 4288971097
-0.2692829669 -0.1299311966 0.5748987198 4288905304
-0.2697517276 -0.1295175105 0.5758994818 4288905304
-0.2698046863 -0.1289029419 0.5760125518 4288839511
-0.2694416046 -0.1280903518 0.5752373934 4288839511
-0.2694940269 -0.1274760216 0.5753493309 4288839509
-0.2691302299 -0.1266655475 0.5745726824 4288707923
-0.2691821158 -0.1260514408 0.5746834278 4288707155
-0.2692337632 -0.1254369915 0.5747936368 4289036120
-0.2692851424 -0.1248221844 0.5749034286 4288838741
-0.2693363428 -0.1242070273 0.5750126839 4288772948
-0.2693872750 -0.1235915124 0.5751214027 4289036374
-0.2698544264 -0.1231657267 0.5761187077 4289365339
-0.2699049711 -0.1225485653 0.5762266517 4288838995
-0.2699552774 -0.1219310686 0.5763340592 4288444237
-0.2700053453 -0.1213132143 0.5764409900 4289167706
-0.2700552046 -0.1206950247 0.5765473843 4289365085
-0.2705216408 -0.1202617958 0.5775431991 4289168736
-0.2705710828 -0.1196419671 0.5776487589 4289431908
-0.2706202865 -0.1190218031 0.5777538419 4289367403
-0.2706692517 -0.1184012964 0.5778583884 4289433196
-0.2707179785 -0.1177804545 0.5779623985 4289434481
-0.2711836994 -0.1173398048 0.5789566040 4289368688
-0.2712320089 -0.1167173386 0.5790597796 4289303154
-0.2716974616 -0.1162731498 0.5800535083 4289500533
-0.2717453837 -0.1156490594 0.5801557899 4289368948
-0.2722105682 -0.1152013317 0.5811489224 4289105776
-0.2722580731 -0.1145756319 0.5812503695 4289106554
-0.2727229893 -0.1141243652 0.5822429061 4289961863
-0.2731877863 -0.1136708632 0.5832352638 4291344553
-0.2736525238 -0.1132151037 0.5842273831 4293055171
-0.2689645886 -0.1997931451 0.5755838156 4291612891
-0.2690419853 -0.1992109418 0.5757494569 4291415512
-0.2695232630 -0.1989264637 0.5767794251 4291283926
-0.2687920034 -0.1977476329 0.5752145052 4291153110
-0.2688687146 -0.1971648037 0.5753787160 4290758352
-0.2689452767 -0.1965814531 0.5755425096 4290429387
-0.2694261670 -0.1962923557 0.5765716434 4290232008
-0.2695024610 -0.1957071424 0.5767349005 4290099652
-0.2699833512 -0.1954144090 0.5777639747 4289968066
-0.2700593770 -0.1948273182 0.5779266953 4289704892
-0.2701352239 -0.1942397505 0.5780889988 4289310134
-0.2702108920 -0.1936516762 0.5782508850 4289309875
-0.2706915736 -0.1933525503 0.5792796016 4289046703
-0.2707669735 -0.1927626133 0.5794409513 4288915115
-0.2708421946 -0.1921721697 0.5796018839 4288651943
-0.2709172070 -0.1915812492 0.5797624588 4288257185
-0.2709920406 -0.1909898221 0.5799225569 4287994013
-0.2710666656 -0.1903979182 0.5800822973 4287861912
-0.2711411417 -0.1898055226 0.5802416205 4287532947
-0.2712153792 -0.1892126352 0.5804005265 4287335818
-0.2712894380 -0.1886192709 0.5805590749 4287006853
-0.2709570825 -0.1877439320 0.5798478127 4286677375
-0.2710306644 -0.1871504784 0.5800052285 4286348410
-0.2711040378 -0.1865565479 0.5801622868 4286347383
-0.2711772323 -0.1859621257 0.5803188682 4286215797
-0.2716568708 -0.1856451482 0.5813453794 4286084211
-0.2713229954 -0.1847718656 0.5806308389 4285886832
-0.2718024850 -0.1844521314 0.5816569328 4286018418
-0.2718749940 -0.1838549078 0.5818121433 4286018418
-0.2723544240 -0.1835315377 0.5828381181 4286083698
-0.2724266648 -0.1829324663 0.5829926729 4286083698
-0.2724986672 -0.1823329031 0.5831468105 4286214514
-0.2725705206 -0.1817328781 0.5833005309 4286148721
-0.2730496824 -0.1814031303 0.5843259096 4286148464
-0.2731212080 -0.1808012575 0.5844790339 4286082671
-0.2727847993 -0.1799299568 0.5837590694 4285820780
-0.2732636929 -0.1795960963 0.5847839117 4285754987
-0.2733346224 -0.1789928079 0.5849356651 4285754987
-0.2738134265 -0.1786553115 0.5859603286 4285754987
-0.2738840580 -0.1780501753 0.5861114860 4285754987
-0.2739544809 -0.1774445921 0.5862621665 4285754987
-0.2744330764 -0.1771020740 0.5872864127 4285689194
-0.2745032012 -0.1764946431 0.5874364972 4285491815
-0.2745731175 -0.1758867502 0.5875861049 4285622631
-0.2746428549 -0.1752783954 0.5877352953 4285556838
-0.2747123539 -0.1746695787 0.5878840685 4285491045
-0.2747816443 -0.1740602851 0.5880323648 4285491045
-0.2744417489 -0.1731924415 0.5873049498 4285425252
-0.2745105326 -0.1725831479 0.5874521732 4285293666
-0.2745791078 -0.1719733924 0.5875989199 4285162080
-0.2746474743 -0.1713631898 0.5877451897 4285162080
-0.2747156322 -0.1707525253 0.5878910422 4284965728
-0.2747835815 -0.1701413989 0.5880364776 4284834142
-0.2748513222 -0.1695298404 0.5881814361 4284768604
-0.2745091319 -0.1686660647 0.5874491334 4284702811
-0.2745763361 -0.1680545062 0.5875929594 4284636503
-0.2750532627 -0.1676924229 0.5886135697 4284439124
-0.2751201391 -0.1670790464 0.5887567401 4284438608
-0.2751868367 -0.1664652377 0.5888994336 4284372815
-0.2752532959 -0.1658509672 0.5890416503 4284569421
-0.2753195465 -0.1652362645 0.5891834497 4284372042
-0.2753855884 -0.1646211147 0.5893247724 4284305733
-0.2758619189 -0.1642499417 0.5903441310 4284042561
-0.2759276032 -0.1636329889 0.5904847383 4283976253
-0.2759931087 -0.1630156040 0.5906248689 4283844667
-0.2756475806 -0.1621561050 0.5898854136 4283647542
-0.2753016353 -0.1612980217 0.5891451240 4283515956
-0.2753662765 -0.1606811583 0.5892834663 4283449392
-0.2750196159 -0.1598249674 0.5885415673 4283383599
-0.2742613554 -0.1587321907 0.5869188905 4283383599
-0.2735024989 -0.1576426923 0.5852949619 4283449392
-0.2731544077 -0.1567925811 0.5845500231 4283646512
-0.2723944485 -0.1557086855 0.5829237103 4283778098
-0.2720454633 -0.1548623592 0.5821768641 4284106804
-0.2721077204 -0.1542508155 0.5823101401 4284369976
-0.2717579901 -0.1534064114 0.5815617442 4284895548
-0.2714078724 -0.1525634527 0.5808125138 4285092927
-0.2714692950 -0.1519525051 0.5809439421 4285421633
-0.2715305090 -0.1513411403 0.5810748935 4285619012
-0.2711793482 -0.1505006552 0.5803234577 4285750598
-0.2712400258 -0.1498893946 0.5804532766 4285882184
-0.2708881795 -0.1490508616 0.5797002912 4286210634
-0.2709483206 -0.1484397203 0.5798289776 4286408013
-0.2710082233 -0.1478281766 0.5799572468 4286800190
-0.2706553340 -0.1469921470 0.5792020559 4287260741
-0.2707147300 -0.1463807225 0.5793291330 4287392327
-0.2703611255 -0.1455466896 0.5785723925 4287260741
-0.2704199553 -0.1449353993 0.5786983371 4287326534
-0.2700656354 -0.1441033632 0.5779401064 4287392327
-0.2701239586 -0.1434922069 0.5780649185 4287326534
-0.2701820433 -0.1428806484 0.5781891942 4287326534
-0.2698267102 -0.1420511752 0.5774288177 4287458120
-0.2698842585 -0.1414397657 0.5775519609 4287458120
-0.2699415982 -0.1408279836 0.5776746273 4287392327
-0.2699986994 -0.1402157992 0.5777968764 4287326534
-0.2700555921 -0.1396032274 0.5779185891 4287063362
-0.2701122463 -0.1389902830 0.5780398250 4286865983
-0.2701686919 -0.1383769363 0.5781606436 4286997569
-0.2702248991 -0.1377632171 0.5782809258 4287326534
-0.2702808678 -0.1371491104 0.5784006715 4287326270
-0.2703366280 -0.1365346313 0.5785200000 4287326270
-0.2703921497 -0.1359197646 0.5786388516 4287457856
-0.2700332999 -0.1350973099 0.5778708458 4287721028
-0.2700882852 -0.1344826370 0.5779885054 4287984200
-0.2701430321 -0.1338675767 0.5781056881 4288115786
-0.2701975703 -0.1332521588 0.5782223940 4288181581
-0.2702518702 -0.1326363534 0.5783386230 4288181581
-0.2703059316 -0.1320201904 0.5784543157 4288313167
-0.2699450850 -0.1312021166 0.5776821375 4288576339
-0.2699986100 -0.1305861473 0.5777966976 4288642132
-0.2700519264 -0.1299698353 0.5779107213 4288642132
-0.2701049745 -0.1293531358 0.5780242682 4288641362
-0.2701578140 -0.1287360936 0.5781373382 4288575569
-0.2702104151 -0.1281186789 0.5782498717 4288707155
-0.2698476315 -0.1273050457 0.5774735212 4288707155
-0.2698996663 -0.1266878694 0.5775849223 4289035863
-0.2699514925 -0.1260703355 0.5776958466 4289233242
-0.2704184651 -0.1256454438 0.5786951184 4289035861
-0.2704699039 -0.1250262409 0.5788052082 4289167447
-0.2705211043 -0.1244066954 0.5789147615 4289233240
-0.2705720663 -0.1237867922 0.5790238380 4289299033
-0.2706227899 -0.1231665388 0.5791323781 4288970068
-0.2706732750 -0.1225459427 0.5792404413 4288772689
-0.2707235217 -0.1219249964 0.5793479681 4289101913
-0.2707735300 -0.1213037074 0.5794550180 4289365085
-0.2708233297 -0.1206820756 0.5795615315 4289168478
-0.2708728611 -0.1200600937 0.5796675682 4289300064
-0.2709221542 -0.1194377840 0.5797730684 4289235558
-0.2709712386 -0.1188151240 0.5798780322 4289367144
-0.2710200548 -0.1181921288 0.5799825191 4289368175
-0.2714850307 -0.1177494004 0.5809775591 4289039210
-0.2715334594 -0.1171247810 0.5810812116 4289105262
-0.2719981670 -0.1166785061 0.5820757151 4289434227
-0.2720461786 -0.1160522625 0.5821784735 4289435259
-0.2725106478 -0.1156024411 0.5831723809 4289830017
-0.2725582421 -0.1149745807 0.5832742453 4290620572
-0.2730224133 -0.1145212278 0.5842676163 4292068018
-0.2734865248 -0.1140656248 0.5852607489 4293121741
-0.2677002251 -0.1986896992 0.5742429495 4291481305
-0.2677771151 -0.1981085539 0.5744078755 4291349719
-0.2674503922 -0.1972294152 0.5737071037 4291218648
-0.2675268054 -0.1966481507 0.5738710165 4290889683
-0.2676030397 -0.1960663795 0.5740345120 4290692559
-0.2676790655 -0.1954841167 0.5741975904 4290429387
-0.2681587636 -0.1951953322 0.5752266049 4290297031
-0.2682345510 -0.1946111917 0.5753892064 4290165445
-0.2687142491 -0.1943187714 0.5764181614 4289902271
-0.2687897682 -0.1937327683 0.5765801668 4289639099
-0.2688651085 -0.1931462735 0.5767417550 4289638840
-0.2693446875 -0.1928488463 0.5777705312 4289441461
-0.2694197595 -0.1922604740 0.5779315829 4289244082
-0.2694946527 -0.1916716248 0.5780922174 4289046703
-0.2695693672 -0.1910822690 0.5782524943 4288783529
-0.2696438730 -0.1904924363 0.5784122944 4288520357
-0.2697182000 -0.1899021119 0.5785717368 4288322464
-0.2697923481 -0.1893112957 0.5787307620 4287927706
-0.2698662877 -0.1887200028 0.5788894296 4287796371
-0.2699400485 -0.1881282181 0.5790476203 4287401613
-0.2696081996 -0.1872543544 0.5783357620 4287072133
-0.2696814537 -0.1866624951 0.5784928799 4286743168
-0.2697545290 -0.1860701442 0.5786496401 4286545532
-0.2698273957 -0.1854773164 0.5788059831 4286348153
-0.2703059316 -0.1851620376 0.5798324943 4286281590
-0.2703785300 -0.1845673621 0.5799882412 4286018418
-0.2704509497 -0.1839721948 0.5801435113 4285952625
-0.2705231607 -0.1833765656 0.5802984238 4285952625
-0.2710014582 -0.1830548942 0.5813244581 4286083698
-0.2710733712 -0.1824574172 0.5814787149 4286083698
-0.2715516090 -0.1821321100 0.5825046301 4286148975
-0.2716232538 -0.1815327853 0.5826582909 4286148975
-0.2716946900 -0.1809329838 0.5828115344 4286148464
-0.2717659175 -0.1803327054 0.5829643011 4286082671
-0.2718369663 -0.1797319651 0.5831167102 4285886573
-0.2719078064 -0.1791307479 0.5832686424 4285754987
-0.2719784379 -0.1785290539 0.5834201574 4285754987
-0.2724561393 -0.1781932563 0.5844448805 4285754987
-0.2725264728 -0.1775897294 0.5845957398 4285820780
-0.2725966275 -0.1769857407 0.5847462416 4285820780
-0.2730741203 -0.1766449362 0.5857704878 4285754987
-0.2731439471 -0.1760391146 0.5859203339 4285491815
-0.2732135952 -0.1754328161 0.5860697031 4285688424
-0.2732830048 -0.1748260707 0.5862185955 4285688424
-0.2737602293 -0.1744788885 0.5872422457 4285622631
-0.2738293409 -0.1738702953 0.5873905420 4285491045
-0.2738982439 -0.1732612550 0.5875383019 4285491045
-0.2739669383 -0.1726517528 0.5876857042 4285359459
-0.2740354240 -0.1720418036 0.5878326297 4285227873
-0.2736952305 -0.1711758971 0.5871028304 4285293666
-0.2737632096 -0.1705659330 0.5872486234 4285097057
-0.2738309503 -0.1699555218 0.5873939991 4284965471
-0.2734897137 -0.1690918952 0.5866619945 4284965470
-0.2735569477 -0.1684814841 0.5868062377 4284833884
-0.2736240029 -0.1678706259 0.5869500637 4284767575
-0.2736908197 -0.1672593206 0.5870934129 4284570196
-0.2737574279 -0.1666475683 0.5872362852 4284569681
-0.2742331326 -0.1662835628 0.5882567167 4284503888
-0.2742994130 -0.1656699926 0.5883989334 4284569422
-0.2743655145 -0.1650559902 0.5885406733 4284503629
-0.2744313478 -0.1644415408 0.5886819363 4284568905
-0.2744970024 -0.1638266593 0.5888227224 4284371526
-0.2749722302 -0.1634549350 0.5898421407 4284239425
-0.2750375569 -0.1628382355 0.5899822712 4284042046
-0.2751026452 -0.1622211188 0.5901218653 4283844667
-0.2747574449 -0.1613627076 0.5893813968 4283581495
-0.2748219967 -0.1607456356 0.5895199180 4283449392
-0.2744760811 -0.1598891169 0.5887778401 4283186220
-0.2741297483 -0.1590340286 0.5880349278 4282989095
-0.2733725309 -0.1579431891 0.5864106417 4282857509
-0.2730252743 -0.1570918411 0.5856657624 4282791203
-0.2726776302 -0.1562419236 0.5849199891 4282659617
-0.2723295689 -0.1553934216 0.5841733217 4282594337
-0.2723919451 -0.1547798067 0.5843071342 4282594337
-0.2720431387 -0.1539332569 0.5835589767 4282725410
-0.2716939747 -0.1530881226 0.5828099251 4282922789
-0.2717554867 -0.1524751037 0.5829419494 4283120166
-0.2718168199 -0.1518616676 0.5830734372 4283317545
-0.2718779147 -0.1512478143 0.5832045078 4283580717
-0.2715273798 -0.1504056752 0.5824525952 4283778096
-0.2715879381 -0.1497919261 0.5825824738 4284107061
-0.2712366879 -0.1489517540 0.5818290710 4284370233
-0.2712967098 -0.1483381093 0.5819578171 4285486134
-0.2713565230 -0.1477240771 0.5820860863 4285880892
-0.2714160979 -0.1471096277 0.5822139382 4285946686
-0.2710635364 -0.1462724805 0.5814576149 4285946686
-0.2711225748 -0.1456581652 0.5815842748 4286209858
-0.2707692683 -0.1448230296 0.5808264017 4286407237
-0.2708278000 -0.1442088336 0.5809519291 4286473029
-0.2708860934 -0.1435942650 0.5810769200 4286538822
-0.2709441483 -0.1429792792 0.5812014937 4286604615
-0.2705895007 -0.1421472281 0.5804407597 4286538822
-0.2706470490 -0.1415324062 0.5805642009 4286473029
-0.2707043290 -0.1409171820 0.5806871057 4286473029
-0.2707614303 -0.1403015703 0.5808095336 4286473029
-0.2708182633 -0.1396855861 0.5809314847 4286341443
-0.2708748877 -0.1390691996 0.5810529590 4286604101
-0.2709313035 -0.1384524256 0.5811739564 4286933066
-0.2709874809 -0.1378352642 0.5812944174 4287852875
-0.2710434198 -0.1372177303 0.5814144611 4287523910
-0.2710991204 -0.1365998089 0.5815339684 4287129406
-0.2707412839 -0.1357742250 0.5807663202 4286932027
-0.2707964480 -0.1351564974 0.5808846951 4286932027
-0.2708514035 -0.1345383823 0.5810025334 4287195199
-0.2709060907 -0.1339198947 0.5811198950 4287457858
-0.2709605992 -0.1333010346 0.5812367797 4287523651
-0.2710148394 -0.1326817870 0.5813531876 4287655237
-0.2706550062 -0.1318605691 0.5805813074 4287984202
-0.2707087398 -0.1312415302 0.5806965232 4288115788
-0.2703481913 -0.1304224133 0.5799231529 4288115788
-0.2704013586 -0.1298035979 0.5800371766 4288115788
-0.2708684504 -0.1293822527 0.5810391903 4288049995
-0.2705069780 -0.1285648793 0.5802637935 4288378190
-0.2709738016 -0.1281409115 0.5812650919 4288509776
-0.2701972723 -0.1271297187 0.5795993805 4288576341
-0.2702491879 -0.1265100539 0.5797107816 4288707927
-0.2707154453 -0.1260831058 0.5807109475 4288575569
-0.2707669735 -0.1254617721 0.5808214545 4288838741
-0.2708182633 -0.1248400807 0.5809314847 4288838995
-0.2708693445 -0.1242180392 0.5810410380 4288904788
-0.2709201574 -0.1235956475 0.5811500549 4289036374
-0.2709707320 -0.1229729056 0.5812585950 4289233753
-0.2710210979 -0.1223498136 0.5813665986 4289101913
-0.2710711956 -0.1217263788 0.5814740658 4289233499
-0.2711210847 -0.1211026013 0.5815810561 4288905563
-0.2715860009 -0.1206629723 0.5825783014 4288905563
-0.2716354728 -0.1200375482 0.5826844573 4288972386
-0.2716847062 -0.1194117889 0.5827900767 4289301351
-0.2717337012 -0.1187856793 0.5828951597 4289236587
-0.2717824578 -0.1181592420 0.5829997659 4288907622
-0.2718309462 -0.1175324619 0.5831038356 4288777327
-0.2722949386 -0.1170841008 0.5840991139 4289237878
-0.2723430395 -0.1164556965 0.5842022896 4290093965
-0.2728067935 -0.1160037965 0.5851970315 4291607204
-0.2728544772 -0.1153737679 0.5852993727 4292529858
-0.2733179331 -0.1149183214 0.5862935185 4293121995
-0.2663610578 -0.1981678903 0.5727348924 4291678684
-0.2664376199 -0.1975883245 0.5728995204 4291481305
-0.2665140033 -0.1970082372 0.5730637312 4291547099
-0.2665901780 -0.1964276731 0.5732275844 4291218134
-0.2666662037 -0.1958466023 0.5733910203 4290889683
-0.2663390934 -0.1949700713 0.5726876855 4290692304
-0.2668176889 -0.1946829706 0.5737167001 4290429132
-0.2668931484 -0.1941004097 0.5738790035 4290297546
-0.2669684291 -0.1935173571 0.5740408301 4290231238
-0.2670435309 -0.1929338127 0.5742022991 4289968066
-0.2675219476 -0.1926403344 0.5752310157 4289902014
-0.2675967813 -0.1920549273 0.5753919482 4289704635
-0.2680751383 -0.1917578131 0.5764205456 4289638840
-0.2681497335 -0.1911705285 0.5765809417 4289441461
-0.2682241201 -0.1905827671 0.5767408609 4289112496
-0.2678942680 -0.1897083819 0.5760315657 4288915117
-0.2683723271 -0.1894057691 0.5770595670 4288783015
-0.2684461474 -0.1888165474 0.5772182941 4288322464
-0.2685197890 -0.1882268339 0.5773766637 4288191645
-0.2685932517 -0.1876366287 0.5775345564 4287796887
-0.2686665058 -0.1870459467 0.5776920915 4287598992
-0.2687395513 -0.1864547879 0.5778491497 4287270027
-0.2688124180 -0.1858631372 0.5780058503 4287006855
-0.2688851058 -0.1852710098 0.5781621337 4286743683
-0.2689575851 -0.1846784055 0.5783179998 4286545278
-0.2694350481 -0.1843625456 0.5793446302 4286216313
-0.2695072591 -0.1837680936 0.5794999003 4286150006
-0.2695792615 -0.1831731498 0.5796547532 4286150006
-0.2696510851 -0.1825777441 0.5798091292 4286280307
-0.2697227001 -0.1819818616 0.5799631476 4286214514
-0.2701998353 -0.1816582531 0.5809891224 4286148721
-0.2702711821 -0.1810605228 0.5811424851 4286082928
-0.2703423202 -0.1804623157 0.5812954307 4286148464
-0.2704132497 -0.1798636466 0.5814479589 4286148464
-0.2704840004 -0.1792645007 0.5816000700 4285952112
-0.2705545127 -0.1786648780 0.5817517638 4285820526
-0.2706248760 -0.1780647933 0.5819029808 4285820526
-0.2711014450 -0.1777307093 0.5829277635 4285886319
-0.2711715102 -0.1771287918 0.5830783844 4285886573
-0.2712413371 -0.1765263975 0.5832285881 4285886573
-0.2717177570 -0.1761872917 0.5842529535 4285820780
-0.2717872858 -0.1755830795 0.5844025016 4285623401
-0.2718566358 -0.1749783903 0.5845515728 4285820010
-0.2719257772 -0.1743732542 0.5847002268 4285754217
-0.2719947100 -0.1737676412 0.5848484635 4285688424
-0.2720634341 -0.1731615812 0.5849962234 4285556838
-0.2721319497 -0.1725550443 0.5851435661 4285491045
-0.2722002566 -0.1719480604 0.5852904320 4285425252
-0.2722683549 -0.1713406295 0.5854368806 4285425252
-0.2723362446 -0.1707327366 0.5855828524 4285359459
-0.2728117406 -0.1703790575 0.5866052508 4285162596
-0.2728793323 -0.1697693467 0.5867505670 4285096803
-0.2729466856 -0.1691591740 0.5868954659 4285097057
-0.2726057768 -0.1682966202 0.5861623883 4284965471
-0.2726726234 -0.1676864624 0.5863061547 4284898907
-0.2727392614 -0.1670758724 0.5864494443 4284767321
-0.2728057206 -0.1664648205 0.5865923166 4284701528
-0.2728719413 -0.1658533216 0.5867346525 4284701528
-0.2729379535 -0.1652413756 0.5868766308 4284635474
-0.2730037272 -0.1646289974 0.5870180726 4284635474
-0.2734781206 -0.1642616987 0.5880380869 4284635215
-0.2735435963 -0.1636475176 0.5881788731 4284503629
-0.2736088336 -0.1630328894 0.5883191824 4284437065
-0.2736738920 -0.1624178290 0.5884590745 4284239686
-0.2737387121 -0.1618023217 0.5885984302 4284042307
-0.2738033235 -0.1611863971 0.5887373686 4283713342
-0.2738677263 -0.1605700105 0.5888758302 4283515956
-0.2735224366 -0.1597141176 0.5881333947 4283318577
-0.2735863030 -0.1590977907 0.5882707238 4283317806
-0.2732402682 -0.1582437903 0.5875267386 4283186220
-0.2728938758 -0.1573912203 0.5867818594 4282988841
-0.2729568779 -0.1567754596 0.5869173408 4282725669
-0.2726097405 -0.1559247971 0.5861709714 4282528290
-0.2722622156 -0.1550755650 0.5854236484 4282396704
-0.2723243833 -0.1544603854 0.5855573416 4282330911
-0.2719761431 -0.1536130905 0.5848085284 4282265118
-0.2720377743 -0.1529980004 0.5849410892 4282264859
-0.2720991969 -0.1523824930 0.5850731730 4282133273
-0.2721604109 -0.1517665684 0.5852047801 4281870101
-0.2722213864 -0.1511502266 0.5853359103 4281804308
-0.2718714774 -0.1503064185 0.5845835209 4281935894
-0.2719319463 -0.1496901810 0.5847135186 4281935894
-0.2719921768 -0.1490735412 0.5848429799 4282527254
-0.2716412246 -0.1482322216 0.5840883851 4282856219
-0.2717009187 -0.1476157010 0.5842167735 4283053344
-0.2717604041 -0.1469987631 0.5843446255 4283184930
-0.2718196511 -0.1463814229 0.5844720602 4283513895
-0.2714673579 -0.1455431581 0.5837145448 4283777067
-0.2711146772 -0.1447063535 0.5829561949 4283974700
-0.2711730599 -0.1440896839 0.5830817819 4284106286
-0.2712312341 -0.1434726119 0.5832068324 4283974700
-0.2712891996 -0.1428551376 0.5833314657 4284172079
-0.2709351778 -0.1420214474 0.5825701952 4284303665
-0.2709925771 -0.1414041221 0.5826936364 4284237872
-0.2710497677 -0.1407864094 0.5828166008 4284172079
-0.2711067200 -0.1401683092 0.5829390883 4284303665
-0.2711634636 -0.1395498216 0.5830610991 4284698422
-0.2712199688 -0.1389309466 0.5831825733 4285093180
-0.2716885209 -0.1385218799 0.5841900706 4285420344
-0.2717446387 -0.1379012913 0.5843107700 4285683516
-0.2718005478 -0.1372803152 0.5844309926 4285880893
-0.2714436948 -0.1364515871 0.5836637020 4286078272
-0.2714990675 -0.1358307898 0.5837827325 4286341443
-0.2715542018 -0.1352096200 0.5839012861 4286473029
-0.2716090977 -0.1345880628 0.5840193033 4286538306
-0.2716637552 -0.1339661330 0.5841368437 4286340927
-0.2713052630 -0.1331411749 0.5833659768 4286669633
-0.2713593841 -0.1325194538 0.5834823847 4287130184
-0.2710001767 -0.1316965967 0.5827099681 4287130180
-0.2710537314 -0.1310750693 0.5828251839 4287195973
-0.2711070776 -0.1304531842 0.5829398632 4287327814
-0.2719869018 -0.1302267462 0.5848317146 4287262021
-0.2716265321 -0.1294052601 0.5840567946 4287524424
-0.2712657154 -0.1285853088 0.5832809806 4287853389
-0.2713181376 -0.1279619634 0.5833936930 4288247893
-0.2709566355 -0.1271441430 0.5826163888 4288576858
-0.2710084915 -0.1265210211 0.5827279091 4288379219
-0.2710601389 -0.1258975565 0.5828388929 4288642391
-0.2715254426 -0.1254649907 0.5838394165 4288707925
-0.2711626887 -0.1246495470 0.5830594301 4288707925
-0.2712135911 -0.1240250096 0.5831689239 4288971097
-0.2712642848 -0.1234001219 0.5832778811 4289102683
-0.2713147402 -0.1227748841 0.5833863616 4288773977
-0.2717792392 -0.1223357916 0.5843851566 4288773977
-0.2718292773 -0.1217088997 0.5844927430 4288577111
-0.2718790770 -0.1210816726 0.5845998526 4288577111
-0.2719286680 -0.1204540953 0.5847064257 4288643934
-0.2719779909 -0.1198261753 0.5848125219 4288907106
-0.2720270753 -0.1191979200 0.5849180818 4288907624
-0.2724906802 -0.1187500656 0.5859149098 4288907624
-0.2725393474 -0.1181201711 0.5860195756 4288712822
-0.2725877762 -0.1174899414 0.5861237049 4289633924
-0.2726359963 -0.1168593764 0.5862273574 4290489497
-0.2730989754 -0.1164053828 0.5872228742 4291147427
-0.2735618949 -0.1159491315 0.5882182121 4291543992
-0.2736094892 -0.1153156459 0.5883206129 4292267715
-0.2740721107 -0.1148558557 0.5893153548 4292531923
-0.2651007473 -0.1970675290 0.5713894963 4291678684
-0.2651768029 -0.1964890361 0.5715534091 4291613408
-0.2652526796 -0.1959100366 0.5717169642 4291284443
-0.2653283477 -0.1953305304 0.5718801022 4291087064
-0.2650017440 -0.1944554597 0.5711761117 4290889685
-0.2650769651 -0.1938758492 0.5713382363 4290692304
-0.2651519775 -0.1932957619 0.5714999437 4290494925
-0.2656292915 -0.1930076033 0.5725287199 4290428617
-0.2657040656 -0.1924256384 0.5726898909 4290099652
-0.2661813498 -0.1921338439 0.5737186074 4290164932
-0.2662558854 -0.1915500164 0.5738792419 4290033346
-0.2667331398 -0.1912546009 0.5749078989 4289968064
-0.2668074071 -0.1906689107 0.5750679970 4289770685
-0.2668814659 -0.1900827289 0.5752276182 4289441461
-0.2669553757 -0.1894960552 0.5753868818 4289244082
-0.2670290768 -0.1889089048 0.5755457282 4289177519
-0.2671025693 -0.1883212626 0.5757042170 4288782761
-0.2675794959 -0.1880167127 0.5767320991 4288520610
-0.2672490478 -0.1871445179 0.5760198832 4288257438
-0.2677257955 -0.1868372262 0.5770474672 4287994266
-0.2677986622 -0.1862467676 0.5772044659 4287731094
-0.2678713202 -0.1856558174 0.5773611069 4287402127
-0.2679437995 -0.1850643903 0.5775173306 4287007369
-0.2676118612 -0.1841942370 0.5768018365 4286874758
-0.2680881917 -0.1838800907 0.5778285265 4286480000
-0.2681601048 -0.1832872331 0.5779834986 4286544764
-0.2682318091 -0.1826938838 0.5781381130 4286478971
-0.2687079906 -0.1823747307 0.5791644454 4286543479
-0.2687794268 -0.1817795485 0.5793184042 4286346100
-0.2684457600 -0.1809110194 0.5785992146 4286280307
-0.2689216733 -0.1805877537 0.5796250701 4286214514
-0.2689925134 -0.1799911559 0.5797777176 4286148721
-0.2690631747 -0.1793940663 0.5799300075 4286148721
-0.2691335976 -0.1787965298 0.5800818205 4286082928
-0.2692038417 -0.1781985164 0.5802332163 4286082928
-0.2692739069 -0.1776000261 0.5803841949 4286082928
-0.2693437338 -0.1770010740 0.5805346966 4286082928
-0.2698191404 -0.1766673326 0.5815593600 4286017135
-0.2702945173 -0.1763313115 0.5825840235 4285951342
-0.2703639865 -0.1757291555 0.5827336907 4285885549
-0.2704332173 -0.1751265526 0.5828830004 4285819756
-0.2705022693 -0.1745234728 0.5830317736 4285819756
-0.2705711126 -0.1739199311 0.5831801891 4285753963
-0.2706397772 -0.1733159423 0.5833281279 4285623401
-0.2707082033 -0.1727114767 0.5834756494 4285557608
-0.2707764208 -0.1721065640 0.5836226940 4285426022
-0.2708444595 -0.1715011895 0.5837693214 4285360229
-0.2709122896 -0.1708953679 0.5839154720 4285360229
-0.2709798813 -0.1702890843 0.5840612054 4285228643
-0.2714542747 -0.1699371338 0.5850837231 4285031525
-0.2715215683 -0.1693290323 0.5852287412 4285097318
-0.2715886831 -0.1687204838 0.5853734016 4285097316
-0.2716555595 -0.1681114733 0.5855175257 4285031523
-0.2713148594 -0.1672509015 0.5847831964 4285031264
-0.2713812292 -0.1666419208 0.5849262476 4284899678
-0.2714473903 -0.1660324782 0.5850688219 4284768092
-0.2715133131 -0.1654226035 0.5852109790 4284702299
-0.2715790570 -0.1648122966 0.5853526592 4284964954
-0.2720524669 -0.1644480824 0.5863729715 4284767575
-0.2721178532 -0.1638359576 0.5865139961 4284635987
-0.2721830606 -0.1632234007 0.5866544843 4284372815
-0.2722480595 -0.1626103967 0.5867945552 4284306507
-0.2723128200 -0.1619969606 0.5869341493 4284240714
-0.2723773718 -0.1613830775 0.5870733261 4284109128
-0.2724417150 -0.1607687622 0.5872119665 4283780163
-0.2725058496 -0.1601540148 0.5873501897 4283450938
-0.2725697458 -0.1595388353 0.5874879360 4283253559
-0.2726334333 -0.1589232236 0.5876252055 4283318836
-0.2722880840 -0.1580698341 0.5868808627 4283253043
-0.2723512352 -0.1574542820 0.5870169997 4283121198
-0.2724141777 -0.1568383127 0.5871526599 4282792233
-0.2720677853 -0.1559873372 0.5864060521 4282594854
-0.2721302211 -0.1553714424 0.5865405798 4282463268
-0.2721924186 -0.1547551155 0.5866746306 4282396704
-0.2718449831 -0.1539065838 0.5859258175 4282199325
-0.2719066441 -0.1532903463 0.5860587358 4282264859
-0.2719680965 -0.1526736766 0.5861911774 4282199066
-0.2720293403 -0.1520566046 0.5863231421 4282067221
-0.2720903456 -0.1514391154 0.5864546299 4282001428
-0.2721511126 -0.1508212090 0.5865856409 4282001687
-0.2718017399 -0.1499766707 0.5858325958 4281935894
-0.2718619704 -0.1493588835 0.5859624743 4281738517
-0.2719219923 -0.1487406641 0.5860918164 4281870103
-0.2719818056 -0.1481220424 0.5862207413 4281869848
-0.2716310918 -0.1472805440 0.5854647756 4281738262
-0.2716903389 -0.1466620415 0.5855925083 4281672724
-0.2717494071 -0.1460431367 0.5857197642 4281606931
-0.2718082070 -0.1454238296 0.5858465433 4281606929
-0.2714561224 -0.1445853859 0.5850877166 4281606929
-0.2715144157 -0.1439662278 0.5852133632 4281804308
-0.2715724707 -0.1433466524 0.5853384733 4281870101
-0.2716303170 -0.1427266896 0.5854631066 4281804310
-0.2716879249 -0.1421063244 0.5855872631 4281475345
-0.2717452943 -0.1414855719 0.5857109427 4281277964
-0.2718024552 -0.1408644319 0.5858341455 4281409550
-0.2718593776 -0.1402428895 0.5859568119 4281475343
-0.2719160616 -0.1396209598 0.5860790610 4281343757
-0.2719725370 -0.1389986426 0.5862007737 4281670929
-0.2720287740 -0.1383759379 0.5863219500 4282065687
-0.2720847726 -0.1377528459 0.5864427090 4282263832
-0.2721405625 -0.1371293813 0.5865629315 4282527004
-0.2717843354 -0.1362990141 0.5857950449 4283250466
-0.2718395591 -0.1356757134 0.5859141350 4284039982
-0.2718945444 -0.1350520402 0.5860326886 4284762933
-0.2719493210 -0.1344279945 0.5861507058 4285157691
-0.2724159956 -0.1340063065 0.5871565938 4285552189
-0.2720581889 -0.1331787705 0.5863853097 4286144326
-0.2721122503 -0.1325535923 0.5865018964 4286210883
-0.2713413537 -0.1315282583 0.5848402977 4286408262
-0.2718072534 -0.1311031878 0.5858445168 4286802759
-0.2718605399 -0.1304778457 0.5859593749 4286802759
-0.2719136178 -0.1298521459 0.5860736966 4286999625
-0.2715537250 -0.1290299743 0.5852980614 4287394383
-0.2716062367 -0.1284044981 0.5854112506 4287525969
-0.2716585100 -0.1277786493 0.5855239034 4288052313
-0.2712976336 -0.1269592047 0.5847460628 4287919696
-0.2713493407 -0.1263335943 0.5848575234 4288182868
-0.2714008391 -0.1257076263 0.5849685073 4288379219
-0.2718652487 -0.1252716780 0.5859695077 4288181840
-0.2715031207 -0.1244546175 0.5851889253 4288247633
-0.2715538740 -0.1238275841 0.5852984190 4288181840
-0.2716044188 -0.1232002005 0.5854073167 4287985744
-0.2716547251 -0.1225724742 0.5855157375 4287854158
-0.2721183598 -0.1221299991 0.5865150094 4287788623
-0.2721682489 -0.1215006113 0.5866225958 4287920209
-0.2722178996 -0.1208708882 0.5867295861 4287986518
-0.2722673416 -0.1202408150 0.5868361592 4288052311
-0.2723165154 -0.1196103990 0.5869421363 4288052828
-0.2723654509 -0.1189796403 0.5870476365 4288447586
-0.2728281617 -0.1185284108 0.5880448818 4288187508
-0.2728766799 -0.1178960130 0.5881494880 4289108610
-0.2729249597 -0.1172632873 0.5882535577 4290029460
-0.2733872235 -0.1168072000 0.5892499685 4290753183
-0.2734351158 -0.1161728427 0.5893531442 4291411893
-0.2734827399 -0.1155381501 0.5894557834 4291938237
-0.2743590176 -0.1152513176 0.5913444757 4292071372
-0.2744062841 -0.1146140471 0.5914463997 4292531923
-0.2642431855 -0.1962670982 0.5709078312 4291612891
-0.2639177442 -0.1953918338 0.5702047348 4291547098
-0.2639931142 -0.1948139220 0.5703675747 4291284696
-0.2640683055 -0.1942355037 0.5705299973 4291087317
-0.2637418807 -0.1933622807 0.5698247552 4290954961
-0.2642181218 -0.1930771917 0.5708537102 4290757582
-0.2642927766 -0.1924972981 0.5710150003 4290559690
-0.2647690177 -0.1922085732 0.5720438957 4290362311
-0.2648434043 -0.1916268170 0.5722046494 4290230979
-0.2653196156 -0.1913344711 0.5732334852 4290165186
-0.2653937340 -0.1907508522 0.5733936429 4290033857
-0.2654676735 -0.1901667416 0.5735534430 4289836478
-0.2655414343 -0.1895821393 0.5737127662 4289638842
-0.2656150162 -0.1889970601 0.5738717318 4289441463
-0.2656883895 -0.1884114891 0.5740302801 4289244084
-0.2661642730 -0.1881100237 0.5750584602 4288849326
-0.2662374079 -0.1875225902 0.5752164125 4288980393
-0.2663103342 -0.1869346797 0.5753740072 4288717221
-0.2663830817 -0.1863462925 0.5755311847 4288454049
-0.2664556205 -0.1857574135 0.5756879449 4288256670
-0.2665279806 -0.1851680577 0.5758442879 4287796119
-0.2666001618 -0.1845782250 0.5760002136 4287467154
-0.2670755982 -0.1842662543 0.5770273805 4287269516
-0.2667439282 -0.1833971143 0.5763108134 4286940551
-0.2672191858 -0.1830824018 0.5773376226 4286742657
-0.2672907114 -0.1824897677 0.5774921179 4286479485
-0.2673620284 -0.1818966568 0.5776461959 4286348153
-0.2674331367 -0.1813030690 0.5777999163 4286150774
-0.2675040662 -0.1807090044 0.5779531598 4285887602
-0.2675748169 -0.1801144630 0.5781059861 4285821809
-0.2676453590 -0.1795194596 0.5782583356 4285886832
-0.2681201100 -0.1791942716 0.5792840719 4285689453
-0.2681903541 -0.1785974205 0.5794358253 4285886321
-0.2682603896 -0.1780001074 0.5795872211 4286017907
-0.2683302462 -0.1774023324 0.5797381401 4285952112
-0.2679950893 -0.1765374094 0.5790139437 4285886319
-0.2684693635 -0.1762053668 0.5800386667 4285820526
-0.2689436674 -0.1758710593 0.5810633898 4285623147
-0.2690128088 -0.1752705276 0.5812128186 4285688170
-0.2690817714 -0.1746695191 0.5813618302 4285819756
-0.2691505253 -0.1740680486 0.5815103650 4285820010
-0.2692191005 -0.1734661162 0.5816584826 4285688424
-0.2692874372 -0.1728637367 0.5818061829 4285688424
-0.2693555951 -0.1722608954 0.5819534063 4285622631
-0.2694235444 -0.1716575921 0.5821002126 4285622118
-0.2694912851 -0.1710538268 0.5822465420 4285556325
-0.2695588171 -0.1704496145 0.5823924541 4285556324
-0.2696261406 -0.1698449552 0.5825379491 4285358945
-0.2700994313 -0.1694947034 0.5835604668 4285293666
-0.2701664567 -0.1688882262 0.5837053061 4285293666
-0.2702332437 -0.1682812870 0.5838496089 4285227873
-0.2702998519 -0.1676739156 0.5839935541 4285227873
-0.2703662515 -0.1670660824 0.5841369629 4285227872
-0.2708390951 -0.1667081118 0.5851585865 4285162079
-0.2709051967 -0.1660984755 0.5853013396 4285030493
-0.2709710598 -0.1654883921 0.5854436755 4284964700
-0.2706297338 -0.1646302938 0.5847062469 4284767575
-0.2706950903 -0.1640202403 0.5848474503 4284767575
-0.2707602382 -0.1634097397 0.5849881768 4284701780
-0.2708251476 -0.1627988070 0.5851284266 4284438608
-0.2708898485 -0.1621874273 0.5852682590 4284307022
-0.2709543705 -0.1615756154 0.5854076147 4284175436
-0.2714262009 -0.1612054110 0.5864270329 4284109643
-0.2714903653 -0.1605918109 0.5865656734 4283978057
-0.2715543211 -0.1599777639 0.5867038369 4283649092
-0.2716180384 -0.1593632996 0.5868415236 4283583299
-0.2716815770 -0.1587483883 0.5869787931 4283516991
-0.2713368535 -0.1578956097 0.5862339735 4283319612
-0.2713998556 -0.1572807729 0.5863701105 4283187768
-0.2714626193 -0.1566655040 0.5865057111 4282858803
-0.2715251744 -0.1560498029 0.5866408944 4282661424
-0.2715875208 -0.1554336846 0.5867756009 4282529838
-0.2716496587 -0.1548171490 0.5869098306 4282660908
-0.2713029683 -0.1539683044 0.5861607790 4282463529
-0.2713645697 -0.1533518434 0.5862938762 4282396705
-0.2714259326 -0.1527349651 0.5864264369 4282265119
-0.2714870870 -0.1521176696 0.5865585804 4282330654
-0.2715480328 -0.1514999568 0.5866902471 4282396447
-0.2716087401 -0.1508818269 0.5868214369 4282265118
-0.2716692388 -0.1502632797 0.5869520903 4282265118
-0.2717294991 -0.1496443301 0.5870823264 4282395934
-0.2717895508 -0.1490249634 0.5872120857 4282264348
-0.2718493640 -0.1484051794 0.5873413086 4282198555
-0.2719089687 -0.1477850080 0.5874701142 4282198555
-0.2719683647 -0.1471644044 0.5875983834 4282132763
-0.2720274925 -0.1465434134 0.5877261758 4282132763
-0.2720864415 -0.1459220201 0.5878534913 4282132763
-0.2717352808 -0.1450813860 0.5870948434 4282066970
-0.2717936635 -0.1444601119 0.5872209668 4282198555
-0.2718518376 -0.1438384503 0.5873466730 4282001176
-0.2719097733 -0.1432163715 0.5874718428 4282001174
-0.2719675004 -0.1425939053 0.5875965357 4282001174
-0.2720249891 -0.1419710517 0.5877206922 4281935381
-0.2720822394 -0.1413477957 0.5878444314 4281935381
-0.2721392512 -0.1407241523 0.5879676342 4281935384
-0.2721960545 -0.1401001066 0.5880903602 4281738005
-0.2722526491 -0.1394756883 0.5882125497 4282066200
-0.2723089755 -0.1388508677 0.5883343220 4282000407
-0.2723650932 -0.1382256597 0.5884555578 4281868821
-0.2724209726 -0.1376000792 0.5885762572 4281737235
-0.2724766135 -0.1369740963 0.5886965394 4281671441
-0.2725320458 -0.1363477409 0.5888162255 4281868820
-0.2725872397 -0.1357209980 0.5889354944 4282329623
-0.2726421952 -0.1350938827 0.5890542269 4282658588
-0.2726969123 -0.1344663799 0.5891724825 4283316516
-0.2719286382 -0.1334347725 0.5875125527 4283777067
-0.2723941803 -0.1330093443 0.5885184407 4284369458
-0.2720365822 -0.1321816891 0.5877457857 4284830009
-0.2720901966 -0.1315545887 0.5878616571 4285224766
-0.2721436024 -0.1309271306 0.5879769921 4285487938
-0.2721967697 -0.1302992851 0.5880918503 4285751108
-0.2718378007 -0.1294749081 0.5873163342 4285948487
-0.2718904018 -0.1288472861 0.5874300003 4285750847
-0.2715307474 -0.1280250400 0.5866529346 4285882433
-0.2715828121 -0.1273976415 0.5867654085 4286210884
-0.2716346383 -0.1267698854 0.5868773460 4286276677
-0.2716862261 -0.1261417717 0.5869888067 4286144837
-0.2717375755 -0.1255133003 0.5870997310 4286210630
-0.2717886865 -0.1248844787 0.5872101784 4286342988
-0.2718395591 -0.1242552996 0.5873200893 4286606160
-0.2718901932 -0.1236257702 0.5874294639 4286408781
-0.2719405890 -0.1229958907 0.5875383615 4286671953
-0.2719907463 -0.1223656535 0.5876467228 4287000146
-0.2724534571 -0.1219198033 0.5886464715 4287131732
-0.2725032270 -0.1212879196 0.5887539983 4287394906
-0.2725527287 -0.1206556931 0.5888609290 4287460699
-0.2726019919 -0.1200231165 0.5889673829 4287395423
-0.2726510465 -0.1193902045 0.5890733600 4287855974
-0.2731130123 -0.1189368814 0.5900714397 4287857266
-0.2731616199 -0.1183023304 0.5901764631 4288646782
-0.2732099891 -0.1176674366 0.5902810097 4289173900
-0.2732581496 -0.1170322075 0.5903850198 4290029209
-0.2733060122 -0.1163966432 0.5904884934 4290556842
-0.2733536661 -0.1157607436 0.5905914307 4291280565
-0.2738146782 -0.1152986810 0.5915874839 4291545283
-0.2738619149 -0.1146611571 0.5916895270 4292203213
-0.2629103959 -0.1957468837 0.5693946481 4291678684
-0.2629857361 -0.1951701641 0.5695578456 4291678684
-0.2626605034 -0.1942967474 0.5688534379 4291416282
-0.2627353668 -0.1937199086 0.5690155625 4291218903
-0.2624094188 -0.1928481609 0.5683096647 4291152340
-0.2628845572 -0.1925647557 0.5693386793 4290889168
-0.2629588842 -0.1919864416 0.5694996119 4290691789
-0.2630330026 -0.1914076507 0.5696601868 4290560203
-0.2635080516 -0.1911192536 0.5706890225 4290362311
-0.2635819316 -0.1905385852 0.5708490014 4290296518
-0.2640569508 -0.1902465671 0.5718777776 4290165443
-0.2641305625 -0.1896640360 0.5720372200 4290033857
-0.2642040253 -0.1890810281 0.5721963048 4289967807
-0.2642772794 -0.1884975284 0.5723549724 4289770428
-0.2643503547 -0.1879135519 0.5725132227 4289507256
-0.2644232512 -0.1873290837 0.5726710558 4289244084
-0.2648979127 -0.1870279312 0.5736991167 4289440945
-0.2649705410 -0.1864416152 0.5738563538 4289177773
-0.2650429606 -0.1858548075 0.5740132332 4288783529
-0.2651152313 -0.1852675378 0.5741696954 4288520357
-0.2655896842 -0.1849600077 0.5751972795 4288388256
-0.2656616569 -0.1843708754 0.5753531456 4288059291
-0.2657334507 -0.1837812662 0.5755086541 4287795606
-0.2662077844 -0.1834687442 0.5765358806 4287532434
-0.2662792802 -0.1828772724 0.5766907930 4287203723
-0.2659476399 -0.1820095628 0.5759725571 4287006344
-0.2660186589 -0.1814180464 0.5761263371 4286743170
-0.2660894990 -0.1808260679 0.5762796998 4286479998
-0.2661601305 -0.1802335978 0.5764327049 4286216567
-0.2662305534 -0.1796406657 0.5765852332 4286019188
-0.2663007975 -0.1790472716 0.5767373443 4285887602
-0.2663708329 -0.1784534007 0.5768890381 4285690223
-0.2664406896 -0.1778590530 0.5770403147 4285886321
-0.2665103376 -0.1772642434 0.5771911740 4285952114
-0.2665797770 -0.1766689718 0.5773415565 4286017905
-0.2670530379 -0.1763400137 0.5783665776 4286017905
-0.2671222091 -0.1757429093 0.5785163641 4285952112
-0.2671911716 -0.1751453429 0.5786656737 4285754733
-0.2676642537 -0.1748113781 0.5796902776 4285753963
-0.2681373656 -0.1744751483 0.5807148814 4285753963
-0.2682059407 -0.1738743782 0.5808634162 4285820010
-0.2682743073 -0.1732731611 0.5810114741 4285754217
-0.2683424652 -0.1726714820 0.5811590552 4285688424
-0.2684104443 -0.1720693409 0.5813062787 4285754217
-0.2684781849 -0.1714667380 0.5814530253 4285819497
-0.2685457468 -0.1708636880 0.5815993547 4285753704
-0.2686131001 -0.1702601761 0.5817452073 4285622117
-0.2686802447 -0.1696562171 0.5818906426 4285424738
-0.2687471807 -0.1690518111 0.5820356011 4285425252
-0.2692193687 -0.1687010080 0.5830582380 4285359459
-0.2692860067 -0.1680947840 0.5832025409 4285293666
-0.2693524361 -0.1674880981 0.5833463669 4285227873
-0.2694186270 -0.1668809801 0.5834897757 4285227872
-0.2694846392 -0.1662734002 0.5836327672 4285162079
-0.2699564099 -0.1659148782 0.5846544504 4285096286
-0.2700220942 -0.1653055102 0.5847966671 4285162079
-0.2696814239 -0.1644480228 0.5840588808 4285030747
-0.2697465718 -0.1638386697 0.5842000246 4284964954
-0.2698115408 -0.1632288843 0.5843406916 4284767575
-0.2698763013 -0.1626186520 0.5844809413 4284504403
-0.2699408233 -0.1620079875 0.5846207142 4284372817
-0.2700051367 -0.1613968760 0.5847600102 4284241231
-0.2700692713 -0.1607853323 0.5848988295 4284241231
-0.2701331675 -0.1601733565 0.5850372314 4284175438
-0.2706037760 -0.1598012447 0.5860564709 4283978057
-0.2706673145 -0.1591874808 0.5861940980 4283846471
-0.2703235745 -0.1583348215 0.5854496360 4283780163
-0.2703866065 -0.1577211171 0.5855861306 4283648577
-0.2704494298 -0.1571069956 0.5857222080 4283516733
-0.2705120444 -0.1564924270 0.5858578086 4283253561
-0.2705744207 -0.1558774412 0.5859929323 4283121975
-0.2706365883 -0.1552620381 0.5861275792 4283056182
-0.2706985474 -0.1546462029 0.5862617493 4283055666
-0.2707602978 -0.1540299356 0.5863954425 4282924080
-0.2708218098 -0.1534132659 0.5865287185 4282726186
-0.2708831131 -0.1527961642 0.5866614580 4282594600
