VERSION 0.7
FIELDS x y z rgba
SIZE 4 4 4 4
TYPE F F F U
COUNT 1 1 1 1
WIDTH 920
HEIGHT 1
VIEWPOINT 0.0 0.0 0.0 1.0 0.0 0.0 0.0
POINTS 920
DATA ascii
-0.3433910310 -0.2054001242 0.6236780882 4286291823
-0.3434799314 -0.2047601789 0.6238395572 4286291825
-0.3435685933 -0.2041197270 0.6240006089 4286357618
-0.3436570168 -0.2034787685 0.6241612434 4286292336
-0.3437452316 -0.2028373331 0.6243214011 4286226543
-0.3438331783 -0.2021953911 0.6244812012 4286160750
-0.3443850577 -0.2018249631 0.6254835129 4286160750
-0.3449369073 -0.2014523149 0.6264858246 4286094957
-0.3450244069 -0.2008071691 0.6266447306 4286094957
-0.3451116681 -0.2001615316 0.6268032193 4286094957
-0.3456633091 -0.1997839361 0.6278051138 4286094957
-0.3457502127 -0.1991364509 0.6279629469 4286029164
-0.3463017046 -0.1987552643 0.6289646029 4286094957
-0.3468531966 -0.1983718574 0.6299662590 4286160750
-0.3478697538 -0.1982512474 0.6318125129 4286160750
-0.3474909663 -0.1973341554 0.6311246157 4286160750
-0.3485076129 -0.1972082108 0.6329710484 4286226543
-0.3485936522 -0.1965534538 0.6331273317 4286227056
-0.3491449952 -0.1961597502 0.6341286302 4286161263
-0.3492306471 -0.1955031455 0.6342841983 4286358127
-0.3488503098 -0.1945862621 0.6335934401 4286358127
-0.3489353657 -0.1939295679 0.6337479353 4286226543
-0.3494861722 -0.1935304254 0.6347482800 4286094957
-0.3495708406 -0.1928718984 0.6349020600 4286160752
-0.3496552706 -0.1922128946 0.6350554228 4286094959
-0.3497394323 -0.1915533990 0.6352083087 4286160750
-0.3498233855 -0.1908934414 0.6353607774 4286226543
-0.3503735960 -0.1904866546 0.6363601089 4286160752
-0.3509238064 -0.1900776178 0.6373593807 4286226545
-0.3510071933 -0.1894144714 0.6375108361 4286226291
-0.3510903418 -0.1887508631 0.6376618743 4286226291
-0.3511732519 -0.1880867630 0.6378124356 4286226291
-0.3512558937 -0.1874222159 0.6379625201 4286292084
-0.3513382971 -0.1867571920 0.6381121874 4286489463
-0.3518877327 -0.1863391548 0.6391100883 4286686842
-0.3524371386 -0.1859188825 0.6401079893 4286882178
-0.3525189757 -0.1852506846 0.6402566433 4286882178
-0.3526005745 -0.1845820248 0.6404048204 4287275917
-0.3522141576 -0.1836689860 0.6397029757 4287933847
-0.3522951305 -0.1830002815 0.6398500204 4289380018
-0.3528437912 -0.1825732589 0.6408465505 4290893257
-0.3529243469 -0.1819027513 0.6409928203 4292603106
-0.3530046344 -0.1812317818 0.6411386728 4293984247
-0.3530846536 -0.1805603653 0.6412839890 4293984245
-0.3531644344 -0.1798884869 0.6414288878 4294115319
-0.3537124395 -0.1794538349 0.6424241662 4294311928
-0.3537917733 -0.1787801534 0.6425682902 4294246391
-0.3543395698 -0.1783419251 0.6435632110 4294180341
-0.3544184864 -0.1776664406 0.6437065601 4294246134
-0.3544971645 -0.1769905090 0.6438494325 4294574075
-0.3545755744 -0.1763141304 0.6439918280 4294574075
-0.3546536863 -0.1756373048 0.6441337466 4294377461
-0.3547315598 -0.1749600321 0.6442751884 4294311924
-0.3548091650 -0.1742823124 0.6444160938 4294442743
-0.3553559184 -0.1738337874 0.6454091668 4294508536
-0.3559026122 -0.1733830273 0.6464020610 4294311673
-0.3559796214 -0.1727021784 0.6465419531 4294443003
-0.3560563326 -0.1720208973 0.6466813087 4294246391
-0.3561328053 -0.1713391691 0.6468201280 4293654766
-0.3562089801 -0.1706570089 0.6469585299 4292143060
-0.3567549288 -0.1701986492 0.6479501128 4289577133
-0.3568306863 -0.1695147157 0.6480876803 4286881411
-0.3573763967 -0.1690527797 0.6490787864 4286749825
-0.3574516773 -0.1683670729 0.6492155194 4286028148
-0.3575266898 -0.1676809341 0.6493517756 4285633390
-0.3576014638 -0.1669943631 0.6494875550 4285503333
-0.3576759100 -0.1663073599 0.6496227980 4285305954
-0.3582208455 -0.1658378541 0.6506125331 4285765984
-0.3582948446 -0.1651490927 0.6507469416 4285634398
-0.3588395119 -0.1646760106 0.6517361403 4285568605
-0.3589130640 -0.1639854908 0.6518697739 4285502812
-0.3585152328 -0.1630802602 0.6511471868 4285437276
-0.3585881293 -0.1623898000 0.6512795687 4285437276
-0.3586607575 -0.1616989225 0.6514114738 4285437276
-0.3592044711 -0.1612191945 0.6523990631 4285437276
-0.3592766523 -0.1605265737 0.6525300741 4285305944
-0.3593485057 -0.1598335356 0.6526606083 4285371737
-0.3594200909 -0.1591400802 0.6527906656 4285305944
-0.3594914079 -0.1584462076 0.6529201269 4285240151
-0.3595624268 -0.1577519327 0.6530491710 4285305944
-0.3596331775 -0.1570572406 0.6531776190 4285240151
-0.3597036302 -0.1563621312 0.6533055902 4285108565
-0.3597737849 -0.1556666195 0.6534330249 4285174358
-0.3598436713 -0.1549707055 0.6535599232 4285239638
-0.3599132597 -0.1542743891 0.6536863446 4285239638
-0.3599825799 -0.1535776705 0.6538122296 4285305431
-0.3600516021 -0.1528805494 0.6539375782 4285305431
-0.3601203263 -0.1521830112 0.6540624499 4285239638
-0.3601887822 -0.1514851004 0.6541867256 4285173845
-0.3602569401 -0.1507867724 0.6543105245 4285173845
-0.3603248000 -0.1500880569 0.6544337869 4285108052
-0.3603923917 -0.1493889540 0.6545565724 4285108052
-0.3609327078 -0.1488845795 0.6555379033 4285173845
-0.3609997928 -0.1481837630 0.6556597352 4285108052
-0.3610666096 -0.1474825591 0.6557810903 4285108052
-0.3611330986 -0.1467809677 0.6559018493 4285042259
-0.3611992896 -0.1460789889 0.6560220718 4285042259
-0.3612652123 -0.1453766227 0.6561418176 4285042257
-0.3613308370 -0.1446738839 0.6562609673 4284976464
-0.3613961637 -0.1439707577 0.6563796401 4284976466
-0.3614611924 -0.1432672441 0.6564977765 4285042259
-0.3615259230 -0.1425633579 0.6566153169 4285108050
-0.3615903854 -0.1418590844 0.6567323804 4285042257
-0.3616545200 -0.1411544532 0.6568488479 4285042257
-0.3621924222 -0.1406335086 0.6578258276 4284910671
-0.3622560799 -0.1399271935 0.6579414010 4284844880
-0.3618451655 -0.1390382797 0.6571951509 4284910673
-0.3619081080 -0.1383321583 0.6573094726 4285042259
-0.3619707823 -0.1376256645 0.6574232578 4285042259
-0.3620331287 -0.1369187981 0.6575365067 4285042257
-0.3616206050 -0.1360330582 0.6567872763 4284910671
-0.3621569276 -0.1355039775 0.6577613950 4284844878
-0.3622183800 -0.1347960383 0.6578729749 4284844878
-0.3622795343 -0.1340877265 0.6579840779 4284779087
-0.3618654907 -0.1332042515 0.6572320461 4284779087
-0.3619259596 -0.1324961483 0.6573418975 4284844880
-0.3619861305 -0.1317877024 0.6574511528 4284713294
-0.3615708649 -0.1309068799 0.6566969752 4284713294
-0.3616303504 -0.1301986575 0.6568049788 4284713294
-0.3616895378 -0.1294900924 0.6569124460 4284647501
-0.3617483974 -0.1287811697 0.6570193768 4284647501
-0.3618069887 -0.1280719042 0.6571257710 4284647501
-0.3618652523 -0.1273622960 0.6572316289 4284581708
-0.3619232178 -0.1266523600 0.6573368907 4284581708
-0.3619808555 -0.1259420663 0.6574416161 4284647501
-0.3620382249 -0.1252314448 0.6575457454 4284581708
-0.3620952666 -0.1245204732 0.6576493382 4284581708
-0.3621519804 -0.1238091737 0.6577523947 4284647501
-0.3622084260 -0.1230975464 0.6578549147 4284647501
-0.3622645438 -0.1223855764 0.6579568386 4284581708
-0.3618442416 -0.1215133965 0.6571934819 4284647501
-0.3618996739 -0.1208017096 0.6572941542 4284450635
-0.3624310493 -0.1202477142 0.6582592130 4284450635
-0.3620096147 -0.1193773597 0.6574937701 4284450635
-0.3620640934 -0.1186647043 0.6575927734 4284450635
-0.3621183038 -0.1179517210 0.6576911807 4284516428
-0.3616956472 -0.1170841604 0.6569235325 4284516428
-0.3617491424 -0.1163714826 0.6570207477 4284647501
-0.3618023396 -0.1156584918 0.6571173072 4284713294
-0.3618552089 -0.1149451807 0.6572133899 4284581708
-0.3619077802 -0.1142315641 0.6573088169 4284581708
-0.3619600236 -0.1135176346 0.6574037671 4284581710
-0.3624889255 -0.1129520163 0.6583643556 4284515917
-0.3625406325 -0.1122365296 0.6584582329 4284515917
-0.3621149063 -0.1113739982 0.6576850414 4284450124
-0.3621658981 -0.1106588468 0.6577776670 4284450124
-0.3626938164 -0.1100882515 0.6587364674 4284450124
-0.3627442718 -0.1093715504 0.6588280797 4284450124
-0.3627943695 -0.1086545587 0.6589191556 4284384331
-0.3628441989 -0.1079372689 0.6590095758 4284384331
-0.3624161780 -0.1070786044 0.6582322121 4284384331
-0.3624652922 -0.1063616723 0.6583214402 4284384331
-0.3620364666 -0.1055052578 0.6575425863 4284384331
-0.3616071939 -0.1046504453 0.6567628980 4284515917
-0.3611774743 -0.1037972420 0.6559824347 4284515917
-0.3607473075 -0.1029456481 0.6552011967 4284515147
-0.3607945740 -0.1022310629 0.6552870274 4284515147
-0.3603636026 -0.1013817415 0.6545042396 4284449354
-0.3604101539 -0.1006675512 0.6545888186 4284449354
-0.3609344959 -0.1000856459 0.6555411220 4284515147
-0.3609804809 -0.0993699580 0.6556246877 4284515147
-0.3610261679 -0.0986539945 0.6557076573 4284515147
-0.3605932891 -0.0978080407 0.6549214125 4284646733
-0.3606382608 -0.0970924869 0.6550031304 4284450124
-0.3606829345 -0.0963766649 0.6550842524 4284515917
-0.3602488637 -0.0955337062 0.6542958617 4284515917
-0.3602928221 -0.0948183089 0.6543757319 4284450124
-0.3598579168 -0.0939776748 0.6535858512 4284384331
-0.3599011898 -0.0932627097 0.6536644101 4284384331
-0.3599441350 -0.0925474837 0.6537424326 4284384331
-0.3604654670 -0.0919541195 0.6546893120 4284384331
-0.3600290716 -0.0911162719 0.6538966894 4284317768
-0.3600710630 -0.0904002860 0.6539729238 4284383561
-0.3601127267 -0.0896840468 0.6540486217 4284515147
-0.3596751392 -0.0888492614 0.6532538533 4284515147
-0.3597161174 -0.0881334841 0.6533282399 4284383561
-0.3592776954 -0.0873010606 0.6525320411 4284383561
-0.3593179882 -0.0865857527 0.6526051760 4284580940
-0.3588787615 -0.0857557133 0.6518074870 4284778319
-0.3589183390 -0.0850408897 0.6518793106 4284777804
-0.3589575887 -0.0843258202 0.6519505978 4284712011
-0.3594758213 -0.0837221518 0.6528918147 4284514634
-0.3595144749 -0.0830056667 0.6529620290 4284448841
-0.3590733707 -0.0821792334 0.6521609426 4284777806
-0.3586318791 -0.0813544840 0.6513590813 4285369943
-0.3586694598 -0.0806392208 0.6514273286 4286158689
-0.3587067127 -0.0799237415 0.6514949799 4286685033
-0.3577844203 -0.0789962485 0.6498199105 4287474549
-0.3578209281 -0.0782822371 0.6498861909 4287935100
-0.3578571081 -0.0775680169 0.6499519348 4288395653
-0.3578929901 -0.0768535733 0.6500170231 4288593032
-0.3579285145 -0.0761389136 0.6500815749 4288527239
-0.3574838638 -0.0753229409 0.6492739916 4288000895
-0.3575187027 -0.0746088177 0.6493372917 4287474292
-0.3570732772 -0.0737953037 0.6485282779 4287211120
-0.3571074307 -0.0730817318 0.6485902667 4287013489
-0.3571412265 -0.0723679513 0.6486517191 4286487145
-0.3566946387 -0.0715576634 0.6478406191 4286092387
-0.3562476337 -0.0707490891 0.6470287442 4286026594
-0.3562803864 -0.0700366348 0.6470882297 4285960801
-0.3563128114 -0.0693239793 0.6471471190 4286026594
-0.3558646739 -0.0685186684 0.6463331580 4286420839
-0.3554160893 -0.0677150786 0.6455184221 4286684011
-0.3549671173 -0.0669132322 0.6447030306 4287078769
-0.3545177281 -0.0661131144 0.6438868046 4287539320
-0.3540679514 -0.0653147399 0.6430698633 4287999871
-0.3540982008 -0.0646057576 0.6431248188 4288263043
-0.3541281223 -0.0638966039 0.6431791782 4288263043
-0.3546382785 -0.0632730052 0.6441057324 4288065664
-0.3546676040 -0.0625625253 0.6441590190 4287736185
-0.3546966016 -0.0618518777 0.6442116499 4287473013
-0.3547252715 -0.0611410551 0.6442637444 4286815851
-0.3542729020 -0.0603481755 0.6434421539 4286486886
-0.3543008864 -0.0596379749 0.6434929371 4286026846
-0.3543285429 -0.0589276068 0.6435431838 4285697881
-0.3543558717 -0.0582170710 0.6435928345 4285697368
-0.3543828428 -0.0575063750 0.6436418295 4285894747
-0.3544095159 -0.0567955151 0.6436902881 4286157151
-0.3544358611 -0.0560844988 0.6437380910 4286486116
-0.3539809287 -0.0552981906 0.6429118514 4286617449
-0.3540065587 -0.0545878224 0.6429584026 4287012207
-0.3535508513 -0.0538040996 0.6421307325 4287472762
-0.3535758257 -0.0530943945 0.6421760917 4287867520
-0.3536004424 -0.0523845404 0.6422207952 4288130441
-0.3541058898 -0.0517448448 0.6431387663 4288327820
-0.3536487222 -0.0509643890 0.6423084736 4288787606
-0.3536723852 -0.0502540991 0.6423514485 4288984985
-0.3222003281 -0.2315530926 0.5863736868 4288262027
-0.3227524161 -0.2312972546 0.5873784423 4288064648
-0.3233045936 -0.2310392261 0.5883833766 4288130439
-0.3238568604 -0.2307790369 0.5893884897 4288196232
-0.3244092166 -0.2305166721 0.5903937221 4287604862
-0.3254174292 -0.2305750698 0.5922285318 4287275897
-0.3250582814 -0.2296633124 0.5915749073 4287078772
-0.3246986568 -0.2287526876 0.5909204483 4287078772
-0.3261632919 -0.2291250080 0.5935859084 4286947186
-0.3262595832 -0.2285329551 0.5937612057 4286749807
-0.3263557255 -0.2279403657 0.5939361453 4286684012
-0.3264516592 -0.2273472697 0.5941107273 4286815598
-0.3270040751 -0.2270707935 0.5951160789 4287341942
-0.3270997703 -0.2264758199 0.5952902436 4287999872
-0.3276522160 -0.2261957973 0.5962956548 4288329096
-0.3277476430 -0.2255989462 0.5964692831 4288526475
-0.3283000886 -0.2253153771 0.5974746943 4288919955
-0.3288526237 -0.2250296324 0.5984802842 4288788369
-0.3289476931 -0.2244295478 0.5986533165 4288590227
-0.3290425837 -0.2238289565 0.5988259912 4288327055
-0.3291372955 -0.2232278287 0.5989983082 4288195216
-0.3292317688 -0.2226261944 0.5991702676 4288524181
-0.3297840953 -0.2223328352 0.6001754403 4288392599
-0.3307946324 -0.2223452330 0.6020145416 4288129427
-0.3304306269 -0.2214324176 0.6013520360 4287734416
-0.3314414024 -0.2214395851 0.6031916142 4287866002
-0.3319939673 -0.2211374491 0.6041972041 4288456862
-0.3316291869 -0.2202239186 0.6035333276 4289114792
-0.3326404095 -0.2202228159 0.6053736806 4290495681
-0.3331929743 -0.2199149132 0.6063793302 4291811541
-0.3332865536 -0.2193027437 0.6065495610 4293257956
-0.3329207003 -0.2183888406 0.6058837771 4294047472
-0.3334730268 -0.2180768698 0.6068889499 4294508536
-0.3340254128 -0.2177626938 0.6078942418 4294376950
-0.3341182768 -0.2171476185 0.6080632210 4293719789
-0.3342109025 -0.2165320367 0.6082318425 4292798687
-0.3347631693 -0.2162129283 0.6092368960 4291155652
-0.3348554969 -0.2155954838 0.6094049215 4290037171
-0.3358678222 -0.2155681103 0.6112472415 4288657052
-0.3354997635 -0.2146534920 0.6105774045 4287867536
-0.3365122676 -0.2146208584 0.6124200821 4287144834
-0.3366041481 -0.2139988095 0.6125872731 4286881662
-0.3371563852 -0.2136681527 0.6135922670 4286619767
-0.3372479081 -0.2130442411 0.6137589216 4286685560
-0.3378000855 -0.2127100229 0.6147637963 4286686583
-0.3378913403 -0.2120842338 0.6149298549 4286752376
-0.3384434581 -0.2117464393 0.6159346700 4286752378
-0.3389955759 -0.2114064097 0.6169394851 4286554999
-0.3390864134 -0.2107774019 0.6171047688 4286357618
-0.3396384716 -0.2104338109 0.6181094646 4286291825
-0.3397289813 -0.2098029405 0.6182741523 4286291825
-0.3398192525 -0.2091715485 0.6184384823 4286357618
-0.3403711319 -0.2088230103 0.6194428205 4286357618
-0.3409230411 -0.2084722519 0.6204472780 4286423411
-0.3410128951 -0.2078376561 0.6206107736 4286423411
-0.3415646851 -0.2074833065 0.6216149926 4286423411
-0.3416542113 -0.2068468481 0.6217779517 4286358129
-0.3422059417 -0.2064889222 0.6227819920 4286226543
-0.3422951102 -0.2058505863 0.6229442954 4286226543
-0.3423840404 -0.2052117586 0.6231061816 4286226543
-0.3429355621 -0.2048488855 0.6241098642 4286226543
-0.3430241644 -0.2042082101 0.6242710948 4286292336
-0.3431125283 -0.2035670280 0.6244319677 4286423663
-0.3432006836 -0.2029253542 0.6245923638 4286357870
-0.3432885706 -0.2022831887 0.6247523427 4286292077
-0.3433762491 -0.2016405165 0.6249118447 4286292077
-0.3439272046 -0.2012686133 0.6259145737 4286226284
-0.3444781601 -0.2008944899 0.6269172430 4286226284
-0.3445653617 -0.2002486140 0.6270759106 4286226030
-0.3446523249 -0.1996022463 0.6272341609 4286291823
-0.3452030122 -0.1992231756 0.6282364130 4286160237
-0.3457537293 -0.1988418698 0.6292386651 4286226030
-0.3463044167 -0.1984583288 0.6302408576 4286160237
-0.3468551040 -0.1980725527 0.6312430501 4286160237
-0.3469413519 -0.1974202693 0.6313999891 4286094957
-0.3474918902 -0.1970309019 0.6324019432 4286160750
-0.3475777507 -0.1963767707 0.6325582266 4286226545
-0.3481281698 -0.1959838122 0.6335598826 4286292338
-0.3486785591 -0.1955886185 0.6345615387 4286358129
-0.3482988775 -0.1946713775 0.6338706017 4286358129
-0.3483838737 -0.1940144300 0.6340252757 4286291823
-0.3484686315 -0.1933570206 0.6341795325 4286226030
-0.3490185142 -0.1929563880 0.6351802349 4286226030
-0.3491028547 -0.1922971308 0.6353337765 4286160237
-0.3491869867 -0.1916373968 0.6354868412 4286160237
-0.3492708504 -0.1909771860 0.6356394887 4286226030
-0.3493544757 -0.1903164983 0.6357916594 4286226030
-0.3499037623 -0.1899082214 0.6367913485 4286291823
-0.3504530489 -0.1894976944 0.6377909184 4286357618
-0.3505361378 -0.1888338178 0.6379421949 4286357618
-0.3506189585 -0.1881694794 0.6380929351 4286357618
-0.3507015705 -0.1875046641 0.6382431984 4286423411
-0.3507838845 -0.1868393868 0.6383930445 4286554997
-0.3508659601 -0.1861736476 0.6385424137 4286686583
-0.3514144719 -0.1857541054 0.6395406723 4286948482
-0.3514961600 -0.1850865483 0.6396893263 4287277447
-0.3515775800 -0.1844185144 0.6398375034 4287869076
-0.3516587317 -0.1837500185 0.6399852037 4288592799
-0.3517396450 -0.1830810606 0.6401324272 4289841847
-0.3518202901 -0.1824116409 0.6402792335 4291223500
-0.3523679972 -0.1819831133 0.6412760019 4292801254
-0.3524482548 -0.1813118905 0.6414220333 4294049785
-0.3525282145 -0.1806402057 0.6415675879 4294115319
-0.3526079357 -0.1799680591 0.6417126656 4294049782
-0.3526873887 -0.1792954654 0.6418572664 4294377463
-0.3532344401 -0.1788593233 0.6428528428 4294508537
-0.3533134758 -0.1781849265 0.6429966688 4294508536
-0.3538603187 -0.1777451783 0.6439918876 4294442743
-0.3539389372 -0.1770689934 0.6441349387 4294574075
-0.3540172577 -0.1763923466 0.6442775130 4294639612
-0.3540953398 -0.1757152528 0.6444196105 4294508533
-0.3541731536 -0.1750377119 0.6445612311 4294442996
-0.3542506993 -0.1743597239 0.6447023749 4294442743
-0.3547966778 -0.1739110351 0.6456959844 4294508536
-0.3553425670 -0.1734600961 0.6466894746 4294376696
-0.3554195166 -0.1727789938 0.6468294859 4294508282
-0.3554961979 -0.1720974296 0.6469690204 4294311927
-0.3555726111 -0.1714154482 0.6471080780 4293654509
-0.3556487560 -0.1707330048 0.6472466588 4292406232
-0.3557246029 -0.1700501293 0.6473847032 4290037684
-0.3562695980 -0.1695902646 0.6483765244 4287341703
-0.3563450277 -0.1689056158 0.6485137939 4286815359
-0.3564201593 -0.1682205498 0.6486505270 4286094195
-0.3569647074 -0.1677557677 0.6496415734 4285831023
-0.3570394218 -0.1670689136 0.6497775316 4285569126
-0.3571138382 -0.1663816422 0.6499129534 4285371747
-0.3571879864 -0.1656939387 0.6500478983 4285700191
-0.3577319384 -0.1652229130 0.6510378122 4285634398
-0.3578056097 -0.1645334512 0.6511719227 4285568605
-0.3578790128 -0.1638435572 0.6513055563 4285568605
-0.3579521477 -0.1631532460 0.6514385939 4285503069
-0.3580250144 -0.1624625027 0.6515712142 4285437276
-0.3580975831 -0.1617713422 0.6517032981 4285437276
-0.3581698537 -0.1610797644 0.6518348455 4285437276
-0.3587126136 -0.1605985314 0.6528226137 4285371737
-0.3587844372 -0.1599052101 0.6529533267 4285437530
-0.3588559926 -0.1592114717 0.6530835032 4285371737
-0.3589272499 -0.1585173160 0.6532132030 4285305944
-0.3589982390 -0.1578227580 0.6533423662 4285371737
-0.3590689301 -0.1571277827 0.6534709930 4285240151
-0.3591393232 -0.1564323902 0.6535991430 4285174358
-0.3592094481 -0.1557365954 0.6537267566 4285174358
-0.3592792749 -0.1550403982 0.6538538337 4285239638
-0.3593488336 -0.1543437988 0.6539804339 4285173845
-0.3594180942 -0.1536467820 0.6541064978 4285239638
-0.3594870567 -0.1529493779 0.6542320251 4285239638
-0.3595557511 -0.1522515565 0.6543570161 4285239638
-0.3596241474 -0.1515533477 0.6544815302 4285173845
-0.3596922755 -0.1508547366 0.6546054482 4285173845
-0.3597601056 -0.1501557380 0.6547288895 4285108052
-0.3598276377 -0.1494563371 0.6548517942 4285108052
-0.3598948717 -0.1487565339 0.6549741626 4285108052
-0.3604342043 -0.1482506543 0.6559557319 4285108052
-0.3605009615 -0.1475491673 0.6560772061 4285042259
-0.3605674207 -0.1468472779 0.6561981440 4285042259
-0.3606335819 -0.1461450011 0.6563185453 4284976466
-0.3606994450 -0.1454423517 0.6564384699 4284976466
-0.3607650399 -0.1447393149 0.6565577984 4284976466
-0.3608303070 -0.1440358907 0.6566765904 4284976466
-0.3608953059 -0.1433320791 0.6567948461 4285042259
-0.3609600067 -0.1426278949 0.6569126248 4285042259
-0.3610243797 -0.1419233382 0.6570298076 4284976466
-0.3610884845 -0.1412183940 0.6571464539 4284976466
-0.3611522913 -0.1405130923 0.6572625637 4284910673
-0.3612158000 -0.1398074031 0.6573781371 4284844880
-0.3612790108 -0.1391013414 0.6574931741 4284844880
-0.3613419235 -0.1383949220 0.6576076746 4284976466
-0.3614045382 -0.1376881301 0.6577216387 4284976466
-0.3614668548 -0.1369809657 0.6578350067 4284976464
-0.3610550463 -0.1360948384 0.6570855975 4284910671
-0.3615905941 -0.1355655491 0.6580601931 4284844878
-0.3616519868 -0.1348572969 0.6581719518 4284779085
-0.3612390459 -0.1339728683 0.6574204564 4284779085
-0.3612997830 -0.1332648247 0.6575309634 4284779085
-0.3613601923 -0.1325564235 0.6576409340 4284779087
-0.3614203334 -0.1318476796 0.6577503681 4284713294
-0.3610057533 -0.1309664696 0.6569958925 4284713294
-0.3610652089 -0.1302579492 0.6571040750 4284713294
-0.3611243367 -0.1295490712 0.6572117209 4284647501
-0.3611831963 -0.1288398504 0.6573187709 4284647501
-0.3612417281 -0.1281302869 0.6574253440 4284581708
-0.3612999618 -0.1274203807 0.6575312614 4284581708
-0.3613578677 -0.1267101169 0.6576367021 4284647501
-0.3614155054 -0.1259995252 0.6577415466 4284647501
-0.3614728153 -0.1252885908 0.6578458548 4284581708
-0.3615297973 -0.1245773286 0.6579496264 4284581708
-0.3615865111 -0.1238657162 0.6580528021 4284647501
-0.3616428971 -0.1231537759 0.6581554413 4284647501
-0.3612236977 -0.1222806126 0.6573925018 4284581708
-0.3612793982 -0.1215689480 0.6574938893 4284581708
-0.3613347709 -0.1208569482 0.6575946808 4284450633
-0.3613898754 -0.1201446280 0.6576949358 4284450633
-0.3609690666 -0.1192748323 0.6569290757 4284516426
-0.3610234559 -0.1185628027 0.6570280790 4284516426
-0.3610775471 -0.1178504527 0.6571265459 4284516428
-0.3611313105 -0.1171377823 0.6572244167 4284516428
-0.3611847758 -0.1164247915 0.6573216915 4284582221
-0.3612379432 -0.1157114878 0.6574184299 4284648014
-0.3612907827 -0.1149978638 0.6575146317 4284582221
-0.3613433242 -0.1142839342 0.6576102376 4284516428
-0.3613955379 -0.1135696918 0.6577052474 4284516174
-0.3614474535 -0.1128551438 0.6577997208 4284516174
-0.3614990413 -0.1121402830 0.6578935981 4284515917
-0.3615503311 -0.1114251241 0.6579869390 4284450124
-0.3611248732 -0.1105637923 0.6572126746 4284515917
-0.3616519272 -0.1099938899 0.6581718922 4284450124
-0.3617022932 -0.1092778221 0.6582635045 4284515917
-0.3617523015 -0.1085614562 0.6583545208 4284450124
-0.3618020117 -0.1078447923 0.6584450006 4284450124
-0.3613746464 -0.1069866940 0.6576672196 4284450124
-0.3614236712 -0.1062703878 0.6577564478 4284450124
-0.3609955013 -0.1054145396 0.6569771767 4284515917
-0.3605668545 -0.1045602933 0.6561971307 4284515917
-0.3601377904 -0.1037076563 0.6554162502 4284450124
-0.3601853549 -0.1029930413 0.6555027962 4284450124
-0.3597554564 -0.1021426767 0.6547204852 4284384331
-0.3598023057 -0.1014284417 0.6548057199 4284515147
-0.3593716025 -0.1005803645 0.6540219188 4284515147
-0.3598950803 -0.0999991447 0.6549745798 4284515147
-0.3599410057 -0.0992840901 0.6550581455 4284580940
-0.3599866033 -0.0985687524 0.6551411152 4284646733
-0.3600318730 -0.0978531539 0.6552234888 4284646733
-0.3595992625 -0.0970084518 0.6544361711 4284450124
-0.3596438468 -0.0962932557 0.6545172930 4284515917
-0.3596881032 -0.0955777988 0.6545978785 4284581710
-0.3597320318 -0.0948620811 0.6546778083 4284515917
-0.3592978716 -0.0940210745 0.6538876891 4284450124
-0.3593410850 -0.0933057889 0.6539663672 4284384331
-0.3593840301 -0.0925902426 0.6540444493 4284384331
-0.3599045873 -0.0919966102 0.6549918652 4284450124
-0.3594689071 -0.0911583826 0.6541989446 4284449354
-0.3590327799 -0.0903218091 0.6534052491 4284449354
-0.3590743542 -0.0896062106 0.6534809470 4284449354
-0.3591156304 -0.0888903588 0.6535560489 4284449354
-0.3586783111 -0.0880568475 0.6527602077 4284449354
-0.3587188721 -0.0873414651 0.6528339982 4284383561
-0.3582807779 -0.0865103304 0.6520366669 4284449354
-0.3583206534 -0.0857954174 0.6521092653 4284515147
-0.3578817248 -0.0849666744 0.6513104439 4284317766
-0.3579209149 -0.0842522457 0.6513817310 4284383559
-0.3584383130 -0.0836492553 0.6523233652 4284580938
-0.3584768772 -0.0829334036 0.6523935795 4284712524
-0.3580364883 -0.0821075514 0.6515920758 4284712524
-0.3575956523 -0.0812833831 0.6507897973 4284778317
-0.3576331437 -0.0805687532 0.6508580446 4284975183
-0.3576703370 -0.0798539072 0.6509256959 4284975183
-0.3572283089 -0.0790328905 0.6501213312 4285238355
-0.3567858934 -0.0782135725 0.6493161321 4285633113
-0.3568220139 -0.0774999782 0.6493818760 4286027871
-0.3573367894 -0.0768892393 0.6503187418 4286488422
-0.3568932712 -0.0760721490 0.6495115161 4287014766
-0.3569284081 -0.0753579140 0.6495754719 4287541110
-0.3564840555 -0.0745432749 0.6487668157 4288067454
-0.3565185070 -0.0738295838 0.6488295197 4288462212
-0.3560733795 -0.0730174109 0.6480194330 4288592519
-0.3556278646 -0.0722069517 0.6472086310 4288263554
-0.3556612134 -0.0714945644 0.6472693682 4287934589
-0.3552148938 -0.0706865862 0.6464570761 4287671417
-0.3547681868 -0.0698803291 0.6456440687 4287145073
-0.3548004925 -0.0691692755 0.6457028985 4286552936
-0.3548324704 -0.0684580207 0.6457611322 4286157921
-0.3543846011 -0.0676550344 0.6449459791 4285894749
-0.3539363146 -0.0668537766 0.6441301703 4285697116
-0.3539672494 -0.0661438778 0.6441864371 4285894495
-0.3535181582 -0.0653451383 0.6433691978 4286289253
-0.3530687094 -0.0645481348 0.6425511837 4286749804
-0.3530985713 -0.0638396144 0.6426055431 4287210355
-0.3536079228 -0.0632166937 0.6435325146 4287473527
-0.3536371589 -0.0625068545 0.6435857415 4287867771
-0.3536660969 -0.0617968403 0.6436384320 4288196736
-0.3541746438 -0.0611695386 0.6445639133 4287999872
-0.3537230194 -0.0603762940 0.6437419653 4287868286
-0.3537509739 -0.0596657693 0.6437928677 4287539320
-0.3532985747 -0.0588750802 0.6429695487 4286947183
-0.3533258438 -0.0581651814 0.6430191994 4286552679
-0.3538328707 -0.0575331859 0.6439419389 4286289507
-0.3533793986 -0.0567449033 0.6431166530 4286026333
-0.3534056842 -0.0560345203 0.6431644559 4285763161
-0.3534316421 -0.0553239845 0.6432117224 4285565784
-0.3529770374 -0.0545390882 0.6423844099 4285697370
-0.3525220454 -0.0537559688 0.6415563226 4286026081
-0.3525469303 -0.0530469008 0.6416016817 4286486632
-0.3525715172 -0.0523376837 0.6416463852 4286815598
-0.3530761600 -0.0516986586 0.6425647736 4287012977
-0.3531001210 -0.0509881824 0.6426083446 4287406969
-0.3531237543 -0.0502775647 0.6426513791 4287933313
-0.3526665866 -0.0494993664 0.6418193579 4288195980
-0.3522090018 -0.0487229601 0.6409866214 4288459152
-0.3517510593 -0.0479483567 0.6401532292 4288853146
-0.3512927294 -0.0471755490 0.6393190622 4289182111
-0.3204842210 -0.2327343225 0.5844318867 4288328334
-0.3205812871 -0.2321552783 0.5846089125 4287999622
-0.3206781745 -0.2315757126 0.5847855806 4288065415
-0.3216836154 -0.2316499949 0.5866190791 4287802243
-0.3213258982 -0.2307413667 0.5859667659 4287341692
-0.3224282265 -0.2302263528 0.5879769325 4287210104
-0.3225245774 -0.2296416909 0.5881527066 4286881391
-0.3244409263 -0.2303487808 0.5916473269 4287012977
-0.3245374560 -0.2297597677 0.5918233395 4286815598
-0.3241785169 -0.2288488150 0.5911687613 4286749805
-0.3251854181 -0.2289007455 0.5930049419 4286881391
-0.3257371187 -0.2286290973 0.5940110087 4287341942
-0.3258331418 -0.2280363292 0.5941861272 4287999872
-0.3259290159 -0.2274430394 0.5943609476 4288526216
-0.3264806569 -0.2271664888 0.5953668952 4288592522
-0.3265762627 -0.2265713215 0.5955412388 4288658315
-0.3271279037 -0.2262912393 0.5965472460 4288263814
-0.3272232413 -0.2256941944 0.5967211127 4288000642
-0.3273184001 -0.2250966132 0.5968946218 4287802754
-0.3278699815 -0.2248116434 0.5979005098 4287473789
-0.3279648721 -0.2242121994 0.5980735421 4287209853
-0.3280595541 -0.2236122340 0.5982462168 4286880888
-0.3281540275 -0.2230117470 0.5984184742 4286880122
-0.3287054896 -0.2227205187 0.5994241238 4287209087
-0.3287996948 -0.2221181542 0.5995959044 4287274629
-0.3298085928 -0.2221314609 0.6014357209 4288129938
-0.3294450939 -0.2212191373 0.6007728577 4289181861
-0.3299965262 -0.2209208012 0.6017784476 4290300342
-0.3305480182 -0.2206202745 0.6027841568 4291681230
-0.3310995698 -0.2203175426 0.6037899256 4292733918
-0.3316511512 -0.2200126052 0.6047958136 4293522668
-0.3322027922 -0.2197054625 0.6058017612 4293720047
-0.3322961628 -0.2190939337 0.6059720516 4293983213
-0.3319308460 -0.2181805372 0.6053058505 4293522662
-0.3324822485 -0.2178693265 0.6063113809 4292601817
-0.3330337107 -0.2175559103 0.6073170304 4291351750
-0.3331263661 -0.2169414759 0.6074860096 4289773998
-0.3332188129 -0.2163265198 0.6076545715 4288523931
-0.3337701559 -0.2160081863 0.6086599827 4287538571
-0.3338622749 -0.2153913677 0.6088280082 4287275399
-0.3348729312 -0.2153648883 0.6106709838 4287144834
-0.3345054090 -0.2144507766 0.6100007892 4286947455
-0.3355162740 -0.2144190371 0.6118441820 4286685560
-0.3360676765 -0.2140904963 0.6128497124 4286817146
-0.3361592591 -0.2134677321 0.6130167246 4286621301
-0.3362506032 -0.2128444463 0.6131833196 4286489715
-0.3368018568 -0.2125109881 0.6141885519 4286424175
-0.3373531401 -0.2121752948 0.6151939034 4286358382
-0.3379044533 -0.2118373960 0.6161992550 4286554997
-0.3379952908 -0.2112095356 0.6163648963 4286489204
-0.3385465443 -0.2108680457 0.6173701286 4286357616
-0.3386370838 -0.2102383226 0.6175352335 4286291823
-0.3391882479 -0.2098932564 0.6185403466 4286357616
-0.3392784595 -0.2092616558 0.6187048554 4286357616
-0.3398295343 -0.2089130133 0.6197097898 4286423409
-0.3403806388 -0.2085621506 0.6207147837 4286423409
-0.3404704034 -0.2079273164 0.6208785176 4286423409
-0.3410214186 -0.2075728774 0.6218833327 4286423409
-0.3411108851 -0.2069361806 0.6220464706 4286357616
-0.3416618109 -0.2065781355 0.6230511069 4286291823
-0.3412890732 -0.2056612819 0.6223714352 4286292077
-0.3418397903 -0.2053005248 0.6233757138 4286357870
-0.3419284225 -0.2046609819 0.6235373616 4286357870
-0.3420168459 -0.2040209174 0.6236985922 4286357870
-0.3425673544 -0.2036552131 0.6247024536 4286423662
-0.3426554203 -0.2030133009 0.6248630881 4286357869
-0.3427432477 -0.2023709118 0.6250232458 4286292076
-0.3428308666 -0.2017280161 0.6251830459 4286292076
-0.3433810174 -0.2013559937 0.6261862516 4286292077
-0.3434682786 -0.2007112354 0.6263453960 4286292077
-0.3435553014 -0.2000660002 0.6265040636 4286292077
-0.3441052139 -0.1996890306 0.6275069118 4286357870
-0.3446551263 -0.1993098408 0.6285097003 4286291823
-0.3447416425 -0.1986613870 0.6286675334 4286226030
-0.3452914357 -0.1982785910 0.6296700835 4286226030
-0.3458411992 -0.1978935748 0.6306726336 4286160237
-0.3463909626 -0.1975063086 0.6316751838 4286160239
-0.3469407260 -0.1971168220 0.6326777339 4286094446
-0.3470265269 -0.1964624524 0.6328341961 4286160239
-0.3475761414 -0.1960693598 0.6338364482 4286291825
-0.3471973836 -0.1951522380 0.6331457496 4286292334
-0.3477467597 -0.1947564334 0.6341475844 4286292334
-0.3478316963 -0.1940992475 0.6343024373 4286226543
-0.3479163647 -0.1934415847 0.6344568729 4286160750
-0.3480008245 -0.1927834302 0.6346108913 4286160750
-0.3480850160 -0.1921248138 0.6347644329 4286160750
-0.3481689692 -0.1914657056 0.6349174976 4286160750
-0.3482526541 -0.1908061206 0.6350701451 4286160750
-0.3483361304 -0.1901460737 0.6352223158 4286291823
-0.3488844931 -0.1897385269 0.6362223625 4286291823
-0.3494328558 -0.1893287450 0.6372223496 4286357618
-0.3495157659 -0.1886655092 0.6373735666 4286357618
-0.3495984375 -0.1880017966 0.6375243068 4286423411
-0.3496808708 -0.1873376220 0.6376746297 4286489204
-0.3502287567 -0.1869215369 0.6386737227 4286554997
-0.3503107727 -0.1862555295 0.6388233304 4286686583
-0.3503925502 -0.1855890602 0.6389724016 4286619767
-0.3509401083 -0.1851680279 0.6399709582 4287146111
-0.3505553007 -0.1842547208 0.6392692327 4287541391
-0.3506363034 -0.1835868657 0.6394169331 4288067735
-0.3507170677 -0.1829185337 0.6395642161 4289250990
-0.3512640297 -0.1824921072 0.6405616403 4290632643
-0.3513443470 -0.1818219572 0.6407081485 4292275675
-0.3514244258 -0.1811513752 0.6408541799 4293459949
-0.3515042365 -0.1804803163 0.6409997344 4294049778
-0.3515838087 -0.1798087955 0.6411447525 4294049778
-0.3516630828 -0.1791368425 0.6412893534 4294377203
-0.3522092402 -0.1787014157 0.6422853470 4294508533
-0.3527553380 -0.1782637686 0.6432812214 4294573816
-0.3528340459 -0.1775886565 0.6434247494 4294508023
-0.3529125154 -0.1769130826 0.6435678005 4294573818
-0.3529906869 -0.1762370765 0.6437103748 4294508025
-0.3530686200 -0.1755606085 0.6438524723 4294508535
-0.3531462848 -0.1748837084 0.6439940929 4294508535
-0.3536915183 -0.1744370908 0.6449883580 4294508536
-0.3537687361 -0.1737583876 0.6451292038 4294442743
-0.3543137610 -0.1733081937 0.6461231112 4294246134
-0.3543905318 -0.1726277024 0.6462631226 4294377464
-0.3544670641 -0.1719467789 0.6464026570 4294311927
-0.3545433283 -0.1712654084 0.6465417147 4293786095
-0.3546192944 -0.1705836058 0.6466802955 4292537818
-0.3551635742 -0.1701258123 0.6476727724 4290103477
-0.3552390933 -0.1694422364 0.6478105783 4287473801
-0.3553143740 -0.1687582135 0.6479477882 4286881664
-0.3553893566 -0.1680737734 0.6480845809 4286160241
-0.3559330404 -0.1676097214 0.6490759850 4285962862
-0.3564766347 -0.1671434194 0.6500672698 4285569124
-0.3565509915 -0.1664558649 0.6502029300 4285437538
-0.3566250801 -0.1657678932 0.6503380537 4285568605
-0.3571682572 -0.1652966887 0.6513285041 4285568605
-0.3572418988 -0.1646069437 0.6514627934 4285634398
-0.3573152423 -0.1639167815 0.6515966058 4285568605
-0.3573883176 -0.1632261872 0.6517298222 4285437276
-0.3574611247 -0.1625351608 0.6518626213 4285437276
-0.3575336337 -0.1618437320 0.6519948840 4285437276
-0.3576058745 -0.1611518711 0.6521266103 4285503069
-0.3576778471 -0.1604595929 0.6522578001 4285437530
-0.3577495217 -0.1597668976 0.6523885727 4285437530
-0.3578209281 -0.1590737849 0.6525187492 4285371737
-0.3578920364 -0.1583802700 0.6526484489 4285305944
-0.3579628766 -0.1576863378 0.6527776122 4285371737
-0.3580334187 -0.1569919884 0.6529062390 4285240151
-0.3581036925 -0.1562972218 0.6530343890 4285174358
-0.3577030003 -0.1553975940 0.6523036957 4285174358
-0.3577726185 -0.1547029316 0.6524306536 4285173845
-0.3583127856 -0.1542105079 0.6534156799 4285173845
-0.3583818972 -0.1535141319 0.6535417438 4285239638
-0.3584507406 -0.1528173536 0.6536672711 4285239638
-0.3585193157 -0.1521201581 0.6537923217 4285239638
-0.3585875630 -0.1514225751 0.6539167762 4285239638
-0.3586555421 -0.1507246047 0.6540407538 4285173845
-0.3587232232 -0.1500262171 0.6541641951 4285108052
-0.3592621088 -0.1495236754 0.6551468372 4285042259
-0.3593293130 -0.1488235891 0.6552693844 4285042259
-0.3593962193 -0.1481231153 0.6553913951 4285042259
-0.3594628274 -0.1474222541 0.6555128694 4285042259
-0.3595291376 -0.1467209905 0.6556338668 4284976466
-0.3595951796 -0.1460193545 0.6557542682 4284976466
-0.3596609235 -0.1453173161 0.6558741331 4284976466
-0.3597263694 -0.1446149051 0.6559935212 4284976466
-0.3597915173 -0.1439121217 0.6561123133 4284976468
-0.3598563969 -0.1432089359 0.6562305689 4284910675
-0.3599209487 -0.1425053775 0.6563483477 4284910673
-0.3599852324 -0.1418014467 0.6564655304 4284976466
-0.3600491881 -0.1410971433 0.6565821767 4285042259
-0.3601128757 -0.1403924525 0.6566982865 4284976466
-0.3606489301 -0.1398707181 0.6576758623 4284910673
-0.3607120812 -0.1391643584 0.6577910781 4284844880
-0.3603021204 -0.1382761747 0.6570434570 4284910673
-0.3603646159 -0.1375700086 0.6571573615 4284844880
-0.3604268134 -0.1368634701 0.6572707891 4284844878
-0.3600156307 -0.1359778941 0.6565209627 4284844878
-0.3605502844 -0.1354493052 0.6574959755 4284844878
-0.3606115878 -0.1347416937 0.6576077342 4284844878
-0.3606725633 -0.1340337098 0.6577189565 4284779085
-0.3602598608 -0.1331503987 0.6569663882 4284779085
-0.3603201807 -0.1324426234 0.6570763588 4284713294
-0.3603801727 -0.1317345053 0.6571857929 4284713294
-0.3599662483 -0.1308538467 0.6564309597 4284779087
-0.3600255847 -0.1301459521 0.6565391421 4284713294
-0.3605583906 -0.1296080202 0.6575107574 4284713294
-0.3601433337 -0.1287291199 0.6567538381 4284647501
-0.3602017462 -0.1280201823 0.6568603516 4284647501
-0.3602598608 -0.1273109019 0.6569663286 4284713294
-0.3603176475 -0.1266012788 0.6570717692 4284713294
-0.3603751659 -0.1258913130 0.6571766138 4284713294
-0.3604323566 -0.1251810044 0.6572809219 4284713294
-0.3604892492 -0.1244703606 0.6573846936 4284647501
-0.3605458438 -0.1237593815 0.6574878693 4284581708
-0.3606021404 -0.1230480745 0.6575905085 4284581708
-0.3606581092 -0.1223364323 0.6576926112 4284515915
-0.3602391481 -0.1214644238 0.6569285989 4284581708
-0.3607691228 -0.1209121495 0.6578950286 4284450633
-0.3608241677 -0.1201995239 0.6579954624 4284450633
-0.3608789146 -0.1194865629 0.6580952406 4284450633
-0.3604584336 -0.1186170056 0.6573284864 4284450633
-0.3605124950 -0.1179043427 0.6574270129 4284450633
-0.3605662286 -0.1171913669 0.6575250626 4284450633
-0.3606196642 -0.1164780632 0.6576224566 4284450635
-0.3606727719 -0.1157644466 0.6577193737 4284450635
-0.3607255816 -0.1150505170 0.6578156352 4284516428
-0.3607780933 -0.1143362746 0.6579113603 4284450635
-0.3608302772 -0.1136217192 0.6580065489 4284516174
-0.3604066670 -0.1127581000 0.6572340727 4284516174
-0.3604581654 -0.1120438725 0.6573280096 4284450381
-0.3605093360 -0.1113293394 0.6574212909 4284384588
-0.3605602086 -0.1106145009 0.6575140953 4284450381
-0.3610865176 -0.1100443527 0.6584738493 4284450381
-0.3606610000 -0.1091839224 0.6576978564 4284515917
-0.3607109189 -0.1084681898 0.6577889323 4284581710
-0.3607605398 -0.1077521592 0.6578794122 4284581710
-0.3608098328 -0.1070358306 0.6579692960 4284581710
-0.3603827655 -0.1061789468 0.6571904421 4284515917
-0.3599552214 -0.1053236648 0.6564108133 4284515917
-0.3595272601 -0.1044699848 0.6556303501 4284515917
-0.3590988219 -0.1036179140 0.6548491120 4284384331
-0.3591462970 -0.1029039249 0.6549356580 4284515917
-0.3591934443 -0.1021896601 0.6550216675 4284450124
-0.3592402637 -0.1014751121 0.6551070213 4284450124
-0.3588102758 -0.1006266549 0.6543229222 4284450124
-0.3593329787 -0.1000451818 0.6552761197 4284384331
-0.3593788445 -0.0993298069 0.6553597450 4284450124
-0.3594244123 -0.0986141562 0.6554428339 4284515917
-0.3594696522 -0.0978982300 0.6555253863 4284515917
-0.3590377867 -0.0970531553 0.6547377706 4284646733
-0.3590823114 -0.0963376462 0.6548190117 4284646733
-0.3591265678 -0.0956218690 0.6548996568 4284712526
-0.3591704667 -0.0949058309 0.6549797654 4284646733
-0.3587370217 -0.0940644443 0.6541892886 4284646733
-0.3587802351 -0.0933488384 0.6542680860 4284580940
-0.3588231206 -0.0926329717 0.6543463469 4284580940
-0.3588656783 -0.0919168517 0.6544239521 4284580940
-0.3589079380 -0.0912004784 0.6545010209 4284515147
-0.3584725559 -0.0903635249 0.6537070274 4284515147
-0.3585141003 -0.0896475986 0.6537827849 4284384331
-0.3580778837 -0.0888130069 0.6529873610 4284384331
-0.3581187427 -0.0880975425 0.6530618668 4284384331
-0.3576817513 -0.0872653276 0.6522649527 4284318538
-0.3572443128 -0.0864347741 0.6514672041 4284384331
-0.3572840989 -0.0857204944 0.6515397429 4284450124
-0.3573235571 -0.0850059763 0.6516117454 4284318536
-0.3573626876 -0.0842912197 0.6516830921 4284318536
-0.3578793406 -0.0836879686 0.6526252627 4284384329
-0.3579178751 -0.0829717889 0.6526955366 4284384329
-0.3574782014 -0.0821455643 0.6518937349 4284580938
-0.3570380807 -0.0813210234 0.6510911584 4284646731
-0.3570755720 -0.0806060731 0.6511595249 4284712524
-0.3566346467 -0.0797839537 0.6503554583 4284712524
-0.3566714525 -0.0790695101 0.6504225731 4284712524
-0.3562297523 -0.0782498196 0.6496170759 4284778317
-0.3557876050 -0.0774318278 0.6488108039 4284778317
-0.3563016057 -0.0768217742 0.6497480869 4284712524
-0.3563370407 -0.0761074275 0.6498126984 4284909390
-0.3558937907 -0.0752916709 0.6490044594 4285304148
-0.3554501534 -0.0744776204 0.6481953859 4285830492
-0.3554845154 -0.0737645626 0.6482580900 4286225250
-0.3550400734 -0.0729529783 0.6474475861 4286816619
-0.3550737500 -0.0722404644 0.6475090384 4287408756
-0.3546285331 -0.0714313611 0.6466971040 4288066686
-0.3546615243 -0.0707194060 0.6467573047 4288329858
-0.3542155027 -0.0699127838 0.6459439397 4288395651
-0.3537690938 -0.0691078901 0.6451298594 4288264065
-0.3538010120 -0.0683972761 0.6451880932 4288000636
-0.3533538282 -0.0675948784 0.6443725824 4287474292
-0.3533850610 -0.0668848455 0.6444295049 4286684522
-0.3529370725 -0.0660849586 0.6436126232 4286552936
-0.3529676199 -0.0653755143 0.6436682940 4286289764
-0.3525188863 -0.0645781532 0.6428499818 4286026592
-0.3525487483 -0.0638693050 0.6429044008 4286157921
-0.3525782526 -0.0631602854 0.6429582834 4286223714
-0.3526074588 -0.0624510832 0.6430115104 4286421093
-0.3531154692 -0.0618255958 0.6439379454 4286750058
-0.3531440794 -0.0611150824 0.6439900994 4287276149
-0.3526931405 -0.0603224374 0.6431677341 4287605114
-0.3527210355 -0.0596125498 0.6432186365 4288131457
-0.3522693515 -0.0588224605 0.6423949003 4288263043
-0.3522965610 -0.0581132025 0.6424445510 4288131709
-0.3528027833 -0.0574818850 0.6433677077 4287802744
-0.3528293967 -0.0567713343 0.6434162259 4287144812
-0.3523762226 -0.0559844598 0.6425898671 4286750054
-0.3524021506 -0.0552745610 0.6426371336 4286289503
-0.3519482315 -0.0544902682 0.6418093443 4286026331
-0.3514939249 -0.0537077524 0.6409808993 4285960540
-0.3515187800 -0.0529993251 0.6410261989 4285828954
-0.3515433073 -0.0522907488 0.6410709620 4285894749
-0.3520471454 -0.0516523942 0.6419897676 4286092128
-0.3515914083 -0.0508731566 0.6411586404 4286289254
-0.3516149521 -0.0501641408 0.6412016153 4286749805
-0.3516381681 -0.0494549870 0.6412439346 4287013238
-0.3511813283 -0.0486791916 0.6404108405 4287276410
-0.3507240713 -0.0479051955 0.6395769715 4287670658
-0.3488269746 -0.0469392985 0.6361174583 4287933830
-0.3498083949 -0.0463626049 0.6379072070 4288458641
-0.3498298824 -0.0456566438 0.6379463673 4288721813
-0.3223639429 -0.2306476086 0.5890527964 4286749805
-0.3229145408 -0.2303859591 0.5900589228 4286684265
-0.3235615790 -0.2295337617 0.5912411809 4287210609
-0.3242083788 -0.2286761552 0.5924231410 4288329349
-0.3243042827 -0.2280853838 0.5925983191 4288526728
-0.3248549700 -0.2278131396 0.5936046243 4288329096
-0.3254057169 -0.2275387198 0.5946109891 4288000131
-0.3255012929 -0.2269447148 0.5947856903 4287736450
-0.3260520697 -0.2266667485 0.5957921147 4287407485
-0.3261474073 -0.2260708660 0.5959662795 4287211130
-0.3262425363 -0.2254744470 0.5961401463 4286947958
-0.3263374865 -0.2248775214 0.5963136554 4286750579
-0.3268881440 -0.2245933115 0.5973198414 4286684786
-0.3265267909 -0.2236821055 0.5966595411 4286947705
-0.3270772994 -0.2233951837 0.5976654887 4287210877
-0.3271715939 -0.2227953374 0.5978377461 4287802251
-0.3277221024 -0.2225048691 0.5988437533 4288657560
-0.3282727003 -0.2222121954 0.5998498201 4289840556
-0.3283666372 -0.2216091305 0.6000214815 4291156416
-0.3289172053 -0.2213129103 0.6010274887 4292603098
-0.3290108740 -0.2207079679 0.6011986732 4293392614
-0.3295614123 -0.2204082012 0.6022046804 4293786604
-0.3301120400 -0.2201062292 0.6032108068 4293589225
-0.3306626976 -0.2198020667 0.6042170525 4292471260
-0.3307559490 -0.2191925198 0.6043874025 4291221193
-0.3308489621 -0.2185824662 0.6045573950 4289643947
-0.3309417963 -0.2179719061 0.6047270298 4288788638
-0.3314922750 -0.2176614553 0.6057329178 4287999119
-0.3320427835 -0.2173487991 0.6067388654 4287604361
-0.3321352601 -0.2167350054 0.6069078445 4287276161
-0.3326857388 -0.2164187878 0.6079137325 4287012989
-0.3327778876 -0.2158031166 0.6080821157 4286947705
-0.3333283365 -0.2154833376 0.6090879440 4287079291
-0.3334202170 -0.2148658037 0.6092557907 4287080058
-0.3339706063 -0.2145424485 0.6102615595 4287080058
-0.3345210552 -0.2142168880 0.6112673879 4286948983
-0.3350715041 -0.2138891071 0.6122732162 4286751604
-0.3356220126 -0.2135591209 0.6132791638 4286555249
-0.3357133269 -0.2129356265 0.6134459972 4286489456
-0.3362637758 -0.2126020640 0.6144518256 4286423663
-0.3368142545 -0.2122662961 0.6154577136 4286489456
-0.3373647630 -0.2119282931 0.6164636612 4286489202
-0.3374555409 -0.2113002092 0.6166295409 4286489202
-0.3380059600 -0.2109586298 0.6176353693 4286423409
-0.3380964398 -0.2103286684 0.6178006530 4286357616
-0.3386467993 -0.2099835128 0.6188063025 4286357616
-0.3387369514 -0.2093516886 0.6189710498 4286423409
-0.3392872214 -0.2090029418 0.6199765801 4286423409
-0.3393770456 -0.2083692551 0.6201406717 4286291823
-0.3399272263 -0.2080169171 0.6211460829 4286423663
-0.3404774666 -0.2076623589 0.6221514940 4286423663
-0.3405668437 -0.2070254385 0.6223148108 4286357870
-0.3411169648 -0.2066673040 0.6233200431 4286292077
-0.3407449126 -0.2057500929 0.6226401925 4286292077
-0.3412948251 -0.2053892314 0.6236450076 4286357870
-0.3413833976 -0.2047494501 0.6238068938 4286357870
-0.3414717615 -0.2041091621 0.6239683628 4286357870
-0.3415598869 -0.2034683824 0.6241293550 4286292587
-0.3421094418 -0.2031012028 0.6251336336 4286292587
-0.3421972394 -0.2024585605 0.6252939701 4286292587
-0.3422847688 -0.2018154413 0.6254539490 4286226794
-0.3428341150 -0.2014432997 0.6264578104 4286226796
-0.3429213166 -0.2007983178 0.6266171336 4286226796
-0.3430082798 -0.2001528442 0.6267759800 4286292589
-0.3435573876 -0.1997757554 0.6277794242 4286292589
-0.3431814909 -0.1988604218 0.6270924807 4286292334
-0.3441929817 -0.1987477392 0.6289408207 4286226541
-0.3447419405 -0.1983648241 0.6299439669 4286226541
-0.3452909291 -0.1979796886 0.6309470534 4286226541
-0.3458398879 -0.1975923032 0.6319501996 4286160748
-0.3463888466 -0.1972026825 0.6329532862 4286094955
-0.3464745879 -0.1965480596 0.6331099868 4286160748
-0.3470233977 -0.1961548477 0.6341127753 4286160748
-0.3466453254 -0.1952373683 0.6334219575 4286227053
-0.3467303216 -0.1945813000 0.6335772872 4286161260
-0.3468151093 -0.1939247400 0.6337321997 4286095467
-0.3468996286 -0.1932677031 0.6338866353 4286095467
-0.3469838798 -0.1926101893 0.6340405941 4286029674
-0.3470679224 -0.1919521987 0.6341941357 4286095467
-0.3471516967 -0.1912937313 0.6343472600 4286161261
-0.3472352326 -0.1906347871 0.6344998479 4286161261
-0.3477828205 -0.1902293414 0.6355004907 4286161261
-0.3478659689 -0.1895685643 0.6356524229 4286161261
-0.3484134078 -0.1891595274 0.6366527677 4286227054
-0.3484961689 -0.1884969175 0.6368039846 4286227054
-0.3485786617 -0.1878338456 0.6369547248 4286358127
-0.3491258025 -0.1874198467 0.6379545331 4286423920
-0.3492079079 -0.1867549568 0.6381045580 4286489713
-0.3492897749 -0.1860895753 0.6382541060 4286555506
-0.3493713737 -0.1854237467 0.6384032369 4286752378
-0.3494527042 -0.1847574413 0.6385518909 4286883964
-0.3495337963 -0.1840906739 0.6387000680 4287015558
-0.3496146202 -0.1834234297 0.6388477683 4287410316
-0.3496952057 -0.1827557385 0.6389949918 4288725414
-0.3502412736 -0.1823300421 0.6399928331 4290436032
-0.3503214419 -0.1816605330 0.6401392817 4292341468
-0.3504013717 -0.1809905767 0.6402853131 4293591023
-0.3504810035 -0.1803201586 0.6404308677 4294115313
-0.3505603969 -0.1796492785 0.6405759454 4294311924
-0.3511058092 -0.1792159379 0.6415725946 4294574069
-0.3511847854 -0.1785432547 0.6417168975 4294508276
-0.3517299891 -0.1781063378 0.6427131295 4294638839
-0.3518085480 -0.1774318665 0.6428566575 4294770425
-0.3518868387 -0.1767569333 0.6429997087 4294705150
-0.3519648612 -0.1760815382 0.6431422830 4294573564
-0.3520426154 -0.1754057109 0.6432843804 4294508536
-0.3525871336 -0.1749611795 0.6442793608 4294508536
-0.3526644707 -0.1742835492 0.6444206834 4294377464
-0.3532087505 -0.1738354266 0.6454152465 4294311927
