VERSION 0.7
FIELDS x y z rgba
SIZE 4 4 4 4
TYPE F F F U
COUNT 1 1 1 1
WIDTH 920
HEIGHT 1
VIEWPOINT 0.0 0.0 0.0 1.0 0.0 0.0 0.0
POINTS 920
DATA ascii
-0.3272460997 -0.2117437124 0.6219570637 4293520876
-0.3273348808 -0.2111099213 0.6221258044 4292797155
-0.3278695047 -0.2107623667 0.6231418848 4292139225
-0.3284041584 -0.2104125768 0.6241580248 4291548369
-0.3284924924 -0.2097755075 0.6243259907 4291548369
-0.3290270865 -0.2094220966 0.6253419518 4291614932
-0.3291151226 -0.2087831348 0.6255092621 4291549139
-0.3296495974 -0.2084260881 0.6265251040 4291550161
-0.3301841021 -0.2080667913 0.6275409460 4291550161
-0.3302716911 -0.2074245661 0.6277074814 4291352779
-0.3308061063 -0.2070616484 0.6287231445 4291023814
-0.3308933675 -0.2064175308 0.6288890243 4290300343
-0.3309804201 -0.2057728916 0.6290544271 4289510827
-0.3315146267 -0.2054049671 0.6300697327 4288264091
-0.3311538100 -0.2044821233 0.6293839812 4287606161
-0.3312401772 -0.2038359791 0.6295481324 4287080840
-0.3313263059 -0.2031893134 0.6297118068 4286817668
-0.3318600655 -0.2028158754 0.6307262778 4286489206
-0.3319458365 -0.2021673322 0.6308892965 4286357620
-0.3320313990 -0.2015182972 0.6310518980 4286423662
-0.3321167231 -0.2008687556 0.6312140822 4286357869
-0.3322018087 -0.2002187222 0.6313757896 4286424173
-0.3327351213 -0.1998375058 0.6323893666 4286358380
-0.3328198493 -0.1991855949 0.6325504184 4286227305
-0.3329043686 -0.1985331774 0.6327110529 4286161512
-0.3329886198 -0.1978802681 0.6328712106 4286096485
-0.3335215449 -0.1974926740 0.6338840723 4286096485
-0.3336054683 -0.1968379021 0.6340435743 4286096738
-0.3341382444 -0.1964466721 0.6350561380 4286096738
-0.3346710205 -0.1960531771 0.6360687613 4286096487
-0.3347544670 -0.1953951567 0.6362273097 4286096487
-0.3352870941 -0.1949980408 0.6372396350 4286162280
-0.3353701532 -0.1943381429 0.6373974681 4286162280
-0.3354529738 -0.1936777681 0.6375548840 4286096487
-0.3355355561 -0.1930169016 0.6377118230 4286096487
-0.3360677660 -0.1926133931 0.6387233734 4286096487
-0.3361499906 -0.1919506639 0.6388795972 4286162280
-0.3357818127 -0.1910313815 0.6381798983 4285899108
-0.3358634412 -0.1903685778 0.6383349895 4286030694
-0.3354944587 -0.1894509792 0.6376337409 4286030694
-0.3355754614 -0.1887881011 0.6377876997 4286030694
-0.3356562257 -0.1881247312 0.6379411817 4286228073
-0.3357367516 -0.1874608994 0.6380942464 4286162280
-0.3358170092 -0.1867965758 0.6382467747 4286030694
-0.3363479078 -0.1863816231 0.6392558217 4286096487
-0.3364278078 -0.1857154667 0.6394076347 4286162282
-0.3365074396 -0.1850488335 0.6395589709 4286162282
-0.3365868330 -0.1843817234 0.6397098303 4286228075
-0.3371172547 -0.1839604080 0.6407179832 4286293868
-0.3371962309 -0.1832914650 0.6408681273 4286358891
-0.3377265036 -0.1828665286 0.6418758631 4286227305
-0.3378050923 -0.1821957380 0.6420252323 4286095719
-0.3374316990 -0.1812818199 0.6413156390 4286029926
-0.3375096917 -0.1806109995 0.6414638758 4286161510
-0.3375874162 -0.1799397171 0.6416115761 4286161510
-0.3376649022 -0.1792679727 0.6417588592 4286161510
-0.3377421200 -0.1785957664 0.6419056058 4286227303
-0.3382713199 -0.1781612933 0.6429113746 4286358632
-0.3383481503 -0.1774872690 0.6430574059 4286292839
-0.3379722536 -0.1765763909 0.6423429847 4286292839
-0.3385010064 -0.1761378348 0.6433479190 4286424425
-0.3390296996 -0.1756970137 0.6443527341 4286096487
-0.3391055763 -0.1750202626 0.6444969773 4286096487
-0.3391812146 -0.1743430495 0.6446406841 4286162280
-0.3397095203 -0.1738972515 0.6456447840 4286228073
-0.3397847414 -0.1732182354 0.6457877159 4286293096
-0.3403128088 -0.1727688164 0.6467913985 4286227303
-0.3403876126 -0.1720879972 0.6469335556 4286227303
-0.3404621184 -0.1714067310 0.6470751762 4286161510
-0.3400829434 -0.1704976708 0.6463544965 4286227303
-0.3397032917 -0.1695899963 0.6456329226 4286161510
-0.3402304649 -0.1691347212 0.6466348767 4286227303
-0.3403038383 -0.1684525758 0.6467743516 4286293096
-0.3403769433 -0.1677699983 0.6469132900 4286358632
-0.3404497802 -0.1670869738 0.6470516920 4286292839
-0.3405223489 -0.1664035171 0.6471896172 4286227046
-0.3405946493 -0.1657196283 0.6473270655 4286227046
-0.3406666815 -0.1650352925 0.6474639177 4286161510
-0.3407384455 -0.1643505394 0.6476003528 4286227303
-0.3408099413 -0.1636653394 0.6477362514 4286227303
-0.3408811688 -0.1629797220 0.6478716135 4286161510
-0.3409521282 -0.1622936577 0.6480064988 4286161510
-0.3410228193 -0.1616071761 0.6481408477 4286095717
-0.3410932422 -0.1609202772 0.6482746601 4286029924
-0.3411633968 -0.1602329463 0.6484079957 4286029924
-0.3412332833 -0.1595451832 0.6485407948 4286029924
-0.3413028717 -0.1588570029 0.6486731172 4286095717
-0.3418273926 -0.1583793014 0.6496699452 4286029924
-0.3418965340 -0.1576893628 0.6498013735 4285964131
-0.3424207568 -0.1572080702 0.6507977247 4286095460
-0.3424894512 -0.1565163732 0.6509282589 4286029667
-0.3425578773 -0.1558242738 0.6510583162 4285963874
-0.3421703875 -0.1549254507 0.6503218412 4285963874
-0.3426938653 -0.1544388235 0.6513167620 4285766752
-0.3427614570 -0.1537454724 0.6514452696 4285766752
-0.3423728943 -0.1528481990 0.6507067084 4285766752
-0.3424398303 -0.1521549523 0.6508339643 4285766752
-0.3420504332 -0.1512596309 0.6500938535 4285700959
-0.3421167135 -0.1505665183 0.6502198577 4285503580
-0.3417265117 -0.1496731639 0.6494781971 4285437789
-0.3417921364 -0.1489801556 0.6496030092 4285503582
-0.3418575227 -0.1482867599 0.6497272253 4285700961
-0.3414660990 -0.1473959088 0.6489832997 4285635168
-0.3419874310 -0.1468987614 0.6499741077 4285700448
-0.3420519531 -0.1462041885 0.6500967741 4285634655
-0.3421162069 -0.1455091983 0.6502188444 4285503069
-0.3421801627 -0.1448138356 0.6503404379 4285437276
-0.3422438502 -0.1441180706 0.6504614949 4285568862
-0.3423072398 -0.1434219331 0.6505819559 4285503069
-0.3419132531 -0.1425348371 0.6498331428 4285503580
-0.3424331844 -0.1420284808 0.6508213282 4285306201
-0.3424957395 -0.1413311809 0.6509402394 4285240151
-0.3425579965 -0.1406335086 0.6510585546 4285305944
-0.3421625495 -0.1397486180 0.6503069401 4285305944
-0.3422241509 -0.1390511096 0.6504240036 4285174358
-0.3427430689 -0.1385381967 0.6514102817 4284977236
-0.3428041935 -0.1378390044 0.6515264511 4285043029
-0.3428650200 -0.1371394396 0.6516420245 4285043029
-0.3429255486 -0.1364395022 0.6517571211 4285108822
-0.3425278664 -0.1355579793 0.6510012746 4285108565
-0.3421297669 -0.1346779466 0.6502446532 4285108565
-0.3426473439 -0.1341581345 0.6512283683 4285174358
-0.3427066505 -0.1334576607 0.6513410807 4285240151
-0.3427656591 -0.1327568293 0.6514532566 4285306203
-0.3423660696 -0.1318791062 0.6506937742 4285437789
-0.3419660330 -0.1310028732 0.6499334574 4285766752
-0.3420239985 -0.1303028464 0.6500436664 4285832545
-0.3416231573 -0.1294287294 0.6492817998 4286227046
-0.3416804671 -0.1287289262 0.6493907571 4286029667
-0.3417375088 -0.1280287802 0.6494991183 4286490218
-0.3417942524 -0.1273282766 0.6496069431 4286490218
-0.3413918316 -0.1264574528 0.6488421559 4287016562
-0.3414479196 -0.1257572025 0.6489487290 4286884976
-0.3415036798 -0.1250565946 0.6490547657 4286950769
-0.3415591717 -0.1243556514 0.6491602063 4286884976
-0.3416143954 -0.1236543730 0.6492651105 4286621291
-0.3412100673 -0.1227874905 0.6484966874 4286226533
-0.3417238891 -0.1222507879 0.6494732499 4285963361
-0.3417782187 -0.1215484962 0.6495764852 4285765982
-0.3418322206 -0.1208458617 0.6496791840 4285831775
-0.3418859541 -0.1201428995 0.6497812867 4285897568
-0.3414797783 -0.1192790717 0.6490092874 4285371994
-0.3415328264 -0.1185764000 0.6491101384 4285108822
-0.3411258459 -0.1177147478 0.6483366489 4284977236
-0.3411782384 -0.1170123667 0.6484361887 4285043029
-0.3407704532 -0.1161529124 0.6476611495 4285174358
-0.3408221900 -0.1154508367 0.6477594972 4285174358
-0.3408735991 -0.1147484407 0.6478572488 4285042518
-0.3404646516 -0.1138918251 0.6470799446 4284910932
-0.3405154049 -0.1131897420 0.6471764445 4284647760
-0.3405658603 -0.1124873534 0.6472723484 4284450381
-0.3406160176 -0.1117846444 0.6473676562 4284384331
-0.3406659067 -0.1110816374 0.6474624276 4284384331
-0.3402550220 -0.1102291569 0.6466815472 4284581456
-0.3407647014 -0.1096746847 0.6476502419 4284713042
-0.3403531313 -0.1088235006 0.6468679905 4284976214
-0.3404017091 -0.1081202179 0.6469603777 4285173593
-0.3404499888 -0.1074166298 0.6470521092 4285503073
-0.3404980004 -0.1067127511 0.6471433640 4285634659
-0.3405456841 -0.1060085744 0.6472339630 4285963111
-0.3405930698 -0.1053040996 0.6473240256 4286160490
-0.3406401575 -0.1045993343 0.6474134922 4286292074
-0.3402259052 -0.1037536934 0.6466262341 4286292074
-0.3402723372 -0.1030493006 0.6467144489 4286161001
-0.3403184414 -0.1023446172 0.6468020678 4285963622
-0.3399030566 -0.1015019342 0.6460126042 4286029413
-0.3399484754 -0.1007976383 0.6460989714 4285963620
-0.3399936259 -0.1000930592 0.6461847425 4285897570
-0.3395770788 -0.0992533565 0.6453930736 4285634398
-0.3391600847 -0.0984152779 0.6446005702 4285502810
-0.3392041922 -0.0977117866 0.6446843743 4285371224
-0.3387864232 -0.0968760327 0.6438903809 4285108565
-0.3383682370 -0.0960419253 0.6430955529 4284976979
-0.3379496038 -0.0952094644 0.6422999501 4285040986
-0.3379923105 -0.0945077613 0.6423810720 4284975193
-0.3375729024 -0.0936776474 0.6415839791 4284843609
-0.3376149535 -0.0929763764 0.6416639090 4284843609
-0.3376566768 -0.0922748446 0.6417431831 4284777816
-0.3376981020 -0.0915730596 0.6418219209 4284712023
-0.3377391994 -0.0908710063 0.6419000626 4284580435
-0.3373179436 -0.0900453553 0.6410993934 4284448849
-0.3373583853 -0.0893437639 0.6411762834 4284448849
-0.3369363248 -0.0885204822 0.6403741241 4284383056
-0.3365138769 -0.0876988843 0.6395711899 4284317265
-0.3365532756 -0.0869984627 0.6396461129 4284251472
-0.3361300528 -0.0861792564 0.6388416886 4284317265
-0.3361687958 -0.0854793116 0.6389153600 4284317265
-0.3357447684 -0.0846625119 0.6381095052 4284251470
-0.3357828557 -0.0839630440 0.6381818652 4284317263
-0.3358206451 -0.0832633451 0.6382536292 4284383056
-0.3358581066 -0.0825634152 0.6383248568 4284383056
-0.3358952701 -0.0818632469 0.6383954883 4284383056
-0.3354693949 -0.0810510516 0.6375860572 4284383056
-0.3355058730 -0.0803513825 0.6376554370 4284448851
-0.3350792527 -0.0795416310 0.6368445754 4284383058
-0.3346522152 -0.0787335783 0.6360329390 4284317265
-0.3346876800 -0.0780351683 0.6361003518 4284383058
-0.3342598677 -0.0772295743 0.6352872849 4284448851
-0.3338316679 -0.0764256939 0.6344734430 4284383058
-0.3334030509 -0.0756235272 0.6336588264 4284317265
-0.3325109184 -0.0747190118 0.6319632530 4284317265
-0.3325445950 -0.0740243569 0.6320272684 4284317265
-0.3321147859 -0.0732273608 0.6312103868 4284317265
-0.3316845596 -0.0724320859 0.6303926706 4284317265
-0.3312539160 -0.0716385469 0.6295742393 4284317265
-0.3312862515 -0.0709459633 0.6296356916 4284185679
-0.3308548629 -0.0701549277 0.6288158298 4284317265
-0.3304230869 -0.0693656281 0.6279951930 4284317265
-0.3304544091 -0.0686743855 0.6280546784 4284383058
-0.3304854035 -0.0679829493 0.6281136274 4284448851
-0.3305160999 -0.0672913194 0.6281719208 4284448851
-0.3305464685 -0.0665994957 0.6282296777 4284317265
-0.3301129043 -0.0658150464 0.6274056435 4284251472
-0.3296789527 -0.0650323480 0.6265808940 4284317265
-0.3292445838 -0.0642514080 0.6257553697 4284317265
-0.3288098276 -0.0634722263 0.6249290705 4284514644
-0.3283747137 -0.0626948103 0.6241020560 4284514644
-0.3279391825 -0.0619191565 0.6232743263 4284448851
-0.3275032938 -0.0611452684 0.6224458814 4284383058
-0.3275309205 -0.0604587868 0.6224983931 4284383058
-0.3270942867 -0.0596874692 0.6216685176 4284317265
-0.3266572356 -0.0589179285 0.6208379269 4284317265
-0.3262198567 -0.0581501648 0.6200065613 4284119886
-0.3262461424 -0.0574659221 0.6200565696 4283857486
-0.3258079886 -0.0567007475 0.6192238331 4284186451
-0.3258336484 -0.0560171530 0.6192725897 4284252244
-0.3253947794 -0.0552545749 0.6184384823 4284054865
-0.3249555528 -0.0544937886 0.6176037192 4284317265
-0.3245159388 -0.0537347905 0.6167681813 4284251472
-0.3245402277 -0.0530534908 0.6168143749 4284250959
-0.3240998983 -0.0522971153 0.6159774661 4284448338
-0.3236592114 -0.0515425391 0.6151399016 4284448851
-0.3236825168 -0.0508627370 0.6151841879 4284185679
-0.3232411146 -0.0501107909 0.6143452525 4284251472
-0.3227993250 -0.0493606552 0.6135056019 4284448851
-0.3228216469 -0.0486823730 0.6135480404 4285172315
-0.3223791420 -0.0479348823 0.6127070785 4286356589
-0.3219362795 -0.0471892059 0.6118653417 4287014770
-0.3214930594 -0.0464453474 0.6110229492 4287606907
-0.3215140700 -0.0457694493 0.6110628843 4287541114
-0.3206054866 -0.0449630916 0.6093360782 4287080563
-0.3201611638 -0.0442246981 0.6084915996 4286882414
-0.3197164536 -0.0434881337 0.6076464057 4286158691
-0.3192714155 -0.0427533984 0.6068005562 4285698140
-0.3183612525 -0.0419592410 0.6050707102 4286027105
-0.3179154396 -0.0412291512 0.6042234302 4286092898
-0.3183989227 -0.0406194925 0.6051422954 4286948207
-0.3179524541 -0.0398911238 0.6042937636 4287803518
-0.3175056279 -0.0391645953 0.6034445167 4287935104
-0.3170584440 -0.0384399071 0.6025946736 4287671932
-0.3166109324 -0.0377170704 0.6017440557 4287145588
-0.3156980872 -0.0369416736 0.6000092030 4286553449
-0.3161797822 -0.0363303684 0.6009246707 4286421863
-0.3157312274 -0.0356121026 0.6000721455 4285567330
-0.3157473207 -0.0349471644 0.6001027822 4285567330
-0.3143680096 -0.0341306552 0.5974812508 4285304665
-0.3148485124 -0.0335179642 0.5983945131 4285436251
-0.3139334917 -0.0327576250 0.5966554284 4286290275
-0.3134832084 -0.0320486650 0.5957996249 4286750826
-0.3121023178 -0.0312484298 0.5931751132 4287078772
-0.3121164441 -0.0305907540 0.5932019353 4287276151
-0.3125954270 -0.0299775992 0.5941123366 4288195216
-0.3112134039 -0.0291878805 0.5914856791 4289116318
-0.4304687083 -0.3775037825 0.8198704720 4286882163
-0.4306166470 -0.3767222762 0.8201522231 4286882416
-0.2877506018 -0.2511278689 0.5480496287 4286553451
-0.2874182165 -0.2502295971 0.5474165678 4286291045
-0.2879475355 -0.2500810623 0.5484247208 4286554217
-0.2871833742 -0.2488096952 0.5469692945 4287212145
-0.2877125740 -0.2486593276 0.5479772091 4287935868
-0.2878104150 -0.2481348366 0.5481635332 4288066940
-0.2883397639 -0.2479810417 0.5491717458 4287803768
-0.2884374559 -0.2474546880 0.5493578315 4287146865
-0.2885350287 -0.2469278127 0.5495436192 4286620521
-0.2890645266 -0.2467692494 0.5505521297 4286291556
-0.2895941734 -0.2466085851 0.5515608788 4286225763
-0.2892592251 -0.2457112372 0.5509229302 4286488937
-0.2897888720 -0.2455479056 0.5519317389 4287344246
-0.2903186679 -0.2453824729 0.5529407859 4288199553
-0.2908486128 -0.2452149093 0.5539501309 4288462725
-0.2913787067 -0.2450452298 0.5549597144 4288002174
-0.2927751243 -0.2456000447 0.5576193333 4287278451
-0.2924393117 -0.2446994931 0.5569797158 4286883695
-0.2938365936 -0.2452468723 0.5596410036 4286883695
-0.2935004532 -0.2443452328 0.5590007901 4286686316
-0.2944649160 -0.2445250303 0.5608376861 4286488937
-0.2941283286 -0.2436231226 0.5601966381 4286620523
-0.2959611118 -0.2445148975 0.5636873841 4286817902
-0.2951902747 -0.2432533801 0.5622192621 4286884465
-0.2961556911 -0.2434222400 0.5640580058 4287081844
-0.2966871560 -0.2432312220 0.5650701523 4287279223
-0.2972187102 -0.2430380583 0.5660825968 4287213430
-0.2981851101 -0.2431972772 0.5679231882 4287081844
-0.2987170815 -0.2429990172 0.5689363480 4287081844
-0.2988142073 -0.2424457073 0.5691213608 4287081844
-0.2993462980 -0.2422439456 0.5701347589 4287016051
-0.2998784781 -0.2420400381 0.5711483955 4286884722
-0.3008461893 -0.2421844602 0.5729914904 4286884722
-0.3009432554 -0.2416257560 0.5731763840 4286818929
-0.3014758229 -0.2414153814 0.5741906762 4286753136
-0.3020085096 -0.2412028462 0.5752052069 4286753136
-0.3025412858 -0.2409881502 0.5762199759 4286818929
-0.3022020459 -0.2400784194 0.5755738616 4286884722
-0.3027347922 -0.2398610264 0.5765885115 4286884722
-0.3032676578 -0.2396414578 0.5776033998 4286753649
-0.3038006127 -0.2394197285 0.5786185265 4286687856
-0.3047703505 -0.2395389974 0.5804654360 4286687856
-0.3053036630 -0.2393121123 0.5814812183 4286753649
-0.3058370948 -0.2390830517 0.5824971795 4286687856
-0.3063706458 -0.2388518006 0.5835133791 4286622063
-0.3069042861 -0.2386183888 0.5845297575 4286687856
-0.3074380457 -0.2383828014 0.5855463147 4286687856
-0.3079718947 -0.2381450236 0.5865631104 4286687856
-0.3076306581 -0.2372301668 0.5859131813 4286556270
-0.3072889447 -0.2363163978 0.5852623582 4286687343
-0.3086982965 -0.2367469817 0.5879465938 4286687343
-0.3087942600 -0.2361671329 0.5881294012 4286621550
-0.3093281984 -0.2359209061 0.5891463161 4286687343
-0.3094239533 -0.2353391349 0.5893287063 4286753649
-0.3103963435 -0.2354218811 0.5911807418 4286753649
-0.3109305501 -0.2351690829 0.5921981931 4286426479
-0.3110261858 -0.2345832288 0.5923802853 4286294893
-0.3115604520 -0.2343268692 0.5933978558 4286294895
-0.3116558492 -0.2337391078 0.5935795307 4286360688
-0.3121901453 -0.2334791869 0.5945971608 4286556786
-0.3127245307 -0.2332170606 0.5956149697 4286622579
-0.3132589757 -0.2329527438 0.5966328979 4286950515
-0.3133540452 -0.2323603332 0.5968139768 4286884722
-0.3138885498 -0.2320924550 0.5978319645 4287146615
-0.3144231439 -0.2318223566 0.5988501310 4288001924
-0.3149577975 -0.2315500677 0.5998684764 4289382816
-0.3154925406 -0.2312755585 0.6008868814 4290567090
-0.3155871928 -0.2306771278 0.6010671854 4291355586
-0.3152413964 -0.2297572643 0.6004085541 4291684551
-0.3153355420 -0.2291585952 0.6005879045 4291749574
-0.3154295087 -0.2285593897 0.6007668972 4291420609
-0.3159639537 -0.2282780111 0.6017847657 4291483847
-0.3164984882 -0.2279944420 0.6028028131 4290628538
-0.3170330524 -0.2277086526 0.6038209796 4290167478
-0.3175677061 -0.2274206430 0.6048393250 4289641134
-0.3176612556 -0.2268154025 0.6050174236 4289114280
-0.3181959093 -0.2265238166 0.6060357690 4288982694
-0.3182891607 -0.2259166688 0.6062133908 4289573807
-0.3188238144 -0.2256214768 0.6072316766 4290429116
-0.3189168274 -0.2250124067 0.6074088216 4291415500
-0.3194514811 -0.2247136235 0.6084271073 4292402395
-0.3195441961 -0.2241026610 0.6086037159 4293849073
-0.3200788498 -0.2238002717 0.6096220016 4294572796
-0.3201712966 -0.2231874019 0.6097980738 4294376698
-0.3207059205 -0.2228814065 0.6108162999 4293916147
-0.3212406039 -0.2225732058 0.6118346453 4292930533
-0.3217753172 -0.2222627550 0.6128531098 4292206810
-0.3218673468 -0.2216452211 0.6130284071 4292204248
-0.3219591975 -0.2210271358 0.6132032871 4292072662
-0.3220508099 -0.2204085439 0.6133778095 4292139223
-0.3225853443 -0.2200917304 0.6143959165 4292599774
-0.3226766884 -0.2194712311 0.6145698428 4293060836
-0.3227678537 -0.2188501954 0.6147434711 4293652973
-0.3233022690 -0.2185283899 0.6157612801 4294048503
-0.3233931065 -0.2179054618 0.6159343123 4294245882
-0.3239274919 -0.2175800502 0.6169521213 4294508540
-0.3240180314 -0.2169551998 0.6171245575 4294574077
-0.3245523572 -0.2166261822 0.6181422472 4294705147
-0.3250867426 -0.2162949145 0.6191599965 4294574073
-0.3251768947 -0.2156667858 0.6193317771 4294639609
-0.3252668679 -0.2150381356 0.6195030808 4294442230
-0.3253566027 -0.2144089639 0.6196740270 4293981679
-0.3254461288 -0.2137792706 0.6198445559 4293652714
-0.3264248967 -0.2137314379 0.6217086911 4293454569
-0.3260693848 -0.2128086537 0.6210315824 4293125604
-0.3261584044 -0.2121765465 0.6212010980 4292928223
-0.3262471855 -0.2115439177 0.6213701963 4292796637
-0.3267809749 -0.2111985087 0.6223868728 4292796637
-0.3273147643 -0.2108508646 0.6234035492 4293125602
-0.3274031281 -0.2102149576 0.6235718727 4293060838
-0.3288280070 -0.2104339749 0.6262856126 4292731873
-0.3280249238 -0.2092258930 0.6247560978 4292206812
-0.3281127512 -0.2085875869 0.6249234080 4291417296
-0.3286463022 -0.2082313001 0.6259395480 4290497473
-0.3291798532 -0.2078727633 0.6269557476 4289510578
-0.3292672634 -0.2072311789 0.6271222234 4288393377
-0.3293544352 -0.2065890878 0.6272882819 4287669654
-0.3294413984 -0.2059464902 0.6274539232 4287473045
-0.3299746513 -0.2055815756 0.6284695268 4287275666
-0.3300612569 -0.2049370855 0.6286345124 4287014278
-0.3305944204 -0.2045685202 0.6296499372 4286751106
-0.3302338421 -0.2036465853 0.6289631724 4286554492
-0.3303197622 -0.2030005753 0.6291268468 4286488699
-0.3308525980 -0.2026278824 0.6301416755 4286357618
-0.3309381902 -0.2019799948 0.6303046942 4286226032
-0.3314708769 -0.2016036659 0.6313192844 4286357867
-0.3315561414 -0.2009539008 0.6314816475 4286489453
-0.3316411674 -0.2003036290 0.6316435933 4286292585
-0.3317259550 -0.1996528655 0.6318050623 4286424171
-0.3318105042 -0.1990015954 0.6319661140 4286293100
-0.3323427141 -0.1986175030 0.6329797506 4286227307
-0.3324269354 -0.1979643703 0.6331401467 4286162031
-0.3325108886 -0.1973107308 0.6333000660 4286162031
-0.3325946331 -0.1966565996 0.6334595680 4286227056
-0.3331264853 -0.1962661147 0.6344724894 4286227056
-0.3332098424 -0.1956101209 0.6346312761 4286293100
-0.3337415457 -0.1952160150 0.6356440187 4286161514
-0.3338245749 -0.1945581436 0.6358020902 4286161514
-0.3339073360 -0.1938997805 0.6359597445 4286227307
-0.3344387710 -0.1935006678 0.6369718909 4286161512
-0.3345211744 -0.1928404421 0.6371288300 4286161512
-0.3350524604 -0.1924376935 0.6381407380 4286227305
-0.3351344764 -0.1917756200 0.6382969618 4286293098
-0.3352162540 -0.1911130399 0.6384527087 4286293098
-0.3348483443 -0.1901946962 0.6377519369 4286293098
-0.3349295259 -0.1895320565 0.6379066110 4286358891
-0.3345607817 -0.1886154115 0.6372042894 4286424684
-0.3350911736 -0.1882053167 0.6382144690 4286359659
-0.3351716101 -0.1875412315 0.6383676529 4286359659
-0.3352518082 -0.1868766695 0.6385204196 4286293866
-0.3353317678 -0.1862116307 0.6386727095 4286228073
-0.3358617127 -0.1857951581 0.6396819949 4286424682
-0.3359412551 -0.1851282865 0.6398335695 4286490475
-0.3360205889 -0.1844609231 0.6399846077 4286424682
-0.3360996544 -0.1837930977 0.6401352286 4286490475
-0.3366291225 -0.1833702624 0.6411436200 4286622061
-0.3367078006 -0.1827006042 0.6412934661 4286622061
-0.3367862105 -0.1820304692 0.6414428353 4286622061
-0.3368644118 -0.1813598722 0.6415917277 4286622061
-0.3369423151 -0.1806887984 0.6417401433 4286687854
-0.3370199800 -0.1800172627 0.6418880820 4286622061
-0.3366461396 -0.1791051775 0.6411760449 4286556522
-0.3367231786 -0.1784336120 0.6413227916 4286556522
-0.3372514546 -0.1779998839 0.6423289776 4286556522
-0.3373281062 -0.1773265004 0.6424749494 4286556522
-0.3374045193 -0.1766526699 0.6426204443 4286556522
-0.3374806345 -0.1759783775 0.6427654624 4286556522
-0.3380084038 -0.1755383015 0.6437706351 4286490729
-0.3380841315 -0.1748621911 0.6439148784 4286556522
-0.3381595910 -0.1741856188 0.6440585852 4286556522
-0.3386869729 -0.1737405658 0.6450630426 4286622315
-0.3392143250 -0.1732932478 0.6460673809 4286688108
-0.3392891884 -0.1726135314 0.6462100148 4286622315
-0.3398163021 -0.1721625924 0.6472139359 4286490729
-0.3398907781 -0.1714810580 0.6473557949 4286556522
-0.3395122886 -0.1705716401 0.6466349363 4286556268
-0.3391333520 -0.1696636081 0.6459131837 4286556268
-0.3392068148 -0.1689825505 0.6460531354 4286556268
-0.3397330046 -0.1685257554 0.6470552683 4286556268
-0.3398060501 -0.1678429097 0.6471943855 4286556268
-0.3398788273 -0.1671596318 0.6473330259 4286424682
-0.3399513364 -0.1664759070 0.6474711299 4286358889
-0.3400235772 -0.1657917500 0.6476086974 4286424682
-0.3400955498 -0.1651071459 0.6477457881 4286490475
-0.3401672542 -0.1644221097 0.6478824019 4286424682
-0.3402387202 -0.1637366563 0.6480184793 4286490475
-0.3403098881 -0.1630507559 0.6481540203 4286556268
-0.3403807878 -0.1623644382 0.6482890844 4286556268
-0.3404514194 -0.1616776884 0.6484236121 4286556268
-0.3405217826 -0.1609905064 0.6485576034 4286490475
-0.3405918777 -0.1603029072 0.6486911178 4286424682
-0.3406617045 -0.1596148759 0.6488240957 4286490218
-0.3407312632 -0.1589264274 0.6489565372 4286424425
-0.3408005238 -0.1582375467 0.6490885019 4286424425
-0.3413240314 -0.1577583253 0.6500855684 4286358632
-0.3413928449 -0.1570677012 0.6502166390 4286292837
-0.3419160545 -0.1565848738 0.6512131691 4286358630
-0.3415296674 -0.1556851864 0.6504772305 4286358630
-0.3415976763 -0.1549933106 0.6506067514 4286227044
-0.3416653872 -0.1543010324 0.6507356763 4286161510
-0.3417328298 -0.1536083370 0.6508641839 4286227303
-0.3418000042 -0.1529152244 0.6509920955 4286095717
-0.3414116800 -0.1520190239 0.6502524614 4286029924
-0.3414781988 -0.1513260156 0.6503791809 4285964131
-0.3410890400 -0.1504317820 0.6496379972 4285766752
-0.3411549330 -0.1497388929 0.6497634649 4285569373
-0.3412205279 -0.1490456164 0.6498883963 4285700959
-0.3408301771 -0.1481538713 0.6491450071 4285700959
-0.3408951461 -0.1474607289 0.6492686868 4285635166
-0.3409598172 -0.1467671692 0.6493918896 4285766495
-0.3414801061 -0.1462685168 0.6503828764 4285700702
-0.3410883248 -0.1453789026 0.6496366262 4285634909
-0.3411521316 -0.1446841806 0.6497581601 4285569116
-0.3416718543 -0.1441815645 0.6507480145 4285634909
-0.3412789404 -0.1432935745 0.6499997377 4285569116
-0.3413419425 -0.1425976902 0.6501196623 4285437789
-0.3414046466 -0.1419014186 0.6502391100 4285503582
-0.3414670527 -0.1412047595 0.6503579617 4285503582
-0.3415291905 -0.1405077279 0.6504762769 4285371996
-0.3415910304 -0.1398103237 0.6505940557 4285240410
-0.3421093225 -0.1392984986 0.6515812278 4285174617
-0.3421706855 -0.1385994107 0.6516981125 4285108824
-0.3422317505 -0.1378999203 0.6518144011 4284977238
-0.3422925472 -0.1372000724 0.6519301534 4285108824
-0.3423530161 -0.1364998519 0.6520453691 4284977238
-0.3419560790 -0.1356179565 0.6512893438 4285108822
-0.3415586650 -0.1347375512 0.6505324244 4285108822
-0.3416181207 -0.1340381056 0.6506457329 4284845650
-0.3416773081 -0.1333382875 0.6507584453 4284779857
-0.3417361975 -0.1326380968 0.6508705616 4284976979
-0.3413372338 -0.1317609251 0.6501107216 4285042772
-0.3413954675 -0.1310609579 0.6502216458 4284911186
-0.3409956992 -0.1301859021 0.6494601965 4284845393
-0.3410532773 -0.1294861585 0.6495698690 4284911186
-0.3411105573 -0.1287860572 0.6496789455 4285108565
-0.3407095969 -0.1279136986 0.6489152908 4285174358
-0.3407662213 -0.1272138357 0.6490231156 4285371737
-0.3408225477 -0.1265136302 0.6491304040 4285700702
-0.3408785760 -0.1258130819 0.6492371559 4285963874
-0.3404760659 -0.1249440312 0.6484705210 4286029413
-0.3405314386 -0.1242437363 0.6485760212 4286292585
-0.3405865133 -0.1235431060 0.6486809254 4286490218
-0.3406413198 -0.1228421330 0.6487852335 4286687597
-0.3406957984 -0.1221408173 0.6488890648 4286884463
-0.3407500088 -0.1214391738 0.6489922404 4286818670
-0.3408038914 -0.1207371950 0.6490949392 4286752879
-0.3408575058 -0.1200348809 0.6491970420 4286687086
-0.3409108222 -0.1193322390 0.6492985487 4286358889
-0.3405049443 -0.1184696034 0.6485255361 4286095717
-0.3400986195 -0.1176085323 0.6477516294 4285766495
-0.3401508927 -0.1169067994 0.6478511691 4285634909
-0.3402028680 -0.1162047461 0.6479501724 4285634909
-0.3397953808 -0.1153464988 0.6471740603 4285634909
-0.3398467004 -0.1146447584 0.6472718120 4285437276
-0.3398977220 -0.1139426902 0.6473689675 4285305690
-0.3394890428 -0.1130872890 0.6465906501 4285305690
-0.3395393789 -0.1123855487 0.6466865540 4285174104
-0.3395894468 -0.1116834953 0.6467818618 4285042007
-0.3400987983 -0.1111313105 0.6477519870 4284910421
-0.3401483297 -0.1104276851 0.6478463411 4284844628
-0.3397378325 -0.1095754877 0.6470644474 4284713042
-0.3397866786 -0.1088722050 0.6471575499 4284647249
-0.3393753767 -0.1080222502 0.6463741660 4284647249
-0.3394235671 -0.1073193178 0.6464659572 4284779348
-0.3394714594 -0.1066160873 0.6465571523 4284581969
-0.3395190537 -0.1059125587 0.6466477513 4284581969
-0.3395663202 -0.1052087396 0.6467378139 4284910934
-0.3396133184 -0.1045046225 0.6468273401 4285305692
-0.3391997516 -0.1036595702 0.6460396647 4285503071
-0.3392460644 -0.1029558256 0.6461278796 4285634655
-0.3392920792 -0.1022517979 0.6462154984 4285832034
-0.3388773501 -0.1014097035 0.6454256177 4285832034
-0.3393831849 -0.1008428931 0.6463890076 4286160999
-0.3389677405 -0.1000021398 0.6455977559 4286095206
-0.3385518491 -0.0991630182 0.6448056698 4286029413
-0.3385962248 -0.0984594971 0.6448901892 4285897827
-0.3381795585 -0.0976227000 0.6440965533 4285634655
-0.3377624452 -0.0967875421 0.6433022022 4285503323
-0.3373449445 -0.0959540233 0.6425069571 4285240151
-0.3369269967 -0.0951221585 0.6417109966 4285436249
-0.3369696140 -0.0944211185 0.6417921185 4285370456
-0.3365508914 -0.0935915932 0.6409946084 4285173079
-0.3365928233 -0.0928909779 0.6410745382 4285107286
-0.3366344571 -0.0921901017 0.6411538124 4284976216
-0.3371369839 -0.0916142911 0.6421109438 4284778837
-0.3367168307 -0.0907875746 0.6413106918 4284647252
-0.3367575407 -0.0900859237 0.6413882375 4284647252
-0.3363365829 -0.0892615765 0.6405864954 4284449619
-0.3359152377 -0.0884389058 0.6397839785 4284383826
-0.3359549344 -0.0877384245 0.6398595572 4284252244
-0.3355327845 -0.0869181380 0.6390555501 4284318037
-0.3355717957 -0.0862181336 0.6391298771 4284449368
-0.3351488709 -0.0854002461 0.6383243799 4284383575
-0.3351872563 -0.0847007185 0.6383974552 4284317782
-0.3347635567 -0.0838852450 0.6375904679 4284317782
-0.3343394399 -0.0830714628 0.6367827654 4284448849
-0.3348386288 -0.0824869201 0.6377334595 4284317263
-0.3344138265 -0.0816745982 0.6369243860 4284383056
-0.3344505429 -0.0809758231 0.6369943023 4284514642
-0.3340249658 -0.0801659375 0.6361837387 4284383056
-0.3340609968 -0.0794676691 0.6362524033 4284317263
-0.3336346447 -0.0786602274 0.6354404092 4284317265
-0.3336700499 -0.0779624730 0.6355077624 4284251472
-0.3332429230 -0.0771574900 0.6346943378 4284186449
-0.3328154087 -0.0763542205 0.6338800788 4284252242
-0.3328497708 -0.0756577402 0.6339455247 4284252242
-0.3319591582 -0.0747528300 0.6322492361 4284186449
-0.3315304518 -0.0739547163 0.6314327121 4284120656
-0.3311013281 -0.0731583387 0.6306154132 4284054863
-0.3306717873 -0.0723636821 0.6297973394 4284054865
-0.3307043910 -0.0716709942 0.6298593879 4284186451
-0.3302741051 -0.0708788335 0.6290398836 4284251472
-0.3298434317 -0.0700884163 0.6282196641 4284317265
-0.3294123709 -0.0692997277 0.6273986101 4284317265
-0.3294436038 -0.0686091483 0.6274580956 4284317265
-0.3294745386 -0.0679183751 0.6275170445 4284317265
-0.3295051754 -0.0672274083 0.6275753379 4284317265
-0.3295354843 -0.0665362477 0.6276330948 4284317265
-0.3291026056 -0.0657524168 0.6268086433 4284317265
-0.3286693394 -0.0649703443 0.6259834766 4284382545
-0.3282357156 -0.0641900301 0.6251575351 4284448338
-0.3278016746 -0.0634114742 0.6243308783 4284448338
-0.3273672462 -0.0626346767 0.6235035062 4284382545
-0.3269324303 -0.0618596487 0.6226753592 4284448340
-0.3269603550 -0.0611730330 0.6227285266 4284448340
-0.3265247941 -0.0604005717 0.6218989491 4284448340
-0.3265520632 -0.0597145818 0.6219508648 4284514133
-0.3261157870 -0.0589446947 0.6211199760 4284448340
-0.3256791234 -0.0581765845 0.6202883124 4284448340
-0.3252421021 -0.0574102551 0.6194559336 4284514133
-0.3248046637 -0.0566457100 0.6186228395 4284514133
-0.3248302639 -0.0559627824 0.6186715364 4284448340
-0.3243921101 -0.0552008376 0.6178370714 4284448340
-0.3239535987 -0.0544406846 0.6170018315 4284448340
-0.3235146999 -0.0536823235 0.6161659360 4284316754
-0.3235389590 -0.0530016907 0.6162121296 4284316754
-0.3230993450 -0.0522459485 0.6153748035 4284316754
-0.3226593435 -0.0514920056 0.6145368218 4284382547
-0.3226826191 -0.0508128777 0.6145811677 4284316754
-0.3222419322 -0.0500615686 0.6137418151 4284185168
-0.3222645521 -0.0493831225 0.6137848496 4284185168
-0.3218231499 -0.0486344583 0.6129441857 4284514133
-0.3213813603 -0.0478876084 0.6121027470 4284908891
-0.3209392130 -0.0471425727 0.6112606525 4285763931
-0.3204967082 -0.0463993549 0.6104178429 4286685033
-0.3205176890 -0.0457241274 0.6104577780 4287935100
-0.3200744689 -0.0449835770 0.6096136570 4288198272
-0.3191669881 -0.0441806316 0.6078853011 4287540344
-0.3187230229 -0.0434447117 0.6070396900 4286750828
-0.3182787001 -0.0427106246 0.6061934233 4286421350
-0.3173700273 -0.0419170819 0.6044627428 4286487143
-0.3173889518 -0.0412479453 0.6044988632 4286223971
-0.3169435561 -0.0405193605 0.6036505103 4286026592
-0.3164978027 -0.0397926159 0.6028015614 4286816362
-0.3160516918 -0.0390677154 0.6019518375 4287540085
-0.3156052232 -0.0383446589 0.6011015177 4288460933
-0.3151583970 -0.0376234539 0.6002504826 4287868796
-0.3147112131 -0.0369040929 0.5993987918 4287210868
-0.3147279024 -0.0362400375 0.5994305611 4286618731
-0.3147442639 -0.0355758816 0.5994617343 4286159461
-0.3147603273 -0.0349116176 0.5994923711 4286027875
-0.3138475716 -0.0341462307 0.5977538824 4285567071
-0.3133986890 -0.0334341973 0.5968989730 4285303899
-0.3129494786 -0.0327240266 0.5960434079 4285764452
-0.3120355904 -0.0319681503 0.5943028331 4286159210
-0.3115856647 -0.0312626958 0.5934458971 4286225003
-0.3106710017 -0.0305134989 0.5917038321 4286685554
-0.3106848001 -0.0298573971 0.5917300582 4287276412
-0.3102338612 -0.0291575603 0.5908712149 4287868549
-0.3069959283 -0.0282035936 0.5847042799 4289378722
-0.2848104835 -0.2509008050 0.5435998440 4286882933
-0.4284372330 -0.3765187263 0.8177311420 4286619761
-0.4285845757 -0.3757393658 0.8180123568 4286488172
-0.2863945067 -0.2504742444 0.5466231108 4286488172
-0.2860624790 -0.2495772243 0.5459894538 4286488424
-0.2861603498 -0.2490557730 0.5461762547 4286883182
-0.2862581015 -0.2485337853 0.5463627577 4287672696
-0.2863556743 -0.2480112612 0.5465490222 4288067454
-0.2864531279 -0.2474882007 0.5467350483 4287672698
-0.2865504324 -0.2469646037 0.5469207764 4287080561
-0.2870786786 -0.2468110621 0.5479289293 4286883434
-0.2871758342 -0.2462856174 0.5481144190 4286225504
-0.2872728705 -0.2457596362 0.5482996106 4286028384
-0.2878012657 -0.2456013411 0.5493081212 4286554728
-0.2878981531 -0.2450735122 0.5494930744 4287410037
-0.2879949212 -0.2445451319 0.5496777296 4288133760
-0.2889553607 -0.2447479218 0.5515108705 4288265346
-0.2894841731 -0.2445819378 0.5525202155 4287936381
-0.2900131345 -0.2444138527 0.5535297990 4287278453
-0.2905422449 -0.2442436218 0.5545396805 4286817902
-0.2910715044 -0.2440712750 0.5555498004 4286620523
-0.2916008830 -0.2438967973 0.5565602183 4286752109
-0.2921304107 -0.2437202036 0.5575708747 4286620525
-0.2922271490 -0.2431811988 0.5577555299 4286488939
-0.2931898534 -0.2433605939 0.5595930219 4286488937
-0.2937197983 -0.2431775928 0.5606044531 4286620523
-0.2942498624 -0.2429924458 0.5616161227 4286753136
-0.2952135503 -0.2431622297 0.5634554625 4286950515
-0.2966113091 -0.2436845303 0.5661233068 4287147894
-0.2962746322 -0.2427796274 0.5654807091 4287147894
-0.2981071174 -0.2436490804 0.5689782500 4287147894
-0.2977702618 -0.2427423000 0.5683353543 4287147894
-0.2987355888 -0.2428957224 0.5701777935 4287082101
-0.2983982861 -0.2419886738 0.5695340037 4287082101
-0.2980605066 -0.2410826832 0.5688893199 4286950515
-0.2994608581 -0.2415802777 0.5715620518 4286950515
-0.2999923229 -0.2413728535 0.5725764036 4286884722
-0.3005239069 -0.2411632687 0.5735910535 4286818929
-0.3006205559 -0.2406033128 0.5737755299 4286753136
-0.3011522293 -0.2403902262 0.5747902989 4286818929
-0.3016840219 -0.2401749641 0.5758053064 4286884722
-0.3017804623 -0.2396117747 0.5759893656 4286818929
-0.3018767536 -0.2390480489 0.5761731267 4286819442
-0.3024086058 -0.2388279140 0.5771882534 4286687856
-0.3029405773 -0.2386056036 0.5782035589 4286753649
-0.3034726381 -0.2383811325 0.5792191029 4286753649
-0.3044410050 -0.2384961694 0.5810673237 4286753136
-0.3049734235 -0.2382665426 0.5820835829 4286753136
-0.3055059612 -0.2380347252 0.5830999613 4286687856
-0.3056020141 -0.2374615073 0.5832833052 4286687856
-0.3061346412 -0.2372261584 0.5842998624 4286622063
-0.3071042001 -0.2373262197 0.5861504078 4286556270
-0.3076371253 -0.2370856851 0.5871675611 4286687345
-0.3081701696 -0.2368429601 0.5881849527 4286753138
-0.3082660437 -0.2362629324 0.5883679986 4286687345
-0.3087991476 -0.2360166609 0.5893854499 4286753138
-0.3093323410 -0.2357681990 0.5904031396 4286753651
-0.3103033006 -0.2358502001 0.5922563076 4286753651
-0.3108367920 -0.2355965376 0.5932745934 4286623090
-0.3104945421 -0.2346786708 0.5926213264 4286491504
-0.3110279739 -0.2344222665 0.5936394334 4286425711
-0.3106850684 -0.2335049808 0.5929849744 4286425711
-0.3116567433 -0.2335743606 0.5948395729 4286557040
-0.3117518127 -0.2329845130 0.5950210094 4286688626
-0.3122853041 -0.2327209711 0.5960392952 4286950515
-0.3128188848 -0.2324552387 0.5970577002 4286950515
-0.3129136860 -0.2318620980 0.5972386599 4287278201
-0.3134472966 -0.2315927893 0.5982571244 4287343994
-0.3139809966 -0.2313212752 0.5992757082 4287540609
-0.3145147562 -0.2310475558 0.6002945304 4287540609
-0.3146091998 -0.2304497659 0.6004747748 4287868809
-0.3147034645 -0.2298514396 0.6006546617 4288131981
-0.3143578768 -0.2289323956 0.5999950767 4288263056
-0.3148914278 -0.2286531776 0.6010134220 4288065677
-0.3149851263 -0.2280532420 0.6011922359 4287866002
-0.3155186772 -0.2277704477 0.6022105813 4287866002
-0.3160522878 -0.2274854332 0.6032291055 4287996309
-0.3165859878 -0.2271981984 0.6042476892 4288259481
-0.3166792989 -0.2265936136 0.6044257879 4289508268
-0.3167724311 -0.2259884775 0.6046035290 4290758335
-0.3177467585 -0.2260097563 0.6064631939 4292139734
-0.3178397417 -0.2254018784 0.6066406369 4293455594
-0.3183735013 -0.2251052409 0.6076593995 4294310392
-0.3184662163 -0.2244954556 0.6078363657 4294705150
-0.3189999461 -0.2241952270 0.6088551283 4294901759
-0.3190924227 -0.2235835195 0.6090315580 4294901759
-0.3196261227 -0.2232796848 0.6100502610 4294113526
-0.3197183311 -0.2226660699 0.6102262139 4293652975
-0.3202520311 -0.2223586440 0.6112448573 4293653743
-0.3207857907 -0.2220489681 0.6122636199 4293982708
-0.3208776116 -0.2214320749 0.6124388576 4294310394
-0.3209692538 -0.2208146453 0.6126137972 4294441980
-0.3210606873 -0.2201966941 0.6127882600 4294705150
-0.3215942383 -0.2198806554 0.6138066649 4294705150
-0.3216854036 -0.2192607969 0.6139806509 4294770429
-0.3217763305 -0.2186404169 0.6141541600 4294770429
-0.3218670487 -0.2180195004 0.6143273711 4294573564
-0.3224004209 -0.2176970989 0.6153453588 4294376185
-0.3229338527 -0.2173724473 0.6163634658 4293915634
-0.3230242133 -0.2167482525 0.6165359616 4293520876
-0.3244440258 -0.2170129269 0.6192458868 4292928993
-0.3240909874 -0.2160895020 0.6185720563 4292468442
-0.3241809607 -0.2154620290 0.6187437177 4292139477
-0.3242706954 -0.2148340195 0.6189150810 4292139477
-0.3243602514 -0.2142055035 0.6190859675 4292402906
-0.3244495690 -0.2135764509 0.6192564368 4292929250
-0.3249826729 -0.2132381946 0.6202739477 4293520878
-0.3250716925 -0.2126072496 0.6204438210 4293389292
-0.3256047070 -0.2122653723 0.6214611530 4293389290
-0.3252490759 -0.2113438100 0.6207824349 4292994532
-0.3257819116 -0.2109991759 0.6217994094 4292008150
-0.3258701861 -0.2103652954 0.6219679117 4291087048
-0.3268476427 -0.2103031576 0.6238334775 4290167229
-0.3278253376 -0.2102370411 0.6256995797 4289509299
-0.3270235658 -0.2090293765 0.6241692901 4288786085
-0.3275562823 -0.2086752355 0.6251860261 4288128155
-0.3276438117 -0.2080361992 0.6253530979 4287734164
-0.3281764090 -0.2076784223 0.6263696551 4287405199
-0.3282636404 -0.2070374936 0.6265360713 4287339406
-0.3283506036 -0.2063960433 0.6267021298 4287273613
-0.3284373879 -0.2057540864 0.6268677115 4287537045
-0.3285239339 -0.2051116228 0.6270328760 4287668631
-0.3290561140 -0.2047460824 0.6280486584 4287736722
-0.3291423321 -0.2041017413 0.6282131672 4287934101
-0.3296743929 -0.2037325650 0.6292287707 4288000659
-0.3293140531 -0.2028115243 0.6285409927 4288066452
-0.3298459053 -0.2024395913 0.6295561194 4288001675
-0.3299313188 -0.2017923445 0.6297191381 4287738503
-0.3304630816 -0.2014167905 0.6307340264 4287475580
-0.3305481374 -0.2007676661 0.6308963895 4287278201
-0.3306329846 -0.2001180351 0.6310583353 4286621550
-0.3307175934 -0.1994679123 0.6312198043 4286621550
-0.3312489688 -0.1990859658 0.6322340369 4286293614
-0.3313332200 -0.1984339654 0.6323948503 4286293614
-0.3314172626 -0.1977814734 0.6325551867 4286228336
-0.3315010369 -0.1971284747 0.6327151060 4286228336
-0.3315845728 -0.1964749992 0.6328746080 4286162288
-0.3321155012 -0.1960852742 0.6338878870 4286228081
-0.3321986794 -0.1954299212 0.6340466738 4286424686
-0.3327294588 -0.1950365752 0.6350597143 4286358893
-0.3328122795 -0.1943793446 0.6352177858 4286358893
-0.3328948617 -0.1937216371 0.6353754401 4286358893
-0.3334253728 -0.1933232844 0.6363879442 4286358893
-0.3339558542 -0.1929226667 0.6374004483 4286490479
-0.3340379298 -0.1922617108 0.6375571489 4286556270
-0.3341197670 -0.1916002780 0.6377133727 4286622063
-0.3342013657 -0.1909383535 0.6378691196 4286556270
-0.3342827260 -0.1902759373 0.6380243897 4286622063
-0.3339150548 -0.1893585324 0.6373226047 4286622063
-0.3339958191 -0.1886960566 0.6374767423 4286687856
-0.3345253468 -0.1882858276 0.6384874582 4286622833
-0.3346057534 -0.1876214892 0.6386408806 4286622833
-0.3342366219 -0.1867057383 0.6379364133 4286557040
-0.3343164325 -0.1860413402 0.6380886436 4286557040
-0.3348454237 -0.1856256276 0.6390983462 4286622061
-0.3349248171 -0.1849593967 0.6392498612 4286687854
-0.3350039721 -0.1842926890 0.6394009590 4286687854
-0.3355326355 -0.1838719845 0.6404100060 4286687854
-0.3356114030 -0.1832034290 0.6405603290 4286753647
-0.3356899023 -0.1825344115 0.6407101154 4286753647
-0.3357681632 -0.1818649173 0.6408594847 4286753647
-0.3358461559 -0.1811949611 0.6410083771 4286885233
-0.3359239101 -0.1805245429 0.6411567926 4286819440
-0.3360013962 -0.1798536479 0.6413046718 4286885233
-0.3356281519 -0.1789421141 0.6405922771 4286819694
-0.3357050419 -0.1782712042 0.6407390237 4286753901
-0.3362323940 -0.1778382212 0.6417455673 4286753901
-0.3363088667 -0.1771654785 0.6418915391 4286688108
-0.3363851011 -0.1764922887 0.6420370340 4286753901
-0.3364610672 -0.1758186370 0.6421820521 4286819694
-0.3369879127 -0.1753793061 0.6431875825 4286688622
-0.3370634615 -0.1747038513 0.6433317661 4286754415
-0.3371387720 -0.1740279347 0.6434755325 4286688622
-0.3376652300 -0.1735836267 0.6444803476 4286688622
-0.3381916583 -0.1731370538 0.6454850435 4286754415
-0.3387179971 -0.1726882160 0.6464896798 4286688622
-0.3387925625 -0.1720077842 0.6466320157 4286622829
-0.3388668597 -0.1713268906 0.6467738152 4286688622
-0.3389408886 -0.1706455499 0.6469151378 4286688624
-0.3385626376 -0.1697371602 0.6461932063 4286688624
-0.3386360705 -0.1690558344 0.6463332772 4286688624
-0.3387092054 -0.1683740765 0.6464729309 4286622831
-0.3387821019 -0.1676918864 0.6466120481 4286688624
-0.3388547301 -0.1670092344 0.6467506289 4286622831
-0.3389270902 -0.1663261652 0.6468887329 4286557038
-0.3389991522 -0.1656426489 0.6470263600 4286622831
-0.3390709758 -0.1649587005 0.6471633911 4286688624
-0.3391425312 -0.1642743051 0.6473000050 4286688624
-0.3392138481 -0.1635894924 0.6474360824 4286754417
-0.3392848670 -0.1629042476 0.6475716233 4286820210
-0.3393556178 -0.1622185707 0.6477066278 4286754417
-0.3394261003 -0.1615324616 0.6478411555 4286688624
-0.3394963145 -0.1608459353 0.6479752064 4286754417
-0.3395662606 -0.1601589769 0.6481086612 4286688624
-0.3396359086 -0.1594715863 0.6482416391 4286491243
-0.3397053182 -0.1587837934 0.6483741403 4286557036
-0.3397744596 -0.1580955684 0.6485060453 4286688108
-0.3402970433 -0.1576170772 0.6495034695 4286622315
-0.3403657079 -0.1569270939 0.6496345401 4286622315
-0.3408880234 -0.1564450115 0.6506314874 4286622315
-0.3405022323 -0.1555458754 0.6498951316 4286622315
-0.3405700922 -0.1548546553 0.6500246525 4286688108
-0.3406376541 -0.1541630179 0.6501536369 4286556522
-0.3407049775 -0.1534709632 0.6502820849 4286556522
-0.3407720029 -0.1527785063 0.6504099965 4286490729
-0.3403842747 -0.1518828422 0.6496700048 4286424936
-0.3404506743 -0.1511905044 0.6497967243 4286424936
-0.3400621414 -0.1502968073 0.6490551829 4286359143
-0.3401278853 -0.1496045738 0.6491806507 4286293350
-0.3401933312 -0.1489119530 0.6493055820 4286293350
-0.3402585089 -0.1482189149 0.6494299769 4286293350
-0.3398684263 -0.1473282576 0.6486854553 4286359143
-0.3399329782 -0.1466353536 0.6488086581 4286293350
-0.3404523730 -0.1461374462 0.6498000026 4286227557
-0.3400611877 -0.1452483833 0.6490533948 4286095971
-0.3401249051 -0.1445543021 0.6491749287 4286030178
-0.3406437039 -0.1440524310 0.6501652002 4286030178
-0.3407069147 -0.1433566511 0.6502858400 4286030178
-0.3403142691 -0.1424697489 0.6495364308 4286095717
-0.3403768539 -0.1417741328 0.6496558189 4286095717
-0.3408948779 -0.1412669867 0.6506445408 4285964131
-0.3405011296 -0.1403817385 0.6498930454 4285700959
-0.3405628502 -0.1396849751 0.6500108242 4285569373
-0.3410802484 -0.1391738951 0.6509983540 4285437787
-0.3411414921 -0.1384754330 0.6511152387 4285371994
-0.3412024081 -0.1377766132 0.6512315273 4285306201
-0.3412630558 -0.1370774060 0.6513472795 4285437787
-0.3413234353 -0.1363778263 0.6514624953 4285306201
-0.3409271240 -0.1354964972 0.6507060528 4285371737
-0.3409868181 -0.1347971261 0.6508200169 4285371737
-0.3410462439 -0.1340973824 0.6509334445 4285239897
-0.3411053717 -0.1333972663 0.6510463357 4285108311
-0.3407075107 -0.1325191557 0.6502869129 4285042518
-0.3407659829 -0.1318192631 0.6503984928 4285042518
-0.3403672874 -0.1309432387 0.6496375799 4284779857
-0.3399681449 -0.1300687492 0.6488757730 4284779857
-0.3400256038 -0.1293696612 0.6489854455 4284845650
-0.3400827646 -0.1286702156 0.6490945220 4284911443
-0.3401396275 -0.1279704124 0.6492030621 4284976979
-0.3397389352 -0.1270992011 0.6484383345 4284911186
-0.3397951424 -0.1263996512 0.6485455632 4284911186
-0.3398510814 -0.1256997585 0.6486523151 4284976979
-0.3399066925 -0.1249995083 0.6487584710 4284976725
-0.3399620354 -0.1242989227 0.6488640904 4285174104
-0.3395594358 -0.1234316453 0.6480956674 4285371737
-0.3400717974 -0.1228967309 0.6490736008 4285437530
-0.3396684825 -0.1220306605 0.6483038068 4285569116
-0.3397225738 -0.1213296652 0.6484070420 4285766495
-0.3397763669 -0.1206283346 0.6485096812 4286029413
-0.3402878344 -0.1200883016 0.6494859457 4286226792
-0.3398830295 -0.1192246750 0.6487133503 4286424682
-0.3394778073 -0.1183626205 0.6479399204 4286490475
-0.3395303488 -0.1176609173 0.6480401754 4286490218
-0.3395825922 -0.1169588938 0.6481398940 4286490218
-0.3396345377 -0.1162565425 0.6482390165 4286556011
-0.3392277658 -0.1153979301 0.6474626064 4286424425
-0.3388205469 -0.1145408899 0.6466854215 4286161253
-0.3388714492 -0.1138394773 0.6467825770 4285963874
-0.3389220834 -0.1131377518 0.6468791962 4285634655
-0.3389723897 -0.1124357134 0.6469752192 4285371483
-0.3390223980 -0.1117333621 0.6470707059 4285239640
-0.3395309448 -0.1111809462 0.6480413079 4285042261
-0.3391215503 -0.1103277281 0.6472598910 4284976468
-0.3391706645 -0.1096244529 0.6473536491 4285042261
-0.3387604356 -0.1087734848 0.6465707421 4285042518
-0.3388088942 -0.1080705523 0.6466631889 4285042518
-0.3388570547 -0.1073673218 0.6467550993 4284910421
-0.3384456933 -0.1065192595 0.6459699273 4284647249
-0.3384931684 -0.1058163866 0.6460605860 4284449870
-0.3385403454 -0.1051132157 0.6461506486 4284384077
-0.3385872245 -0.1044097543 0.6462401152 4284449870
-0.3381743431 -0.1035652831 0.6454520226 4284713042
-0.3382205665 -0.1028622016 0.6455402374 4284910675
-0.3382664621 -0.1021588221 0.6456279159 4284844882
-0.3378524184 -0.1013173163 0.6448376179 4285108054
-0.3383573890 -0.1007512212 0.6458014250 4285502812
-0.3379426003 -0.0999110565 0.6450097561 4285897316
-0.3375273943 -0.0990725309 0.6442172527 4286226281
-0.3375716805 -0.0983696654 0.6443017721 4286489453
-0.3371556699 -0.0975334570 0.6435077786 4286423660
-0.3367392719 -0.0966988951 0.6427130103 4286292328
-0.3363224268 -0.0958659798 0.6419174075 4286160742
-0.3363653123 -0.0951648951 0.6419992447 4285897570
-0.3359476626 -0.0943343192 0.6412021518 4285897570
-0.3359898925 -0.0936336592 0.6412827373 4285765730
