VERSION 0.7
FIELDS x y z rgba
SIZE 4 4 4 4
TYPE F F F U
COUNT 1 1 1 1
WIDTH 920
HEIGHT 1
VIEWPOINT 0.0 0.0 0.0 1.0 0.0 0.0 0.0
POINTS 920
DATA ascii
-0.2642757893 -0.1072009578 0.5628740788 4285899361
-0.2643201649 -0.1065934598 0.5629686117 4285965154
-0.2643643022 -0.1059856638 0.5630626678 4286030947
-0.2644082308 -0.1053775549 0.5631561875 4286030947
-0.2644518912 -0.1047691479 0.5632491708 4285965154
-0.2649144828 -0.1043255106 0.5642344356 4285965154
-0.2645384967 -0.1035514325 0.5634336472 4285702239
-0.2645814419 -0.1029421315 0.5635251403 4285768032
-0.2646241486 -0.1023325324 0.5636160970 4285768032
-0.2655055225 -0.1020450518 0.5654932857 4285768032
-0.2655478716 -0.1014329270 0.5655834675 4285833825
-0.2655900121 -0.1008205190 0.5656732321 4285833825
-0.2656318843 -0.1002078131 0.5657624006 4285833825
-0.2660932243 -0.0997521579 0.5667449832 4285899618
-0.2661346793 -0.0991379097 0.5668333173 4285899618
-0.2661758959 -0.0985233709 0.5669211149 4285899618
-0.2662168741 -0.0979085490 0.5670083761 4285965154
-0.2658376396 -0.0971399844 0.5662006736 4285899361
-0.2654580176 -0.0963730812 0.5653921366 4285965154
-0.2654981315 -0.0957593620 0.5654775500 4285965154
-0.2655380070 -0.0951453596 0.5655624866 4285965154
-0.2651574314 -0.0943815112 0.5647518635 4285899361
-0.2651967406 -0.0937679335 0.5648356080 4285965411
-0.2648154795 -0.0930064544 0.5640235543 4286031204
-0.2652746439 -0.0925399587 0.5650015473 4285965411
-0.2653132081 -0.0919255689 0.5650836825 4285899618
-0.2653515637 -0.0913109109 0.5651653409 4285899618
-0.2658102214 -0.0908397213 0.5661422610 4285899618
-0.2658481300 -0.0902235657 0.5662229657 4285833825
-0.2658857703 -0.0896071419 0.5663031936 4285965411
-0.2655024230 -0.0888496488 0.5654866695 4285899618
-0.2655395269 -0.0882336795 0.5655657053 4285965411
-0.2655763924 -0.0876174495 0.5656442046 4286030947
-0.2656129897 -0.0870009735 0.5657221675 4286096740
-0.2652283311 -0.0862473324 0.5649029613 4286096740
-0.2648433447 -0.0854954049 0.5640829206 4286030947
-0.2648790777 -0.0848801211 0.5641590357 4285965154
-0.2644934058 -0.0841306224 0.5633376241 4285965154
-0.2645286024 -0.0835158229 0.5634125471 4285965150
-0.2645635307 -0.0829007849 0.5634869933 4286030943
-0.2650195658 -0.0824165270 0.5644582510 4286030945
-0.2650540769 -0.0818000212 0.5645317435 4286030945
-0.2650883198 -0.0811832696 0.5646046996 4286030947
-0.2651223242 -0.0805662870 0.5646771193 4286030947
-0.2651560605 -0.0799490660 0.5647490025 4286030692
-0.2656111717 -0.0794577301 0.5657182932 4286030692
-0.2656444609 -0.0788390636 0.5657892227 4286227557
-0.2656775117 -0.0782201588 0.5658595562 4286227557
-0.2657102942 -0.0776010230 0.5659294128 4286293350
-0.2657428384 -0.0769816637 0.5659987330 4286359143
-0.2653532624 -0.0762408674 0.5651689768 4286293349
-0.2658071518 -0.0757422596 0.5661357045 4286359142
-0.2658389509 -0.0751222223 0.5662034154 4286424933
-0.2662924826 -0.0746202245 0.5671694279 4286424933
-0.2659017444 -0.0738814846 0.5663371682 4286424933
-0.2655106485 -0.0731445029 0.5655041933 4286424933
-0.2655413449 -0.0725245774 0.5655695796 4286556519
-0.2651495934 -0.0717901215 0.5647352338 4286819691
-0.2643352449 -0.0709440932 0.5630007386 4287017070
-0.2635204196 -0.0701018050 0.5612652898 4287082863
-0.2631275356 -0.0693746135 0.5604284406 4286951279
-0.2627342939 -0.0686491877 0.5595909357 4286885486
-0.2623406947 -0.0679255277 0.5587525964 4287082865
-0.2623692453 -0.0673120469 0.5588134527 4287214451
-0.2615524828 -0.0664835498 0.5570738316 4287213938
-0.2611578703 -0.0657652244 0.5562333465 4287213938
-0.2607629001 -0.0650486872 0.5553920865 4287279731
-0.2599449158 -0.0642294884 0.5536499023 4287345524
-0.2591265142 -0.0634140596 0.5519067645 4287279731
-0.2587304413 -0.0627048612 0.5510631800 4287345524
-0.2574884295 -0.0617945194 0.5484178662 4287279731
-0.2558230460 -0.0607894585 0.5448707938 4287279731
-0.2545799613 -0.0598916262 0.5422232151 4287148146
-0.2537593246 -0.0590980574 0.5404753685 4286819181
-0.2525152862 -0.0582107715 0.5378257632 4286490218
-0.2521167994 -0.0575222895 0.5369769931 4286621804
-0.2470643818 -0.0557848774 0.5262159705 4286621550
-0.2466647923 -0.0551109351 0.5253648758 4286358378
-0.2483805567 -0.0549065024 0.5290192366 4286424173
-0.2458646446 -0.0537685156 0.5236607194 4286161001
-0.2454641014 -0.0531000458 0.5228075981 4286226281
-0.2471794933 -0.0528861918 0.5264611840 4286292074
-0.2463552058 -0.0521268435 0.5247055292 4286226283
-0.2468005270 -0.0516370274 0.5256540179 4286226283
-0.2451288402 -0.0507071838 0.5220935345 4286357870
-0.2447268218 -0.0500448942 0.5212372541 4286292077
-0.2451713681 -0.0495556146 0.5221841335 4286555248
-0.2456157506 -0.0490642004 0.5231305957 4286094697
-0.2452129424 -0.0484034531 0.5222726464 4285897067
-0.2456569076 -0.0479097590 0.5232182741 4286094446
-0.2452535480 -0.0472507142 0.5223591328 4286356599
-0.2456971109 -0.0467547402 0.5233038664 4286356599
-0.2465641350 -0.0463362522 0.5251505375 4287013764
-0.2470073849 -0.0458350219 0.5260945559 4287869073
-0.2474504411 -0.0453316607 0.5270382762 4289052578
-0.2478933334 -0.0448261686 0.5279815197 4290236852
-0.2483360469 -0.0443185493 0.5289244652 4291420356
-0.2492023855 -0.0438834354 0.5307696462 4291880907
-0.2496447563 -0.0433705673 0.5317118764 4292144330
-0.2509346902 -0.0430008434 0.5344592929 4292144330
-0.2518006563 -0.0425533690 0.5363036990 4291485881
-0.2526665032 -0.0421017706 0.5381478071 4290564779
-0.2535322309 -0.0416460559 0.5399916768 4289382299
-0.2531258166 -0.0409802906 0.5391260982 4288198025
-0.2552632689 -0.0407222696 0.5436785221 4287276923
-0.2565526068 -0.0403208435 0.5464247465 4287013751
-0.2578418851 -0.0399133042 0.5491707325 4286618991
-0.2591310740 -0.0394996479 0.5519165397 4286553198
-0.2616925836 -0.0392708220 0.5573722124 4286553200
-0.2591641843 -0.0382781029 0.5519870520 4286224235
-0.2634222806 -0.0382836387 0.5610561967 4285566051
-0.2728354633 -0.0364234261 0.5811051130 4285828972
-0.2749725282 -0.0360580198 0.5856568217 4286486906
-0.2779583037 -0.0357917808 0.5920161605 4287473801
-0.2809441388 -0.0355114192 0.5983755589 4287867793
-0.2792614996 -0.0346378759 0.5947917700 4288920481
-0.2809738517 -0.0341853574 0.5984388590 4289644208
-0.2844122648 -0.0325845666 0.6057622433 4290761925
-0.2625240982 -0.2618004978 0.5604690909 4289048497
-0.2626188099 -0.2612720132 0.5606712699 4288522153
-0.2627134025 -0.2607429326 0.5608732104 4287995809
-0.2631989717 -0.2606005371 0.5619098544 4287337365
-0.2632934451 -0.2600695491 0.5621115565 4286876814
-0.2633877993 -0.2595379651 0.5623130202 4286613642
-0.2642650306 -0.2597755194 0.5641858578 4286284677
-0.2643594146 -0.2592412531 0.5643873215 4286349954
-0.2644536793 -0.2587063611 0.5645886064 4286349954
-0.2645478249 -0.2581709325 0.5647895336 4286349952
-0.2646418214 -0.2576349378 0.5649902225 4286284159
-0.2647356987 -0.2570983469 0.5651906133 4286349439
-0.2652217746 -0.2569412887 0.5662283897 4286283646
-0.2649230361 -0.2560234666 0.5655906200 4286152314
-0.2650165260 -0.2554851770 0.5657902360 4286152314
-0.2651098669 -0.2549463212 0.5659894943 4286217853
-0.2655960023 -0.2547838092 0.5670273304 4286086267
-0.2649031579 -0.2534908056 0.5655481815 4285955194
-0.2657822967 -0.2537016273 0.5674250722 4285955194
-0.2650886476 -0.2524107099 0.5659441948 4285955194
-0.2655746639 -0.2522434890 0.5669817924 4285889401
-0.2656672001 -0.2517012358 0.5671793818 4285889401
-0.2653658986 -0.2507863045 0.5665361285 4285823608
-0.2654580474 -0.2502437234 0.5667328238 4285823606
-0.2655500770 -0.2497005463 0.5669292808 4285757813
-0.2648536861 -0.2484174818 0.5654425621 4285626997
-0.2649451494 -0.2478748113 0.5656378269 4285561204
-0.2654308677 -0.2476996183 0.5666748285 4285495411
-0.2659167349 -0.2475222647 0.5677120686 4285495411
-0.2652187049 -0.2462434173 0.5662218928 4285429618
-0.2660992444 -0.2464297414 0.5681017041 4285429618
-0.2654004097 -0.2451530099 0.5666097403 4285364079
-0.2662811875 -0.2453349680 0.5684901476 4285364079
-0.2655815482 -0.2440603822 0.5669964552 4285298286
-0.2660672367 -0.2438755929 0.5680333972 4285298286
-0.2661575675 -0.2433270663 0.5682262778 4285298286
-0.2658521533 -0.2424172312 0.5675742626 4285364079
-0.2659420967 -0.2418684065 0.5677662492 4285364079
-0.2660318613 -0.2413190156 0.5679578781 4285364079
-0.2661215067 -0.2407690734 0.5681492686 4285364079
-0.2654187083 -0.2395036370 0.5666488409 4285364079
-0.2663003504 -0.2396675199 0.5685310960 4285298286
-0.2659931481 -0.2387600839 0.5678752065 4285166700
-0.2664786279 -0.2385637462 0.5689116716 4285100907
-0.2665675282 -0.2380110323 0.5691015124 4285100907
-0.2666562796 -0.2374577671 0.5692909956 4285035114
-0.2663479745 -0.2365514040 0.5686327219 4284969321
-0.2664363086 -0.2359978706 0.5688213110 4285035114
-0.2665244937 -0.2354437709 0.5690096021 4284969321
-0.2666125298 -0.2348891199 0.5691975355 4284837735
-0.2663029432 -0.2339846939 0.5685366392 4284771942
-0.2663905621 -0.2334297746 0.5687236786 4284706148
-0.2656825483 -0.2321791649 0.5672121644 4284640355
-0.2657696009 -0.2316248119 0.5673979521 4284509280
-0.2658565044 -0.2310699224 0.5675835013 4284443487
-0.2655451298 -0.2301694006 0.5669187307 4284246619
-0.2640385926 -0.2282372415 0.5637024045 4284246619
-0.2637259960 -0.2273414731 0.5630350113 4284246617
-0.2630144954 -0.2261042446 0.5615160465 4284180824
-0.2638968527 -0.2262368053 0.5633997917 4283852628
-0.2619882524 -0.2239791155 0.5593250394 4283786835
-0.2640671134 -0.2251299918 0.5637632608 4283787089
-0.2621569037 -0.2228796035 0.5596851110 4283852882
-0.2570520639 -0.2179298401 0.5487866998 4283852114
-0.2599292696 -0.2197525948 0.5549293160 4283852114
-0.2572164834 -0.2168489695 0.5491377115 4283852631
-0.2533031404 -0.2129489481 0.5407829881 4283984217
-0.2473888099 -0.2073900253 0.5281563997 4284181596
-0.2530643046 -0.2115475982 0.5402731299 4284378975
-0.2471457571 -0.2060137838 0.5276374817 4284576352
-0.2400231361 -0.1995072216 0.5124312043 4284642145
-0.2424997836 -0.2009905875 0.5177186728 4284510812
-0.2385731637 -0.1971701682 0.5093356371 4284510812
-0.2354446948 -0.1940261573 0.5026565790 4284313431
-0.2343167961 -0.1925408542 0.5002486110 4284050259
-0.2335886657 -0.1913884580 0.4986940920 4283852882
-0.2328598797 -0.1902389824 0.4971382022 4283721296
-0.2321304679 -0.1890924424 0.4955809712 4283523663
-0.2314004153 -0.1879488528 0.4940223396 4283457870
-0.2310708761 -0.1871330887 0.4933188260 4283654222
-0.2307409495 -0.1863185614 0.4926144481 4283654222
-0.2300092280 -0.1851821095 0.4910522699 4283720013
-0.2296783924 -0.1843709499 0.4903459847 4283917392
-0.2297488451 -0.1838825196 0.4904963672 4284049743
-0.2286137938 -0.1824317873 0.4880731404 4284312915
-0.2286835760 -0.1819450259 0.4882221222 4284445781
-0.2283511907 -0.1811389178 0.4875124991 4284643160
-0.2288227081 -0.1809701622 0.4885191619 4284710230
-0.2284897864 -0.1801648736 0.4878084064 4285039195
-0.2281564772 -0.1793608665 0.4870968163 4285368926
-0.2282253057 -0.1788735986 0.4872437119 4285500512
-0.2282939702 -0.1783858985 0.4873903394 4285501278
-0.2283625007 -0.1778977513 0.4875366390 4285764450
-0.2288337499 -0.1777220517 0.4885427058 4285896549
-0.2289021015 -0.1772321761 0.4886886477 4286159721
-0.2293734103 -0.1770530194 0.4896948636 4286357353
-0.2290383577 -0.1762510836 0.4889795482 4286423146
-0.2291062623 -0.1757598966 0.4891245067 4286620525
-0.2291740179 -0.1752682626 0.4892691672 4286817904
-0.2296452075 -0.1750838906 0.4902751446 4287015283
-0.2297127843 -0.1745905131 0.4904193878 4287212662
-0.2305878699 -0.1747086495 0.4922876358 4287278969
-0.2302514315 -0.1739075780 0.4915693700 4287344762
-0.2315308750 -0.1743247211 0.4943008721 4287213176
-0.2311941236 -0.1735227704 0.4935819209 4287344762
-0.2320698947 -0.1736295968 0.4954516292 4287542141
-0.2325415611 -0.1734308898 0.4964586198 4287476348
-0.2330133021 -0.1732299924 0.4974657595 4287278969
-0.2338897735 -0.1733268052 0.4993369579 4287081590
-0.2351713330 -0.1737186760 0.5020729899 4286884722
-0.2348338813 -0.1729123592 0.5013525486 4286818929
-0.2357110381 -0.1729991138 0.5032252073 4286293098
-0.2369936258 -0.1733782887 0.5059634447 4286161512
-0.2378714979 -0.1734562814 0.5078376532 4286095719
-0.2383443266 -0.1732357144 0.5088471174 4286095719
-0.2392226905 -0.1733066738 0.5107223392 4286095717
-0.2401013523 -0.1733736992 0.5125982165 4286029924
-0.2413859814 -0.1737287343 0.5153408051 4285899108
-0.2410479188 -0.1729136407 0.5146190524 4285833315
-0.2419272214 -0.1729705334 0.5164963007 4285899108
-0.2428068072 -0.1730234623 0.5183741450 4285899108
-0.2432805300 -0.1727839559 0.5193855166 4285964899
-0.2441605628 -0.1728298217 0.5212643147 4285964899
-0.2446345091 -0.1725850105 0.5222761631 4285833826
-0.2451085001 -0.1723380089 0.5232880712 4285702240
-0.2451759726 -0.1718038619 0.5234321356 4285636447
-0.2456499636 -0.1715533137 0.5244440436 4285702240
-0.2461239994 -0.1713005453 0.5254560709 4285964131
-0.2470050156 -0.1713278145 0.5273370147 4285898338
-0.2474792600 -0.1710697263 0.5283494592 4285964131
-0.2475464046 -0.1705289483 0.5284928083 4285898338
-0.2480206341 -0.1702673137 0.5295052528 4285832545
-0.2489022613 -0.1702821553 0.5313874483 4285832545
-0.2493766844 -0.1700151861 0.5324003100 4285898338
-0.2502587140 -0.1700229049 0.5342833996 4285964131
-0.2499179393 -0.1691985577 0.5335558653 4286095717
-0.2508001626 -0.1692009270 0.5354393721 4286029924
-0.2512747347 -0.1689250618 0.5364525318 4285964131
-0.2509332895 -0.1681002975 0.5357235670 4285964131
-0.2518158555 -0.1680941880 0.5376077890 4285964131
-0.2522904277 -0.1678125262 0.5386209488 4285964131
-0.2527649999 -0.1675286293 0.5396341681 4285964131
-0.2528311908 -0.1669727564 0.5397754312 4285964131
-0.2533057332 -0.1666852981 0.5407885313 4286095971
-0.2533716261 -0.1661276519 0.5409291983 4286030178
-0.2530285716 -0.1653025299 0.5401968360 4286030178
-0.2530939877 -0.1647449136 0.5403364897 4286095971
-0.2531592250 -0.1641868800 0.5404757857 4286095971
-0.2532242835 -0.1636283994 0.5406146646 4286030178
-0.2532891333 -0.1630695015 0.5407531261 4286030178
-0.2533538043 -0.1625101715 0.5408912301 4286095971
-0.2534182966 -0.1619504094 0.5410288572 4286030178
-0.2534825802 -0.1613902152 0.5411661267 4286030178
-0.2539562881 -0.1610894203 0.5421774387 4285964385
-0.2540203035 -0.1605274826 0.5423141122 4285964385
-0.2540841401 -0.1599651128 0.5424503684 4285898592
-0.2545576692 -0.1596594155 0.5434613824 4285898592
-0.2546212077 -0.1590953022 0.5435970426 4285898592
-0.2546845675 -0.1585307568 0.5437322855 4285898592
-0.2547477186 -0.1579657942 0.5438671112 4285964385
-0.2548106909 -0.1574003994 0.5440015197 4285898592
-0.2548734546 -0.1568346024 0.5441355109 4285898592
-0.2549360096 -0.1562683731 0.5442690849 4285898592
-0.2554090023 -0.1559524685 0.5452789068 4285964385
-0.2554712892 -0.1553845108 0.5454118252 4285964385
-0.2555333674 -0.1548161209 0.5455443859 4285964385
-0.2555952370 -0.1542473286 0.5456764698 4285964385
-0.2560679615 -0.1539251953 0.5466856956 4285898592
-0.2561295331 -0.1533546597 0.5468171835 4285898592
-0.2566021383 -0.1530289501 0.5478261113 4285964385
-0.2566634417 -0.1524566859 0.5479570031 4286030178
-0.2571359277 -0.1521274000 0.5489657521 4285964385
-0.2571969032 -0.1515533924 0.5490959287 4285964385
-0.2568460703 -0.1507374048 0.5483468771 4285964385
-0.2569065392 -0.1501635164 0.5484760404 4285898592
-0.2569668293 -0.1495891958 0.5486047268 4285898592
-0.2570269108 -0.1490144879 0.5487329364 4285898592
-0.2570867538 -0.1484393775 0.5488607883 4285964385
-0.2571464181 -0.1478638649 0.5489881635 4286030178
-0.2572059035 -0.1472879499 0.5491151214 4286095971
-0.2572651505 -0.1467116326 0.5492416024 4286095971
-0.2573241889 -0.1461349279 0.5493676662 4286030178
-0.2577955127 -0.1457910836 0.5503739119 4285964385
-0.2578542531 -0.1452126503 0.5504993200 4285964385
-0.2583254278 -0.1448652446 0.5515052676 4285964385
-0.2579711080 -0.1440546066 0.5507487655 4285964385
-0.2580291927 -0.1434749961 0.5508728027 4285964385
-0.2576741576 -0.1426663697 0.5501148105 4285964385
-0.2577317655 -0.1420869082 0.5502378345 4285964385
-0.2582022846 -0.1417338252 0.5512423515 4285964385
-0.2582595646 -0.1411526650 0.5513646007 4285898592
-0.2579033077 -0.1403461993 0.5506040454 4285964385
-0.2579600811 -0.1397651881 0.5507252216 4285964385
-0.2576031387 -0.1389607489 0.5499631763 4285964385
-0.2580729723 -0.1386020333 0.5509662628 4286030178
-0.2577154338 -0.1377986968 0.5502029657 4285964385
-0.2577712536 -0.1372171044 0.5503221154 4285898592
-0.2582407296 -0.1368544400 0.5513243675 4285898592
-0.2582962215 -0.1362711638 0.5514428616 4285964385
-0.2587655187 -0.1359049529 0.5524448156 4286030178
-0.2588206828 -0.1353199780 0.5525625348 4285964385
-0.2592898309 -0.1349502057 0.5535641313 4285898592
-0.2593446374 -0.1343635619 0.5536811352 4285898592
-0.2598136067 -0.1339902431 0.5546823740 4285964385
-0.2598680556 -0.1334019005 0.5547986031 4286030178
-0.2599223256 -0.1328132004 0.5549144745 4286161764
-0.2599763572 -0.1322241277 0.5550298095 4286293350
-0.2600301504 -0.1316346973 0.5551446676 4286161764
-0.2600837648 -0.1310448945 0.5552591085 4285964385
-0.2601371408 -0.1304547340 0.5553730726 4285832799
-0.2601902783 -0.1298642009 0.5554865599 4285898592
-0.2602432072 -0.1292733103 0.5555995703 4285964385
-0.2602959275 -0.1286820620 0.5557121038 4285964385
-0.2603484392 -0.1280904561 0.5558241606 4285964385
-0.2604007125 -0.1274984926 0.5559358001 4285964385
-0.2608681619 -0.1271085739 0.5569337606 4286030178
-0.2605046034 -0.1263134927 0.5561575890 4286095971
-0.2605562210 -0.1257204711 0.5562677383 4286227556
-0.2606076002 -0.1251270920 0.5563774705 4286227556
-0.2610744834 -0.1247319728 0.5573742390 4286161763
-0.2611255050 -0.1241369471 0.5574831963 4286095970
-0.2611763179 -0.1235415712 0.5575916171 4286030177
-0.2612268627 -0.1229458526 0.5576996207 4286030177
-0.2612772286 -0.1223497838 0.5578070879 4286030178
-0.2613273561 -0.1217533723 0.5579140782 4286030178
-0.2617934644 -0.1213495433 0.5589091778 4286030178
-0.2618432045 -0.1207514927 0.5590153933 4285964385
-0.2618927360 -0.1201531067 0.5591211319 4286030178
-0.2619420290 -0.1195543855 0.5592263937 4286030178
-0.2615745664 -0.1187662035 0.5584418774 4286030178
-0.2616233230 -0.1181677580 0.5585460067 4286030178
-0.2616718709 -0.1175689846 0.5586495996 4286030178
-0.2617201507 -0.1169698685 0.5587527156 4285964385
-0.2613514066 -0.1161851287 0.5579654574 4285964385
-0.2613991797 -0.1155863106 0.5580674410 4285898592
-0.2614467144 -0.1149871647 0.5581689477 4285898592
-0.2614940405 -0.1143876910 0.5582699180 4285964385
-0.2619582415 -0.1139693782 0.5592610240 4285964385
-0.2620051503 -0.1133683026 0.5593611598 4286030178
-0.2620518506 -0.1127669066 0.5594608784 4286030177
-0.2620983124 -0.1121651828 0.5595600605 4286030177
-0.2625619769 -0.1117407978 0.5605499148 4286095970
-0.2626080513 -0.1111374795 0.5606482625 4286095970
-0.2622362971 -0.1103581190 0.5598546267 4286095970
-0.2622818351 -0.1097551361 0.5599518418 4286030177
-0.2623271346 -0.1091518328 0.5600485206 4285833568
-0.2623721957 -0.1085482240 0.5601447225 4285833568
-0.2624170184 -0.1079443023 0.5602404475 4285899361
-0.2624616027 -0.1073400676 0.5603356361 4285899361
-0.2625059485 -0.1067355350 0.5604303479 4285899361
-0.2625500858 -0.1061306894 0.5605245233 4285965154
-0.2625939548 -0.1055255383 0.5606182218 4286030947
-0.2626376152 -0.1049200892 0.5607113838 4285965154
-0.2626810074 -0.1043143421 0.5608040690 4285899618
-0.2631425261 -0.1038734317 0.5617893934 4285965411
-0.2636039555 -0.1034302860 0.5627744794 4285834079
-0.2632282972 -0.1026585028 0.5619724989 4285834079
-0.2632708251 -0.1020505950 0.5620632768 4285834079
-0.2637317479 -0.1016036719 0.5630472898 4285768286
-0.2637738585 -0.1009942070 0.5631372333 4285834079
-0.2638157308 -0.1003844589 0.5632266402 4285899872
-0.2642762065 -0.0999327898 0.5642096400 4285965152
-0.2643176615 -0.0993214920 0.5642981529 4285899359
-0.2643588781 -0.0987099037 0.5643861890 4285899359
-0.2643998563 -0.0980980322 0.5644736290 4285965152
-0.2644405961 -0.0974858776 0.5645605922 4285965152
-0.2640619278 -0.0967199206 0.5637522340 4285899359
-0.2636829019 -0.0959556252 0.5629430413 4285899359
-0.2637227774 -0.0953445733 0.5630281568 4286030945
-0.2633430660 -0.0945826322 0.5622175336 4286030945
-0.2633824050 -0.0939719975 0.5623015165 4286030945
-0.2630020380 -0.0932124332 0.5614894032 4285965411
-0.2630408108 -0.0926022306 0.5615721941 4285965411
-0.2634989321 -0.0921384767 0.5625502467 4285899618
-0.2635372877 -0.0915267617 0.5626321435 4285899618
-0.2635754049 -0.0909147859 0.5627135038 4285899618
-0.2636132836 -0.0903025419 0.5627943873 4285899618
-0.2636508942 -0.0896900371 0.5628746748 4285899618
-0.2636882663 -0.0890772641 0.5629544854 4285899618
-0.2637254000 -0.0884642377 0.5630337596 4285899361
-0.2633422613 -0.0877110586 0.5622158051 4285965154
-0.2633788586 -0.0870984942 0.5622938871 4286030947
-0.2634151876 -0.0864856765 0.5623714924 4286096740
-0.2634512782 -0.0858726054 0.5624485016 4286096740
-0.2630668879 -0.0851233006 0.5616278648 4286096740
-0.2626821101 -0.0843757018 0.5608064532 4286030947
-0.2627173364 -0.0837638378 0.5608816147 4285965154
-0.2623319328 -0.0830186903 0.5600587726 4286030943
-0.2623666227 -0.0824073181 0.5601328611 4286030943
-0.2624010444 -0.0817956999 0.5602063537 4286030945
-0.2628557980 -0.0813139528 0.5611771941 4286030945
-0.2628898025 -0.0807008743 0.5612497926 4286227556
-0.2629235387 -0.0800875649 0.5613218546 4286227556
-0.2633777559 -0.0796011835 0.5622915626 4286227556
-0.2634110451 -0.0789864212 0.5623626709 4286161763
-0.2634440958 -0.0783714280 0.5624332428 4286293349
-0.2634769082 -0.0777562037 0.5625032187 4286293349
-0.2635094523 -0.0771407485 0.5625727177 4286359142
-0.2631207705 -0.0764028206 0.5617429018 4286359142
-0.2627317011 -0.0756666437 0.5609123111 4286359140
-0.2627634108 -0.0750524774 0.5609799623 4286490726
-0.2627948523 -0.0744380951 0.5610470772 4286688105
-0.2628260255 -0.0738234967 0.5611136556 4286819691
-0.2624357343 -0.0730913505 0.5602803826 4286884974
-0.2620450854 -0.0723609626 0.5594463944 4286950767
-0.2616540790 -0.0716323406 0.5586116314 4287082353
-0.2608413398 -0.0707911029 0.5568764806 4287279732
-0.2604495883 -0.0700669885 0.5560401082 4287411318
-0.2596360147 -0.0692322478 0.5543032289 4287411318
-0.2588219941 -0.0684012473 0.5525653362 4287279732
-0.2580075264 -0.0675739944 0.5508265495 4287279732
-0.2580358982 -0.0669693500 0.5508871078 4287411318
-0.2567989826 -0.0660391897 0.5482463837 4287542904
-0.2559832931 -0.0652222112 0.5465049148 4287477111
-0.2555889189 -0.0645154566 0.5456629395 4287345525
-0.2539287806 -0.0634940788 0.5421186686 4287279732
-0.2531117499 -0.0626893863 0.5403743982 4287279732
-0.2522943020 -0.0618884675 0.5386291742 4287279732
-0.2518983483 -0.0611938275 0.5377839208 4287279732
-0.2502361536 -0.0601964518 0.5342352390 4287213939
-0.2494173944 -0.0594078638 0.5324872732 4287213939
-0.2490203083 -0.0587225929 0.5316395164 4287148148
-0.2482007742 -0.0579405911 0.5298898816 4286950769
-0.2473808378 -0.0571623817 0.5281393528 4286687343
-0.2469826937 -0.0564845242 0.5272893310 4286687343
-0.2457397580 -0.0556173585 0.5246357322 4286687345
-0.2436517924 -0.0545668416 0.5201781392 4286687345
-0.2432524413 -0.0539003983 0.5193254948 4286489966
-0.2432751209 -0.0533283614 0.5193739533 4286424173
-0.2445647418 -0.0530309379 0.5221272111 4286489968
-0.2445870638 -0.0524556078 0.5221748352 4286489968
-0.2450316101 -0.0519697182 0.5231239200 4286423920
-0.2433634698 -0.0510386452 0.5195626020 4286358127
-0.2438075095 -0.0505534448 0.5205105543 4286489715
-0.2438288033 -0.0499794856 0.5205560327 4286621301
-0.2442724705 -0.0494909994 0.5215032101 4286290794
-0.2451386154 -0.0490850061 0.5233523846 4286422380
-0.2451592982 -0.0485076159 0.5233965516 4286816889
-0.2456024587 -0.0480127186 0.5243426561 4287540612
-0.2460454553 -0.0475156829 0.5252884030 4288658075
-0.2464882582 -0.0470165163 0.5262337923 4289710763
-0.2469309121 -0.0465152152 0.5271787643 4290763200
-0.2473733723 -0.0460117795 0.5281233788 4291486923
-0.2478156537 -0.0455062129 0.5290676355 4292539100
-0.2482577711 -0.0449985154 0.5300115347 4292210135
-0.2486996949 -0.0444886908 0.5309550166 4292012495
-0.2495644242 -0.0440513976 0.5328011513 4291354565
-0.2504290342 -0.0436099842 0.5346470475 4290301358
-0.2525627017 -0.0433824472 0.5392022133 4289051291
-0.2534271479 -0.0429297946 0.5410478115 4288130439
-0.2542914748 -0.0424730144 0.5428930521 4287669888
-0.2538862526 -0.0418030992 0.5420279503 4287276670
-0.2547502220 -0.0413410738 0.5438724160 4287145084
-0.2568836808 -0.0410779491 0.5484271646 4287013497
-0.2585939169 -0.0407380350 0.5520784259 4286684532
-0.2598808706 -0.0403243266 0.5548259616 4285960809
-0.2641307414 -0.0403572209 0.5638991594 4285566051
-0.2624545097 -0.0394785516 0.5603204966 4285566051
-0.2773556709 -0.0384304784 0.5921333432 4286091633
-0.2752545476 -0.0374864265 0.5876476169 4287144324
-0.2701884508 -0.0361555815 0.5768318772 4287736461
-0.2782505155 -0.0365743898 0.5940437317 4288262551
-0.2757246792 -0.0355883539 0.5886512995 4288986274
-0.2791281939 -0.0353655443 0.5959175229 4288986278
-0.2816846073 -0.0350212716 0.6013753414 4289315243
-0.2816993892 -0.0343549028 0.6014068723 4289314477
-0.2829847634 -0.0338404067 0.6041510105 4289248684
-0.2851451635 -0.0320696160 0.6087633371 4290760906
-0.2608267069 -0.2607260048 0.5581687689 4289048497
-0.2609208822 -0.2601997554 0.5583702922 4288456360
-0.2614050806 -0.2600610852 0.5594065189 4287930016
-0.2611088455 -0.2591455281 0.5587725639 4287403158
-0.2623739541 -0.2597772777 0.5614798665 4286942607
-0.2628586292 -0.2596321702 0.5625171065 4286613642
-0.2621712983 -0.2583299279 0.5610462427 4286284677
-0.2622649968 -0.2577986717 0.5612467527 4286415747
-0.2631405890 -0.2580336630 0.5631204844 4286349954
-0.2632343173 -0.2574996948 0.5633210540 4286284159
-0.2629366517 -0.2565833032 0.5626840591 4286218366
-0.2638128102 -0.2568110526 0.5645590425 4286217853
-0.2635147274 -0.2558943331 0.5639211535 4286217853
-0.2636079490 -0.2553580701 0.5641206503 4286218107
-0.2637010515 -0.2548212409 0.5643198490 4286218107
-0.2634020150 -0.2539060116 0.5636799932 4286152314
-0.2642789185 -0.2541229129 0.5655565262 4286086521
-0.2643717527 -0.2535835803 0.5657551885 4285955192
-0.2636796832 -0.2522928119 0.5642741919 4285955192
-0.2641645074 -0.2521286011 0.5653116703 4286020985
-0.2642568052 -0.2515883744 0.5655092001 4286020985
-0.2639561594 -0.2506745458 0.5648658276 4285889399
-0.2640480697 -0.2501339912 0.5650624633 4285823606
-0.2637467682 -0.2492214441 0.5644176602 4285757813
-0.2638382316 -0.2486805618 0.5646134615 4285757813
-0.2639295757 -0.2481391281 0.5648089647 4285561204
-0.2648077607 -0.2483351082 0.5666882396 4285561204
-0.2645054758 -0.2474227399 0.5660413504 4285561204
-0.2642028034 -0.2465114295 0.5653936863 4285495411
-0.2642936110 -0.2459677309 0.5655879974 4285429618
-0.2647782862 -0.2457892448 0.5666251779 4285495411
-0.2648689449 -0.2452436239 0.5668191910 4285429872
-0.2645651996 -0.2443333119 0.5661691427 4285364079
-0.2650498450 -0.2441507131 0.5672063231 4285298286
-0.2651400864 -0.2436034083 0.5673994422 4285298286
-0.2644408047 -0.2423321754 0.5659029484 4285298286
-0.2645305097 -0.2417853922 0.5660948753 4285298286
-0.2642250955 -0.2408780009 0.5654413104 4285364079
-0.2643143535 -0.2403309196 0.5656323433 4285364079
-0.2640082538 -0.2394248694 0.5649772882 4285298286
-0.2640971243 -0.2388775051 0.5651674271 4285298286
-0.2645813227 -0.2386863679 0.5662036538 4285298286
-0.2658568621 -0.2392049581 0.5689333081 4285166700
-0.2651543021 -0.2379423678 0.5674298406 4285166700
-0.2652428448 -0.2373911589 0.5676193237 4285100907
-0.2657272518 -0.2371928841 0.5686559081 4285035114
-0.2654194832 -0.2362870723 0.5679972768 4284969321
-0.2651112974 -0.2353823483 0.5673377514 4284969321
-0.2655954957 -0.2351807803 0.5683740377 4284969321
-0.2652867734 -0.2342766225 0.5677133203 4284969321
-0.2649776042 -0.2333735675 0.5670517087 4284837735
-0.2650648355 -0.2328201532 0.5672383904 4284706148
-0.2651519477 -0.2322662026 0.5674247742 4284574562
-0.2648417950 -0.2313648164 0.5667610765 4284443487
-0.2645312548 -0.2304645628 0.5660965443 4284443487
-0.2642203271 -0.2295654267 0.5654311180 4284246106
-0.2639089525 -0.2286674082 0.5647647977 4284311899
-0.2635971904 -0.2277705222 0.5640975833 4284180824
-0.2636827230 -0.2272174656 0.5642806292 4284115031
-0.2637681067 -0.2266638726 0.5644633770 4283983700
-0.2630573809 -0.2254276723 0.5629424453 4283917907
-0.2627440989 -0.2245344818 0.5622720122 4283787089
-0.2604392767 -0.2219455987 0.5573396683 4283787089
-0.2625146508 -0.2230900377 0.5617809892 4283851859
-0.2582154572 -0.2188225538 0.5525807142 4283851859
-0.2543119192 -0.2149098516 0.5442271829 4283589457
-0.2603740692 -0.2194136679 0.5572001338 4283523664
-0.2580637634 -0.2168532014 0.5522561073 4283589457
-0.2493679672 -0.2089531273 0.5336470604 4283721043
-0.2518416643 -0.2104271203 0.5389407873 4283918421
-0.2439364642 -0.2032418996 0.5220236778 4284115800
-0.2496045530 -0.2073709369 0.5341534019 4284378972
-0.2396958023 -0.1985688359 0.5129486918 4284642144
-0.2381726056 -0.1967406869 0.5096890330 4284839523
-0.2366482615 -0.1949188411 0.5064269304 4284707937
-0.2355226427 -0.1934317052 0.5040181279 4284445019
-0.2343961298 -0.1919491887 0.5016073585 4284181847
-0.2336688340 -0.1907980144 0.5000509620 4283918675
-0.2325406671 -0.1893239170 0.4976367056 4283589710
-0.2318119705 -0.1881794780 0.4960772991 4283522894
-0.2346870601 -0.1899553835 0.5022299886 4283457101
-0.2315545231 -0.1868693382 0.4955263436 4283391563
-0.2308242768 -0.1857312024 0.4939636290 4283391563
-0.2300934047 -0.1845960170 0.4923995733 4283523147
-0.2297628820 -0.1837845445 0.4916922450 4283654733
-0.2290308625 -0.1826544404 0.4901257157 4283655499
-0.2282982022 -0.1815273166 0.4885578454 4283721292
-0.2283676118 -0.1810395271 0.4887063801 4283984717
-0.2284368873 -0.1805512756 0.4888546169 4284182096
-0.2281044126 -0.1797461361 0.4881431162 4284511826
-0.2277715504 -0.1789422780 0.4874308109 4284577619
-0.2278401405 -0.1784544289 0.4875775874 4284709202
-0.2279085815 -0.1779661328 0.4877240360 4285038167
-0.2275747955 -0.1771643907 0.4870097339 4285367132
-0.2276428193 -0.1766760796 0.4871553183 4285630304
-0.2277106941 -0.1761873364 0.4873005748 4285501277
-0.2277784348 -0.1756981611 0.4874455333 4285567070
-0.2278460115 -0.1752085388 0.4875901639 4285699169
-0.2275107801 -0.1744098067 0.4868727326 4285962341
-0.2275779396 -0.1739201844 0.4870164692 4286225513
-0.2276449651 -0.1734301299 0.4871599078 4286488685
-0.2277118266 -0.1729396433 0.4873029888 4286554732
-0.2277785391 -0.1724487245 0.4874457717 4286686318
-0.2282483727 -0.1722617298 0.4884512126 4286817904
-0.2287182957 -0.1720725596 0.4894568324 4287015283
-0.2287847847 -0.1715786010 0.4895991385 4287147637
-0.2292547524 -0.1713859588 0.4906048477 4287213430
-0.2297247946 -0.1711911410 0.4916107357 4287279223
-0.2301949114 -0.1709941328 0.4926168025 4287279223
-0.2310690880 -0.1710940748 0.4944874942 4287410809
-0.2315394729 -0.1708918512 0.4954941571 4287608188
-0.2328183353 -0.1712821722 0.4982309043 4287279480
-0.2320761681 -0.1701843590 0.4966426790 4287147894
-0.2333555222 -0.1705676764 0.4993804991 4286950515
-0.2338263243 -0.1703558266 0.5003879666 4286884722
-0.2347018421 -0.1704356521 0.5022616386 4286818929
-0.2355776727 -0.1705115288 0.5041359067 4286621550
-0.2356440127 -0.1699992567 0.5042778254 4286293098
-0.2369251996 -0.1703601927 0.5070195794 4286161512
-0.2378017753 -0.1704250872 0.5088954568 4286161512
-0.2374629676 -0.1696176529 0.5081704259 4286029926
-0.2387451380 -0.1699658334 0.5109142661 4286029924
-0.2392169088 -0.1697328985 0.5119238496 4286029924
-0.2400942892 -0.1697845757 0.5138014555 4285899108
-0.2405662835 -0.1695463508 0.5148115158 4285833315
-0.2410383373 -0.1693059355 0.5158216953 4285833315
-0.2419163287 -0.1693474352 0.5177006125 4285767522
-0.2423886061 -0.1691017151 0.5187112689 4285833313
-0.2432670444 -0.1691361368 0.5205911398 4285833313
-0.2437395155 -0.1688850969 0.5216022134 4285833313
-0.2438056916 -0.1683512628 0.5217438340 4285767520
-0.2446846068 -0.1683763713 0.5236247182 4285833313
-0.2451572269 -0.1681186855 0.5246360898 4285833313
-0.2456298769 -0.1678587794 0.5256475806 4285899106
-0.2465093583 -0.1678736806 0.5275296569 4285964899
-0.2469822019 -0.1676084399 0.5285415649 4285964899
-0.2470480949 -0.1670657545 0.5286825895 4285899106
-0.2479280233 -0.1670713127 0.5305656195 4285899106
-0.2488082051 -0.1670728475 0.5324491858 4285833313
-0.2480593324 -0.1659801751 0.5308466554 4285964131
-0.2493470162 -0.1662489176 0.5336022377 4286029924
-0.2498200685 -0.1659703255 0.5346146226 4286029924
-0.2498855293 -0.1654196531 0.5347546935 4286095717
-0.2503585517 -0.1651375145 0.5357669592 4286161764
-0.2508315742 -0.1648531407 0.5367792249 4286095971
-0.2508966923 -0.1642993689 0.5369185805 4286095971
-0.2505535483 -0.1634789258 0.5361842513 4286095971
-0.2506181896 -0.1629251987 0.5363225937 4286030178
-0.2506826222 -0.1623710543 0.5364605188 4286030178
-0.2507469058 -0.1618164778 0.5365980268 4286030178
-0.2512194514 -0.1615241170 0.5376092792 4286030178
-0.2512834370 -0.1609677821 0.5377462506 4285964385
-0.2513472438 -0.1604110301 0.5378827453 4285964385
-0.2514108717 -0.1598538458 0.5380188823 4285964385
-0.2518831789 -0.1595552713 0.5390296578 4285964385
-0.2523555160 -0.1592544466 0.5400404930 4285964385
-0.2520096600 -0.1584369838 0.5393003225 4285898592
-0.2524818182 -0.1581335068 0.5403107405 4285964385
-0.2525447011 -0.1575724036 0.5404452682 4285898592
-0.2530167699 -0.1572653651 0.5414555669 4285964385
-0.2526698411 -0.1564489454 0.5407131314 4285964385
-0.2531417608 -0.1561392546 0.5417230129 4285898592
-0.2532039285 -0.1555755734 0.5418560505 4285898592
-0.2532659471 -0.1550114751 0.5419887304 4285964385
-0.2537376583 -0.1546968818 0.5429982543 4285964385
-0.2537993491 -0.1541310400 0.5431302786 4285898592
-0.2538608611 -0.1535647959 0.5432619452 4285832799
-0.2539221942 -0.1529981345 0.5433931351 4285964385
-0.2539833188 -0.1524310708 0.5435239077 4285964385
-0.2544546425 -0.1521089226 0.5445325375 4285964385
-0.2545154393 -0.1515401304 0.5446627140 4285964385
-0.2545760870 -0.1509709209 0.5447924137 4286030178
-0.2546364963 -0.1504012942 0.5449217558 4286030178
-0.2546967268 -0.1498312801 0.5450506210 4285964385
-0.2547567487 -0.1492608488 0.5451790690 4285898592
-0.2548165619 -0.1486900300 0.5453070402 4285898592
-0.2548761666 -0.1481187940 0.5454346538 4285964385
-0.2553467751 -0.1477851570 0.5464417338 4286030178
-0.2549948096 -0.1469751447 0.5456885099 4286095971
-0.2554651797 -0.1466388553 0.5466951728 4286161764
-0.2555240989 -0.1460651010 0.5468211770 4286095971
-0.2555827796 -0.1454909593 0.5469468236 4286030178
-0.2556412816 -0.1449164152 0.5470719934 4285964385
-0.2561113238 -0.1445739269 0.5480778813 4285964385
-0.2561694980 -0.1439976692 0.5482023954 4286030178
-0.2558155358 -0.1431904435 0.5474448800 4286030178
-0.2558732033 -0.1426143348 0.5475683212 4285964385
-0.2559306622 -0.1420378536 0.5476912856 4285964385
-0.2559879422 -0.1414609700 0.5478138328 4285964385
-0.2560449839 -0.1408836991 0.5479359031 4285964385
-0.2561018169 -0.1403060406 0.5480575562 4285964385
-0.2561584711 -0.1397279948 0.5481787324 4285898592
-0.2562148869 -0.1391495764 0.5482994914 4285898592
-0.2558584213 -0.1383476406 0.5475366712 4285898592
-0.2559143305 -0.1377693862 0.5476562977 4285898592
-0.2559700310 -0.1371907592 0.5477755070 4285898592
-0.2564384937 -0.1368320882 0.5487779975 4285898592
-0.2560808361 -0.1360323578 0.5480126143 4285898592
-0.2565490305 -0.1356710792 0.5490145087 4285964385
-0.2566039562 -0.1350900084 0.5491321087 4286095971
-0.2570720017 -0.1347251683 0.5501337051 4285964385
-0.2571265996 -0.1341424286 0.5502505898 4285898592
-0.2575944960 -0.1337740421 0.5512518287 4285964385
-0.2576487660 -0.1331896037 0.5513679981 4286030178
-0.2581164539 -0.1328176707 0.5523688793 4286030178
-0.2581703961 -0.1322315633 0.5524842739 4286095971
-0.2578102648 -0.1314341277 0.5517136455 4286161764
-0.2578636706 -0.1308482289 0.5518279076 4286095971
-0.2579168677 -0.1302619725 0.5519417524 4285964385
-0.2579698563 -0.1296753585 0.5520551205 4285898592
-0.2580226064 -0.1290883869 0.5521680117 4285832799
-0.2580751479 -0.1285010427 0.5522804260 4285898592
-0.2581274807 -0.1279133409 0.5523924232 4285964385
-0.2581795752 -0.1273252964 0.5525039434 4286030178
-0.2586459517 -0.1269403249 0.5535019636 4286095971
-0.2586976886 -0.1263506114 0.5536127090 4286095971
-0.2587492168 -0.1257605553 0.5537229776 4286161764
-0.2588005364 -0.1251701415 0.5538327694 4286293349
-0.2592664361 -0.1247790232 0.5548297763 4286293349
-0.2597322762 -0.1243856624 0.5558267236 4286161763
-0.2597830892 -0.1237923056 0.5559354424 4286095970
-0.2598336637 -0.1231986061 0.5560436845 4286030177
-0.2598840296 -0.1226045564 0.5561514497 4286030177
-0.2599341571 -0.1220101640 0.5562587380 4285964385
-0.2599840462 -0.1214154288 0.5563654900 4285964385
-0.2600337267 -0.1208203435 0.5564718246 4286030178
-0.2600831985 -0.1202249303 0.5565776825 4286030178
-0.2601324320 -0.1196291670 0.5566830039 4286030178
-0.2601814270 -0.1190330759 0.5567879081 4286030178
-0.2602302134 -0.1184366420 0.5568922758 4286030178
-0.2594471872 -0.1174633950 0.5552166104 4285964385
-0.2599112093 -0.1170554906 0.5562096238 4286030178
-0.2599592507 -0.1164590120 0.5563123822 4286030178
-0.2600070238 -0.1158622056 0.5564146638 4285964385
-0.2600545883 -0.1152650714 0.5565164685 4285964385
-0.2601019144 -0.1146676093 0.5566177368 4285898592
-0.2601490319 -0.1140698195 0.5567185879 4285898592
-0.2601959109 -0.1134717092 0.5568189025 4285964385
-0.2602425516 -0.1128732786 0.5569186807 4285964385
-0.2602889836 -0.1122745201 0.5570180416 4286161761
-0.2603351474 -0.1116754487 0.5571168661 4286161761
-0.2603811026 -0.1110760495 0.5572152138 4286095968
-0.2604268193 -0.1104763448 0.5573130846 4286095968
-0.2604723275 -0.1098763198 0.5574104190 4286095968
-0.2605175972 -0.1092759818 0.5575072765 4286030175
-0.2605625987 -0.1086753309 0.5576035976 4285899359
-0.2606073916 -0.1080743670 0.5576995015 4285833566
-0.2606519759 -0.1074730977 0.5577948689 4285965152
-0.2606962919 -0.1068715155 0.5578896999 4285899359
-0.2607403994 -0.1062696353 0.5579840541 4285965152
-0.2607842386 -0.1056674495 0.5580779314 4285965152
-0.2608278692 -0.1050649509 0.5581712723 4285965154
-0.2608712614 -0.1044621617 0.5582641363 4285899361
-0.2613318861 -0.1040252447 0.5592498779 4285899618
-0.2613748610 -0.1034208834 0.5593418479 4285965411
-0.2614176273 -0.1028162315 0.5594333410 4285965152
-0.2614601254 -0.1022112817 0.5595242977 4285965152
-0.2615024149 -0.1016060337 0.5596147776 4285965152
-0.2619622350 -0.1011618376 0.5605988503 4285899359
-0.2620041072 -0.1005550399 0.5606884360 4285899359
-0.2620457411 -0.0999479517 0.5607775450 4285965152
-0.2620871365 -0.0993405804 0.5608661175 4285965152
-0.2621282935 -0.0987329185 0.5609541535 4285833566
-0.2621691823 -0.0981249660 0.5610417128 4285833566
-0.2622098625 -0.0975167379 0.5611287355 4285899359
-0.2622503042 -0.0969082192 0.5612152815 4285965152
-0.2622904778 -0.0962994248 0.5613012910 4285965152
-0.2619120479 -0.0955377370 0.5604913831 4285965152
-0.2615332305 -0.0947777107 0.5596807599 4286030945
-0.2615725696 -0.0941700339 0.5597649217 4286030945
-0.2611930966 -0.0934123769 0.5589528680 4286030945
-0.2612318993 -0.0928051174 0.5590358973 4285899618
-0.2608517408 -0.0920498446 0.5582223535 4285899618
-0.2608899772 -0.0914430246 0.5583041906 4285899618
-0.2613468170 -0.0909817442 0.5592818260 4285965411
-0.2613846362 -0.0903734192 0.5593627691 4285899618
-0.2614222169 -0.0897648335 0.5594431758 4285899618
-0.2614595592 -0.0891559869 0.5595231056 4285965154
-0.2614966631 -0.0885468721 0.5596024990 4285899361
-0.2615334988 -0.0879375041 0.5596813560 4285899361
-0.2615701258 -0.0873278826 0.5597596765 4285899361
-0.2611872554 -0.0865790322 0.5589403510 4285899361
-0.2612233162 -0.0859698802 0.5590174794 4285965154
-0.2612591088 -0.0853604674 0.5590941310 4286161763
-0.2608752847 -0.0846147761 0.5582727194 4286227556
-0.2609105408 -0.0840058550 0.5583481789 4286161763
-0.2601065040 -0.0831285268 0.5566275716 4286161763
-0.2601411641 -0.0825210661 0.5567017794 4286227556
-0.2601755857 -0.0819133669 0.5567753911 4286227556
-0.2606294751 -0.0814365670 0.5577467084 4286293349
-0.2606634498 -0.0808274075 0.5578194261 4286359142
-0.2606971860 -0.0802180097 0.5578916073 4286424933
-0.2607306838 -0.0796083808 0.5579632521 4286424933
-0.2607639134 -0.0789985135 0.5580344200 4286359140
-0.2607969046 -0.0783884153 0.5581050515 4286293347
-0.2604096532 -0.0776528418 0.5572763085 4286293347
-0.2604421079 -0.0770432651 0.5573457479 4286359140
-0.2604742944 -0.0764334649 0.5574146509 4286424933
-0.2600860894 -0.0757011399 0.5565838218 4286490726
-0.2596974969 -0.0749705583 0.5557522774 4286556521
-0.2593085766 -0.0742417276 0.5549200177 4286688107
-0.2589193285 -0.0735146478 0.5540869832 4286951280
-0.2589500844 -0.0729076788 0.5541527867 4287280245
-0.2581397295 -0.0720657483 0.5524187088 4287279734
-0.2577494383 -0.0713439360 0.5515834093 4287279734
-0.2569382489 -0.0705084875 0.5498474836 4287411320
-0.2565472126 -0.0697911903 0.5490106940 4287542906
-0.2557352185 -0.0689622313 0.5472729802 4287542906
-0.2549227476 -0.0681370199 0.5455343723 4287542906
-0.2536891699 -0.0672041029 0.5428944826 4287608697
-0.2528758049 -0.0663873777 0.5411539078 4287674490
-0.2520620227 -0.0655744076 0.5394123793 4287608697
-0.2508269548 -0.0646567196 0.5367693305 4287542904
-0.2500122786 -0.0638522580 0.5350259542 4287608697
-0.2483552843 -0.0628385618 0.5314799547 4287608697
-0.2471186817 -0.0619381033 0.5288336277 4287608697
-0.2463026047 -0.0611479282 0.5270872116 4287674490
-0.2454861104 -0.0603615306 0.5253399611 4287740283
-0.2446692139 -0.0595789179 0.5235917568 4287674490
-0.2442730516 -0.0589016452 0.5227440000 4287410807
-0.2442977726 -0.0583267398 0.5227968693 4287279221
-0.2439010143 -0.0576520935 0.5219478011 4287081590
-0.2439252138 -0.0570778362 0.5219995975 4286950004
-0.2431065291 -0.0563082322 0.5202476382 4286686834
-0.2431301773 -0.0557356216 0.5202982426 4286292076
-0.2431535870 -0.0551628433 0.5203483105 4286225514
-0.2419124097 -0.0543060713 0.5176922083 4286291307
-0.2419352233 -0.0537359454 0.5177410245 4286554479
-0.2423793375 -0.0532582849 0.5186914206 4286620272
-0.2424017191 -0.0526868440 0.5187393427 4286685811
-0.2420022637 -0.0520246141 0.5178844929 4286685811
-0.2432890683 -0.0517227799 0.5206382275 4286817399
-0.2433108091 -0.0511488840 0.5206847787 4287146364
-0.2433323115 -0.0505748354 0.5207307935 4287606917
-0.2433535755 -0.0500006378 0.5207763314 4288001675
-0.2437963933 -0.0495119467 0.5217239261 4289381788
-0.2442390472 -0.0490211211 0.5226712227 4290039718
-0.2446815372 -0.0485281534 0.5236181617 4290894774
-0.2442800552 -0.0478677042 0.5227589607 4291618497
-0.2451440543 -0.0474541336 0.5246079564 4292210384
-0.2476958334 -0.0473591536 0.5300687551 4292473556
-0.2477157712 -0.0467739701 0.5301113725 4292144340
-0.2485795319 -0.0463460200 0.5319598317 4291683789
-0.2477548867 -0.0456031896 0.5301951170 4290631101
-0.2486182898 -0.0451709740 0.5320428014 4289512620
-0.2490594387 -0.0446589366 0.5329868197 4288854431
-0.2499225736 -0.0442194678 0.5348339677 4288459673
-0.2512077689 -0.0438495688 0.5375843048 4287801740
-0.2533373833 -0.0436189435 0.5421416163 4287078017
-0.2554670572 -0.0433782004 0.5466991067 4286749306
-0.2580372393 -0.0425875522 0.5521993041 4286355059
-0.2550987303 -0.0414960235 0.5459108949 4286289266
-0.2593399882 -0.0415693000 0.5549871922 4286026094
-0.2606247067 -0.0411555432 0.5577365160 4285499750
-0.2635990679 -0.0409984738 0.5641016364 4285039197
-0.2648837268 -0.0405684672 0.5668507814 4284973404
-0.2661682665 -0.0401323363 0.5695997477 4285302369
-0.2695653141 -0.0400035903 0.5768693686 4285433955
-0.2683145106 -0.0391800068 0.5741927028 4285960301
-0.2708664238 -0.0389086045 0.5796537995 4286749817
-0.2742798924 -0.0380946249 0.5869585276 4288394391
-0.2755638659 -0.0376177505 0.5897062421 4288854690
-0.2806517184 -0.0376450010 0.6005942822 4288723104
-0.2760179341 -0.0363671668 0.5906780362 4288459421
-0.2794149816 -0.0361503884 0.5979476571 4288459421
-0.2802756727 -0.0355953351 0.5997895598 4288196509
-0.2815589607 -0.0350888483 0.6025357246 4288393888
-0.2824192941 -0.0345245637 0.6043768525 4288722342
-0.2841250300 -0.0340575203 0.6080271602 4289117100
-0.2595225275 -0.2600404024 0.5567010045 4288982704
-0.2600055337 -0.2599046826 0.5577371120 4288390567
-0.2612674236 -0.2605434060 0.5604439974 4287930016
-0.2613615096 -0.2600142956 0.5606458187 4287534744
-0.2614554763 -0.2594846487 0.5608473420 4287074193
-0.2607697248 -0.2581825554 0.5593763590 4286679435
-0.2612530887 -0.2580384612 0.5604132414 4286284677
-0.2617366016 -0.2578922212 0.5614504218 4286349954
-0.2610496283 -0.2565931678 0.5599768162 4286284161
-0.2623137236 -0.2572104931 0.5626884103 4286284159
-0.2624070644 -0.2566766143 0.5628886819 4286218366
-0.2625002861 -0.2561421692 0.5630885959 4286152571
-0.2629841268 -0.2559875250 0.5641265512 4286086778
-0.2622954249 -0.2546919882 0.5626491904 4286218107
-0.2627791762 -0.2545354068 0.5636868477 4286152314
-0.2628718615 -0.2539986670 0.5638856888 4286086778
-0.2621817887 -0.2527070343 0.5624054074 4286020985
-0.2634483278 -0.2532998919 0.5651222467 4285955192
-0.2623659968 -0.2516339421 0.5628005266 4285955192
-0.2632413507 -0.2518461049 0.5646782517 4286020985
-0.2629415095 -0.2509325743 0.5640351176 4286020985
-0.2630333006 -0.2503932416 0.5642319918 4285889399
-0.2623406649 -0.2491086274 0.5627461672 4285823606
-0.2624318898 -0.2485698014 0.5629419088 4285692020
-0.2625229955 -0.2480303943 0.5631372929 4285757813
-0.2633990347 -0.2482303083 0.5650165081 4285561204
-0.2634901404 -0.2476881742 0.5652119517 4285495411
-0.2627954483 -0.2464088202 0.5637217760 4285561204
-0.2636719048 -0.2466022074 0.5656018853 4285495411
-0.2629764378 -0.2453249693 0.5641099811 4285495411
-0.2622802556 -0.2440504283 0.5626166463 4285495411
-0.2639435530 -0.2449690402 0.5661845803 4285429872
-0.2640338242 -0.2444235384 0.5663781762 4285429872
-0.2641239464 -0.2438774705 0.5665715337 4285363825
-0.2634264231 -0.2426055670 0.5650752783 4285298032
-0.2627282143 -0.2413363755 0.5635775328 4285298032
-0.2632114291 -0.2411528975 0.5646140575 4285298032
-0.2629064322 -0.2402468622 0.5639597774 4285298286
-0.2629953027 -0.2397012860 0.5641504526 4285298286
-0.2630840540 -0.2391551435 0.5643408298 4285232493
-0.2631726563 -0.2386084646 0.5645309091 4285232493
-0.2628664374 -0.2377043068 0.5638740063 4285232493
-0.2645339072 -0.2385817021 0.5674509406 4285166700
-0.2642275393 -0.2376756221 0.5667937398 4285166700
-0.2643158138 -0.2371250838 0.5669831038 4285100907
-0.2636135221 -0.2358667403 0.5654765964 4285035114
-0.2644919753 -0.2360223532 0.5673609376 4285035114
-0.2645798028 -0.2354701608 0.5675494075 4284969067
-0.2642719150 -0.2345662713 0.5668889284 4284969067
-0.2639635801 -0.2336634845 0.5662274957 4285035114
-0.2636548579 -0.2327618003 0.5655652881 4284903528
-0.2637417018 -0.2322099060 0.5657516122 4284771941
-0.2630361617 -0.2309617847 0.5642380714 4284574562
-0.2639150023 -0.2311044633 0.5661233068 4284443487
-0.2636050284 -0.2302047610 0.5654583573 4284509280
-0.2632946372 -0.2293061614 0.5647925735 4284246106
-0.2633804679 -0.2287532091 0.5649766922 4284377692
-0.2630693913 -0.2278560400 0.5643094182 4284312410
-0.2631548345 -0.2273028344 0.5644926429 4284180824
-0.2628430426 -0.2264070958 0.5638238788 4284049238
-0.2629280388 -0.2258536518 0.5640062094 4283983445
-0.2626155615 -0.2249593288 0.5633358955 4283917907
-0.2611104250 -0.2230476737 0.5601072311 4283917907
-0.2603991926 -0.2218195051 0.5585815907 4283720277
-0.2612780333 -0.2219454348 0.5604667664 4283786070
