VERSION 0.7
FIELDS x y z rgba
SIZE 4 4 4 4
TYPE F F F U
COUNT 1 1 1 1
WIDTH 920
HEIGHT 1
VIEWPOINT 0.0 0.0 0.0 1.0 0.0 0.0 0.0
POINTS 920
DATA ascii
-0.2857162356 -0.1256667376 0.5758464336 4283789871
-0.2857696414 -0.1250503063 0.5759540796 4284119090
-0.2862592041 -0.1246235073 0.5769407749 4283855918
-0.2863122225 -0.1240054518 0.5770476460 4283790123
-0.2868015170 -0.1235751361 0.5780338049 4283987502
-0.2872907519 -0.1231426001 0.5790197849 4283922222
-0.2877798975 -0.1227078289 0.5800056458 4284053808
-0.2882689238 -0.1222708374 0.5809912682 4284119350
-0.2883210480 -0.1216472983 0.5810962915 4284448315
-0.2888098359 -0.1212067902 0.5820814371 4284776777
-0.2892985344 -0.1207640618 0.5830664039 4284908363
-0.2897871435 -0.1203190982 0.5840511322 4285171545
-0.2907128036 -0.1200524420 0.5859167576 4285566303
-0.2912012935 -0.1196020767 0.5869013071 4285631844
-0.2916896939 -0.1191494837 0.5878856182 4285895016
-0.2926153839 -0.1188723519 0.5897513032 4286879617
-0.2935411036 -0.1185911000 0.5916171074 4287208582
-0.3047837019 -0.1712918878 0.6156541109 4287272594
-0.3039936721 -0.1701655984 0.6140582561 4286154614
-0.3027722836 -0.1688023955 0.6115911007 4285036133
-0.3006885350 -0.1669658124 0.6073819399 4283983949
-0.2977417409 -0.1646613032 0.6014295816 4283654984
-0.2947933674 -0.1623691171 0.5954738855 4283394112
-0.2927055061 -0.1605622321 0.5912564993 4283196733
-0.2906164527 -0.1587640494 0.5870366693 4283065130
-0.2889574766 -0.1572092175 0.5836855769 4282867751
-0.2881602347 -0.1561287493 0.5820751786 4282868004
-0.2869308889 -0.1548187137 0.5795919299 4282868004
-0.2865639031 -0.1539775580 0.5788506269 4282670888
-0.2861964703 -0.1531378180 0.5781084299 4282670888
-0.2853968740 -0.1520694345 0.5764932632 4282539555
-0.2850285172 -0.1512334645 0.5757492185 4282539555
-0.2846597731 -0.1503989398 0.5750043392 4282670625
-0.2847226262 -0.1497931331 0.5751312971 4282670625
-0.2843531370 -0.1489605606 0.5743849277 4282604578
-0.2844154537 -0.1483548880 0.5745108128 4282538785
-0.2840452194 -0.1475242674 0.5737629533 4282407967
-0.2836745381 -0.1466950923 0.5730141997 4282407967
-0.2837359905 -0.1460900754 0.5731383562 4282407199
-0.2833645940 -0.1452628970 0.5723881721 4282472992
-0.2834255099 -0.1446580142 0.5725111961 4282604578
-0.2830533683 -0.1438328177 0.5717594624 4282670371
-0.2831137478 -0.1432280838 0.5718814135 4282670371
-0.2827408612 -0.1424048841 0.5711282492 4282538785
-0.2828006744 -0.1418003142 0.5712490082 4282472992
-0.2828602493 -0.1411953419 0.5713693500 4282472992
-0.2829195857 -0.1405900121 0.5714892149 4282539039
-0.2829787135 -0.1399842799 0.5716086626 4282670625
-0.2826041579 -0.1391647458 0.5708520412 4282670625
-0.2826627195 -0.1385591924 0.5709703565 4282933797
-0.2827210426 -0.1379532665 0.5710881948 4283131174
-0.2827791572 -0.1373469681 0.5712055564 4283065381
-0.2828370035 -0.1367402822 0.5713224411 4283196967
-0.2828946412 -0.1361332387 0.5714388490 4283196967
-0.2829520404 -0.1355258226 0.5715547800 4283000356
-0.2830092311 -0.1349180490 0.5716702938 4283131942
-0.2830661535 -0.1343098879 0.5717852712 4283197735
-0.2835570872 -0.1339064389 0.5727769732 4283526700
-0.2836136520 -0.1332966238 0.5728911757 4283789872
-0.2832355499 -0.1324832439 0.5721274614 4283592493
-0.2832915485 -0.1318736374 0.5722405314 4283263528
-0.2837818861 -0.1314649880 0.5732310414 4283329321
-0.2838374674 -0.1308537126 0.5733433366 4283263528
-0.2838928401 -0.1302420944 0.5734551549 4284053044
-0.2839479744 -0.1296301186 0.5735665560 4284118836
-0.2844377756 -0.1292153597 0.5745559335 4283789871
-0.2844925225 -0.1286017299 0.5746665001 4283658285
-0.2845470309 -0.1279877424 0.5747765899 4283592492
-0.2850364447 -0.1275681704 0.5757651925 4283592492
-0.2850905359 -0.1269525439 0.5758745074 4283460906
-0.2855797410 -0.1265294403 0.5768626332 4283460906
-0.2856334448 -0.1259121746 0.5769711137 4283789871
-0.2856868804 -0.1252945662 0.5770791173 4284119090
-0.2857401073 -0.1246766075 0.5771865845 4283790125
-0.2862287164 -0.1242474169 0.5781735778 4283855918
-0.2862815261 -0.1236278266 0.5782802701 4284184883
-0.2867698967 -0.1231951192 0.5792667866 4283987761
-0.2872582078 -0.1227601841 0.5802531242 4283921968
-0.2877463996 -0.1223230213 0.5812392831 4284316475
-0.2882345319 -0.1218836308 0.5822252631 4284579647
-0.2882864177 -0.1212585643 0.5823300481 4284842572
-0.2887742817 -0.1208156645 0.5833154917 4285237330
-0.2892620265 -0.1203705296 0.5843008161 4285171547
-0.2901860774 -0.1201037765 0.5861673355 4285500512
-0.2911101878 -0.1198328957 0.5880339742 4286092398
-0.2915978134 -0.1193791851 0.5890189409 4286618742
-0.2925219238 -0.1191010028 0.5908856392 4287340685
-0.2930094302 -0.1186418757 0.5918704271 4288261787
-0.3033668995 -0.1708789915 0.6141700745 4288522663
-0.3030079603 -0.1699952185 0.6134433746 4286549374
-0.3000691831 -0.1676715314 0.6074938178 4285299307
-0.3018587530 -0.1679925025 0.6111168265 4284247122
-0.2976275384 -0.1649682373 0.6025506854 4283786571
-0.2951148748 -0.1629117131 0.5974637866 4283590722
-0.2930311263 -0.1611022651 0.5932451487 4283459136
-0.2909461260 -0.1593015492 0.5890240669 4283328302
-0.2892904282 -0.1577442735 0.5856720805 4283130923
-0.2880643010 -0.1564277261 0.5831897855 4283065129
-0.2868373692 -0.1551162601 0.5807058215 4283065129
-0.2860403955 -0.1540418565 0.5790923834 4283065132
-0.2856737077 -0.1532018036 0.5783500075 4282999339
-0.2853066027 -0.1523631662 0.5776067972 4282933543
-0.2849390805 -0.1515259594 0.5768627524 4282867750
-0.2845711410 -0.1506901830 0.5761178136 4282802211
-0.2846340239 -0.1500832438 0.5762451887 4282802211
-0.2842653394 -0.1492494196 0.5754987597 4282670372
-0.2838962376 -0.1484170407 0.5747514963 4282604579
-0.2839582860 -0.1478107423 0.5748770833 4282604832
-0.2835884392 -0.1469803303 0.5741283894 4282604832
-0.2832182050 -0.1461513638 0.5733788013 4282604578
-0.2832793593 -0.1455457211 0.5735026002 4282538785
-0.2829083800 -0.1447187513 0.5727515221 4282604578
-0.2829689980 -0.1441132575 0.5728742480 4282670371
-0.2825972736 -0.1432882696 0.5721217394 4282604578
-0.2826573253 -0.1426829249 0.5722433329 4282538785
-0.2822848856 -0.1418599486 0.5714892745 4282538785
-0.2823444009 -0.1412547529 0.5716097951 4282604578
-0.2824036777 -0.1406491846 0.5717297792 4282670625
-0.2824627459 -0.1400432289 0.5718493462 4282736418
-0.2825215757 -0.1394369006 0.5719684362 4282736418
-0.2821474075 -0.1386175901 0.5712109804 4282999590
-0.2822057009 -0.1380114257 0.5713289976 4283196967
-0.2822637260 -0.1374048889 0.5714464784 4283196967
-0.2823215425 -0.1367979944 0.5715635419 4283328553
-0.2828122377 -0.1363995969 0.5725569129 4283262760
-0.2828696668 -0.1357910186 0.5726731420 4282934563
-0.2829268575 -0.1351820678 0.5727889538 4283263528
-0.2829838097 -0.1345727444 0.5729042888 4283329321
-0.2830405533 -0.1339630485 0.5730191469 4283263528
-0.2830970585 -0.1333529949 0.5731335282 4283329321
-0.2831532955 -0.1327425838 0.5732474327 4283329321
-0.2832093239 -0.1321318001 0.5733608603 4283263528
-0.2832651138 -0.1315206587 0.5734738111 4283329321
-0.2833206654 -0.1309091598 0.5735862255 4283460907
-0.2833759785 -0.1302973032 0.5736982226 4283724079
-0.2838650942 -0.1298836768 0.5746884942 4283658286
-0.2839200199 -0.1292701662 0.5747996569 4283724079
-0.2839747071 -0.1286562979 0.5749103427 4283658285
-0.2844634354 -0.1282378584 0.5758998394 4283460906
-0.2845177352 -0.1276223361 0.5760096908 4283789871
-0.2850062549 -0.1272003651 0.5769987106 4284118836
-0.2850601375 -0.1265832186 0.5771077871 4284053043
-0.2851137817 -0.1259656996 0.5772163868 4283987250
-0.2851671875 -0.1253478527 0.5773245096 4284053297
-0.2856551111 -0.1249197870 0.5783123970 4283790125
-0.2857081294 -0.1243002936 0.5784196854 4283921711
-0.2861958146 -0.1238687113 0.5794070363 4284382262
-0.2862484157 -0.1232475936 0.5795134902 4284250423
-0.2867358625 -0.1228124946 0.5805003643 4284118837
-0.2872232199 -0.1223751605 0.5814870000 4284316479
-0.2877104878 -0.1219356060 0.5824735165 4284513858
-0.2881976664 -0.1214938089 0.5834597945 4284908113
-0.2891201973 -0.1212323681 0.5853274465 4285500250
-0.2896072567 -0.1207851693 0.5863135457 4285302880
-0.2900942564 -0.1203357428 0.5872994661 4285763431
-0.2905811369 -0.1198840812 0.5882851481 4286618492
-0.2915036380 -0.1196089834 0.5901528001 4287408008
-0.2924262285 -0.1193297505 0.5920205116 4287801240
-0.3023814559 -0.1707077622 0.6135546565 4289575353
-0.3020231128 -0.1698245704 0.6128275990 4286878087
-0.3008061349 -0.1684621274 0.6103582382 4285364848
-0.2995883226 -0.1671046913 0.6078872085 4284313431
-0.2983696759 -0.1657523066 0.6054145098 4283589708
-0.2954325974 -0.1634546369 0.5994548798 4283656515
-0.2929233909 -0.1614059806 0.5943635106 4283524929
-0.2908423841 -0.1596036106 0.5901409984 4283394095
-0.2879007459 -0.1573403031 0.5841722488 4283196716
-0.2892555296 -0.1574285924 0.5869211555 4283065129
-0.2871714830 -0.1556469351 0.5826925039 4282999336
-0.2859462500 -0.1543381959 0.5802063942 4282999339
-0.2855803668 -0.1534968913 0.5794640183 4282999339
-0.2852140963 -0.1526570171 0.5787208080 4282867750
-0.2848473787 -0.1518185735 0.5779767036 4282801957
-0.2844802737 -0.1509815603 0.5772318244 4282736164
-0.2841127217 -0.1501459777 0.5764860511 4282736164
-0.2846058905 -0.1497649699 0.5774867535 4282670372
-0.2838070691 -0.1487047821 0.5758658051 4282670372
-0.2834383547 -0.1478725970 0.5751177073 4282670625
-0.2835001051 -0.1472656727 0.5752429962 4282736418
-0.2831306756 -0.1464354694 0.5744934082 4282736164
-0.2827608287 -0.1456067264 0.5737429857 4282538785
-0.2828217149 -0.1450004578 0.5738664865 4282538785
-0.2824511528 -0.1441736966 0.5731145740 4282538785
-0.2825114727 -0.1435675919 0.5732369423 4282538785
-0.2821401656 -0.1427428275 0.5724835396 4282604578
-0.2821999490 -0.1421368569 0.5726048350 4282736418
-0.2822594941 -0.1415305138 0.5727256536 4282802211
-0.2818871140 -0.1407083124 0.5719701052 4282802211
-0.2819461226 -0.1401021183 0.5720898509 4282736418
-0.2820048928 -0.1394955665 0.5722090602 4282868004
-0.2820634246 -0.1388886124 0.5723278522 4283131176
-0.2821217179 -0.1382813007 0.5724461675 4283196969
-0.2821798027 -0.1376736015 0.5725640059 4283262762
-0.2822376490 -0.1370655298 0.5726813674 4283394346
-0.2822952569 -0.1364571005 0.5727982521 4283394346
-0.2827850282 -0.1360563189 0.5737920403 4283131174
-0.2828422487 -0.1354462057 0.5739081502 4283394346
-0.2828992605 -0.1348357052 0.5740238428 4283329323
-0.2829560041 -0.1342248619 0.5741389990 4283197737
-0.2830125391 -0.1336136311 0.5742536783 4283197737
-0.2830688357 -0.1330020428 0.5743678808 4283329323
-0.2831248939 -0.1323900968 0.5744816661 4283263528
-0.2831807137 -0.1317777783 0.5745949149 4283197735
-0.2832362950 -0.1311651021 0.5747076869 4283592493
-0.2832916379 -0.1305520684 0.5748199821 4283789872
-0.2833467424 -0.1299386770 0.5749318004 4283789872
-0.2838349342 -0.1295226663 0.5759223700 4283658286
-0.2838896513 -0.1289076209 0.5760334134 4283592493
-0.2839441299 -0.1282922179 0.5761439204 4283460907
-0.2844319344 -0.1278713793 0.5771337748 4283724078
-0.2844860256 -0.1272543371 0.5772435069 4284184629
-0.2849735916 -0.1268299818 0.5782328248 4284382011
-0.2850272655 -0.1262112856 0.5783417225 4284118839
-0.2850807011 -0.1255922467 0.5784501433 4284053044
-0.2851338983 -0.1249728575 0.5785580873 4283855665
-0.2856209278 -0.1245424002 0.5795462728 4284053044
-0.2856737077 -0.1239213794 0.5796533823 4284447802
-0.2861604691 -0.1234873980 0.5806410909 4284315964
-0.2862128317 -0.1228647456 0.5807473063 4284118585
-0.2866993546 -0.1224272549 0.5817345381 4284447812
-0.2871857882 -0.1219875216 0.5827215314 4284579398
-0.2881066799 -0.1217291653 0.5845900774 4285105239
-0.2885929942 -0.1212840304 0.5855768919 4285828962
-0.2890792489 -0.1208366603 0.5865634680 4285696875
-0.2900001705 -0.1205678135 0.5884320736 4286091633
-0.2904862761 -0.1201150343 0.5894184709 4286749312
-0.2914072275 -0.1198388860 0.5912871361 4287802000
-0.3006109595 -0.1694123149 0.6113399267 4287667091
-0.2998243868 -0.1682915837 0.6097403169 4285166957
-0.2990372181 -0.1671740413 0.6081394553 4284378456
-0.2978208661 -0.1658211201 0.6056658030 4283523147
-0.2953178287 -0.1637602001 0.6005755067 4283590722
-0.2932421267 -0.1619465798 0.5963542461 4283459136
-0.2911652029 -0.1601416618 0.5921304822 4283394095
-0.2895159721 -0.1585804075 0.5887764692 4283196716
-0.2882947326 -0.1572600752 0.5862929225 4282999336
-0.2870726883 -0.1559448242 0.5838077664 4282933543
-0.2862790525 -0.1548668444 0.5821937323 4282933546
-0.2854848206 -0.1537921131 0.5805785060 4282867753
-0.2846899629 -0.1527206451 0.5789620280 4282933543
-0.2847534716 -0.1521113068 0.5790911913 4282867750
-0.2843871713 -0.1512730569 0.5783462524 4282736164
-0.2840204537 -0.1504362375 0.5776004791 4282604578
-0.2840830982 -0.1498275101 0.5777279139 4282538786
-0.2837156355 -0.1489926577 0.5769805908 4282538786
-0.2833477557 -0.1481592357 0.5762324929 4282539039
-0.2829794884 -0.1473272592 0.5754835010 4282539039
-0.2830409408 -0.1467197090 0.5756084919 4282670371
-0.2826719284 -0.1458897144 0.5748580694 4282604578
-0.2827328146 -0.1452822983 0.5749819279 4282538785
-0.2823630869 -0.1444543004 0.5742299557 4282604578
-0.2824234366 -0.1438470334 0.5743527412 4282670371
-0.2820529342 -0.1430210173 0.5735992789 4282736164
-0.2821127474 -0.1424138993 0.5737209320 4282802211
-0.2821723223 -0.1418063939 0.5738420486 4282868004
-0.2822316885 -0.1411985159 0.5739627481 4282868004
-0.2818598151 -0.1403755993 0.5732065439 4282868004
-0.2819186151 -0.1397678703 0.5733261108 4283065383
-0.2819772065 -0.1391597688 0.5734452009 4283262762
-0.2820355296 -0.1385512948 0.5735638738 4283328555
-0.2820936441 -0.1379424334 0.5736820102 4283328555
-0.2821515203 -0.1373331994 0.5737997293 4283328555
-0.2822091579 -0.1367235929 0.5739169121 4283460141
-0.2822665572 -0.1361136138 0.5740336776 4283196969
-0.2823237181 -0.1355032623 0.5741499662 4283262762
-0.2823806703 -0.1348925382 0.5742657781 4283328555
-0.2824373841 -0.1342814565 0.5743810534 4283328555
-0.2824938595 -0.1336699873 0.5744959116 4283394348
-0.2825500965 -0.1330581754 0.5746102929 4283394348
-0.2830381989 -0.1326484978 0.5756029487 4283263530
-0.2830940485 -0.1320350170 0.5757164955 4283197737
-0.2827173769 -0.1312205195 0.5749505162 4283724081
-0.2827726603 -0.1306072474 0.5750629306 4283724081
-0.2832601666 -0.1301923692 0.5760543346 4283724081
-0.2833150625 -0.1295774430 0.5761659741 4283855667
-0.2838023603 -0.1291590482 0.5771569610 4283921458
-0.2838568687 -0.1285424680 0.5772678256 4283526700
-0.2839111090 -0.1279255301 0.5773781538 4283526700
-0.2843980193 -0.1275023073 0.5783683062 4284250423
-0.2844518721 -0.1268837303 0.5784778595 4284381759
-0.2849385440 -0.1264569759 0.5794675946 4284250173
-0.2849919796 -0.1258367598 0.5795763135 4284118585
-0.2850452065 -0.1252161860 0.5796844959 4284118585
-0.2855314612 -0.1247846112 0.5806733966 4284184378
-0.2855842710 -0.1241624057 0.5807808042 4284315964
-0.2860702872 -0.1237273142 0.5817691684 4284250174
-0.2869897187 -0.1234765127 0.5836389661 4284184381
-0.2866084278 -0.1226648614 0.5828635693 4284644941
-0.2875277698 -0.1224086508 0.5847331882 4284973906
-0.2880134284 -0.1219646260 0.5857208371 4285433953
-0.2884989679 -0.1215183660 0.5867083073 4285960297
-0.2894183397 -0.1212516651 0.5885779858 4285960050
-0.2899037898 -0.1207999960 0.5895652175 4286420601
-0.2908232212 -0.1205259785 0.5914350152 4286617475
-0.2913085222 -0.1200688854 0.5924219489 4288328093
-0.2996287048 -0.1692410260 0.6107218266 4288719779
-0.2988435626 -0.1681207567 0.6091214418 4285166957
-0.2980577648 -0.1670037061 0.6075198054 4284444251
-0.2976990938 -0.1661285460 0.6067887545 4283654735
-0.2956286669 -0.1643036753 0.6025686860 4283590721
-0.2931290865 -0.1622506380 0.5974739194 4283524928
-0.2914841771 -0.1606800407 0.5941210985 4283459888
-0.2898382246 -0.1591163278 0.5907662511 4283262509
-0.2886195183 -0.1577936560 0.5882821679 4283065129
-0.2873999774 -0.1564760506 0.5857964754 4282999336
-0.2861796319 -0.1551635265 0.5833091140 4282933546
-0.2853870094 -0.1540874690 0.5816934705 4282867753
-0.2850223482 -0.1532451063 0.5809502602 4282933543
-0.2842285931 -0.1521746516 0.5793323517 4282867750
-0.2838630378 -0.1513360739 0.5785872340 4282802211
-0.2839259207 -0.1507266164 0.5787154436 4282670625
-0.2835596204 -0.1498899907 0.5779687762 4282604578
-0.2836219668 -0.1492806524 0.5780959129 4282670371
-0.2832549214 -0.1484459788 0.5773477554 4282736418
-0.2833167315 -0.1478367597 0.5774737597 4282736418
-0.2829489410 -0.1470040679 0.5767241120 4282670371
-0.2825807631 -0.1461728215 0.5759736300 4282670371
-0.2826417089 -0.1455642581 0.5760978460 4282604832
-0.2822727561 -0.1447350085 0.5753458738 4282604832
-0.2823331654 -0.1441265941 0.5754689574 4282736418
-0.2819634974 -0.1432993263 0.5747154951 4282736418
-0.2820233405 -0.1426910609 0.5748374462 4282736418
-0.2820829451 -0.1420823932 0.5749589801 4282868004
-0.2821423411 -0.1414733529 0.5750799775 4282802211
-0.2822014689 -0.1408639252 0.5752005577 4282868004
-0.2818301320 -0.1400403082 0.5744436383 4283196969
-0.2818887234 -0.1394310445 0.5745630860 4283394348
-0.2819471061 -0.1388214082 0.5746820569 4283460141
-0.2820052207 -0.1382113844 0.5748005509 4283328555
-0.2820631266 -0.1376009881 0.5749185681 4283131176
-0.2821207941 -0.1369902194 0.5750361085 4283328555
-0.2821782529 -0.1363790631 0.5751531720 4283328301
-0.2822354436 -0.1357675493 0.5752697587 4283130922
-0.2822924256 -0.1351556629 0.5753859282 4283130922
-0.2823491395 -0.1345434040 0.5755015612 4283328301
-0.2824056447 -0.1339307725 0.5756167173 4283328301
-0.2824619114 -0.1333177835 0.5757313967 4283262508
-0.2825179398 -0.1327044219 0.5758455992 4283197483
-0.2830051482 -0.1322923601 0.5768386126 4283329069
-0.2830607891 -0.1316773295 0.5769520402 4283526702
-0.2826846242 -0.1308621615 0.5761852860 4283921460
-0.2827396989 -0.1302473396 0.5762975812 4283921460
-0.2832262814 -0.1298300922 0.5772894025 4283526702
-0.2832809687 -0.1292136312 0.5774008632 4283724081
-0.2837673426 -0.1287928373 0.5783921480 4283855667
-0.2838216126 -0.1281747222 0.5785028338 4283724079
-0.2843077481 -0.1277503967 0.5794937015 4284118837
-0.2843616307 -0.1271306276 0.5796035528 4284118588
-0.2844153047 -0.1265105158 0.5797128677 4284184381
-0.2849010229 -0.1260813624 0.5807029605 4284184380
-0.2849542797 -0.1254596114 0.5808114409 4284315966
-0.2854397595 -0.1250269413 0.5818009973 4284447552
-0.2854925990 -0.1244035363 0.5819087029 4284447552
-0.2859778404 -0.1239673346 0.5828977227 4284578885
-0.2868956923 -0.1237155050 0.5847685933 4284710471
-0.2873808444 -0.1232738867 0.5857574344 4284841808
-0.2874330282 -0.1226453334 0.5858637691 4285368152
-0.2879178822 -0.1222001910 0.5868521333 4285762920
-0.2884026766 -0.1217528135 0.5878402591 4286223471
-0.2893204987 -0.1214850694 0.5897109509 4286683521
-0.2898051739 -0.1210322753 0.5906988382 4287341451
-0.2907230258 -0.1207572073 0.5925696492 4287604374
-0.2978636026 -0.1679496765 0.6085016131 4287074958
-0.2975060642 -0.1670728028 0.6077712178 4284509793
-0.2967211604 -0.1659585238 0.6061677337 4283917656
-0.2955085933 -0.1646095961 0.6036906242 4283721543
-0.2934409380 -0.1627917737 0.5994666219 4283392578
-0.2917993069 -0.1612187326 0.5961129665 4283130163
-0.2901566923 -0.1596525759 0.5927572250 4283064370
-0.2889404595 -0.1583275497 0.5902726650 4282604579
-0.2877234221 -0.1570075899 0.5877863765 4282933544
-0.2865056098 -0.1556927264 0.5852984786 4282999336
-0.2857146561 -0.1546144038 0.5836827159 4282670371
-0.2849231362 -0.1535393447 0.5820657015 4282671141
-0.2845588923 -0.1526971757 0.5813215971 4282736934
-0.2841942310 -0.1518564373 0.5805766582 4282671393
-0.2838291824 -0.1510171294 0.5798308849 4282605600
-0.2834636867 -0.1501792669 0.5790842175 4282539553
-0.2835260630 -0.1495687664 0.5792116523 4282539553
-0.2831598520 -0.1487328708 0.5784634948 4282539556
-0.2832216918 -0.1481224895 0.5785898566 4282539556
-0.2828547359 -0.1472885609 0.5778402090 4282670371
-0.2829160094 -0.1466783136 0.5779653788 4282604578
-0.2825483382 -0.1458463520 0.5772142410 4282604578
-0.2821802199 -0.1450158507 0.5764622688 4282670371
-0.2822406590 -0.1444062740 0.5765856504 4282670371
-0.2818717957 -0.1435777694 0.5758321881 4282736164
-0.2819316685 -0.1429683417 0.5759544969 4282801957
-0.2815621197 -0.1421418488 0.5751994848 4282801957
-0.2816214263 -0.1415325701 0.5753207207 4282801957
-0.2816805243 -0.1409229040 0.5754414201 4282933543
-0.2817393839 -0.1403128654 0.5755616426 4283196715
-0.2813684344 -0.1394894868 0.5748038888 4283262508
-0.2814267576 -0.1388796121 0.5749229789 4283262762
-0.2814848423 -0.1382693499 0.5750416517 4283196969
-0.2815426886 -0.1376587301 0.5751597881 4283196969
-0.2816002965 -0.1370477229 0.5752775073 4283196969
-0.2816576660 -0.1364363432 0.5753946900 4283131174
-0.2817148268 -0.1358245909 0.5755114555 4283131174
-0.2817717195 -0.1352124661 0.5756277442 4283131174
-0.2818284035 -0.1345999688 0.5757434964 4283196967
-0.2818848491 -0.1339871138 0.5758588314 4283328555
-0.2819410563 -0.1333738714 0.5759736300 4283262762
-0.2824275494 -0.1329629719 0.5769675374 4283131690
-0.2824833691 -0.1323480755 0.5770815611 4283263276
-0.2825389802 -0.1317328066 0.5771951079 4283526448
-0.2825943232 -0.1311171800 0.5773081779 4283526448
-0.2826494277 -0.1305011958 0.5774207711 4283658036
-0.2831352353 -0.1300828457 0.5784132481 4283723829
-0.2831899524 -0.1294652075 0.5785250068 4283789622
-0.2832444310 -0.1288471967 0.5786362886 4283855415
-0.2837298810 -0.1284240186 0.5796279907 4283855928
-0.2837839425 -0.1278043687 0.5797384977 4283790135
-0.2842691541 -0.1273776442 0.5807297230 4283788601
-0.2843228281 -0.1267563403 0.5808393359 4283788601
-0.2848078012 -0.1263260990 0.5818300843 4284184127
-0.2848610580 -0.1257031411 0.5819389224 4284513092
-0.2849141061 -0.1250798553 0.5820472240 4284316228
-0.2853986621 -0.1246447787 0.5830371380 4284645193
-0.2863149643 -0.1243950948 0.5849090815 4285104980
-0.2867994308 -0.1239546016 0.5858987570 4285039187
-0.2872838080 -0.1235118657 0.5868882537 4284644179
-0.2877680659 -0.1230669022 0.5878775716 4285499488
-0.2878201008 -0.1224358603 0.5879839063 4285828461
-0.2887363732 -0.1221702546 0.5898556709 4286223219
-0.2892203629 -0.1217185780 0.5908444524 4286946693
-0.2901366651 -0.1214456484 0.5927163363 4287604623
-0.2965276241 -0.1669020355 0.6071499586 4285364591
-0.2961702943 -0.1660271287 0.6064183116 4283456594
-0.2949600220 -0.1646776646 0.6039402485 4283326787
-0.2933226228 -0.1630961895 0.6005876064 4283392580
-0.2921106219 -0.1617577523 0.5981060266 4282932530
-0.2904712856 -0.1601891518 0.5947493911 4282932530
-0.2888309360 -0.1586274505 0.5913907290 4282933546
-0.2880430520 -0.1575394571 0.5897775292 4282736167
-0.2868277133 -0.1562222391 0.5872890949 4282538786
-0.2856115699 -0.1549101025 0.5847989917 4282801958
-0.2852486670 -0.1540643424 0.5840559602 4282933543
-0.2848853767 -0.1532200128 0.5833120346 4282933543
-0.2845216393 -0.1523771137 0.5825672746 4282736932
-0.2833028734 -0.1510798931 0.5800718665 4282671139
-0.2837929130 -0.1506956071 0.5810752511 4282605348
-0.2834279239 -0.1498570144 0.5803279281 4282605348
-0.2830625176 -0.1490198672 0.5795797706 4282605349
-0.2831243873 -0.1484083384 0.5797064304 4282605349
-0.2827582657 -0.1475731581 0.5789567828 4282604578
-0.2828195989 -0.1469617635 0.5790823102 4282604578
-0.2824527323 -0.1461285651 0.5783311129 4282538785
-0.2820854485 -0.1452968121 0.5775791407 4282538785
-0.2821458876 -0.1446860880 0.5777028799 4282472992
-0.2817778885 -0.1438563317 0.5769493580 4282604578
-0.2818377912 -0.1432457417 0.5770720243 4282801957
-0.2814690471 -0.1424179971 0.5763170123 4282867750
-0.2815283835 -0.1418075711 0.5764385462 4282867750
-0.2815875113 -0.1411967427 0.5765596032 4283065129
-0.2812177241 -0.1403715611 0.5758024454 4283262508
-0.2812762856 -0.1397609115 0.5759223700 4283262508
-0.2813346088 -0.1391498744 0.5760418177 4283196715
-0.2813927233 -0.1385384500 0.5761607885 4283130922
-0.2814505994 -0.1379266530 0.5762792826 4283130922
-0.2815082371 -0.1373144835 0.5763972998 4283130922
-0.2815656662 -0.1367019415 0.5765148401 4283000104
-0.2816228271 -0.1360890269 0.5766319036 4282934311
-0.2816797793 -0.1354757249 0.5767484903 4282934311
-0.2817364931 -0.1348620653 0.5768646002 4283000104
-0.2817929387 -0.1342480332 0.5769802332 4283065897
-0.2818491757 -0.1336336285 0.5770953894 4283065897
-0.2819052041 -0.1330188662 0.5772100687 4283066412
-0.2823907733 -0.1326055527 0.5782042742 4283132205
-0.2824463844 -0.1319891214 0.5783181787 4283197998
-0.2825017571 -0.1313723177 0.5784315467 4283329584
-0.2825568914 -0.1307551563 0.5785444379 4283526708
-0.2830419540 -0.1303357184 0.5795376301 4283658294
-0.2830967009 -0.1297168881 0.5796496868 4283724087
-0.2831512094 -0.1290977001 0.5797613263 4283789880
-0.2836358845 -0.1286734194 0.5807536840 4283724600
-0.2836899757 -0.1280525923 0.5808644891 4283658807
-0.2837438583 -0.1274313927 0.5809747577 4283658044
-0.2842281163 -0.1270022839 0.5819663405 4283592251
-0.2847123146 -0.1265709251 0.5829577446 4283855936
-0.2851964235 -0.1261373311 0.5839489698 4284250694
-0.2852495611 -0.1255118996 0.5840577483 4284448075
-0.2857334316 -0.1250747740 0.5850484967 4284908626
-0.2862171829 -0.1246354058 0.5860390067 4285499999
-0.2867008746 -0.1241938025 0.5870293975 4285565792
-0.2871844769 -0.1237499565 0.5880195498 4285368162
-0.2876679897 -0.1233038753 0.5890095830 4286026092
-0.2881514132 -0.1228555515 0.5899993777 4286552187
-0.2886347175 -0.1224049851 0.5909889936 4286683773
-0.2895494699 -0.1221342012 0.5928620100 4287341198
-0.2951933742 -0.1658566743 0.6057956815 4283127374
-0.2944107950 -0.1647456735 0.6041896939 4283194950
-0.2932020128 -0.1634007394 0.6017090678 4282800192
-0.2919924259 -0.1620608568 0.5992267728 4282932534
-0.2907820344 -0.1607260406 0.5967427492 4282735155
-0.2895708382 -0.1593963057 0.5942571163 4282538536
-0.2883588374 -0.1580716372 0.5917698145 4282538536
-0.2871460021 -0.1567520648 0.5892809033 4282670372
-0.2859323621 -0.1554375887 0.5867902637 4282867751
-0.2855703831 -0.1545896679 0.5860474110 4282999337
-0.2852079868 -0.1537431628 0.5853037238 4282867751
-0.2844187617 -0.1526692212 0.5836840272 4282736935
-0.2836289406 -0.1515985429 0.5820631385 4282736935
-0.2841182947 -0.1512122750 0.5830674171 4282671141
-0.2829008400 -0.1499192715 0.5805689692 4282671141
-0.2829629779 -0.1493069977 0.5806964636 4282671141
-0.2825979888 -0.1484700441 0.5799474120 4282671141
-0.2826595604 -0.1478578895 0.5800738335 4282736165
-0.2822938263 -0.1470229179 0.5793232918 4282736165
-0.2819277048 -0.1461893916 0.5785719156 4282736164
-0.2819884121 -0.1455778927 0.5786964893 4282670371
-0.2816215456 -0.1447463632 0.5779436231 4282604578
-0.2816816866 -0.1441350132 0.5780670643 4282736164
-0.2813141048 -0.1433054805 0.5773126483 4282867750
-0.2813737094 -0.1426942647 0.5774350166 4282933543
-0.2810053825 -0.1418667436 0.5766791105 4282933543
-0.2810644507 -0.1412556916 0.5768003464 4283130922
-0.2811232805 -0.1406442672 0.5769210458 4283262508
-0.2811818719 -0.1400324404 0.5770413280 4283196715
-0.2812402546 -0.1394202411 0.5771610737 4283196715
-0.2812983692 -0.1388076693 0.5772804022 4283130922
-0.2809280455 -0.1379843652 0.5765203834 4283065129
-0.2809856236 -0.1373719573 0.5766385794 4283065129
-0.2810429633 -0.1367591918 0.5767562389 4282934311
-0.2811000943 -0.1361460239 0.5768734813 4282868518
-0.2811569870 -0.1355324984 0.5769901872 4282868518
-0.2812136114 -0.1349186003 0.5771064758 4282934311
-0.2812700272 -0.1343043298 0.5772222281 4282934313
-0.2813262045 -0.1336897016 0.5773375034 4283065899
-0.2813821733 -0.1330747008 0.5774523616 4283132205
-0.2818668783 -0.1326612383 0.5784471035 4283132205
-0.2823515534 -0.1322455555 0.5794417262 4283131950
-0.2824069560 -0.1316275746 0.5795554519 4283263536
-0.2824621201 -0.1310092360 0.5796686411 4283460915
-0.2825170457 -0.1303905249 0.5797813535 4283658294
-0.2830011845 -0.1299686879 0.5807749033 4283658809
-0.2830557227 -0.1293483227 0.5808867812 4283790395
-0.2835396230 -0.1289229393 0.5818798542 4283856188
-0.2835937440 -0.1283009201 0.5819909573 4283790395
-0.2836476266 -0.1276785433 0.5821015239 4283724867
-0.2837013006 -0.1270558089 0.5822116733 4283724867
-0.2841846347 -0.1266243011 0.5832035542 4283988039
-0.2850978971 -0.1263811588 0.5850777626 4284448590
-0.2855811417 -0.1259442121 0.5860695243 4284974168
-0.2856341600 -0.1253163069 0.5861782432 4285368926
-0.2861171663 -0.1248758286 0.5871694684 4285763433
-0.2866000831 -0.1244331077 0.5881605148 4285829226
-0.2870829105 -0.1239881441 0.5891513824 4285696878
-0.2875656188 -0.1235409454 0.5901420712 4286420601
-0.2880482674 -0.1230915040 0.5911325216 4286814854
-0.2889614701 -0.1228228658 0.5930066109 4287341198
-0.2942173779 -0.1656859517 0.6051720977 4285561204
-0.2938608527 -0.1648136079 0.6044387817 4283326538
-0.2930791676 -0.1637053937 0.6028309464 4282997573
-0.2918719947 -0.1623640805 0.6003479362 4282669109
-0.2910889685 -0.1612632424 0.5987372994 4282669109
-0.2898802459 -0.1599311531 0.5962511897 4282866990
-0.2890959084 -0.1588377208 0.5946378112 4282538025
-0.2878856659 -0.1575148702 0.5921485424 4282867753
-0.2866746485 -0.1561971158 0.5896576047 4282604581
-0.2858882546 -0.1551152915 0.5880401134 4282801958
-0.2851012647 -0.1540367305 0.5864213109 4282801958
-0.2847392857 -0.1531904191 0.5856767297 4282671142
-0.2835254371 -0.1518894285 0.5831800103 4282736935
-0.2844398618 -0.1517292410 0.5850608349 4282736934
-0.2832249105 -0.1504338831 0.5825618505 4282671141
-0.2828611434 -0.1495942473 0.5818136334 4282671139
-0.2824969888 -0.1487560421 0.5810646415 4282671139
-0.2821324170 -0.1479192972 0.5803147554 4282867751
-0.2821936905 -0.1473065168 0.5804407597 4282933544
-0.2818284035 -0.1464717537 0.5796893835 4282933544
-0.2818891406 -0.1458591074 0.5798143148 4282867751
-0.2815230787 -0.1450263262 0.5790613890 4282867751
-0.2815832794 -0.1444138139 0.5791851878 4282999337
-0.2812165022 -0.1435830295 0.5784307718 4282999337
-0.2812761366 -0.1429706663 0.5785534978 4282933544
-0.2809086442 -0.1421418935 0.5777975321 4282933543
-0.2809677422 -0.1415296793 0.5779191256 4283130922
-0.2810266018 -0.1409170926 0.5780401826 4283196715
-0.2810852230 -0.1403041035 0.5781607628 4283130922
-0.2811436057 -0.1396907419 0.5782808661 4283065129
-0.2812017798 -0.1390769929 0.5784004927 4283065129
-0.2808322608 -0.1382524520 0.5776404738 4283065129
-0.2808898687 -0.1376388818 0.5777589679 4283065129
-0.2809472680 -0.1370249242 0.5778769851 4282933797
-0.2810043991 -0.1364106089 0.5779945254 4282999590
-0.2810613215 -0.1357959062 0.5781115890 4283065129
-0.2811179757 -0.1351808459 0.5782281756 4282999336
-0.2811744213 -0.1345653981 0.5783442855 4282999336
-0.2812306285 -0.1339495927 0.5784598589 4283130922
-0.2812866271 -0.1333334148 0.5785750151 4283131693
-0.2817705870 -0.1329188794 0.5795704722 4283197486
-0.2818261683 -0.1323010176 0.5796847939 4283131439
-0.2823098898 -0.1318829358 0.5806797743 4283263025
-0.2823650837 -0.1312634200 0.5807933211 4283460917
-0.2824200392 -0.1306435317 0.5809063315 4283658296
-0.2824747562 -0.1300232857 0.5810188651 4283921470
-0.2829579711 -0.1295990497 0.5820127726 4284118849
-0.2834410965 -0.1291725636 0.5830065012 4284053313
-0.2834952474 -0.1285493672 0.5831179023 4283987520
-0.2839781344 -0.1281193346 0.5841111541 4283857482
-0.2840318978 -0.1274944842 0.5842217207 4283923275
-0.2845145464 -0.1270609051 0.5852144957 4284185679
-0.2849971056 -0.1266251057 0.5862070918 4284383058
-0.2854795754 -0.1261870414 0.5871995091 4285039708
-0.2859619856 -0.1257467568 0.5881917477 4285631845
-0.2860148549 -0.1251163483 0.5883004665 4286157941
-0.2864969969 -0.1246725172 0.5892921686 4286355320
-0.2874086499 -0.1244124100 0.5911673307 4285565042
-0.2878906727 -0.1239631400 0.5921588540 4286157179
-0.2883726358 -0.1235116348 0.5931501389 4287209616
-0.2933102548 -0.1648814678 0.6046876907 4284378973
-0.2925300598 -0.1637728363 0.6030792594 4282734148
-0.2917492688 -0.1626674235 0.6014695764 4282997822
-0.2909678519 -0.1615652591 0.5998586416 4282471478
-0.2897615731 -0.1602317244 0.5973717570 4282274854
-0.2889788449 -0.1591369510 0.5957580805 4282538026
-0.2881954610 -0.1580454409 0.5941430926 4282407202
-0.2869869769 -0.1567253321 0.5916516185 4282407202
-0.2862022817 -0.1556412429 0.5900339484 4282538788
-0.2854169905 -0.1545604169 0.5884150267 4282538788
-0.2850559354 -0.1537119448 0.5876706243 4282604581
-0.2842695415 -0.1526367515 0.5860493779 4282736167
-0.2839075327 -0.1517920643 0.5853030682 4282671142
-0.2831200063 -0.1507225037 0.5836794972 4282671142
-0.2827570736 -0.1498816162 0.5829313397 4282605600
-0.2828190327 -0.1492666304 0.5830590725 4282671393
-0.2824553847 -0.1484277248 0.5823093653 4282801958
-0.2820913196 -0.1475902498 0.5815587640 4282801958
-0.2817268372 -0.1467542350 0.5808073282 4282801958
-0.2817876041 -0.1461404264 0.5809326172 4282867751
-0.2814223766 -0.1453063935 0.5801796913 4282933544
-0.2814826071 -0.1446927339 0.5803038478 4282999337
-0.2815425992 -0.1440786719 0.5804275274 4282933544
-0.2811763287 -0.1432471722 0.5796723962 4282867751
-0.2812357545 -0.1426332593 0.5797949433 4282933544
-0.2808687687 -0.1418037862 0.5790383816 4282999337
-0.2809276581 -0.1411900222 0.5791597366 4283065130
-0.2809863091 -0.1405758858 0.5792806745 4283065130
-0.2810447216 -0.1399613619 0.5794011354 4282999337
-0.2806763649 -0.1391350031 0.5786417127 4282999337
-0.2807342410 -0.1385206431 0.5787610412 4282999337
-0.2807918787 -0.1379059106 0.5788798332 4282999337
-0.2808492780 -0.1372907907 0.5789982080 4282933286
-0.2809064686 -0.1366752982 0.5791160464 4283064872
-0.2809633911 -0.1360594332 0.5792334676 4282999336
-0.2810201049 -0.1354431957 0.5793503523 4282999336
-0.2810765803 -0.1348265857 0.5794667602 4283065129
-0.2815600634 -0.1344135702 0.5804635286 4283196715
-0.2816161513 -0.1337952763 0.5805791616 4283262509
-0.2816720009 -0.1331766099 0.5806943178 4283262509
-0.2817276120 -0.1325575858 0.5808089375 4283131439
-0.2822105885 -0.1321384013 0.5818046331 4283263025
-0.2822657824 -0.1315177083 0.5819184780 4283460917
-0.2823207676 -0.1308966428 0.5820318460 4283724089
-0.2823755145 -0.1302752197 0.5821446776 4284053056
-0.2828579545 -0.1298498809 0.5831392407 4284184642
-0.2833403051 -0.1294223070 0.5841336846 4284184642
-0.2838225663 -0.1289924681 0.5851279497 4284184642
-0.2843047678 -0.1285603940 0.5861220360 4283791689
-0.2843586206 -0.1279334128 0.5862330794 4284120654
-0.2844122648 -0.1273060590 0.5863435864 4284646232
-0.2848940492 -0.1268691421 0.5873368979 4284975197
-0.2853757441 -0.1264299899 0.5883299708 4285828972
-0.2858573794 -0.1259885728 0.5893228650 4286552695
-0.2863388956 -0.1255449206 0.5903155804 4287012484
-0.2868203521 -0.1250990331 0.5913081169 4287078277
-0.2877305150 -0.1248369291 0.5931845307 4286287999
-0.2882118523 -0.1243855953 0.5941768885 4287209101
-0.2919802964 -0.1638402045 0.6033273339 4283523666
-0.2912010252 -0.1627343744 0.6017171144 4282142262
-0.2908445001 -0.1618673950 0.6009804010 4282273848
-0.2896406353 -0.1605324298 0.5984928012 4282406190
-0.2888595164 -0.1594363153 0.5968787670 4282406190
-0.2880777717 -0.1583434492 0.5952634215 4281814813
-0.2872954309 -0.1572538465 0.5936468244 4282341157
-0.2865124643 -0.1561675072 0.5920289755 4282275616
-0.2861528099 -0.1553145200 0.5912858844 4282341409
-0.2853687406 -0.1542337835 0.5896657109 4282406948
-0.2845840454 -0.1531563252 0.5880442858 4282472741
-0.2837987542 -0.1520821303 0.5864216089 4282473509
-0.2834371626 -0.1512376368 0.5856744647 4282473509
-0.2830751836 -0.1503945887 0.5849264264 4282473760
-0.2827127576 -0.1495529711 0.5841775537 4282539553
-0.2823499143 -0.1487128139 0.5834278464 4282538788
-0.2819866836 -0.1478741020 0.5826772451 4282604581
-0.2820477784 -0.1472586095 0.5828035474 4282736167
-0.2816838026 -0.1464218795 0.5820513964 4282867753
-0.2817443907 -0.1458065212 0.5821765661 4282933546
-0.2813796699 -0.1449717730 0.5814229846 4282933546
-0.2814396918 -0.1443565488 0.5815469623 4282867751
-0.2814994752 -0.1437409371 0.5816705227 4282867751
-0.2811337113 -0.1429087371 0.5809147358 4282933544
-0.2811929584 -0.1422932744 0.5810371041 4282933544
-0.2808264494 -0.1414630860 0.5802798271 4282999337
-0.2808851302 -0.1408477724 0.5804011226 4282999337
-0.2809436023 -0.1402320862 0.5805218816 4282867751
-0.2805760503 -0.1394044757 0.5797623992 4282867751
-0.2806339562 -0.1387889534 0.5798820853 4282933544
-0.2806916237 -0.1381730437 0.5800012350 4282933544
-0.2807490528 -0.1375567615 0.5801199079 4282867750
-0.2808062434 -0.1369401067 0.5802381039 4282933543
-0.2808632255 -0.1363230646 0.5803558230 4282933544
-0.2809199691 -0.1357056648 0.5804730654 4282999337
-0.2814028263 -0.1352928728 0.5814707875 4283000107
-0.2814591825 -0.1346737742 0.5815872550 4283131693
-0.2815152705 -0.1340543032 0.5817031860 4283131439
-0.2819977701 -0.1336366385 0.5827001929 4283131439
-0.2820535004 -0.1330154985 0.5828153491 4283131439
-0.2821089923 -0.1323939860 0.5829299688 4283328818
-0.2821642458 -0.1317721158 0.5830441117 4283526712
-0.2830731571 -0.1315466911 0.5849222541 4283789884
-0.2831280828 -0.1309222132 0.5850358009 4283987520
-0.2831827998 -0.1302973628 0.5851488113 4284053313
-0.2836644351 -0.1298677325 0.5861440301 4284250435
-0.2837187350 -0.1292412132 0.5862562656 4284316228
-0.2842001617 -0.1288080364 0.5872510076 4284185679
-0.2842540443 -0.1281798631 0.5873623490 4284712023
-0.2847352326 -0.1277431250 0.5883566737 4285303650
-0.2852163315 -0.1273041517 0.5893507600 4285764201
-0.2856973410 -0.1268629432 0.5903446674 4286486393
-0.2861782610 -0.1264194697 0.5913383961 4286815358
-0.2866590917 -0.1259737611 0.5923320055 4287077768
-0.2871398330 -0.1255258024 0.5933253765 4287340940
-0.2880485058 -0.1252617091 0.5952029824 4287734679
-0.2910074890 -0.1636699438 0.6027004123 4287339408
-0.2906520963 -0.1628012508 0.6019643545 4283392078
-0.2902962863 -0.1619339436 0.6012274623 4282339390
-0.2895174026 -0.1608332396 0.5996143222 4282339890
-0.2891606688 -0.1599696726 0.5988754630 4282142511
-0.2883806527 -0.1588745415 0.5972599983 4282472233
-0.2876000106 -0.1577826738 0.5956432223 4281945889
-0.2868187726 -0.1566940695 0.5940251946 4282012192
-0.2860369086 -0.1556087285 0.5924059153 4282077985
-0.2852544487 -0.1545266509 0.5907853842 4282143780
-0.2848947346 -0.1536761969 0.5900403857 4282143780
-0.2845345736 -0.1528271735 0.5892944336 4282144548
-0.2837504745 -0.1517530978 0.5876705647 4282210341
-0.2833893895 -0.1509078741 0.5869227052 4282342177
-0.2830278873 -0.1500640810 0.5861740112 4282342177
-0.2826659977 -0.1492217481 0.5854244828 4282472995
-0.2823036611 -0.1483808607 0.5846740603 4282538788
-0.2819409370 -0.1475414187 0.5839228034 4282670374
-0.2820018530 -0.1469243765 0.5840489864 4282801960
-0.2816383839 -0.1460869312 0.5832961798 4282933546
-0.2816987336 -0.1454700083 0.5834212303 4282867753
-0.2817588747 -0.1448526978 0.5835457444 4282801960
-0.2813943326 -0.1440177858 0.5827907920 4282801960
-0.2810294032 -0.1431843191 0.5820350051 4282867753
-0.2810886800 -0.1425676942 0.5821577311 4282867753
-0.2811477184 -0.1419506818 0.5822799802 4282867751
-0.2812065184 -0.1413332820 0.5824017525 4282867751
-0.2812650800 -0.1407154948 0.5825230479 4282801958
-0.2808984518 -0.1398856938 0.5817637444 4282736165
-0.2809564471 -0.1392680705 0.5818839073 4282801958
-0.2810142338 -0.1386500597 0.5820035934 4282867751
-0.2806465626 -0.1378228515 0.5812420845 4282933544
-0.2807037830 -0.1372050196 0.5813606381 4282933544
-0.2807607949 -0.1365868151 0.5814786553 4282802474
-0.2808175385 -0.1359682381 0.5815961957 4282868267
-0.2812996507 -0.1355543584 0.5825946331 4282999853
-0.2813560069 -0.1349340826 0.5827113986 4283131439
-0.2814121544 -0.1343134493 0.5828276873 4283197232
-0.2818938792 -0.1338946968 0.5838253498 4283197232
-0.2819496393 -0.1332723796 0.5839408040 4283197234
-0.2820051312 -0.1326496899 0.5840557814 4283328820
-0.2820604146 -0.1320266277 0.5841702819 4283526712
-0.2825416028 -0.1316017061 0.5851668715 4283789884
-0.2830227017 -0.1311745197 0.5861632824 4283987522
-0.2835037410 -0.1307450980 0.5871595740 4284119108
-0.2835583091 -0.1301177591 0.5872725248 4284315974
-0.2840391099 -0.1296847761 0.5882683396 4284513353
-0.2840932906 -0.1290557832 0.5883805156 4284579926
-0.2845738530 -0.1286192387 0.5893757939 4285106270
-0.2850543261 -0.1281804591 0.5903708935 4285894765
-0.2851079106 -0.1275484860 0.5904818773 4286486902
-0.2855881453 -0.1271061599 0.5914765000 4286617726
-0.2860682905 -0.1266615838 0.5924708843 4286420347
-0.2869753838 -0.1264028549 0.5943496227 4286945929
-0.2874554396 -0.1259528250 0.5953438282 4288064410
-0.2899011075 -0.1647608876 0.6017932892 4287995798
-0.2899684906 -0.1641303748 0.6019331217 4288194718
-0.2900356054 -0.1634994298 0.6020724773 4287734167
-0.2901025116 -0.1628680378 0.6022113562 4285365616
-0.2897474170 -0.1620004177 0.6014742851 4283128654
-0.2889700532 -0.1608992964 0.5998606086 4282076467
-0.2886140347 -0.1600354016 0.5991215110 4282142260
-0.2882575989 -0.1591729075 0.5983815789 4281945637
-0.2879007459 -0.1583118290 0.5976408124 4281879844
-0.2871212065 -0.1572209597 0.5960226059 4281880608
-0.2867634296 -0.1563636363 0.5952798724 4281880608
-0.2859827876 -0.1552783847 0.5936594009 4281946146
-0.2852015197 -0.1541963965 0.5920376182 4281946146
-0.2848422825 -0.1533451974 0.5912919044 4282011939
-0.2840599418 -0.1522688568 0.5896678567 4282143525
-0.2836997509 -0.1514214575 0.5889201760 4282210339
-0.2833391726 -0.1505755037 0.5881716609 4282210339
-0.2829782069 -0.1497309953 0.5874223113 4282538788
-0.2826167941 -0.1488879323 0.5866720676 4282538788
-0.2822549641 -0.1480463147 0.5859209895 4282538788
-0.2818927467 -0.1472061574 0.5851690769 4282604581
-0.2819534540 -0.1465875506 0.5852950811 4282736167
-0.2815904915 -0.1457493752 0.5845416188 4282670374
-0.2816506326 -0.1451309174 0.5846664906 4282604581
-0.2817105651 -0.1445120424 0.5847909451 4282736167
-0.2813465595 -0.1436764151 0.5840352774 4282801960
-0.2814059258 -0.1430576891 0.5841585398 4282801960
-0.2810412049 -0.1422240585 0.5834013820 4282801960
-0.2811000049 -0.1416054964 0.5835235119 4282801960
-0.2811586261 -0.1409865469 0.5836451054 4282736167
-0.2807928026 -0.1401554942 0.5828858018 4282604581
-0.2808508575 -0.1395366937 0.5830062628 4282670372
-0.2809086740 -0.1389175206 0.5831262469 4282933544
-0.2809662521 -0.1382979751 0.5832457542 4282933546
-0.2810235918 -0.1376780272 0.5833647847 4282933546
-0.2810806930 -0.1370577216 0.5834833384 4282868267
-0.2811375558 -0.1364370286 0.5836014152 4282934060
-0.2811941803 -0.1358159631 0.5837189555 4282934062
-0.2816754580 -0.1353987306 0.5847179890 4283065648
-0.2817316949 -0.1347759813 0.5848347545 4283197234
-0.2817876935 -0.1341528594 0.5849510431 4283328820
-0.2826936841 -0.1339321584 0.5868316889 4283263027
-0.2827493846 -0.1333064139 0.5869473219 4283328820
-0.2828048468 -0.1326802969 0.5870624781 4283526458
-0.2828600705 -0.1320538074 0.5871770978 4283855423
-0.2833405137 -0.1316245794 0.5881744027 4284250181
-0.2833953202 -0.1309964210 0.5882881880 4284381767
-0.2838755250 -0.1305636466 0.5892850161 4284578889
-0.2839299440 -0.1299338192 0.5893979669 4284776268
-0.2844098806 -0.1294974834 0.5903943181 4285105501
-0.2848897576 -0.1290588975 0.5913904309 4285500259
-0.2853695154 -0.1286180615 0.5923863649 4286091633
-0.2858492136 -0.1281749755 0.5933821797 4286617977
-0.2859027684 -0.1275395602 0.5934932828 4286749316
-0.2863821983 -0.1270929277 0.5944885612 4286749316
-0.2868615687 -0.1266440302 0.5954836011 4288393377
-0.2885911763 -0.1677311957 0.6004585028 4288521123
-0.2886594832 -0.1671035886 0.6006006002 4288192158
-0.2887275815 -0.1664755344 0.6007422805 4287731607
-0.2887954414 -0.1658470333 0.6008834839 4287336849
-0.2888630927 -0.1652181000 0.6010242105 4286942091
-0.2889305055 -0.1645887196 0.6011644602 4286613126
-0.2889976799 -0.1639589071 0.6013042927 4285956734
-0.2890646458 -0.1633286476 0.6014435887 4285825148
-0.2891313732 -0.1626979560 0.6015824080 4285233514
-0.2891978920 -0.1620668173 0.6017208099 4284246619
-0.2888430953 -0.1612002701 0.6009826660 4282997054
-0.2884879112 -0.1603351235 0.6002436280 4282141745
-0.2881322801 -0.1594713777 0.5995036960 4281879593
-0.2877762616 -0.1586090624 0.5987628698 4281748007
-0.2874197960 -0.1577481478 0.5980212092 4281814311
-0.2870629132 -0.1568886638 0.5972787142 4281880104
-0.2862839997 -0.1558011472 0.5956580043 4281814564
-0.2855044603 -0.1547168940 0.5940361023 4281682978
-0.2851461470 -0.1538635343 0.5932905674 4281748769
-0.2847874165 -0.1530116051 0.5925441384 4281814562
-0.2840062678 -0.1519353390 0.5909188390 4281815330
-0.2836466134 -0.1510872245 0.5901705027 4282144295
-0.2832865417 -0.1502405256 0.5894213319 4282276384
-0.2825037837 -0.1491723210 0.5877926946 4282407970
-0.2825651467 -0.1485515088 0.5879203677 4282407970
-0.2822038233 -0.1477091610 0.5871686339 4282342177
-0.2822646797 -0.1470884830 0.5872951746 4282407970
-0.2819026113 -0.1462481320 0.5865418911 4282605349
-0.2815401554 -0.1454092413 0.5857877731 4282736681
-0.2816001177 -0.1447892040 0.5859125257 4282868267
-0.2812369466 -0.1439523250 0.5851568580 4282868267
-0.2812963426 -0.1433324367 0.5852804184 4282802474
-0.2813555002 -0.1427121609 0.5854035616 4282802474
-0.2814144492 -0.1420914978 0.5855261683 4282802474
-0.2810498774 -0.1412577033 0.5847676396 4282736683
-0.2806849182 -0.1404253989 0.5840082765 4282736683
-0.2807430029 -0.1398054361 0.5841290951 4282802476
-0.2808008194 -0.1391851008 0.5842494369 4282802476
-0.2808584273 -0.1385643631 0.5843693018 4282868269
-0.2809157968 -0.1379432678 0.5844886303 4282868269
-0.2809729278 -0.1373217702 0.5846075416 4283131693
-0.2810298204 -0.1366999149 0.5847259164 4283329072
-0.2819344103 -0.1364881545 0.5866080523 4283329071
-0.2819910049 -0.1358636618 0.5867257714 4283263278
-0.2820473611 -0.1352387965 0.5868430138 4283328818
-0.2825276852 -0.1348159760 0.5878424644 4283460404
-0.2825836539 -0.1341894120 0.5879589319 4283328822
-0.2830637693 -0.1337630302 0.5889578462 4283460408
-0.2831193507 -0.1331347972 0.5890734792 4283723327
-0.2831746638 -0.1325061768 0.5891886353 4283986499
-0.2832297683 -0.1318771988 0.5893032551 4284381005
-0.2837093472 -0.1314446330 0.5903010368 4284644177
-0.2837640345 -0.1308139712 0.5904148221 4284644179
-0.2842433453 -0.1303778440 0.5914121270 4284775765
-0.2847225964 -0.1299394518 0.5924093127 4284841055
-0.2852017581 -0.1294988096 0.5934062600 4285367399
-0.2856808603 -0.1290559173 0.5944030881 4285696113
-0.2861598432 -0.1286107749 0.5953996778 4286090871
-0.2866387665 -0.1281633824 0.5963961482 4287010952
-0.2873475552 -0.1700585037 0.5992558002 4288323490
-0.2874165773 -0.1694333702 0.5993997455 4288126111
-0.2874853909 -0.1688078046 0.5995432138 4287928986
-0.2875539660 -0.1681817770 0.5996862650 4287468435
-0.2876223326 -0.1675553024 0.5998288393 4286942089
-0.2876904905 -0.1669283807 0.5999709368 4286349952
-0.2877584100 -0.1663010269 0.6001125574 4285823608
-0.2878260911 -0.1656732261 0.6002537012 4285494643
-0.2878935635 -0.1650449783 0.6003944278 4285297264
-0.2883805633 -0.1646559536 0.6014100909 4285099885
-0.2880278230 -0.1637871563 0.6006743908 4284706408
-0.2880946100 -0.1631575972 0.6008136868 4284706408
-0.2881611586 -0.1625275910 0.6009525061 4284640866
-0.2882274985 -0.1618971527 0.6010908484 4284443487
-0.2882936001 -0.1612662673 0.6012287140 4283785806
-0.2879391313 -0.1604008079 0.6004894972 4283127876
-0.2875842452 -0.1595367491 0.5997493863 4282274101
-0.2876494825 -0.1589064151 0.5998854041 4281616171
-0.2872938514 -0.1580442637 0.5991437435 4281485348
-0.2869378030 -0.1571835279 0.5984012485 4281616934
-0.2865813375 -0.1563242078 0.5976577997 4281682978
-0.2858035266 -0.1552377045 0.5960357189 4281617185
-0.2854461372 -0.1543821692 0.5952904224 4281617183
-0.2850883305 -0.1535280645 0.5945441723 4281617183
-0.2843088806 -0.1524495482 0.5929186940 4281551906
