VERSION 0.7
FIELDS x y z rgba
SIZE 4 4 4 4
TYPE F F F U
COUNT 1 1 1 1
WIDTH 920
HEIGHT 1
VIEWPOINT 0.0 0.0 0.0 1.0 0.0 0.0 0.0
POINTS 920
DATA ascii
-0.3673723936 -0.1918008327 0.6866250634 4284180824
-0.3665395081 -0.1906048208 0.6850683093 4283391308
-0.3657058775 -0.1894119084 0.6835103035 4283392060
-0.3648715913 -0.1882221103 0.6819509864 4283655232
-0.3617441952 -0.1858576089 0.6761057973 4282800681
-0.3077119291 -0.1574577987 0.5751186013 4282603302
-0.3036523461 -0.1547499448 0.5675312281 4283131942
-0.3028022647 -0.1536879092 0.5659424067 4283131942
-0.3005748689 -0.1519332081 0.5617793798 4283066398
-0.2997232080 -0.1508803070 0.5601875782 4283132191
-0.2979527116 -0.1493703127 0.5568785071 4283132442
-0.2989363670 -0.1492426693 0.5587170124 4282606098
-0.2980830073 -0.1481976360 0.5571220517 4282408719
-0.2976884246 -0.1473832726 0.5563845634 4282803477
-0.2972934246 -0.1465703398 0.5556462407 4282475025
-0.2968979776 -0.1457588375 0.5549071431 4282672404
-0.2965020835 -0.1449487656 0.5541672707 4282672656
-0.2965655923 -0.1443639547 0.5542859435 4282672656
-0.2961689532 -0.1435558498 0.5535446405 4282606862
-0.2962318957 -0.1429712027 0.5536622405 4282475276
-0.2962945998 -0.1423861682 0.5537794828 4282475277
-0.2958968878 -0.1415805817 0.5530361533 4282672656
-0.2959590256 -0.1409957260 0.5531522632 4282935317
-0.2960209548 -0.1404105127 0.5532680154 4282869524
-0.2960826457 -0.1398249120 0.5533832908 4283001369
-0.2956835032 -0.1390224099 0.5526373386 4283198748
-0.2957446277 -0.1384370029 0.5527516007 4283199779
-0.2958055437 -0.1378512383 0.5528653860 4283791916
-0.2958661914 -0.1372651011 0.5529787540 4283463981
-0.2954656482 -0.1364657134 0.5522301793 4284319290
-0.2955257595 -0.1358797848 0.5523424745 4283792695
-0.2955856025 -0.1352934837 0.5524543524 4283990074
-0.2956452370 -0.1347068399 0.5525658131 4284186948
-0.2957046330 -0.1341198385 0.5526767969 4284318534
-0.2957637906 -0.1335324794 0.5527873635 4286554479
-0.2958227098 -0.1329447627 0.5528974533 4286686065
-0.2958813906 -0.1323567033 0.5530071259 4287014265
-0.2959398329 -0.1317683011 0.5531163812 4288001160
-0.2959980369 -0.1311795413 0.5532251596 4286948475
-0.2955941260 -0.1303867102 0.5524702668 4286487924
-0.2961137295 -0.1300009936 0.5534414053 4288000911
-0.2966332734 -0.1296130866 0.5544124246 4288790427
-0.2962284684 -0.1288210601 0.5536558628 4289184164
-0.2967477143 -0.1284306347 0.5546263456 4289842094
-0.2968045771 -0.1278388947 0.5547326207 4290697403
-0.2968612015 -0.1272468269 0.5548384190 4290894782
-0.2969175577 -0.1266544014 0.5549438000 4289842850
-0.2969737053 -0.1260616481 0.5550487041 4288855955
-0.2974922657 -0.1256639957 0.5560179353 4286882402
-0.2975479960 -0.1250696480 0.5561220646 4285237577
-0.2980663180 -0.1246685535 0.5570908785 4286356561
-0.2981216609 -0.1240726188 0.5571942925 4284974908
-0.2986397743 -0.1236680821 0.5581626296 4284580152
-0.2982316017 -0.1228797510 0.5573997498 4284119601
-0.2996757329 -0.1228524595 0.5600988269 4284447784
-0.3001936078 -0.1224413738 0.5610667467 4284710956
-0.3007113934 -0.1220281124 0.5620344877 4284447034
-0.3648569286 -0.1916430146 0.6833420992 4284245595
-0.3644828200 -0.1906880587 0.6826414466 4284180564
-0.3636508286 -0.1894960552 0.6810832024 4283785806
-0.3628181517 -0.1883071512 0.6795236468 4283656002
-0.3615271449 -0.1868847907 0.6771057248 4283590209
-0.3570311368 -0.1838176996 0.6686851382 4283196718
-0.3502436280 -0.1795943081 0.6559727788 4282933546
-0.3036122620 -0.1550513655 0.5686366558 4282869274
-0.3004735410 -0.1528231800 0.5627581477 4283000860
-0.2991657257 -0.1515354812 0.5603087544 4282935065
-0.2983152866 -0.1504839510 0.5587159991 4283000858
-0.2970059216 -0.1492053866 0.5562636256 4283066651
-0.2970710397 -0.1486199051 0.5563855767 4282737686
-0.2962188125 -0.1475771517 0.5547894835 4282408721
-0.2967419326 -0.1472202688 0.5557692051 4282540307
-0.2958887815 -0.1461812705 0.5541713238 4282606098
-0.2954938412 -0.1453712583 0.5534316301 4282671891
-0.2955574095 -0.1447875053 0.5535507202 4282606352
-0.2956207395 -0.1442033648 0.5536693335 4282672145
-0.2956838608 -0.1436188519 0.5537875891 4282672143
-0.2952875197 -0.1428118646 0.5530452728 4282474764
-0.2948907614 -0.1420063227 0.5523021221 4282408971
-0.2949529886 -0.1414225250 0.5524187088 4282672143
-0.2950149775 -0.1408383399 0.5525348186 4282607375
-0.2950767577 -0.1402537972 0.5526505113 4282607375
-0.2951382995 -0.1396688819 0.5527657866 4282672915
-0.2947397828 -0.1388669610 0.5520194173 4282672915
-0.2948007584 -0.1382822394 0.5521336198 4282870296
-0.2948615253 -0.1376971453 0.5522474051 4283330847
-0.2949220240 -0.1371116936 0.5523607135 4283265572
-0.2945221364 -0.1363128871 0.5516117215 4284055088
-0.2945820689 -0.1357276440 0.5517240167 4284186682
-0.2946417928 -0.1351420283 0.5518358946 4283791924
-0.2947012782 -0.1345560551 0.5519472957 4283791422
-0.2947605550 -0.1339697391 0.5520582795 4284909903
-0.2948195636 -0.1333830655 0.5521687865 4285107033
-0.2948783338 -0.1327960342 0.5522788763 4285830756
-0.2949368954 -0.1322086602 0.5523885489 4286226032
-0.2950532734 -0.1310328543 0.5526065230 4287012727
-0.2955722213 -0.1306482553 0.5535784364 4286289004
-0.2956298888 -0.1300585568 0.5536864996 4286617969
-0.2956873477 -0.1294685304 0.5537940860 4287341692
-0.2957445681 -0.1288781613 0.5539012551 4287736712
-0.2962629795 -0.1284875721 0.5548722148 4287934091
-0.2963198125 -0.1278955936 0.5549786091 4288591769
-0.2963763773 -0.1273032725 0.5550845861 4290039215
-0.2964327335 -0.1267106235 0.5551900864 4290039975
-0.2964888215 -0.1261176318 0.5552951694 4288855701
-0.2970065773 -0.1257198155 0.5562648773 4286356319
-0.2970622778 -0.1251252294 0.5563691854 4286356319
-0.2975797951 -0.1247239709 0.5573384762 4285501765
-0.2980972826 -0.1243205369 0.5583076477 4285041214
-0.2976901531 -0.1235312745 0.5575451255 4284580662
-0.2986696362 -0.1233162135 0.5593796372 4284120111
-0.2991867959 -0.1229071543 0.5603482127 4284055338
-0.3001663685 -0.1226849407 0.5621828437 4284515889
-0.2988330722 -0.1215181500 0.5596857667 4284449330
-0.2993497252 -0.1211053133 0.5606533885 4284317744
-0.3623473644 -0.1914771795 0.6800565124 4284311642
-0.3619739115 -0.1905250251 0.6793556809 4283587919
-0.3611434102 -0.1893348247 0.6777969599 4284115282
-0.3593989015 -0.1876707822 0.6745228767 4283654731
-0.3594803810 -0.1869637221 0.6746757627 4283590464
-0.3563634455 -0.1845995188 0.6688259244 4283261499
-0.3052620292 -0.1574919522 0.5729182959 4282934060
-0.2993884385 -0.1538373232 0.5618947148 4282999853
-0.3008268774 -0.1539491415 0.5645943880 4282737688
-0.2976928651 -0.1517245322 0.5587124825 4282803481
-0.2968441546 -0.1506729722 0.5571195483 4282737686
-0.2959947884 -0.1496246159 0.5555254817 4282803479
-0.2965175509 -0.1492705643 0.5565066338 4282869272
-0.2956672311 -0.1482259631 0.5549107790 4282606100
-0.2957318723 -0.1476416737 0.5550320745 4282342928
-0.2953383923 -0.1468293816 0.5542935729 4282408721
-0.2954024673 -0.1462452412 0.5544138551 4282606098
-0.2945501506 -0.1452090740 0.5528141856 4282606098
-0.2950717807 -0.1448509097 0.5537931323 4282540559
-0.2951350808 -0.1442665458 0.5539119840 4282474766
-0.2951981425 -0.1436818093 0.5540302992 4282408973
-0.2943440080 -0.1426523030 0.5524272919 4282211594
-0.2948650122 -0.1422899216 0.5534051061 4282145801
-0.2940099537 -0.1412642151 0.5518003106 4282408973
-0.2945305705 -0.1409001797 0.5527774096 4282475790
-0.2945922911 -0.1403154135 0.5528932810 4282475790
-0.2941948175 -0.1395126134 0.5521472692 4282606865
-0.2942560017 -0.1389280111 0.5522620678 4282606865
-0.2943169177 -0.1383430511 0.5523764491 4282738710
-0.2939183712 -0.1375428289 0.5516284704 4283265054
-0.2939787507 -0.1369580477 0.5517417789 4283331365
-0.2940388918 -0.1363729239 0.5518546700 4283726123
-0.2940987945 -0.1357874274 0.5519670844 4284252218
-0.2941584885 -0.1352015883 0.5520790815 4284120632
-0.2942179143 -0.1346153766 0.5521906614 4283725370
-0.2942771316 -0.1340288222 0.5523017645 4284778058
-0.2943361104 -0.1334419101 0.5524124503 4285107032
-0.2943948507 -0.1328546554 0.5525226593 4285501790
-0.2944533527 -0.1322670430 0.5526325107 4285764709
-0.2945116162 -0.1316790730 0.5527418256 4286291053
-0.2945696414 -0.1310907602 0.5528507233 4286026341
-0.2946274281 -0.1305021048 0.5529592037 4285236825
-0.2951454222 -0.1301160902 0.5539314151 4285565794
-0.2952028215 -0.1295258254 0.5540391207 4286092138
-0.2947993577 -0.1287340522 0.5532819033 4286881401
-0.2953169048 -0.1283442527 0.5542532802 4287341952
-0.2953736186 -0.1277529448 0.5543596745 4286947453
-0.2958909273 -0.1273596883 0.5553305745 4287473797
-0.2959472239 -0.1267668009 0.5554362535 4288198025
-0.2960032821 -0.1261735559 0.5555414557 4287211130
-0.2960591018 -0.1255799830 0.5556461811 4286027355
-0.2961146533 -0.1249860749 0.5557504892 4286158941
-0.2966313064 -0.1245855913 0.5567201376 4285173316
-0.2966864705 -0.1239900887 0.5568236709 4284844351
-0.2972028852 -0.1235861629 0.5577929020 4284186672
-0.2977192402 -0.1231800467 0.5587619543 4284186672
-0.2992134392 -0.1225503907 0.5615662932 4284187183
-0.2988059819 -0.1217604131 0.5608015656 4284450098
-0.3007617891 -0.1213030443 0.5644722581 4284776268
-0.3607547283 -0.1917876303 0.6784817576 4284442723
-0.3603821397 -0.1908364892 0.6777810454 4282995779
-0.3595533669 -0.1896462888 0.6762223244 4283785295
-0.3556948602 -0.1853813231 0.6689655781 4283393596
-0.3507579565 -0.1820753515 0.6596805453 4283064631
-0.3011084497 -0.1556735337 0.5663033128 4282868521
-0.2975254357 -0.1531993896 0.5595646501 4282736935
-0.2989612520 -0.1533139944 0.5622650385 4282671895
-0.2972017825 -0.1517906487 0.5589559078 4282606102
-0.2968111336 -0.1509709060 0.5582212210 4282606100
-0.2959633172 -0.1499212384 0.5566267371 4282540307
-0.2955717444 -0.1491052359 0.5558902621 4282474514
-0.2947227657 -0.1480611116 0.5542935729 4282408721
-0.2952443063 -0.1477061510 0.5552744269 4282342928
-0.2948515117 -0.1468935311 0.5545357466 4282342928
-0.2944583297 -0.1460823268 0.5537962317 4282342926
-0.2945220172 -0.1454984844 0.5539160371 4282408719
-0.2945854962 -0.1449142694 0.5540354252 4282408719
-0.2941912115 -0.1441055685 0.5532938838 4282342926
-0.2942541242 -0.1435215026 0.5534121990 4282343180
-0.2943168283 -0.1429370791 0.5535300970 4282343180
-0.2943792939 -0.1423522681 0.5536475778 4282408973
-0.2939836085 -0.1415466070 0.5529034138 4282606352
-0.2935875058 -0.1407424062 0.5521584749 4282541072
-0.2936490774 -0.1401583105 0.5522742867 4282475279
-0.2937104404 -0.1395738572 0.5523896217 4282672404
-0.2933132350 -0.1387721896 0.5516426563 4282606611
-0.2933740318 -0.1381879151 0.5517569780 4282869785
-0.2934345901 -0.1376032680 0.5518708825 4283330336
-0.2930363417 -0.1368041784 0.5511218905 4283593767
-0.2930963337 -0.1362197250 0.5512347221 4283527974
-0.2931561172 -0.1356349140 0.5513471365 4283923253
-0.2932156622 -0.1350497603 0.5514591336 4284383804
-0.2932749689 -0.1344642341 0.5515706539 4283922748
-0.2933340371 -0.1338783652 0.5516817570 4284646471
-0.2933928668 -0.1332921237 0.5517923832 4285304152
-0.2939106822 -0.1329132318 0.5527663231 4285830496
-0.2939691544 -0.1323253810 0.5528762341 4286093928
-0.2940273583 -0.1317371726 0.5529857278 4286357100
-0.2940853536 -0.1311486363 0.5530948043 4286224231
-0.2941431105 -0.1305597275 0.5532034039 4285895266
-0.2946603000 -0.1301735640 0.5541760921 4285500512
-0.2947176695 -0.1295830607 0.5542839766 4285697891
-0.2943149209 -0.1287909746 0.5535265207 4286223981
-0.2943717241 -0.1282006949 0.5536333323 4286618739
-0.2948883176 -0.1278094798 0.5546049476 4286881911
-0.2949447036 -0.1272175908 0.5547109842 4286947704
-0.2950008810 -0.1266253889 0.5548166037 4287014517
-0.2950567901 -0.1260328293 0.5549218059 4286159208
-0.2955728769 -0.1256356388 0.5558924079 4286291043
-0.2956283987 -0.1250414848 0.5559968352 4286225250
-0.2956836820 -0.1244469956 0.5561007857 4285765457
-0.2961993814 -0.1240450963 0.5570706725 4285699664
-0.2962542474 -0.1234490201 0.5571739078 4284252978
-0.2967697084 -0.1230436713 0.5581433177 4283726634
-0.2972851098 -0.1226361468 0.5591126680 4283661357
-0.2978004217 -0.1222264245 0.5600817800 4284121908
-0.2978545725 -0.1216262504 0.5601836443 4284319021
-0.2979084849 -0.1210257486 0.5602850318 4284187435
-0.2988846004 -0.1207977459 0.5621209145 4283855926
-0.2998608351 -0.1205657050 0.5639569163 4285632337
-0.3587929010 -0.1911439449 0.6762046218 4282995530
-0.3584206700 -0.1901951134 0.6755030751 4283720267
-0.3580479920 -0.1892475933 0.6748006940 4283786060
-0.3572197556 -0.1880618185 0.6732397676 4283326271
-0.3554805219 -0.1864017993 0.6699619293 4283326271
-0.3519191444 -0.1837974191 0.6632499099 4283130420
-0.3087389171 -0.1605990976 0.5818696022 4283064627
-0.3024319410 -0.1566850692 0.5699830651 4282934311
-0.2993108928 -0.1544413418 0.5641009212 4282539553
-0.2980108857 -0.1531465203 0.5616508126 4282606102
-0.2971658111 -0.1520899683 0.5600581765 4282606102
-0.2958642244 -0.1508042812 0.5576050878 4282540309
-0.2954737544 -0.1499865353 0.5568692088 4282342930
-0.2946267724 -0.1489396542 0.5552729368 4282277135
-0.2946915329 -0.1483553052 0.5553950071 4282277135
-0.2942997813 -0.1475418359 0.5546566844 4282342928
-0.2939076126 -0.1467297822 0.5539175868 4282408721
-0.2939715087 -0.1461460888 0.5540379882 4282079756
-0.2935785949 -0.1453360021 0.5532974601 4282211342
-0.2936419249 -0.1447524726 0.5534167886 4282277133
-0.2932482362 -0.1439443380 0.5526748300 4282211340
-0.2933109999 -0.1433609575 0.5527931452 4282277133
-0.2929165959 -0.1425548196 0.5520498157 4282408719
-0.2934358716 -0.1421930790 0.5530284643 4282540305
-0.2930408120 -0.1413880140 0.5522838831 4282737684
-0.2926453054 -0.1405843943 0.5515385270 4282540818
-0.2927067578 -0.1400009841 0.5516543388 4282343439
-0.2927679420 -0.1394172013 0.5517696738 4282606611
-0.2923713923 -0.1386161298 0.5510222912 4282672404
-0.2924320400 -0.1380325258 0.5511365533 4282804505
-0.2924924493 -0.1374485642 0.5512504578 4283133470
-0.2925526500 -0.1368642449 0.5513638854 4283593768
-0.2926125824 -0.1362795681 0.5514768958 4283593768
-0.2926723063 -0.1356945336 0.5515894294 4283989046
-0.2922737002 -0.1348976940 0.5508381724 4284910148
-0.2927910686 -0.1345233768 0.5518132448 4284712264
-0.2928500772 -0.1339372694 0.5519244671 4284843850
-0.2929088771 -0.1333508044 0.5520352721 4285567322
-0.2929674387 -0.1327639818 0.5521456599 4286225252
-0.2930257618 -0.1321768165 0.5522555709 4285896548
-0.2930838466 -0.1315893084 0.5523650050 4285764962
-0.2936004400 -0.1312064528 0.5533386469 4285961312
-0.2936581373 -0.1306173205 0.5534473658 4285303382
-0.2937155962 -0.1300278455 0.5535556674 4284908373
-0.2937728465 -0.1294380128 0.5536635518 4285632096
-0.2938298285 -0.1288478374 0.5537709594 4285895784
-0.2938865721 -0.1282573342 0.5538778901 4285961577
-0.2939430773 -0.1276664734 0.5539844036 4286882931
-0.2939993739 -0.1270752847 0.5540904403 4287540861
-0.2945148647 -0.1266813874 0.5550619960 4286948723
-0.2945707440 -0.1260885894 0.5551673174 4286159207
-0.2950859964 -0.1256912351 0.5561384559 4286291558
-0.2951414883 -0.1250968426 0.5562430024 4285370456
-0.2951967418 -0.1245021150 0.5563471317 4284844615
-0.2957116365 -0.1241000593 0.5573174953 4285436752
-0.2957664728 -0.1235037372 0.5574208498 4284910910
-0.2953609824 -0.1227159426 0.5566567183 4284252980
-0.2963355482 -0.1225003228 0.5584934354 4283529772
-0.2968499959 -0.1220913753 0.5594629645 4284056116
-0.2973643243 -0.1216802374 0.5604323149 4284253230
-0.2974182069 -0.1210794896 0.5605338216 4284516402
-0.2983927727 -0.1208514124 0.5623705983 4284514108
-0.2989068925 -0.1204337105 0.5633395314 4284448315
-0.2998815477 -0.1201984659 0.5651764274 4287142528
-0.3572061658 -0.1914473623 0.6746262908 4282403645
-0.3568347991 -0.1904995441 0.6739249825 4283127368
-0.3564629555 -0.1895530373 0.6732227206 4283720264
-0.3560906649 -0.1886078417 0.6725195646 4283325506
-0.3543549478 -0.1869449317 0.6692414880 4283194936
-0.3521637619 -0.1850499660 0.6651031375 4283392315
-0.3045204580 -0.1593760401 0.5751230717 4282867501
-0.3032256067 -0.1580620706 0.5726776123 4282801708
-0.3001110256 -0.1558087915 0.5667953491 4282605857
-0.2983592451 -0.1542732418 0.5634869337 4282474271
-0.2956966162 -0.1522759646 0.5584582090 4282540309
-0.2948525846 -0.1512226015 0.5568641424 4282540309
-0.2944630384 -0.1504049301 0.5561284423 4282474516
-0.2936178744 -0.1493570954 0.5545322299 4282277137
-0.2932273746 -0.1485431641 0.5537947416 4282211344
-0.2932918966 -0.1479603946 0.5539165735 4282277137
-0.2933561802 -0.1473772526 0.5540379882 4282342930
-0.2929646075 -0.1465657800 0.5532984734 4282277137
-0.2930283248 -0.1459827870 0.5534188747 4282277135
-0.2930918336 -0.1453993917 0.5535387993 4282211342
-0.2926991880 -0.1445904225 0.5527972579 4282211342
-0.2927621603 -0.1440071911 0.5529161096 4282079756
-0.2928248942 -0.1434235722 0.5530346036 4282013963
-0.2924311757 -0.1426171064 0.5522910357 4282145549
-0.2924933434 -0.1420336664 0.5524084568 4282211342
-0.2920988798 -0.1412291676 0.5516634583 4282211342
-0.2921604812 -0.1406459063 0.5517798066 4282277648
-0.2922218740 -0.1400622576 0.5518957376 4282146062
-0.2918263376 -0.1392603070 0.5511487722 4282278161
-0.2918871939 -0.1386768520 0.5512636304 4282541333
-0.2919477820 -0.1380930245 0.5513780713 4282606872
-0.2920081615 -0.1375088245 0.5514920950 4282804251
-0.2916112244 -0.1367100030 0.5507424474 4283396391
-0.2921282053 -0.1363393664 0.5517188311 4283988528
-0.2917306125 -0.1355416477 0.5509679914 4284778307
-0.2917899787 -0.1349569261 0.5510800481 4284909893
-0.2918491066 -0.1343718618 0.5511916876 4284778057
-0.2919079959 -0.1337864399 0.5513029099 4284975436
-0.2924242616 -0.1334094256 0.5522779822 4285962595
-0.2924827635 -0.1328223795 0.5523884892 4286686318
-0.2925410569 -0.1322349757 0.5524985194 4285962342
-0.2925990820 -0.1316472292 0.5526081920 4285699170
-0.2926568985 -0.1310591251 0.5527173281 4286092900
-0.2931725383 -0.1306748539 0.5536912084 4284974419
-0.2932299674 -0.1300851405 0.5537996292 4285764452
-0.2932871580 -0.1294950843 0.5539076328 4286882933
-0.2933440804 -0.1289046705 0.5540152192 4287277437
-0.2934007943 -0.1283139139 0.5541222692 4287080058
-0.2934572697 -0.1277228296 0.5542289615 4286422379
-0.2935135067 -0.1271314025 0.5543351173 4286948723
-0.2935694754 -0.1265396178 0.5544408560 4285567835
-0.2936252356 -0.1259475052 0.5545461774 4285502042
-0.2941396236 -0.1255509257 0.5555176139 4286291556
-0.2941949666 -0.1249572262 0.5556221604 4285567833
-0.2947091460 -0.1245571971 0.5565932393 4284647236
-0.2947641015 -0.1239618957 0.5566970110 4284976201
-0.2952780128 -0.1235584170 0.5576676726 4285108289
-0.2957918942 -0.1231527552 0.5586381555 4284647738
-0.2963056564 -0.1227449030 0.5596084595 4283793457
-0.2968193591 -0.1223348603 0.5605786443 4283596078
-0.2964138985 -0.1215457469 0.5598128438 4284318769
-0.2973869145 -0.1213207021 0.5616505146 4284384562
-0.2983600199 -0.1210916117 0.5634883642 4284514105
-0.2988733947 -0.1206728220 0.5644579530 4284185140
-0.2998465896 -0.1204365566 0.5662959218 4285103198
-0.3551689684 -0.1915024966 0.6721888185 4283653470
-0.3547983468 -0.1905565858 0.6714873910 4283258951
-0.3544272482 -0.1896119863 0.6707850695 4283127365
-0.3540557027 -0.1886686981 0.6700818539 4283391549
-0.3532302082 -0.1874860525 0.6685195565 4283325756
-0.3510434031 -0.1855871826 0.6643808484 4283260725
-0.3456797898 -0.1820246726 0.6542297006 4283129139
-0.3008370697 -0.1577792317 0.5693608522 4282933546
-0.2986359894 -0.1559968591 0.5651951432 4282867753
-0.2968876064 -0.1544592828 0.5618861914 4282408219
-0.2955922484 -0.1531637907 0.5594345927 4282539805
-0.2947502136 -0.1521076709 0.5578410029 4282540054
-0.2943618298 -0.1512882560 0.5571058989 4282474261
-0.2939729989 -0.1504702419 0.5563700199 4282342675
-0.2935837507 -0.1496536583 0.5556333065 4282211089
-0.2931940556 -0.1488384902 0.5548958182 4282211089
-0.2928039432 -0.1480247527 0.5541574955 4282276882
-0.2928681970 -0.1474413723 0.5542790294 4282277137
-0.2929321826 -0.1468576193 0.5544002056 4282211344
-0.2925409973 -0.1460463554 0.5536598563 4282342930
-0.2926044762 -0.1454627365 0.5537799597 4282211344
-0.2926676869 -0.1448787451 0.5538995862 4282145551
-0.2922754288 -0.1440699697 0.5531572104 4282079758
-0.2918827534 -0.1432626396 0.5524140596 4281948170
-0.2919450998 -0.1426793486 0.5525320172 4282013963
-0.2920072377 -0.1420956701 0.5526496172 4282079756
-0.2916134596 -0.1412908584 0.5519043803 4281948170
-0.2916750312 -0.1407073587 0.5520209074 4282014476
-0.2912805378 -0.1399045438 0.5512742996 4282080269
-0.2913415730 -0.1393212080 0.5513898134 4282146575
-0.2914023399 -0.1387375146 0.5515048504 4282541333
-0.2910067737 -0.1379372627 0.5507561564 4282672665
-0.2910670042 -0.1373537481 0.5508701801 4282804251
-0.2906706929 -0.1365555078 0.5501201153 4283132965
-0.2911867797 -0.1361856610 0.5510968566 4284251446
-0.2912463248 -0.1356010586 0.5512095094 4284580930
-0.2913056314 -0.1350161135 0.5513217449 4284054586
-0.2913646996 -0.1344308108 0.5514335632 4284383559
-0.2914235294 -0.1338451654 0.5515449047 4285765212
-0.2914821506 -0.1332591474 0.5516558290 4287541374
-0.2919974625 -0.1328807324 0.5526311398 4288265097
-0.2920556962 -0.1322930902 0.5527413487 4287475329
-0.2921136916 -0.1317051053 0.5528511405 4287277950
-0.2921714485 -0.1311167777 0.5529604554 4287408509
-0.2922289670 -0.1305280924 0.5530692935 4287342716
-0.2927436829 -0.1301424056 0.5540434122 4287869060
-0.2928008139 -0.1295520961 0.5541515350 4287803267
-0.2924001217 -0.1287599504 0.5533931851 4287671681
-0.2924566865 -0.1281698942 0.5535002947 4288132232
-0.2929708064 -0.1277791411 0.5544732809 4287606654
-0.2930269837 -0.1271874607 0.5545796156 4286882931
-0.2930829227 -0.1265954524 0.5546854734 4285633115
-0.2931386232 -0.1260031015 0.5547909141 4285369943
-0.2931941152 -0.1254104078 0.5548958778 4285765466
-0.2937075198 -0.1250124127 0.5558676124 4285897052
-0.2937625945 -0.1244181320 0.5559718013 4285239371
-0.2942757905 -0.1240166873 0.5569431186 4284976199
-0.2943304777 -0.1234208047 0.5570465922 4285305413
-0.2948434353 -0.1230159104 0.5580174327 4285042241
-0.2953563333 -0.1226088256 0.5589880943 4284582970
-0.2958691716 -0.1221995577 0.5599586964 4283925040
-0.2963818908 -0.1217880994 0.5609290600 4284121392
-0.2959768176 -0.1209992543 0.5601624250 4283858220
-0.2969481945 -0.1207719445 0.5620008111 4284579898
-0.2974605858 -0.1203548461 0.5629705787 4284777277
-0.2988911867 -0.1203051656 0.5656781197 4284183112
-0.2984851897 -0.1195140928 0.5649096966 4285893730
-0.3532184362 -0.1908519715 0.6699054241 4282863952
-0.3528481722 -0.1899083853 0.6692032218 4283719756
-0.3524774611 -0.1889661103 0.6685001254 4282996033
-0.3516536951 -0.1877834648 0.6669378281 4283260217
-0.3499239087 -0.1861223727 0.6636570692 4283326010
-0.3477402031 -0.1842281073 0.6595155597 4283129392
-0.3088710904 -0.1629849225 0.5857973695 4282932013
-0.3016935289 -0.1585617214 0.5721845627 4282933543
-0.2990434170 -0.1565387398 0.5671584010 4282933543
-0.2968450189 -0.1547624469 0.5629889965 4282605597
-0.2960052788 -0.1537008882 0.5613963604 4282539804
-0.2947115302 -0.1524080783 0.5589426756 4282540056
-0.2934169173 -0.1511202753 0.5564873219 4282408470
-0.2934823036 -0.1505355239 0.5566113591 4282342677
-0.2926400602 -0.1494868398 0.5550139546 4282211091
-0.2927047908 -0.1489031166 0.5551367402 4282145298
-0.2923153937 -0.1480890363 0.5543981791 4282211091
-0.2919255495 -0.1472764015 0.5536588430 4282277137
-0.2919894159 -0.1466933340 0.5537799597 4282145551
-0.2920530438 -0.1461098641 0.5539006591 4282211344
-0.2916621566 -0.1452997178 0.5531592965 4282145551
-0.2917252183 -0.1447163969 0.5532789230 4282211344
-0.2917880714 -0.1441327184 0.5533981323 4282145551
-0.2913961112 -0.1433250606 0.5526547432 4282013963
-0.2914583981 -0.1427415311 0.5527728796 4282079756
-0.2910656929 -0.1419358552 0.5520280600 4282145549
-0.2906725407 -0.1411316395 0.5512824655 4282079756
-0.2907339633 -0.1405488104 0.5513989329 4281817097
-0.2907951772 -0.1399656236 0.5515149832 4282080269
-0.2904009521 -0.1391639411 0.5507673621 4282014476
-0.2904615998 -0.1385809332 0.5508823395 4282606613
-0.2905220091 -0.1379975528 0.5509969592 4282804252
-0.2901267409 -0.1371984333 0.5502472520 4283199010
-0.2901866138 -0.1366152614 0.5503607988 4282935588
-0.2907018661 -0.1362452656 0.5513380766 4283988276
-0.2903056145 -0.1354478002 0.5505865216 4284645701
-0.2908206284 -0.1350752562 0.5515632629 4285172045
-0.2908796370 -0.1344897300 0.5516752005 4286027873
-0.2909384370 -0.1339038312 0.5517867208 4287014768
-0.2909969985 -0.1333175898 0.5518977642 4287212155
-0.2910553217 -0.1327309906 0.5520083904 4286883190
-0.2911134064 -0.1321440339 0.5521185994 4287343233
-0.2911712825 -0.1315567344 0.5522283316 4287935370
-0.2912288904 -0.1309690922 0.5523375869 4287473538
-0.2917428613 -0.1305854470 0.5533123612 4287934089
-0.2918000817 -0.1299961805 0.5534209013 4287342463
-0.2918570936 -0.1294065565 0.5535290241 4287408256
-0.2919138670 -0.1288166046 0.5536366701 4287342462
-0.2919704020 -0.1282262951 0.5537438989 4287737220
-0.2920266986 -0.1276356578 0.5538506508 4288592781
-0.2920827270 -0.1270446628 0.5539569855 4287540093
-0.2921385467 -0.1264533401 0.5540628433 4286751598
-0.2926513851 -0.1260586381 0.5550354719 4285764703
-0.2927068174 -0.1254657209 0.5551406145 4285173069
-0.2932194471 -0.1250675619 0.5561128259 4285436241
-0.2932744622 -0.1244730353 0.5562171936 4285304904
-0.2937868536 -0.1240714341 0.5571889877 4285239111
-0.2938414812 -0.1234753132 0.5572925806 4285502283
-0.2943536639 -0.1230702624 0.5582639575 4285568076
-0.2944078743 -0.1224725470 0.5583667755 4285175361
-0.2949198186 -0.1220640466 0.5593377352 4285043775
-0.2954316735 -0.1216533557 0.5603084564 4284318520
-0.2954853177 -0.1210527942 0.5604102612 4284055348
-0.2959969342 -0.1206386536 0.5613805652 4284974910
-0.2965084612 -0.1202223226 0.5623506904 4284974910
-0.2970199287 -0.1198038086 0.5633206964 4284117820
-0.2979897261 -0.1195670441 0.5651600361 4284249406
-0.3517231643 -0.1904452145 0.6684777141 4283653722
-0.3509018123 -0.1892594844 0.6669166088 4282996544
-0.3505314589 -0.1883195341 0.6662127376 4282535993
-0.3492570221 -0.1868973225 0.6637905836 4282997044
-0.3470778465 -0.1849982589 0.6596488357 4282997044
-0.3435412645 -0.1823877692 0.6529273391 4283129646
-0.3033801317 -0.1604253799 0.5765979290 4283129646
-0.2971180081 -0.1564865857 0.5646962523 4282802211
-0.2994471490 -0.1570809782 0.5691229701 4282473246
-0.2958953977 -0.1545929909 0.5623725653 4282605851
-0.2946044803 -0.1532964259 0.5599191189 4282342679
-0.2937653661 -0.1522394717 0.5583243370 4282474263
-0.2924728990 -0.1509520561 0.5558678508 4282342677
-0.2920852900 -0.1501352042 0.5551311374 4282474265
-0.2916972339 -0.1493197680 0.5543936491 4282408472
-0.2917618155 -0.1487367302 0.5545163751 4282145298
-0.2913730145 -0.1479232311 0.5537774563 4282211091
-0.2909837961 -0.1471111774 0.5530377030 4282276882
-0.2910475135 -0.1465287805 0.5531588197 4282079503
-0.2911109924 -0.1459460109 0.5532794595 4282079758
-0.2911742628 -0.1453628540 0.5533996820 4282145551
-0.2907836437 -0.1445538104 0.5526573062 4282342930
-0.2908463478 -0.1439708024 0.5527764559 4282211344
-0.2904549837 -0.1431637406 0.5520326495 4281882377
-0.2900632024 -0.1423581094 0.5512880683 4281816584
-0.2901250422 -0.1417758018 0.5514055490 4282013961
-0.2901866436 -0.1411931217 0.5515226126 4282013961
-0.2902480066 -0.1406100690 0.5516392589 4281816586
-0.2898548543 -0.1398075223 0.5508920550 4282079758
-0.2899156511 -0.1392246485 0.5510076284 4281751304
-0.2899762690 -0.1386414170 0.5511227846 4282409234
-0.2895820141 -0.1378414184 0.5503734946 4282803739
-0.2896420658 -0.1372583658 0.5504876375 4283461669
-0.2902163267 -0.1363048255 0.5515790582 4283593005
-0.2903349996 -0.1351343542 0.5518046021 4286553699
-0.2903939784 -0.1345485896 0.5519166589 4287277688
-0.2904527187 -0.1339624673 0.5520283580 4288198790
-0.2905112207 -0.1333759874 0.5521395206 4288198541
-0.2905695140 -0.1327891499 0.5522503257 4287672197
-0.2906275392 -0.1322019696 0.5523606539 4288264083
-0.2906853557 -0.1316144317 0.5524705052 4288329876
-0.2907429338 -0.1310265511 0.5525799394 4288197009
-0.2908002734 -0.1304383129 0.5526888967 4286881149
-0.2908574045 -0.1298497319 0.5527974367 4286289262
-0.2913702428 -0.1294634044 0.5537721515 4287802501
-0.2914269567 -0.1288732141 0.5538799763 4288263307
-0.2914834619 -0.1282826662 0.5539873242 4287671170
-0.2915396988 -0.1276917905 0.5540942550 4288132232
-0.2915956974 -0.1271005571 0.5542006493 4288198025
-0.2916514874 -0.1265089959 0.5543066859 4287079793
-0.2917070091 -0.1259170920 0.5544122458 4286290277
-0.2922188938 -0.1255209744 0.5553851128 4285370444
-0.2922740281 -0.1249274686 0.5554898977 4285567823
-0.2927857041 -0.1245279014 0.5564623475 4285436488
-0.2932972908 -0.1241261438 0.5574346781 4285502281
-0.2933518589 -0.1235297769 0.5575383902 4285568076
-0.2938632369 -0.1231245697 0.5585103035 4285831248
-0.2939174175 -0.1225266084 0.5586132407 4285372486
-0.2944285274 -0.1221179515 0.5595846772 4285833037
-0.2944823205 -0.1215184033 0.5596868992 4284910405
-0.2954505682 -0.1212940514 0.5615271330 4284844612
-0.2959614396 -0.1208788157 0.5624980927 4284843583
-0.2964722514 -0.1204613894 0.5634689331 4284251446
-0.2969829738 -0.1200417727 0.5644395947 4284250171
-0.2965782583 -0.1192518994 0.5636703968 4283986999
-0.2975464165 -0.1190128624 0.5655104518 4284905570
-0.3501483798 -0.1907345355 0.6668924093 4285035876
-0.3497794569 -0.1897933930 0.6661897898 4283785809
-0.3489592075 -0.1886098832 0.6646275520 4282931259
-0.3481383026 -0.1874294728 0.6630640626 4282668087
-0.3468656540 -0.1860102862 0.6606401205 4282800948
-0.3437874615 -0.1836320609 0.6547774076 4282800948
-0.3122776449 -0.1661404669 0.5947638154 4282735915
-0.3015162051 -0.1597770154 0.5742676258 4282604329
-0.2961672843 -0.1563158333 0.5640800595 4282473762
-0.2984924912 -0.1569114029 0.5685086250 4282539555
-0.2949466407 -0.1544232816 0.5617552400 4282539805
-0.2941096425 -0.1533626765 0.5601610541 4282408219
-0.2932719886 -0.1523052901 0.5585656762 4282474265
-0.2924337387 -0.1512511075 0.5569691062 4282540058
-0.2915948331 -0.1502001733 0.5553713441 4282408983
-0.2912074924 -0.1493844092 0.5546336770 4282343190
-0.2908197343 -0.1485700756 0.5538951159 4282277395
-0.2908839285 -0.1479873359 0.5540174246 4282145809
-0.2909479141 -0.1474041939 0.5541392565 4282145298
-0.2905590832 -0.1465923339 0.5533986688 4282211091
-0.2906225324 -0.1460093260 0.5535194874 4282211089
-0.2902329266 -0.1451994330 0.5527775288 4282211089
-0.2902958095 -0.1446165740 0.5528972745 4282146062
-0.2903584838 -0.1440333426 0.5530166030 4282146062
-0.2899678349 -0.1432259530 0.5522725582 4282080269
-0.2900299430 -0.1426428854 0.5523908734 4281882890
-0.2896385491 -0.1418374628 0.5516453981 4281882377
-0.2897000909 -0.1412545592 0.5517626405 4282013963
-0.2893079519 -0.1404511482 0.5510157943 4282014223
-0.2893689573 -0.1398684084 0.5511319637 4282014223
-0.2894297242 -0.1392853111 0.5512477160 4281948429
-0.2894902825 -0.1387018412 0.5513629913 4282145808
-0.2895506024 -0.1381180137 0.5514779091 4282606359
-0.2891567349 -0.1373182386 0.5507277846 4283198496
-0.2892164886 -0.1367346048 0.5508415699 4282672414
-0.2892760336 -0.1361505985 0.5509549975 4284185653
-0.2893353403 -0.1355662346 0.5510679483 4285829976
-0.2893944085 -0.1349815130 0.5511804223 4287145836
-0.2894532382 -0.1343964338 0.5512924790 4288461197
-0.2895118594 -0.1338109970 0.5514041185 4286882165
-0.2895702422 -0.1332252026 0.5515152812 4288921243
-0.2896283567 -0.1326390505 0.5516260266 4289710759
-0.2901410460 -0.1322598606 0.5526024699 4289645484
-0.2901988029 -0.1316720843 0.5527125001 4289513898
-0.2902563512 -0.1310839653 0.5528220534 4289249699
-0.2903136313 -0.1304954886 0.5529311895 4288394390
-0.2903707027 -0.1299066842 0.5530399084 4288591767
-0.2904275358 -0.1293175071 0.5531480908 4289249697
-0.2904841006 -0.1287280023 0.5532559156 4288328847
-0.2909958661 -0.1283389926 0.5542305708 4288131468
-0.2910520732 -0.1277478784 0.5543376207 4287671170
-0.2911080420 -0.1271564066 0.5544441938 4288197514
-0.2911637425 -0.1265646070 0.5545503497 4287606139
-0.2912192345 -0.1259724647 0.5546560287 4286619244
-0.2917303145 -0.1255761981 0.5556294322 4286158941
-0.2917854190 -0.1249824464 0.5557343364 4286027355
-0.2922962606 -0.1245827228 0.5567073226 4285698894
-0.2928070426 -0.1241808087 0.5576801300 4285501515
-0.2928615808 -0.1235842034 0.5577840209 4285435972
-0.2933721542 -0.1231788322 0.5587564111 4286028109
-0.2934262753 -0.1225806326 0.5588595271 4286423132
-0.2939366102 -0.1221718043 0.5598315001 4286357339
-0.2939903438 -0.1215720177 0.5599338412 4285962318
-0.2945004404 -0.1211597398 0.5609053373 4285501767
-0.2950104177 -0.1207452714 0.5618767142 4284909127
-0.2955203354 -0.1203286126 0.5628479123 4284448576
-0.2955733538 -0.1197247207 0.5629488230 4283989295
-0.2979635894 -0.1194318458 0.5675013065 4283724101
-0.3482080698 -0.1900796890 0.6646027565 4284048980
-0.3478395343 -0.1891408861 0.6638993621 4283522636
-0.3470204473 -0.1879595816 0.6623360515 4282931259
-0.3457504511 -0.1865385175 0.6599121094 4282602294
-0.3440293074 -0.1848803610 0.6566270590 4282669360
-0.3396046460 -0.1817823797 0.6481819749 4282603567
-0.3036420941 -0.1618885696 0.5795425177 4282406950
-0.2996561825 -0.1591279805 0.5719348192 4282341157
-0.2970202863 -0.1570983678 0.5669038892 4282276381
-0.2957354188 -0.1557916254 0.5644515157 4282407967
-0.2939987779 -0.1542533189 0.5611369014 4282342425
-0.2931631207 -0.1531931758 0.5595420003 4282276632
-0.2923268676 -0.1521362662 0.5579458475 4282474265
-0.2914899588 -0.1510825753 0.5563485026 4282408472
-0.2911037505 -0.1502650827 0.5556113720 4282277397
-0.2907171249 -0.1494490057 0.5548734665 4282145811
-0.2903300822 -0.1486343443 0.5541347265 4282211604
-0.2903942168 -0.1480513662 0.5542571545 4282145811
-0.2904581428 -0.1474680007 0.5543791652 4282145298
-0.2900700271 -0.1466558129 0.5536383986 4282211091
-0.2901334167 -0.1460725963 0.5537593365 4282079503
-0.2897445261 -0.1452623755 0.5530171394 4282079503
-0.2898073792 -0.1446792930 0.5531370640 4282080015
-0.2898699641 -0.1440958381 0.5532565117 4282145808
-0.2894800305 -0.1432881206 0.5525122881 4282080015
-0.2895420790 -0.1427048296 0.5526307225 4281948429
-0.2891514003 -0.1418990940 0.5518850684 4281816843
-0.2892129123 -0.1413159519 0.5520024300 4281816843
-0.2888214886 -0.1405122131 0.5512553453 4281948181
-0.2888824344 -0.1399292499 0.5513716936 4282013974
-0.2889431715 -0.1393459290 0.5514875650 4282013712
-0.2890036404 -0.1387622356 0.5516030788 4282211091
-0.2890639305 -0.1381781697 0.5517180562 4282408721
-0.2886707783 -0.1373780817 0.5509677529 4282671893
-0.2887305021 -0.1367942095 0.5510817170 4282343190
-0.2887899876 -0.1362099648 0.5511952639 4284316980
-0.2888492346 -0.1356253773 0.5513083339 4285237581
-0.2889082730 -0.1350404173 0.5514209867 4286619234
-0.2889670432 -0.1344550997 0.5515332222 4287934340
-0.2890256047 -0.1338694394 0.5516449809 4287671168
-0.2890839279 -0.1332834065 0.5517563224 4289381283
-0.2891420424 -0.1326970309 0.5518671870 4289512869
-0.2891998887 -0.1321102977 0.5519776344 4289644715
-0.2897116244 -0.1317296922 0.5529543161 4289381543
-0.2897691131 -0.1311413348 0.5530640483 4289381283
-0.2898263633 -0.1305526346 0.5531733036 4289578662
-0.2898833752 -0.1299635768 0.5532821417 4289183904
-0.2899401486 -0.1293741763 0.5533905029 4288328595
-0.2899966836 -0.1287844330 0.5534983873 4288131470
-0.2900530100 -0.1281943321 0.5536058545 4288920986
-0.2901090682 -0.1276039034 0.5537129045 4287999880
-0.2906197011 -0.1272122115 0.5546875000 4287539329
-0.2906754017 -0.1266201735 0.5547937751 4287737470
-0.2907308340 -0.1260277927 0.5548996329 4286882161
-0.2912411094 -0.1256313622 0.5558735132 4286290529
-0.2912961543 -0.1250373870 0.5559785962 4286093150
-0.2913509607 -0.1244430616 0.5560832024 4285567055
-0.2918608487 -0.1240419149 0.5570564270 4285172297
-0.2923706770 -0.1236385852 0.5580294728 4285567053
-0.2928804159 -0.1232330501 0.5590023994 4285567053
-0.2929345071 -0.1226346120 0.5591056347 4286160213
-0.2934440374 -0.1222256273 0.5600781441 4286291799
-0.2934977114 -0.1216255873 0.5601806045 4286159697
-0.2940070033 -0.1212131530 0.5611526370 4285764939
-0.2940602899 -0.1206115261 0.5612543225 4285369929
-0.2950252891 -0.1203816980 0.5630961657 4284777792
-0.2950782478 -0.1197775528 0.5631972551 4284054837
-0.2955871224 -0.1193572804 0.5641685128 4283594286
-0.2965521216 -0.1191180721 0.5660103559 4283198258
-0.2975172102 -0.1188747957 0.5678523779 4283987774
-0.3461902440 -0.1901153624 0.6621551514 4285890684
-0.3458224535 -0.1891784668 0.6614516973 4283654222
-0.3454541862 -0.1882428825 0.6607473493 4283391050
-0.3446361423 -0.1870647073 0.6591826081 4282865720
-0.3433679640 -0.1856466532 0.6567569971 4282536755
-0.3407502770 -0.1835072339 0.6517502069 4282603567
-0.3354332447 -0.1799309701 0.6415804029 4282471981
-0.3008800149 -0.1607567221 0.5754906535 4282341155
-0.2978000641 -0.1584782749 0.5695996284 4282341155
-0.2960682809 -0.1569274962 0.5662873387 4282342174
-0.2947855294 -0.1556211263 0.5638337731 4282342174
-0.2935019433 -0.1543197781 0.5613786578 4282276632
-0.2926677465 -0.1532592177 0.5597831607 4282210839
-0.2918329537 -0.1522018760 0.5581864715 4282408472
-0.2909975350 -0.1511477530 0.5565885305 4282408472
-0.2906120420 -0.1503299326 0.5558512211 4282342679
-0.2902261317 -0.1495135427 0.5551130772 4282276886
-0.2893890142 -0.1484673023 0.5535119176 4282211604
-0.2894529998 -0.1478850096 0.5536343455 4282211604
-0.2895167768 -0.1473023295 0.5537562966 4282211091
-0.2891292572 -0.1464907229 0.5530151129 4282211091
-0.2891924977 -0.1459081918 0.5531360507 4282145811
-0.2892554998 -0.1453252584 0.5532565713 4282014225
-0.2888669074 -0.1445161551 0.5525133610 4282080016
-0.2889293730 -0.1439333856 0.5526328087 4282080016
-0.2885400653 -0.1431262493 0.5518881083 4282080016
-0.2886019647 -0.1425436437 0.5520065427 4282080016
-0.2886636257 -0.1419606507 0.5521245003 4282014223
-0.2882732451 -0.1411560476 0.5513778329 4281948430
-0.2883343697 -0.1405732334 0.5514947176 4281816341
-0.2883952856 -0.1399900466 0.5516112447 4281816341
-0.2880038321 -0.1391879767 0.5508624911 4281882126
-0.2880641818 -0.1386049688 0.5509779453 4282079505
-0.2881242931 -0.1380216032 0.5510929227 4282145551
-0.2881841958 -0.1374378651 0.5512074828 4282211344
-0.2882438600 -0.1368537545 0.5513216257 4282277143
-0.2883032858 -0.1362692863 0.5514352918 4284514105
-0.2884214818 -0.1350992769 0.5516613126 4284316226
-0.2884802222 -0.1345137358 0.5517737269 4287275899
-0.2885387242 -0.1339278370 0.5518856049 4288394380
-0.2885970175 -0.1333415806 0.5519970655 4289052059
-0.2886550725 -0.1327549666 0.5521081090 4289709989
-0.2887128890 -0.1321680099 0.5522186756 4290039213
-0.2887704670 -0.1315806806 0.5523288250 4290236592
-0.2888278067 -0.1309930235 0.5524384975 4289709991
-0.2888849378 -0.1304050088 0.5525477529 4289052061
-0.2889418006 -0.1298166364 0.5526565313 4288394131
-0.2889984548 -0.1292279214 0.5527648926 4287341443
-0.2895086408 -0.1288408190 0.5537407398 4287341700
-0.2895649076 -0.1282504797 0.5538483262 4288394388
-0.2896209061 -0.1276598126 0.5539554954 4288526226
-0.2896766961 -0.1270688027 0.5540621877 4288526226
-0.2901863754 -0.1266756952 0.5550370812 4287145335
-0.2902417779 -0.1260830760 0.5551429987 4286816370
-0.2907512486 -0.1256864965 0.5561174750 4287014252
-0.2908062339 -0.1250922680 0.5562226772 4285961564
-0.2908610106 -0.1244977117 0.5563274026 4284778311
-0.2909155488 -0.1239028126 0.5564317107 4284712518
-0.2914244533 -0.1235002503 0.5574051142 4285436239
-0.2923880517 -0.1232872307 0.5592481494 4285238860
-0.2924420834 -0.1226885468 0.5593515635 4285633867
-0.2929508090 -0.1222793981 0.5603245497 4285962832
-0.2930044532 -0.1216791198 0.5604271293 4285831500
-0.2935129106 -0.1212665215 0.5613996983 4285502535
-0.2935661674 -0.1206646487 0.5615015030 4285436488
-0.2940743864 -0.1202485934 0.5624735951 4284910144
-0.2945825160 -0.1198303476 0.5634455085 4283923764
-0.2950905561 -0.1194099039 0.5644172430 4283529006
-0.2960540056 -0.1191706061 0.5662599802 4283198758
-0.2965619564 -0.1187448427 0.5672315955 4283330344
-0.3442579508 -0.1894567013 0.6598610878 4285101168
-0.3438905180 -0.1885221303 0.6591567993 4283851601
-0.3435226381 -0.1875888556 0.6584516764 4283127878
-0.3427057266 -0.1864129156 0.6568858624 4282734134
-0.3405421376 -0.1845107973 0.6527386904 4282602548
-0.3370308876 -0.1818905920 0.6460084915 4282603565
-0.3061360717 -0.1645651460 0.5867904425 4282471979
-0.2990228236 -0.1601045728 0.5731560588 4282341155
-0.2963969409 -0.1580673754 0.5681228638 4282341155
-0.2946679592 -0.1565177739 0.5648087859 4282276381
-0.2933872342 -0.1552126855 0.5623539686 4282276381
-0.2930044532 -0.1543861777 0.5616202354 4282276886
-0.2921717465 -0.1533252001 0.5600241423 4282342679
-0.2913384140 -0.1522674263 0.5584268570 4282473495
-0.2905044556 -0.1512128860 0.5568283796 4282473495
-0.2901196778 -0.1503947377 0.5560908318 4282342677
-0.2897344828 -0.1495780200 0.5553524494 4282276884
-0.2893488407 -0.1487627178 0.5546132922 4282276884
-0.2889627814 -0.1479488462 0.5538733006 4282211091
-0.2890264988 -0.1473659426 0.5539954305 4282211091
-0.2886396945 -0.1465540081 0.5532540679 4282211091
-0.2887028754 -0.1459712535 0.5533751249 4282211091
-0.2883153260 -0.1451612860 0.5526323318 4282145298
-0.2883779705 -0.1445786804 0.5527523756 4281948430
-0.2879896760 -0.1437706798 0.5520080924 4281948430
-0.2880517542 -0.1431882232 0.5521270633 4281948430
-0.2876627147 -0.1423822194 0.5513814092 4282014223
-0.2877242565 -0.1417999119 0.5514993668 4282080016
-0.2877855599 -0.1412172467 0.5516168475 4282014223
-0.2878466547 -0.1406341940 0.5517339110 4282014222
-0.2874562144 -0.1398312747 0.5509855747 4281948429
-0.2875167429 -0.1392484009 0.5511016250 4281882636
-0.2875770628 -0.1386651695 0.5512171984 4282080015
-0.2876371443 -0.1380815655 0.5513323545 4282145811
-0.2876969874 -0.1374975890 0.5514470339 4282211604
-0.2877565920 -0.1369132549 0.5515613556 4282408478
-0.2878159881 -0.1363285631 0.5516751409 4284184889
-0.2878751457 -0.1357435137 0.5517885685 4285039697
-0.2874820530 -0.1349459141 0.5510351062 4283921216
-0.2879927456 -0.1345723122 0.5520139933 4286750068
-0.2875990272 -0.1337758452 0.5512592793 4286881654
-0.2876571715 -0.1331902742 0.5513707399 4286684022
-0.2877150774 -0.1326043606 0.5514817238 4289249949
-0.2882252336 -0.1322256625 0.5524595976 4289973674
-0.2882827520 -0.1316381097 0.5525698662 4289249951
-0.2878873944 -0.1308444738 0.5518120527 4288393877
-0.2879443765 -0.1302571446 0.5519213080 4288591256
-0.2884539664 -0.1298733503 0.5528980494 4289249186
-0.2885105610 -0.1292844117 0.5530065298 4288854428
-0.2885669172 -0.1286951154 0.5531145334 4288131216
-0.2890761495 -0.1283065826 0.5540906191 4286881149
-0.2891321182 -0.1277156770 0.5541979074 4286684020
-0.2891878784 -0.1271244287 0.5543047786 4288197259
-0.2892433703 -0.1265328377 0.5544111133 4286158438
-0.2897520959 -0.1261382997 0.5553862453 4285434715
-0.2898072004 -0.1255451143 0.5554918647 4286685287
-0.2898620665 -0.1249515712 0.5555970669 4285764185
-0.2903704047 -0.1245523095 0.5565714240 4284646723
-0.2904249132 -0.1239571720 0.5566758513 4284449344
-0.2909330130 -0.1235544533 0.5576497912 4284778562
-0.2914410532 -0.1231495440 0.5586235523 4285436492
-0.2919490337 -0.1227424368 0.5595972538 4285502535
-0.2920027971 -0.1221431717 0.5597003102 4285831500
-0.2925105095 -0.1217326075 0.5606734753 4285634118
-0.2925638855 -0.1211317480 0.5607757568 4285173567
-0.2930713892 -0.1207177266 0.5617485046 4285239363
-0.2935787737 -0.1203015074 0.5627211332 4284778812
-0.2936315835 -0.1196978092 0.5628222823 4283725870
-0.2941387296 -0.1192781329 0.5637943745 4283462698
-0.2951005101 -0.1190396845 0.5656378865 4283199263
-0.2956075966 -0.1186146885 0.5666098595 4283330849
-0.2965694368 -0.1183690429 0.5684534907 4283722574
-0.3423294723 -0.1887973249 0.6575645208 4284574311
-0.3419624269 -0.1878650784 0.6568595171 4283720015
-0.3411472440 -0.1866891533 0.6552936435 4282864706
-0.3403313458 -0.1855163276 0.6537264585 4282668339
-0.3377231658 -0.1833738238 0.6487165093 4282602546
-0.3328734338 -0.1800301373 0.6394008398 4282669358
-0.3033747375 -0.1634287089 0.5827382207 4282471979
-0.2976178229 -0.1596922576 0.5716800094 4282275362
-0.2949962318 -0.1576560140 0.5666443110 4282209569
-0.2937184870 -0.1563462913 0.5641899705 4282275867
-0.2928884029 -0.1552793533 0.5625954866 4282275867
-0.2920576930 -0.1542156339 0.5609998703 4282211093
-0.2912263870 -0.1531551331 0.5594030023 4282211093
-0.2903944254 -0.1520978510 0.5578049421 4282407702
-0.2900107503 -0.1512779593 0.5570679903 4282407702
-0.2896266878 -0.1504594982 0.5563302040 4282407702
-0.2887930572 -0.1494100839 0.5547289252 4282341909
-0.2888572812 -0.1488268226 0.5548523068 4282276114
-0.2884719074 -0.1480126232 0.5541120768 4282276114
-0.2885355949 -0.1474294960 0.5542343855 4282145298
-0.2881495059 -0.1466172487 0.5534927845 4282145298
-0.2882126272 -0.1460342556 0.5536140203 4282079503
-0.2878257930 -0.1452239752 0.5528709888 4282079503
-0.2878883779 -0.1446411461 0.5529911518 4281947917
-0.2879507244 -0.1440579146 0.5531109571 4281816331
-0.2875628173 -0.1432501376 0.5523658395 4281816331
-0.2876246274 -0.1426670849 0.5524845719 4281882124
-0.2872359753 -0.1418612897 0.5517380238 4281882124
-0.2872972488 -0.1412783861 0.5518556833 4281882124
-0.2873582542 -0.1406951249 0.5519729257 4281685511
-0.2869685590 -0.1398918629 0.5512243509 4281553925
-0.2870290577 -0.1393087655 0.5513405204 4281553672
-0.2870892882 -0.1387253106 0.5514562726 4281751051
-0.2871493101 -0.1381414682 0.5515715480 4281816592
-0.2872091234 -0.1375572830 0.5516864061 4281948178
-0.2868176997 -0.1367576867 0.5509346128 4282079767
-0.2873280346 -0.1363877952 0.5519148111 4282869283
-0.2873871326 -0.1358025074 0.5520283580 4283724087
-0.2869947553 -0.1350045949 0.5512746572 4284645189
-0.2875046432 -0.1346308589 0.5522541404 4287145076
-0.2871116400 -0.1338340640 0.5514991879 4287605627
-0.2871697247 -0.1332482547 0.5516107678 4285828715
-0.2872276008 -0.1326621026 0.5517219305 4287605126
-0.2872852087 -0.1320755929 0.5518326163 4289775792
-0.2873426080 -0.1314887404 0.5519428849 4287736209
-0.2873997688 -0.1309015304 0.5520526767 4286156664
-0.2874567211 -0.1303139627 0.5521620512 4287209352
-0.2875134051 -0.1297260523 0.5522709489 4289314980
-0.2880220413 -0.1293408424 0.5532479286 4289972910
-0.2880783379 -0.1287513226 0.5533561110 4289907881
-0.2881344259 -0.1281614453 0.5534638166 4288328849
-0.2886427045 -0.1277714968 0.5544401407 4287407998
-0.2886983752 -0.1271800101 0.5545470715 4288197514
-0.2887538373 -0.1265881807 0.5546536446 4286750577
-0.2888090611 -0.1259960085 0.5547596812 4285829475
-0.2893168032 -0.1256000549 0.5557349920 4286685287
-0.2893716395 -0.1250062883 0.5558403134 4285764185
-0.2894262373 -0.1244121715 0.5559452176 4285107272
-0.2899336219 -0.1240114942 0.5569198132 4284712514
-0.2904409170 -0.1236086190 0.5578942299 4284384054
-0.2904949486 -0.1230116412 0.5579980612 4284844605
-0.2910020351 -0.1226053089 0.5589720607 4285436488
-0.2915090322 -0.1221967787 0.5599459410 4285699660
-0.2915624976 -0.1215969399 0.5600486398 4285502786
-0.2920692563 -0.1211849526 0.5610220432 4284976442
-0.2925759554 -0.1207707673 0.5619953275 4284910659
-0.2930825353 -0.1203543842 0.5629684329 4284515901
-0.2931352854 -0.1197504327 0.5630697608 4283726375
-0.2940954864 -0.1195150316 0.5649141669 4283594789
-0.2946018279 -0.1190920621 0.5658867955 4283265054
-0.2951081097 -0.1186668947 0.5668592453 4283330847
-0.2956142724 -0.1182395294 0.5678315163 4283591740
-0.3403244019 -0.1888206750 0.6551107168 4289442993
-0.3399581015 -0.1878903508 0.6544055939 4284047967
-0.3395913541 -0.1869613379 0.6536996365 4283391050
-0.3392241299 -0.1860336363 0.6529927254 4282798913
