VERSION 0.7
FIELDS x y z rgba
SIZE 4 4 4 4
TYPE F F F U
COUNT 1 1 1 1
WIDTH 920
HEIGHT 1
VIEWPOINT 0.0 0.0 0.0 1.0 0.0 0.0 0.0
POINTS 920
DATA ascii
-0.2519157231 -0.1669944823 0.5229410529 4289375419
-0.2519826293 -0.1664576530 0.5230799317 4289835970
-0.2516320646 -0.1656457037 0.5223522186 4289835970
-0.2521159053 -0.1653827280 0.5233566165 4289901763
-0.2521822751 -0.1648446172 0.5234943628 4289968067
-0.2522484660 -0.1643060893 0.5236317515 4289902274
-0.2518967092 -0.1634960026 0.5229015946 4289704641
-0.2519624233 -0.1629575193 0.5230380297 4289704641
-0.2520279586 -0.1624186188 0.5231740475 4289770177
-0.2520933151 -0.1618793011 0.5233097076 4289704384
-0.2517403066 -0.1610720009 0.5225769281 4289112758
-0.2518051863 -0.1605327427 0.5227115750 4288849586
-0.2514514625 -0.1597272903 0.5219773650 4289639102
-0.2519343793 -0.1594529599 0.5229797363 4289704895
-0.2511614859 -0.1583845019 0.5213753581 4290231239
-0.2512254119 -0.1578453779 0.5215080380 4290560204
-0.2512891293 -0.1573058516 0.5216403604 4291480793
-0.2509337664 -0.1565046161 0.5209026337 4292007137
-0.2509970069 -0.1559651643 0.5210339427 4291086037
-0.2506409585 -0.1551658362 0.5202947855 4290362314
-0.2507037222 -0.1546264589 0.5204251409 4290230728
-0.2503469586 -0.1538290232 0.5196845531 4290164935
-0.2499898225 -0.1530329883 0.5189431310 4290230728
-0.2500518262 -0.1524942070 0.5190718770 4290493900
-0.2501136363 -0.1519550383 0.5192002058 4290493900
-0.2501752675 -0.1514154673 0.5193281174 4290691279
-0.2498168498 -0.1506223530 0.5185840726 4290690509
-0.2498779893 -0.1500829011 0.5187110305 4290690509
-0.2499389499 -0.1495430470 0.5188375711 4290690509
-0.2499997169 -0.1490028054 0.5189636946 4290690509
-0.2496400177 -0.1482126415 0.5182170272 4290887888
-0.2497002929 -0.1476725191 0.5183421373 4290887888
-0.2497603893 -0.1471319944 0.5184668899 4290822095
-0.2498202920 -0.1465910971 0.5185912251 4290756302
-0.2498800009 -0.1460497975 0.5187152028 4290822095
-0.2499395162 -0.1455081254 0.5188387036 4290756302
-0.2499988377 -0.1449660510 0.5189618468 4290361544
-0.2500579655 -0.1444236040 0.5190846324 4290164165
-0.2496958226 -0.1436385363 0.5183328986 4290887888
-0.2497544736 -0.1430962235 0.5184546113 4291545818
-0.2498129159 -0.1425535381 0.5185759068 4291019474
-0.2498711646 -0.1420104802 0.5186968446 4289966786
-0.2499292195 -0.1414670199 0.5188173652 4290295751
-0.2499870807 -0.1409232020 0.5189374685 4290558923
-0.2500447631 -0.1403789967 0.5190571547 4290822865
-0.2501022220 -0.1398344189 0.5191764832 4290822865
-0.2501595020 -0.1392894685 0.5192953348 4290362312
-0.2502165735 -0.1387441307 0.5194138288 4290230726
-0.2502734363 -0.1381984353 0.5195319057 4290624714
-0.2503301203 -0.1376523674 0.5196495652 4290427335
-0.2503865957 -0.1371059269 0.5197668076 4290493898
-0.2504428625 -0.1365591139 0.5198836327 4290625484
-0.2504989505 -0.1360119283 0.5200000405 4290493898
-0.2505548298 -0.1354643852 0.5201160312 4290493898
-0.2506105006 -0.1349164695 0.5202316046 4289968067
-0.2506659627 -0.1343681961 0.5203467607 4289770688
-0.2507212460 -0.1338195503 0.5204614997 4289441210
-0.2507763207 -0.1332705617 0.5205758214 4289112245
-0.2508311868 -0.1327211857 0.5206897259 4288850355
-0.2508858740 -0.1321714669 0.5208032131 4288850355
-0.2509403229 -0.1316213906 0.5209162831 4289771457
-0.2509945929 -0.1310709417 0.5210289359 4290758352
-0.2510486543 -0.1305201501 0.5211411119 4290955731
-0.2511025071 -0.1299690008 0.5212529302 4291021524
-0.2507326007 -0.1291992515 0.5204851031 4291152855
-0.2507859468 -0.1286483258 0.5205958486 4291087062
-0.2508391142 -0.1280970424 0.5207061768 4291152855
-0.2508920431 -0.1275454164 0.5208160281 4291021269
-0.2509447634 -0.1269934326 0.5209255219 4291087062
-0.2509973049 -0.1264411062 0.5210345387 4291087062
-0.2510496080 -0.1258884370 0.5211431384 4291020501
-0.2511017323 -0.1253354251 0.5212513208 4291020501
-0.2511536479 -0.1247820631 0.5213590860 4291217880
-0.2507809997 -0.1240185127 0.5205855370 4291217880
-0.2508324087 -0.1234654039 0.5206922293 4290955478
-0.2508835793 -0.1229119599 0.5207985044 4291152857
-0.2509345710 -0.1223581731 0.5209043026 4291152857
-0.2505606711 -0.1215979531 0.5201281309 4291021271
-0.2510358989 -0.1212495938 0.5211147070 4291087064
-0.2506614029 -0.1204905808 0.5203372836 4291152857
-0.2507114708 -0.1199363917 0.5204411745 4291217880
-0.2507613003 -0.1193818748 0.5205446482 4291152087
-0.2508109510 -0.1188270301 0.5206477046 4291020501
-0.2508603632 -0.1182718500 0.5207502842 4291152087
-0.2509095669 -0.1177163497 0.5208524466 4291152087
-0.2509585619 -0.1171605214 0.5209541321 4291086294
-0.2505819201 -0.1164067313 0.5201722383 4291217880
-0.2506304085 -0.1158511937 0.5202729106 4291217880
-0.2506786883 -0.1152953357 0.5203731060 4291217880
-0.2507267296 -0.1147391573 0.5204728842 4291283673
-0.2507745922 -0.1141826585 0.5205721855 4291217880
-0.2512480617 -0.1138187572 0.5215550661 4291217880
-0.2512955666 -0.1132606789 0.5216536522 4291283673
-0.2509168386 -0.1125112697 0.5208675265 4291415259
-0.2509638071 -0.1119535044 0.5209650397 4291415259
-0.2510105968 -0.1113954335 0.5210621357 4291481052
-0.2510571480 -0.1108370498 0.5211587548 4291546845
-0.2511034906 -0.1102783531 0.5212549567 4291546845
-0.2507231832 -0.1095330715 0.5204655528 4291481822
-0.2507690191 -0.1089747101 0.5205606818 4291481822
-0.2508146167 -0.1084160432 0.5206553340 4291481822
-0.2508600056 -0.1078570709 0.5207495689 4291547615
-0.2509051859 -0.1072977930 0.5208433270 4291613408
-0.2509501278 -0.1067382246 0.5209366679 4291613408
-0.2509948611 -0.1061783433 0.5210294724 4291679201
-0.2506124377 -0.1054385528 0.5202356577 4291679201
-0.2506566644 -0.1048790291 0.5203274488 4291810271
-0.2507006526 -0.1043192223 0.5204187632 4291744478
-0.2507444322 -0.1037591100 0.5205096006 4291744478
-0.2507880032 -0.1031987146 0.5206000209 4291810271
-0.2508313358 -0.1026380211 0.5206900239 4291810271
-0.2508744299 -0.1020770371 0.5207794905 4291810271
-0.2509173453 -0.1015157700 0.5208685398 4291810271
-0.2509599924 -0.1009542122 0.5209571123 4291810271
-0.2505748570 -0.1002213433 0.5201575756 4291941857
-0.2506169975 -0.0996601731 0.5202450752 4291941857
-0.2510866821 -0.0992678329 0.5212200880 4292007650
-0.2511284649 -0.0987051427 0.5213068128 4292073443
-0.2507421374 -0.0979749784 0.5205048323 4292073443
-0.2512113452 -0.0975789204 0.5214788914 4292139236
-0.2512524426 -0.0970153883 0.5215641856 4292139236
-0.2512933314 -0.0964515880 0.5216490626 4292139236
-0.2509058118 -0.0957241580 0.5208446383 4292205029
-0.2509461939 -0.0951607674 0.5209284425 4292205029
-0.2509863377 -0.0945971012 0.5210117698 4292204775
-0.2510262430 -0.0940331742 0.5210946202 4292204775
-0.2510659099 -0.0934689716 0.5211769938 4292204775
-0.2506768703 -0.0927459672 0.5203693509 4292270568
-0.2507160306 -0.0921822041 0.5204506516 4292270568
-0.2507549822 -0.0916181728 0.5205315351 4292270568
-0.2507936954 -0.0910538733 0.5206118822 4292336361
-0.2508321702 -0.0904893205 0.5206917524 4292336361
-0.2504415810 -0.0897707939 0.5198809505 4292271338
-0.2504795492 -0.0892066881 0.5199597478 4292337131
-0.2505172789 -0.0886423290 0.5200381279 4292337131
-0.2505548000 -0.0880777165 0.5201159716 4292402924
-0.2505920827 -0.0875128433 0.5201933384 4292402924
-0.2506291270 -0.0869477242 0.5202702284 4292402924
-0.2506659329 -0.0863823593 0.5203467011 4292731121
-0.2507025301 -0.0858167410 0.5204226375 4292731121
-0.2511682510 -0.0853968561 0.5213893652 4292600305
-0.2512044311 -0.0848297775 0.5214645267 4292600305
-0.2512404025 -0.0842624530 0.5215391517 4292666098
-0.2512761354 -0.0836948827 0.5216133595 4292666098
-0.2513116300 -0.0831270739 0.5216870308 4292600305
-0.2513468862 -0.0825590268 0.5217602253 4292666098
-0.2513819337 -0.0819907412 0.5218329430 4292666098
-0.2509869635 -0.0812830403 0.5210130811 4292731891
-0.2510214746 -0.0807152539 0.5210847259 4292666609
-0.2510557473 -0.0801472291 0.5211558342 4292732402
-0.2510897815 -0.0795789808 0.5212265253 4292929781
-0.2511236072 -0.0790105015 0.5212967396 4292929781
-0.2511571944 -0.0784417912 0.5213664174 4292995061
-0.2507604063 -0.0777395070 0.5205428004 4292995061
-0.2507934570 -0.0771713182 0.5206114054 4292929529
-0.2508262694 -0.0766029060 0.5206795335 4292863736
-0.2512891591 -0.0761646852 0.5216404200 4292863736
-0.2513215542 -0.0755948573 0.5217076540 4292995322
-0.2513537407 -0.0750248060 0.5217744708 4293061115
-0.2513856590 -0.0744545385 0.5218407512 4293126908
-0.2509868741 -0.0737575367 0.5210129023 4293192953
-0.2510182858 -0.0731878132 0.5210781097 4293258746
-0.2510494590 -0.0726178735 0.5211427808 4293258231
-0.2510803938 -0.0720477253 0.5212070346 4293192438
-0.2511110902 -0.0714773685 0.5212707520 4293324024
-0.2511415482 -0.0709067956 0.5213339925 4293389817
-0.2511717975 -0.0703360215 0.5213967562 4293389817
-0.2507708967 -0.0696453825 0.5205645561 4293521403
-0.2508006096 -0.0690751746 0.5206262469 4293653244
-0.2508300841 -0.0685047731 0.5206874013 4293653244
-0.2512903214 -0.0680508912 0.5216428041 4293455865
-0.2513193786 -0.0674791038 0.5217031240 4293324279
-0.2513481677 -0.0669071227 0.5217629075 4293390070
-0.2509455681 -0.0662211627 0.5209271312 4293653242
-0.2509738505 -0.0656497702 0.5209858418 4293784828
-0.2510018647 -0.0650781915 0.5210440159 4293784828
-0.2510296702 -0.0645064116 0.5211017132 4293850621
-0.2510572374 -0.0639344528 0.5211589336 4293916414
-0.2510845363 -0.0633623004 0.5212156773 4294047484
-0.2515431046 -0.0628978536 0.5221675038 4294047484
-0.2515699863 -0.0623243451 0.5222233534 4294113277
-0.2520281672 -0.0618565753 0.5231745243 4294113277
-0.2520546317 -0.0612817220 0.5232294202 4294113275
-0.2520808280 -0.0607066900 0.5232838392 4294113275
-0.2521068156 -0.0601314753 0.5233377218 4294113275
-0.2521325350 -0.0595560856 0.5233911276 4294113275
-0.2521580160 -0.0589805208 0.5234439969 4293982459
-0.2521832585 -0.0584047846 0.5234963894 4294114045
-0.2522082627 -0.0578288734 0.5235483050 4294114045
-0.2522329986 -0.0572527945 0.5235996842 4294114045
-0.2522575259 -0.0566765442 0.5236505866 4294179838
-0.2522817850 -0.0561001264 0.5237009525 4294179838
-0.2527378500 -0.0556186177 0.5246476531 4294310653
-0.2527616620 -0.0550408848 0.5246971250 4294442239
-0.2527852356 -0.0544629879 0.5247460604 4294442239
-0.2528085709 -0.0538849309 0.5247944593 4294442239
-0.2528316677 -0.0533067137 0.5248423815 4294311677
-0.2528544962 -0.0527283400 0.5248898268 4294377470
-0.2533093691 -0.0522389561 0.5258340836 4294508286
-0.2533317506 -0.0516592823 0.5258805156 4294508286
-0.2533538938 -0.0510794558 0.5259265304 4294574079
-0.2533757985 -0.0504994802 0.5259719491 4294574079
-0.2533974349 -0.0499193519 0.5260168910 4294770429
-0.2538513243 -0.0494232737 0.5269590616 4294770429
-0.2538725138 -0.0488418639 0.5270030499 4294770429
-0.2543259859 -0.0483425222 0.5279443860 4294770429
-0.2543467283 -0.0477598310 0.5279874206 4294770429
-0.2543672025 -0.0471769981 0.5280299783 4294770429
-0.2543874383 -0.0465940274 0.5280719995 4294770429
-0.2548401058 -0.0460891649 0.5290116668 4294770429
-0.2552925646 -0.0455821827 0.5299509168 4294770429
-0.2540139258 -0.0447680205 0.5272966623 4294770429
-0.2553314269 -0.0444113165 0.5300316215 4294770429
-0.2549177110 -0.0437514037 0.5291727185 4294770429
-0.2545036376 -0.0430933461 0.5283132195 4294770429
-0.2545221448 -0.0425094441 0.5283516049 4294770429
-0.2558390498 -0.0421393178 0.5310853720 4294770429
-0.2549912930 -0.0414115638 0.5293255448 4294770429
-0.2550090849 -0.0408262908 0.5293624401 4294835709
-0.2563255429 -0.0404458605 0.5320952535 4294835709
-0.2554768920 -0.0397227108 0.5303335190 4294835709
-0.2568099499 -0.0387453549 0.5331007838 4294835709
-0.2568265796 -0.0381555110 0.5331352949 4294835709
-0.2572760880 -0.0376289040 0.5340684056 4294835709
-0.2572922409 -0.0370378420 0.5341019630 4294835709
-0.2573081553 -0.0364466682 0.5341349840 4294835709
-0.2590566278 -0.0360968374 0.5377645493 4294835709
-0.2590721250 -0.0355014652 0.5377966762 4294835709
-0.2586540878 -0.0348476171 0.5369289517 4294835709
-0.2595356107 -0.0343677811 0.5387588739 4294835709
-0.2599836886 -0.0338274799 0.5396890044 4294835709
-0.2604315281 -0.0332850851 0.5406186581 4294835709
-0.2608791590 -0.0327406004 0.5415478945 4294835709
-0.2600264549 -0.0320338532 0.5397778153 4294769916
-0.2609070241 -0.0315405689 0.5416057110 4294769916
-0.2604871392 -0.0308890156 0.5407340527 4294769916
-0.2609338164 -0.0303401612 0.5416613221 4294769916
-0.2613803148 -0.0297892224 0.5425881743 4294769916
-0.2635605335 -0.0294298157 0.5471140146 4294835709
-0.2648736835 -0.0289655346 0.5498399138 4294835709
-0.2661866844 -0.0284951795 0.5525655150 4294835709
-0.2797436416 -0.2343725413 0.5820498466 4288914865
-0.2794260681 -0.2334605157 0.5813890696 4289770174
-0.2787006199 -0.2322101146 0.5798796415 4289704381
-0.2791972458 -0.2319784611 0.5809129477 4289835967
-0.2780631185 -0.2303933054 0.5785531998 4289901760
-0.2769280374 -0.2288126349 0.5761914849 4289835967
-0.2733441591 -0.2252195328 0.5687347054 4289901760
-0.2656767368 -0.2182878405 0.5527814031 4289901760
-0.2588207126 -0.2120563984 0.5385164022 4289901760
-0.2556354105 -0.2088556737 0.5318889618 4289967554
-0.2561243474 -0.2086630464 0.5329062343 4290099140
-0.2525271773 -0.2051486671 0.5254217982 4290164933
-0.2517887950 -0.2039667368 0.5238854289 4290230726
-0.2518675029 -0.2034482509 0.5240492225 4290296519
-0.2515370548 -0.2025998235 0.5233616829 4290296519
-0.2516153157 -0.2020812035 0.5235245228 4290428107
-0.2512841821 -0.2012343407 0.5228355527 4290559693
-0.2513620257 -0.2007155865 0.5229974985 4290822865
-0.2514397204 -0.2001963556 0.5231591463 4291086037
-0.2515172660 -0.1996766478 0.5233204365 4291151830
-0.2515946329 -0.1991564482 0.5234814882 4291086037
-0.2516718507 -0.1986357868 0.5236421227 4291086037
-0.2517489493 -0.1981146336 0.5238025188 4291086037
-0.2518258393 -0.1975930035 0.5239625573 4291086037
-0.2510820925 -0.1964289695 0.5224150419 4291151830
-0.2511584461 -0.1959080845 0.5225738883 4291151830
-0.2512346208 -0.1953867227 0.5227324367 4291020244
-0.2513106763 -0.1948648989 0.5228906274 4290757070
-0.2513865530 -0.1943425834 0.5230485201 4290559691
-0.2514622808 -0.1938198060 0.5232060552 4290362312
-0.2515378594 -0.1932965666 0.5233632922 4290033347
-0.2516132593 -0.1927728355 0.5235202312 4289770175
-0.2516885102 -0.1922486424 0.5236767530 4289507003
-0.2517635822 -0.1917239875 0.5238329768 4289046452
-0.2518385053 -0.1911988556 0.5239889026 4288849073
-0.2519132793 -0.1906732619 0.5241444707 4288980659
-0.2519878745 -0.1901471913 0.5242996812 4289112245
-0.2516504526 -0.1893108189 0.5235975981 4289244344
-0.2517246306 -0.1887846738 0.5237519145 4289178551
-0.2517986000 -0.1882580817 0.5239058733 4289243833
-0.2518724501 -0.1877310127 0.5240594745 4289507005
-0.2519461215 -0.1872034818 0.5242127776 4289770177
-0.2520196140 -0.1866754889 0.5243656635 4289967556
-0.2520929575 -0.1861470342 0.5245183110 4290099140
-0.2521661222 -0.1856181175 0.5246705413 4290164933
-0.2522391379 -0.1850887388 0.5248224139 4290296519
-0.2518990338 -0.1842568368 0.5241147876 4290625484
-0.2519715726 -0.1837274134 0.5242657661 4291216853
-0.2516307831 -0.1828972101 0.5235566497 4291151060
-0.2512895763 -0.1820682883 0.5228466988 4291019474
-0.2513613701 -0.1815392375 0.5229961276 4291085267
-0.2514330149 -0.1810097247 0.5231451988 4290954449
-0.2510908544 -0.1801829189 0.5224332213 4290888656
-0.2507482767 -0.1793574095 0.5217204690 4291019474
-0.2508191764 -0.1788282990 0.5218679905 4290756302
-0.2508898973 -0.1782987416 0.5220151544 4290558923
-0.2505463362 -0.1774753779 0.5213003159 4290361544
-0.2506166101 -0.1769457906 0.5214465261 4290164935
-0.2506867349 -0.1764157712 0.5215924382 4290230728
-0.2507566512 -0.1758852899 0.5217379332 4290296521
-0.2508264184 -0.1753543764 0.5218830705 4290164935
-0.2508960068 -0.1748230159 0.5220278502 4290164935
-0.2509654462 -0.1742912233 0.5221723318 4290164935
-0.2514496148 -0.1740461886 0.5231797099 4290428107
-0.2515187860 -0.1735126227 0.5233236551 4290691279
-0.2515878081 -0.1729786247 0.5234672427 4290822865
-0.2516566515 -0.1724441797 0.5236104727 4291020244
-0.2513099313 -0.1716256142 0.5228890777 4291283416
-0.2513782978 -0.1710911840 0.5230312943 4291349209
-0.2514464855 -0.1705563217 0.5231732130 4290888915
-0.2515144944 -0.1700210124 0.5233147144 4290428364
-0.2515823543 -0.1694852859 0.5234558582 4289704895
-0.2516500056 -0.1689491123 0.5235966444 4289112758
-0.2513014376 -0.1681341380 0.5228713751 4288980659
-0.2509524524 -0.1673205197 0.5221452713 4288980659
-0.2514356375 -0.1670614183 0.5231506228 4289243833
-0.2515024841 -0.1665244102 0.5232897401 4289572798
-0.2515691221 -0.1659869850 0.5234283805 4289835970
-0.2512190044 -0.1651751995 0.5226998925 4290164935
-0.2517019212 -0.1649108380 0.5237046480 4290099140
-0.2517680228 -0.1643721312 0.5238422155 4289770175
-0.2518339455 -0.1638329923 0.5239794254 4289769405
-0.2514826655 -0.1630230844 0.5232484341 4289769405
-0.2515481114 -0.1624840051 0.5233846307 4289835200
-0.2516133785 -0.1619444937 0.5235204697 4289900993
-0.2512611151 -0.1611369103 0.5227875113 4289178551
-0.2513259053 -0.1605974585 0.5229223371 4289178551
-0.2513905168 -0.1600575894 0.5230567455 4289375929
-0.2510372400 -0.1592523307 0.5223217607 4289836480
-0.2511014044 -0.1587125361 0.5224552155 4290231239
-0.2507474422 -0.1579091549 0.5217187405 4290494411
-0.2508111000 -0.1573694199 0.5218511820 4291020501
-0.2504564524 -0.1565679163 0.5211132765 4291810017
-0.2505196333 -0.1560282707 0.5212447643 4291546588
-0.2501643002 -0.1552286446 0.5205054283 4290230728
-0.2502270043 -0.1546890885 0.5206359029 4290493898
-0.2502895296 -0.1541491300 0.5207659602 4290362312
-0.2499332130 -0.1533519030 0.5200245976 4290493900
-0.2499952465 -0.1528120339 0.5201537013 4290493900
-0.2496382445 -0.1520167142 0.5194109082 4290362314
-0.2492808402 -0.1512227952 0.5186672807 4290559693
-0.2493421137 -0.1506835371 0.5187947154 4290690509
-0.2494031936 -0.1501438916 0.5189218521 4290887888
-0.2494640797 -0.1496038586 0.5190485120 4290887888
-0.2495247871 -0.1490634084 0.5191748142 4290822095
-0.2495852858 -0.1485225856 0.5193006992 4290624716
-0.2492260337 -0.1477326453 0.5185531974 4290756302
-0.2492860705 -0.1471919417 0.5186781287 4290624716
-0.2493458986 -0.1466508508 0.5188026428 4290756302
-0.2494055480 -0.1461093575 0.5189267397 4290953681
-0.2494649887 -0.1455674767 0.5190504193 4290953681
-0.2495242506 -0.1450252235 0.5191736817 4290558921
-0.2500034869 -0.1447258145 0.5201708078 4289835198
-0.2496421784 -0.1439395398 0.5194190741 4289835968
-0.2497008592 -0.1433961242 0.5195411444 4290822863
-0.2497593462 -0.1428523362 0.5196628571 4291217621
-0.2498176247 -0.1423081458 0.5197841525 4290757070
-0.2498757243 -0.1417635977 0.5199049711 4290493128
-0.2499336153 -0.1412186474 0.5200254321 4290558921
-0.2499913126 -0.1406733394 0.5201455355 4290625484
-0.2500488162 -0.1401276439 0.5202651620 4290691277
-0.2501061261 -0.1395815760 0.5203843713 4290493898
-0.2497420907 -0.1388010532 0.5196269155 4290428105
-0.2497988939 -0.1382551640 0.5197451711 4290493898
-0.2498555183 -0.1377088875 0.5198629498 4290428105
-0.2499119341 -0.1371622533 0.5199803114 4290230726
-0.2503896654 -0.1368456185 0.5209743381 4289901761
-0.2504457831 -0.1362973154 0.5210911036 4289244858
-0.2505016923 -0.1357486397 0.5212074518 4288652721
-0.2505574226 -0.1351996064 0.5213233829 4288323756
-0.2506129146 -0.1346502006 0.5214388371 4288455342
-0.2506682277 -0.1341004372 0.5215539336 4289310136
-0.2507233322 -0.1335503012 0.5216686130 4289968066
-0.2503560483 -0.1327759027 0.5209044218 4290691536
-0.2504106760 -0.1322259903 0.5210180283 4291020501
-0.2504650652 -0.1316756904 0.5211312175 4291415259
-0.2505192757 -0.1311250478 0.5212439895 4291546845
-0.2505732775 -0.1305740476 0.5213563442 4291349466
-0.2506270707 -0.1300226897 0.5214682817 4291086294
-0.2506806552 -0.1294709891 0.5215798020 4291086294
-0.2503112257 -0.1287015229 0.5208110809 4291217880
-0.2503643036 -0.1281500310 0.5209215879 4291020501
-0.2504172027 -0.1275981963 0.5210316181 4291020501
-0.2504698634 -0.1270460188 0.5211412311 4291020501
-0.2505223453 -0.1264934838 0.5212503672 4291020501
-0.2505745888 -0.1259406060 0.5213591456 4290954708
-0.2502033114 -0.1251755804 0.5205865502 4291086294
-0.2502550483 -0.1246229485 0.5206942558 4291217880
-0.2503066063 -0.1240699738 0.5208015442 4291217880
-0.2499343455 -0.1233076602 0.5200269818 4291217623
-0.2504090965 -0.1229629964 0.5210147500 4291217623
-0.2500362396 -0.1222018823 0.5202389359 4291217623
-0.2500868738 -0.1216484904 0.5203443170 4291217623
-0.2501372993 -0.1210947633 0.5204492211 4291152087
-0.2497634590 -0.1203363910 0.5196713805 4291152087
-0.2498133779 -0.1197829321 0.5197752714 4291152087
-0.2498630732 -0.1192291453 0.5198786855 4291152087
-0.2499125749 -0.1186750233 0.5199816823 4291086294
-0.2499618679 -0.1181205809 0.5200842023 4291086294
-0.2500109375 -0.1175658032 0.5201863050 4291021271
-0.2500597835 -0.1170107052 0.5202879906 4291087064
-0.2501084507 -0.1164552793 0.5203891993 4291021271
-0.2501568794 -0.1158995330 0.5204899907 4291087064
-0.2502050996 -0.1153434590 0.5205903053 4291087064
-0.2502531111 -0.1147870719 0.5206902027 4291021271
-0.2503009140 -0.1142303571 0.5207896829 4291217880
-0.2503485084 -0.1136733294 0.5208886862 4291217880
-0.2503958642 -0.1131159812 0.5209872127 4291217880
-0.2504430115 -0.1125583202 0.5210853219 4291283673
-0.2504899502 -0.1120003387 0.5211830139 4291349466
-0.2501113117 -0.1112528443 0.5203951597 4291481052
-0.2501577437 -0.1106951907 0.5204917789 4291546845
-0.2502039373 -0.1101372316 0.5205879211 4291612638
-0.2502499521 -0.1095789596 0.5206835866 4291612638
-0.2502957284 -0.1090203822 0.5207788348 4291612638
-0.2499155253 -0.1082770377 0.5199878216 4291546845
-0.2499607801 -0.1077188030 0.5200819969 4291744224
-0.2500058413 -0.1071602628 0.5201756954 4291744224
-0.2500506639 -0.1066014171 0.5202689767 4291875810
-0.2500952780 -0.1060422808 0.5203617811 4291744224
-0.2501396537 -0.1054828390 0.5204541683 4291810017
-0.2501838207 -0.1049230993 0.5205460787 4291810017
-0.2498015016 -0.1041852757 0.5197505355 4291810017
-0.2498451471 -0.1036259010 0.5198413730 4291875810
-0.2498885840 -0.1030662358 0.5199317932 4291810017
-0.2499318123 -0.1025062799 0.5200216770 4291810017
-0.2499748021 -0.1019460335 0.5201111436 4291810017
-0.2500175834 -0.1013854966 0.5202001333 4291744224
-0.2500601411 -0.1008246765 0.5202887058 4291678431
-0.2501024604 -0.1002635732 0.5203767419 4291810017
-0.2501445711 -0.0997021794 0.5204643607 4291810017
-0.2501864731 -0.0991405025 0.5205515027 4291941603
-0.2502281368 -0.0985785499 0.5206382275 4292007396
-0.2502695620 -0.0980163142 0.5207244158 4292007396
-0.2507379353 -0.0976200998 0.5216989517 4292007396
-0.2503517866 -0.0968910083 0.5208954811 4292073189
-0.2503925562 -0.0963279381 0.5209802985 4292073189
-0.2504330873 -0.0957645923 0.5210646987 4292007650
-0.2500459850 -0.0950385183 0.5202592611 4292073443
-0.2500860095 -0.0944755971 0.5203425288 4292138982
-0.2501258254 -0.0939124003 0.5204253197 4292204775
-0.2501653731 -0.0933489427 0.5205076933 4292336361
-0.2502047420 -0.0927852094 0.5205895901 4292270568
-0.2502438724 -0.0922212154 0.5206709504 4292138982
-0.2498549223 -0.0915002823 0.5198616982 4292138982
-0.2498935312 -0.0909367278 0.5199420452 4292204775
-0.2499319166 -0.0903729126 0.5200219154 4292270568
-0.2499700636 -0.0898088366 0.5201013088 4292336363
-0.2500079870 -0.0892445073 0.5201801658 4292402156
-0.2496175170 -0.0885280669 0.5193677545 4292402156
-0.2496549189 -0.0879641920 0.5194455981 4292402156
-0.2496920973 -0.0874000639 0.5195229650 4292467949
-0.2497290522 -0.0868356824 0.5195997953 4292533742
-0.2497657686 -0.0862710550 0.5196762085 4292731121
-0.2502307296 -0.0858531818 0.5206436515 4292796914
-0.2502670586 -0.0852870867 0.5207192302 4292731121
-0.2503031492 -0.0847207531 0.5207943320 4292731121
-0.2503390014 -0.0841541663 0.5208689570 4292796914
-0.2503746450 -0.0835873410 0.5209431052 4292731121
-0.2504100502 -0.0830202699 0.5210167170 4292665328
-0.2504452169 -0.0824529603 0.5210899115 4292796914
-0.2504801452 -0.0818854198 0.5211626291 4292731891
-0.2505148649 -0.0813176334 0.5212348104 4292731891
-0.2501203120 -0.0806113482 0.5204139352 4292797684
-0.2501544952 -0.0800440684 0.5204850435 4292863477
-0.2501884401 -0.0794765577 0.5205556750 4292863477
-0.2502221763 -0.0789088160 0.5206258297 4292995063
-0.2502556741 -0.0783408433 0.5206955075 4293060856
-0.2498596013 -0.0776392519 0.5198714733 4292995063
-0.2498925626 -0.0770718008 0.5199400187 4292863734
-0.2503547072 -0.0766355768 0.5209016204 4292929527
-0.2503872812 -0.0760667101 0.5209693313 4292995320
-0.2504195869 -0.0754976198 0.5210366249 4292929527
-0.2504516840 -0.0749283060 0.5211033821 4292929781
-0.2504835129 -0.0743587837 0.5211696029 4292995574
-0.2500854433 -0.0736624673 0.5203413367 4293127160
-0.2501167655 -0.0730934888 0.5204065442 4293192953
-0.2501478493 -0.0725242943 0.5204712152 4293061367
-0.2501786947 -0.0719548836 0.5205354095 4293127160
-0.2502093315 -0.0713852718 0.5205991268 4293192951
-0.2502397001 -0.0708154440 0.5206623077 4293258744
-0.2502698600 -0.0702454150 0.5207250714 4293390330
-0.2502997816 -0.0696751773 0.5207872987 4293456123
-0.2503294349 -0.0691047311 0.5208490491 4293521916
-0.2503588796 -0.0685340911 0.5209102631 4293653502
-0.2503880858 -0.0679632500 0.5209710002 4293456376
-0.2504170239 -0.0673922077 0.5210312605 4293324790
-0.2504457533 -0.0668209642 0.5210910439 4293390585
-0.2504742444 -0.0662495345 0.5211502910 4293587964
-0.2500720620 -0.0655650571 0.5203135610 4293653755
-0.2501000464 -0.0649942160 0.5203717351 4293785341
-0.2501277626 -0.0644231886 0.5204293728 4293916412
-0.2505857944 -0.0639618635 0.5213824511 4293850619
-0.2506130934 -0.0633894727 0.5214391947 4293916666
-0.2506401539 -0.0628169030 0.5214955211 4293916666
-0.2506669462 -0.0622441396 0.5215513110 4293916666
-0.2506935298 -0.0616711937 0.5216065645 4293916666
-0.2511506677 -0.0612030476 0.5225576758 4294048252
-0.2511768043 -0.0606287606 0.5226120949 4294048252
-0.2516335547 -0.0601572990 0.5235624313 4293982458
-0.2512283325 -0.0594796464 0.5227193236 4293982458
-0.2512537539 -0.0589048229 0.5227721930 4293982459
-0.2512789369 -0.0583298281 0.5228245854 4294048252
-0.2513038516 -0.0577546619 0.5228764415 4294048252
-0.2513285279 -0.0571793281 0.5229278207 4294114045
-0.2513529956 -0.0566038229 0.5229786634 4294245630
-0.2513771951 -0.0560281500 0.5230290294 4294179837
-0.2514011562 -0.0554523095 0.5230788589 4294310653
-0.2518561184 -0.0549704358 0.5240254998 4294376446
-0.2518796325 -0.0543932840 0.5240744352 4294442493
-0.2519029081 -0.0538159721 0.5241228342 4294442493
-0.2519259155 -0.0532384999 0.5241707563 4294442493
-0.2523801327 -0.0527510419 0.5251157880 4294508286
-0.2524026930 -0.0521722659 0.5251627564 4294508284
-0.2524250448 -0.0515933372 0.5252092481 4294574077
-0.2524471283 -0.0510142557 0.5252552032 4294574077
-0.2524689436 -0.0504350215 0.5253006220 4294574077
-0.2529221475 -0.0499408618 0.5262435675 4294639359
-0.2529435456 -0.0493603423 0.5262880325 4294639359
-0.2533963621 -0.0488629155 0.5272302032 4294639359
-0.2534172833 -0.0482811108 0.5272737741 4294639359
-0.2534379661 -0.0476991646 0.5273168087 4294770429
-0.2534583807 -0.0471170768 0.5273593068 4294770429
-0.2534785867 -0.0465348475 0.5274012685 4294704636
-0.2534985244 -0.0459524803 0.5274427533 4294704636
-0.2539500892 -0.0454472676 0.5283823609 4294770429
-0.2544014752 -0.0449399352 0.5293215513 4294770429
-0.2544207275 -0.0443551801 0.5293616056 4294835709
-0.2544397414 -0.0437702909 0.5294011235 4294835709
-0.2535944581 -0.0430386327 0.5276424289 4294769916
-0.2544770241 -0.0426001251 0.5294786692 4294769916
-0.2549273372 -0.0420861803 0.5304157138 4294769914
-0.2549453974 -0.0414997898 0.5304532051 4294769914
-0.2549631894 -0.0409132726 0.5304902196 4294770429
-0.2549807131 -0.0403266326 0.5305266976 4294770429
-0.2558624148 -0.0398745835 0.5323612094 4294770429
-0.2554472685 -0.0392193571 0.5314974189 4294770429
-0.2558963299 -0.0386967324 0.5324317813 4294770429
-0.2559129298 -0.0381076336 0.5324662924 4294770429
-0.2559292614 -0.0375184193 0.5325003266 4294770429
-0.2559453547 -0.0369290933 0.5325337648 4294770429
-0.2576906383 -0.0365851969 0.5361651182 4294835707
-0.2564091384 -0.0358105041 0.5334987640 4294835707
-0.2568569183 -0.0352792516 0.5344304442 4294835707
-0.2581693828 -0.0348626897 0.5371612310 4294835707
-0.2568868995 -0.0340956487 0.5344928503 4294835707
-0.2586314976 -0.0337293111 0.5381227136 4294835707
-0.2586601675 -0.0325371288 0.5381823778 4294835707
-0.2586741149 -0.0319408923 0.5382114053 4294770429
-0.2591203749 -0.0313969739 0.5391399264 4294770429
-0.2612968981 -0.0310566425 0.5436685085 4294770429
-0.2617428303 -0.0305045601 0.5445963144 4294770429
-0.2626211941 -0.0299998131 0.5464239120 4294770429
-0.2613360286 -0.0292488597 0.5437499285 4294770429
-0.2622139454 -0.0287409425 0.5455765724 4294835709
-0.2626589835 -0.0281825177 0.5465025306 4294835709
-0.2682966292 -0.0281671826 0.5582324862 4294769916
-0.2635483742 -0.0270594265 0.5483530164 4294769916
-0.2657352388 -0.0260553304 0.5529031754 4294703608
-0.2718383372 -0.0241400450 0.5656015873 4294905872
-0.2792040706 -0.2344622910 0.5822727084 4288388521
-0.2788871825 -0.2335499674 0.5816118717 4289704381
-0.2789765298 -0.2329783887 0.5817981958 4289638588
-0.2778453231 -0.2313898951 0.5794391036 4289835967
-0.2771201134 -0.2301438153 0.5779266953 4290033346
-0.2759871483 -0.2285634130 0.5755639672 4289967554
-0.2732245028 -0.2256423831 0.5698025227 4289967554
-0.2733111084 -0.2250806242 0.5699831247 4290033347
-0.2668783963 -0.2191646844 0.5565678477 4290033347
-0.2535125911 -0.2076010555 0.5286938548 4290033347
-0.2560386658 -0.2090763748 0.5339618921 4290099140
-0.2516329288 -0.2048957050 0.5247738957 4290164933
-0.2525277436 -0.2050391734 0.5266399980 4290230726
-0.2513824999 -0.2035267949 0.5242515802 4290164933
-0.2510527372 -0.2026780993 0.5235638618 4290230726
-0.2507225573 -0.2018306106 0.5228753090 4290362314
-0.2508004904 -0.2013121843 0.5230377913 4290493900
-0.2508782148 -0.2007932812 0.5231999159 4290822865
-0.2509558201 -0.2002739012 0.5233617425 4291020244
-0.2510332763 -0.1997540295 0.5235232711 4291086037
-0.2511105537 -0.1992336810 0.5236844420 4291020244
-0.2511877120 -0.1987128556 0.5238453150 4291020244
-0.2512646914 -0.1981915534 0.5240058899 4291020244
-0.2513415217 -0.1976697594 0.5241661072 4291086037
-0.2514181733 -0.1971475035 0.5243260264 4291151830
-0.2506754994 -0.1959842891 0.5227771401 4291217623
-0.2507516146 -0.1954627782 0.5229358673 4291151830
-0.2508275509 -0.1949407905 0.5230942965 4290888656
-0.2509033680 -0.1944183260 0.5232523680 4290691277
-0.2509790063 -0.1938953847 0.5234100819 4290559691
-0.2510544658 -0.1933719814 0.5235674977 4290164933
-0.2511298060 -0.1928481013 0.5237245560 4289835968
-0.2512049675 -0.1923237443 0.5238813162 4289572796
-0.2512799501 -0.1917989254 0.5240377188 4289178038
-0.2513548136 -0.1912736297 0.5241938233 4288980659
-0.2514294982 -0.1907478720 0.5243495703 4289046452
-0.2515040040 -0.1902216375 0.5245049596 4289112245
-0.2511672974 -0.1893849820 0.5238027573 4289243831
-0.2512413561 -0.1888586879 0.5239572525 4289178038
-0.2513152659 -0.1883319169 0.5241113901 4289243833
-0.2513890266 -0.1878046840 0.5242651701 4289507005
-0.2514626086 -0.1872769892 0.5244185925 4289770177
-0.2519477010 -0.1870544851 0.5254302621 4289967556
-0.2516092658 -0.1862202138 0.5247244835 4290033347
-0.2516823709 -0.1856911331 0.5248769522 4290099140
-0.2517552972 -0.1851615906 0.5250290036 4290230726
-0.2514158785 -0.1843294054 0.5243211985 4290559691
-0.2519006431 -0.1841011345 0.5253321528 4291151060
-0.2515606582 -0.1832697690 0.5246231556 4291151060
-0.2512202859 -0.1824396849 0.5239132643 4291085267
-0.2508794963 -0.1816108972 0.5232025981 4291151060
-0.2509510815 -0.1810812205 0.5233518481 4290954449
-0.2506096065 -0.1802541316 0.5226396918 4290888656
-0.2506807148 -0.1797244251 0.5227880478 4290887888
-0.2503385544 -0.1788990498 0.5220744610 4290756302
-0.2504092157 -0.1783693135 0.5222218037 4290558923
-0.2504796982 -0.1778391451 0.5223687887 4290427337
-0.2505500019 -0.1773085147 0.5225154161 4290230728
-0.2506201565 -0.1767774373 0.5226617455 4290230728
-0.2506901324 -0.1762459129 0.5228076577 4290230728
-0.2507599294 -0.1757139415 0.5229532123 4290164935
-0.2508295476 -0.1751815379 0.5230984092 4290099142
-0.2508990169 -0.1746486872 0.5232432485 4290164935
-0.2509682775 -0.1741153896 0.5233877301 4290428107
-0.2510373890 -0.1735816598 0.5235318542 4290691279
-0.2511063218 -0.1730474830 0.5236756206 4290822865
-0.2511751056 -0.1725128591 0.5238190293 4291020244
-0.2512436807 -0.1719778031 0.5239620805 4291283416
-0.2508973777 -0.1711594015 0.5232398510 4291415002
-0.2509655058 -0.1706243604 0.5233819485 4290954451
-0.2510334253 -0.1700888872 0.5235236287 4290559693
-0.2511011958 -0.1695529670 0.5236649513 4289967554
-0.2511687875 -0.1690166146 0.5238059163 4289441210
-0.2508209348 -0.1682013571 0.5230804682 4288980659
-0.2508880496 -0.1676650345 0.5232204199 4288914866
-0.2509549856 -0.1671282798 0.5233600140 4289112247
-0.2510217726 -0.1665910929 0.5234992504 4289441212
-0.2510883510 -0.1660534889 0.5236381292 4289638591
-0.2511547506 -0.1655154526 0.5237765908 4290033349
-0.2512209713 -0.1649769843 0.5239146948 4290295749
-0.2512870133 -0.1644380987 0.5240524411 4290098370
-0.2513528764 -0.1638987809 0.5241897702 4289835198
-0.2514185309 -0.1633590460 0.5243267417 4289703612
-0.2514840364 -0.1628188789 0.5244633555 4289769407
-0.2511328757 -0.1620096266 0.5237309933 4289835200
-0.2511979043 -0.1614695191 0.5238665938 4289441723
-0.2508460581 -0.1606621146 0.5231328011 4289310137
-0.2509105802 -0.1601220667 0.5232674479 4289507515
-0.2505580485 -0.1593165100 0.5225322247 4289836480
-0.2506221235 -0.1587765217 0.5226657987 4290033860
-0.2502688766 -0.1579728425 0.5219291449 4290165446
-0.2507497072 -0.1576953232 0.5229318738 4290822863
-0.2503958941 -0.1568926275 0.5221940279 4291678172
-0.2500416636 -0.1560913026 0.5214553475 4291809760
-0.2501046062 -0.1555510759 0.5215865970 4290691279
-0.2497497052 -0.1547516435 0.5208464265 4290691277
-0.2498121560 -0.1542115062 0.5209766626 4290559691
-0.2498744279 -0.1536709517 0.5211065412 4290428107
-0.2495185435 -0.1528739184 0.5203643441 4290559693
-0.2495803237 -0.1523334682 0.5204932094 4290559693
-0.2492237687 -0.1515383571 0.5197495818 4290559693
-0.2492850721 -0.1509980112 0.5198774338 4290690509
-0.2493461818 -0.1504572779 0.5200048685 4290558923
-0.2494071126 -0.1499161273 0.5201319456 4290361544
-0.2490492761 -0.1491239667 0.5193856955 4290690509
-0.2491097152 -0.1485829353 0.5195117593 4290822095
-0.2491699755 -0.1480415314 0.5196374059 4290822095
-0.2492300272 -0.1474997103 0.5197626352 4290295751
-0.2492899001 -0.1469575167 0.5198875070 4290032579
-0.2493495792 -0.1464149207 0.5200119615 4290296519
-0.2494090647 -0.1458719522 0.5201360583 4290625484
-0.2494683564 -0.1453285813 0.5202596784 4290757070
-0.2495274544 -0.1447848231 0.5203829408 4290493898
-0.2495863587 -0.1442406923 0.5205057859 4290296519
-0.2492254972 -0.1434546560 0.5197532177 4290559691
-0.2492839247 -0.1429106593 0.5198750496 4290822863
-0.2493421435 -0.1423662901 0.5199964643 4290822863
-0.2494001687 -0.1418215334 0.5201175213 4290822863
-0.2494580001 -0.1412764043 0.5202381015 4290493898
-0.2495156378 -0.1407308877 0.5203583241 4290296519
-0.2495730817 -0.1401849985 0.5204780698 4290230726
-0.2496303320 -0.1396387219 0.5205974579 4290230726
-0.2496873736 -0.1390920877 0.5207164288 4290230726
-0.2493237704 -0.1383118182 0.5199581385 4290099140
-0.2493803352 -0.1377653629 0.5200760961 4289704382
-0.2494366914 -0.1372185200 0.5201936364 4288981172
-0.2499135733 -0.1369017810 0.5211881995 4288520621
-0.2499696314 -0.1363532841 0.5213050842 4288257449
-0.2500254810 -0.1358044147 0.5214215517 4288718000
-0.2500811219 -0.1352551728 0.5215376019 4289573823
-0.2501365840 -0.1347055733 0.5216532350 4290429132
-0.2501918375 -0.1341556013 0.5217684507 4290889169
-0.2502468824 -0.1336052716 0.5218832493 4290954962
-0.2503017187 -0.1330545694 0.5219976306 4290954708
-0.2499348819 -0.1322804391 0.5212326050 4291086294
-0.2499892265 -0.1317299455 0.5213459730 4291217880
-0.2500433624 -0.1311791092 0.5214588642 4291283673
-0.2500973046 -0.1306279004 0.5215713382 4291152087
-0.2501510382 -0.1300763339 0.5216834545 4291020501
-0.2497826517 -0.1293060035 0.5209151506 4291020501
-0.2498358935 -0.1287546605 0.5210261941 4291086294
-0.2498889267 -0.1282029748 0.5211367607 4291086294
-0.2499417514 -0.1276509315 0.5212469101 4291020501
-0.2499943674 -0.1270985454 0.5213566422 4291020501
-0.2500467896 -0.1265458018 0.5214659572 4291020501
-0.2500990033 -0.1259927154 0.5215748549 4291020501
-0.2497284412 -0.1252273917 0.5208020806 4291086294
-0.2493575066 -0.1244636029 0.5200285316 4291152087
-0.2494089156 -0.1239113584 0.5201357007 4291086294
-0.2494601160 -0.1233587712 0.5202425122 4291152087
-0.2495111078 -0.1228058413 0.5203488469 4291152087
-0.2495619059 -0.1222525761 0.5204547644 4291152087
-0.2491894066 -0.1214926988 0.5196779370 4291152087
-0.2492396832 -0.1209397018 0.5197827816 4291152087
-0.2492897660 -0.1203863695 0.5198872089 4291152087
-0.2493396252 -0.1198327020 0.5199912190 4291152087
-0.2493892759 -0.1192786992 0.5200947523 4291152087
-0.2494387329 -0.1187243760 0.5201978683 4291021271
-0.2494879514 -0.1181697175 0.5203005672 4291021271
-0.2495369762 -0.1176147312 0.5204027891 4291087064
-0.2495857924 -0.1170594171 0.5205045938 4291087064
-0.2496343851 -0.1165037826 0.5206059217 4291087064
-0.2496827692 -0.1159478202 0.5207068324 4291152857
-0.2501549423 -0.1155874431 0.5216915011 4291152857
-0.2497788966 -0.1148349270 0.5209073424 4291087064
-0.2498266548 -0.1142780036 0.5210068822 4291218134
-0.2498741746 -0.1137207597 0.5211060047 4291218134
-0.2499215007 -0.1131631956 0.5212047100 4291283927
-0.2495442033 -0.1124141440 0.5204178691 4291283927
-0.2495910078 -0.1118568927 0.5205155015 4291218134
-0.2496376038 -0.1112993360 0.5206126571 4291283927
-0.2496839762 -0.1107414663 0.5207093358 4291415259
-0.2497301400 -0.1101832911 0.5208055973 4291481052
-0.2493512928 -0.1094383672 0.5200155377 4291481052
-0.2493969500 -0.1088805199 0.5201107264 4291546845
-0.2494423687 -0.1083223671 0.5202054977 4291481052
-0.2494875938 -0.1077639163 0.5202997923 4291678431
-0.2491074950 -0.1070225239 0.5195071101 4291810017
-0.2491521984 -0.1064644158 0.5196003318 4292007396
-0.2491966784 -0.1059060097 0.5196931362 4291810017
-0.2492409497 -0.1053473055 0.5197854042 4291875810
-0.2492849976 -0.1047883034 0.5198773146 4291810017
-0.2493288219 -0.1042290032 0.5199686885 4291810017
-0.2493724376 -0.1036694124 0.5200596452 4291810017
-0.2489902079 -0.1029335707 0.5192624927 4291875810
-0.2490333021 -0.1023743525 0.5193523765 4291875810
-0.2490761876 -0.1018148363 0.5194417834 4291810017
-0.2491188347 -0.1012550443 0.5195307732 4291744224
-0.2491612732 -0.1006949544 0.5196192861 4291612638
-0.2492034882 -0.1001345813 0.5197073221 4291678431
-0.2492454797 -0.0995739251 0.5197948813 4291744224
-0.2492872477 -0.0990129933 0.5198820233 4291810017
-0.2493288070 -0.0984517708 0.5199686289 4291810017
-0.2497964054 -0.0980576053 0.5209438205 4291875810
-0.2498375773 -0.0974948630 0.5210297108 4291875810
-0.2498785257 -0.0969318524 0.5211150646 4291941603
-0.2494927794 -0.0962041095 0.5203105807 4291941603
-0.2495332062 -0.0956415012 0.5203949213 4291810017
-0.2495734096 -0.0950786248 0.5204787850 4291941603
-0.2496134043 -0.0945154727 0.5205621719 4292138982
-0.2492264062 -0.0937914550 0.5197551250 4292204775
-0.2492658645 -0.0932287276 0.5198373795 4292270570
-0.2493051142 -0.0926657394 0.5199192166 4292270570
-0.2493441254 -0.0921024829 0.5200006366 4292204775
-0.2493829131 -0.0915389657 0.5200815201 4292204775
-0.2494214922 -0.0909751877 0.5201619267 4292270568
-0.2494598180 -0.0904111415 0.5202419162 4292204775
-0.2490707189 -0.0896929950 0.5194303989 4292204777
-0.2491085380 -0.0891294032 0.5195092559 4292270570
-0.2491461188 -0.0885655507 0.5195876956 4292336363
-0.2491834909 -0.0880014449 0.5196655989 4292336363
-0.2492206246 -0.0874370933 0.5197430253 4292402156
-0.2492575347 -0.0868724808 0.5198200345 4292402156
-0.2492942214 -0.0863076225 0.5198965073 4292533742
-0.2493306696 -0.0857425183 0.5199725628 4292599535
-0.2493668944 -0.0851771683 0.5200480819 4292599535
-0.2494028807 -0.0846115649 0.5201231241 4292599535
-0.2494386435 -0.0840457231 0.5201977491 4292665328
-0.2494741827 -0.0834796354 0.5202718377 4292731121
-0.2495094836 -0.0829133093 0.5203454494 4292731121
-0.2495445609 -0.0823467374 0.5204185843 4292796914
-0.2495793998 -0.0817799345 0.5204912424 4292666098
-0.2496140152 -0.0812128931 0.5205634236 4292666098
-0.2492201775 -0.0805072859 0.5197421312 4292797684
-0.2492542714 -0.0799407512 0.5198132396 4292797684
-0.2492881268 -0.0793739855 0.5198838115 4292797684
-0.2493217587 -0.0788069814 0.5199539661 4292797684
-0.2493551522 -0.0782397538 0.5200235844 4292863477
-0.2493883222 -0.0776723027 0.5200927854 4292797684
-0.2489926815 -0.0769721344 0.5192676783 4292929268
-0.2494539469 -0.0765367150 0.5202296376 4292929268
-0.2494864017 -0.0759685859 0.5202973485 4292995061
-0.2490899116 -0.0752706826 0.5194704533 4292995061
-0.2491218448 -0.0747030973 0.5195370317 4292929268
-0.2491535544 -0.0741352886 0.5196031928 4292929268
-0.2491850257 -0.0735672638 0.5196688175 4292995061
-0.2492162734 -0.0729990229 0.5197339654 4293126647
-0.2492472678 -0.0724305734 0.5197986364 4293192438
-0.2492780387 -0.0718619078 0.5198627710 4293192438
-0.2493085712 -0.0712930337 0.5199264884 4293127158
-0.2493388802 -0.0707239509 0.5199896693 4293127158
-0.2493689358 -0.0701546669 0.5200523734 4293192951
-0.2493987679 -0.0695851743 0.5201145411 4293258744
-0.2494283617 -0.0690154731 0.5201762915 4293456123
-0.2498870790 -0.0685633868 0.5211328864 4293587709
-0.2494868338 -0.0678754747 0.5202982426 4293390585
-0.2495157123 -0.0673051775 0.5203584433 4293324792
-0.2495443672 -0.0667346865 0.5204181671 4293521658
-0.2495727688 -0.0661639944 0.5204774141 4293587451
-0.2496009320 -0.0655931085 0.5205361843 4293587449
-0.2496288717 -0.0650220290 0.5205944180 4293587449
-0.2496565580 -0.0644507632 0.5206521749 4293719033
-0.2496840209 -0.0638793036 0.5207094550 4293784826
-0.2497112304 -0.0633076578 0.5207661986 4293784826
-0.2497382164 -0.0627358258 0.5208224654 4293784826
-0.2497649491 -0.0621638149 0.5208782554 4293850619
-0.2497914582 -0.0615916140 0.5209335089 4293916412
-0.2502476871 -0.0611242577 0.5218849778 4293982459
-0.2507037818 -0.0606547520 0.5228361487 4293982459
-0.2507296503 -0.0600800440 0.5228900909 4294113274
-0.2507552803 -0.0595051572 0.5229434967 4294113274
-0.2507806718 -0.0589300953 0.5229964852 4293982459
-0.2503755987 -0.0582547635 0.5221517086 4293982459
-0.2504004836 -0.0576803423 0.5222035646 4293982459
-0.2504251003 -0.0571057498 0.5222549438 4294048252
-0.2504494786 -0.0565309897 0.5223057866 4294244861
-0.2504735887 -0.0559560619 0.5223560929 4294244861
-0.2504974902 -0.0553809702 0.5224059224 4294310653
-0.2509515882 -0.0548998825 0.5233529210 4294376446
-0.2509750426 -0.0543234758 0.5234018564 4294376446
-0.2509982586 -0.0537469089 0.5234502554 4294442239
-0.2514517903 -0.0532613806 0.5243960619 4294442493
-0.2514745295 -0.0526835062 0.5244435072 4294442493
-0.2514970601 -0.0521054789 0.5244904757 4294508286
-0.2515193224 -0.0515272915 0.5245369077 4294508286
-0.2515413463 -0.0509489551 0.5245828629 4294508286
-0.2519938946 -0.0504567176 0.5255265832 4294574079
-0.2520154417 -0.0498770885 0.5255715847 4294573566
-0.2524676025 -0.0493815839 0.5265145302 4294573566
-0.2524887323 -0.0488006696 0.5265585780 4294573566
-0.2525095940 -0.0482196100 0.5266020894 4294639359
-0.2525302172 -0.0476384088 0.5266451240 4294639359
-0.2525506020 -0.0470570624 0.5266876221 4294639359
-0.2525707185 -0.0464755781 0.5267295837 4294770429
-0.2525905967 -0.0458939560 0.5267710686 4294770429
-0.2530412972 -0.0453895256 0.5277109742 4294770429
-0.2530607283 -0.0448066369 0.5277515054 4294770429
-0.2526487708 -0.0441482812 0.5268923640 4294770429
-0.2526676655 -0.0435661227 0.5269317031 4294770429
-0.2531175017 -0.0430571847 0.5278698802 4294704636
-0.2539983988 -0.0426184908 0.5297069550 4294704636
-0.2527228296 -0.0418188758 0.5270467997 4294769914
-0.2536033392 -0.0413769484 0.5288830400 4294769914
-0.2544836998 -0.0409309193 0.5307190418 4294770429
-0.2536385059 -0.0402072705 0.5289564133 4294770429
-0.2540870905 -0.0396896340 0.5298919678 4294770429
-0.2545354962 -0.0391698889 0.5308271050 4294770429
-0.2549837232 -0.0386480391 0.5317618251 4294770429
-0.2545687854 -0.0379952826 0.5308964849 4294770429
-0.2550165653 -0.0374712124 0.5318303108 4294770429
-0.2558956444 -0.0370074473 0.5336636305 4294770429
-0.2559114993 -0.0364167616 0.5336966515 4294835707
-0.2554954886 -0.0357655548 0.5328291059 4294835707
-0.2568056285 -0.0353539065 0.5355613828 4294835707
-0.2568207681 -0.0347609073 0.5355929136 4294835707
-0.2572672963 -0.0342252292 0.5365241766 4294835707
-0.2568502724 -0.0335745998 0.5356544256 4294835707
-0.2568646371 -0.0329812951 0.5356844068 4294835707
-0.2573104799 -0.0324423239 0.5366142392 4294835707
-0.2573243678 -0.0318478234 0.5366431475 4294770429
-0.2582015395 -0.0313581079 0.5384724736 4294770429
-0.2582149506 -0.0307614245 0.5385004878 4294770429
-0.2586599290 -0.0302150920 0.5394284725 4294770429
-0.2582410276 -0.0295677837 0.5385548472 4294704636
-0.2586855292 -0.0290192757 0.5394818783 4294704636
-0.2621529996 -0.0288008191 0.5467131734 4294704636
-0.2608696222 -0.0280553587 0.5440366864 4294704636
-0.2634731531 -0.0277248602 0.5494663119 4294769916
-0.2639169395 -0.0271600354 0.5503918529 4294769916
-0.2639399171 -0.0259392429 0.5504397154 4294704636
-0.2682709694 -0.0257432740 0.5594720244 4294704636
-0.2691459954 -0.0252036005 0.5612968802 4294762462
-0.2631083131 -0.0240285620 0.5487054586 4294855242
-0.2774469852 -0.2335276902 0.5799517035 4287928224
-0.2771303952 -0.2326175719 0.5792899132 4289704381
-0.2772192657 -0.2320483327 0.5794757009 4289638588
-0.2764959335 -0.2308007032 0.5779637098 4289835967
-0.2761780620 -0.2298939526 0.5772992373 4290099139
-0.2726095915 -0.2262903899 0.5698400140 4290033860
-0.2751346827 -0.2277474403 0.5751182437 4289968067
-0.2670913339 -0.2204691023 0.5583050847 4290033860
-0.2586359978 -0.2128890157 0.5406308174 4290033860
-0.2530226409 -0.2076808959 0.5288971663 4290099653
-0.2531023920 -0.2071585208 0.5290638208 4290099653
-0.2511467636 -0.2049745917 0.5249759555 4290164933
-0.2520399094 -0.2051181793 0.5268428922 4290164933
-0.2508969009 -0.2036052644 0.5244536400 4290099140
-0.2505678535 -0.2027562857 0.5237658024 4290164933
-0.2502383888 -0.2019085139 0.5230771303 4290296519
-0.2503162026 -0.2013899386 0.5232397914 4290559691
-0.2503938675 -0.2008708864 0.5234021544 4290757070
-0.2504713833 -0.2003513575 0.5235641599 4290954449
-0.2505487204 -0.1998313367 0.5237258673 4291020242
-0.2506259382 -0.1993108243 0.5238872170 4290954449
-0.2507029772 -0.1987898499 0.5240482688 4290954451
-0.2507798672 -0.1982683837 0.5242090225 4291020244
-0.2500394881 -0.1971023232 0.5226613879 4291086037
-0.2509332001 -0.1972240210 0.5245295167 4291151830
-0.2501920164 -0.1960604042 0.5229802132 4291217623
-0.2502680123 -0.1955387294 0.5231391191 4291217623
-0.2503438890 -0.1950165927 0.5232976675 4291020242
-0.2504195869 -0.1944939643 0.5234559178 4290888656
-0.2504951358 -0.1939708740 0.5236138701 4290757070
-0.2505705357 -0.1934473068 0.5237714648 4290428105
-0.2506457865 -0.1929232627 0.5239287019 4290099140
-0.2507208586 -0.1923987567 0.5240856409 4289770175
-0.2507957816 -0.1918737739 0.5242422223 4289375417
-0.2508705258 -0.1913483292 0.5243985057 4289046452
-0.2509451210 -0.1908224076 0.5245544314 4289112245
