VERSION 0.7
FIELDS x y z rgba
SIZE 4 4 4 4
TYPE F F F U
COUNT 1 1 1 1
WIDTH 920
HEIGHT 1
VIEWPOINT 0.0 0.0 0.0 1.0 0.0 0.0 0.0
POINTS 920
DATA ascii
-0.3717405200 -0.0865481049 0.5627774000 4292928752
-0.3717838824 -0.0859328359 0.5628430247 4293126131
-0.3718269467 -0.0853173584 0.5629082322 4293191924
-0.3718697131 -0.0847016647 0.5629729629 4293586682
-0.3719121516 -0.0840857625 0.5630372167 4293915647
-0.3708603382 -0.0832241476 0.5614448786 4293783029
-0.3709020615 -0.0826096386 0.5615080595 4291348688
-0.3709435165 -0.0819949210 0.5615707636 4283387737
-0.3520404696 -0.1271787733 0.5338511467 4284900463
-0.3515627980 -0.1264138520 0.5331267715 4287401880
-0.3510846496 -0.1256503910 0.5324016809 4289375670
-0.3495256007 -0.1245035082 0.5300374627 4291020495
-0.3501270115 -0.1241278127 0.5309494734 4291875804
-0.3485667109 -0.1229873598 0.5285833478 4292665320
-0.3491675854 -0.1226110682 0.5294945836 4293323250
-0.3486872315 -0.1218548864 0.5287660956 4293520629
-0.3476656973 -0.1209121272 0.5272170305 4293915387
-0.3482659161 -0.1205340847 0.5281272531 4294112766
-0.3472434282 -0.1195951328 0.5265766978 4294244351
-0.3473022580 -0.1190302297 0.5266658664 4294112766
-0.3473608196 -0.1184650362 0.5267546773 4294244351
-0.3474191129 -0.1178995594 0.5268430710 4294507519
-0.3474771678 -0.1173337996 0.5269311070 4294507519
-0.3464522660 -0.1164039969 0.5253769159 4294507775
-0.3465096354 -0.1158394367 0.5254638791 4294507775
-0.3476497233 -0.1156348288 0.5271928310 4294639615
-0.3477067351 -0.1150679365 0.5272792578 4294639615
-0.3478199542 -0.1139333323 0.5274509192 4294573823
-0.3467924297 -0.1130124554 0.5258927345 4294705151
-0.3479321003 -0.1127976254 0.5276210308 4294705151
-0.3474457562 -0.1120545492 0.5268834829 4294639615
-0.3469589651 -0.1113129705 0.5261453390 4294705151
-0.3475561738 -0.1109189764 0.5270509124 4294770687
-0.3481532633 -0.1105229408 0.5279564261 4294704895
-0.3476655185 -0.1097823232 0.5272167921 4294704895
-0.3488047421 -0.1095543578 0.5289443135 4294770687
-0.3489128351 -0.1084125564 0.5291082263 4294770687
-0.3489664793 -0.1078412607 0.5291895866 4294770687
-0.3495626748 -0.1074365303 0.5300936699 4294770687
-0.3496688008 -0.1062908471 0.5302546620 4294770687
-0.3497214615 -0.1057176143 0.5303344727 4294770687
-0.3486876190 -0.1048175916 0.5287666917 4294770687
-0.3492827713 -0.1044080034 0.5296692252 4294770687
-0.3493345380 -0.1038348898 0.5297477841 4294770687
-0.3493860662 -0.1032615229 0.5298258662 4294770687
-0.3494372964 -0.1026879027 0.5299035311 4294770687
-0.3494882584 -0.1021140367 0.5299808383 4294770687
-0.3500825465 -0.1016978323 0.5308820605 4294770687
-0.3495893776 -0.1009655446 0.5301341414 4294705151
-0.3501832783 -0.1005470529 0.5310348272 4294639615
-0.3507770598 -0.1001265347 0.5319352746 4294639615
-0.3508268297 -0.0995496362 0.5320107341 4294639615
-0.3514203131 -0.0991259366 0.5329107046 4294705151
-0.3520136774 -0.0987002030 0.5338104963 4294639615
-0.3520627618 -0.0981207862 0.5338849425 4294508031
-0.3526557982 -0.0976918787 0.5347842574 4294639615
-0.3527044058 -0.0971110836 0.5348579884 4294705151
-0.3532971144 -0.0966790095 0.5357567668 4294573567
-0.3538897038 -0.0962449014 0.5366553664 4294441983
-0.3544821441 -0.0958087668 0.5375537872 4294376191
-0.3545298576 -0.0952243209 0.5376261473 4294376447
-0.3551219702 -0.0947850198 0.5385240912 4294376447
-0.3540797234 -0.0939102545 0.5369435549 4294310143
-0.3563057780 -0.0939003229 0.5403192639 4293981180
-0.3574423790 -0.0935976133 0.5420428514 4293652215
-0.3585789502 -0.0932910666 0.5437664390 4293257457
-0.3618956208 -0.0935442075 0.5487959981 4292731113
-0.3624874055 -0.0930864215 0.5496933460 4292467941
-0.3641693592 -0.0929047614 0.5522439480 4292336355
-0.3663966656 -0.0928556472 0.5556215644 4292007390
-0.3675336242 -0.0925245360 0.5573456883 4291744477
-0.3681252003 -0.0920532197 0.5582427979 4292073442
-0.3687166274 -0.0915798619 0.5591396689 4291547098
-0.3693079054 -0.0911044776 0.5600363016 4291415512
-0.3693534136 -0.0904933959 0.5601053238 4291152341
-0.3699443042 -0.0900148451 0.5610013604 4291152341
-0.3699893057 -0.0894024074 0.5610696077 4290691790
-0.3705797791 -0.0889207050 0.5619650483 4290823376
-0.3700784147 -0.0881768689 0.5612047911 4291086548
-0.3706684411 -0.0876929164 0.5620995164 4291678685
-0.3696203828 -0.0868222043 0.5605101585 4292336615
-0.3707559109 -0.0864642486 0.5622321367 4292468201
-0.3707992136 -0.0858495906 0.5622977614 4292402154
-0.3702960312 -0.0851091892 0.5615347624 4292599533
-0.3703386486 -0.0844950080 0.5615993738 4292862705
-0.3698346913 -0.0837569013 0.5608351827 4293125877
-0.3693303168 -0.0830203965 0.5600702763 4293256687
-0.3688254952 -0.0822854936 0.5593047738 4292335585
-0.3683202863 -0.0815522000 0.5585386157 4285427322
-0.3525095880 -0.1293479055 0.5354644060 4284900976
-0.3498773575 -0.1277915537 0.5314660072 4287532696
-0.3510183096 -0.1276158690 0.5331991315 4289573047
-0.3489236236 -0.1262654364 0.5300173163 4291415251
-0.3484461010 -0.1255045384 0.5292919278 4292402407
-0.3474286199 -0.1245517060 0.5277463794 4292731372
-0.3480292559 -0.1241796538 0.5286587477 4293126130
-0.3480901420 -0.1236138940 0.5287512541 4293455095
-0.3470712304 -0.1226662993 0.5272035003 4293652472
-0.3476712704 -0.1222916096 0.5281149745 4293652472
-0.3471913636 -0.1215368286 0.5273859501 4293652472
-0.3472510278 -0.1209716573 0.5274766088 4293718265
-0.3467703164 -0.1202189326 0.5267463923 4293718519
-0.3462891281 -0.1194676831 0.5260155201 4293652726
-0.3463478684 -0.1189033985 0.5261046886 4293718519
-0.3464063108 -0.1183388308 0.5261934996 4293850105
-0.3464645147 -0.1177739725 0.5262818933 4293850105
-0.3465224504 -0.1172088310 0.5263699293 4293981691
-0.3454987705 -0.1162794679 0.5248149037 4294113275
-0.3460967839 -0.1158966199 0.5257232785 4294113275
-0.3461538553 -0.1153315157 0.5258100033 4294113277
-0.3456697166 -0.1145868152 0.5250746012 4294113277
-0.3462672234 -0.1142004803 0.5259822011 4294113277
-0.3463234901 -0.1136345491 0.5260676742 4294113277
-0.3463795185 -0.1130683348 0.5261527896 4294113277
-0.3470321894 -0.1121099964 0.5271441936 4294113275
-0.3465460539 -0.1113680676 0.5264057517 4294179068
-0.3455179036 -0.1104545146 0.5248439908 4294244861
-0.3466557264 -0.1102332026 0.5265723467 4294179068
-0.3472519219 -0.1098367125 0.5274779797 4294179068
-0.3473061919 -0.1092677265 0.5275604129 4294179068
-0.3474139273 -0.1081289425 0.5277240872 4294244861
-0.3474673927 -0.1075591594 0.5278052688 4294244860
-0.3480627537 -0.1071560159 0.5287096500 4294179067
-0.3481158018 -0.1065848172 0.5287901759 4294310655
-0.3487108648 -0.1061784849 0.5296941400 4294310655
-0.3487634361 -0.1056058779 0.5297739506 4294310655
-0.3483252227 -0.1042974293 0.5291082859 4294310655
-0.3483769000 -0.1037249416 0.5291867852 4294310655
-0.3484283090 -0.1031521931 0.5292649269 4294310655
-0.3484794497 -0.1025791988 0.5293425918 4294310655
-0.3485303223 -0.1020059511 0.5294198990 4294310655
-0.3491238952 -0.1015904471 0.5303214788 4294310655
-0.3486312628 -0.1008587033 0.5295732021 4294310654
-0.3492244482 -0.1004409194 0.5304742455 4294310654
-0.3492743075 -0.0998657793 0.5305500031 4294310654
-0.3498671651 -0.0994448140 0.5314505696 4294310654
-0.3499165773 -0.0988682956 0.5315256119 4294310654
-0.3505091071 -0.0984441563 0.5324257016 4294310654
-0.3511015475 -0.0980179831 0.5333256125 4294179068
-0.3511502743 -0.0974389389 0.5333995819 4294244861
-0.3517423868 -0.0970095918 0.5342990160 4294310654
-0.3517906368 -0.0964291766 0.5343723297 4294310654
-0.3512948155 -0.0957003757 0.5336191654 4294179068
-0.3529740572 -0.0955621153 0.5361699462 4294179068
-0.3519337177 -0.0946865007 0.5345896482 4294310141
-0.3547009826 -0.0948323756 0.5387931466 4294244348
-0.3542041183 -0.0941017345 0.5380383730 4294244348
-0.3558834791 -0.0939472616 0.5405893922 4294310141
-0.3570187688 -0.0936444104 0.5423138738 4294178555
-0.3581540585 -0.0933377221 0.5440383554 4294046969
-0.3598337173 -0.0931681544 0.5465897918 4294112762
-0.3620579541 -0.0931330025 0.5499684215 4294046969
-0.3642824888 -0.0930904150 0.5533474684 4293981176
-0.3654180765 -0.0927638859 0.5550724864 4294046969
-0.3638304174 -0.0917467996 0.5526608229 4293915646
-0.3665998280 -0.0918264389 0.5568675399 4293849853
-0.3671904504 -0.0913546681 0.5577647090 4293652474
-0.3677809238 -0.0908808559 0.5586616397 4293257716
-0.3683712482 -0.0904050171 0.5595583320 4292928751
-0.3684163988 -0.0897943154 0.5596269369 4292402407
-0.3690063357 -0.0893153176 0.5605230331 4291547099
-0.3690509498 -0.0887032673 0.5605908632 4290823376
-0.3690952957 -0.0880909935 0.5606582165 4291152855
-0.3685940802 -0.0873492807 0.5598968863 4292139750
-0.3691830933 -0.0868657827 0.5607915521 4292600301
-0.3697719276 -0.0863802582 0.5616860390 4292402922
-0.3692696989 -0.0856397077 0.5609230995 4292337129
-0.3682215214 -0.0847751647 0.5593309402 4292139750
-0.3688095212 -0.0842880905 0.5602241158 4291942373
-0.3650322556 -0.0828087553 0.5544863939 4292008166
-0.3672565222 -0.0826935098 0.5578650832 4292007136
-0.3667521477 -0.0819609687 0.5570989847 4292204515
-0.3657015562 -0.0811089799 0.5555031300 4286743696
-0.3635586500 -0.0800201222 0.5522480011 4281480256
-0.3529720902 -0.1315266788 0.5370730162 4283585635
-0.3503454924 -0.1299556494 0.5330765247 4286742927
-0.3504090011 -0.1293868124 0.5331731439 4289177268
-0.3493955433 -0.1284219176 0.5316310525 4291282899
-0.3473044932 -0.1270662099 0.5284494162 4292598759
-0.3479052186 -0.1266978234 0.5293633938 4292796906
-0.3474285603 -0.1259368807 0.5286381841 4293060078
-0.3469514549 -0.1251773983 0.5279121995 4292994544
-0.3464739025 -0.1244193539 0.5271856189 4293257716
-0.3465348482 -0.1238553971 0.5272783041 4293520888
-0.3460565209 -0.1230994016 0.5265504718 4293652474
-0.3455777466 -0.1223448589 0.5258219838 4293784060
-0.3461769521 -0.1219717562 0.5267336965 4293718267
-0.3462367654 -0.1214074939 0.5268247724 4293718265
-0.3457569182 -0.1206547171 0.5260946751 4293718265
-0.3458161652 -0.1200907528 0.5261847377 4293718265
-0.3458751142 -0.1195264980 0.5262745023 4293718265
-0.3453941345 -0.1187763661 0.5255426168 4293784058
-0.3454524875 -0.1182124242 0.5256314278 4293915644
-0.3449707329 -0.1174643636 0.5248984098 4293981691
-0.3450284898 -0.1169007346 0.5249862671 4294047484
-0.3440058827 -0.1159726903 0.5234302878 4294047484
-0.3451431990 -0.1157726198 0.5251607895 4293981691
-0.3452001512 -0.1152081415 0.5252475142 4294047484
-0.3447165787 -0.1144639701 0.5245116353 4294113277
-0.3447729349 -0.1138998196 0.5245974064 4294113277
-0.3448290229 -0.1133353934 0.5246827602 4294179070
-0.3448848724 -0.1127706915 0.5247677565 4294179070
-0.3449404538 -0.1122057214 0.5248523355 4294179070
-0.3449957669 -0.1116404757 0.5249364972 4294179070
-0.3450508416 -0.1110749543 0.5250202417 4294179070
-0.3445647061 -0.1103359535 0.5242806077 4294179068
-0.3457011580 -0.1101154312 0.5260097980 4294179068
-0.3462966084 -0.1097196564 0.5269157887 4294244861
-0.3463507891 -0.1091512889 0.5269982219 4294244861
-0.3464046717 -0.1085826531 0.5270802379 4294244861
-0.3464583457 -0.1080137566 0.5271618962 4294244861
-0.3465117216 -0.1074445918 0.5272430778 4294244861
-0.3465648293 -0.1068751663 0.5273239017 4294244861
-0.3471592665 -0.1064715832 0.5282284021 4294244861
-0.3472119272 -0.1059007421 0.5283085108 4294244861
-0.3472643197 -0.1053296477 0.5283882618 4294310654
-0.3473164439 -0.1047582924 0.5284675956 4294310654
-0.3473683000 -0.1041866839 0.5285465121 4294376447
-0.3474199176 -0.1036148146 0.5286250114 4294442239
-0.3474712372 -0.1030426994 0.5287030935 4294442239
-0.3475222886 -0.1024703234 0.5287807584 4294442239
-0.3475730717 -0.1018977016 0.5288580656 4294376447
-0.3481658995 -0.1014828980 0.5297600627 4294376447
-0.3476738334 -0.1007516980 0.5290113688 4294376447
-0.3482662737 -0.1003346145 0.5299127698 4294310654
-0.3483160436 -0.0997601002 0.5299885273 4294179837
-0.3489081860 -0.0993398353 0.5308895111 4294179837
-0.3489575088 -0.0987639353 0.5309645534 4294179837
-0.3490065336 -0.0981877893 0.5310391784 4294179837
-0.3490552902 -0.0976114050 0.5311133862 4294179838
-0.3496467173 -0.0971856862 0.5320132375 4294114045
-0.3507810235 -0.0969079509 0.5337392092 4294114045
-0.3519153595 -0.0966263860 0.5354651213 4294048252
-0.3519634008 -0.0960445553 0.5355382562 4294114045
-0.3514679372 -0.0953151658 0.5347843766 4294048252
-0.3515153527 -0.0947337598 0.5348564982 4294179068
-0.3521058559 -0.0942976400 0.5357549787 4294179068
-0.3526962399 -0.0938594863 0.5366532803 4294179068
-0.3532864749 -0.0934193060 0.5375514030 4294244861
-0.3544201553 -0.0931199118 0.5392764211 4294179070
-0.3550102115 -0.0926747695 0.5401741862 4294113277
-0.3566875458 -0.0925096273 0.5427263975 4294113277
-0.3578212559 -0.0921987370 0.5444514155 4294047484
-0.3594988286 -0.0920232311 0.5470039248 4293981691
-0.3617204428 -0.0919803977 0.5503843427 4294047484
-0.3612222970 -0.0912430584 0.5496263504 4294047230
-0.3639882207 -0.0913263559 0.5538349152 4294113023
-0.3651220500 -0.0909935832 0.5555601120 4294113023
-0.3657116890 -0.0905222595 0.5564572811 4293981437
-0.3663011491 -0.0900489017 0.5573541522 4293981437
-0.3663460910 -0.0894406140 0.5574225783 4293915644
-0.3669351637 -0.0889640972 0.5583189130 4293520888
-0.3675240576 -0.0884855539 0.5592149496 4293060337
-0.3675682545 -0.0878747925 0.5592821836 4292862959
-0.3670675755 -0.0871345326 0.5585203767 4292928752
-0.3671111166 -0.0865242407 0.5585865974 4292994545
-0.3671543598 -0.0859137326 0.5586524010 4293323510
-0.3671973050 -0.0853030086 0.5587177873 4293586682
-0.3672399521 -0.0846920684 0.5587826371 4293455096
-0.3667373955 -0.0839561671 0.5580179691 4293060854
-0.3656893969 -0.0830980316 0.5564233661 4293060854
-0.3640958071 -0.0821203738 0.5539986491 4292665067
-0.3614113331 -0.0809039101 0.5499140024 4292665067
-0.3630873561 -0.0806652680 0.5524641871 4290625483
-0.3604015708 -0.0794592947 0.5483775735 4288125349
-0.3598960638 -0.0787394047 0.5476083755 4285954180
-0.3577540517 -0.0776659623 0.5443491936 4283914597
-0.3572475612 -0.0769520476 0.5435785055 4282400844
-0.3524187207 -0.1327363849 0.5371388197 4283782246
-0.3514088392 -0.1317609102 0.5355995893 4287203996
-0.3487860262 -0.1301868409 0.5316020250 4290033095
-0.3466994762 -0.1288209260 0.5284218192 4292072932
-0.3478376269 -0.1286547631 0.5301565528 4292599276
-0.3473627567 -0.1278908849 0.5294327736 4292796655
-0.3452740014 -0.1265371591 0.5262491703 4292994034
-0.3464116752 -0.1263674647 0.5279831886 4293059825
-0.3459354639 -0.1256079376 0.5272573233 4293125618
-0.3454588056 -0.1248498484 0.5265308619 4293191923
-0.3455199003 -0.1242868081 0.5266239643 4293389302
-0.3450424373 -0.1235307530 0.5258962512 4293520888
-0.3445645571 -0.1227761582 0.5251678824 4293652474
-0.3451631665 -0.1224049479 0.5260802507 4293718267
-0.3446845710 -0.1216515228 0.5253508091 4293784060
-0.3447442055 -0.1210887656 0.5254416466 4293784060
-0.3442648053 -0.1203373894 0.5247110128 4293784060
-0.3448626697 -0.1199623719 0.5256222486 4293784060
-0.3443825841 -0.1192121804 0.5248905420 4293784060
-0.3444411159 -0.1186491475 0.5249797106 4293849853
-0.3439602256 -0.1179010272 0.5242468119 4293849853
-0.3440181315 -0.1173382998 0.5243350267 4293784828
-0.3440757692 -0.1167752892 0.5244228840 4293850621
-0.3430543840 -0.1158476993 0.5228661299 4293916414
-0.3441902995 -0.1156484261 0.5245974660 4293916414
-0.3442471623 -0.1150845736 0.5246841311 4294047230
-0.3437641263 -0.1143409386 0.5239478946 4294113023
-0.3438203633 -0.1137774140 0.5240336061 4294179070
-0.3444162011 -0.1133913398 0.5249418020 4294179070
-0.3444720507 -0.1128263772 0.5250268579 4294244863
-0.3445276022 -0.1122611463 0.5251115561 4294179070
-0.3445829153 -0.1116956323 0.5251958370 4294179070
-0.3446379602 -0.1111298501 0.5252797604 4294113277
-0.3441524804 -0.1103905067 0.5245398283 4294179070
-0.3442068994 -0.1098250747 0.5246227980 4294179070
-0.3448015153 -0.1094308943 0.5255290270 4294244863
-0.3448555171 -0.1088640392 0.5256113410 4294244863
-0.3454498649 -0.1084666625 0.5265172124 4294244861
-0.3455034196 -0.1078983843 0.5265988111 4294244861
-0.3455567062 -0.1073298454 0.5266800523 4294244861
-0.3456097245 -0.1067610458 0.5267608762 4294310654
-0.3462034166 -0.1063581705 0.5276657343 4294244860
-0.3462559879 -0.1057879552 0.5277458429 4294310653
-0.3457671702 -0.1050530821 0.5270008445 4294310653
-0.3458191454 -0.1044832468 0.5270800591 4294376446
-0.3458708227 -0.1039131507 0.5271588564 4294376446
-0.3464635909 -0.1035045236 0.5280622840 4294442239
-0.3465148211 -0.1029330269 0.5281403661 4294377215
-0.3465657830 -0.1023612767 0.5282180905 4294377215
-0.3466164768 -0.1017892808 0.5282953382 4294311423
-0.3472085893 -0.1013751775 0.5291977525 4294311423
-0.3472588062 -0.1008017883 0.5292743444 4294311423
-0.3473087847 -0.1002281457 0.5293504596 4294245630
-0.3479003608 -0.0998097211 0.5302521586 4294179837
-0.3479498625 -0.0992346853 0.5303276181 4294179837
-0.3479990959 -0.0986594111 0.5304026604 4294179837
-0.3480480611 -0.0980838910 0.5304772258 4294114044
-0.3497233391 -0.0979637802 0.5330306292 4294114558
-0.3492296934 -0.0972341001 0.5322782397 4294114558
-0.3498203456 -0.0968061462 0.5331785083 4293982972
-0.3493259847 -0.0960777849 0.5324250460 4293982972
-0.3493737280 -0.0954992697 0.5324977636 4294048765
-0.3499637544 -0.0950679109 0.5333970785 4294048765
-0.3500110209 -0.0944880247 0.5334691405 4294048252
-0.3506007195 -0.0940534994 0.5343679190 4294048252
-0.3517330885 -0.0937616378 0.5360938311 4294113791
-0.3523690403 -0.0927377269 0.5370631218 4294113791
-0.3535012305 -0.0924370661 0.5387887359 4294113791
-0.3546334207 -0.0921325684 0.5405143499 4294047998
-0.3557655811 -0.0918242410 0.5422399640 4294047998
-0.3574410081 -0.0916513652 0.5447934866 4294113277
-0.3585732281 -0.0913344622 0.5465192199 4294113277
-0.3618789315 -0.0915636495 0.5515575409 4293915898
-0.3624679744 -0.0910988823 0.5524553657 4294047484
-0.3636004031 -0.0907677561 0.5541813374 4294047484
-0.3603842556 -0.0893546045 0.5492794514 4293981691
-0.3642342687 -0.0896923691 0.5551474690 4294047484
-0.3648226857 -0.0892194659 0.5560443401 4294113277
-0.3654109836 -0.0887445360 0.5569409728 4293915644
-0.3654552698 -0.0881364197 0.5570084453 4293586679
-0.3654992580 -0.0875280723 0.5570755005 4293586681
-0.3655429780 -0.0869195163 0.5571421385 4293389302
-0.3655863702 -0.0863107368 0.5572082996 4293060337
-0.3656294942 -0.0857017487 0.5572739840 4292731372
-0.3651281595 -0.0849659145 0.5565098524 4292731372
-0.3651705980 -0.0843573958 0.5565745831 4293191923
-0.3646684885 -0.0836238638 0.5558092594 4293455096
-0.3636215925 -0.0827680230 0.5542136431 4293389303
-0.3625741601 -0.0819156095 0.5526172519 4293520889
-0.3615261912 -0.0810666233 0.5510199666 4293389303
-0.3604776859 -0.0802210644 0.5494219065 4293520376
-0.3594286442 -0.0793789402 0.5478230119 4292928239
-0.3583790660 -0.0785402507 0.5462232828 4291875551
-0.3578736782 -0.0778234527 0.5454529524 4291151828
-0.3579126298 -0.0772258192 0.5455123186 4289835967
-0.3563168049 -0.0762780905 0.5430800915 4288322728
-0.3579896688 -0.0760299712 0.5456297398 4286808975
-0.3580277562 -0.0754317641 0.5456877947 4285098357
-0.3586105406 -0.0749472603 0.5465760827 4283190360
-0.3597382009 -0.0745737404 0.5482947826 4281348156
-0.3502546549 -0.1333332658 0.5347456336 4283848037
-0.3481736779 -0.1319504827 0.5315685868 4287401375
-0.3471648097 -0.1309792548 0.5300283432 4290822611
-0.3461553156 -0.1300112009 0.5284870863 4291809506
-0.3472922444 -0.1298491061 0.5302228928 4292796401
-0.3458077610 -0.1281208694 0.5279564857 4292796401
-0.3453332484 -0.1273592710 0.5272319913 4292796912
-0.3443211019 -0.1264019161 0.5256867409 4292862705
-0.3449200988 -0.1260367185 0.5266012549 4293191672
-0.3444443345 -0.1252785921 0.5258748531 4293323258
-0.3445055783 -0.1247164682 0.5259683728 4293257716
-0.3440290093 -0.1239603683 0.5252407789 4293389302
-0.3440896571 -0.1233985275 0.5253333449 4293520888
-0.3441500366 -0.1228363961 0.5254255533 4293520888
-0.3442101479 -0.1222739741 0.5255173445 4293586681
-0.3437320888 -0.1215210781 0.5247874856 4293586681
-0.3432536125 -0.1207696497 0.5240569115 4293652474
-0.3438508809 -0.1203965172 0.5249688029 4293652474
-0.3433716893 -0.1196462661 0.5242372155 4293521658
-0.3434303403 -0.1190841421 0.5243268013 4293587451
-0.3429503739 -0.1183359548 0.5235939622 4293653244
-0.3430084288 -0.1177741438 0.5236825943 4293719037
-0.3430662155 -0.1172120422 0.5237708688 4293719037
-0.3431237638 -0.1166496575 0.5238587260 4293784830
-0.3426423073 -0.1159047484 0.5231236219 4293850623
-0.3426992297 -0.1153426841 0.5232105851 4293982207
-0.3432948291 -0.1149608120 0.5241199136 4294047230
-0.3428123295 -0.1142177135 0.5233832598 4294113023
-0.3428685069 -0.1136548147 0.5234689713 4294179070
-0.3434635997 -0.1132694557 0.5243775249 4294244863
-0.3435193300 -0.1127051190 0.5244626403 4294244863
-0.3435747921 -0.1121405140 0.5245472789 4294179070
-0.3436299860 -0.1115756258 0.5246315598 4294113277
-0.3436849415 -0.1110104695 0.5247154832 4294113277
-0.3431999981 -0.1102716625 0.5239751339 4294113277
-0.3432543576 -0.1097068563 0.5240580440 4294113277
-0.3433084190 -0.1091417819 0.5241406560 4294113275
-0.3439021111 -0.1087471545 0.5250470638 4294179068
-0.3439557552 -0.1081806645 0.5251289010 4294244861
-0.3440091312 -0.1076138988 0.5252103806 4294244861
-0.3440622389 -0.1070468798 0.5252915025 4294244861
-0.3446552753 -0.1066467538 0.5261968970 4294244861
-0.3447079360 -0.1060783118 0.5262773037 4294376446
-0.3447603285 -0.1055096164 0.5263572931 4294376446
-0.3448124826 -0.1049406603 0.5264369249 4294376446
-0.3448643386 -0.1043714508 0.5265160799 4294376446
-0.3449159265 -0.1038019806 0.5265948772 4294376446
-0.3449672461 -0.1032322571 0.5266732574 4294376446
-0.3455590904 -0.1028231904 0.5275768042 4294311423
-0.3456099927 -0.1022520661 0.5276544690 4294311423
-0.3456605971 -0.1016806886 0.5277317762 4294311677
-0.3457109332 -0.1011090651 0.5278086066 4294311677
-0.3457610011 -0.1005371884 0.5278850198 4294311677
-0.3458107710 -0.0999650657 0.5279610753 4294245884
-0.3464015722 -0.0995482430 0.5288630128 4294245884
-0.3464508951 -0.0989747345 0.5289383531 4294180091
-0.3464999497 -0.0984009802 0.5290132761 4294180091
-0.3465487659 -0.0978269801 0.5290877223 4294180091
-0.3465972841 -0.0972527415 0.5291618109 4294048764
-0.3471871614 -0.0968293175 0.5300624371 4294114557
-0.3477769196 -0.0964038596 0.5309628248 4294048764
-0.3478247523 -0.0958271101 0.5310359001 4294048764
-0.3484141827 -0.0953984782 0.5319358110 4294114557
-0.3484615684 -0.0948203504 0.5320081115 4294114557
-0.3490506709 -0.0943885595 0.5329075456 4294114558
-0.3490975797 -0.0938090608 0.5329791307 4294180351
-0.3496863544 -0.0933740959 0.5338780284 4294048765
-0.3502749801 -0.0929371044 0.5347766876 4294048765
-0.3508634865 -0.0924980715 0.5356752276 4294179838
-0.3519942164 -0.0921990797 0.5374014974 4294179838
-0.3525825143 -0.0917550847 0.5382996798 4294113791
-0.3537131846 -0.0914493129 0.5400259495 4294113791
-0.3553864360 -0.0912790745 0.5425805449 4294047998
-0.3565171659 -0.0909647271 0.5443068147 4294047998
-0.3576478660 -0.0906465501 0.5460331440 4294179068
-0.3593213558 -0.0904611796 0.5485880971 4294244861
-0.3571950197 -0.0893199444 0.5453417897 4294179068
-0.3610399663 -0.0896689743 0.5512119532 4294047482
-0.3621706069 -0.0893354341 0.5529381633 4294113277
-0.3622151613 -0.0887319893 0.5530061722 4294179070
-0.3628025055 -0.0882604495 0.5539029241 4293981691
-0.3633897007 -0.0877868757 0.5547994375 4293652726
-0.3634335101 -0.0871809572 0.5548662543 4293849851
-0.3634769917 -0.0865748227 0.5549326539 4294047230
-0.3635202050 -0.0859684721 0.5549986362 4293915646
-0.3630196750 -0.0852343068 0.5542344451 4293060337
-0.3625187278 -0.0845017433 0.5534696579 4292271591
-0.3620173335 -0.0837707818 0.5527041554 4292403177
-0.3615155518 -0.0830414221 0.5519380569 4292863473
-0.3604696393 -0.0821897015 0.5503412485 4293192438
-0.3599669635 -0.0814644694 0.5495737791 4293324279
-0.3589200377 -0.0806187019 0.5479754210 4293719037
-0.3578725755 -0.0797763616 0.5463762283 4294178815
-0.3568245769 -0.0789374635 0.5447762012 4293586681
-0.3557760417 -0.0781019926 0.5431753993 4293257716
-0.3558151126 -0.0775069967 0.5432350039 4293323509
-0.3553097546 -0.0767941996 0.5424634814 4293059824
-0.3558923602 -0.0763164163 0.5433529615 4292730859
-0.3564747870 -0.0758366212 0.5442421436 4292599273
-0.3570570350 -0.0753548071 0.5451310873 4291941343
-0.3576391041 -0.0748709887 0.5460197926 4291019472
-0.3587654233 -0.0744981989 0.5477393270 4289177268
-0.3604361117 -0.0742337108 0.5502900481 4286874513
-0.3599287868 -0.0735186711 0.5495154858 4285098102
-0.3475585580 -0.1337127984 0.5315307379 4283716704
-0.3497661054 -0.1339677721 0.5349068046 4287072664
-0.3482241035 -0.1327854544 0.5325486064 4290428107
-0.3461454213 -0.1314046383 0.5293695927 4292335850
-0.3462094069 -0.1308406591 0.5294674635 4293059573
-0.3452010751 -0.1298730224 0.5279253721 4292599022
-0.3447282314 -0.1291093677 0.5272022486 4292664815
-0.3442549407 -0.1283471584 0.5264784694 4292599535
-0.3443175256 -0.1277854145 0.5265741348 4292796914
-0.3438434303 -0.1270252168 0.5258491039 4292862707
-0.3428323865 -0.1260691732 0.5243028998 4292862707
-0.3434305191 -0.1257055700 0.5252176523 4293323258
-0.3434919119 -0.1251443774 0.5253115296 4293586430
-0.3430162370 -0.1243882254 0.5245840549 4293323510
-0.3430770040 -0.1238273159 0.5246769786 4293455096
-0.3431375325 -0.1232661009 0.5247695446 4293586682
-0.3431977928 -0.1227045953 0.5248617530 4293586682
-0.3432578146 -0.1221427917 0.5249535441 4293586682
-0.3433175683 -0.1215806976 0.5250449181 4293586682
-0.3428397179 -0.1208289191 0.5243141055 4293521658
-0.3423614204 -0.1200786084 0.5235826373 4293587451
-0.3429577947 -0.1197050214 0.5244946480 4293455865
-0.3424787819 -0.1189559028 0.5237621069 4293521658
-0.3419993520 -0.1182082519 0.5230289102 4293587451
-0.3420573175 -0.1176470593 0.5231175423 4293653244
-0.3421150148 -0.1170855835 0.5232057571 4293653757
-0.3416344225 -0.1163406149 0.5224708319 4293653757
-0.3422296345 -0.1159617826 0.5233810544 4293719550
-0.3422865570 -0.1153994650 0.5234681368 4293785343
-0.3418049216 -0.1146562994 0.5227316022 4293915898
-0.3423996270 -0.1142739803 0.5236410499 4293981691
-0.3424557745 -0.1137108207 0.5237269402 4294113277
-0.3425116539 -0.1131473854 0.5238124132 4294179070
-0.3425672948 -0.1125836745 0.5238974690 4294244863
-0.3426226676 -0.1120196953 0.5239821672 4294179070
-0.3426777720 -0.1114554331 0.5240664482 4294179070
-0.3421937227 -0.1107165515 0.5233261585 4294113277
-0.3422482312 -0.1101526394 0.5234095454 4294113277
-0.3423024714 -0.1095884591 0.5234925151 4294113277
-0.3428955972 -0.1091957018 0.5243995786 4294113275
-0.3429493904 -0.1086300984 0.5244818330 4294179068
-0.3430029452 -0.1080642268 0.5245637298 4294179068
-0.3430562019 -0.1074980944 0.5246452093 4294244861
-0.3436487019 -0.1070998311 0.5255513191 4294244861
-0.3437015414 -0.1065322831 0.5256321430 4294244861
-0.3437541127 -0.1059644669 0.5257124901 4294376446
-0.3438064158 -0.1053963974 0.5257924795 4294376446
-0.3438584507 -0.1048280671 0.5258720517 4294376446
-0.3439102173 -0.1042594835 0.5259512663 4294376446
-0.3439617157 -0.1036906391 0.5260300040 4294376446
-0.3440129459 -0.1031215414 0.5261083841 4294376446
-0.3440639377 -0.1025521904 0.5261863470 4294376446
-0.3441146314 -0.1019825861 0.5262638927 4294376446
-0.3441650569 -0.1014127284 0.5263410211 4294376446
-0.3442152441 -0.1008426249 0.5264177322 4294376446
-0.3442651331 -0.1002722755 0.5264940262 4294245630
-0.3448553085 -0.0998581871 0.5273966193 4294245630
-0.3449047506 -0.0992864445 0.5274721980 4294245630
-0.3449538946 -0.0987144560 0.5275474191 4294179837
-0.3450028002 -0.0981422290 0.5276221633 4294179837
-0.3450514376 -0.0975697488 0.5276965499 4294179837
-0.3456888497 -0.0965752080 0.5286713839 4294048762
-0.3457367420 -0.0960011184 0.5287446380 4294180348
-0.3463255167 -0.0955761224 0.5296450257 4294180348
-0.3463729322 -0.0950006545 0.5297175646 4294114557
-0.3475026190 -0.0947200283 0.5314452052 4294114557
-0.3475496471 -0.0941422954 0.5315171480 4294180350
-0.3481378257 -0.0937100574 0.5324166417 4294180350
-0.3481843472 -0.0931309536 0.5324878097 4294179837
-0.3487721980 -0.0926955566 0.5333868265 4294179837
-0.3493598998 -0.0922581255 0.5342856050 4294179838
-0.3499474525 -0.0918186605 0.5351842046 4294179838
-0.3510766625 -0.0915183946 0.5369111300 4294179838
-0.3522059023 -0.0912142918 0.5386380553 4294179838
-0.3527931869 -0.0907669216 0.5395362377 4294179838
-0.3539223373 -0.0904560462 0.5412630439 4294179838
-0.3550514579 -0.0901413336 0.5429898500 4294244860
-0.3556384444 -0.0896860659 0.5438875556 4294244860
-0.3583941162 -0.0897720158 0.5481018424 4294179068
-0.3589810729 -0.0893090591 0.5489995480 4294047482
-0.3601102233 -0.0889780819 0.5507263541 4293982459
-0.3563577235 -0.0874453709 0.5449875593 4294048252
-0.3601985872 -0.0877758190 0.5508614779 4293982205
-0.3607848585 -0.0873056427 0.5517581105 4293784826
-0.3602857888 -0.0865726769 0.5509948730 4293784828
-0.3603289425 -0.0859707817 0.5510608554 4293784828
-0.3603718281 -0.0853686705 0.5511264205 4293982207
-0.3598715961 -0.0846386850 0.5503614545 4294047999
-0.3599138260 -0.0840370506 0.5504260063 4293390072
-0.3588699400 -0.0831835195 0.5488295555 4292337384
-0.3583684564 -0.0824583471 0.5480626225 4292074212
-0.3573235273 -0.0816107541 0.5464646220 4292468970
-0.3568211794 -0.0808897093 0.5456963181 4293192693
-0.3563184142 -0.0801702812 0.5449274182 4293587451
-0.3558152318 -0.0794524699 0.5441579223 4293653244
-0.3553116322 -0.0787362754 0.5433877707 4293587451
-0.3542642593 -0.0779022202 0.5417860150 4293653244
-0.3543032110 -0.0773087516 0.5418455601 4293324279
-0.3537983894 -0.0765974298 0.5410735011 4293126130
-0.3543802202 -0.0761212334 0.5419632792 4293191923
-0.3549618721 -0.0756430253 0.5428528190 4293586681
-0.3549996912 -0.0750478804 0.5429106951 4293718267
-0.3561246395 -0.0746805668 0.5446311235 4294046719
-0.3567057550 -0.0741963238 0.5455198288 4293783547
-0.3578305244 -0.0738222525 0.5472399592 4293059824
-0.3573236167 -0.0731105134 0.5464647412 4292270308
-0.3606237769 -0.0731729791 0.5515117645 4290756555
-0.3617483675 -0.0727864876 0.5532316566 4288848558
-0.3628728986 -0.0723961592 0.5549514294 4286216838
-0.3634532392 -0.0718943626 0.5558389425 4283848290
-0.3640334010 -0.0713905618 0.5567262173 4281282363
-0.3476067185 -0.1345505267 0.5325089097 4286546317
-0.3449976742 -0.1329534203 0.5285120606 4290493897
-0.3466672301 -0.1330067664 0.5310696959 4292204518
-0.3461968303 -0.1322370321 0.5303490758 4293257206
-0.3446556032 -0.1310616881 0.5279880166 4293256952
-0.3441841006 -0.1302965581 0.5272657275 4293191159
-0.3432397246 -0.1287706047 0.5258190036 4292665328
-0.3433024585 -0.1282098144 0.5259150863 4292731121
-0.3428292572 -0.1274495721 0.5251901746 4293060086
-0.3423556089 -0.1266907603 0.5244646072 4293257463
-0.3413456380 -0.1257360280 0.5229173899 4293323256
-0.3419429362 -0.1253740340 0.5238323808 4293389049
-0.3420040905 -0.1248143390 0.5239261389 4293323256
-0.3420650363 -0.1242543459 0.5240194201 4293192438
-0.3421256840 -0.1236940622 0.5241124034 4293258231
-0.3421861231 -0.1231334731 0.5242049098 4293389817
-0.3422462642 -0.1225725934 0.5242971182 4293455610
-0.3423061669 -0.1220114157 0.5243888497 4293389817
-0.3423658311 -0.1214499399 0.5244802833 4293389817
-0.3424252272 -0.1208881736 0.5245712399 4293455610
-0.3414107561 -0.1199489236 0.5230171680 4293521403
-0.3420063555 -0.1195760518 0.5239295959 4293455610
-0.3415279090 -0.1188274622 0.5231966376 4293455610
-0.3415861130 -0.1182663068 0.5232858062 4293390585
-0.3416440487 -0.1177048609 0.5233745575 4293456378
-0.3411644697 -0.1169589385 0.5226398706 4293587964
-0.3406844437 -0.1162145063 0.5219044685 4293653757
-0.3412788808 -0.1158363894 0.5228151083 4293587964
-0.3413357139 -0.1152746975 0.5229021907 4293653757
-0.3413922787 -0.1147127226 0.5229887962 4293719033
-0.3415046334 -0.1135879382 0.5231609344 4293850619
-0.3415604234 -0.1130251288 0.5232464075 4293982205
-0.3416159451 -0.1124620438 0.5233314633 4294047998
-0.3416711986 -0.1118986905 0.5234161615 4294047998
-0.3417262137 -0.1113350540 0.5235004425 4294047998
-0.3412427306 -0.1105967090 0.5227597356 4294047998
-0.3418354690 -0.1102069840 0.5236677527 4293982459
-0.3418897092 -0.1096425429 0.5237508416 4293982459
-0.3419436514 -0.1090778336 0.5238335133 4294048252
-0.3419973552 -0.1085128561 0.5239157677 4294048252
-0.3415121436 -0.1077776179 0.5231724977 4294048252
-0.3415652514 -0.1072130054 0.5232537985 4294114045
-0.3416180909 -0.1066481248 0.5233347416 4294114045
-0.3416706622 -0.1060829833 0.5234152675 4294179838
-0.3422619700 -0.1056840196 0.5243211389 4294376447
-0.3423140943 -0.1051174626 0.5244010091 4294376447
-0.3423659503 -0.1045506522 0.5244804025 4294376447
-0.3424175382 -0.1039835885 0.5245594978 4294376447
-0.3424688876 -0.1034162641 0.5246381164 4294376447
-0.3430593312 -0.1030106544 0.5255426764 4294376447
-0.3431102335 -0.1024419293 0.5256206393 4294376447
-0.3431608379 -0.1018729582 0.5256981254 4294376447
-0.3432111740 -0.1013037264 0.5257752538 4294376446
-0.3432612717 -0.1007342488 0.5258519650 4294310653
-0.3433110714 -0.1001645252 0.5259283185 4294179837
-0.3433606029 -0.0995945483 0.5260041952 4294245630
-0.3439498544 -0.0991800278 0.5269068480 4294245630
-0.3439989388 -0.0986086652 0.5269820690 4294245630
-0.3440477252 -0.0980370641 0.5270568132 4294245630
-0.3440962732 -0.0974652171 0.5271311998 4294245630
-0.3441445529 -0.0968931243 0.5272051096 4294114555
-0.3441925645 -0.0963207930 0.5272786617 4294114555
-0.3447806835 -0.0958985388 0.5281796455 4294180348
-0.3448282182 -0.0953248292 0.5282524824 4294180348
-0.3448754847 -0.0947508886 0.5283248425 4294245884
-0.3454630971 -0.0943243280 0.5292250514 4294245884
-0.3455098867 -0.0937490165 0.5292967558 4294245884
-0.3466379642 -0.0934650898 0.5310248733 4294180091
-0.3466843367 -0.0928875133 0.5310959220 4294245630
-0.3472713828 -0.0924537107 0.5319952369 4294245630
-0.3478582799 -0.0920178816 0.5328943133 4294245630
-0.3484450281 -0.0915800110 0.5337931514 4294179837
-0.3490316570 -0.0911401138 0.5346918702 4294376446
-0.3496181667 -0.0906981751 0.5355902910 4294376446
-0.3507457972 -0.0903937072 0.5373177528 4294376446
-0.3513320684 -0.0899468064 0.5382158756 4294376446
-0.3524596095 -0.0896355659 0.5399432182 4294179837
-0.3530456722 -0.0891836956 0.5408410430 4294245630
-0.3536315858 -0.0887297913 0.5417386293 4294245631
-0.3547589779 -0.0884088352 0.5434656739 4294179838
-0.3569697142 -0.0883521810 0.5468523502 4294114045
-0.3564719558 -0.0876222327 0.5460898280 4294114045
-0.3570573926 -0.0871583968 0.5469866991 4294048252
-0.3565589190 -0.0864298269 0.5462230444 4293982459
-0.3571439087 -0.0859637409 0.5471192598 4293982205
-0.3566447198 -0.0852365494 0.5463545322 4293850619
-0.3561451435 -0.0845109597 0.5455891490 4293982207
-0.3561872542 -0.0839146897 0.5456537008 4294311167
-0.3556868732 -0.0831914023 0.5448871851 4294376959
-0.3541015685 -0.0822179019 0.5424585938 4293653242
-0.3546848893 -0.0817496404 0.5433521867 4292666347
-0.3530985117 -0.0807829946 0.5409219265 4292074210
-0.3536812663 -0.0803143308 0.5418146849 4292732653
-0.3531788290 -0.0795990974 0.5410450101 4293324790
-0.3526759744 -0.0788854808 0.5402746797 4293719548
-0.3532580137 -0.0784143880 0.5411663055 4293719548
-0.3527544737 -0.0777022019 0.5403949022 4293653242
-0.3527932763 -0.0771102607 0.5404543877 4293587449
-0.3528317809 -0.0765181333 0.5405133963 4293719035
-0.3534128964 -0.0760426223 0.5414035916 4293521656
-0.3539938331 -0.0755650923 0.5422935486 4294310399
-0.3551175892 -0.0752005354 0.5440150499 4294113023
-0.3551551998 -0.0746039897 0.5440726280 4294244607
-0.3557356000 -0.0741204172 0.5449618101 4294507775
-0.3585255444 -0.0734812468 0.5492357612 4294705151
-0.3596488535 -0.0730993226 0.5509566069 4294375935
-0.3607720733 -0.0727135614 0.5526773334 4293849594
-0.3618952334 -0.0723239556 0.5543979406 4292730343
-0.3630183339 -0.0719305128 0.5561184287 4291282897
-0.3641413152 -0.0715332329 0.5578387976 4289309107
-0.3647206724 -0.0710262582 0.5587263107 4286808973
-0.3652998507 -0.0705172792 0.5596135259 4283782495
-0.3653351665 -0.0699022636 0.5596676469 4281150775
-0.3507901430 -0.1372103691 0.5383015871 4286086020
-0.3481865525 -0.1355983317 0.5343062878 4289836221
-0.3450475931 -0.1337875873 0.5294893980 4292073442
-0.3435098529 -0.1326056719 0.5271297097 4292797165
-0.3441085815 -0.1322501004 0.5280484557 4292928498
-0.3441728354 -0.1316879839 0.5281471014 4293389049
-0.3420987129 -0.1303111166 0.5249642730 4293256952
-0.3437659740 -0.1303600818 0.5275227427 4293388538
-0.3432946503 -0.1295960248 0.5267994404 4292533742
-0.3422880471 -0.1286324412 0.5252547860 4292796914
-0.3418157399 -0.1278721541 0.5245299935 4293060086
-0.3413429558 -0.1271133125 0.5238045454 4293125879
-0.3414048851 -0.1265542805 0.5238995552 4292929268
-0.3409313262 -0.1257974505 0.5231728554 4293060854
-0.3415279388 -0.1254352927 0.5240883827 4293389303
-0.3410536945 -0.1246796250 0.5233606696 4293520889
-0.3411145210 -0.1241202652 0.5234539509 4293192440
-0.3411750793 -0.1235606000 0.5235468745 4293258233
-0.3412353694 -0.1230006367 0.5236394405 4293324026
-0.3412954211 -0.1224403828 0.5237315893 4293389819
-0.3413552344 -0.1218798310 0.5238233805 4293258233
-0.3414147794 -0.1213189885 0.5239147544 4293192440
-0.3414740860 -0.1207578480 0.5240057111 4293192953
-0.3409969509 -0.1200077236 0.5232735872 4293192953
-0.3410556316 -0.1194468886 0.5233636498 4293258744
-0.3405777514 -0.1186988279 0.5226302743 4293324537
-0.3406358361 -0.1181382984 0.5227193832 4293258744
-0.3406936526 -0.1175774783 0.5228081346 4293324537
-0.3407512307 -0.1170163751 0.5228965282 4293456123
-0.3397351503 -0.1160881966 0.5213372707 4293521916
-0.3397920430 -0.1155283004 0.5214245915 4293521916
-0.3398486674 -0.1149681136 0.5215114951 4293587709
-0.3399050534 -0.1144076511 0.5215979815 4293653242
-0.3399611712 -0.1138469130 0.5216841102 4293719035
-0.3405541778 -0.1134648621 0.5225940943 4293784828
-0.3406098485 -0.1129026785 0.5226795673 4293850621
-0.3406652808 -0.1123402268 0.5227646232 4293916412
-0.3401830494 -0.1116011888 0.5220245719 4293982205
-0.3407753706 -0.1112144962 0.5229335427 4293982205
-0.3402924240 -0.1104766950 0.5221924782 4293982205
-0.3408844173 -0.1100876778 0.5231008530 4293982205
-0.3409385383 -0.1095238626 0.5231839418 4293982205
-0.3409924209 -0.1089597866 0.5232666135 4294047998
-0.3410460353 -0.1083954349 0.5233488679 4294047998
-0.3405613601 -0.1076607406 0.5226051211 4294048252
-0.3406143785 -0.1070967540 0.5226864815 4294048252
-0.3406670988 -0.1065325066 0.5227674246 4294114045
-0.3407195807 -0.1059679911 0.5228479505 4294179838
-0.3407717943 -0.1054032221 0.5229280591 4294310654
-0.3408237398 -0.1048381925 0.5230077505 4294310654
-0.3403369188 -0.1041081771 0.5222607255 4294310654
-0.3414654434 -0.1038711965 0.5239924788 4294310654
-0.3415166736 -0.1033044979 0.5240710974 4294310654
-0.3415676653 -0.1027375534 0.5241493583 4294310654
-0.3416183591 -0.1021703482 0.5242271423 4294179838
-0.3422077298 -0.1017631590 0.5251315236 4294179838
-0.3422579765 -0.1011945531 0.5252086520 4294179838
-0.3423079848 -0.1006257087 0.5252853632 4294179838
-0.3423576951 -0.1000566110 0.5253616571 4294179838
-0.3424071372 -0.0994872600 0.5254375339 4294179838
-0.3429956436 -0.0990734473 0.5263406038 4294245631
-0.3430446386 -0.0985027105 0.5264158249 4294179838
-0.3430933654 -0.0979317352 0.5264905691 4294179838
-0.3431418240 -0.0973605141 0.5265649557 4294245631
-0.3431899846 -0.0967890546 0.5266388655 4294245884
-0.3432379067 -0.0962173566 0.5267124176 4294245884
-0.3438253105 -0.0957957953 0.5276138186 4294245884
-0.3438727558 -0.0952227190 0.5276865959 4294245884
-0.3439199328 -0.0946494043 0.5277590156 4294245630
-0.3439668417 -0.0940758586 0.5278309584 4294245630
-0.3445535302 -0.0936488584 0.5287312865 4294245630
-0.3445999622 -0.0930739418 0.5288025141 4294179837
-0.3457265198 -0.0927887559 0.5305312872 4294442239
-0.3457725346 -0.0922115743 0.5306019187 4294376446
-0.3463586271 -0.0917773396 0.5315012932 4294442239
-0.3464041948 -0.0911987945 0.5315712094 4294442239
-0.3469899297 -0.0907613933 0.5324700475 4294376446
-0.3475755751 -0.0903219655 0.5333687067 4294376446
-0.3481610417 -0.0898805037 0.5342671275 4294442239
-0.3492870629 -0.0895756632 0.5359950662 4294376446
-0.3498723507 -0.0891292319 0.5368931890 4294245114
-0.3504574597 -0.0886807665 0.5377911329 4294310907
-0.3510424495 -0.0882302746 0.5386887789 4294179837
-0.3516272902 -0.0877777487 0.5395862460 4294179837
-0.3532940447 -0.0875914618 0.5421439409 4294114044
-0.3533376157 -0.0869998261 0.5422108173 4294048251
-0.3533809185 -0.0864079818 0.5422772169 4294114044
-0.3534238935 -0.0858159140 0.5423431993 4294114044
-0.3534666300 -0.0852236301 0.5424087644 4294114045
-0.3502608836 -0.0838535130 0.5374894142 4294114045
-0.3503026366 -0.0832662508 0.5375535488 4293982205
-0.3498026431 -0.0825509876 0.5367861986 4293850619
-0.3525515199 -0.0825986117 0.5410045385 4294113791
-0.3525926769 -0.0820070878 0.5410676599 4294442751
-0.3515501916 -0.0811652392 0.5394679308 4293850619
-0.3521324098 -0.0806992799 0.5403613448 4292732138
-0.3516308367 -0.0799848065 0.5395916700 4292535274
-0.3511288464 -0.0792719498 0.5388213992 4292732653
-0.3511683941 -0.0786821470 0.5388820767 4293455863
-0.3512076437 -0.0780921355 0.5389422774 4293719035
-0.3512466252 -0.0775019303 0.5390021205 4293916414
-0.3512853086 -0.0769115314 0.5390614271 4294376959
-0.3513236940 -0.0763209313 0.5391203761 4294245375
-0.3513618112 -0.0757301450 0.5391788483 4293653240
-0.3519419134 -0.0752551183 0.5400690436 4294245375
-0.3525218368 -0.0747780800 0.5409589410 4294113791
-0.3536439836 -0.0744131580 0.5426809192 4294244863
-0.3536811769 -0.0738179609 0.5427380204 4294573823
-0.3558880985 -0.0736717954 0.5461246371 4294705151
-0.3570100665 -0.0732953548 0.5478463173 4294705151
-0.3586745858 -0.0730255544 0.5504006147 4294573823
-0.3597964644 -0.0726405159 0.5521221757 4294442239
-0.3609182537 -0.0722516403 0.5538436174 4294770687
-0.3620399535 -0.0718589202 0.5555648804 4294375935
-0.3631615937 -0.0714623630 0.5572860837 4293783801
-0.3637402356 -0.0709560513 0.5581740737 4292862699
-0.3643186986 -0.0704477355 0.5590617061 4291152081
-0.3643539548 -0.0698333383 0.5591158271 4288454568
-0.3643889129 -0.0692187622 0.5591694713 4285099123
-0.3644235730 -0.0686040074 0.5592226386 4282467403
-0.3480962515 -0.1375781447 0.5350796580 4283519321
-0.3466294408 -0.1358144134 0.5328249931 4291283667
-0.3434950411 -0.1339996457 0.5280068517 4292796906
-0.3430265486 -0.1332310289 0.5272867084 4292862958
-0.3409568667 -0.1318448484 0.5241053104 4293060337
-0.3426218629 -0.1319035292 0.5266646743 4293060338
-0.3421521485 -0.1311383247 0.5259426236 4293257717
-0.3411480784 -0.1301708519 0.5243992209 4293125877
-0.3417452872 -0.1298150718 0.5253172517 4293652221
-0.3412742913 -0.1290532947 0.5245932937 4292928500
-0.3408028781 -0.1282929629 0.5238686204 4292994293
-0.3413995504 -0.1279345006 0.5247857571 4293126395
-0.3403930366 -0.1269759834 0.5232386589 4293192188
-0.3393859267 -0.1260206550 0.5216904879 4293389819
-0.3405163884 -0.1258588582 0.5234282613 4293455612
-0.3400430381 -0.1251031458 0.5227006078 4293455095
-0.3401039839 -0.1245447099 0.5227943063 4293718267
-0.3401646912 -0.1239859685 0.5228876472 4292995320
-0.3402251303 -0.1234269366 0.5229805112 4292995320
-0.3402853310 -0.1228676066 0.5230730772 4293126906
-0.3403452933 -0.1223079711 0.5231652260 4293192699
-0.3404049873 -0.1217480525 0.5232569575 4293192699
-0.3404644132 -0.1211878285 0.5233483315 4293192699
-0.3399882019 -0.1204376519 0.5226163268 4293324539
-0.3400470316 -0.1198777333 0.5227067471 4293324539
-0.3401056230 -0.1193175241 0.5227968097 4293061367
-0.3396282494 -0.1185699999 0.5220630169 4293192953
-0.3396862447 -0.1180100963 0.5221521854 4293258744
-0.3392080963 -0.1172646508 0.5214172006 4293258744
-0.3392654657 -0.1167050600 0.5215053558 4293390330
-0.3387865424 -0.1159617007 0.5207691789 4293456123
-0.3388433456 -0.1154024303 0.5208564997 4293456123
-0.3394360840 -0.1150245890 0.5217676759 4293587709
-0.3394924700 -0.1144638732 0.5218542814 4293653242
-0.3395485580 -0.1139028743 0.5219405293 4293653242
-0.3396044075 -0.1133415997 0.5220263600 4293719035
-0.3396599889 -0.1127800494 0.5221118331 4293784828
-0.3397153318 -0.1122182235 0.5221968889 4293784828
-0.3397704065 -0.1116561219 0.5222815275 4293850621
-0.3398252130 -0.1110937446 0.5223657489 4293850621
-0.3393428326 -0.1103564873 0.5216242671 4293850621
-0.3399340510 -0.1099681854 0.5225331187 4293982205
-0.3399880826 -0.1094050035 0.5226161480 4293982205
-0.3400418758 -0.1088415533 0.5226988196 4293982205
-0.3400953710 -0.1082778350 0.5227810740 4293982205
-0.3396112621 -0.1075436845 0.5220369101 4294047998
-0.3396641612 -0.1069803312 0.5221182704 4294113791
-0.3397168219 -0.1064167097 0.5221991539 4294113791
-0.3397692144 -0.1058528274 0.5222796798 4294113791
-0.3398213089 -0.1052886844 0.5223597884 4294114045
-0.3398731649 -0.1047242880 0.5224395394 4294114045
-0.3393869102 -0.1039948165 0.5216920376 4294114045
-0.3399761021 -0.1035947129 0.5225977302 4294114045
-0.3400271833 -0.1030295417 0.5226762295 4294114045
-0.3400779665 -0.1024641171 0.5227543116 4294114045
-0.3406666815 -0.1020596698 0.5236592889 4294179838
-0.3412553072 -0.1016531885 0.5245640278 4294179838
-0.3413054645 -0.1010852158 0.5246411562 4294179838
-0.3413553536 -0.1005169973 0.5247178674 4294179838
-0.3414050043 -0.0999485254 0.5247941613 4294179838
-0.3414543569 -0.0993798077 0.5248700380 4294179838
-0.3415034711 -0.0988108441 0.5249454975 4294179838
-0.3420910239 -0.0983965993 0.5258486867 4294179838
-0.3421396613 -0.0978262499 0.5259234309 4294179838
-0.3421880305 -0.0972556546 0.5259978175 4294245631
-0.3422361314 -0.0966848210 0.5260717273 4294245630
-0.3422839642 -0.0961137488 0.5261452794 4294245630
-0.3423315287 -0.0955424383 0.5262183547 4294245630
-0.3423787951 -0.0949708894 0.5262910724 4294179837
-0.3424258232 -0.0943991020 0.5263633132 4294245630
-0.3424725831 -0.0938270837 0.5264351964 4294245630
-0.3430584371 -0.0934016928 0.5273357630 4294245630
-0.3436442018 -0.0929742604 0.5282361507 4294311423
-0.3442298174 -0.0925447941 0.5291363597 4294442239
-0.3442756832 -0.0919691399 0.5292068720 4294376446
-0.3443212807 -0.0913932547 0.5292769670 4294442239
-0.3449063897 -0.0909594893 0.5301763415 4294508031
-0.3449515104 -0.0903822482 0.5302457213 4294376446
-0.3455362618 -0.0899453238 0.5311445594 4294442239
-0.3461208642 -0.0895063654 0.5320432186 4294442239
-0.3467053175 -0.0890653729 0.5329416394 4294376446
-0.3472896516 -0.0886223465 0.5338398218 4294574079
-0.3473336697 -0.0880403668 0.5339074731 4294442493
-0.3479176462 -0.0875941813 0.5348051786 4294376446
-0.3517433703 -0.0879566297 0.5406858921 4294310653
-0.3485448062 -0.0865615234 0.5357691646 4294244860
-0.3491282761 -0.0861101598 0.5366660953 4294310653
-0.3491711020 -0.0855243653 0.5367318988 4294376446
-0.3492136300 -0.0849383697 0.5367972851 4294508031
-0.3497965336 -0.0844827294 0.5376932621 4294311423
-0.3525421023 -0.0845437348 0.5419136882 4294245630
-0.3525841832 -0.0839516446 0.5419783592 4294311423
-0.3499217629 -0.0827200860 0.5378857851 4294114045
-0.3494220376 -0.0820051804 0.5371176600 4294048252
-0.3494628966 -0.0814179182 0.5371804237 4294443007
-0.3489623964 -0.0807053223 0.5364111066 4294508543
-0.3495436907 -0.0802427754 0.5373046398 4293982459
-0.3490425348 -0.0795316026 0.5365343094 4293192693
-0.3490821719 -0.0789444372 0.5365952253 4292534763
-0.3491215110 -0.0783570707 0.5366556644 4293192691
-0.3475365937 -0.0774077922 0.5342193842 4293916414
-0.3491993546 -0.0771817490 0.5367753506 4294311167
-0.3497793078 -0.0767125487 0.5376668572 4294311167
-0.3498175740 -0.0761234909 0.5377256274 4294047998
