VERSION 0.7
FIELDS x y z rgba
SIZE 4 4 4 4
TYPE F F F U
COUNT 1 1 1 1
WIDTH 920
HEIGHT 1
VIEWPOINT 0.0 0.0 0.0 1.0 0.0 0.0 0.0
POINTS 920
DATA ascii
-0.1988403499 -0.1719435900 0.4922010899 4284638055
-0.1989003271 -0.1714484096 0.4923495650 4284967020
-0.1996732950 -0.1715655327 0.4942629337 4285032813
-0.1993765533 -0.1707622111 0.4935283661 4284901227
-0.1990794539 -0.1699602306 0.4927929640 4284506469
-0.1991388798 -0.1694632769 0.4929400682 4283585365
-0.1991981715 -0.1689658761 0.4930868447 4283124814
-0.1992573291 -0.1684680283 0.4932332635 4283059021
-0.1996735334 -0.1682707667 0.4942635298 4283190607
-0.1997325122 -0.1677711457 0.4944095016 4283651158
-0.2001487613 -0.1675703079 0.4954398572 4284045916
-0.2005650699 -0.1673672497 0.4964703918 4283980123
-0.2009814531 -0.1671619564 0.4975011051 4283980123
-0.2006824613 -0.1663613319 0.4967609644 4283782746
-0.2007409334 -0.1658577174 0.4969057143 4283980125
-0.2007992715 -0.1653536558 0.4970501363 4283848539
-0.2008574605 -0.1648491472 0.4971941710 4283651160
-0.2009155005 -0.1643442065 0.4973378479 4283387988
-0.2009734064 -0.1638388336 0.4974811673 4282137921
-0.2010311633 -0.1633330286 0.4976241589 4280493096
-0.2010887712 -0.1628267765 0.4977667630 4279769373
-0.2004291415 -0.1617414206 0.4961339235 4279966240
-0.2004862577 -0.1612361073 0.4962753057 4279834654
-0.2001844645 -0.1604428440 0.4955282807 4279834656
-0.2009589076 -0.1605108231 0.4974452555 4279900449
-0.2006567121 -0.1597176045 0.4966972470 4279834656
-0.2007132471 -0.1592105776 0.4968371689 4279834656
-0.2004104704 -0.1584192067 0.4960877001 4279834654
-0.2004665881 -0.1579122394 0.4962266386 4279768861
-0.1994445026 -0.1565585732 0.4936965704 4279835167
-0.1991405636 -0.1557722986 0.4929442406 4279769374
-0.1995554119 -0.1555479616 0.4939711094 4279834913
-0.1970930248 -0.1530865431 0.4878758490 4279834913
-0.1975071728 -0.1528650224 0.4889010191 4279769120
-0.1979213804 -0.1526412517 0.4899263084 4279769120
-0.1965358406 -0.1510321647 0.4864965975 4279769120
-0.1955094188 -0.1497056782 0.4839558601 4279703327
-0.1937619597 -0.1478347182 0.4796302617 4279703581
-0.1948953867 -0.1481634527 0.4824358821 4279703581
-0.1935068071 -0.1465756297 0.4789986610 4279703581
-0.1931986213 -0.1458108425 0.4782358110 4279769374
-0.1932506561 -0.1453186125 0.4783645868 4279769374
-0.1933025271 -0.1448259801 0.4784930050 4279703581
-0.1937150061 -0.1446022391 0.4795140326 4279703581
-0.1934058517 -0.1438395381 0.4787487388 4279703581
-0.1938182116 -0.1436131597 0.4797694981 4279703581
-0.1949526519 -0.1439175755 0.4825776517 4279703581
-0.1975319982 -0.1452784091 0.4889624715 4279703581
-0.1983064562 -0.1453026086 0.4908795059 4279703581
-0.1979972124 -0.1445314586 0.4901140332 4279703581
-0.1987718344 -0.1445502192 0.4920314848 4279703581
-0.1984621882 -0.1437792182 0.4912649989 4279769374
-0.1985137761 -0.1432706267 0.4913927317 4279769374
-0.1989269108 -0.1430216730 0.4924153686 4279769120
-0.1989782900 -0.1425113678 0.4925425351 4279703327
-0.1990295053 -0.1420006603 0.4926693439 4279703327
-0.1990805715 -0.1414895505 0.4927957356 4279703327
-0.1991314739 -0.1409780681 0.4929217398 4279769120
-0.1991822273 -0.1404661834 0.4930473566 4279769120
-0.1985083222 -0.1394449770 0.4913792312 4279769120
-0.1967469007 -0.1376665384 0.4870190620 4279703327
-0.1967965364 -0.1371600181 0.4871419370 4279769120
-0.1961209774 -0.1361497790 0.4854696691 4279637534
-0.1961701065 -0.1356443614 0.4855912924 4279769120
-0.1962190717 -0.1351385564 0.4857124984 4279834913
-0.1962678879 -0.1346323788 0.4858333468 4280032292
-0.1963165402 -0.1341258287 0.4859537780 4280032292
-0.1963650435 -0.1336189061 0.4860738218 4282006336
-0.1964133829 -0.1331115961 0.4861934781 4283585368
-0.1968246996 -0.1328490227 0.4872116446 4283322193
-0.1972360313 -0.1325841993 0.4882298410 4283453779
-0.1972840577 -0.1320738941 0.4883487225 4283782487
-0.1973319352 -0.1315632164 0.4884672165 4283979866
-0.1977431327 -0.1312935203 0.4894850850 4284176991
-0.1977907717 -0.1307811588 0.4896030128 4284374370
-0.1978855431 -0.1297553331 0.4898375869 4284769641
-0.1993880570 -0.1301921755 0.4935568869 4285032814
-0.1994353831 -0.1296745688 0.4936740100 4285230193
-0.1991185099 -0.1289209127 0.4928896725 4285690744
-0.1991654187 -0.1284035146 0.4930057526 4286151295
-0.1992121488 -0.1278857440 0.4931214452 4286085502
-0.1988944411 -0.1271347702 0.4923349917 4286019709
-0.1996694803 -0.1270810217 0.4942534864 4286348420
-0.1993513554 -0.1263302714 0.4934660196 4286545799
-0.1993974149 -0.1258110702 0.4935800433 4286545542
-0.1990786940 -0.1250624359 0.4927910864 4286545542
-0.1940185875 -0.1213500425 0.4802654982 4286677128
-0.1940628886 -0.1208440214 0.4803751707 4286874507
-0.1944718957 -0.1205638573 0.4813876152 4287006093
-0.1945159584 -0.1200561896 0.4814966917 4287137679
-0.1945598572 -0.1195481867 0.4816053212 4287203472
-0.1946035773 -0.1190398335 0.4817135632 4287203472
-0.1946471334 -0.1185311452 0.4818213880 4287071886
-0.1946905255 -0.1180221066 0.4819287956 4287335058
-0.1954644620 -0.1179536879 0.4838445783 4287335058
-0.1962385476 -0.1178810969 0.4857607186 4287071886
-0.1962817609 -0.1173672229 0.4858676791 4286874507
-0.1974215955 -0.1175058112 0.4886891544 4286677128
-0.1978303790 -0.1172050312 0.4897010624 4286413956
-0.1978733987 -0.1166863069 0.4898075461 4286348163
-0.1983248293 -0.1158616096 0.4909249842 4286413954
-0.1987334043 -0.1155537218 0.4919363558 4286874505
-0.1991419494 -0.1152435765 0.4929476678 4287335056
-0.1999589950 -0.1146165058 0.4949701428 4287532435
-0.1996348947 -0.1138816699 0.4941678643 4287598230
-0.2004095912 -0.1137724072 0.4960855246 4287598230
-0.2000850439 -0.1130378768 0.4952821434 4287664023
-0.2008597702 -0.1129231304 0.4971998930 4287729816
-0.2012680173 -0.1125990972 0.4982104301 4287729816
-0.2013095468 -0.1120686680 0.4983132482 4287664023
-0.2013508976 -0.1115379184 0.4984155893 4287400851
-0.2013920695 -0.1110068336 0.4985175133 4287137679
-0.2014330626 -0.1104754284 0.4986189902 4286940300
-0.2018408626 -0.1101439595 0.4996284246 4286808714
-0.2015145123 -0.1094116494 0.4988206029 4286808973
-0.2015549690 -0.1088792756 0.4989207387 4286808973
-0.2012280226 -0.1081492305 0.4981114566 4286743180
-0.2016353160 -0.1078135669 0.4991196692 4286677387
-0.2016752362 -0.1072802395 0.4992184341 4286743180
-0.2013475299 -0.1065521538 0.4984072745 4286808973
-0.2010195106 -0.1058257073 0.4975952804 4286874766
-0.2010587305 -0.1052933782 0.4976923764 4287006352
-0.2010977566 -0.1047607362 0.4977889955 4286809743
-0.2011366040 -0.1042277887 0.4978851676 4287204501
-0.2011752725 -0.1036945358 0.4979808629 4287533466
-0.2012137622 -0.1031609774 0.4980761409 4287730845
-0.2012520581 -0.1026271060 0.4981709421 4288125603
-0.2012901753 -0.1020929366 0.4982652962 4288783533
-0.2020642161 -0.1019297913 0.5001813173 4289112498
-0.2024702281 -0.1015777439 0.5011863708 4289046705
-0.2025080025 -0.1010397375 0.5012798309 4288849324
-0.2025455832 -0.1005014256 0.5013728738 4289046703
-0.2029513121 -0.1001445651 0.5023772120 4288586152
-0.2029885799 -0.0996046737 0.5024694204 4288454566
-0.2030256689 -0.0990644917 0.5025612712 4288520359
-0.2030625641 -0.0985240117 0.5026525855 4288191394
-0.2034678757 -0.0981610641 0.5036558509 4288257187
-0.2042417973 -0.0979727134 0.5055716038 4287862429
-0.2035408467 -0.0970766768 0.5038365126 4287862429
-0.2043146491 -0.0968838111 0.5057519674 4287862429
-0.2047196627 -0.0965128243 0.5067545176 4287731356
-0.2054935396 -0.0963124931 0.5086701512 4287665563
-0.2055294961 -0.0957640782 0.5087591410 4287665563
-0.2059343308 -0.0953863189 0.5097612143 4287599770
-0.2059699595 -0.0948363394 0.5098494291 4287599770
-0.2060053945 -0.0942860842 0.5099371672 4287599770
-0.2060406506 -0.0937355459 0.5100244284 4287599257
-0.2064450085 -0.0933517143 0.5110253692 4287665050
-0.2057411820 -0.0924676061 0.5092831254 4287599257
-0.2068840861 -0.0924122781 0.5121122599 4287665050
-0.2069186866 -0.0918586403 0.5121978521 4287796636
-0.2069530785 -0.0913047269 0.5122830272 4287796636
-0.2069872767 -0.0907505378 0.5123676658 4287665050
-0.2077606320 -0.0905181989 0.5142819881 4287665050
-0.2081643045 -0.0901215598 0.5152812004 4287730843
-0.2089376897 -0.0898817405 0.5171956420 4287665050
-0.2086015344 -0.0891634151 0.5163635015 4287796636
-0.2090048939 -0.0887610018 0.5173619986 4287796636
-0.2097781599 -0.0885124430 0.5192760825 4287599257
-0.2090713084 -0.0876391903 0.5175263882 4287533464
-0.2091042101 -0.0870778784 0.5176078081 4287467671
-0.2095070630 -0.0866694376 0.5186050534 4287467671
-0.2095396221 -0.0861066058 0.5186856389 4287468182
-0.2095719874 -0.0855435207 0.5187657475 4287402389
-0.2096041441 -0.0849801674 0.5188453197 4287402389
-0.2096360922 -0.0844165608 0.5189244151 4287468182
-0.2096678317 -0.0838526934 0.5190030336 4287468184
-0.2096993774 -0.0832885802 0.5190811157 4287468184
-0.2101012766 -0.0828703567 0.5200759172 4287730845
-0.2101324648 -0.0823047310 0.5201531053 4287994017
-0.2101634592 -0.0817388594 0.5202298164 4287928222
-0.2105649561 -0.0813158974 0.5212236643 4290954700
-0.1989258975 -0.2037628144 0.4937703907 4288520872
-0.1986451745 -0.2029274106 0.4930735826 4285823359
-0.1990625560 -0.2028048038 0.4941096008 4285428088
-0.1991307139 -0.2023250759 0.4942787886 4285954432
-0.1991987675 -0.2018448412 0.4944476783 4285888123
-0.1992666870 -0.2013641149 0.4946162999 4285822330
-0.1993345022 -0.2008828968 0.4947846234 4286019709
-0.1994021982 -0.2004011869 0.4949526489 4286085502
-0.2001696676 -0.2006204724 0.4968576431 4286151295
-0.2002373636 -0.2001360804 0.4970256984 4286151295
-0.2003049552 -0.1996512115 0.4971934557 4286151295
-0.2000221163 -0.1988176554 0.4964913726 4286151295
-0.2004397511 -0.1986799985 0.4975280464 4286150781
-0.1994553655 -0.1971541792 0.4950846136 4286019195
-0.1995221227 -0.1966699064 0.4952503145 4286085502
-0.1995887458 -0.1961851418 0.4954157174 4286151295
-0.1996552646 -0.1956998855 0.4955807924 4286151295
-0.1997216493 -0.1952141523 0.4957455993 4286019709
-0.1994367987 -0.1943857074 0.4950385392 4285888123
-0.1995028406 -0.1938998699 0.4952024519 4286019709
-0.1988660395 -0.1927324980 0.4936217964 4286019709
-0.1989315897 -0.1922474056 0.4937845170 4285822330
-0.1982938647 -0.1910842359 0.4922015369 4285295986
-0.1980072409 -0.1902619451 0.4914900959 4285230193
-0.1977202743 -0.1894409209 0.4907777905 4285230192
-0.1974329352 -0.1886211187 0.4900645912 4285361778
-0.1978493482 -0.1884733140 0.4910981953 4285493364
-0.1972093880 -0.1873198003 0.4895097017 4285295985
-0.1969211251 -0.1865028888 0.4887941778 4284835435
-0.1966325045 -0.1856872588 0.4880777597 4284638056
-0.1966960281 -0.1852047890 0.4882354438 4284242784
-0.1974646747 -0.1853839308 0.4901433587 4283913819
-0.1968227178 -0.1842384338 0.4885499179 4283519575
-0.1968858689 -0.1837545633 0.4887066782 4283256403
-0.1969489008 -0.1832702309 0.4888631105 4282993231
-0.1966587454 -0.1824578643 0.4881428778 4282664266
-0.1963682175 -0.1816467643 0.4874217510 4282401094
-0.1967839450 -0.1814886034 0.4884536564 4282203715
-0.1968463510 -0.1810032874 0.4886085689 4282006336
-0.1969086379 -0.1805175096 0.4887631536 4281874750
-0.1969707906 -0.1800312549 0.4889174402 4281808957
-0.1977402866 -0.1801892370 0.4908274710 4281677371
-0.1970947087 -0.1790573895 0.4892250299 4281545785
-0.1971564740 -0.1785697788 0.4893783331 4281414199
-0.1972181052 -0.1780816913 0.4895313382 4281414199
-0.1972796172 -0.1775931567 0.4896840155 4281348406
-0.1973409951 -0.1771041751 0.4898363352 4281217334
-0.1974022388 -0.1766147166 0.4899883568 4281283127
-0.1974633485 -0.1761248112 0.4901400506 4281217334
-0.1978789419 -0.1759497821 0.4911716580 4281217334
-0.1972304434 -0.1748291999 0.4895619452 4281348920
-0.1972910464 -0.1743388176 0.4897123873 4281414713
-0.1973515153 -0.1738479882 0.4898624718 4281480506
-0.1974118650 -0.1733566970 0.4900122583 4281546299
-0.1974720657 -0.1728649586 0.4901616871 4281612092
-0.1975321323 -0.1723727733 0.4903107882 4281941057
-0.1972366869 -0.1715710014 0.4895774424 4282467401
-0.1983628422 -0.1720035672 0.4923727810 4283125331
-0.1977115273 -0.1708935350 0.4907560945 4283717723
-0.1974153519 -0.1700930744 0.4900209308 4284244067
-0.1978304535 -0.1699051261 0.4910512865 4284507239
-0.1978897005 -0.1694102734 0.4911983609 4284507239
-0.1979488134 -0.1689149588 0.4913451076 4283979866
-0.1980077922 -0.1684191972 0.4914914966 4283585108
-0.1980666369 -0.1679230034 0.4916375279 4283190350
-0.1988380253 -0.1680286229 0.4935522377 4283256143
-0.1992532313 -0.1678299755 0.4945828915 4283782233
-0.1989554316 -0.1670304388 0.4938436747 4284242784
-0.1993705779 -0.1668291241 0.4948741496 4284242784
-0.2001425475 -0.1669231355 0.4967903197 4284111198
-0.1998442113 -0.1661231667 0.4960497916 4283979612
-0.1995455176 -0.1653245389 0.4953083694 4284111198
-0.1996035427 -0.1648221463 0.4954524040 4283979612
-0.1996614188 -0.1643192917 0.4955960810 4283716440
-0.1997191608 -0.1638160199 0.4957394302 4283453268
-0.1997767687 -0.1633123010 0.4958823919 4282268994
-0.1998342127 -0.1628081501 0.4960249960 4280624169
-0.2002491057 -0.1625939012 0.4970548451 4279966239
-0.2003063709 -0.1620879769 0.4971969724 4279900447
-0.2000057101 -0.1612930894 0.4964506626 4279834654
-0.1997046769 -0.1604995579 0.4957034588 4279834656
-0.1997613013 -0.1599941552 0.4958440065 4279834656
-0.1994596869 -0.1592024863 0.4950953424 4279834656
-0.1991577148 -0.1584122181 0.4943458140 4279834656
-0.1995719969 -0.1581913382 0.4953741133 4279834656
-0.1996279359 -0.1576851308 0.4955129623 4279834656
-0.1989667267 -0.1566141099 0.4938717186 4279834913
-0.1990221590 -0.1561088711 0.4940093160 4279834913
-0.1987187415 -0.1553228348 0.4932561815 4279834915
-0.1984149963 -0.1545382142 0.4925022125 4279769122
-0.1981108934 -0.1537549943 0.4917473793 4279769122
-0.1978064328 -0.1529731750 0.4909916818 4279769122
-0.1960652620 -0.1510859132 0.4866697490 4279769120
-0.1954005361 -0.1500348002 0.4850197732 4279703327
-0.1943759769 -0.1487120390 0.4824766517 4279703327
-0.1933506876 -0.1473943740 0.4799316823 4279703327
-0.1930436194 -0.1466279030 0.4791695178 4279703327
-0.1927362233 -0.1458628774 0.4784064889 4279703327
-0.1927881688 -0.1453704983 0.4785354137 4279703327
-0.1928399652 -0.1448777169 0.4786639810 4279703327
-0.1928915977 -0.1443845481 0.4787921607 4279703327
-0.1929430962 -0.1438909769 0.4789199829 4279703327
-0.1944347024 -0.1444671452 0.4826224148 4279703327
-0.1930456460 -0.1429026574 0.4791745245 4279769120
-0.1956184655 -0.1442677081 0.4855607450 4279769120
-0.1967510879 -0.1445603967 0.4883720875 4279703327
-0.1968027800 -0.1440556198 0.4885004163 4279769120
-0.1976269633 -0.1435688436 0.4905461967 4279769120
-0.1980391145 -0.1433220804 0.4915692210 4279769120
-0.1973688304 -0.1422926635 0.4899054468 4279703327
-0.1977807581 -0.1420441866 0.4909279048 4279703327
-0.1981927007 -0.1417934597 0.4919504821 4279703329
-0.1982435882 -0.1412831396 0.4920767844 4279703329
-0.1975719333 -0.1402595788 0.4904096127 4279703329
-0.1972610354 -0.1394948512 0.4896379113 4279769122
-0.1969497949 -0.1387315840 0.4888653457 4279769120
-0.1973611563 -0.1384770423 0.4898864031 4279703327
-0.1963263005 -0.1372095048 0.4873177111 4279769120
-0.1956523806 -0.1361989230 0.4856449366 4279703327
-0.1953884959 -0.1349375099 0.4849899113 4279834913
-0.1954371333 -0.1344321072 0.4851106405 4280098085
-0.1954856217 -0.1339263320 0.4852309823 4280098085
-0.1955339462 -0.1334201843 0.4853509367 4282072129
-0.1956301183 -0.1324067563 0.4855896533 4283322193
-0.1964026988 -0.1323879957 0.4875073433 4283453779
-0.1957256496 -0.1313918382 0.4858267903 4283782487
-0.1968608052 -0.1316109449 0.4886444211 4283979866
-0.1969084293 -0.1310997456 0.4887626469 4284177245
-0.1973186135 -0.1308286488 0.4897807837 4284440417
-0.1977287978 -0.1305553168 0.4907989800 4284572262
-0.1981390119 -0.1302797198 0.4918171763 4284769641
-0.1978232563 -0.1295265406 0.4910334349 4284967020
-0.1978702396 -0.1290116012 0.4911500514 4285230192
-0.1986433566 -0.1289678365 0.4930690825 4285690744
-0.1986901909 -0.1284502745 0.4931853116 4286085502
-0.1987368464 -0.1279323399 0.4933011234 4286085502
-0.1987833381 -0.1274140477 0.4934165180 4286085502
-0.1988296509 -0.1268953830 0.4935314953 4286414213
-0.1988758147 -0.1263763756 0.4936460555 4286611592
-0.1985581368 -0.1256269068 0.4928575456 4286611335
-0.1982401311 -0.1248789802 0.4920681715 4286545542
-0.1982856095 -0.1243607774 0.4921810627 4286677128
-0.1939640045 -0.1211154237 0.4814540744 4286808714
-0.1940081567 -0.1206079423 0.4815636575 4286940300
-0.1936880648 -0.1198747903 0.4807691276 4287137679
-0.1940959692 -0.1195919439 0.4817816019 4287269265
-0.1941396296 -0.1190834269 0.4818899632 4287269265
-0.1941831112 -0.1185745671 0.4819979072 4287269265
-0.1942264289 -0.1180653647 0.4821054339 4287466644
-0.1942695826 -0.1175558269 0.4822125733 4287466644
-0.1943125725 -0.1170459464 0.4823192656 4287137679
-0.1961786151 -0.1176289394 0.4869511127 4286874507
-0.1965863854 -0.1173312739 0.4879632890 4286742921
-0.1966293454 -0.1168146357 0.4880699217 4286677128
-0.1974018961 -0.1167291850 0.4899875522 4286677128
-0.1974446774 -0.1162099540 0.4900937080 4286611335
-0.1985823959 -0.1163319200 0.4929177463 4286611335
-0.1982599497 -0.1155962422 0.4921173751 4287006093
-0.1990327537 -0.1154979244 0.4940356314 4287269265
-0.1990751475 -0.1149735004 0.4941408634 4287203472
-0.1994827241 -0.1146587357 0.4951525331 4287335058
-0.1991594136 -0.1139236465 0.4943500161 4287598230
-0.1995667815 -0.1136062890 0.4953611791 4287598230
-0.1999741346 -0.1132866815 0.4963723123 4287729816
-0.2003814727 -0.1129648015 0.4973833859 4287729816
-0.2000572979 -0.1122303233 0.4965787232 4287729816
-0.2000986189 -0.1117016450 0.4966812730 4287598230
-0.2001397461 -0.1111726463 0.4967833757 4287400851
-0.2001807094 -0.1106433272 0.4968850315 4287203472
-0.2009535581 -0.1105162874 0.4988033772 4287071886
-0.2002620846 -0.1095837057 0.4970870316 4286940300
-0.2003024966 -0.1090534106 0.4971873462 4286808973
-0.2003427297 -0.1085227951 0.4972872436 4286808973
-0.2003827989 -0.1079918593 0.4973866642 4286743180
-0.2007890791 -0.1076570675 0.4983951151 4286677387
-0.2004623711 -0.1069290414 0.4975841939 4286743180
-0.2005018890 -0.1063971594 0.4976822734 4286743180
-0.2001745999 -0.1056714281 0.4968698919 4286808973
-0.2002136707 -0.1051398888 0.4969668984 4286940559
-0.2002525777 -0.1046080440 0.4970634282 4287072145
-0.2002912909 -0.1040758938 0.4971595407 4287203731
-0.2006967366 -0.1037330702 0.4981659055 4287467673
-0.2007351518 -0.1031993181 0.4982612729 4287796638
-0.2007733881 -0.1026652679 0.4983561933 4288059810
-0.2011785507 -0.1023176238 0.4993618727 4288586154
-0.2015836686 -0.1019677222 0.5003674626 4288980912
-0.2019887567 -0.1016155630 0.5013729334 4288915119
-0.2020264566 -0.1010773629 0.5014665127 4288849837
-0.2016965896 -0.1003560647 0.5006477237 4288849837
-0.2021013051 -0.1000000685 0.5016523004 4288652458
-0.2025059760 -0.0996418148 0.5026567578 4288455079
-0.2025429904 -0.0991014391 0.5027486682 4288652458
-0.2025798410 -0.0985607728 0.5028401017 4288257700
-0.2026164830 -0.0980198085 0.5029310584 4288191907
-0.2033885270 -0.0978323817 0.5048474073 4287862942
-0.2034249306 -0.0972888693 0.5049377680 4287928735
-0.2034611404 -0.0967450663 0.5050276518 4287862942
-0.2034971565 -0.0962009728 0.5051171184 4287797149
-0.2042690963 -0.0960025489 0.5070331693 4287731356
-0.2050410956 -0.0957998931 0.5089494586 4287599770
-0.2047086209 -0.0950799882 0.5081241727 4287599770
-0.2051123232 -0.0947018191 0.5091261864 4287533977
-0.2047793269 -0.0939833149 0.5082996488 4287468184
-0.2055511326 -0.0937706530 0.5102154613 4287862429
-0.2052177042 -0.0930525735 0.5093877912 4287928222
-0.2059894353 -0.0928344056 0.5113033652 4287862429
-0.2063926607 -0.0924469233 0.5123042464 4287862429
-0.2064271867 -0.0918930918 0.5123899579 4287928222
-0.2068302184 -0.0915020853 0.5133903027 4287928222
-0.2068644166 -0.0909467116 0.5134752393 4287862429
-0.2065296173 -0.0902299359 0.5126441717 4287862429
-0.2069322318 -0.0898351371 0.5136435628 4287796636
-0.2073347569 -0.0894380808 0.5146427155 4287665050
-0.2077372223 -0.0890387744 0.5156416893 4287796636
-0.2077705562 -0.0884800553 0.5157244205 4287730843
-0.2078036815 -0.0879210681 0.5158066750 4287599257
-0.2085749358 -0.0876721516 0.5177210569 4287599257
-0.2086077929 -0.0871106461 0.5178025961 4287533464
-0.2086404413 -0.0865488723 0.5178836584 4287533464
-0.2086728811 -0.0859868377 0.5179641843 4287468182
-0.2087051272 -0.0854245424 0.5180442333 4287402389
-0.2087371796 -0.0848619863 0.5181237459 4287402389
-0.2087690234 -0.0842991695 0.5182027817 4287468182
-0.2088006586 -0.0837360993 0.5182813406 4287533977
-0.2095713317 -0.0834671929 0.5201942921 4287533977
-0.2096026689 -0.0829016194 0.5202720761 4287665052
-0.2096338123 -0.0823357850 0.5203493834 4287928224
-0.2096647471 -0.0817697048 0.5204261541 4288125601
-0.2104351521 -0.0814898089 0.5223384500 4291546837
-0.1980958879 -0.2034735680 0.4930694997 4289309873
-0.1978157759 -0.2026387900 0.4923722744 4285757051
-0.1982320696 -0.2025170177 0.4934084415 4285033328
-0.1979514807 -0.2016829401 0.4927100539 4285757051
-0.1983678043 -0.2015585005 0.4937462807 4285559158
-0.1984354854 -0.2010785043 0.4939147532 4285493365
-0.1985030621 -0.2005980164 0.4940829575 4285756537
-0.1992684901 -0.2008204460 0.4959881306 4285888123
-0.1986378580 -0.1996355802 0.4944184721 4285822844
-0.1987050921 -0.1991536170 0.4945858121 4285757051
-0.1991215348 -0.1990203410 0.4956223667 4285822330
-0.1991886497 -0.1985365450 0.4957893789 4285888123
-0.1992556304 -0.1980522722 0.4959561229 4285953915
-0.1986231208 -0.1968743056 0.4943817854 4285888122
-0.1986896396 -0.1963907480 0.4945473671 4285888123
-0.1987560391 -0.1959067285 0.4947126210 4286085502
-0.1984722763 -0.1950781494 0.4940063357 4286085501
-0.1985383183 -0.1945940107 0.4941707253 4285953915
-0.1986042410 -0.1941093802 0.4943348169 4285822329
-0.1986700445 -0.1936242729 0.4944985807 4285888122
-0.1987357289 -0.1931386739 0.4946620762 4286085502
-0.1984506696 -0.1923128217 0.4939525425 4286085502
-0.1981652528 -0.1914882064 0.4932421148 4285690744
-0.1978794783 -0.1906648278 0.4925308526 4285427572
-0.1965404749 -0.1888311058 0.4891979694 4285164399
-0.1962536573 -0.1880127937 0.4884840846 4285098606
-0.1956152916 -0.1868602633 0.4868951738 4285032813
-0.1960302740 -0.1867145598 0.4879280627 4284703848
-0.1957425177 -0.1858991385 0.4872118235 4284111711
-0.1958059520 -0.1854178756 0.4873697162 4283782746
-0.1955175996 -0.1846041232 0.4866520166 4283322196
-0.1955806762 -0.1841228008 0.4868089855 4282993231
-0.1956436187 -0.1836410016 0.4869656563 4282664266
-0.1957064420 -0.1831587404 0.4871220291 4282466887
-0.1961212307 -0.1830045730 0.4881544709 4282203715
-0.1958317012 -0.1821928322 0.4874338210 4282006336
-0.1958941370 -0.1817091703 0.4875892401 4281808957
-0.1959564537 -0.1812250614 0.4877443314 4281611578
-0.1960186511 -0.1807404757 0.4878991246 4281348920
-0.1960807145 -0.1802554429 0.4880536199 4281217334
-0.1961426437 -0.1797699481 0.4882077575 4281217336
-0.1962044537 -0.1792839915 0.4883615971 4281217336
-0.1962661296 -0.1787975729 0.4885151386 4281085750
-0.1959745735 -0.1779899895 0.4877894223 4281019957
-0.1960358769 -0.1775035411 0.4879420400 4281151541
-0.1960970610 -0.1770166308 0.4880943000 4281217334
-0.1961581111 -0.1765292585 0.4882462621 4281085750
-0.1962190270 -0.1760414392 0.4883978963 4281217336
-0.1962798238 -0.1755531579 0.4885492027 4281283129
-0.1963404715 -0.1750644296 0.4887001812 4281348922
-0.1964010000 -0.1745752543 0.4888508320 4281414715
-0.1964613944 -0.1740856171 0.4890011549 4281348922
-0.1965216547 -0.1735955328 0.4891511202 4281217334
-0.1962275803 -0.1727930903 0.4884191751 4281283127
-0.1962874681 -0.1723029912 0.4885682166 4281414713
-0.1974104643 -0.1727428436 0.4913634360 4281414713
-0.1967613548 -0.1716306955 0.4897477627 4281283127
-0.1975302100 -0.1717550755 0.4916614890 4281480506
-0.1975898743 -0.1712605208 0.4918099940 4281941057
-0.1976494044 -0.1707655191 0.4919581711 4282533194
-0.1977088004 -0.1702700704 0.4921060205 4283191124
-0.1977680624 -0.1697741747 0.4922535121 4283585882
-0.1978271902 -0.1692778468 0.4924006760 4284242784
-0.1978861690 -0.1687810570 0.4925474823 4283913819
-0.1975896358 -0.1679816991 0.4918093979 4283321682
-0.1980037242 -0.1677861512 0.4928400815 4283387475
-0.1980622858 -0.1672880352 0.4929858446 4283979612
-0.1991877854 -0.1676878184 0.4957872629 4284308577
-0.1985348016 -0.1665890366 0.4941619337 4284242784
-0.1985930502 -0.1660887003 0.4943069220 4284045405
-0.1990071684 -0.1658846885 0.4953376949 4284111198
-0.1987091303 -0.1650867164 0.4945958555 4284176991
-0.1987669468 -0.1645850688 0.4947397709 4284045405
-0.1991809458 -0.1643770337 0.4957702458 4283782233
-0.1985257566 -0.1632872969 0.4941394329 4283453268
-0.1985830516 -0.1627852470 0.4942820370 4282203201
-0.1989968270 -0.1625740975 0.4953119457 4280624169
-0.1990539283 -0.1620702744 0.4954541028 4279966239
-0.1987540722 -0.1612764746 0.4947077036 4279834654
-0.1988107860 -0.1607726812 0.4948488772 4279900447
-0.1988673508 -0.1602684557 0.4949896932 4279834656
-0.1989237815 -0.1597637981 0.4951301515 4279834656
-0.1986228228 -0.1589727998 0.4943810403 4279834656
-0.1986788511 -0.1584682018 0.4945205152 4279768863
-0.1987347454 -0.1579631716 0.4946596324 4279768863
-0.1987904757 -0.1574577242 0.4947983623 4279834656
-0.1984884292 -0.1566695571 0.4940465391 4279769120
-0.1978283077 -0.1556014121 0.4924034476 4279834913
-0.1985989809 -0.1556583494 0.4943216741 4279769122
-0.1968643516 -0.1537543535 0.4900041223 4279769122
-0.1965607107 -0.1529736221 0.4892483652 4279769124
-0.1973311305 -0.1530274749 0.4911659658 4279769124
-0.1963106394 -0.1516932100 0.4886259437 4279703329
-0.1928337514 -0.1479399800 0.4799717665 4279769120
-0.1943203360 -0.1485430747 0.4836719632 4279769120
-0.1925799549 -0.1466801018 0.4793400764 4279769120
-0.1922733337 -0.1459148228 0.4785768688 4279703327
-0.1923251897 -0.1454222947 0.4787059426 4279703327
-0.1920179725 -0.1446589828 0.4779412746 4279769120
-0.1920694411 -0.1441665888 0.4780693650 4279769120
-0.1921207458 -0.1436737925 0.4781970978 4279769120
-0.1925311089 -0.1434482187 0.4792185128 4279703327
-0.1936601102 -0.1437538266 0.4820286334 4279769120
-0.1951489151 -0.1443192959 0.4857343435 4279769120
-0.1952003837 -0.1438175291 0.4858624637 4279769120
-0.1959708780 -0.1438432336 0.4877802134 4279769120
-0.1963818967 -0.1436018348 0.4888032973 4279834913
-0.1964332014 -0.1430961192 0.4889309704 4279769120
-0.1972040683 -0.1431123018 0.4908497036 4279769120
-0.1972552389 -0.1426039189 0.4909770787 4279572511
-0.1969462186 -0.1418358535 0.4902078807 4279572511
-0.1969969869 -0.1413276345 0.4903342724 4279638306
-0.1974078268 -0.1410764456 0.4913568795 4279572513
-0.1974583864 -0.1405664980 0.4914827049 4279572513
-0.1975087821 -0.1400561631 0.4916081429 4279572513
-0.1971984953 -0.1392907798 0.4908358455 4279703327
-0.1954454780 -0.1375120431 0.4864725173 4279703327
-0.1951341629 -0.1367533505 0.4856976271 4279703327
-0.1948225051 -0.1359961480 0.4849218726 4279769120
-0.1952322572 -0.1357422620 0.4859417677 4279834913
-0.1952810585 -0.1352361441 0.4860632718 4279834913
-0.1953297108 -0.1347296536 0.4861843586 4280098085
-0.1950170696 -0.1339746863 0.4854061604 4280163878
-0.1947040707 -0.1332212090 0.4846270978 4282137922
-0.1947520673 -0.1327154636 0.4847465754 4283716954
-0.1947999150 -0.1322093308 0.4848656356 4283322447
-0.1955705881 -0.1321915388 0.4867838919 4283519826
-0.1959798634 -0.1319261938 0.4878025949 4283782487
-0.1953041404 -0.1309312135 0.4861206710 4284045659
-0.1957131773 -0.1306641847 0.4871388078 4284243038
-0.1961222440 -0.1303949058 0.4881569743 4284440417
-0.1961693764 -0.1298837364 0.4882743061 4284572262
-0.1965783685 -0.1296108961 0.4892922938 4284703848
-0.1977115870 -0.1298112869 0.4921129346 4284901227
-0.1977585852 -0.1292952448 0.4922299087 4285230192
-0.1970808506 -0.1283071041 0.4905429780 4285624951
-0.1978520602 -0.1282620430 0.4924626052 4286019709
-0.1982610077 -0.1279788613 0.4934804738 4286085502
-0.1986699551 -0.1276934147 0.4944983721 4286085502
-0.1983536631 -0.1269415766 0.4937111139 4286414467
-0.1980370432 -0.1261912584 0.4929230213 4286677639
-0.1980828643 -0.1256726682 0.4930370748 4286808714
-0.1977656484 -0.1249244884 0.4922475219 4286808714
-0.1934555918 -0.1216669083 0.4815195799 4286940300
-0.1982193440 -0.1241147220 0.4933767617 4287071886
-0.1935439110 -0.1206519604 0.4817394018 4287137679
-0.1935878247 -0.1201439649 0.4818487167 4287269265
-0.1936315745 -0.1196356267 0.4819576144 4287335058
-0.1936751604 -0.1191269457 0.4820660651 4287335058
-0.1937185675 -0.1186179221 0.4821741283 4287335058
-0.1937618256 -0.1181085557 0.4822818041 4287598230
-0.1945321262 -0.1180401146 0.4841991067 4287532437
-0.1945752054 -0.1175281554 0.4843063354 4287203472
-0.1964369714 -0.1181094646 0.4889403582 4286874507
-0.1961162537 -0.1173742712 0.4881420732 4286742921
-0.1968870014 -0.1172910631 0.4900605083 4286611335
-0.1969298869 -0.1167719960 0.4901672304 4286611335
-0.1973366737 -0.1164674759 0.4911797643 4286940300
-0.1973792911 -0.1159467697 0.4912858307 4287071886
-0.1977859735 -0.1156386882 0.4922980964 4287664023
-0.1978283077 -0.1151163504 0.4924034774 4287927195
-0.1982348859 -0.1148047149 0.4934154451 4287598230
-0.1990059167 -0.1147008985 0.4953345954 4287598230
-0.1990479678 -0.1141746640 0.4954392612 4287795609
-0.1990898401 -0.1136481017 0.4955434799 4287729816
-0.1994962543 -0.1133283824 0.4965550601 4287729816
-0.1995378584 -0.1128001958 0.4966585934 4287598230
-0.1999441385 -0.1124769226 0.4976698458 4287597976
-0.1996205151 -0.1117428243 0.4968643486 4287532183
-0.1996615827 -0.1112136468 0.4969665706 4287400597
-0.1993373930 -0.1104817912 0.4961596429 4287334804
-0.1993780285 -0.1099529341 0.4962607622 4287137425
-0.2001489550 -0.1098245755 0.4981796443 4286940046
-0.1994587630 -0.1088942513 0.4964617193 4286940046
-0.1994988620 -0.1083644256 0.4965615273 4286874253
-0.1995387822 -0.1078342870 0.4966608882 4286808460
-0.1995785087 -0.1073038206 0.4967598021 4286742667
-0.1996180713 -0.1067730486 0.4968582690 4286743180
-0.1996574551 -0.1062419564 0.4969562888 4286808973
-0.1996966451 -0.1057105511 0.4970538616 4286808973
-0.1997356713 -0.1051788330 0.4971509576 4286874766
-0.1990427226 -0.1042634845 0.4954262078 4287203731
-0.1990812421 -0.1037331000 0.4955220520 4287137938
-0.1998516172 -0.1035818234 0.4974395931 4287466903
-0.2002560049 -0.1032376066 0.4984461069 4287927454
-0.2002941817 -0.1027033702 0.4985411167 4288125603
-0.2010646462 -0.1025423929 0.5004588366 4288586154
-0.2011025995 -0.1020055935 0.5005533099 4289046705
-0.2007739693 -0.1012836620 0.4997353554 4289112498
-0.2011779249 -0.1009310856 0.5007408261 4289047216
-0.2015818208 -0.1005762443 0.5017461181 4288849837
-0.2016191036 -0.1000372618 0.5018389225 4288849837
-0.2016561776 -0.0994979814 0.5019311905 4288520872
-0.2016930729 -0.0989584029 0.5020230412 4288652458
-0.2024633437 -0.0987764150 0.5039402843 4288389286
-0.2021331638 -0.0980563238 0.5031183958 4288323493
-0.2021695524 -0.0975148752 0.5032089949 4288257700
-0.2022057623 -0.0969731435 0.5032991767 4288126114
-0.2026088387 -0.0966061279 0.5043023825 4287994528
-0.2030118406 -0.0962368548 0.5053055286 4287928735
-0.2041491419 -0.0962114111 0.5081362724 4287731356
-0.2034504414 -0.0953194797 0.5063971877 4287468184
-0.2042205036 -0.0951154977 0.5083138943 4287468184
-0.2042558938 -0.0945671052 0.5084019899 4287599770
-0.2042910904 -0.0940184370 0.5084896088 4287599770
-0.2043260932 -0.0934694782 0.5085767508 4287862429
-0.2043609023 -0.0929202437 0.5086634159 4288059808
-0.2047631443 -0.0925368592 0.5096645951 4288125601
-0.2047976255 -0.0919860825 0.5097504258 4287994015
-0.2051996738 -0.0915991738 0.5107511282 4287862429
-0.2056016326 -0.0912100151 0.5117515922 4287796636
-0.2056356519 -0.0906564221 0.5118362904 4287796636
-0.2064053267 -0.0904249251 0.5137520432 4287730843
-0.2068070620 -0.0900290012 0.5147519708 4287796636
-0.2072087228 -0.0896308124 0.5157517195 4287599257
-0.2076103091 -0.0892303735 0.5167512894 4287467671
-0.2076436430 -0.0886704624 0.5168342590 4287401878
-0.2076767832 -0.0881102830 0.5169167519 4287467671
-0.2077097297 -0.0875498354 0.5169987679 4287599257
-0.2077424675 -0.0869891196 0.5170802474 4287599257
-0.2077749968 -0.0864281431 0.5171611905 4287599257
-0.2078073323 -0.0858669057 0.5172417164 4287468182
-0.2078394741 -0.0853054002 0.5173217058 4287468182
-0.2078714073 -0.0847436413 0.5174012184 4287468182
-0.2079031467 -0.0841816217 0.5174801946 4287533975
-0.2083033621 -0.0837676004 0.5184763074 4287533977
-0.2083347440 -0.0832040757 0.5185544491 4287468184
-0.2087347209 -0.0827865601 0.5195500255 4287665052
-0.2087657601 -0.0822215229 0.5196272731 4287928224
-0.2087965906 -0.0816562399 0.5197039843 4288322980
-0.2088272125 -0.0810907036 0.5197802186 4292007388
-0.1972670853 -0.2031839639 0.4923677146 4289968058
-0.1973350048 -0.2027066648 0.4925372005 4286612615
-0.1974027902 -0.2022288740 0.4927064180 4284112481
-0.1974704713 -0.2017505914 0.4928753376 4284375653
-0.1975380331 -0.2012718171 0.4930439889 4284770411
-0.1976054907 -0.2007925510 0.4932123423 4284573032
-0.1976728290 -0.2003127933 0.4933804274 4284901997
-0.1977400482 -0.1998325437 0.4935482144 4285033583
-0.1978071630 -0.1993518025 0.4937157035 4285230707
-0.1978741437 -0.1988705844 0.4938828945 4285230707
-0.1979410201 -0.1983888596 0.4940498173 4285362293
-0.1980077773 -0.1979066581 0.4942164123 4285428086
-0.1980744153 -0.1974239647 0.4943827391 4285362293
-0.1981409341 -0.1969407946 0.4945487678 4285493879
-0.1978583783 -0.1961112618 0.4938435256 4285691513
-0.1975754648 -0.1952829361 0.4931374192 4285888892
-0.1976414025 -0.1948000044 0.4933019578 4285888892
-0.1973579079 -0.1939732730 0.4925943911 4285691513
-0.1974234730 -0.1934902370 0.4927580655 4285624950
-0.1974889338 -0.1930067241 0.4929214120 4285822329
-0.1975542605 -0.1925227195 0.4930844903 4286085502
-0.1972697079 -0.1916983426 0.4923742414 4286217088
-0.1969847977 -0.1908752024 0.4916631281 4285888123
-0.1966995448 -0.1900533140 0.4909511507 4285164400
-0.1964139342 -0.1892326623 0.4902382791 4284835434
-0.1961279660 -0.1884132624 0.4895245433 4284769641
-0.1954913139 -0.1872595102 0.4879354835 4284440163
-0.1948540807 -0.1861087531 0.4863449633 4283979612
-0.1945668310 -0.1852948368 0.4856280088 4283584855
-0.1946299225 -0.1848151684 0.4857854843 4283124304
-0.1946928948 -0.1843350530 0.4859426618 4282334788
-0.1947557330 -0.1838544607 0.4860995114 4281808444
-0.1944674402 -0.1830430031 0.4853799343 4281545531
-0.1945299208 -0.1825623512 0.4855358899 4281677117
-0.1949435323 -0.1824098974 0.4865682423 4281414715
-0.1946545094 -0.1815996617 0.4858468771 4281217336
-0.1947166175 -0.1811176240 0.4860019088 4281283129
-0.1947786063 -0.1806351244 0.4861566126 4281480508
-0.1944887638 -0.1798269749 0.4854331911 4281019187
-0.1945503950 -0.1793444306 0.4855869710 4281084980
-0.1949637979 -0.1791848689 0.4866188467 4281216568
-0.1950252801 -0.1787005216 0.4867722988 4280953396
-0.1950866282 -0.1782157272 0.4869254231 4280690994
-0.1951478571 -0.1777304858 0.4870782197 4280625201
-0.1952089518 -0.1772447675 0.4872306883 4280625458
-0.1952699125 -0.1767586023 0.4873828590 4281020216
-0.1953307390 -0.1762719899 0.4875347018 4281019957
-0.1953914464 -0.1757849157 0.4876862168 4280888371
-0.1958048195 -0.1756138057 0.4887179732 4280888371
-0.1958653778 -0.1751249433 0.4888691008 4281085750
-0.1959257871 -0.1746356338 0.4890199304 4281217336
-0.1959860772 -0.1741458774 0.4891704023 4281151543
-0.1960462332 -0.1736556590 0.4893205464 4281019957
-0.1957529187 -0.1728529781 0.4885884225 4281019957
-0.1958127022 -0.1723627448 0.4887376428 4281348922
-0.1962259114 -0.1721822917 0.4897689819 4281283129
-0.1962855309 -0.1716902703 0.4899177849 4281545531
-0.1963450164 -0.1711978167 0.4900662601 4281611324
-0.1964043677 -0.1707049012 0.4902144074 4281216566
-0.1964635849 -0.1702115387 0.4903621972 4281282359
-0.1965226680 -0.1697177291 0.4905096591 4281874496
-0.1965816021 -0.1692234874 0.4906567931 4282137668
-0.1966404170 -0.1687287837 0.4908035696 4283255889
-0.1966990829 -0.1682336479 0.4909500182 4283650647
-0.1974666566 -0.1683425307 0.4928658307 4283387475
-0.1975252628 -0.1678447276 0.4930121005 4283650647
-0.1975837201 -0.1673464626 0.4931580126 4284045659
-0.1976420581 -0.1668477654 0.4933035970 4283914073
-0.1980551779 -0.1666472852 0.4943347275 4283914073
-0.1981133223 -0.1661468148 0.4944798648 4283782487
-0.1985264868 -0.1659427583 0.4955110848 4284045659
-0.1985844523 -0.1654404998 0.4956557751 4284045659
-0.1986422837 -0.1649378091 0.4958001077 4284045659
-0.1986999661 -0.1644346863 0.4959441125 4283716694
-0.1984019578 -0.1636378616 0.4952002764 4283387729
-0.1984592527 -0.1631347537 0.4953432977 4282269248
-0.1985164136 -0.1626312137 0.4954859614 4280558628
-0.1985734254 -0.1621272415 0.4956282377 4280098077
-0.1986302882 -0.1616228372 0.4957701862 4279834654
-0.1983309388 -0.1608292460 0.4950230122 4279834654
-0.1983874142 -0.1603248864 0.4951639771 4279834654
-0.1980874687 -0.1595331579 0.4944153428 4279834654
-0.1981435567 -0.1590288430 0.4945553243 4279834656
-0.1981994957 -0.1585240960 0.4946949184 4279834656
-0.1982552856 -0.1580189168 0.4948341846 4279768863
-0.1983109266 -0.1575133204 0.4949730635 4279768863
-0.1972960979 -0.1561601311 0.4924401045 4279900449
-0.1977080256 -0.1559378952 0.4934682548 4279900449
-0.1970490813 -0.1548717171 0.4918235540 4279900449
-0.1971037239 -0.1543680727 0.4919599891 4279834656
-0.1964439005 -0.1533065289 0.4903130829 4279834656
-0.1968553215 -0.1530817002 0.4913399816 4279834656
-0.1951225996 -0.1511931568 0.4870151877 4279834656
-0.1951760799 -0.1506933272 0.4871486723 4279834656
-0.1941567063 -0.1493678689 0.4846043885 4279835167
-0.1924213022 -0.1474991590 0.4802728891 4279769374
-0.1924735457 -0.1470054537 0.4804033041 4279900960
-0.1921678036 -0.1462390125 0.4796401560 4279966753
-0.1915037632 -0.1452026069 0.4779827595 4279834913
-0.1915552765 -0.1447104514 0.4781113565 4279834913
-0.1916066557 -0.1442179084 0.4782395661 4279834913
-0.1916578710 -0.1437249631 0.4783674181 4279703327
-0.1931422949 -0.1443025172 0.4820724428 4279769120
-0.1921183020 -0.1430046856 0.4795166552 4279769120
-0.1943203360 -0.1441048980 0.4850127697 4279703327
-0.1950888634 -0.1441338211 0.4869309664 4279769120
-0.1951401979 -0.1436305791 0.4870590866 4279769120
-0.1955501735 -0.1433900446 0.4880823791 4279769120
-0.1963191032 -0.1434094459 0.4900015891 4279769120
-0.1963702440 -0.1429022402 0.4901292324 4279769120
-0.1960621476 -0.1421343237 0.4893602729 4279638302
-0.1964720786 -0.1418866515 0.4903834164 4279572509
-0.1961634904 -0.1411197931 0.4896132052 4279703327
-0.1965733021 -0.1408694834 0.4906360507 4279703327
-0.1966236681 -0.1403603107 0.4907617867 4279703327
-0.1963143349 -0.1395950764 0.4899896979 4279703327
-0.1963642985 -0.1390860528 0.4901144207 4279638304
-0.1956946403 -0.1380690336 0.4884429872 4279572511
-0.1957441121 -0.1375610977 0.4885664582 4279506718
-0.1939938515 -0.1357931197 0.4841979146 4279638304
-0.1936825514 -0.1350380927 0.4834209085 4279834913
-0.1940911114 -0.1347846836 0.4844406247 4280032292
-0.1941394955 -0.1342799067 0.4845614135 4280098085
-0.1941877306 -0.1337747574 0.4846817851 4280492843
-0.1938754320 -0.1330219656 0.4839023352 4281941059
-0.1935628057 -0.1322706938 0.4831220508 4283585884
-0.1939709336 -0.1320116669 0.4841406941 4283453779
-0.1951003224 -0.1322392523 0.4869595766 4283453779
-0.1944265068 -0.1312433630 0.4852777719 4283651158
-0.1944737881 -0.1307359636 0.4853957593 4283980123
-0.1945209056 -0.1302281916 0.4855133891 4284309090
-0.1945678592 -0.1297200620 0.4856305718 4284440676
-0.1942535788 -0.1289718300 0.4848461747 4284572262
-0.1957447380 -0.1294190288 0.4885680079 4284769641
-0.1965139508 -0.1293826401 0.4904879332 4285032814
-0.1961993575 -0.1286314279 0.4897027314 4285361779
-0.1969686747 -0.1285895705 0.4916228950 4285887869
-0.1970151663 -0.1280735582 0.4917389452 4286151041
-0.1970614940 -0.1275572032 0.4918545783 4286282627
-0.1974693388 -0.1272735745 0.4928725064 4286348420
-0.1975154132 -0.1267555207 0.4929875135 4286480006
-0.1971994936 -0.1260059178 0.4921990037 4286545799
-0.1972451657 -0.1254881024 0.4923129976 4286742667
-0.1972906590 -0.1249699295 0.4924265444 4286874253
-0.1973359883 -0.1244513988 0.4925397038 4287071632
-0.1930351555 -0.1212037131 0.4818050265 4287269011
-0.1930791587 -0.1206959039 0.4819148779 4287334804
-0.1931229979 -0.1201877445 0.4820242822 4287334804
-0.1931666732 -0.1196792424 0.4821332991 4287334804
-0.1932101846 -0.1191703901 0.4822418988 4287334804
-0.1932535172 -0.1186612025 0.4823500812 4287532183
-0.1932967007 -0.1181516647 0.4824578464 4287597976
-0.1933397055 -0.1176417917 0.4825651944 4287466390
-0.1941081882 -0.1175710931 0.4844832718 4287203218
-0.1952397227 -0.1177150309 0.4873075187 4286874253
-0.1949196458 -0.1169815063 0.4865086377 4286742667
-0.1956884265 -0.1169002056 0.4884274602 4286676874
-0.1960942149 -0.1165988147 0.4894402623 4286611081
-0.1964999735 -0.1162951589 0.4904530644 4286347909
-0.1969057322 -0.1159892455 0.4914658070 4286413702
-0.1976748407 -0.1158941090 0.4933854640 4287071632
-0.1977172047 -0.1153706387 0.4934911728 4287532183
-0.1981229037 -0.1150579378 0.4945037663 4287532183
-0.1981649846 -0.1145328358 0.4946088195 4287663769
-0.1982068866 -0.1140073910 0.4947133958 4287795355
-0.1982486099 -0.1134816110 0.4948175550 4287663769
-0.1986540109 -0.1131627634 0.4958293736 4287663769
-0.1990593672 -0.1128416583 0.4968411624 4287663769
-0.1987367421 -0.1121076345 0.4960358739 4287795355
-0.1987778395 -0.1115795672 0.4961384535 4287729562
-0.1988187581 -0.1110511869 0.4962406158 4287400597
-0.1988595128 -0.1105224714 0.4963423014 4287269011
-0.1989000738 -0.1099934354 0.4964435697 4287203218
-0.1989404708 -0.1094640717 0.4965443611 4286808460
-0.1986162364 -0.1087348759 0.4957351387 4286808460
-0.1986562014 -0.1082058474 0.4958348572 4286808460
-0.1983314008 -0.1074789241 0.4950241745 4286808460
-0.1983709335 -0.1069502234 0.4951228499 4286676874
-0.1987750083 -0.1066168398 0.4961313903 4286611594
-0.1991790384 -0.1062811986 0.4971398413 4286677387
-0.1992181689 -0.1057496145 0.4972375035 4286743180
-0.1988921762 -0.1050250083 0.4964238703 4286808973
-0.1989308894 -0.1044937745 0.4965204597 4286808973
-0.1989693940 -0.1039622277 0.4966165721 4287072145
-0.1986425817 -0.1032405943 0.4958008826 4287335317
-0.1994111091 -0.1030870229 0.4977190793 4287927454
-0.2001797408 -0.1029292345 0.4996375144 4288191396
-0.2005830854 -0.1025803834 0.5006442666 4288454568
-0.1998901069 -0.1016716585 0.4989146292 4288849326
-0.1999276727 -0.1011363268 0.4990083873 4288915119
-0.1999650449 -0.1006006971 0.4991016686 4288915630
-0.2000022382 -0.1000647619 0.4991945028 4288849837
-0.2007706463 -0.0998924449 0.5011124015 4288784044
-0.2011733800 -0.0995349288 0.5021175742 4288718251
-0.2012102157 -0.0989951640 0.5022095442 4288586665
-0.2012468576 -0.0984551013 0.5023009777 4288323493
-0.2012833208 -0.0979147479 0.5023919940 4288126114
-0.2020516694 -0.0977281854 0.5043097734 4287994528
-0.2020878792 -0.0971852764 0.5044001341 4287994274
-0.2021239102 -0.0966420770 0.5044900775 4287928481
-0.2032584399 -0.0966208652 0.5073217750 4287862688
-0.2025616914 -0.0957279205 0.5055827498 4287665309
-0.2029635757 -0.0953549892 0.5065858364 4287533466
-0.2037318200 -0.0951509401 0.5085033178 4287467673
-0.2037671506 -0.0946023613 0.5085915327 4287533466
-0.2038023025 -0.0940534994 0.5086792111 4287665052
-0.2038372457 -0.0935043469 0.5087664723 4287928220
-0.2042386830 -0.0931221023 0.5097684264 4288059806
-0.2042732984 -0.0925714076 0.5098548532 4288125599
-0.2046745270 -0.0921856388 0.5108562708 4288059806
-0.2050756961 -0.0917976052 0.5118575692 4287862429
-0.2054767758 -0.0914073214 0.5128586292 4287665050
-0.2051438242 -0.0906903073 0.5120276213 4287599257
-0.2051776052 -0.0901362449 0.5121119022 4287665050
-0.2055782825 -0.0897421613 0.5131120086 4287533977
-0.2056117207 -0.0891865641 0.5131954551 4287533977
-0.2060121894 -0.0887889639 0.5141950250 4287533723
-0.2064125836 -0.0883891135 0.5151943564 4287533723
-0.2060782015 -0.0876744390 0.5143597722 4287533723
-0.2068457156 -0.0874273479 0.5162754059 4287467930
-0.2068783343 -0.0868674293 0.5163568854 4287402137
-0.2069107592 -0.0863072425 0.5164377689 4287270551
-0.2069429904 -0.0857468024 0.5165182352 4287204760
-0.2069750130 -0.0851860940 0.5165981650 4287007381
-0.2066391557 -0.0844748169 0.5157598853 4287072915
-0.2074062228 -0.0842132121 0.5176743865 4287138708
-0.2074376941 -0.0836507380 0.5177530050 4287533464
-0.2074689716 -0.0830880031 0.5178310871 4287270292
-0.2075000554 -0.0825250149 0.5179086328 4287665050
-0.2075309306 -0.0819617808 0.5179857016 4287796636
-0.2079296261 -0.0815426111 0.5189808011 4288849322
-0.2086962909 -0.0812645182 0.5208943486 4292665316
-0.1960253865 -0.2030114084 0.4906286001 4289968058
-0.1964395046 -0.2028940171 0.4916650653 4289902265
-0.1965071708 -0.2024174333 0.4918344319 4287402131
-0.1965747178 -0.2019403726 0.4920035303 4283915102
-0.1966421604 -0.2014628202 0.4921723306 4282730828
-0.1967094988 -0.2009847760 0.4923408329 4283520344
-0.1967767030 -0.2005062401 0.4925090671 4283322965
-0.1968438029 -0.2000272125 0.4926770031 4283914847
-0.1969107836 -0.1995476931 0.4928446710 4284112226
-0.1969776601 -0.1990676820 0.4930120409 4284440677
-0.1970444173 -0.1985871941 0.4931791127 4284440677
-0.1971110553 -0.1981061995 0.4933458865 4284572263
-0.1971775740 -0.1976247281 0.4935123920 4284769642
-0.1972439736 -0.1971427798 0.4936785698 4284967021
-0.1969622672 -0.1963134855 0.4929735065 4285164400
-0.1970283240 -0.1958314031 0.4931388199 4285033328
-0.1967460364 -0.1950037032 0.4924322963 4285362293
-0.1968117207 -0.1945215017 0.4925967157 4285559927
-0.1965288520 -0.1936953962 0.4918887019 4285559927
-0.1965941936 -0.1932130903 0.4920522571 4285625720
-0.1966594160 -0.1927303076 0.4922155142 4285757306
-0.1963757128 -0.1919061840 0.4915054440 4285888123
-0.1964405924 -0.1914232969 0.4916678071 4285822330
-0.1961562932 -0.1906007826 0.4909562469 4285493364
-0.1958716661 -0.1897795051 0.4902438521 4284769641
-0.1955866814 -0.1889594793 0.4895305634 4284374883
-0.1949519664 -0.1878041327 0.4879419506 4284243297
-0.1946661621 -0.1869874746 0.4872266054 4283716953
-0.1943800151 -0.1861720532 0.4865103960 4283190609
-0.1940935105 -0.1853578985 0.4857933223 4282795851
-0.1941564828 -0.1848781258 0.4859509766 4282269507
-0.1935194582 -0.1837333739 0.4843565524 4281479478
-0.1935819685 -0.1832544059 0.4845130146 4281479478
-0.1939945221 -0.1831054688 0.4855455756 4281348406
-0.1937066168 -0.1822950542 0.4848249853 4281085234
-0.1937687546 -0.1818146855 0.4849804938 4280756269
-0.1934802532 -0.1810059398 0.4842584431 4280887855
-0.1931914240 -0.1801984757 0.4835354984 4280954162
-0.1932529658 -0.1797184646 0.4836895466 4280888369
-0.1933143735 -0.1792379916 0.4838432670 4280098085
-0.1937266141 -0.1790814847 0.4848750532 4281150773
-0.1937878877 -0.1785992384 0.4850284159 4281875268
-0.1938490421 -0.1781165153 0.4851814806 4282335819
-0.1939100623 -0.1776333451 0.4853341877 4283059542
-0.1939709634 -0.1771497130 0.4854865968 4283783265
-0.1940317303 -0.1766656339 0.4856387079 4284375659
-0.1940923631 -0.1761810929 0.4857904613 4285099382
-0.1945046037 -0.1760143936 0.4868222475 4285296504
-0.1949169189 -0.1758454740 0.4878542423 4285230711
-0.1949773878 -0.1753578186 0.4880055785 4285164918
-0.1950377226 -0.1748697162 0.4881566167 4285099125
-0.1950979382 -0.1743811518 0.4883072972 4284835953
-0.1951580048 -0.1738921404 0.4884576499 4284046437
-0.1952179521 -0.1734026670 0.4886076748 4283059540
-0.1952777654 -0.1729127467 0.4887573719 4282467403
-0.1956900358 -0.1727336198 0.4897892475 4282270024
