VERSION 0.7
FIELDS x y z rgba
SIZE 4 4 4 4
TYPE F F F U
COUNT 1 1 1 1
WIDTH 920
HEIGHT 1
VIEWPOINT 0.0 0.0 0.0 1.0 0.0 0.0 0.0
POINTS 920
DATA ascii
-0.3086589575 -0.1331497580 0.5316406488 4283582026
-0.3082293868 -0.1323745847 0.5309007764 4285095265
-0.3082903028 -0.1318107545 0.5310056806 4286476400
-0.3078599870 -0.1310376078 0.5302644372 4287002744
-0.3074292243 -0.1302659214 0.5295224786 4287790709
-0.3069980145 -0.1294956952 0.5287798047 4287790709
-0.3070577085 -0.1289332509 0.5288825631 4287658353
-0.3066257536 -0.1281650662 0.5281385779 4287066216
-0.3061933815 -0.1273983717 0.5273938775 4285752427
-0.3062521517 -0.1268367320 0.5274950862 4284962911
-0.3063106835 -0.1262747794 0.5275959373 4283517797
-0.3058772087 -0.1255107224 0.5268493295 4282859867
-0.3054433167 -0.1247481480 0.5261019468 4281420149
-0.3055009544 -0.1241870448 0.5262012482 4281617528
-0.3045742810 -0.1232274696 0.5246050954 4281816457
-0.3051233888 -0.1228657067 0.5255509019 4282277008
-0.3046879768 -0.1221072897 0.5248009562 4281949080
-0.3042521775 -0.1213503778 0.5240502954 4281817494
-0.3043083251 -0.1207904145 0.5241470337 4281883287
-0.3038717806 -0.1200355962 0.5233950615 4281949080
-0.3034347892 -0.1192822829 0.5226423740 4282080148
-0.3034900427 -0.1187232062 0.5227376223 4282014355
-0.3030523062 -0.1179720089 0.5219836235 4282014873
-0.3031070232 -0.1174132377 0.5220778584 4281883287
-0.3031614721 -0.1168541610 0.5221716166 4281752994
-0.3032156825 -0.1162947863 0.5222650170 4282476717
-0.3027765453 -0.1155469269 0.5215086341 4282674874
-0.3023369908 -0.1148005873 0.5207515359 4282543288
-0.3023903072 -0.1142421365 0.5208433867 4282673841
-0.3019500077 -0.1134979427 0.5200849771 4282673841
-0.3020027578 -0.1129398197 0.5201758742 4282477744
-0.3015617132 -0.1121977717 0.5194162130 4282411951
-0.3011202514 -0.1114572659 0.5186558366 4282280627
-0.3006784022 -0.1107182950 0.5178947449 4282280627
-0.3002361059 -0.1099808589 0.5171329379 4282280114
-0.2997934222 -0.1092449725 0.5163704753 4282280114
-0.2998442948 -0.1086896881 0.5164580941 4281951400
-0.2998949289 -0.1081341207 0.5165452957 4282214572
-0.2999453247 -0.1075782776 0.5166320801 4282214572
-0.2999954820 -0.1070221514 0.5167184472 4282346158
-0.3005397022 -0.1066411510 0.5176558495 4282672552
-0.3005894423 -0.1060835496 0.5177415013 4288133371
-0.3006389439 -0.1055256799 0.5178267956 4289841919
-0.3011827469 -0.1051401719 0.5187634230 4287407579
-0.3017264605 -0.1047525555 0.5196999311 4286418620
-0.3017753959 -0.1041920260 0.5197842121 4285365932
-0.3023188412 -0.1038011089 0.5207203031 4287668938
-0.3023673594 -0.1032391116 0.5208038688 4289840107
-0.3029105663 -0.1028448939 0.5217394829 4287799754
-0.3034537137 -0.1024485677 0.5226749778 4289576165
-0.3039967418 -0.1020501330 0.5236102939 4290298611
-0.3040444851 -0.1014842987 0.5236925483 4289772267
-0.3045872450 -0.1010825634 0.5246274471 4287864785
-0.3051299155 -0.1006787196 0.5255621076 4286877890
-0.3056724668 -0.1002727672 0.5264966488 4287537101
-0.3057194352 -0.0997031108 0.5265775323 4284905381
-0.3062617183 -0.0992938578 0.5275115967 4285431984
-0.3068039119 -0.0988825038 0.5284454823 4284642468
-0.3073459864 -0.0984690338 0.5293791294 4283656092
-0.3078879714 -0.0980534628 0.5303126574 4283392920
-0.3079339564 -0.0974788070 0.5303918719 4282406535
-0.3084756434 -0.0970599428 0.5313249230 4282867086
-0.3085212111 -0.0964838490 0.5314033628 4282867095
-0.3090626001 -0.0960616916 0.5323358774 4282867095
-0.3096038699 -0.0956374332 0.5332681537 4282997918
-0.3101450205 -0.0952110589 0.5342002511 4283326883
-0.3106860518 -0.0947825834 0.5351321697 4285629379
-0.3112269938 -0.0943519995 0.5360638499 4286945239
-0.3112713397 -0.0937697589 0.5361402631 4284116138
-0.3118119538 -0.0933358893 0.5370714068 4282866071
-0.3123524487 -0.0928999186 0.5380023718 4283458721
-0.3128928244 -0.0924618393 0.5389330983 4283656100
-0.3134330511 -0.0920216590 0.5398636460 4282932379
-0.3134763539 -0.0914344639 0.5399382710 4282208656
-0.3140162826 -0.0909910053 0.5408682227 4282537106
-0.3140591383 -0.0904023945 0.5409420133 4285497791
-0.3269285560 -0.1782855690 0.5641878843 4285889666
-0.3265246749 -0.1774392277 0.5634908676 4281815176
-0.3270880282 -0.1771182120 0.5644630790 4281749383
-0.3261994720 -0.1760116071 0.5629296899 4282338951
-0.3262784183 -0.1754285991 0.5630658865 4282207365
-0.3253886998 -0.1743263304 0.5615305305 4281681781
-0.3244982958 -0.1732271165 0.5599939227 4281615988
-0.3250605464 -0.1729039848 0.5609642267 4281878135
-0.3246536851 -0.1720650792 0.5602620840 4281878135
-0.3237616718 -0.1709715426 0.5587227345 4281747317
-0.3233537972 -0.1701361388 0.5580188632 4281813110
-0.3229454458 -0.1693020612 0.5573141575 4281681781
-0.3239916861 -0.1692293286 0.5591197014 4281681781
-0.3226125240 -0.1678903699 0.5567396283 4282076539
-0.3222029209 -0.1670594215 0.5560327768 4281615988
-0.3217928708 -0.1662298143 0.5553251505 4282273144
-0.3208968937 -0.1651516855 0.5537789464 4283523211
-0.3214569986 -0.1648235917 0.5547454953 4282996602
-0.3205600083 -0.1637490243 0.5531975627 4282272879
-0.3201481700 -0.1629247963 0.5524867773 4284640138
-0.3202217817 -0.1623482555 0.5526138544 4285955998
-0.3193230927 -0.1612803638 0.5510630012 4286810791
-0.3193960488 -0.1607047915 0.5511888266 4288981960
-0.3189824820 -0.1598851085 0.5504751801 4287994292
-0.3185684979 -0.1590667814 0.5497607589 4288849601
-0.3186405301 -0.1584917754 0.5498850346 4286744227
-0.3177391589 -0.1574342102 0.5483295321 4288586431
-0.3178105354 -0.1568601876 0.5484526753 4284178306
-0.3173948526 -0.1560464650 0.5477353334 4288060093
-0.3169787228 -0.1552340984 0.5470172167 4286153387
-0.3170491755 -0.1546606869 0.5471388102 4287798212
-0.3166322708 -0.1538502127 0.5464193821 4287536069
-0.3162149191 -0.1530411094 0.5456991196 4285430693
-0.3157971203 -0.1522333920 0.5449781418 4282273144
-0.3153789043 -0.1514270753 0.5442563891 4281615214
-0.3154477775 -0.1508553028 0.5443752408 4281483891
-0.3145410717 -0.1498185992 0.5428105593 4281615477
-0.3150970638 -0.1494792402 0.5437700152 4281352569
-0.3141893744 -0.1484462321 0.5422036052 4281352569
-0.3142570257 -0.1478756219 0.5423203111 4281417582
-0.3138363361 -0.1470759213 0.5415943265 4281549168
-0.3134151995 -0.1462776214 0.5408676267 4281418613
-0.3134819269 -0.1457076967 0.5409827828 4281352820
-0.3130600452 -0.1449113339 0.5402546525 4281287544
-0.3126377165 -0.1441163868 0.5395258665 4281353337
-0.3117263317 -0.1430985630 0.5379530787 4281746287
-0.3118568659 -0.1419625878 0.5381783247 4284242276
-0.3114328682 -0.1411724389 0.5374466777 4286545031
-0.3114974797 -0.1406044513 0.5375580788 4288249710
-0.3110727072 -0.1398162693 0.5368251204 4288249710
-0.3106475174 -0.1390295178 0.5360913277 4288839783
-0.3107112050 -0.1384622604 0.5362012386 4288708197
-0.3097958267 -0.1374603510 0.5346215367 4288247913
-0.3098588288 -0.1368941814 0.5347303152 4288708464
-0.3094319999 -0.1361123025 0.5339937210 4288511334
-0.3090047538 -0.1353318691 0.5332563519 4287458646
-0.3090668619 -0.1347664744 0.5333635211 4285618497
-0.3086388409 -0.1339880526 0.5326249003 4284302637
-0.3082103729 -0.1332110763 0.5318855047 4285027134
-0.3077814877 -0.1324355751 0.5311453342 4287329889
-0.3078423440 -0.1318715066 0.5312504172 4288381548
-0.3079029918 -0.1313071102 0.5313550234 4288118376
-0.3074730039 -0.1305341870 0.5306130052 4288905576
-0.3070425987 -0.1297627389 0.5298702717 4288773990
-0.3066117465 -0.1289927661 0.5291267037 4288839270
-0.3061804771 -0.1282242537 0.5283824801 4288970856
-0.3062395751 -0.1276618093 0.5284844041 4288250231
-0.3058075309 -0.1268953532 0.5277388692 4287921266
-0.3058660328 -0.1263331622 0.5278398395 4286213746
-0.3054332733 -0.1255687773 0.5270929933 4284897886
-0.3050000668 -0.1248058677 0.5263453722 4281420392
-0.3050576746 -0.1242445260 0.5264447927 4281354599
-0.3046236932 -0.1234836951 0.5256959200 4281486974
-0.3046807349 -0.1229226217 0.5257943273 4282079111
-0.3042460382 -0.1221638769 0.5250441432 4281948566
-0.3038108945 -0.1214066297 0.5242931843 4281948566
-0.3043587208 -0.1210419685 0.5252386332 4282080152
-0.3034311533 -0.1200912744 0.5236378908 4282145945
-0.3034867048 -0.1195313632 0.5237337947 4282211475
-0.3030500710 -0.1187783256 0.5229802728 4282079889
-0.3031050861 -0.1182187051 0.5230751634 4281949332
-0.3026677072 -0.1174677834 0.5223203897 4281817746
-0.3027221262 -0.1169084683 0.5224143267 4281752992
-0.3027763367 -0.1163488552 0.5225078464 4282476715
-0.3023378551 -0.1156006604 0.5217511654 4282805690
-0.3023914993 -0.1150413603 0.5218437314 4282608311
-0.3019523025 -0.1142953113 0.5210857987 4282673841
-0.3020053506 -0.1137363240 0.5211773515 4282673841
-0.3015654087 -0.1129924208 0.5204181075 4282346669
-0.3011250496 -0.1122500449 0.5196582079 4282280876
-0.3006842732 -0.1115092114 0.5188975334 4282149811
-0.3012291193 -0.1111336872 0.5198377967 4282084018
-0.3002946079 -0.1102131233 0.5182250738 4282083766
-0.2993595004 -0.1092959344 0.5166113377 4282017973
-0.2994103432 -0.1087404117 0.5166990757 4282083246
-0.2994609475 -0.1081846058 0.5167864561 4282346418
-0.2995113134 -0.1076285169 0.5168733597 4282214572
-0.2995614409 -0.1070721522 0.5169598460 4282280365
-0.2996113300 -0.1065155044 0.5170459151 4282673065
-0.2996609509 -0.1059585810 0.5171315670 4288462847
-0.3002041280 -0.1055750251 0.5180689096 4289579775
-0.3007471859 -0.1051893532 0.5190060735 4284118961
-0.3012901545 -0.1048015729 0.5199431181 4283131037
-0.3018330634 -0.1044116840 0.5208800435 4282999451
-0.3018817902 -0.1038497090 0.5209641457 4287341011
-0.3024244308 -0.1034565121 0.5219005942 4288656871
-0.3024727404 -0.1028930843 0.5219839811 4285366193
-0.3030151427 -0.1024965867 0.5229199529 4285431986
-0.3035574257 -0.1020979732 0.5238558054 4287535569
-0.3040996194 -0.1016972587 0.5247914791 4286417088
-0.3041471541 -0.1011299863 0.5248735547 4284311458
-0.3046890795 -0.1007259637 0.5258087516 4283719321
-0.3052309155 -0.1003198400 0.5267437696 4284049567
-0.3057726324 -0.0999115929 0.5276786685 4282799500
-0.3058194220 -0.0993404984 0.5277593732 4282603663
-0.3063608706 -0.0989289656 0.5286937356 4283393179
-0.3069022000 -0.0985153168 0.5296279788 4283854506
-0.3074434400 -0.0980995595 0.5305619836 4283591334
-0.3074893951 -0.0975246504 0.5306413174 4282801551
-0.3080303669 -0.0971055999 0.5315748453 4282669965
-0.3080758750 -0.0965292454 0.5316534042 4282538646
-0.3086165488 -0.0961069092 0.5325863957 4282078095
-0.3096525073 -0.0958357975 0.5343742371 4282471576
-0.3096974790 -0.0952559039 0.5344518423 4283129506
-0.3102377951 -0.0948272347 0.5353842378 4287272403
-0.3107779622 -0.0943964645 0.5363164544 4287732954
-0.3108223081 -0.0938139558 0.5363929868 4284771748
-0.3113621771 -0.0933798999 0.5373246670 4285627057
-0.3119019270 -0.0929437354 0.5382561088 4288259805
-0.3124415576 -0.0925054625 0.5391873717 4287865047
-0.3129810691 -0.0920650810 0.5401183963 4284905908
-0.3130243719 -0.0914776251 0.5401930809 4282603153
-0.3135635257 -0.0910339653 0.5411235690 4282274449
-0.3136063814 -0.0904450938 0.5411974788 4285629892
-0.3265279830 -0.1777817905 0.5645787120 4281879678
-0.3261243999 -0.1769355386 0.5638809204 4282208643
-0.3266868889 -0.1766131371 0.5648534894 4282076806
-0.3257992566 -0.1755073667 0.5633187294 4281813634
-0.3258779347 -0.1749237031 0.5634547472 4281748092
-0.3249891400 -0.1738222986 0.5619180202 4281419127
-0.3250671327 -0.1732395291 0.5620528460 4281419638
-0.3241772056 -0.1721424907 0.5605141521 4281551224
-0.3242545128 -0.1715606153 0.5606477857 4281682553
-0.3233634233 -0.1704679430 0.5591071248 4281682553
-0.3229558766 -0.1696326733 0.5584024191 4281616760
-0.3220635355 -0.1685452610 0.5568595529 4281485174
-0.3216549456 -0.1677135080 0.5561531186 4281615729
-0.3212459087 -0.1668830961 0.5554458499 4281549936
-0.3209112287 -0.1654762328 0.5548672080 4285693865
-0.3209858239 -0.1648980677 0.5549961329 4285166231
-0.3200902343 -0.1638230383 0.5534476042 4282271339
-0.3196790218 -0.1629984677 0.5527366400 4281547867
-0.3197526038 -0.1624217182 0.5528638959 4281876832
-0.3188553154 -0.1613533795 0.5513123870 4282732394
-0.3189282119 -0.1607775688 0.5514384508 4285100942
-0.3185153306 -0.1599575430 0.5507245660 4286876061
-0.3181020021 -0.1591388732 0.5500099063 4287270819
-0.3181740046 -0.1585636586 0.5501344204 4285953428
-0.3172740340 -0.1575056314 0.5485783219 4288387769
-0.3173453510 -0.1569313854 0.5487016439 4283848316
-0.3169303536 -0.1561173201 0.5479840636 4288124861
-0.3165149093 -0.1553046256 0.5472657681 4286744495
-0.3165853024 -0.1547309756 0.5473874807 4287994562
-0.3161690831 -0.1539201587 0.5466678143 4284312214
-0.3157523870 -0.1531107277 0.5459473729 4283785870
-0.3153352737 -0.1523026824 0.5452261567 4281747063
-0.3149177134 -0.1514960080 0.5445041656 4281352305
-0.3149865568 -0.1509240121 0.5446231961 4281418100
-0.3145682216 -0.1501192600 0.5438998342 4281549686
-0.3146364689 -0.1495473981 0.5440179110 4281286514
-0.3142173588 -0.1487445384 0.5432932377 4281352307
-0.3137978017 -0.1479430944 0.5425677896 4281352557
-0.3133777976 -0.1471430510 0.5418415666 4281286764
-0.3134448230 -0.1465723813 0.5419574380 4281614709
-0.3130240440 -0.1457742602 0.5412299037 4281285744
-0.3126028180 -0.1449775696 0.5405015945 4281023600
-0.3121811450 -0.1441822946 0.5397725701 4281352565
-0.3117590547 -0.1433884203 0.5390427113 4281417582
-0.3113365173 -0.1425959766 0.5383121371 4281351789
-0.3109135330 -0.1418049634 0.5375807881 4285093709
-0.3114665151 -0.1414588243 0.5385369062 4287396464
-0.3105545938 -0.1404480487 0.5369601250 4287986279
-0.3106187880 -0.1398803592 0.5370711684 4288381037
-0.3101942837 -0.1390932798 0.5363371968 4288446570
-0.3102579415 -0.1385257840 0.5364472270 4288314984
-0.3093439639 -0.1375234425 0.5348669291 4288314217
-0.3089181483 -0.1367406696 0.5341306925 4288314217
-0.3089807928 -0.1361748278 0.5342389941 4288380007
-0.3085542023 -0.1353940666 0.5335013866 4288182628
-0.3081271946 -0.1346147507 0.5327630639 4287722329
-0.3086781204 -0.1342624426 0.5337156653 4285485367
-0.3082504272 -0.1334842443 0.5329762101 4285616951
-0.3078223169 -0.1327075064 0.5322359800 4288117085
-0.3073937893 -0.1319322288 0.5314950347 4288446052
-0.3074543774 -0.1313675940 0.5315998197 4288182880
-0.3070250750 -0.1305943429 0.5308575034 4288380259
-0.3065953553 -0.1298225671 0.5301145315 4288380259
-0.3066550791 -0.1292587370 0.5302177668 4288380259
-0.3062245846 -0.1284889877 0.5294734240 4288314466
-0.3057936430 -0.1277207285 0.5287283659 4288314214
-0.3053623140 -0.1269539446 0.5279825330 4288445800
-0.3054207861 -0.1263915151 0.5280836225 4288314217
-0.3054790199 -0.1258287728 0.5281843543 4288116838
-0.3050465882 -0.1250646263 0.5274366140 4285293919
-0.3046137393 -0.1243019775 0.5266882181 4283320129
-0.3041804731 -0.1235408112 0.5259390473 4282206577
-0.3042374849 -0.1229794994 0.5260376334 4282864507
-0.3038034439 -0.1222204268 0.5252872109 4281686673
-0.3033689857 -0.1214628518 0.5245360136 4281686673
-0.3034251034 -0.1209024116 0.5246330500 4281881747
-0.3029899001 -0.1201469302 0.5238805413 4282079126
-0.3030454516 -0.1195867807 0.5239765644 4282211738
-0.3031007349 -0.1190263182 0.5240721703 4282145945
-0.3026644588 -0.1182735562 0.5233178735 4282145434
-0.3027192056 -0.1177133918 0.5234124660 4281948055
-0.3022821844 -0.1169627458 0.5226568580 4281621668
-0.3023363352 -0.1164028868 0.5227504969 4282345391
-0.3018985689 -0.1156543717 0.5219935775 4282870709
-0.3019521832 -0.1150948256 0.5220862627 4282739123
-0.3015136719 -0.1143484488 0.5213280320 4282084529
-0.3010747433 -0.1136035994 0.5205691457 4282084529
-0.3011274338 -0.1130449921 0.5206602812 4282149809
-0.3006877601 -0.1123022884 0.5199000835 4282084016
-0.3002476692 -0.1115611270 0.5191391110 4282280625
-0.3007917702 -0.1111854464 0.5200799108 4282214832
-0.2998586595 -0.1102644727 0.5184665322 4282345389
-0.2994174361 -0.1095270216 0.5177035928 4282411182
-0.2994683385 -0.1089703366 0.5177916288 4282476717
-0.2995190024 -0.1084133759 0.5178792477 4282608303
-0.2990767062 -0.1076787338 0.5171145201 4282672813
-0.2991268039 -0.1071221232 0.5172011256 4282541227
-0.2991766632 -0.1065652296 0.5172873139 4283198900
-0.2997192442 -0.1061827093 0.5182254314 4287935996
-0.3002617359 -0.1057980657 0.5191634297 4287935224
-0.3003109992 -0.1052385122 0.5192486644 4283132335
-0.3008532524 -0.1048505679 0.5201861858 4282213017
-0.3013954163 -0.1044605076 0.5211235881 4282213017
-0.3019374907 -0.1040683389 0.5220608711 4284252089
-0.3019860089 -0.1035049260 0.5221447945 4284646847
-0.3025278151 -0.1031094491 0.5230816007 4283393439
-0.3025759459 -0.1025445759 0.5231648088 4282867095
-0.3031174839 -0.1021457985 0.5241011381 4283130793
-0.3036589622 -0.1017449051 0.5250373483 4283065000
-0.3042003214 -0.1013418958 0.5259733796 4282605221
-0.3042476475 -0.1007731855 0.5260552764 4282736807
-0.3047887385 -0.1003668830 0.5269908309 4282866843
-0.3053297400 -0.0999584645 0.5279262066 4283327394
-0.3058706224 -0.0995479375 0.5288614035 4282802333
-0.3059171736 -0.0989753976 0.5289419293 4285499846
-0.3064577878 -0.0985615700 0.5298766494 4288261350
-0.3069982827 -0.0981456339 0.5308111906 4285432251
-0.3070442379 -0.0975704640 0.5308906436 4283588248
-0.3075844347 -0.0971512347 0.5318246484 4283522455
-0.3076299429 -0.0965746269 0.5319033265 4283589529
-0.3081698418 -0.0961520970 0.5328368545 4285431733
-0.3092043698 -0.0958808735 0.5346255898 4286089661
-0.3097441196 -0.0954532027 0.5355588198 4286681798
-0.3097888827 -0.0948718637 0.5356362462 4288786901
-0.3103283346 -0.0944408998 0.5365689397 4288589522
-0.3103726506 -0.0938581377 0.5366455913 4286482871
-0.3109117746 -0.0934238881 0.5375777483 4289311970
-0.3114507794 -0.0929875299 0.5385097265 4289443564
-0.3119896650 -0.0925490633 0.5394414663 4288917220
-0.3125284314 -0.0921084881 0.5403730273 4285365441
-0.3125717044 -0.0915207639 0.5404478312 4282733721
-0.3131101429 -0.0910769105 0.5413787961 4282668956
-0.3131529689 -0.0904877707 0.5414528251 4285827020
-0.3260468841 -0.1778614223 0.5648316145 4281812856
-0.3256439865 -0.1770148426 0.5641336441 4282207614
-0.3262057304 -0.1766923219 0.5651067495 4282273669
-0.3253194690 -0.1755861044 0.5635714531 4282076290
-0.3253980875 -0.1750022173 0.5637076497 4282010750
-0.3245106936 -0.1739003509 0.5621703267 4281681785
-0.3241056204 -0.1730594486 0.5614686012 4281551226
-0.3246663511 -0.1727339476 0.5624399781 4281551226
-0.3232940733 -0.1713815778 0.5600627661 4281682299
-0.3233710229 -0.1707999408 0.5601959825 4281682299
-0.3229642212 -0.1699634492 0.5594913363 4281747578
-0.3225570023 -0.1691282839 0.5587858558 4281681785
-0.3221493065 -0.1682944596 0.5580795407 4281681270
-0.3217411637 -0.1674619615 0.5573725104 4281549684
-0.3213325739 -0.1666307896 0.5566647053 4283193733
-0.3204394579 -0.1655508876 0.5551174879 4286812348
-0.3205140233 -0.1649724841 0.5552466512 4286548143
-0.3201040626 -0.1641453505 0.5545364618 4284508560
-0.3196936548 -0.1633195579 0.5538254976 4283521659
-0.3192828000 -0.1624951214 0.5531137586 4282534764
-0.3183868825 -0.1614263356 0.5515617132 4282403176
-0.3184597492 -0.1608503163 0.5516878963 4281876832
-0.3180475533 -0.1600299478 0.5509738326 4282797156
-0.3176349103 -0.1592109352 0.5502589941 4283915637
-0.3177068532 -0.1586354822 0.5503836274 4284244350
-0.3168082535 -0.1575770229 0.5488269329 4285954968
-0.3168795407 -0.1570025533 0.5489504337 4282599274
-0.3164651990 -0.1561881304 0.5482326746 4288060093
-0.3160504401 -0.1553751081 0.5475141406 4285626784
-0.3161208034 -0.1548012346 0.5476360321 4287468988
-0.3157052398 -0.1539900750 0.5469161272 4283390599
-0.3152892590 -0.1531803012 0.5461954474 4281811567
-0.3148728013 -0.1523719132 0.5454740524 4281285737
-0.3144559264 -0.1515649259 0.5447518229 4281877874
-0.3145247102 -0.1509926915 0.5448710322 4281483373
-0.3141070306 -0.1501875967 0.5441474319 4281746545
-0.3141752779 -0.1496154964 0.5442656279 4281614959
-0.3137568235 -0.1488123089 0.5435407758 4281680752
-0.3138244748 -0.1482403576 0.5436579585 4281680756
-0.3134052753 -0.1474391073 0.5429317355 4281549170
-0.3129855990 -0.1466392428 0.5422047377 4281614197
-0.3130523562 -0.1460679621 0.5423203707 4281482611
-0.3121449649 -0.1450437605 0.5407484174 4281418100
-0.3117239773 -0.1442481428 0.5400190949 4281615479
-0.3117897213 -0.1436784565 0.5401329994 4281483373
-0.3113679588 -0.1428847760 0.5394023657 4281220201
-0.3104583919 -0.1418698281 0.5378266573 4285422674
-0.3110106289 -0.1415235400 0.5387833118 4287462257
-0.3101000786 -0.1405123323 0.5372059345 4287855204
-0.3101642728 -0.1399444193 0.5373170972 4288249962
-0.3097404242 -0.1391569972 0.5365828872 4288381286
-0.3098040521 -0.1385892779 0.5366930962 4288315493
-0.3088914454 -0.1375864893 0.5351121426 4288445541
-0.3089543879 -0.1370198578 0.5352212191 4288445541
-0.3085289299 -0.1362373084 0.5344841480 4288380261
-0.3081030250 -0.1354562193 0.5337463021 4288577640
-0.3076767027 -0.1346765757 0.5330077410 4288446050
-0.3082268834 -0.1343241334 0.5339608788 4287130190
-0.3073112965 -0.1333336234 0.5323747993 4286867273
-0.3073724508 -0.1327685267 0.5324807167 4288183133
-0.3074333668 -0.1322030872 0.5325862169 4288643684
-0.3070051670 -0.1314280480 0.5318444371 4288380512
-0.3065765500 -0.1306544691 0.5311018825 4288314719
-0.3066365421 -0.1300898343 0.5312058330 4288380512
-0.3062071800 -0.1293182820 0.5304620266 4288314719
-0.3057773709 -0.1285482049 0.5297174454 4288248926
-0.3053471446 -0.1277796179 0.5289720893 4288248673
-0.3049164712 -0.1270125061 0.5282260776 4288380259
-0.3049749136 -0.1264498383 0.5283272862 4288445800
-0.3045434952 -0.1256847829 0.5275799632 4288380007
-0.3050910830 -0.1253235340 0.5285285711 4287462504
-0.3041692078 -0.1243593916 0.5269315243 4286146644
-0.3037366271 -0.1235979050 0.5261821151 4283715429
-0.3037936091 -0.1230363548 0.5262808204 4283649636
-0.3033602536 -0.1222769469 0.5255300999 4282669699
-0.3029264808 -0.1215190440 0.5247786641 4282669699
-0.3029825687 -0.1209583655 0.5248758197 4282144919
-0.3030384183 -0.1203973740 0.5249725580 4281815954
-0.3026035726 -0.1196421683 0.5242192745 4282276759
-0.3026588261 -0.1190814674 0.5243149996 4282276759
-0.3027138710 -0.1185204610 0.5244103670 4282145434
-0.3022779524 -0.1177679747 0.5236551762 4281948055
-0.3018416166 -0.1170169935 0.5228992701 4281621665
-0.3018957376 -0.1164568961 0.5229930878 4282279595
-0.3014586568 -0.1157080531 0.5222358704 4282673841
-0.3015122414 -0.1151482686 0.5223286748 4282608048
-0.3010744154 -0.1144015640 0.5215702057 4282149809
-0.3006361723 -0.1136563793 0.5208110213 4282149809
-0.3006888330 -0.1130975336 0.5209022760 4282149809
-0.3007412851 -0.1125383899 0.5209931135 4282084016
-0.3003019691 -0.1117959917 0.5202320218 4282214832
-0.2998622358 -0.1110551208 0.5194702744 4282214832
-0.2994221151 -0.1103157997 0.5187078118 4282280366
-0.2989815772 -0.1095780134 0.5179446340 4282280366
-0.2990324497 -0.1090210900 0.5180327892 4282410669
-0.2990831137 -0.1084638834 0.5181205273 4282476462
-0.2991335094 -0.1079063937 0.5182078481 4282607791
-0.2986915708 -0.1071720645 0.5174422860 4282673584
-0.2987414002 -0.1066149324 0.5175285935 4282870192
-0.2992832363 -0.1062322482 0.5184672475 4285304533
-0.2998249829 -0.1058474481 0.5194057226 4285041104
-0.3003666401 -0.1054605320 0.5203440785 4282277798
-0.3009082079 -0.1050714999 0.5212823153 4282278045
-0.3014497161 -0.1046803519 0.5222203732 4282607010
-0.3014984727 -0.1041169688 0.5223048329 4282606492
-0.3020397127 -0.1037225127 0.5232424736 4282409113
-0.3020880520 -0.1031576619 0.5233262181 4283392403
-0.3026290238 -0.1027599052 0.5242633820 4284247712
-0.3026769459 -0.1021935865 0.5243464112 4284906418
-0.3032176495 -0.1017925218 0.5252830982 4285432762
-0.3037582934 -0.1013893485 0.5262196660 4284182695
-0.3042987883 -0.1009840518 0.5271559954 4282866835
-0.3043459654 -0.1004139036 0.5272377133 4283457681
-0.3048861921 -0.1000053063 0.5281735659 4283391888
-0.3054263294 -0.0995946005 0.5291092992 4282998159
-0.3059663773 -0.0991817787 0.5300448537 4286879946
-0.3065063059 -0.0987668484 0.5309802294 4289838573
-0.3065524995 -0.0981916860 0.5310602188 4287996369
-0.3065984249 -0.0976162627 0.5311397910 4287600574
-0.3071378767 -0.0971968472 0.5320743322 4287008437
-0.3071833551 -0.0966199785 0.5321531296 4285825192
-0.3077225387 -0.0961972699 0.5330871940 4289641186
-0.3087556064 -0.0959259272 0.5348768234 4290101999
-0.3092946112 -0.0954980701 0.5358105898 4289378276
-0.3098334968 -0.0950680971 0.5367441177 4289838046
-0.3098780513 -0.0944853202 0.5368213058 4289772253
-0.3104166389 -0.0940520540 0.5377543569 4288784855
-0.3104607463 -0.0934678465 0.5378307104 4290100715
-0.3109990060 -0.0930312946 0.5387632251 4286614465
-0.3115371466 -0.0925926343 0.5396955013 4284509089
-0.3120751679 -0.0921518654 0.5406275392 4283194021
-0.3126130700 -0.0917089880 0.5415593386 4282733470
-0.3126561344 -0.0911198258 0.5416339636 4282471587
-0.3131936789 -0.0906736627 0.5425652266 4285892823
-0.3260467649 -0.1782042384 0.5659202933 4281549938
-0.3251629174 -0.1770940870 0.5643861890 4281878903
-0.3257239163 -0.1767714620 0.5653598905 4282076031
-0.3248390257 -0.1756647825 0.5638239980 4282010238
-0.3249176145 -0.1750806719 0.5639603734 4282076028
-0.3245137632 -0.1742372513 0.5632594228 4281812856
-0.3236271739 -0.1731371135 0.5617205501 4281682812
-0.3241871595 -0.1728114933 0.5626925230 4281551226
-0.3228169978 -0.1714585721 0.5603143573 4281616506
-0.3228938580 -0.1708767116 0.5604477525 4281616506
-0.3224877417 -0.1700398773 0.5597428679 4281747065
-0.3225640655 -0.1694580466 0.5598753095 4281747065
-0.3221571743 -0.1686230004 0.5591690540 4281747063
-0.3212666810 -0.1675373614 0.5576235056 4281549684
-0.3208587766 -0.1667058617 0.5569154620 4283062148
-0.3199670613 -0.1656254977 0.5553677082 4286680763
-0.3205249906 -0.1652961969 0.5563361049 4286154159
-0.3196322918 -0.1642193943 0.5547866225 4284904092
-0.3192225397 -0.1633932739 0.5540754795 4285758368
-0.3188123703 -0.1625684947 0.5533635020 4284968852
-0.3184017241 -0.1617450714 0.5526507497 4284179589
-0.3179906607 -0.1609230042 0.5519372225 4282337385
-0.3175791204 -0.1601022929 0.5512229800 4282468967
-0.3171671629 -0.1592829525 0.5505079031 4282403174
-0.3172390461 -0.1587072760 0.5506327152 4282008671
-0.3168263137 -0.1578897834 0.5499162674 4283258738
-0.3164131045 -0.1570736617 0.5491990447 4282008931
-0.3164840937 -0.1564985812 0.5493223071 4285956511
-0.3155853450 -0.1554455459 0.5477623343 4284575123
-0.3156556785 -0.1548714489 0.5478844047 4286943671
-0.3152408004 -0.1540599614 0.5471643209 4287338179
-0.3153105676 -0.1534859836 0.5472853780 4284640666
-0.3148948848 -0.1526763737 0.5465639234 4282206325
-0.3144787848 -0.1518681496 0.5458416939 4281877360
-0.3140622377 -0.1510613263 0.5451186895 4281746026
-0.3141307533 -0.1504884958 0.5452376604 4281943405
-0.3137134314 -0.1496835649 0.5445132852 4281548906
-0.3137814105 -0.1491108686 0.5446312428 4281746285
-0.3133632839 -0.1483078599 0.5439055562 4281680494
-0.3129447401 -0.1475062668 0.5431790352 4281746287
-0.3125257492 -0.1467060745 0.5424517989 4281811314
-0.3125924766 -0.1461345702 0.5425676107 4281679728
-0.3121727109 -0.1453363001 0.5418390632 4281483373
-0.3117525280 -0.1445394605 0.5411096811 4281614959
-0.3113318682 -0.1437440366 0.5403795838 4281549160
-0.3109107912 -0.1429500431 0.5396487117 4281417574
-0.3104892969 -0.1421574652 0.5389171243 4285948757
-0.3105541170 -0.1415882409 0.5390295982 4287593582
-0.3101318181 -0.1407976151 0.5382966399 4287986532
-0.3097091019 -0.1400084347 0.5375629067 4288315497
-0.3092859387 -0.1392206848 0.5368284583 4288446820
-0.3093495369 -0.1386527270 0.5369387865 4288381027
-0.3089255989 -0.1378669739 0.5362030268 4288445793
-0.3085012436 -0.1370826513 0.5354664326 4288445793
-0.3085639179 -0.1365154386 0.5355752707 4288248673
-0.3081387877 -0.1357331127 0.5348373652 4288446052
-0.3077132404 -0.1349522322 0.5340987444 4288511585
-0.3077750206 -0.1343857795 0.5342059731 4288182620
-0.3073486984 -0.1336069256 0.5334659815 4287656274
-0.3069219589 -0.1328295171 0.5327252746 4287787860
-0.3069828451 -0.1322638392 0.5328309536 4288380510
-0.3065553308 -0.1314884573 0.5320889354 4288314717
-0.3061273992 -0.1307145506 0.5313461423 4288314717
-0.3056990206 -0.1299421042 0.5306026340 4288380510
-0.3057586551 -0.1293777972 0.5307061672 4288379997
-0.3053295314 -0.1286073923 0.5299613476 4288314204
-0.3048999906 -0.1278384775 0.5292157531 4288379999
-0.3049587309 -0.1272749901 0.5293177366 4288379999
-0.3045284450 -0.1265081167 0.5285708308 4288446052
-0.3040977120 -0.1257427335 0.5278232098 4288577638
-0.3046445549 -0.1253813505 0.5287723541 4288381280
-0.3037240505 -0.1244167835 0.5271747112 4287986522
-0.3032921553 -0.1236549616 0.5264250040 4286671207
-0.3033491075 -0.1230931729 0.5265238881 4285552726
-0.3029164374 -0.1223334372 0.5257729292 4283717482
-0.3024833798 -0.1215752065 0.5250211954 4283651689
-0.3025394082 -0.1210142896 0.5251185298 4281947792
-0.3025952280 -0.1204530597 0.5252153873 4282079378
-0.3021610677 -0.1196975261 0.5244618058 4282144919
-0.3022163212 -0.1191365868 0.5245577097 4282210712
-0.3017814159 -0.1183831617 0.5238028169 4281883290
-0.3018361032 -0.1178225204 0.5238977075 4281685911
-0.3014004529 -0.1170712188 0.5231415629 4281687199
-0.3014545441 -0.1165108830 0.5232354999 4282279336
-0.3010181487 -0.1157617047 0.5224780440 4282476975
-0.3005813360 -0.1150140539 0.5217198730 4282476975
-0.3006345630 -0.1144546419 0.5218122005 4282214832
-0.3001970053 -0.1137091368 0.5210527778 4282214832
-0.3002496362 -0.1131500527 0.5211441517 4282280627
-0.3003020585 -0.1125906706 0.5212351084 4282280627
-0.3003542125 -0.1120309904 0.5213256478 4282214319
-0.2994244099 -0.1111067459 0.5197117925 4282214319
-0.2989849746 -0.1103670895 0.5189490318 4282411184
-0.2990361452 -0.1098092943 0.5190378428 4282345391
-0.2985959649 -0.1090718210 0.5182738304 4282213803
-0.2986465991 -0.1085143685 0.5183616877 4282345389
-0.2986969650 -0.1079566404 0.5184491277 4282476462
-0.2987470925 -0.1073986292 0.5185361505 4282608048
-0.2987969518 -0.1068403348 0.5186226964 4282541998
-0.2988466024 -0.1062817574 0.5187088847 4282936756
-0.2988960147 -0.1057229117 0.5187945962 4282739377
-0.2999285161 -0.1055097133 0.5205867887 4282147240
-0.3004693687 -0.1051205173 0.5215255022 4282343591
-0.3010101020 -0.1047292054 0.5224640965 4282475177
-0.3015507758 -0.1043357775 0.5234025121 4282408604
-0.3015993237 -0.1037709564 0.5234867930 4284250808
-0.3021397293 -0.1033742130 0.5244247913 4287931857
-0.3021878898 -0.1028079242 0.5245083570 4289379303
-0.3027280271 -0.1024078801 0.5254458785 4289774060
-0.3032680750 -0.1020057127 0.5263832211 4289445095
-0.3038080335 -0.1016014367 0.5273204446 4286483894
-0.3038554192 -0.1010313034 0.5274026394 4284839069
-0.3043950796 -0.1006237194 0.5283393860 4286811569
-0.3044420481 -0.1000521258 0.5284208655 4286877362
-0.3049814403 -0.0996412411 0.5293571353 4285562279
-0.3055207133 -0.0992282480 0.5302931666 4287996620
-0.3060599267 -0.0988131315 0.5312290192 4290758638
-0.3061060905 -0.0982377082 0.5313091874 4290166501
-0.3066449761 -0.0978192985 0.5322445035 4290954209
-0.3066906929 -0.0972424299 0.5323238969 4290756830
-0.3072293103 -0.0968207195 0.5332587361 4287797175
-0.3077678084 -0.0963968933 0.5341933966 4290692067
-0.3078128994 -0.0958174095 0.5342717171 4289903075
-0.3088444471 -0.0955429152 0.5360621810 4288060871
-0.3093826175 -0.0951127484 0.5369962454 4289508822
-0.3099206388 -0.0946804807 0.5379301310 4290232545
-0.3099649847 -0.0940962583 0.5380070806 4289245147
-0.3105027080 -0.0936606973 0.5389403701 4290166249
-0.3110403121 -0.0932230204 0.5398734808 4286416826
-0.3115777671 -0.0927832350 0.5408064127 4285298345
-0.3116212785 -0.0921952277 0.5408818722 4283786156
-0.3121584356 -0.0917521492 0.5418142080 4282799261
-0.3122014701 -0.0911627263 0.5418889523 4282735275
-0.3127382696 -0.0907163620 0.5428206921 4285959132
-0.3255636692 -0.1782839000 0.5661732554 4281352559
-0.3251622319 -0.1774357706 0.5654751062 4281681524
-0.3252414465 -0.1768505573 0.5656128526 4281747578
-0.3248391747 -0.1760041714 0.5649132729 4281615992
-0.3244364858 -0.1751590967 0.5642129779 4281747576
-0.3240333200 -0.1743153185 0.5635118484 4281615990
-0.3236296773 -0.1734728664 0.5628098845 4281551224
-0.3237073123 -0.1728890091 0.5629448891 4281551224
-0.3228210807 -0.1717919111 0.5614036918 4281747576
-0.3224160671 -0.1709534228 0.5606994033 4281747576
-0.3220106363 -0.1701162457 0.5599942803 4281747065
-0.3220869005 -0.1695342064 0.5601269603 4281747065
-0.3216806650 -0.1686988175 0.5594204664 4281878135
-0.3212739825 -0.1678647697 0.5587131977 4281812342
-0.3208668232 -0.1670320481 0.5580051541 4282470011
-0.3194940090 -0.1657000780 0.5556177497 4285759661
-0.3200511932 -0.1653706431 0.5565867424 4287338433
-0.3191598654 -0.1642934084 0.5550366044 4286943675
-0.3187507987 -0.1634669304 0.5543252826 4287732671
-0.3188243508 -0.1628886163 0.5544531941 4287272120
-0.3179313242 -0.1618180573 0.5529001355 4286613676
-0.3175209165 -0.1609956622 0.5521864295 4285495195
-0.3175934553 -0.1604187787 0.5523126125 4285692056
-0.3171822727 -0.1595982164 0.5515975356 4284244610
-0.3167706430 -0.1587790251 0.5508816242 4282206563
-0.3163585365 -0.1579611897 0.5501649976 4282206563
-0.3164298534 -0.1573853940 0.5502889752 4282009701
-0.3160169721 -0.1565694213 0.5495709777 4282536045
-0.3156036735 -0.1557548344 0.5488522053 4282667128
-0.3151898980 -0.1549416184 0.5481326580 4284575125
-0.3147757053 -0.1541297883 0.5474123359 4287271617
-0.3148454130 -0.1535555869 0.5475335717 4286021550
-0.3144304454 -0.1527456343 0.5468119383 4282732153
-0.3140150011 -0.1519370824 0.5460894704 4281876844
-0.3140838444 -0.1513635069 0.5462091565 4281811819
-0.3136676252 -0.1505568624 0.5454853177 4281811819
-0.3137358725 -0.1499834210 0.5456040502 4281681005
-0.3133189082 -0.1491786689 0.5448789001 4281746798
-0.3129014671 -0.1483753324 0.5441529751 4281812071
-0.3129688203 -0.1478025466 0.5442700982 4281812071
-0.3125506043 -0.1470011324 0.5435428023 4281877614
-0.3121319711 -0.1462011337 0.5428147316 4281943407
-0.3117128909 -0.1454025358 0.5420859456 4281550189
-0.3112933636 -0.1446053535 0.5413563848 4281550189
-0.3108734190 -0.1438096017 0.5406260490 4281746535
-0.3104530275 -0.1430152655 0.5398949385 4281483363
-0.3105181158 -0.1424452662 0.5400081873 4286737243
-0.3100969493 -0.1416528970 0.5392757654 4287987310
-0.3096753657 -0.1408619434 0.5385425687 4288380261
-0.3092533052 -0.1400724202 0.5378085971 4288511847
-0.3088308573 -0.1392843425 0.5370739102 4288380257
-0.3088943958 -0.1387161463 0.5371844172 4288380257
-0.3084711432 -0.1379300505 0.5364483595 4288510818
-0.3080474734 -0.1371454000 0.5357115865 4288642404
-0.3081101179 -0.1365779489 0.5358204842 4288511332
-0.3076856732 -0.1357952952 0.5350823998 4288445539
-0.3077477515 -0.1352280527 0.5351903439 4288314207
-0.3073225319 -0.1344473958 0.5344508886 4288380000
-0.3068968952 -0.1336681992 0.5337107182 4288051032
-0.3064708412 -0.1328904629 0.5329697132 4287787860
-0.3065316975 -0.1323245615 0.5330755711 4288248411
-0.3065922856 -0.1317583174 0.5331809521 4288445790
-0.3061651289 -0.1309831738 0.5324380994 4288445790
-0.3057375550 -0.1302094907 0.5316944718 4288445790
-0.3053095341 -0.1294372827 0.5309501886 4288445790
-0.3048810959 -0.1286665499 0.5302050710 4288379997
-0.3049401343 -0.1281022578 0.5303077698 4288314206
-0.3045109510 -0.1273335814 0.5295613408 4288314206
-0.3040813208 -0.1265663803 0.5288142562 4288379746
-0.3041394651 -0.1260029227 0.5289153457 4288577125
-0.3037090898 -0.1252377778 0.5281668901 4288183129
-0.3032782972 -0.1244741455 0.5274177194 4288380508
-0.3028470874 -0.1237119958 0.5266678333 4288773739
-0.3029040098 -0.1231499687 0.5267667770 4287655258
-0.3024720252 -0.1223899052 0.5260155797 4284897882
-0.3020396233 -0.1216313392 0.5252636075 4284174159
-0.3020956516 -0.1210701838 0.5253610611 4281619589
-0.3021514416 -0.1205087155 0.5254580379 4282080140
-0.3022069633 -0.1199469417 0.5255546570 4282013846
-0.3017731905 -0.1191916764 0.5248002410 4282079639
-0.3013389707 -0.1184379160 0.5240451097 4281686940
-0.3013935983 -0.1178770363 0.5241401196 4281489561
-0.3014480174 -0.1173158586 0.5242347717 4281752481
-0.3010127246 -0.1165648326 0.5234777927 4282344618
-0.3005770147 -0.1158153266 0.5227200389 4282345907
-0.3001409173 -0.1150673553 0.5219616294 4282345907
-0.3001940846 -0.1145076975 0.5220541358 4282280112
-0.3002470136 -0.1139477566 0.5221461654 4282280112
-0.2998098433 -0.1132025346 0.5213859081 4282280114
-0.2993722558 -0.1124588549 0.5206248760 4282280114
-0.2989342213 -0.1117167175 0.5198631287 4282345391
-0.2994760871 -0.1113405675 0.5208054781 4282345391
-0.2985472083 -0.1104183644 0.5191900730 4282345391
-0.2985983491 -0.1098603234 0.5192790627 4282345391
-0.2981588840 -0.1091225222 0.5185147524 4282148012
-0.2982094586 -0.1085648313 0.5186027288 4282345391
-0.2982597947 -0.1080068573 0.5186902881 4282279598
-0.2983098924 -0.1074486002 0.5187774301 4282148012
-0.2983597517 -0.1068900600 0.5188640952 4282344878
-0.2984093726 -0.1063312441 0.5189504027 4282279085
-0.2984587550 -0.1057721525 0.5190362334 4282213290
-0.2994897962 -0.1055588722 0.5208293200 4282410669
-0.3000299037 -0.1051695123 0.5217685699 4282146990
-0.3005698919 -0.1047780365 0.5227076411 4281949611
-0.3006186187 -0.1042141542 0.5227923989 4282211487
-0.3011583388 -0.1038193628 0.5237310529 4285895895
-0.3016979992 -0.1034224555 0.5246695280 4289971442
-0.3022375703 -0.1030234322 0.5256078839 4289510891
-0.3022855222 -0.1024556980 0.5256912708 4288589270
-0.3028248250 -0.1020533666 0.5266291499 4287536582
-0.3033640385 -0.1016489193 0.5275668502 4286088875
-0.3034113944 -0.1010785252 0.5276491642 4288654802
-0.3039503098 -0.1006707698 0.5285863876 4290166498
-0.3044891655 -0.1002608985 0.5295234919 4290034912
-0.3045358956 -0.0996878594 0.5296047926 4288193740
-0.3050744534 -0.0992746800 0.5305413604 4288456912
-0.3056128919 -0.0988593921 0.5314777493 4291283952
-0.3056590259 -0.0982837155 0.5315579772 4288981197
-0.3061971962 -0.0978651196 0.5324938297 4288915143
-0.3062428832 -0.0972879976 0.5325733423 4290888933
-0.3067807555 -0.0968661010 0.5335087180 4288521157
-0.3073185086 -0.0964420885 0.5344438553 4290758119
-0.3078561425 -0.0960159674 0.5353788733 4289179352
-0.3083936870 -0.0955877304 0.5363136530 4286152874
-0.3089310825 -0.0951573849 0.5372482538 4289574615
-0.3094683588 -0.0947249159 0.5381826162 4289837787
-0.3100055456 -0.0942903459 0.5391167998 4288784596
-0.3100496531 -0.0937046856 0.5391935110 4290626800
-0.3105865121 -0.0932668149 0.5401270986 4289772521
-0.3111232519 -0.0928268358 0.5410605073 4289575142
-0.3111667335 -0.0922385603 0.5411361456 4285432000
-0.3117031455 -0.0917952880 0.5420689583 4282537108
-0.3117461503 -0.0912055969 0.5421437621 4282341020
-0.3122822344 -0.0907590389 0.5430760384 4285828049
-0.3250799477 -0.1783635020 0.5664260387 4281352557
-0.3246791661 -0.1775150448 0.5657277107 4281681522
-0.3247583210 -0.1769296080 0.5658656359 4281484406
-0.3243567348 -0.1760828793 0.5651659369 4281418613
-0.3239547014 -0.1752374619 0.5644654036 4281418611
-0.3240329623 -0.1746524870 0.5646017790 4281287025
-0.3236301243 -0.1738088131 0.5638998747 4281615988
-0.3227458298 -0.1727090776 0.5623590350 4281681781
-0.3223419785 -0.1718689203 0.5616553426 4281747063
-0.3219376504 -0.1710300893 0.5609508753 4281747063
-0.3220142126 -0.1704473644 0.5610842705 4281878135
-0.3216091096 -0.1696103066 0.5603783727 4281878135
-0.3216851056 -0.1690276265 0.5605108142 4281943415
-0.3207975030 -0.1679401994 0.5589642525 4282009208
-0.3203910589 -0.1671071500 0.5582560301 4281746034
-0.3199841082 -0.1662754267 0.5575469732 4283193480
-0.3195767403 -0.1654450595 0.5568371415 4284706972
-0.3191689253 -0.1646160334 0.5561265945 4285233316
-0.3182784021 -0.1635405570 0.5545749068 4286812085
-0.3183519244 -0.1629620194 0.5547029972 4287009464
-0.3179427385 -0.1621370465 0.5539900661 4287074228
-0.3175331354 -0.1613134295 0.5532763004 4287205814
-0.3171230555 -0.1604911685 0.5525618196 4286876073
-0.3167125285 -0.1596702635 0.5518465042 4286283936
-0.3163015842 -0.1588507295 0.5511304140 4285034896
-0.3163731694 -0.1582742035 0.5512551665 4283126899
-0.3159614205 -0.1574565321 0.5505377650 4282470000
-0.3160324693 -0.1568801105 0.5506615043 4282141035
-0.3151365817 -0.1558253020 0.5491005182 4281943407
-0.3147234917 -0.1550117582 0.5483807921 4282272372
-0.3147935271 -0.1544368118 0.5485028028 4283455623
-0.3143796623 -0.1536251456 0.5477816463 4283389830
-0.3144491315 -0.1530503333 0.5479027033 4282008430
-0.3140344620 -0.1522405595 0.5471801758 4282008430
-0.3136193752 -0.1514321715 0.5464569330 4281614699
-0.3127197623 -0.1503923833 0.5448893905 4281746285
-0.3132720590 -0.1500515193 0.5458517671 4281747314
-0.3128557503 -0.1492464393 0.5451263785 4281352556
-0.3124390244 -0.1484427601 0.5444002151 4282271339
-0.3125063181 -0.1478697509 0.5445175171 4281942374
-0.3120888174 -0.1470679939 0.5437900424 4281614188
-0.3116708398 -0.1462676525 0.5430617332 4281811567
-0.3112524450 -0.1454687268 0.5423327088 4281550448
-0.3108336031 -0.1446712166 0.5416029096 4281484655
-0.3104143143 -0.1438751221 0.5408723354 4281746535
-0.3099946082 -0.1430804431 0.5401410460 4281483363
-0.3095744550 -0.1422871947 0.5394089222 4287460194
-0.3096391857 -0.1417175084 0.5395217538 4288183917
-0.3092182577 -0.1409262270 0.5387883186 4288642404
-0.3092824221 -0.1403567195 0.5389001369 4288576611
-0.3088607490 -0.1395674050 0.5381653905 4288314204
-0.3084386289 -0.1387795359 0.5374298692 4288314204
-0.3080160618 -0.1379930973 0.5366935730 4288445792
-0.3075930774 -0.1372081190 0.5359565616 4288643171
-0.3076556623 -0.1366404295 0.5360656381 4288577379
-0.3072319329 -0.1358574480 0.5353272557 4288314207
-0.3068077266 -0.1350758970 0.5345881581 4288248414
-0.3073557615 -0.1347221583 0.5355430841 4288248414
-0.3064444959 -0.1337294579 0.5339552760 4288314204
-0.3065056205 -0.1331627518 0.5340617895 4288116825
-0.3060799241 -0.1323852390 0.5333200097 4287985493
-0.3061404824 -0.1318187714 0.5334255695 4288314458
-0.3057140112 -0.1310432851 0.5326824784 4288643423
-0.3052871227 -0.1302692741 0.5319386125 4288511837
-0.3053467870 -0.1297035962 0.5320425630 4288445790
-0.3049191236 -0.1289316416 0.5312974453 4288379997
-0.3044910431 -0.1281611472 0.5305515528 4288314206
-0.3040625453 -0.1273921281 0.5298048854 4288314206
-0.3036336005 -0.1266245991 0.5290575027 4288380000
-0.3032042384 -0.1258585602 0.5283094049 4288511586
-0.3037495911 -0.1254968792 0.5292596221 4288249441
-0.3033195734 -0.1247320026 0.5285103321 4288446820
-0.3024013937 -0.1237689927 0.5269104838 4288510305
-0.3029461205 -0.1234054491 0.5278595686 4288510305
-0.3025149107 -0.1226441488 0.5271082520 4286869088
-0.3020833135 -0.1218843460 0.5263562202 4285290056
-0.3016512692 -0.1211260483 0.5256034732 4282472827
-0.3017070293 -0.1205643415 0.5257005692 4282407034
-0.3012742400 -0.1198081449 0.5249465108 4281948566
-0.3013294339 -0.1192467287 0.5250426531 4281948566
-0.3008958995 -0.1184926480 0.5242872834 4281555611
-0.3009505272 -0.1179315299 0.5243824124 4281489818
-0.3010048866 -0.1173701063 0.5244771838 4281949090
-0.3010590374 -0.1168083772 0.5245714784 4282541227
-0.3001352847 -0.1158689260 0.5229619741 4282476727
-0.2996998429 -0.1151206195 0.5222032666 4282410934
-0.2997530103 -0.1145607308 0.5222958922 4282476466
-0.2998059094 -0.1140005365 0.5223880410 4282476466
-0.2998585999 -0.1134400517 0.5224798322 4282410671
-0.2994217575 -0.1126951352 0.5217186809 4282410671
-0.2984952033 -0.1117685214 0.5201042295 4282410671
-0.2985468805 -0.1112099066 0.5201942921 4282410671
-0.2981088459 -0.1104696020 0.5194310546 4282344878
-0.2981599569 -0.1099113226 0.5195201039 4282344878
-0.2977211773 -0.1091731936 0.5187555552 4282213805
-0.2977717221 -0.1086152643 0.5188436508 4282345391
-0.2978220284 -0.1080570444 0.5189313293 4282279598
-0.2978721261 -0.1074985489 0.5190185905 4281950633
-0.2979219556 -0.1069397703 0.5191053748 4282213803
-0.2979715168 -0.1063807085 0.5191918015 4282148010
-0.2980208695 -0.1058213711 0.5192777514 4282148012
-0.2990504801 -0.1056080088 0.5210717320 4282148012
-0.2995898128 -0.1052184850 0.5220115185 4281884588
-0.3001290560 -0.1048268378 0.5229511261 4282213553
-0.3006682396 -0.1044330746 0.5238905549 4282212262
-0.3007167578 -0.1038677543 0.5239751339 4286028256
-0.3012556732 -0.1034706756 0.5249141455 4289905910
-0.3013037741 -0.1029038876 0.5249979496 4288326878
-0.3018424213 -0.1025034934 0.5259364843 4287273412
-0.3023809791 -0.1021009907 0.5268748999 4286549689
-0.3029194176 -0.1016963646 0.5278130770 4284904092
-0.3029667437 -0.1011257246 0.5278955698 4287075261
-0.3035049438 -0.1007177904 0.5288333297 4288521676
-0.3040430248 -0.1003077403 0.5297709107 4290100708
-0.3045810163 -0.0998955742 0.5307083130 4289378016
-0.3046275675 -0.0993210971 0.5307893753 4288785879
-0.3051652610 -0.0989056230 0.5317263007 4290494949
-0.3057028651 -0.0984880328 0.5326629877 4287600057
-0.3057487905 -0.0979109183 0.5327430367 4287468986
-0.3062860966 -0.0974900201 0.5336792469 4290363878
-0.3063315749 -0.0969114602 0.5337585211 4288390600
-0.3068685830 -0.0964872614 0.5346941948 4290232804
-0.3074054718 -0.0960609540 0.5356296897 4287667396
-0.3084341884 -0.0957852975 0.5374221206 4284575125
-0.3084789217 -0.0952019915 0.5375000834 4289180117
-0.3090154529 -0.0947693363 0.5384349823 4288785359
-0.3095518947 -0.0943345726 0.5393696427 4286218929
-0.3100881875 -0.0938976929 0.5403041244 4288719063
-0.3101321161 -0.0933105871 0.5403805971 4289180130
-0.3106680810 -0.0928704068 0.5413145423 4286614203
-0.3107115328 -0.0922818780 0.5413902402 4282930835
-0.3112471998 -0.0918384120 0.5423235893 4282799249
-0.3112902045 -0.0912484527 0.5423985124 4282406294
-0.3118255436 -0.0908016935 0.5433312654 4286288081
-0.3245955706 -0.1784430742 0.5666787624 4281483373
-0.3241954446 -0.1775942594 0.5659801960 4281746545
-0.3247542679 -0.1772704571 0.5669558048 4281483893
-0.3238736391 -0.1761615425 0.5654184222 4281418100
-0.3239521980 -0.1755758971 0.5655555725 4281287027
-0.3235504925 -0.1747305840 0.5648542047 4281221234
-0.3231483102 -0.1738865823 0.5641521215 4281549684
-0.3222654164 -0.1727863848 0.5626107454 4281615477
-0.3218622208 -0.1719458848 0.5619068742 4281549684
-0.3219390810 -0.1713624746 0.5620410442 4281549684
-0.3210544586 -0.1702688634 0.5604966879 4281877881
-0.3216113746 -0.1699403971 0.5614689589 4281877881
-0.3212065995 -0.1691034585 0.5607622862 4281877624
-0.3208013773 -0.1682678610 0.5600548387 4282009210
-0.3203956783 -0.1674335897 0.5593465567 4281877622
-0.3195083737 -0.1663501412 0.5577974916 4281746036
-0.3191016614 -0.1655194312 0.5570874810 4281548909
-0.3186945021 -0.1646900624 0.5563766956 4282338425
-0.3182868958 -0.1638620347 0.5556650758 4284509334
-0.3178788424 -0.1630353779 0.5549526811 4285167264
-0.3174703419 -0.1622100621 0.5542395115 4286088364
-0.3170613945 -0.1613861024 0.5535256267 4287272638
-0.3166520000 -0.1605634987 0.5528108478 4287138993
-0.3162421584 -0.1597422659 0.5520953536 4287073200
-0.3163140714 -0.1591650248 0.5522208810 4286876334
-0.3159034252 -0.1583456546 0.5515040159 4286415783
-0.3154923618 -0.1575276405 0.5507863760 4285232024
-0.3155633509 -0.1569509804 0.5509102941 4284113543
-0.3151515126 -0.1561348289 0.5501912832 4282665845
-0.3147391975 -0.1553200632 0.5494714975 4282336880
-0.3143264651 -0.1545066833 0.5487509370 4282008177
-0.3139132559 -0.1536946744 0.5480295420 4281810798
-0.3139826953 -0.1531196386 0.5481507778 4281679212
-0.3135687113 -0.1523095220 0.5474280715 4282073970
-0.3131543100 -0.1515008062 0.5467045903 4281746028
-0.3127394617 -0.1506934762 0.5459803343 4281746028
-0.3128076196 -0.1501195729 0.5460993648 4281614951
-0.3123919964 -0.1493141651 0.5453737378 4282207088
-0.3119759262 -0.1485101432 0.5446473956 4283650935
-0.3120431900 -0.1479368955 0.5447648168 4283519349
-0.3116263449 -0.1471348107 0.5440371037 4283059828
