VERSION 0.7
FIELDS x y z rgba
SIZE 4 4 4 4
TYPE F F F U
COUNT 1 1 1 1
WIDTH 920
HEIGHT 1
VIEWPOINT 0.0 0.0 0.0 1.0 0.0 0.0 0.0
POINTS 920
DATA ascii
-0.3000011444 -0.1218024269 0.5415943861 4290625996
-0.3000562489 -0.1212229431 0.5416938663 4290560203
-0.3001110852 -0.1206431389 0.5417929292 4290560203
-0.3001657128 -0.1200630143 0.5418915153 4290428617
-0.3002201021 -0.1194825694 0.5419896841 4290231238
-0.3002742231 -0.1189018190 0.5420873761 4290362822
-0.3003281057 -0.1183207482 0.5421847105 4290428615
-0.3003817499 -0.1177393645 0.5422815084 4290428617
-0.3004351556 -0.1171576753 0.5423778892 4290560203
-0.3004882932 -0.1165756732 0.5424738526 4290494408
-0.3005411923 -0.1159933656 0.5425693989 4290625994
-0.3005938530 -0.1154107526 0.5426644683 4290494151
-0.3006462753 -0.1148278266 0.5427590609 4290691530
-0.3006984293 -0.1142446026 0.5428532362 4290559944
-0.3007503450 -0.1136610731 0.5429469347 4290559944
-0.3008020222 -0.1130772457 0.5430402160 4290625737
-0.3013302088 -0.1126713902 0.5439938307 4290625737
-0.3013814688 -0.1120860353 0.5440863371 4290625737
-0.3014324605 -0.1115003824 0.5441784263 4290625737
-0.3014832139 -0.1109144315 0.5442700386 4290756551
-0.3020108342 -0.1105027571 0.5452225208 4290756551
-0.3020611703 -0.1099152863 0.5453133583 4290560203
-0.3025885224 -0.1095002443 0.5462654233 4290494410
-0.3026384115 -0.1089112610 0.5463554859 4290690760
-0.3026880622 -0.1083219871 0.5464451313 4290690760
-0.3027374744 -0.1077324301 0.5465342999 4290756294
-0.3027866185 -0.1071425825 0.5466230512 4290756294
-0.3033131659 -0.1067205071 0.5475736260 4290690758
-0.3033618629 -0.1061291546 0.5476615429 4290690758
-0.3034103215 -0.1055375189 0.5477490425 4290625737
-0.3029806316 -0.1047803313 0.5469733477 4290559944
-0.3030285239 -0.1041890681 0.5470597148 4290756292
-0.3030761182 -0.1035975218 0.5471457243 4290690499
-0.3036015928 -0.1031681672 0.5480943322 4290360243
-0.3036487699 -0.1025751308 0.5481795073 4289241762
-0.3032174408 -0.1018212140 0.5474007726 4289569438
-0.3032640219 -0.1012285650 0.5474848747 4289635231
-0.3033103347 -0.1006356403 0.5475685596 4290159760
-0.3038348854 -0.1002002433 0.5485154986 4290357139
-0.3038807809 -0.0996058434 0.5485983491 4290752154
-0.3039264083 -0.0990111753 0.5486807227 4290752154
-0.3039717674 -0.0984162390 0.5487626195 4290291344
-0.3040168881 -0.0978210345 0.5488440394 4290159758
-0.3040617108 -0.0972255692 0.5489249825 4290356621
-0.3045852184 -0.0967820138 0.5498700738 4290290828
-0.3046295941 -0.0961850882 0.5499501824 4290225035
-0.3046737313 -0.0955879018 0.5500298738 4290159242
-0.3047176003 -0.0949904546 0.5501090884 4290159241
-0.3047612011 -0.0943927467 0.5501878262 4290093448
-0.3048045635 -0.0937947854 0.5502660275 4290158728
-0.3048476279 -0.0931965709 0.5503438115 4290158728
-0.3048904538 -0.0925981030 0.5504211187 4290093189
-0.3049330115 -0.0919993892 0.5504979491 4290093189
-0.3049753010 -0.0914004147 0.5505743027 4289961860
-0.3050173223 -0.0908012018 0.5506501198 4290027653
-0.3050590754 -0.0902017355 0.5507255197 4290027647
-0.3055802882 -0.0897429064 0.5516664982 4290027647
-0.3056215644 -0.0891420096 0.5517410040 4290027394
-0.3056626022 -0.0885408744 0.5518150926 4289895808
-0.3061832786 -0.0880775452 0.5527550578 4289764475
-0.3062238395 -0.0874749795 0.5528282523 4289764475
-0.3062641025 -0.0868721753 0.5529010296 4290026618
-0.3063041270 -0.0862691328 0.5529732704 4290092411
-0.3063438833 -0.0856658593 0.5530450344 4290418812
-0.3059031367 -0.0849290192 0.5522493124 4290155640
-0.3059422970 -0.0843262225 0.5523200035 4289760615
-0.3059811890 -0.0837231949 0.5523902178 4287523653
-0.3065001965 -0.0832504258 0.5533272028 4287982670
-0.3065386117 -0.0826459900 0.5533965230 4289824874
-0.3065767288 -0.0820413306 0.5534653664 4289826157
-0.3066146076 -0.0814364478 0.5535337329 4289497192
-0.3066521883 -0.0808313414 0.5536016226 4288776826
-0.3066895008 -0.0802260116 0.5536689758 4289303170
-0.3072073162 -0.0797452629 0.5546037555 4290621875
-0.3077249825 -0.0792623907 0.5555382967 4291345598
-0.3077616096 -0.0786545128 0.5556043983 4290559690
-0.3073170185 -0.0779244602 0.5548018217 4286283145
-0.3073530197 -0.0773170963 0.5548667908 4283328665
-0.3073887527 -0.0767095163 0.5549313426 4283657630
-0.3003928363 -0.1632612646 0.5433911085 4282738850
-0.2981245220 -0.1614292562 0.5392878652 4283330987
-0.2963229716 -0.1598581821 0.5360289812 4282409885
-0.2954567969 -0.1587970853 0.5344621539 4289178550
-0.2950583100 -0.1579898894 0.5337412953 4290165445
-0.2946594059 -0.1571840644 0.5330197215 4290231236
-0.2942600548 -0.1563796252 0.5322973132 4290165443
-0.2938602865 -0.1555765420 0.5315741301 4290362824
-0.2939288616 -0.1550220996 0.5316981673 4290362824
-0.2935283482 -0.1542209089 0.5309736729 4289836481
-0.2935963869 -0.1536665708 0.5310967565 4288981172
-0.2936642170 -0.1531118453 0.5312194228 4289639102
-0.2937318087 -0.1525567323 0.5313417315 4289310137
-0.2937992215 -0.1520012468 0.5314636827 4289441723
-0.2943358421 -0.1516873091 0.5324344039 4289112758
-0.2944029272 -0.1511301696 0.5325556993 4289573055
-0.2944697738 -0.1505726427 0.5326766372 4289244090
-0.2946028411 -0.1494564712 0.5329173803 4288059816
-0.2947350442 -0.1483387798 0.5331565142 4290033606
-0.2948008180 -0.1477793753 0.5332754850 4288980918
-0.2948663533 -0.1472195983 0.5333940387 4289244090
-0.2949316800 -0.1466594487 0.5335122347 4290033608
-0.2949967980 -0.1460989267 0.5336300135 4289112506
-0.2950616777 -0.1455380321 0.5337473750 4289310653
-0.2951263487 -0.1449767649 0.5338643789 4289047481
-0.2956615984 -0.1446454525 0.5348325968 4288586160
-0.2957259417 -0.1440825611 0.5349489450 4289244090
-0.2957900465 -0.1435192972 0.5350649357 4289639102
-0.2958539128 -0.1429556757 0.5351804495 4289573309
-0.2959175706 -0.1423916817 0.5352956057 4289507516
-0.2959809899 -0.1418273151 0.5354103446 4290033860
-0.2965156138 -0.1414875388 0.5363774300 4290297032
-0.2965787053 -0.1409215629 0.5364915729 4290494411
-0.2966415584 -0.1403552145 0.5366052389 4290362312
-0.2967041731 -0.1397885233 0.5367185473 4290428105
-0.2967665792 -0.1392214596 0.5368314385 4290493898
-0.2968287468 -0.1386540383 0.5369439125 4290362312
-0.2968907058 -0.1380862743 0.5370559692 4290493897
-0.2969524264 -0.1375181526 0.5371676087 4290428104
-0.2970139086 -0.1369496584 0.5372788310 4290297031
-0.2970751524 -0.1363808364 0.5373896360 4290428617
-0.2971361876 -0.1358116418 0.5375000238 4290559690
-0.2971969843 -0.1352421194 0.5376099944 4290559690
-0.2972575426 -0.1346722245 0.5377195477 4290428104
-0.2973178923 -0.1341020018 0.5378287435 4290493897
-0.2973780036 -0.1335314214 0.5379374623 4290362824
-0.2974378765 -0.1329604983 0.5380457640 4290494410
-0.2974975109 -0.1323892325 0.5381536484 4290297031
-0.2975569069 -0.1318176240 0.5382611156 4290625996
-0.2976160944 -0.1312456727 0.5383681059 4290428104
-0.2976750135 -0.1306733787 0.5384747386 4290625483
-0.2977337241 -0.1301007420 0.5385809541 4290625483
-0.2977921963 -0.1295277774 0.5386866927 4290625483
-0.2978504300 -0.1289544702 0.5387920737 4290494410
-0.2979084253 -0.1283808202 0.5388969779 4290428617
-0.2979661822 -0.1278068423 0.5390014648 4290428615
-0.2980237007 -0.1272325367 0.5391055346 4290428615
-0.2980810106 -0.1266578883 0.5392091274 4290494151
-0.2981380522 -0.1260829270 0.5393123627 4290625737
-0.2986689508 -0.1257071495 0.5402727127 4290691530
-0.2987256050 -0.1251306087 0.5403751731 4290691530
-0.2987820208 -0.1245537326 0.5404772758 4290494408
-0.2988382280 -0.1239765361 0.5405789018 4290560201
-0.2993685901 -0.1235948801 0.5415382981 4290362824
-0.2994243801 -0.1230161190 0.5416392684 4290625996
-0.2994799316 -0.1224370301 0.5417397022 4290691530
-0.2995352447 -0.1218576208 0.5418397784 4290757323
-0.2995903194 -0.1212778836 0.5419393778 4290494408
-0.2996451557 -0.1206978410 0.5420385599 4290428615
-0.2996997237 -0.1201174706 0.5421373248 4290691789
-0.2997540832 -0.1195367873 0.5422356129 4290625996
-0.2998081744 -0.1189557835 0.5423334837 4290428356
-0.2998620272 -0.1183744743 0.5424308777 4290559942
-0.2999156117 -0.1177928522 0.5425278544 4290428615
-0.2999689877 -0.1172109097 0.5426243544 4290362822
-0.3000220954 -0.1166286692 0.5427204370 4290428615
-0.3000749648 -0.1160461083 0.5428161025 4290823373
-0.3001275957 -0.1154632494 0.5429112911 4290494149
-0.3001799583 -0.1148800775 0.5430060625 4290691528
-0.3002321124 -0.1142966077 0.5431003571 4290625735
-0.3002839684 -0.1137128323 0.5431941748 4290625735
-0.3003356159 -0.1131287515 0.5432875752 4290625737
-0.3003869951 -0.1125443727 0.5433805585 4290559944
-0.3009142578 -0.1121371239 0.5443343520 4290559944
-0.3009652495 -0.1115512252 0.5444265604 4290559944
-0.3010159433 -0.1109650210 0.5445182920 4290690758
-0.3010664284 -0.1103785262 0.5446095467 4290690758
-0.3011166453 -0.1097917408 0.5447003841 4290363594
-0.3011666238 -0.1092046574 0.5447908044 4290363594
-0.3016929328 -0.1087891459 0.5457428694 4290559944
-0.3017424643 -0.1082005501 0.5458325148 4290625737
-0.3017917573 -0.1076116636 0.5459216833 4290756551
-0.3023176491 -0.1071915627 0.5468729138 4290690758
-0.3023664951 -0.1066011786 0.5469613075 4290559942
-0.3024151027 -0.1060105041 0.5470492244 4290691528
-0.3024634421 -0.1054195389 0.5471367240 4290691787
-0.3025115430 -0.1048282981 0.5472236872 4290625994
-0.3025594056 -0.1042367741 0.5473102331 4290691012
-0.3026069701 -0.1036449745 0.5473963022 4290559426
-0.3026542962 -0.1030528918 0.5474819541 4290228657
-0.3027013838 -0.1024605334 0.5475670695 4289241762
-0.3027482033 -0.1018678993 0.5476517677 4289569438
-0.3027947545 -0.1012749895 0.5477359891 4289635231
-0.3028410375 -0.1006818116 0.5478197336 4290225553
-0.3028870821 -0.1000883579 0.5479030609 4290488725
-0.3029328585 -0.0994946361 0.5479858518 4290817947
-0.3029783964 -0.0989006460 0.5480682254 4290752154
-0.3030236661 -0.0983063877 0.5481500626 4290225551
-0.3035466969 -0.0978659838 0.5490962267 4290028172
-0.3035915196 -0.0972702578 0.5491772890 4290422160
-0.3041142225 -0.0968265086 0.5501228571 4290224781
-0.3041585982 -0.0962293223 0.5502030849 4290093449
-0.3042027056 -0.0956318676 0.5502828956 4290093449
-0.3042465448 -0.0950341597 0.5503621697 4290093448
-0.3042901158 -0.0944361910 0.5504410267 4290093448
-0.3043334484 -0.0938379690 0.5505194068 4290093189
-0.3043764830 -0.0932394937 0.5505972505 4290093189
-0.3044192791 -0.0926407576 0.5506746769 4290224005
-0.3044618070 -0.0920417756 0.5507515669 4290224005
-0.3045040667 -0.0914425477 0.5508280396 4289961601
-0.3045460582 -0.0908430591 0.5509040356 4289895808
-0.3045878112 -0.0902433321 0.5509794950 4289896059
-0.3051082492 -0.0897843093 0.5519209504 4289830266
-0.3051494956 -0.0891831443 0.5519955754 4289764220
-0.3051905036 -0.0885817409 0.5520697832 4289698427
-0.3057104051 -0.0881182030 0.5530102253 4289763703
-0.3057509363 -0.0875153765 0.5530835390 4289697910
-0.3057911992 -0.0869123042 0.5531563759 4289894517
-0.3058311939 -0.0863089934 0.5532287359 4290091896
-0.3058709204 -0.0857054442 0.5533006191 4290418551
-0.3059103787 -0.0851016641 0.5533719659 4290023793
-0.3054700196 -0.0843652114 0.5525754094 4289562464
-0.3059884906 -0.0838934109 0.5535132885 4287522881
-0.3060271442 -0.0832889378 0.5535832047 4288047947
-0.3060655296 -0.0826842338 0.5536525846 4289561186
-0.3061036170 -0.0820793062 0.5537215471 4290154604
-0.3061414659 -0.0814741477 0.5537899733 4289694053
-0.3061790466 -0.0808687732 0.5538579822 4288842619
-0.3062163293 -0.0802631751 0.5539254546 4289500549
-0.3072133958 -0.0799070597 0.5557290316 4290819256
-0.3072502613 -0.0792991221 0.5557957292 4291542979
-0.3072868586 -0.0786909685 0.5558619499 4290691277
-0.3073231876 -0.0780825913 0.5559276342 4286085767
-0.3068789840 -0.0773529485 0.5551241040 4283394713
-0.3069147170 -0.0767451003 0.5551887751 4283328920
-0.3031186163 -0.1656848043 0.5494257212 4282673314
-0.3022569716 -0.1646051109 0.5478639007 4282936486
-0.2962546051 -0.1607396603 0.5369841456 4282871714
-0.3014664650 -0.1629603654 0.5464310646 4282213784
-0.2987330258 -0.1608811617 0.5414765477 4288850104
-0.2950628400 -0.1583103836 0.5348240137 4290100171
-0.2946647406 -0.1575033516 0.5341024399 4290428618
-0.2942661941 -0.1566976905 0.5333800316 4290231239
-0.2938672006 -0.1558934152 0.5326568484 4290165962
-0.2939358652 -0.1553378701 0.5327812433 4290100169
-0.2935361266 -0.1545354724 0.5320566893 4290099652
-0.2931359410 -0.1537344605 0.5313313603 4290428617
-0.2936721146 -0.1534242183 0.5323032141 4290428104
-0.2932713032 -0.1526242048 0.5315766931 4290230725
-0.2933386564 -0.1520684958 0.5316987634 4290493897
-0.2934058011 -0.1515124142 0.5318204761 4290559690
-0.2939415276 -0.1511970907 0.5327915549 4290494410
-0.2940083444 -0.1506393552 0.5329126120 4290362824
-0.2945439517 -0.1503206044 0.5338835120 4290428617
-0.2941413224 -0.1495227367 0.5331536531 4289573308
-0.2942074835 -0.1489638686 0.5332735777 4289968067
-0.2942734063 -0.1484046131 0.5333931446 4290625997
-0.2943391502 -0.1478449851 0.5335122347 4290362825
-0.2944046557 -0.1472849995 0.5336309671 4290099653
-0.2944699526 -0.1467246264 0.5337493420 4290363339
-0.2945350111 -0.1461638808 0.5338672400 4290034374
-0.2945998609 -0.1456027627 0.5339847803 4290362312
-0.2946644723 -0.1450412720 0.5341019630 4290362312
-0.2951989472 -0.1447098553 0.5350707173 4290428105
-0.2952632308 -0.1441467255 0.5351871848 4290428105
-0.2953272760 -0.1435832381 0.5353032947 4290493898
-0.2953911126 -0.1430193931 0.5354190469 4290493898
-0.2954547405 -0.1424551755 0.5355343223 4289901761
-0.2955181301 -0.1418906003 0.5356492400 4290428105
-0.2960519493 -0.1415506899 0.5366168618 4290428105
-0.2961149812 -0.1409844905 0.5367311239 4290362312
-0.2961778045 -0.1404179186 0.5368449688 4290428105
-0.2962403893 -0.1398509890 0.5369583964 4290362312
-0.2963027358 -0.1392837018 0.5370714664 4290230726
-0.2963648736 -0.1387160569 0.5371840596 4290362312
-0.2964267731 -0.1381480545 0.5372962356 4290230726
-0.2964884639 -0.1375797093 0.5374080539 4290362312
-0.2965499163 -0.1370109916 0.5375194550 4290493898
-0.2966111302 -0.1364419311 0.5376303792 4290296519
-0.2966721058 -0.1358725131 0.5377409458 4290296519
-0.2967328727 -0.1353027523 0.5378510356 4290362312
-0.2967934012 -0.1347326338 0.5379607677 4290296519
-0.2968536913 -0.1341621727 0.5380700827 4290493898
-0.2969137430 -0.1335913688 0.5381789207 4290230726
-0.2969735861 -0.1330202073 0.5382874012 4290493898
-0.2970331907 -0.1324487180 0.5383954048 4290428104
-0.2970925570 -0.1318768710 0.5385030508 4290428104
-0.2971516848 -0.1313046813 0.5386102200 4290493897
-0.2972106040 -0.1307321638 0.5387169719 4290428104
-0.2977418602 -0.1303662211 0.5396799445 4290428358
-0.2973276973 -0.1295860857 0.5389292240 4290494151
-0.2978586853 -0.1292176545 0.5398916602 4290494151
-0.2979167104 -0.1286428571 0.5399968624 4290362565
-0.2979745269 -0.1280677319 0.5401017070 4290428104
-0.2980321050 -0.1274922788 0.5402060747 4290428104
-0.2980894744 -0.1269164830 0.5403099656 4290625483
-0.2981465757 -0.1263403594 0.5404134989 4290493897
-0.2982034385 -0.1257638931 0.5405165553 4290428104
-0.2982600629 -0.1251871139 0.5406191945 4290691276
-0.2987899482 -0.1248077974 0.5415797234 4290559690
-0.2988462150 -0.1242294386 0.5416816473 4290493897
-0.2989021838 -0.1236507595 0.5417831540 4290428358
-0.2989579439 -0.1230717525 0.5418841839 4290428358
-0.2990134656 -0.1224924177 0.5419847965 4290757580
-0.2990687490 -0.1219127700 0.5420849919 4290560201
-0.2991237640 -0.1213327944 0.5421847701 4290494408
-0.2991785705 -0.1207525060 0.5422840714 4290428615
-0.2992331088 -0.1201718971 0.5423829556 4290362822
-0.2997617126 -0.1197804958 0.5433411002 4290560201
-0.2998158634 -0.1191983297 0.5434392095 4290494151
-0.2998697758 -0.1186158508 0.5435369611 4290559944
-0.2999234200 -0.1180330589 0.5436341763 4290559944
-0.2999768257 -0.1174499542 0.5437310338 4290559944
-0.2995552719 -0.1166816205 0.5429669023 4290559944
-0.2996081114 -0.1160988212 0.5430626273 4290625737
-0.2996607125 -0.1155157089 0.5431579947 4290625737
-0.2997130454 -0.1149322987 0.5432528257 4290559944
-0.2997651398 -0.1143485755 0.5433472991 4290559944
-0.2998169959 -0.1137645543 0.5434412360 4290559944
-0.2998685837 -0.1131802276 0.5435348153 4290559944
-0.2999199331 -0.1125956029 0.5436278582 4290559944
-0.3004464209 -0.1121881828 0.5445821881 4290625737
-0.3004973829 -0.1116020307 0.5446745157 4290625737
-0.3005480468 -0.1110155806 0.5447663665 4290625737
-0.3010741174 -0.1106035635 0.5457199216 4290625737
-0.3011243939 -0.1100155935 0.5458109975 4290756553
-0.3016501963 -0.1096002012 0.5467640758 4290756553
-0.3017000258 -0.1090107188 0.5468544364 4290756805
-0.3017496169 -0.1084209383 0.5469443202 4290756805
-0.3017989397 -0.1078308746 0.5470337272 4290756551
-0.3018480241 -0.1072405204 0.5471227169 4290756551
-0.3018968701 -0.1066498756 0.5472111702 4290559690
-0.3019454479 -0.1060589477 0.5472992659 4290559690
-0.3019937575 -0.1054677293 0.5473868251 4290494410
-0.3020418286 -0.1048762351 0.5474739671 4290560203
-0.3020896316 -0.1042844579 0.5475605726 4290822598
-0.3021371961 -0.1036923975 0.5476468205 4290756805
-0.3021844923 -0.1031000614 0.5477325320 4290359726
-0.3022315204 -0.1025074422 0.5478177667 4289372831
-0.3022783101 -0.1019145548 0.5479025841 4289831065
-0.3023248315 -0.1013213918 0.5479869246 4289962651
-0.3023711145 -0.1007279530 0.5480707884 4290160019
-0.3028941154 -0.1002921760 0.5490188003 4290423191
-0.3029399514 -0.0996972620 0.5491018295 4290883744
-0.3029855192 -0.0991020724 0.5491844416 4290817951
-0.3030308187 -0.0985066220 0.5492665768 4290225299
-0.3030758798 -0.0979108959 0.5493482351 4289962127
-0.3031206429 -0.0973149091 0.5494294167 4290224781
-0.3036426008 -0.0968709737 0.5503754616 4290224781
-0.3036869466 -0.0962735265 0.5504558682 4290158729
-0.3037310243 -0.0956758112 0.5505357385 4290224522
-0.3042524755 -0.0952273384 0.5514808893 4290224522
-0.3042960763 -0.0946281627 0.5515599847 4290224522
-0.3043394387 -0.0940287411 0.5516385436 4290355593
-0.3043825328 -0.0934290513 0.5517166853 4290224007
-0.3044253588 -0.0928291157 0.5517942905 4290157699
-0.3044679463 -0.0922289267 0.5518714786 4290091906
-0.3045102358 -0.0916284919 0.5519481301 4290289026
-0.3045522571 -0.0910277963 0.5520243049 4290025854
-0.3045940399 -0.0904268622 0.5521000624 4289960061
-0.3046355546 -0.0898256749 0.5521752834 4290025854
-0.3046768010 -0.0892242491 0.5522500277 4289894266
-0.3047177494 -0.0886225775 0.5523242950 4289894266
-0.3052369058 -0.0881588459 0.5532652736 4289763192
-0.3052774072 -0.0875557438 0.5533387065 4289631606
-0.3053176403 -0.0869524032 0.5534116030 4290025333
-0.3053576052 -0.0863488242 0.5534840822 4289630575
-0.3053973019 -0.0857450143 0.5535560250 4290287219
-0.3049580157 -0.0850075111 0.5527597666 4289892461
-0.3054759204 -0.0845366791 0.5536984801 4289365088
-0.3055148125 -0.0839321688 0.5537689924 4287259712
-0.3055534363 -0.0833274275 0.5538390279 4287785543
-0.3055917919 -0.0827224553 0.5539085269 4289627747
-0.3056298792 -0.0821172521 0.5539775491 4290088046
-0.3056676984 -0.0815118328 0.5540460944 4289430116
-0.3057052195 -0.0809061825 0.5541141629 4288973182
-0.3062217236 -0.0804261714 0.5550503731 4290025870
-0.3067380786 -0.0799440444 0.5559862256 4290361021
-0.3062955737 -0.0792118683 0.5551841855 4291150537
-0.3063320816 -0.0786043927 0.5552504063 4290821833
-0.3063683510 -0.0779966936 0.5553160906 4285953151
-0.3064043224 -0.0773887858 0.5553812981 4282607775
-0.3064399958 -0.0767806619 0.5554459691 4283068326
-0.3017085493 -0.1652467400 0.5479730368 4282739107
-0.3031802475 -0.1654409766 0.5506460071 4282936486
-0.2990539074 -0.1625858098 0.5431515574 4282739358
-0.2963252962 -0.1605043709 0.5381957293 4282673565
-0.2982627749 -0.1609519273 0.5417146683 4289178299
-0.2950652838 -0.1586310416 0.5359073281 4289902022
-0.2942009866 -0.1575726867 0.5343375802 4290165446
-0.2938031256 -0.1567667127 0.5336149335 4290297032
-0.2934048474 -0.1559621245 0.5328915715 4290428364
-0.2934734225 -0.1554063559 0.5330161452 4290165192
-0.2930743992 -0.1546036303 0.5322914124 4289902273
-0.2931424379 -0.1540479809 0.5324149728 4290231238
-0.2932102978 -0.1534919441 0.5325382352 4290164932
-0.2932779193 -0.1529355347 0.5326610208 4290230725
-0.2933453321 -0.1523787230 0.5327835083 4290296518
-0.2934125364 -0.1518215388 0.5329055190 4290099139
-0.2934795320 -0.1512639672 0.5330271721 4289902273
-0.2940144539 -0.1509463638 0.5339987874 4290165445
-0.2940811217 -0.1503871381 0.5341198444 4289836481
-0.2941475511 -0.1498275399 0.5342404842 4290099653
-0.2942137718 -0.1492675543 0.5343607664 4290625997
-0.2942797840 -0.1487071961 0.5344806314 4290428618
-0.2943455577 -0.1481464654 0.5346001387 4290033860
-0.2939423323 -0.1473503411 0.5338677764 4290428618
-0.2940075696 -0.1467897445 0.5339862704 4290362825
-0.2945415974 -0.1464620084 0.5349562168 4290165446
-0.2946065068 -0.1458997726 0.5350740552 4290297031
-0.2946712077 -0.1453371793 0.5351915359 4290099652
-0.2947356701 -0.1447741985 0.5353085995 4290231238
-0.2947998941 -0.1442108601 0.5354253054 4290362824
-0.2948639095 -0.1436471492 0.5355415940 4290231239
-0.2949277163 -0.1430830657 0.5356574059 4290165446
-0.2954609990 -0.1427455693 0.5366260409 4290296519
-0.2955244482 -0.1421798617 0.5367412567 4290296519
-0.2955876589 -0.1416137964 0.5368561149 4290164933
-0.2956506610 -0.1410473585 0.5369704962 4290296519
-0.2957134247 -0.1404805779 0.5370845199 4290296519
-0.2957759798 -0.1399134248 0.5371981263 4290493898
-0.2958382964 -0.1393458992 0.5373113155 4290493898
-0.2959004045 -0.1387780309 0.5374240279 4290428105
-0.2959622443 -0.1382098049 0.5375363827 4290428105
-0.2960238755 -0.1376412213 0.5376483798 4290362312
-0.2960852981 -0.1370722800 0.5377599001 4290297032
-0.2961464822 -0.1365029961 0.5378710032 4290428618
-0.2962074280 -0.1359333545 0.5379816890 4290625996
-0.2962681353 -0.1353633553 0.5380919576 4290428617
-0.2963286042 -0.1347930133 0.5382018089 4290297031
-0.2963888645 -0.1342223138 0.5383112431 4290494410
-0.2964488864 -0.1336512715 0.5384202600 4290362824
-0.2965086997 -0.1330798864 0.5385288596 4290297031
-0.2965682447 -0.1325081587 0.5386370420 4290493897
-0.2966275811 -0.1319360733 0.5387448072 4290493897
-0.2966866791 -0.1313636601 0.5388520956 4290494151
-0.2967455387 -0.1307909042 0.5389590263 4290494151
-0.2972760201 -0.1304248273 0.5399225354 4290559944
-0.2968625426 -0.1296443641 0.5391715765 4290625737
-0.2973927557 -0.1292757839 0.5401345491 4290559944
-0.2974507809 -0.1287007481 0.5402399302 4290428358
-0.2975085378 -0.1281253844 0.5403448343 4290757069
-0.2975660861 -0.1275496930 0.5404493213 4290691276
-0.2976233959 -0.1269736588 0.5405534506 4290625483
-0.2976804674 -0.1263972968 0.5406570435 4290428104
-0.2977372706 -0.1258206069 0.5407602787 4290757323
-0.2982665598 -0.1254423857 0.5417215824 4290559944
-0.2983230054 -0.1248641163 0.5418241024 4290625737
-0.2983792126 -0.1242855191 0.5419261456 4290494151
-0.2984351516 -0.1237065941 0.5420277715 4290494408
-0.2984908819 -0.1231273487 0.5421289802 4290362822
-0.2985463738 -0.1225477755 0.5422297716 4290428615
-0.2986015975 -0.1219678819 0.5423300862 4290428615
-0.2986565828 -0.1213876680 0.5424299836 4290494408
-0.2987113595 -0.1208071336 0.5425294042 4290823373
-0.2992393374 -0.1204168126 0.5434883833 4290625994
-0.2992936969 -0.1198347211 0.5435870886 4290494408
-0.2993478179 -0.1192523167 0.5436853766 4290428615
-0.2994016707 -0.1186695918 0.5437831879 4290494408
-0.2994552851 -0.1180865541 0.5438805819 4290494408
-0.2995086610 -0.1175032035 0.5439775586 4290494408
-0.2995617986 -0.1169195399 0.5440739989 4290494408
-0.2991406024 -0.1161514968 0.5433090329 4290494408
-0.2991931736 -0.1155681461 0.5434045196 4290625737
-0.2992454767 -0.1149844825 0.5434995294 4290625737
-0.2992975414 -0.1144005135 0.5435940623 4290625737
-0.2993493378 -0.1138162389 0.5436881781 4290625737
-0.2994009256 -0.1132316664 0.5437818170 4290625737
-0.2994522452 -0.1126467958 0.5438750386 4290625737
-0.2999779582 -0.1122392118 0.5448298454 4290625737
-0.3000288606 -0.1116528064 0.5449222922 4290625737
-0.3000795245 -0.1110661104 0.5450143218 4290559944
-0.3006047904 -0.1106539220 0.5459683537 4290559944
-0.3006550372 -0.1100656986 0.5460596085 4290559944
-0.3011800647 -0.1096501350 0.5470131636 4290559944
-0.3012298644 -0.1090603992 0.5471036434 4290690758
-0.3012794256 -0.1084703654 0.5471936464 4290690758
-0.3013287187 -0.1078800485 0.5472831726 4290756551
-0.3013777733 -0.1072894409 0.5473722816 4290756551
-0.3014265895 -0.1066985428 0.5474609137 4290560201
-0.3014751077 -0.1061073616 0.5475490689 4290560201
-0.3015234172 -0.1055158898 0.5476367474 4290560203
-0.3015714288 -0.1049241424 0.5477240086 4290560203
-0.3016192317 -0.1043321043 0.5478107929 4290756804
-0.3016667366 -0.1037397906 0.5478971004 4290691011
-0.3017140031 -0.1031472012 0.5479829311 4290359726
-0.3017610312 -0.1025543287 0.5480683446 4289438624
-0.3018077910 -0.1019611806 0.5481532216 4289766041
-0.3018542826 -0.1013677567 0.5482376814 4289831834
-0.3019005060 -0.1007740572 0.5483216643 4290225299
-0.3024227619 -0.1003381014 0.5492702127 4290488471
-0.3024685383 -0.0997429267 0.5493533611 4290949022
-0.3025140762 -0.0991474837 0.5494360924 4290883229
-0.3025593758 -0.0985517651 0.5495182872 4290225299
-0.3026043773 -0.0979557857 0.5496000648 4289896334
-0.3026491404 -0.0973595381 0.5496813655 4290224524
-0.3031703234 -0.0969154164 0.5506279469 4290290317
-0.3032146394 -0.0963177010 0.5507084131 4290355338
-0.3032586873 -0.0957197249 0.5507884622 4290289545
-0.3037793636 -0.0952710584 0.5517340899 4290289800
-0.3038229644 -0.0946716219 0.5518133044 4290224007
-0.3038662970 -0.0940719321 0.5518919826 4290289285
-0.3039093614 -0.0934719890 0.5519701838 4290289285
-0.3039521575 -0.0928717852 0.5520479083 4290289026
-0.3039946854 -0.0922713354 0.5521252155 4290223233
-0.3040369749 -0.0916706324 0.5522019863 4290222716
-0.3040789664 -0.0910696760 0.5522782803 4290025337
-0.3041207194 -0.0904684737 0.5523540974 4289893749
-0.3041622043 -0.0898670256 0.5524294376 4289893749
-0.3042034209 -0.0892653316 0.5525043011 4289893749
-0.3042443693 -0.0886633918 0.5525786281 4289893749
-0.3047627211 -0.0881994516 0.5535201430 4289894001
-0.3048032224 -0.0875960886 0.5535936356 4289828208
-0.3048434258 -0.0869924799 0.5536667109 4289959279
-0.3048833609 -0.0863886327 0.5537392497 4289827693
-0.3049230278 -0.0857845545 0.5538113117 4290221166
-0.3049624562 -0.0851802379 0.5538828969 4289694822
-0.3045235276 -0.0844431221 0.5530856848 4289299035
-0.3050404489 -0.0839709044 0.5540245771 4287193659
-0.3055572510 -0.0834965557 0.5549631715 4287785026
-0.3055956364 -0.0828903690 0.5550328493 4289824609
-0.3056337535 -0.0822839513 0.5551021099 4290021737
-0.3056716025 -0.0816773027 0.5551708341 4289363807
-0.3057091832 -0.0810704380 0.5552391410 4288841851
-0.3057464957 -0.0804633424 0.5553068519 4290091918
-0.3062620759 -0.0799809992 0.5562433004 4290427069
-0.3062988818 -0.0793725178 0.5563101768 4291150792
-0.3058567941 -0.0786407441 0.5555071831 4290821833
-0.3058930039 -0.0780327767 0.5555729866 4285755772
-0.3059289753 -0.0774245933 0.5556382537 4282410394
-0.3059646487 -0.0768162012 0.5557031035 4283002531
-0.3036327958 -0.1660228372 0.5525826216 4282936486
-0.2957867980 -0.1611346453 0.5383036137 4283002273
-0.2945296764 -0.1592586935 0.5360158086 4289506751
-0.2936672270 -0.1581985503 0.5344462395 4290098888
-0.2932703793 -0.1573917568 0.5337240100 4290362312
-0.2928731143 -0.1565863490 0.5330010056 4290362312
-0.2929418683 -0.1560307741 0.5331261158 4290428364
-0.2925438285 -0.1552272290 0.5324017406 4290296778
-0.2926800549 -0.1541158855 0.5326496959 4290428104
-0.2927478552 -0.1535596400 0.5327730775 4290230725
-0.2928154469 -0.1530030072 0.5328960419 4290559690
-0.2928828001 -0.1524459869 0.5330186486 4290691277
-0.2929499745 -0.1518885791 0.5331408381 4290559691
-0.2934842408 -0.1515721530 0.5341131687 4290231239
-0.2935510576 -0.1510130912 0.5342348218 4290625997
-0.2936176658 -0.1504536420 0.5343559980 4289902274
-0.2936840653 -0.1498938203 0.5344768763 4290494411
-0.2938162088 -0.1487730443 0.5347173214 4290428107
-0.2938819528 -0.1482120901 0.5348369479 4290230985
-0.2939474583 -0.1476507634 0.5349562168 4290362571
-0.2935445905 -0.1468548328 0.5342230201 4290625743
-0.2940778434 -0.1465269774 0.5351935029 4290494157
-0.2941426933 -0.1459645182 0.5353115201 4290494411
-0.2942073345 -0.1454017013 0.5354291797 4290428618
-0.2942717671 -0.1448384970 0.5355464220 4290428618
-0.2943359613 -0.1442749351 0.5356632471 4290362825
-0.2943999171 -0.1437110156 0.5357796550 4290625997
-0.2944636643 -0.1431467086 0.5358956456 4290362825
-0.2949962020 -0.1428090930 0.5368648171 4290691790
-0.2950595915 -0.1422431618 0.5369802117 4290297032
-0.2951227725 -0.1416768581 0.5370951891 4290559691
-0.2951857150 -0.1411102116 0.5372097492 4290559691
-0.2952484488 -0.1405431926 0.5373238921 4290559691
-0.2953109443 -0.1399758011 0.5374376178 4290362312
-0.2953732312 -0.1394080669 0.5375509858 4290493898
-0.2954352796 -0.1388399750 0.5376638770 4290559691
-0.2954970896 -0.1382715106 0.5377764106 4290493898
-0.2955586910 -0.1377027035 0.5378884673 4290493898
-0.2956200540 -0.1371335387 0.5380001664 4290494411
-0.2956811786 -0.1365640163 0.5381114483 4290625997
-0.2957420945 -0.1359941363 0.5382222533 4290757583
-0.2958027720 -0.1354239136 0.5383327007 4290494411
-0.2958632112 -0.1348533332 0.5384426713 4290033859
-0.2959234118 -0.1342824101 0.5385522842 4290297031
-0.2959834039 -0.1337111443 0.5386614203 4290560203
-0.2960431576 -0.1331395209 0.5387701988 4290428617
-0.2961026728 -0.1325675547 0.5388785005 4290625996
-0.2966328263 -0.1322050989 0.5398433208 4290560203
-0.2966919541 -0.1316315383 0.5399509668 4290494410
-0.2967508733 -0.1310576349 0.5400581360 4290428617
-0.2968095541 -0.1304833889 0.5401649475 4290494410
-0.2968679965 -0.1299088001 0.5402713418 4290560203
-0.2969262004 -0.1293338686 0.5403772593 4290625996
-0.2969841957 -0.1287586093 0.5404827595 4290625996
-0.2970419228 -0.1281830072 0.5405878425 4290559690
-0.2970994115 -0.1276070774 0.5406925082 4290691276
-0.2971566916 -0.1270308048 0.5407966971 4290691276
-0.2976854742 -0.1266549230 0.5417590737 4290428104
-0.2977423668 -0.1260770857 0.5418626070 4290822862
-0.2977990210 -0.1254989058 0.5419656634 4290362311
-0.2978554070 -0.1249203980 0.5420683026 4290691530
-0.2979115844 -0.1243415624 0.5421705246 4290625737
-0.2984397113 -0.1239585355 0.5431316495 4290428615
-0.2984954715 -0.1233781278 0.5432331562 4290625994
-0.2980786264 -0.1226030961 0.5424745083 4290691787
-0.2981338203 -0.1220229641 0.5425750017 4290691787
-0.2981887758 -0.1214425042 0.5426750183 4290297029
-0.2982434928 -0.1208617315 0.5427746177 4290560201
-0.2987707257 -0.1204712540 0.5437340736 4290494408
-0.2988250256 -0.1198889166 0.5438328981 4290494408
-0.2988791168 -0.1193062663 0.5439313054 4290494408
-0.2989329398 -0.1187232956 0.5440292954 4290494408
-0.2989865243 -0.1181400195 0.5441268086 4290494408
-0.2990398705 -0.1175564229 0.5442239046 4290494408
-0.2990929484 -0.1169725135 0.5443205237 4290494408
-0.2991458178 -0.1163882986 0.5444167256 4290494408
-0.2987250090 -0.1156205386 0.5436508656 4290494408
-0.2987772822 -0.1150366291 0.5437459946 4290560201
-0.2988292873 -0.1144524142 0.5438407063 4290691530
-0.2988810837 -0.1138679013 0.5439349413 4290691530
-0.2994063497 -0.1134626046 0.5448908806 4290691528
-0.2994577289 -0.1128765568 0.5449843407 4290691528
-0.2995088398 -0.1122902036 0.5450773835 4290625735
-0.2995597124 -0.1117035523 0.5451699495 4290625735
-0.3000844121 -0.1112924218 0.5461248755 4290625735
-0.3001348376 -0.1107042432 0.5462166667 4290625735
-0.3001850545 -0.1101157740 0.5463080406 4290559944
-0.3007093072 -0.1097000390 0.5472621322 4290559944
-0.3007590771 -0.1091100425 0.5473526716 4290690758
-0.3008086085 -0.1085197628 0.5474428535 4290756551
-0.3008578718 -0.1079291925 0.5475324988 4290625735
-0.3013814986 -0.1075076312 0.5484854579 4290625735
-0.3014303446 -0.1069155484 0.5485743284 4290625994
-0.3014789224 -0.1063231826 0.5486627817 4290625994
-0.3015272617 -0.1057305261 0.5487507582 4290495178
-0.3011004329 -0.1049720123 0.5479739308 4290495178
-0.3016231656 -0.1045443639 0.5489252806 4290756804
-0.3016707301 -0.1039508581 0.5490118265 4290691011
-0.3017180562 -0.1033570692 0.5490979552 4290359726
-0.3017651141 -0.1027630121 0.5491835475 4289504417
-0.3018119037 -0.1021686718 0.5492687225 4289766041
-0.3018584251 -0.1015740559 0.5493534207 4289831834
-0.3019047081 -0.1009791642 0.5494376421 4290291092
-0.3019507527 -0.1003839970 0.5495214462 4290488471
-0.3019965291 -0.0997885615 0.5496047139 4290883229
-0.3020420372 -0.0991928577 0.5496875644 4290751643
-0.3020872772 -0.0985968858 0.5497698784 4290356369
-0.3021322787 -0.0980006456 0.5498517752 4290027404
-0.3021769822 -0.0974041373 0.5499331951 4290355338
-0.3031733334 -0.0971122757 0.5517464280 4290421131
-0.3032176793 -0.0965133607 0.5518271327 4290355080
-0.3032617867 -0.0959141850 0.5519073606 4290355080
-0.3033055961 -0.0953147486 0.5519871712 4290289285
-0.3033491671 -0.0947150514 0.5520664454 4290223492
-0.3033924699 -0.0941151008 0.5521452427 4290289026
-0.3034355044 -0.0935148895 0.5522235632 4290223233
-0.3034783006 -0.0929144323 0.5523014069 4290288254
-0.3035207987 -0.0923137143 0.5523787737 4290222461
-0.3035630584 -0.0917127430 0.5524556637 4290418551
-0.3036050200 -0.0911115259 0.5525320768 4290352758
-0.3036467433 -0.0905100554 0.5526079535 4290221172
-0.3036881983 -0.0899083391 0.5526834130 4290155379
-0.3037293851 -0.0893063843 0.5527583957 4290090097
-0.3037703037 -0.0887041762 0.5528328419 4290090097
-0.3042879105 -0.0882400349 0.5537748337 4290024558
-0.3043283522 -0.0876364037 0.5538484454 4290024558
-0.3043685555 -0.0870325267 0.5539215803 4290024044
-0.3044084609 -0.0864284188 0.5539942384 4290155630
-0.3044481277 -0.0858240649 0.5540664196 4290417773
-0.3044874966 -0.0852194801 0.5541380644 4289825636
-0.3045266271 -0.0846146643 0.5542092323 4289561435
-0.3045654595 -0.0840096101 0.5542799234 4287456059
-0.3046040237 -0.0834043324 0.5543501377 4287784511
-0.3051198423 -0.0829285979 0.5552888513 4289758301
-0.3051579297 -0.0823219121 0.5553582311 4289890149
-0.3051957786 -0.0817149952 0.5554270744 4289298012
-0.3052333295 -0.0811078548 0.5554953814 4288710265
-0.3052706122 -0.0805004910 0.5555632710 4290157711
-0.3057854176 -0.0800179392 0.5565001369 4290361533
-0.3058222234 -0.0794091821 0.5565671325 4291019463
-0.3058587313 -0.0788002089 0.5566335917 4290756294
-0.3054170310 -0.0780688375 0.5558297038 4285558647
-0.3054529727 -0.0774603859 0.5558950901 4282541979
-0.3054886162 -0.0768517107 0.5559599996 4283134116
-0.2995039523 -0.1634900868 0.5461724997 4282870685
-0.2953888774 -0.1606452912 0.5386682749 4283068064
-0.2959244847 -0.1603370011 0.5396450162 4289440442
-0.2941331267 -0.1587704420 0.5363782644 4290295751
-0.2937371731 -0.1579615623 0.5356562734 4290428105
-0.2933408022 -0.1571540684 0.5349334478 4289704382
-0.2929440141 -0.1563479304 0.5342098475 4289573309
-0.2925467789 -0.1555431783 0.5334854126 4289770688
-0.2926150560 -0.1549866050 0.5336099267 4289178551
-0.2926831245 -0.1544296443 0.5337340832 4289573309
-0.2927509844 -0.1538722962 0.5338578224 4288980659
-0.2928186357 -0.1533145607 0.5339812040 4289112245
-0.2928860486 -0.1527564377 0.5341041684 4289243831
-0.2929532528 -0.1521979272 0.5342267156 4289507003
-0.2930202484 -0.1516390294 0.5343489051 4289244090
-0.2930870354 -0.1510797590 0.5344706774 4289902020
-0.2931536138 -0.1505201012 0.5345920324 4288849332
-0.2932199538 -0.1499600708 0.5347130299 4289441469
-0.2932860851 -0.1493996531 0.5348336101 4289573055
-0.2933520079 -0.1488388479 0.5349538326 4289178297
-0.2934176922 -0.1482776701 0.5350736380 4288849334
-0.2934831679 -0.1477161199 0.5351930261 4289638850
-0.2935484052 -0.1471541971 0.5353120565 4289309885
-0.2936134636 -0.1465919018 0.5354306102 4289770436
-0.2936782837 -0.1460292190 0.5355488062 4289442237
-0.2937428653 -0.1454661787 0.5356665850 4290100167
-0.2938072383 -0.1449027658 0.5357840061 4290034374
-0.2943393290 -0.1445688158 0.5367543101 4289244858
-0.2944033742 -0.1440037638 0.5368710756 4290165446
-0.2944671810 -0.1434383392 0.5369874835 4289836481
-0.2945307493 -0.1428725570 0.5371034145 4289704895
-0.2945941091 -0.1423064023 0.5372189283 4289573309
-0.2946572602 -0.1417398900 0.5373340845 4290231239
-0.2947201729 -0.1411730051 0.5374488235 4290494411
-0.2947828472 -0.1406057626 0.5375630856 4290362314
-0.2948453128 -0.1400381476 0.5376769900 4289375419
-0.2953763902 -0.1396919191 0.5386455059 4289638591
-0.2954384983 -0.1391226947 0.5387587547 4289770177
-0.2955003679 -0.1385530978 0.5388715863 4289309626
-0.2955619991 -0.1379831582 0.5389840007 4289572798
-0.2956234217 -0.1374128610 0.5390959978 4290625743
-0.2956846356 -0.1368422061 0.5392075777 4290296778
-0.2957455814 -0.1362711936 0.5393187404 4289770434
-0.2958063185 -0.1356998235 0.5394294858 4289967813
-0.2958668172 -0.1351281106 0.5395398140 4289046711
-0.2959270775 -0.1345560551 0.5396497250 4289638848
-0.2959871292 -0.1339836419 0.5397592187 4289902274
-0.2960469127 -0.1334108859 0.5398682952 4290165446
-0.2961064875 -0.1328377724 0.5399768949 4289968067
-0.2961658537 -0.1322643161 0.5400851369 4290231239
-0.2962249517 -0.1316905171 0.5401929021 4290362825
-0.2962838113 -0.1311163902 0.5403002501 4290231239
-0.2963424623 -0.1305419058 0.5404072404 4290231239
-0.2964008749 -0.1299670786 0.5405136943 4290428618
-0.2964590490 -0.1293919235 0.5406197906 4290428618
-0.2965169847 -0.1288164258 0.5407254696 4290033860
-0.2965746820 -0.1282405853 0.5408306718 4290033346
-0.2966321409 -0.1276644170 0.5409354568 4290493897
-0.2966893613 -0.1270879209 0.5410398245 4290559690
-0.2972173691 -0.1267118901 0.5420026779 4290559690
-0.2972742319 -0.1261337996 0.5421063304 4290362311
-0.2973308265 -0.1255553812 0.5422095656 4290559690
-0.2973871827 -0.1249766350 0.5423123837 4290297031
-0.2974433005 -0.1243975610 0.5424147248 4290428617
-0.2979706824 -0.1240143850 0.5433763862 4290428617
-0.2980264127 -0.1234337389 0.5434780121 4290625996
-0.2980819046 -0.1228527650 0.5435792208 4290428617
-0.2976654172 -0.1220780015 0.5428197384 4290823375
-0.2977203429 -0.1214973032 0.5429198742 4290494410
-0.2977750301 -0.1209162846 0.5430195928 4290757582
-0.2983014584 -0.1205256507 0.5439795852 4290560203
-0.2983557284 -0.1199430749 0.5440785885 4290625996
-0.2984097600 -0.1193601787 0.5441771150 4290494410
-0.2984635532 -0.1187769696 0.5442752242 4290494410
-0.2985171080 -0.1181934401 0.5443729162 4290494408
-0.2985704243 -0.1176096052 0.5444700718 4290560201
-0.2986234725 -0.1170254499 0.5445668697 4290625737
-0.2986762822 -0.1164409891 0.5446631908 4290559944
-0.2987288535 -0.1158562154 0.5447590351 4290625737
-0.2983084321 -0.1150887460 0.5439923406 4290691530
-0.2983604372 -0.1145042852 0.5440871716 4290691530
-0.2984121740 -0.1139195189 0.5441815257 4290691530
-0.2989366651 -0.1135140583 0.5451380014 4290691528
-0.2989880145 -0.1129277647 0.5452315807 4290691528
-0.2990390956 -0.1123411581 0.5453247428 4290691528
-0.2990899086 -0.1117542610 0.5454174280 4290691528
-0.2996138334 -0.1113429591 0.5463728309 4290691528
-0.2996642590 -0.1107545346 0.5464648008 4290691528
-0.2997144163 -0.1101658121 0.5465562940 4290756553
-0.3002378941 -0.1097499058 0.5475108624 4290756553
-0.3002876341 -0.1091596633 0.5476015806 4290756551
-0.3003371358 -0.1085691303 0.5476918221 4290756551
-0.3003863692 -0.1079782993 0.5477816463 4290756551
-0.3009092212 -0.1075565666 0.5487351418 4290756551
-0.3009580374 -0.1069642305 0.5488241315 4290560201
-0.3010065854 -0.1063716039 0.5489126444 4290560201
-0.3010548949 -0.1057786942 0.5490007401 4290625994
-0.3006287515 -0.1050198525 0.5482236743 4290625994
-0.3011507392 -0.1045920253 0.5491755009 4290822597
-0.3011982739 -0.1039982662 0.5492622256 4290691011
-0.3012455404 -0.1034042239 0.5493484139 4290293933
-0.3012925684 -0.1028099060 0.5494341850 4289372831
-0.3013393283 -0.1022153050 0.5495194793 4289700246
-0.3013858497 -0.1016204357 0.5496042967 4289831832
-0.3014321029 -0.1010252833 0.5496886373 4290225553
-0.3014780879 -0.1004298627 0.5497725010 4290422932
-0.3015238345 -0.0998341739 0.5498558879 4290882713
-0.3015693128 -0.0992382094 0.5499388576 4290816920
-0.3016145229 -0.0986419767 0.5500212908 4290356110
-0.3016594946 -0.0980454758 0.5501033068 4290158731
-0.3017041981 -0.0974487066 0.5501847863 4290355593
-0.3026990294 -0.0971567258 0.5519989729 4290355593
-0.3027433455 -0.0965575501 0.5520797968 4290289285
-0.3027873933 -0.0959581137 0.5521601439 4290289285
-0.3028312027 -0.0953584164 0.5522400141 4290354819
-0.3028747439 -0.0947584584 0.5523194075 4290289026
-0.3029180169 -0.0941582397 0.5523983240 4290222461
-0.3029610217 -0.0935577676 0.5524767637 4290090875
-0.3030037582 -0.0929570422 0.5525547266 4290090617
-0.3030462563 -0.0923560634 0.5526321530 4290024824
-0.3030884862 -0.0917548314 0.5527091622 4290220915
-0.3031304181 -0.0911533460 0.5527856946 4290286708
-0.3031721115 -0.0905516148 0.5528616905 4290221172
-0.3032135367 -0.0899496377 0.5529372692 4290155379
-0.3032546937 -0.0893474072 0.5530123115 4290155633
-0.3032956123 -0.0887449384 0.5530868769 4290155633
-0.3038124144 -0.0882805958 0.5540293455 4290024045
-0.3038528562 -0.0876766965 0.5541030765 4289958252
-0.3038930297 -0.0870725513 0.5541763306 4289957994
-0.3039329052 -0.0864681751 0.5542491078 4290221166
-0.3039725423 -0.0858635604 0.5543213487 4290351723
-0.3040118814 -0.0852587074 0.5543931127 4289956965
-0.3040509820 -0.0846536160 0.5544643998 4289495131
-0.3040898144 -0.0840483010 0.5545352101 4287455548
-0.3041283488 -0.0834427476 0.5546054840 4287915840
-0.3046433926 -0.0829668045 0.5555446744 4289626458
-0.3046814501 -0.0823598430 0.5556141138 4289824098
-0.3047192693 -0.0817526653 0.5556830764 4289363547
-0.3047567904 -0.0811452493 0.5557515025 4288776056
-0.3047940433 -0.0805376172 0.5558194518 4290289295
-0.3053081036 -0.0800548494 0.5567568541 4290427327
-0.3053448796 -0.0794458166 0.5568239093 4290822085
-0.3053813875 -0.0788365752 0.5568904877 4290624708
-0.3049404025 -0.0781048760 0.5560863018 4285427061
-0.3049762845 -0.0774961486 0.5561518073 4282541722
-0.3050119281 -0.0768872052 0.5562167764 4283068066
-0.3050644994 -0.1668633819 0.5574417114 4282804890
-0.3000285923 -0.1634997278 0.5482396483 4282936476
-0.2963836789 -0.1609117091 0.5415793061 4289178040
-0.2936660945 -0.1588400751 0.5366135240 4290230728
-0.2932708561 -0.1580308676 0.5358912349 4290428104
-0.2928751707 -0.1572230458 0.5351682305 4289441209
-0.2924790680 -0.1564165950 0.5344444513 4289178550
-0.2925476134 -0.1558593214 0.5345696807 4289441722
-0.2921507657 -0.1550547332 0.5338445306 4288323242
-0.2922187746 -0.1544975638 0.5339688063 4288389035
-0.2922865748 -0.1539400071 0.5340927243 4287402140
-0.2923541963 -0.1533820480 0.5342162251 4287467933
-0.2924215496 -0.1528237164 0.5343393683 4287467679
-0.2924887240 -0.1522649825 0.5344620943 4287599265
-0.2925556898 -0.1517058760 0.5345844030 4287862437
-0.2926224172 -0.1511463821 0.5347063541 4289178297
-0.2926889360 -0.1505865157 0.5348278880 4288125611
-0.2927552164 -0.1500262618 0.5349490643 4288059818
-0.2928213179 -0.1494656205 0.5350698233 4287336095
-0.2928871810 -0.1489046067 0.5351901650 4287994025
-0.2929528356 -0.1483432055 0.5353101492 4287468451
-0.2930182517 -0.1477814466 0.5354296565 4287205279
-0.2930834591 -0.1472193003 0.5355488658 4287204509
-0.2931484580 -0.1466567814 0.5356675982 4287138716
-0.2932132185 -0.1460938901 0.5357859731 4287994793
-0.2932777703 -0.1455306113 0.5359038711 4289179067
-0.2933421135 -0.1449669749 0.5360214710 4289573825
-0.2938733995 -0.1446329206 0.5369923115 4287994793
-0.2939373851 -0.1440676451 0.5371092558 4288389551
-0.2940011621 -0.1435019970 0.5372257233 4287929000
-0.2940647006 -0.1429359764 0.5373418331 4287796644
-0.2941280007 -0.1423695982 0.5374575257 4287928230
-0.2941910923 -0.1418028623 0.5375728011 4288849332
-0.2942539752 -0.1412357539 0.5376877189 4288915125
-0.2943166196 -0.1406682879 0.5378021598 4288915125
-0.2943790257 -0.1401004493 0.5379161835 4288125609
-0.2949093282 -0.1397540867 0.5388852358 4287862180
-0.2949713767 -0.1391846389 0.5389986038 4287993766
-0.2950332165 -0.1386148185 0.5391116142 4288256684
-0.2950948179 -0.1380446404 0.5392242074 4287467168
-0.2951562107 -0.1374741197 0.5393363237 4290296778
-0.2952173352 -0.1369032264 0.5394480824 4289178297
-0.2952782810 -0.1363319904 0.5395593643 4287599265
-0.2953389585 -0.1357603967 0.5396702886 4288586160
-0.2953994274 -0.1351884604 0.5397807360 4287270300
-0.2954596281 -0.1346161664 0.5398908257 4288191402
-0.2955196500 -0.1340435147 0.5400004387 4287928230
-0.2955794036 -0.1334705204 0.5401096344 4288454574
-0.2956389487 -0.1328971833 0.5402184129 4288454574
-0.2956982255 -0.1323235035 0.5403267741 4288520367
-0.2962267697 -0.1319586039 0.5412925482 4288651953
-0.2958161235 -0.1311751008 0.5405422449 4288454574
-0.2958747447 -0.1306003928 0.5406492949 4288651953
-0.2959330976 -0.1300253272 0.5407559872 4289244090
-0.2964610755 -0.1296554059 0.5417206883 4289244090
-0.2960491180 -0.1288741976 0.5409680009 4288454574
-0.2961067855 -0.1282981336 0.5410733223 4288388522
-0.2966343164 -0.1279244572 0.5420373082 4288585901
-0.2966915965 -0.1273467988 0.5421419740 4288389035
-0.2967486382 -0.1267688125 0.5422461629 4288915379
-0.2968054414 -0.1261904836 0.5423499942 4288718000
-0.2968620062 -0.1256118268 0.5424533486 4290165446
-0.2969183326 -0.1250328422 0.5425562859 4289178551
-0.2969744205 -0.1244535297 0.5426587462 4288915379
-0.2975009978 -0.1240702048 0.5436209440 4288652207
-0.2975566983 -0.1234893128 0.5437227488 4289112758
-0.2976121604 -0.1229081005 0.5438240767 4289112757
-0.2976673543 -0.1223265603 0.5439249277 4289310136
-0.2977223396 -0.1217447072 0.5440254211 4288652206
-0.2977770567 -0.1211625189 0.5441254377 4288783792
-0.2978315651 -0.1205800176 0.5442249775 4289244343
-0.2978858054 -0.1199971959 0.5443241000 4290231238
-0.2979398072 -0.1194140613 0.5444228053 4290625483
-0.2979935706 -0.1188306063 0.5445210338 4290559690
-0.2980470657 -0.1182468310 0.5446187854 4290559944
-0.2981003523 -0.1176627502 0.5447161198 4290625737
-0.2981533706 -0.1170783490 0.5448130369 4290691530
-0.2982061505 -0.1164936423 0.5449094772 4290625737
-0.2982586622 -0.1159086227 0.5450054407 4290625737
-0.2983109653 -0.1153232977 0.5451009870 4290691530
-0.2983630002 -0.1147376671 0.5451961160 4290691530
-0.2984147966 -0.1141517237 0.5452907681 4290691530
-0.2984663546 -0.1135654822 0.5453849435 4290691528
-0.2985176444 -0.1129789352 0.5454786420 4290691528
-0.2985686958 -0.1123920828 0.5455719233 4290822344
-0.2986195087 -0.1118049398 0.5456647873 4290822344
-0.2991426289 -0.1113934666 0.5466206670 4290822344
-0.2991929948 -0.1108047888 0.5467127562 4290822344
-0.2997158766 -0.1103899330 0.5476682186 4290756553
-0.3002386689 -0.1099729240 0.5486234426 4290756553
-0.3002884388 -0.1093814969 0.5487144589 4290822087
-0.3003379703 -0.1087897792 0.5488049388 4290822087
-0.3003872633 -0.1081977710 0.5488950014 4290756551
-0.3004362881 -0.1076054722 0.5489845872 4290756551
-0.3004850745 -0.1070128754 0.5490737557 4290625737
-0.3005335927 -0.1064200029 0.5491623878 4290625737
-0.3005818725 -0.1058268398 0.5492506027 4290625994
-0.3006298840 -0.1052333862 0.5493383408 4290625994
-0.3006776273 -0.1046396568 0.5494256020 4290953670
-0.3007251322 -0.1040456370 0.5495123863 4290822084
-0.3007723987 -0.1034513414 0.5495987535 4290359213
-0.3008193970 -0.1028567627 0.5496846437 4289438111
-0.3008661270 -0.1022619158 0.5497699976 4289831062
-0.3009125888 -0.1016667858 0.5498549342 4289831062
-0.3009588122 -0.1010713801 0.5499393940 4290224781
-0.3010047972 -0.1004756987 0.5500234365 4290553746
-0.3010504842 -0.0998797491 0.5501069427 4290882711
-0.3010959327 -0.0992835239 0.5501899719 4290751125
-0.3016153872 -0.0988424495 0.5511391163 4290290315
-0.3016603887 -0.0982447490 0.5512213707 4290158729
