VERSION 0.7
FIELDS x y z rgba
SIZE 4 4 4 4
TYPE F F F U
COUNT 1 1 1 1
WIDTH 920
HEIGHT 1
VIEWPOINT 0.0 0.0 0.0 1.0 0.0 0.0 0.0
POINTS 920
DATA ascii
-0.3064390123 -0.1123717353 0.5046471357 4283397556
-0.3059823811 -0.1116444245 0.5038951635 4283463351
-0.3060353696 -0.1111038029 0.5039824247 4283660730
-0.3060881495 -0.1105629057 0.5040693283 4284253124
-0.3061406910 -0.1100217253 0.5041558146 4285042640
-0.3067032993 -0.1096627340 0.5050823689 4285108687
-0.3067554235 -0.1091201007 0.5051681995 4284055999
-0.3073178232 -0.1087578461 0.5060943365 4283069103
-0.3073695600 -0.1082137600 0.5061795712 4284187584
-0.3079317212 -0.1078482419 0.5071053505 4284976588
-0.3079830408 -0.1073027030 0.5071898699 4284187072
-0.3080341518 -0.1067568809 0.5072740316 4282739625
-0.3085959256 -0.1063869372 0.5081991553 4284384450
-0.3086466193 -0.1058396697 0.5082826018 4286555873
-0.3086970448 -0.1052921414 0.5083656907 4285042634
-0.3087472618 -0.1047443375 0.5084483624 4285239241
-0.3093084693 -0.1043687835 0.5093725920 4287081445
-0.3093582690 -0.1038195416 0.5094546080 4284976071
-0.3099192083 -0.1034407318 0.5103783607 4286884068
-0.3099685907 -0.1028900594 0.5104597211 4287014623
-0.3105293214 -0.1025079936 0.5113830566 4286093521
-0.3110899329 -0.1021238565 0.5123063326 4285567177
-0.3111387193 -0.1015705690 0.5123866796 4284843454
-0.3116990924 -0.1011831760 0.5133094788 4288001518
-0.3117474616 -0.1006284729 0.5133891702 4288264690
-0.3128195405 -0.1004021540 0.5151546597 4285106366
-0.3133796453 -0.1000085175 0.5160770416 4284777401
-0.3134274781 -0.0994503051 0.5161558390 4288066794
-0.3139873147 -0.0990534201 0.5170777440 4287737829
-0.3140347302 -0.0984937847 0.5171558261 4286158797
-0.3145942688 -0.0980936587 0.5180773139 4289053689
-0.3146412671 -0.0975326002 0.5181546807 4286356176
-0.3146879971 -0.0969712958 0.5182316303 4283066526
-0.3152470589 -0.0965667590 0.5191523433 4285829060
-0.3152933717 -0.0960040465 0.5192285776 4288592366
-0.3153394163 -0.0954410806 0.5193043947 4284777912
-0.3158980012 -0.0950321406 0.5202243328 4285238463
-0.3159435987 -0.0944677666 0.5202994347 4287145437
-0.3165019155 -0.0940555930 0.5212188363 4287671781
-0.3165470660 -0.0934898183 0.5212932229 4286685660
-0.3171050847 -0.0930744037 0.5222121477 4284382905
-0.3171497881 -0.0925072283 0.5222857594 4282607274
-0.3177075088 -0.0920885876 0.5232042074 4282673067
-0.3177517653 -0.0915200189 0.5232771039 4282607272
-0.3183091581 -0.0910981447 0.5241950154 4282673065
-0.3188664317 -0.0906741917 0.5251127481 4282475688
-0.3189100325 -0.0901030749 0.5251845717 4282738860
-0.3194670081 -0.0896759033 0.5261017680 4284052136
-0.3413318098 -0.1735743135 0.5631390214 4282339952
-0.3409103155 -0.1727350354 0.5624435544 4282668917
-0.3409897685 -0.1721502393 0.5625746846 4282602626
-0.3405674398 -0.1713127345 0.5618779063 4282339454
-0.3401446342 -0.1704765558 0.5611803532 4282339715
-0.3397213519 -0.1696416736 0.5604820251 4282339715
-0.3392976224 -0.1688081324 0.5597829223 4282208125
-0.3388734162 -0.1679759026 0.5590831041 4282076539
-0.3379466236 -0.1668969989 0.5575540066 4281813885
-0.3375213742 -0.1660683006 0.5568524599 4282011264
-0.3370956779 -0.1652409136 0.5561500788 4282011264
-0.3366695344 -0.1644148827 0.5554469824 4281682299
-0.3352376819 -0.1631011069 0.5530847311 4281617017
-0.3363185227 -0.1630104780 0.5548679233 4281551224
-0.3348854482 -0.1617019922 0.5525035858 4282011778
-0.3344573379 -0.1608821899 0.5517972708 4283196052
-0.3340287507 -0.1600637287 0.5510901809 4283325832
-0.3330965340 -0.1590064466 0.5495522022 4282602109
-0.3326669335 -0.1581915617 0.5488434434 4281615477
-0.3317334950 -0.1571395844 0.5473034382 4281878649
-0.3307993710 -0.1560907215 0.5457623005 4281879681
-0.3303681910 -0.1552816629 0.5450508595 4281813888
-0.3299365342 -0.1544739902 0.5443387628 4281288832
-0.3295044303 -0.1536676735 0.5436258316 4281157246
-0.3290718794 -0.1528627276 0.5429122448 4281289345
-0.3281348348 -0.1518259495 0.5413662195 4281223552
-0.3277012706 -0.1510246396 0.5406509638 4281419902
-0.3267630041 -0.1499932408 0.5391029119 4281156730
-0.3263284266 -0.1491955817 0.5383859873 4281353596
-0.3253889084 -0.1481695771 0.5368359685 4281419389
-0.3259625137 -0.1478332579 0.5377822518 4281287803
-0.3250220120 -0.1468109190 0.5362306237 4281287803
-0.3245856166 -0.1460188180 0.5355106592 4281223039
-0.3241488039 -0.1452281326 0.5347899795 4281223039
-0.3237115443 -0.1444388330 0.5340685844 4281288062
-0.3232738376 -0.1436509341 0.5333464146 4281222269
-0.3228356838 -0.1428644657 0.5326235890 4281222269
-0.3223970830 -0.1420793831 0.5318999290 4281288062
-0.3219580650 -0.1412957311 0.5311756134 4281157246
-0.3215185702 -0.1405134797 0.5304505229 4281157246
-0.3210786283 -0.1397326589 0.5297247171 4281091453
-0.3206382692 -0.1389532536 0.5289981961 4281091453
-0.3201974630 -0.1381752789 0.5282709599 4281025660
-0.3197562099 -0.1373987347 0.5275429487 4281025660
-0.3193145096 -0.1366236061 0.5268142223 4281025661
-0.3188723922 -0.1358499229 0.5260847807 4280959868
-0.3179235756 -0.1348629147 0.5245193839 4280762746
-0.3179868162 -0.1343068480 0.5246237516 4280828539
-0.3175433576 -0.1335374713 0.5238921046 4280763520
-0.3170994818 -0.1327695251 0.5231598020 4280697727
-0.3161485195 -0.1317918301 0.5215908885 4280894334
-0.3167171478 -0.1314483136 0.5225290060 4281157506
-0.3157652318 -0.1304744035 0.5209584832 4281420165
-0.3158265352 -0.1299208105 0.5210596919 4281485958
-0.3148735464 -0.1289515942 0.5194873810 4281420167
-0.3149341941 -0.1283991337 0.5195874572 4281354374
-0.3144873679 -0.1276404858 0.5188502669 4281354887
-0.3140401244 -0.1268832982 0.5181123614 4281618059
-0.3130849898 -0.1259234846 0.5165365934 4281224582
-0.3126367927 -0.1251701266 0.5157971382 4281224582
-0.3126957715 -0.1246205494 0.5158944130 4281620880
-0.3122467995 -0.1238692403 0.5151537061 4282278810
-0.3117974102 -0.1231194139 0.5144122839 4282214044
-0.3113475740 -0.1223710701 0.5136701465 4282214044
-0.3108973205 -0.1216242015 0.5129272938 4282279077
-0.3104466498 -0.1208788231 0.5121837258 4282081698
-0.3099955320 -0.1201349273 0.5114395022 4282279077
-0.3095439970 -0.1193925291 0.5106945634 4282147491
-0.3090920448 -0.1186516136 0.5099489093 4283002546
-0.3086396754 -0.1179122031 0.5092025995 4283463097
-0.3092040122 -0.1175609976 0.5101336241 4283332024
-0.3087509573 -0.1168227866 0.5093861818 4283529403
-0.3082975149 -0.1160860807 0.5086380243 4283529401
-0.3078436255 -0.1153508723 0.5078892112 4283266229
-0.3073893487 -0.1146171764 0.5071397424 4283135154
-0.3069346249 -0.1138849929 0.5063894987 4283464119
-0.3064794838 -0.1131543219 0.5056386590 4283332533
-0.3060239255 -0.1124251634 0.5048870444 4283069361
-0.3060772419 -0.1118836850 0.5049750209 4283858881
-0.3056209683 -0.1111566648 0.5042222142 4285372120
-0.3056736887 -0.1106155217 0.5043092370 4286293990
-0.3057262003 -0.1100741029 0.5043958426 4286359783
-0.3057784736 -0.1095324084 0.5044820905 4285898460
-0.3058305085 -0.1089904383 0.5045679212 4284319428
-0.3063921034 -0.1086289287 0.5054944754 4283003823
-0.3069536090 -0.1082653478 0.5064208508 4284977613
-0.3070051074 -0.1077207401 0.5065057874 4286753511
-0.3075663745 -0.1073538885 0.5074318051 4286161374
-0.3076174557 -0.1068078279 0.5075160861 4283397041
-0.3081785142 -0.1064377204 0.5084417462 4284186557
-0.3082292080 -0.1058902144 0.5085253716 4286949602
-0.3082796335 -0.1053424329 0.5086085200 4286291672
-0.3088402748 -0.1049678922 0.5095335245 4286620637
-0.3083797395 -0.1042460799 0.5087737441 4287673325
-0.3089400828 -0.1038691849 0.5096981525 4284646077
-0.3095003366 -0.1034902111 0.5106225014 4287212004
-0.3095496893 -0.1029392853 0.5107039213 4286684886
-0.3101096749 -0.1025570557 0.5116278529 4285105854
-0.3106696010 -0.1021727473 0.5125516057 4284645818
-0.3112294078 -0.1017863527 0.5134751797 4283922095
-0.3112780154 -0.1012316495 0.5135554075 4286948573
-0.3118375838 -0.1008420065 0.5144785643 4288659191
-0.3118857741 -0.1002858728 0.5145580769 4288264431
-0.3124450743 -0.0998929814 0.5154808164 4288461810
-0.3135157228 -0.0996605828 0.5172472000 4288330483
-0.3135633767 -0.0991009474 0.5173258185 4285501384
-0.3141223788 -0.0987018049 0.5182480812 4284383673
-0.3141696155 -0.0981407464 0.5183259845 4286883807
-0.3142165840 -0.0975794420 0.5184035301 4284449466
-0.3142632842 -0.0970178768 0.5184805989 4282804641
-0.3148216605 -0.0966131613 0.5194017887 4284120501
-0.3148679435 -0.0960501879 0.5194781423 4284778431
-0.3149139583 -0.0954869613 0.5195540786 4282608293
-0.3154718578 -0.0950778425 0.5204744935 4282476707
-0.3155174553 -0.0945132151 0.5205497146 4283527598
-0.3160750568 -0.0941008553 0.5214696527 4283461805
-0.3161201775 -0.0935348198 0.5215440989 4282607523
-0.3166774809 -0.0931192189 0.5224635601 4282212765
-0.3167221844 -0.0925517827 0.5225372910 4282476715
-0.3172791600 -0.0921329483 0.5234562755 4282542508
-0.3173234165 -0.0915641189 0.5235292315 4282344616
-0.3178800941 -0.0911420509 0.5244476795 4282541995
-0.3184366524 -0.0907179117 0.5253659487 4282213032
-0.3189931214 -0.0902916938 0.5262839794 4282476204
-0.3190365136 -0.0897191614 0.5263555646 4283921065
-0.3408631682 -0.1736541986 0.5633981824 4282603124
-0.3409429491 -0.1730687171 0.5635300279 4282603124
-0.3405217230 -0.1722295433 0.5628338456 4282339713
-0.3401000500 -0.1713916957 0.5621368289 4282208127
-0.3396779001 -0.1705551594 0.5614390969 4282273920
-0.3397563994 -0.1699706316 0.5615688562 4282339713
-0.3388321996 -0.1688860357 0.5600413084 4282076028
-0.3384086490 -0.1680534631 0.5593412519 4282733958
-0.3379846513 -0.1672222018 0.5586404204 4282602885
-0.3375601768 -0.1663922817 0.5579388142 4282471299
-0.3366335630 -0.1653173268 0.5564072728 4281814911
-0.3362080455 -0.1644909382 0.5557039380 4281420153
-0.3357820809 -0.1636658758 0.5549998879 4281879942
-0.3353556693 -0.1628421694 0.5542950630 4281616770
-0.3349287808 -0.1620198041 0.5535894632 4281616758
-0.3339991570 -0.1609567404 0.5520529747 4284248478
-0.3335712552 -0.1601379365 0.5513457060 4284970145
-0.3326403797 -0.1590801924 0.5498071313 4283391113
-0.3322114348 -0.1582649648 0.5490981340 4282404479
-0.3312793374 -0.1572125405 0.5475574732 4282272893
-0.3308493793 -0.1564009041 0.5468468070 4281353594
-0.3299160302 -0.1553538144 0.5453041196 4281616766
-0.3294850588 -0.1545457989 0.5445917845 4281617797
-0.3290536106 -0.1537391394 0.5438786745 4281486211
-0.3286217153 -0.1529338509 0.5431647897 4281420931
-0.3281893730 -0.1521299481 0.5424501896 4281289345
-0.3277565539 -0.1513274163 0.5417348742 4281354623
-0.3268197477 -0.1502946913 0.5401864052 4281354623
-0.3258822560 -0.1492651105 0.5386368632 4281025142
-0.3249441087 -0.1482386589 0.5370862484 4281288314
-0.3255169690 -0.1479022056 0.5380331278 4281025912
-0.3250818253 -0.1471074969 0.5373138785 4281025912
-0.3241420984 -0.1460869908 0.5357606411 4281353856
-0.3237059414 -0.1452959478 0.5350397825 4281353856
-0.3232693374 -0.1445063204 0.5343180895 4281288063
-0.3228323162 -0.1437180936 0.5335957408 4281288063
-0.3228993416 -0.1431549489 0.5337065458 4281091454
-0.3219568729 -0.1421458572 0.5321487784 4281091454
-0.3215184808 -0.1413618624 0.5314242244 4281157247
-0.3210796714 -0.1405792683 0.5306988955 4281157247
-0.3201354742 -0.1395779550 0.5291382670 4281091454
-0.3207057416 -0.1392376423 0.5300808549 4280959868
-0.3197605610 -0.1382400542 0.5285185575 4280959868
-0.3193199635 -0.1374631673 0.5277903676 4280959868
-0.3188789189 -0.1366876960 0.5270614028 4280894075
-0.3184374571 -0.1359136701 0.5263317227 4280828282
-0.3174900115 -0.1349262297 0.5247656703 4280894075
-0.3175532222 -0.1343699247 0.5248701572 4280894075
-0.3171104193 -0.1336002201 0.5241382718 4280894075
-0.3166671991 -0.1328319460 0.5234057307 4280894075
-0.3157176077 -0.1318538189 0.5218361616 4280960127
-0.3162855208 -0.1315101534 0.5227748752 4280828541
-0.3158411086 -0.1307453364 0.5220403075 4281157506
-0.3153962493 -0.1299819797 0.5213049650 4281420678
-0.3149509430 -0.1292200834 0.5205689669 4281289090
-0.3145052195 -0.1284596324 0.5198322535 4281947020
-0.3140590787 -0.1277006418 0.5190948248 4281553032
-0.3136124909 -0.1269431263 0.5183566809 4281224067
-0.3131654561 -0.1261870712 0.5176178217 4280961667
-0.3127180040 -0.1254324913 0.5168782473 4281619597
-0.3122701347 -0.1246793792 0.5161379576 4282343320
-0.3118218184 -0.1239277422 0.5153970122 4282606492
-0.3113730848 -0.1231775805 0.5146552920 4282672285
-0.3109239340 -0.1224289015 0.5139129162 4282606492
-0.3104743361 -0.1216817051 0.5131698251 4282279324
-0.3105317354 -0.1211339235 0.5132646561 4282279324
-0.3095738888 -0.1201917678 0.5116814971 4282541728
-0.3096306324 -0.1196451783 0.5117752552 4282410142
-0.3091794252 -0.1189030409 0.5110294819 4282739626
-0.3087278306 -0.1181623936 0.5102830529 4283265970
-0.3087836504 -0.1176167056 0.5103753209 4283398076
-0.3078233302 -0.1166856140 0.5087880492 4282937525
-0.3073704541 -0.1159494743 0.5080394745 4282872502
-0.3074252903 -0.1154055893 0.5081301332 4283004088
-0.3069716692 -0.1146715656 0.5073803663 4283266742
-0.3065176010 -0.1139390543 0.5066298842 4283332535
-0.3060631454 -0.1132080480 0.5058787465 4282938547
-0.3061167598 -0.1126657203 0.5059673786 4282609582
-0.3056615591 -0.1119368523 0.5052149296 4284518610
-0.3057146072 -0.1113948524 0.5053026676 4285242333
-0.3057674170 -0.1108525693 0.5053899288 4283595705
-0.3058199883 -0.1103100106 0.5054768324 4283003568
-0.3058723211 -0.1097671688 0.5055633187 4283464119
-0.3059244156 -0.1092240512 0.5056494474 4283332533
-0.3059762716 -0.1086806580 0.5057351589 4283924670
-0.3065370917 -0.1083169132 0.5066620708 4285898460
-0.3065885305 -0.1077720597 0.5067471266 4286227167
-0.3071491122 -0.1074050590 0.5076736808 4287082476
-0.3072001934 -0.1068587527 0.5077580810 4285567695
-0.3077605367 -0.1064884812 0.5086842179 4283988663
-0.3078111708 -0.1059407294 0.5087679625 4287672555
-0.3083712757 -0.1055672020 0.5096937418 4286751453
-0.3084215224 -0.1050180048 0.5097767711 4286818016
-0.3084715307 -0.1044685394 0.5098594427 4286883809
-0.3090312481 -0.1040905714 0.5107845664 4283792824
-0.3090808094 -0.1035396680 0.5108665228 4286424544
-0.3096402884 -0.1031584442 0.5117912292 4286817497
-0.3096894622 -0.1026060954 0.5118724704 4286225360
-0.3102486432 -0.1022216156 0.5127967596 4286422740
-0.3108077645 -0.1018350571 0.5137208700 4285172673
-0.3108563423 -0.1012801006 0.5138012171 4284317110
-0.3114151955 -0.1008902863 0.5147249103 4286159314
-0.3114633560 -0.1003339067 0.5148044825 4287409124
-0.3120219409 -0.0999408364 0.5157277584 4286882780
-0.3130911887 -0.0997083411 0.5174950957 4284974529
-0.3131388426 -0.0991484523 0.5175738335 4283461290
-0.3136971295 -0.0987491384 0.5184965730 4283001768
-0.3137443364 -0.0981878266 0.5185746551 4283462319
-0.3143023551 -0.0977852568 0.5194969177 4283133869
-0.3143491149 -0.0972225294 0.5195742846 4282804904
-0.3143956363 -0.0966595411 0.5196511149 4282804902
-0.3149531782 -0.0962525681 0.5205727220 4282475937
-0.3149992824 -0.0956881717 0.5206488371 4282475435
-0.3150450885 -0.0951235294 0.5207245946 4282672814
-0.3156021833 -0.0947121456 0.5216453671 4282476715
-0.3156475425 -0.0941460952 0.5217203498 4282410922
-0.3156926632 -0.0935797989 0.5217949152 4282411435
-0.3162492514 -0.0931640118 0.5227149129 4282477228
-0.3162939250 -0.0925963223 0.5227887630 4282673065
-0.3168502152 -0.0921772942 0.5237082243 4282673065
-0.3168944418 -0.0916082039 0.5237812996 4282540452
-0.3174504042 -0.0911859497 0.5247002244 4282672038
-0.3174941838 -0.0906154588 0.5247725844 4282410663
-0.3185620010 -0.0903352052 0.5265375376 4282542249
-0.3186053932 -0.0897624046 0.5266092420 4284250529
-0.3403938711 -0.1737340391 0.5636572242 4282537331
-0.3404736221 -0.1731483340 0.5637893081 4282537331
-0.3400530517 -0.1723088175 0.5630928874 4282339713
-0.3396320045 -0.1714706123 0.5623956919 4282208127
-0.3392105103 -0.1706337333 0.5616977215 4282273920
-0.3392889798 -0.1700489670 0.5618276596 4282405506
-0.3383661211 -0.1689639091 0.5602995157 4282339454
-0.3379432559 -0.1681309789 0.5595992804 4283260556
-0.3375198841 -0.1672993898 0.5588982105 4285103017
-0.3370960653 -0.1664691120 0.5581964254 4283458192
-0.3366717994 -0.1656401753 0.5574938655 4282735752
-0.3362470567 -0.1648125798 0.5567905903 4282275201
-0.3348194063 -0.1634967923 0.5544264913 4281748352
-0.3358975351 -0.1634052694 0.5562117696 4281419387
-0.3344686329 -0.1620947868 0.5538456440 4281747828
-0.3340419233 -0.1612734199 0.5531390905 4285366443
-0.3336147964 -0.1604533941 0.5524317622 4286153905
-0.3326853812 -0.1593943238 0.5508928299 4285824940
-0.3317553103 -0.1583383381 0.5493527055 4284772512
-0.3308245540 -0.1572854519 0.5478114486 4283785617
-0.3303952515 -0.1564734727 0.5471005440 4282076543
-0.3294632435 -0.1554259360 0.5455572605 4281550199
-0.3290329278 -0.1546175629 0.5448446870 4281748865
-0.3286021352 -0.1538105607 0.5441313386 4281617279
-0.3276683390 -0.1527706236 0.5425850749 4281486209
-0.3272365630 -0.1519672573 0.5418701172 4281354623
-0.3268043101 -0.1511652619 0.5411543250 4281551488
-0.3263716102 -0.1503646523 0.5404378176 4281419902
-0.3259384632 -0.1495654285 0.5397205949 4281222008
-0.3255048692 -0.1487675905 0.5390025973 4281419387
-0.3245676160 -0.1477420777 0.5374506116 4281288312
-0.3246363103 -0.1471760869 0.5375643969 4281288312
-0.3236979544 -0.1461551338 0.5360105634 4281353855
-0.3232624829 -0.1453637481 0.5352894068 4281353855
-0.3233301640 -0.1447993219 0.5354015231 4281353855
-0.3223901391 -0.1437852085 0.5338449478 4281288062
-0.3219533265 -0.1429980397 0.5331215858 4281288062
-0.3215160370 -0.1422122866 0.5323975086 4281222269
-0.3210783303 -0.1414279491 0.5316727161 4281222269
-0.3206401467 -0.1406450272 0.5309471488 4281222269
-0.3196972907 -0.1396432817 0.5293858647 4281288063
-0.3202668726 -0.1393028349 0.5303289890 4281156477
-0.3193230331 -0.1383047998 0.5287660956 4281156477
-0.3188830912 -0.1375275701 0.5280376077 4281156477
-0.3184427321 -0.1367517710 0.5273084044 4280959868
-0.3180019259 -0.1359774023 0.5265784860 4280894075
-0.3175606728 -0.1352044791 0.5258478522 4280959868
-0.3171190023 -0.1344329864 0.5251164436 4280894075
-0.3166768849 -0.1336629391 0.5243843794 4281288065
-0.3162343204 -0.1328943223 0.5236515403 4281222272
-0.3157913387 -0.1321271658 0.5229179859 4281091200
-0.3153479099 -0.1313614547 0.5221837163 4281156993
-0.3154095411 -0.1308068186 0.5222857594 4281289094
-0.3149653375 -0.1300431192 0.5215502381 4281157508
-0.3145207167 -0.1292808801 0.5208139420 4281158276
-0.3140756488 -0.1285201013 0.5200769901 4282342550
-0.3136301637 -0.1277607828 0.5193393230 4282408856
-0.3131842315 -0.1270029396 0.5186008811 4281816719
-0.3127378821 -0.1262465417 0.5178617835 4281422220
-0.3122911155 -0.1254916340 0.5171219707 4281948564
-0.3118439019 -0.1247381866 0.5163814425 4282409885
-0.3113962412 -0.1239862144 0.5156401992 4282475678
-0.3114546239 -0.1234364286 0.5157368183 4282475676
-0.3110062182 -0.1226865277 0.5149943233 4282475676
-0.3100507855 -0.1217391789 0.5134121776 4282279328
-0.3101081550 -0.1211911663 0.5135071874 4282345121
-0.3096584678 -0.1204457134 0.5127626061 4282475937
-0.3092083633 -0.1197017506 0.5120172501 4282344351
-0.3087578416 -0.1189592853 0.5112712383 4282542247
-0.3083069026 -0.1182183176 0.5105245113 4283134384
-0.3078555167 -0.1174788401 0.5097771287 4283200697
-0.3074037433 -0.1167408675 0.5090289712 4283069111
-0.3074588776 -0.1161961481 0.5091202855 4283200698
-0.3075138032 -0.1156511232 0.5092112422 4283003319
-0.3065533936 -0.1147259325 0.5076209307 4282806193
-0.3061000109 -0.1139930859 0.5068701506 4282937779
-0.3056462109 -0.1132617593 0.5061187148 4283069365
-0.3056998253 -0.1127191857 0.5062074661 4283069365
-0.3057531714 -0.1121763289 0.5062958002 4284649426
-0.3052982986 -0.1114477515 0.5055426359 4285307356
-0.3053511083 -0.1109052300 0.5056300163 4282610095
-0.3054036498 -0.1103624329 0.5057170391 4282412716
-0.3054559529 -0.1098193526 0.5058037043 4283134897
-0.3055080473 -0.1092759967 0.5058898926 4283266483
-0.3060683012 -0.1089132726 0.5068176389 4284843975
-0.3061199784 -0.1083684564 0.5069031715 4286620386
-0.3066799939 -0.1080024764 0.5078305602 4286816482
-0.3067312539 -0.1074561998 0.5079154372 4287145447
-0.3072910607 -0.1070869565 0.5088424087 4286948068
-0.3073419333 -0.1065392271 0.5089266300 4285369036
-0.3079015017 -0.1061667129 0.5098532438 4286685149
-0.3079519570 -0.1056175381 0.5099368095 4283987636
-0.3080021739 -0.1050680950 0.5100199580 4283528362
-0.3085613251 -0.1046911404 0.5109458566 4285633738
-0.3086111546 -0.1041402519 0.5110283494 4284450746
-0.3091700673 -0.1037600413 0.5119538307 4284516539
-0.3092194498 -0.1032077074 0.5120356083 4285830351
-0.3097781241 -0.1028242335 0.5129607320 4285632972
-0.3098270893 -0.1022704691 0.5130418539 4284778179
-0.3103854954 -0.1018837392 0.5139665008 4283791284
-0.3104340732 -0.1013285369 0.5140469074 4282936490
-0.3109922111 -0.1009385511 0.5149711370 4282607525
-0.3110403419 -0.1003819183 0.5150508285 4283067561
-0.3115982115 -0.0999886766 0.5159746408 4283659698
-0.3121559918 -0.0995933488 0.5168982744 4284186557
-0.3127136827 -0.0991959348 0.5178217292 4283265455
-0.3132712543 -0.0987964422 0.5187450051 4282607270
-0.3133184612 -0.0982348770 0.5188231468 4282607270
-0.3138757646 -0.0978321359 0.5197460055 4282804651
-0.3139225245 -0.0972691476 0.5198234320 4282738858
-0.3144795299 -0.0968631506 0.5207457542 4282738856
-0.3145258427 -0.0962987468 0.5208224654 4282804649
-0.3145719171 -0.0957340971 0.5208987594 4282738607
-0.3146177232 -0.0951691940 0.5209745765 4282804400
-0.3151740730 -0.0947576240 0.5218958855 4282476715
-0.3152194321 -0.0941913202 0.5219709873 4282345129
-0.3152645528 -0.0936247632 0.5220456719 4282279849
-0.3158204257 -0.0932087898 0.5229661465 4282345642
-0.3158650696 -0.0926408395 0.5230401158 4282541481
-0.3164206445 -0.0922216251 0.5239600539 4282475688
-0.3164648414 -0.0916522741 0.5240332484 4282343589
-0.3170201182 -0.0912298262 0.5249527097 4282475175
-0.3170638680 -0.0906590745 0.5250251889 4282213541
-0.3176188171 -0.0902333930 0.5259441137 4282410920
-0.3176621199 -0.0896612480 0.5260158181 4284447910
-0.3399239182 -0.1738138497 0.5639162064 4282865782
-0.3395043612 -0.1729735434 0.5632201433 4282799989
-0.3395837247 -0.1723880470 0.5633518100 4282471040
-0.3391633332 -0.1715494990 0.5626544356 4282405247
-0.3387424946 -0.1707122624 0.5619562864 4282339711
-0.3393206596 -0.1703781933 0.5629153848 4282405504
-0.3378994167 -0.1690417528 0.5605576634 4282405247
-0.3374771774 -0.1682084799 0.5598571897 4283457935
-0.3370544910 -0.1673765182 0.5591559410 4286747582
-0.3366313279 -0.1665459126 0.5584539771 4286813375
-0.3357073963 -0.1654700190 0.5569211841 4285761200
-0.3357836306 -0.1648886800 0.5570476651 4283853203
-0.3348585367 -0.1638171971 0.5555129647 4282208129
-0.3354347348 -0.1634807885 0.5564688444 4282010750
-0.3345085979 -0.1624128670 0.5549324751 4282076790
-0.3335818052 -0.1613480151 0.5533949733 4284050580
-0.3331553340 -0.1605276465 0.5526874661 4286482354
-0.3327283561 -0.1597086489 0.5519791245 4287732421
-0.3317997456 -0.1586513370 0.5504386425 4287074237
-0.3308704495 -0.1575971246 0.5488969684 4285889963
-0.3299404979 -0.1565460265 0.5473542213 4285101477
-0.3295113742 -0.1557350606 0.5466423035 4284509340
-0.3285801709 -0.1546893120 0.5450975299 4283655575
-0.3276482821 -0.1536466777 0.5435515642 4282010750
-0.3272176087 -0.1528415829 0.5428370833 4281484923
-0.3267864585 -0.1520378590 0.5421218276 4281616509
-0.3263548911 -0.1512355208 0.5414058566 4281814145
-0.3259228468 -0.1504345685 0.5406891108 4281485180
-0.3254903555 -0.1496350020 0.5399716496 4281419387
-0.3245550096 -0.1486067772 0.5384199619 4281419387
-0.3251265585 -0.1482691914 0.5393680930 4281222008
-0.3241901994 -0.1472446322 0.5378147960 4281287801
-0.3232531846 -0.1462232322 0.5362603068 4281419391
-0.3228183687 -0.1454315186 0.5355389714 4281419391
-0.3228860199 -0.1448668540 0.5356512070 4281419391
-0.3224503994 -0.1440770626 0.5349285603 4281419391
-0.3215111792 -0.1430647969 0.5333704352 4281288062
-0.3210745752 -0.1422787011 0.5326461196 4281288062
-0.3206375241 -0.1414940208 0.5319210887 4281222269
-0.3207034767 -0.1409320086 0.5320304632 4281156476
-0.3202656507 -0.1401492804 0.5313041210 4281288062
-0.3193237185 -0.1391485035 0.5297415257 4281222269
-0.3188848794 -0.1383695155 0.5290135145 4281288062
-0.3184456229 -0.1375919431 0.5282847881 4281222269
-0.3180059195 -0.1368158162 0.5275553465 4281156476
-0.3175657690 -0.1360411048 0.5268251896 4281156476
-0.3171252012 -0.1352678388 0.5260943174 4281156476
-0.3166841865 -0.1344960183 0.5253626704 4281090683
-0.3162427247 -0.1337256283 0.5246303082 4281024893
-0.3158008456 -0.1329566836 0.5238972902 4281024893
-0.3148539364 -0.1319776922 0.5223264098 4280828028
-0.3154204488 -0.1316337585 0.5232661963 4280959614
-0.3149773479 -0.1308682710 0.5225310922 4281157506
-0.3145338297 -0.1301042438 0.5217953324 4281091713
-0.3140898645 -0.1293416619 0.5210587978 4281420678
-0.3136454523 -0.1285805553 0.5203216076 4282604952
-0.3132006526 -0.1278208941 0.5195836425 4283658923
-0.3127553761 -0.1270627081 0.5188450217 4283264165
-0.3123097122 -0.1263059974 0.5181056261 4282673057
-0.3118636012 -0.1255507469 0.5173655748 4282673057
-0.3119225800 -0.1249995604 0.5174634457 4282475935
-0.3109700680 -0.1240446642 0.5158832669 4282146970
-0.3110284209 -0.1234946400 0.5159800649 4282213017
-0.3105806708 -0.1227444038 0.5152372718 4282476189
-0.3101325333 -0.1219956502 0.5144938231 4282279328
-0.3096839488 -0.1212483793 0.5137496591 4282279328
-0.3092349470 -0.1205025986 0.5130047798 4282344351
-0.3087854981 -0.1197583079 0.5122591853 4282146972
-0.3083356619 -0.1190155074 0.5115128756 4282410661
-0.3083917499 -0.1184687391 0.5116059780 4283134384
-0.3079411685 -0.1177280396 0.5108584166 4283068854
-0.3069835603 -0.1167961061 0.5092698336 4283134647
-0.3070386946 -0.1162511408 0.5093612671 4283069112
-0.3065868020 -0.1155149490 0.5086116791 4282937526
-0.3056276739 -0.1145902351 0.5070205331 4282937525
-0.3061887622 -0.1142362356 0.5079513192 4282937525
-0.3052287102 -0.1133154407 0.5063586235 4283069365
-0.3052822649 -0.1127726361 0.5064474940 4283266744
-0.3053356111 -0.1122295409 0.5065359473 4285043925
-0.3048814237 -0.1115006357 0.5057824850 4286030820
-0.3049341738 -0.1109578758 0.5058700442 4285241812
-0.3049867153 -0.1104148328 0.5059571862 4285176019
-0.3050390184 -0.1098715141 0.5060439110 4285700823
-0.3055987060 -0.1095098257 0.5069724321 4285503444
-0.3056505919 -0.1089650467 0.5070585012 4285830869
-0.3062100708 -0.1086000875 0.5079866648 4284909767
-0.3062615395 -0.1080538407 0.5080720782 4283790770
-0.3068207800 -0.1076856181 0.5089998245 4283856563
-0.3068718910 -0.1071379185 0.5090845823 4285041603
-0.3074308932 -0.1067664251 0.5100119114 4284317880
-0.3074815869 -0.1062172800 0.5100960135 4284384184
-0.3075320423 -0.1056678593 0.5101796985 4282805152
-0.3080906272 -0.1052919179 0.5111064315 4282804900
-0.3081406653 -0.1047410518 0.5111894608 4283002279
-0.3081904650 -0.1041899174 0.5112720132 4282410146
-0.3087486625 -0.1038095355 0.5121980309 4282870697
-0.3087980449 -0.1032569557 0.5122799873 4282870185
-0.3093559742 -0.1028733179 0.5132055879 4282607013
-0.3094049394 -0.1023193002 0.5132867694 4282278307
-0.3099626303 -0.1019323990 0.5142119527 4282673065
-0.3100111783 -0.1013769507 0.5142924786 4282871471
-0.3105686009 -0.1009867936 0.5152172446 4283660987
-0.3111259341 -0.1005945429 0.5161418319 4284779468
-0.3111738861 -0.1000364944 0.5162214041 4284582089
-0.3117309511 -0.0996409878 0.5171455145 4283660987
-0.3122879267 -0.0992434025 0.5180695057 4282871471
-0.3123352528 -0.0986827537 0.5181480646 4282542508
-0.3128919601 -0.0982819125 0.5190715790 4282410922
-0.3134485483 -0.0978789926 0.5199949145 4282409895
-0.3134952784 -0.0973157510 0.5200724602 4282673067
-0.3140515983 -0.0969095752 0.5209953189 4282935726
-0.3140978813 -0.0963449106 0.5210721493 4282606761
-0.3141439259 -0.0957800001 0.5211485028 4282672816
-0.3141897023 -0.0952148438 0.5212244987 4282607023
-0.3147453666 -0.0948030949 0.5221462846 4282476204
-0.3147906959 -0.0942365229 0.5222215056 4282476204
-0.3148357868 -0.0936697125 0.5222963095 4282279595
-0.3153909445 -0.0932535529 0.5232172608 4282345388
-0.3159460127 -0.0928353146 0.5241380930 4282476202
-0.3159904480 -0.0922659338 0.5242118239 4282410409
-0.3160346448 -0.0916963220 0.5242851377 4282409382
-0.3165892065 -0.0912736803 0.5252050757 4282540968
-0.3171436191 -0.0908489674 0.5261248946 4282279336
-0.3171871603 -0.0902767926 0.5261971354 4282345129
-0.3172304630 -0.0897043943 0.5262688994 4284645291
-0.3394533098 -0.1738936305 0.5641750097 4282931060
-0.3395330012 -0.1733074635 0.5643074512 4282733681
-0.3391137421 -0.1724672467 0.5636106133 4282536063
-0.3391928375 -0.1718811095 0.5637420416 4282536063
-0.3382738233 -0.1707907617 0.5622146726 4282471040
-0.3378531635 -0.1699544936 0.5615155697 4282471040
-0.3364337385 -0.1686192006 0.5591564178 4282536063
-0.3375097513 -0.1685352325 0.5609447956 4283588751
-0.3360890448 -0.1672051847 0.5585835576 4287207617
-0.3366654217 -0.1668702513 0.5595415235 4286681273
-0.3357429802 -0.1657930315 0.5580083728 4286549939
-0.3353195488 -0.1649647355 0.5573046207 4285563044
-0.3343957961 -0.1638927907 0.5557693839 4282404475
-0.3349712789 -0.1635562778 0.5567258000 4282207096
-0.3335464299 -0.1622446477 0.5543577075 4282273910
-0.3331210613 -0.1614225805 0.5536507368 4282010738
-0.3326952159 -0.1606018692 0.5529429913 4283850119
-0.3317685127 -0.1595418751 0.5514028072 4285823909
-0.3313416541 -0.1587247550 0.5506933331 4287008183
-0.3304137290 -0.1576700807 0.5491510630 4287205562
-0.3299858272 -0.1568565518 0.5484399199 4287140284
-0.3285557926 -0.1555700749 0.5460632443 4286877112
-0.3281267881 -0.1547610164 0.5453501940 4286088372
-0.3276973367 -0.1539533287 0.5446364284 4284311961
-0.3272674084 -0.1531470269 0.5439218879 4282273922
-0.3268370330 -0.1523420811 0.5432066321 4282471301
-0.3259048462 -0.1513057500 0.5416572690 4282340232
-0.3259749711 -0.1507363617 0.5417737961 4281550716
-0.3255432248 -0.1499355733 0.5410562754 4281616509
-0.3241076469 -0.1486758739 0.5386703014 4281484923
-0.3251802623 -0.1485674381 0.5404530764 4281419130
-0.3237434626 -0.1473131627 0.5380650759 4281419130
-0.3233098388 -0.1465188265 0.5373443961 4281419391
-0.3228757679 -0.1457258910 0.5366229415 4281419391
-0.3224412799 -0.1449343562 0.5359007716 4281419391
-0.3220063150 -0.1441442221 0.5351778865 4281419391
-0.3210684657 -0.1431315094 0.5336191654 4281288062
-0.3211350739 -0.1425681859 0.5337298512 4281288062
-0.3206987679 -0.1417822987 0.5330047607 4281222269
-0.3197592795 -0.1407764703 0.5314432979 4281222269
-0.3198248744 -0.1402147561 0.5315523148 4281222269
-0.3188842833 -0.1392135322 0.5299890637 4281288062
-0.3184461296 -0.1384342015 0.5292608142 4281288062
-0.3180075288 -0.1376563013 0.5285319090 4281288062
-0.3175685108 -0.1368798316 0.5278022289 4281288062
-0.3171290159 -0.1361047924 0.5270717740 4281288062
-0.3166891038 -0.1353311837 0.5263406634 4281222269
-0.3162487447 -0.1345590204 0.5256087780 4281156476
-0.3158079684 -0.1337883025 0.5248761773 4281287805
-0.3153667450 -0.1330190152 0.5241428614 4281419391
-0.3149251044 -0.1322511882 0.5234088302 4281156476
-0.3154909611 -0.1319062263 0.5243493319 4281090683
-0.3145445585 -0.1309296936 0.5227763653 4281288833
-0.3141016960 -0.1301653385 0.5220403075 4281486212
-0.3136583865 -0.1294024289 0.5213035941 4281618310
-0.3137190342 -0.1288481206 0.5214043856 4282144654
-0.3132749796 -0.1280872524 0.5206663609 4283198370
-0.3128305078 -0.1273278296 0.5199276209 4283856300
-0.3123855889 -0.1265698820 0.5191881061 4284448950
-0.3114354610 -0.1256098300 0.5176090598 4284646329
-0.3114944398 -0.1250584126 0.5177070498 4283988913
-0.3110482395 -0.1243048832 0.5169654489 4283199397
-0.3106015921 -0.1235528290 0.5162231326 4282739359
-0.3106596768 -0.1230022609 0.5163196921 4282607773
-0.3097070456 -0.1220531762 0.5147364140 4282213535
-0.3097644746 -0.1215037853 0.5148318410 4282279328
-0.3093162179 -0.1207567751 0.5140868425 4282147742
-0.3088675439 -0.1200112551 0.5133411288 4281752984
-0.3084184527 -0.1192672327 0.5125947595 4282213281
-0.3079689443 -0.1185247004 0.5118476748 4283200176
-0.3075190187 -0.1177836731 0.5110998750 4283068850
-0.3070686460 -0.1170441434 0.5103513598 4283134643
-0.3066178858 -0.1163061187 0.5096021891 4282805939
-0.3066727519 -0.1157606244 0.5096933246 4282805939
-0.3052089214 -0.1146444678 0.5072604418 4283134904
-0.3057692647 -0.1142903119 0.5081917644 4283003318
-0.3048105836 -0.1133691072 0.5065984130 4282806191
-0.3043577075 -0.1126386374 0.5058457255 4282806191
-0.3049174547 -0.1122827232 0.5067760348 4283991233
-0.3044639230 -0.1115534902 0.5060222745 4284912335
-0.3045166731 -0.1110104918 0.5061099529 4286162402
-0.3045691848 -0.1104672179 0.5061972141 4286030816
-0.3046214581 -0.1099236533 0.5062840581 4285240785
-0.3051804304 -0.1095618084 0.5072131157 4283990718
-0.3057393134 -0.1091978773 0.5081419945 4283858620
-0.3057910502 -0.1086516753 0.5082279444 4283003311
-0.3063497245 -0.1082844734 0.5091564655 4282345638
-0.3064010441 -0.1077368036 0.5092417598 4282214052
-0.3069594800 -0.1073663309 0.5101699233 4282609580
-0.3070104122 -0.1068172082 0.5102545619 4282477994
-0.3070610762 -0.1062678173 0.5103387833 4282674605
-0.3071115017 -0.1057181507 0.5104225874 4282608812
-0.3076694012 -0.1053420529 0.5113497972 4283199925
-0.3077194095 -0.1047909409 0.5114328861 4283134132
-0.3077691793 -0.1042395607 0.5115156174 4283133364
-0.3083266616 -0.1038590148 0.5124421716 4283001778
-0.3083760142 -0.1033061892 0.5125241876 4282674092
-0.3089332581 -0.1029223800 0.5134503245 4283397815
-0.3089821935 -0.1023681164 0.5135316849 4283726782
-0.3095391691 -0.1019810438 0.5144573450 4284253126
-0.3095876873 -0.1014253423 0.5145379901 4284714190
-0.3101443946 -0.1010350138 0.5154632926 4284845776
-0.3107010126 -0.1006425992 0.5163883567 4284582604
-0.3112575412 -0.1002480909 0.5173133016 4283464123
-0.3113052845 -0.0996886119 0.5173926950 4282806193
-0.3118615448 -0.0992908552 0.5183171630 4282740400
-0.3119088709 -0.0987299457 0.5183958411 4282608301
-0.3124648631 -0.0983289331 0.5193198919 4282410922
-0.3130207360 -0.0979258269 0.5202437639 4282476202
-0.3130674362 -0.0973623320 0.5203213692 4282607788
-0.3136230409 -0.0969559774 0.5212447643 4282607788
-0.3136693239 -0.0963910595 0.5213217139 4282476202
-0.3137153387 -0.0958258882 0.5213981867 4282607023
-0.3137611151 -0.0952604786 0.5214742422 4282607023
-0.3143160343 -0.0948485360 0.5223965645 4282476204
-0.3143613636 -0.0942817107 0.5224719048 4282476204
-0.3144064248 -0.0937146395 0.5225468278 4282279595
-0.3149608672 -0.0932982937 0.5234683156 4282213802
-0.3155152202 -0.0928798690 0.5243896246 4282410409
-0.3155596554 -0.0923102275 0.5244634748 4282410409
-0.3156038225 -0.0917403549 0.5245369077 4282343589
-0.3161576688 -0.0913175270 0.5254573822 4282409382
-0.3167113662 -0.0908926129 0.5263776779 4282147752
-0.3167549074 -0.0903201848 0.5264499784 4282213545
-0.3173083067 -0.0898920372 0.5273697376 4284448426
-0.3384843171 -0.1737179011 0.5636048913 4282997368
-0.3385638297 -0.1731323600 0.5637372732 4282668403
-0.3386431038 -0.1725464016 0.5638692975 4282470270
-0.3387221694 -0.1719600409 0.5640009046 4282601856
-0.3383027315 -0.1711212397 0.5633025765 4282601854
-0.3378828764 -0.1702837646 0.5626034141 4282536061
-0.3374625146 -0.1694476008 0.5619035363 4282536061
-0.3365431130 -0.1683633476 0.5603726506 4283588749
-0.3371191323 -0.1680278331 0.5613317490 4287470530
-0.3352010846 -0.1664516926 0.5581380129 4284773017
-0.3347786665 -0.1656225771 0.5574346781 4285562272
-0.3344315886 -0.1642134637 0.5568567514 4282930302
-0.3340078890 -0.1633874923 0.5561512709 4282864509
-0.3335837424 -0.1625628769 0.5554450154 4282338672
-0.3326596618 -0.1614971161 0.5539063215 4281812328
-0.3322344720 -0.1606760621 0.5531983972 4282139755
-0.3318088353 -0.1598563641 0.5524896979 4282402927
-0.3308829367 -0.1587981284 0.5509479642 4283455615
-0.3294564188 -0.1575040072 0.5485726595 4285166233
-0.3290290833 -0.1566909999 0.5478610992 4286152874
-0.3281011283 -0.1556420922 0.5463160276 4286152874
-0.3286733031 -0.1553054750 0.5472687483 4286153905
-0.3277443349 -0.1542601734 0.5457219481 4286746042
-0.3268147111 -0.1532180160 0.5441740155 4285562543
-0.3258844316 -0.1521789730 0.5426250100 4285101992
-0.3264555633 -0.1518417299 0.5435760021 4283457941
-0.3255242407 -0.1508063227 0.5420252681 4281747323
-0.3250931799 -0.1500051916 0.5413075686 4281616255
-0.3246616721 -0.1492054611 0.5405890346 4281550462
-0.3242297173 -0.1484071016 0.5398697853 4281484669
-0.3232960999 -0.1473816484 0.5383152366 4281418876
-0.3228631318 -0.1465869695 0.5375943184 4281419391
-0.3224297464 -0.1457936913 0.5368726850 4281419391
-0.3219958842 -0.1450018287 0.5361502767 4281353598
-0.3215616047 -0.1442113519 0.5354271531 4281353598
-0.3211268485 -0.1434222907 0.5347032547 4281288062
-0.3206916749 -0.1426346451 0.5339786410 4281288062
-0.3202560544 -0.1418484151 0.5332533121 4281288062
-0.3198199868 -0.1410635859 0.5325272083 4281288062
-0.3183791339 -0.1398390532 0.5301280618 4281288062
-0.3189465404 -0.1394982040 0.5310728550 4281353855
-0.3180067539 -0.1384988576 0.5295080543 4281353855
-0.3175688386 -0.1377206147 0.5287788510 4281288062
-0.3171304464 -0.1369438171 0.5280489326 4281288062
-0.3166916370 -0.1361684352 0.5273182392 4281288062
-0.3162524104 -0.1353944987 0.5265868902 4281222269
-0.3158127069 -0.1346219927 0.5258547664 4281156476
-0.3153725863 -0.1338509321 0.5251219273 4281353083
-0.3149320483 -0.1330813169 0.5243883729 4281353083
-0.3149942458 -0.1325248629 0.5244919658 4281222010
-0.3145529032 -0.1317572445 0.5237571001 4281222010
-0.3141111434 -0.1309911013 0.5230215192 4281288316
-0.3136689663 -0.1302263886 0.5222852230 4281419902
-0.3132263422 -0.1294631511 0.5215482116 4281420418
-0.3132869601 -0.1289086193 0.5216491818 4281420418
-0.3128435612 -0.1281474084 0.5209108591 4281750666
-0.3123997450 -0.1273876578 0.5201718807 4283066526
-0.3119554818 -0.1266293824 0.5194321871 4284251057
-0.3115108013 -0.1258725673 0.5186917186 4284777401
-0.3110657036 -0.1251172274 0.5179505944 4284646328
-0.3106201589 -0.1243633702 0.5172087550 4284251570
-0.3101741970 -0.1236109883 0.5164661407 4283660203
-0.3102322519 -0.1230601892 0.5165628195 4283068066
-0.3097855151 -0.1223098710 0.5158190131 4282279328
-0.3093383610 -0.1215610430 0.5150744319 4282345121
-0.3088907897 -0.1208137050 0.5143291950 4282082206
-0.3084428012 -0.1200678572 0.5135832429 4281358483
-0.3079943955 -0.1193234995 0.5128365755 4281819037
-0.3075455427 -0.1185806394 0.5120892525 4283003311
-0.3076013625 -0.1180330962 0.5121821761 4283068850
-0.3071517646 -0.1172923371 0.5114335418 4283068850
-0.3061964810 -0.1163610667 0.5098429322 4282937525
-0.3062513173 -0.1158153340 0.5099342465 4282674353
-0.3058004677 -0.1150790974 0.5091835260 4282937525
-0.3053492010 -0.1143443659 0.5084321499 4283003318
-0.3048975170 -0.1136111543 0.5076800585 4282741168
-0.3044454157 -0.1128794625 0.5069272518 4282609582
-0.3044987023 -0.1123358905 0.5070159435 4282741166
-0.3045517504 -0.1117920280 0.5071042776 4282741166
-0.3046045601 -0.1112478897 0.5071922541 4283003318
-0.3046571314 -0.1107034683 0.5072797537 4283529662
-0.3047094643 -0.1101587638 0.5073668957 4283266742
-0.3052678108 -0.1097958609 0.5082966089 4282543019
-0.3053197563 -0.1092496887 0.5083830953 4282805678
-0.3058778644 -0.1088835150 0.5093123913 4282608299
-0.3059293926 -0.1083358824 0.5093982220 4282870960
-0.3059806824 -0.1077879742 0.5094836354 4282936753
-0.3065384328 -0.1074173376 0.5104122758 4282410411
-0.3065893054 -0.1068679765 0.5104970336 4282213032
-0.3071468174 -0.1064940691 0.5114253163 4282541998
-0.3071973026 -0.1059432551 0.5115093589 4282936756
-0.3072475493 -0.1053921655 0.5115930438 4282673581
-0.3078046441 -0.1050138101 0.5125206113 4282541995
-0.3078544736 -0.1044612750 0.5126036406 4283595448
-0.3079040647 -0.1039084643 0.5126861930 4284121792
-0.3084607422 -0.1035256684 0.5136131048 4284583374
-0.3085099161 -0.1029714197 0.5136950016 4285175511
-0.3090663254 -0.1025853530 0.5146214366 4285437913
-0.3091150820 -0.1020296663 0.5147026181 4285174741
-0.3096712530 -0.1016403437 0.5156286955 4284713677
-0.3097195923 -0.1010832116 0.5157091618 4283397817
-0.3102754951 -0.1006906256 0.5166348219 4282345129
-0.3103233874 -0.1001320705 0.5167145729 4282476715
-0.3108790219 -0.0997362211 0.5176397562 4282673581
-0.3114345670 -0.0993382856 0.5185647607 4282541995
-0.3114818633 -0.0987771228 0.5186435580 4282607788
-0.3125453293 -0.0985361487 0.5204142928 4282541995
-0.3125922978 -0.0979726464 0.5204924941 4282345129
-0.3131473362 -0.0975672826 0.5214167237 4282345129
-0.3131938577 -0.0970023572 0.5214941502 4282345129
-0.3137486279 -0.0965937376 0.5224179029 4282345129
-0.3137947023 -0.0960273966 0.5224946141 4282475951
-0.3138405383 -0.0954608023 0.5225709081 4282410158
-0.3138861060 -0.0948939696 0.5226467848 4282410411
-0.3139314055 -0.0943268836 0.5227222443 4282410411
-0.3144853115 -0.0939115137 0.5236445665 4282279595
-0.3145301938 -0.0933430195 0.5237192512 4282213802
-0.3150838017 -0.0929244012 0.5246410966 4282344616
-0.3151282072 -0.0923545063 0.5247150064 4282410409
-0.3156815171 -0.0919326469 0.5256363153 4282278055
-0.3157255054 -0.0913613439 0.5257095098 4282278055
-0.3162784874 -0.0909362435 0.5266303420 4282147752
-0.3168313801 -0.0905090645 0.5275509357 4282279338
-0.3168746829 -0.0899352133 0.5276230574 4284382633
-0.3380131125 -0.1737974882 0.5638630986 4283063161
-0.3380925953 -0.1732117087 0.5639956594 4282734196
-0.3381718397 -0.1726255268 0.5641278625 4282667390
-0.3382508457 -0.1720389277 0.5642596483 4282733183
-0.3378320932 -0.1711997837 0.5635610819 4282667389
-0.3374128640 -0.1703619510 0.5628617406 4282535803
-0.3369931579 -0.1695254445 0.5621616244 4282535803
-0.3360751271 -0.1684407294 0.5606302023 4283588491
-0.3366504014 -0.1681050956 0.5615898967 4288193738
-0.3352332115 -0.1667760760 0.5592257380 4287206843
-0.3348115683 -0.1659457535 0.5585223436 4287337653
-0.3343894482 -0.1651167572 0.5578182340 4286745516
-0.3334684074 -0.1640439034 0.5562817454 4285034647
-0.3340424299 -0.1637071371 0.5572392941 4284508303
-0.3331203461 -0.1626378298 0.5557011366 4282864242
-0.3326964080 -0.1618142128 0.5549939275 4282337898
-0.3317731023 -0.1607502103 0.5534536839 4282469231
-0.3313481212 -0.1599301696 0.5527447462 4283785091
-0.3304235637 -0.1588714868 0.5512024164 4283127161
-0.3294983208 -0.1578159034 0.5496589541 4282469231
-0.3290717602 -0.1570016891 0.5489473939 4283587199
-0.3276458383 -0.1557140797 0.5465686917 4284639887
-0.3282172680 -0.1553773284 0.5475219488 4285298078
-0.3272896707 -0.1543315947 0.5459745526 4287206075
-0.3268611729 -0.1535237134 0.5452597737 4287009728
-0.3254324496 -0.1522494853 0.5428764224 4286351798
-0.3265028596 -0.1521451026 0.5446620584 4283523476
-0.3250729144 -0.1508762538 0.5422766209 4281483893
-0.3246425092 -0.1500747800 0.5415586829 4281418876
-0.3237113357 -0.1490443498 0.5400053263 4281616255
-0.3242808282 -0.1487054974 0.5409553051 4281616770
-0.3228481114 -0.1474501193 0.5385652781 4281419391
-0.3224157989 -0.1466550976 0.5378441215 4281419391
-0.3219830692 -0.1458614767 0.5371222496 4281419391
-0.3215498924 -0.1450692713 0.5363996625 4281353598
-0.3211162686 -0.1442784518 0.5356763005 4281353598
-0.3206821978 -0.1434890628 0.5349521637 4281288062
-0.3202476799 -0.1427010745 0.5342273116 4281353855
-0.3198127151 -0.1419144869 0.5335017443 4281353855
-0.3193773031 -0.1411293298 0.5327754021 4281353855
-0.3179385066 -0.1399042606 0.5303752422 4281419648
-0.3185051978 -0.1395632774 0.5313205719 4281419648
-0.3180684745 -0.1387823969 0.5305920243 4281419648
-0.3176313043 -0.1380029321 0.5298627615 4281353855
-0.3166918159 -0.1370077729 0.5282955170 4281353855
-0.3162536621 -0.1362320632 0.5275646448 4281288062
-0.3158150911 -0.1354577839 0.5268329978 4281222269
-0.3153760731 -0.1346849501 0.5261006355 4281222269
-0.3154388964 -0.1341271251 0.5262054801 4281484669
-0.3144967258 -0.1331436038 0.5246337652 4281221497
-0.3140563965 -0.1323750913 0.5238992572 4281418876
-0.3146208227 -0.1320298612 0.5248407722 4281550462
-0.3136771321 -0.1310524642 0.5232665539 4281419389
-0.3132356107 -0.1302874386 0.5225300193 4281485182
-0.3127936721 -0.1295238584 0.5217927694 4281354625
-0.3128542602 -0.1289690882 0.5218938589 4281617797
-0.3124115169 -0.1282075346 0.5211552978 4283328928
-0.3119683862 -0.1274474561 0.5204160810 4283592100
-0.3115248084 -0.1266888380 0.5196760893 4283198112
-0.3110807836 -0.1259317100 0.5189353824 4282737561
-0.3106363416 -0.1251760274 0.5181940198 4282935197
-0.3101914823 -0.1244218424 0.5174518824 4283593127
-0.3097461760 -0.1236691251 0.5167090297 4283791019
-0.3098042011 -0.1231180876 0.5168058276 4283330468
-0.3093581498 -0.1223674417 0.5160617828 4282213533
-0.3089116812 -0.1216182783 0.5153169632 4282213533
-0.3084647655 -0.1208706126 0.5145714283 4281819036
-0.3080174327 -0.1201244295 0.5138252378 4280897934
-0.3075696826 -0.1193797439 0.5130783319 4281752990
-0.3071215153 -0.1186365560 0.5123307109 4282739885
-0.3071773350 -0.1180887744 0.5124237537 4283068852
-0.3067283928 -0.1173476875 0.5116748810 4283003059
-0.3062790632 -0.1166080981 0.5109252930 4282937525
-0.3058293164 -0.1158700213 0.5101750493 4282674353
-0.3048743606 -0.1149431542 0.5085820556 4282740917
-0.3054333627 -0.1145878062 0.5095145702 4282806710
-0.3044775128 -0.1136648580 0.5079200268 4282675636
-0.3040260673 -0.1129328385 0.5071669817 4282741429
-0.3040793538 -0.1123890281 0.5072557926 4282675375
-0.3041323721 -0.1118449345 0.5073442459 4282477996
-0.3041851521 -0.1113005504 0.5074323416 4283135926
-0.3042377234 -0.1107558906 0.5075200200 4284188614
-0.3042900264 -0.1102109402 0.5076072812 4285306073
-0.3048476577 -0.1098478884 0.5085374713 4285635038
-0.3048995733 -0.1093014777 0.5086240768 4285896409
-0.3054569662 -0.1089351401 0.5095539093 4285370065
-0.3055084646 -0.1083872691 0.5096398592 4285697476
-0.3055597544 -0.1078391224 0.5097253919 4285763269
-0.3061167598 -0.1074683294 0.5106545687 4285829303
-0.3061676323 -0.1069187224 0.5107394457 4285960889
-0.3067243993 -0.1065446511 0.5116682053 4285632951
-0.3067748845 -0.1059935912 0.5117524266 4285896123
-0.3073314130 -0.1056162566 0.5126808286 4286424020
-0.3073814809 -0.1050637364 0.5127643347 4286818778
-0.3074312806 -0.1045109555 0.5128474236 4286622185
-0.3079873919 -0.1041291654 0.5137751102 4286556392
-0.3080368042 -0.1035749391 0.5138575435 4285767394
-0.3080859482 -0.1030204371 0.5139394999 4284385741
-0.3086416721 -0.1026342064 0.5148665309 4283792834
-0.3091972768 -0.1022458896 0.5157933831 4283134904
-0.3092458546 -0.1016887724 0.5158743858 4282739376
-0.3098011911 -0.1012971848 0.5168008208 4282541997
-0.3098493516 -0.1007386371 0.5168811679 4282344618
-0.3104044199 -0.1003437862 0.5178071260 4282476204
-0.3104521334 -0.0997838005 0.5178866982 4282805170
-0.3110069633 -0.0993856937 0.5188122392 4282344619
-0.3110542595 -0.0988242775 0.5188911557 4282541997
-0.3116087914 -0.0984229073 0.5198162198 4282673583
-0.3121632338 -0.0980194509 0.5207411051 4282148010
-0.3127175570 -0.0976139009 0.5216658115 4282213803
-0.3127640784 -0.0970487222 0.5217434168 4282280366
-0.3133181334 -0.0966399238 0.5226676464 4282082987
-0.3133641779 -0.0960733220 0.5227444768 4282410158
-0.3134099841 -0.0955064744 0.5228208899 4282410158
-0.3134555221 -0.0949393734 0.5228968859 4282345131
-0.3140089214 -0.0945249870 0.5238200426 4282345131
-0.3140540123 -0.0939564779 0.5238952637 4282345388
-0.3146071136 -0.0935388356 0.5248179436 4282279595
-0.3146517575 -0.0929689184 0.5248923898 4282279338
-0.3146961629 -0.0923987627 0.5249664783 4282345131
-0.3152487576 -0.0919767097 0.5258883238 4282278055
-0.3152927160 -0.0914051533 0.5259615779 4282212262
-0.3158449829 -0.0909798592 0.5268828869 4282147752
