VERSION 0.7
FIELDS x y z rgba
SIZE 4 4 4 4
TYPE F F F U
COUNT 1 1 1 1
WIDTH 920
HEIGHT 1
VIEWPOINT 0.0 0.0 0.0 1.0 0.0 0.0 0.0
POINTS 920
DATA ascii
-0.2573685348 -0.1313946098 0.5269705057 4282934697
-0.2574232519 -0.1308369190 0.5270825028 4284249274
-0.2574777603 -0.1302788705 0.5271940827 4284446653
-0.2579605579 -0.1299363077 0.5281826258 4284184762
-0.2580147386 -0.1293766201 0.5282935500 4284382141
-0.2584973872 -0.1290305704 0.5292817950 4284381113
-0.2589799762 -0.1286823004 0.5302699804 4284381113
-0.2598914206 -0.1285439283 0.5321361423 4284973248
-0.2603740692 -0.1281903088 0.5331243873 4285170627
-0.2612856925 -0.1280447245 0.5349909663 4284579512
-0.2621974647 -0.1278950423 0.5368578434 4284776891
-0.2635385692 -0.1279496849 0.5396038294 4286947030
-0.2644506991 -0.1277909130 0.5414714217 4287144409
-0.2653629482 -0.1276280433 0.5433393121 4286749135
-0.2662753165 -0.1274610907 0.5452073812 4285499068
-0.2667582631 -0.1270854026 0.5461962223 4285301174
-0.2676708102 -0.1269112080 0.5480646491 4286090690
-0.2685834467 -0.1267329007 0.5499333739 4286485702
-0.2690663934 -0.1263486743 0.5509222150 4286354116
-0.2699792087 -0.1261631101 0.5527911782 4286419395
-0.2704621255 -0.1257735044 0.5537799597 4286419395
-0.2713750601 -0.1255806684 0.5556492209 4286550212
-0.2722880840 -0.1253837496 0.5575187206 4286616005
-0.2732012272 -0.1251827180 0.5593883991 4286747593
-0.2736841440 -0.1247813702 0.5603771806 4286879179
-0.2745974064 -0.1245730519 0.5622470975 4286879181
-0.2755107582 -0.1243606284 0.5641172528 4286944974
-0.2764241993 -0.1241440922 0.5659875274 4286748361
-0.2769070864 -0.1237310097 0.5669763088 4286879947
-0.2778206468 -0.1235071793 0.5688467622 4286945740
-0.2787342668 -0.1232792363 0.5707174540 4287011533
-0.2796479762 -0.1230471656 0.5725883245 4287077326
-0.2809927464 -0.1229996234 0.5753417611 4286879947
-0.2819066942 -0.1227583662 0.5772131085 4286550982
-0.2828207314 -0.1225129813 0.5790846348 4286419396
-0.2837348282 -0.1222634688 0.5809562802 4286485188
-0.2846489847 -0.1220098287 0.5828280449 4286353602
-0.2855632305 -0.1217520535 0.5846999884 4286616774
-0.2864775360 -0.1214901507 0.5865720510 4286682567
-0.2873918712 -0.1212241128 0.5884442329 4286682567
-0.2883062959 -0.1209539399 0.5903165340 4286616774
-0.2892207801 -0.1206796244 0.5921889544 4286616774
-0.2897035480 -0.1202220097 0.5931774974 4286879946
-0.2906180620 -0.1199403703 0.5950499773 4287142351
-0.2911007106 -0.1194773242 0.5960382223 4286813386
-0.2920152545 -0.1191883534 0.5979107022 4286616774
-0.2929298282 -0.1188952401 0.5997833610 4286748360
-0.2938444316 -0.1185979769 0.6016560197 4287537358
-0.2943268716 -0.1181231216 0.6026438475 4289116390
-0.2952414751 -0.1178185195 0.6045165658 4290563060
-0.2957237959 -0.1173382327 0.6055040956 4290497267
-0.2966383994 -0.1170262918 0.6073767543 4289180633
-0.2971205115 -0.1165405586 0.6083639264 4288588496
-0.2980351150 -0.1162212715 0.6102365851 4289575126
-0.2993823588 -0.1160655618 0.6129950881 4290233056
-0.3002970517 -0.1157370135 0.6148679852 4288851393
-0.3007789850 -0.1152384952 0.6158547401 4290167253
-0.2915127277 -0.1897115856 0.5982422829 4287533990
-0.2911680341 -0.1888233572 0.5975348949 4283125859
-0.2904013991 -0.1876640320 0.5959616303 4283256179
-0.2896341085 -0.1865078062 0.5943869948 4284374660
-0.2880227864 -0.1848134696 0.5910802484 4288837476
-0.2826140821 -0.1806984842 0.5799804926 4288837476
-0.2700296342 -0.1720365137 0.5541546941 4288771416
-0.2654570341 -0.1685180217 0.5447708368 4288705623
-0.2634146810 -0.1666208655 0.5405794978 4288639832
-0.2626377940 -0.1655306071 0.5389851928 4288705625
-0.2610155642 -0.1639130265 0.5356560349 4288705623
-0.2619270682 -0.1638882011 0.5375266075 4288639830
-0.2611485422 -0.1628056169 0.5359289050 4288639830
-0.2607920468 -0.1619887203 0.5351973176 4288508244
-0.2608579397 -0.1614348590 0.5353325605 4288442451
-0.2605007589 -0.1606198251 0.5345994830 4288508244
-0.2605661452 -0.1600660235 0.5347337127 4288573780
-0.2606313527 -0.1595118046 0.5348675251 4288573780
-0.2602731586 -0.1586991251 0.5341324210 4288376401
-0.2603378594 -0.1581449807 0.5342652798 4287850057
-0.2599789798 -0.1573341787 0.5335287452 4287915850
-0.2600432038 -0.1567801088 0.5336605310 4288507987
-0.2601072192 -0.1562256217 0.5337918997 4288705366
-0.2597472966 -0.1554171890 0.5330532789 4288573780
-0.2598108351 -0.1548628062 0.5331836939 4288573780
-0.2594502270 -0.1540562809 0.5324436426 4288573780
-0.2595132589 -0.1535019726 0.5325729847 4288573780
-0.2595761120 -0.1529472768 0.5327019691 4288639573
-0.2596387565 -0.1523921788 0.5328304768 4288639573
-0.2597011924 -0.1518366635 0.5329586267 4288639573
-0.2593389750 -0.1510335654 0.5322153568 4288639573
-0.2594009340 -0.1504781693 0.5323424339 4288771159
-0.2590380013 -0.1496770084 0.5315976739 4289165917
-0.2590994537 -0.1491217315 0.5317237973 4288705366
-0.2591606975 -0.1485660523 0.5318494439 4287784262
-0.2587967813 -0.1477673501 0.5311026573 4288113227
-0.2588575482 -0.1472118050 0.5312272906 4288442192
-0.2589180768 -0.1466558576 0.5313515663 4288639571
-0.2589784265 -0.1460995376 0.5314754248 4288639573
-0.2586132288 -0.1453038305 0.5307258964 4288705366
-0.2586730719 -0.1447476447 0.5308487415 4288705366
-0.2587327063 -0.1441910714 0.5309711099 4288705366
-0.2587921321 -0.1436341107 0.5310931206 4288639573
-0.2588513792 -0.1430767626 0.5312146544 4288639573
-0.2584845722 -0.1422846317 0.5304619074 4288639573
-0.2585432827 -0.1417274475 0.5305824280 4288639573
-0.2581757903 -0.1409373134 0.5298281908 4288705366
-0.2582339942 -0.1403802931 0.5299476981 4288705366
-0.2578658164 -0.1395921558 0.5291920900 4288705366
-0.2579235137 -0.1390352994 0.5293105245 4288639573
-0.2575546205 -0.1382491887 0.5285534859 4288705366
-0.2571853399 -0.1374645382 0.5277956128 4288771159
-0.2572422326 -0.1369084120 0.5279124379 4288771159
-0.2572989464 -0.1363519132 0.5280287862 4288771159
-0.2573554516 -0.1357950419 0.5281447172 4288902745
-0.2574117482 -0.1352378130 0.5282602906 4288771159
-0.2570408583 -0.1344568729 0.5274991393 4287196504
-0.2570966482 -0.1338998377 0.5276136398 4284104233
-0.2571522295 -0.1333424449 0.5277277231 4281549437
-0.2572076023 -0.1327846944 0.5278413296 4281615230
-0.2572627664 -0.1322265714 0.5279545188 4281553044
-0.2573177218 -0.1316681057 0.5280673504 4283066283
-0.2573724687 -0.1311092675 0.5281796455 4284315067
-0.2574270070 -0.1305500716 0.5282915831 4284512446
-0.2574813366 -0.1299905330 0.5284031034 4284119224
-0.2579632699 -0.1296456456 0.5293920636 4284250810
-0.2580172420 -0.1290844679 0.5295028687 4284512699
-0.2584990263 -0.1287360638 0.5304915309 4284446906
-0.2594088018 -0.1285976768 0.5323586464 4284316090
-0.2598905861 -0.1282439232 0.5333473086 4284381883
-0.2612288296 -0.1283086389 0.5360936522 4284579514
-0.2621390224 -0.1281579882 0.5379616022 4284842686
-0.2630493641 -0.1280032545 0.5398297906 4285630917
-0.2639598250 -0.1278444380 0.5416982770 4284972987
-0.2648704350 -0.1276815385 0.5435670018 4284512690
-0.2653524876 -0.1273088604 0.5445562601 4284644276
-0.2662632465 -0.1271387041 0.5464253426 4285367482
-0.2671741247 -0.1269644499 0.5482946634 4285893826
-0.2676562071 -0.1265832484 0.5492839217 4286156996
-0.2685672343 -0.1264017373 0.5511535406 4286420168
-0.2694783807 -0.1262161136 0.5530233979 4286419909
-0.2699604630 -0.1258263588 0.5540127158 4286288323
-0.2708717287 -0.1256334782 0.5558828712 4286419396
-0.2717831135 -0.1254364848 0.5577532053 4286550982
-0.2726946175 -0.1252353787 0.5596237779 4286747593
-0.2736062109 -0.1250301749 0.5614945292 4286813386
-0.2740882933 -0.1246255115 0.5624838471 4286944974
-0.2750000060 -0.1244130135 0.5643548369 4287010767
-0.2759117782 -0.1241964027 0.5662260652 4286814154
-0.2768236697 -0.1239756718 0.5680974126 4286879947
-0.2773057222 -0.1235592663 0.5690866709 4286945740
-0.2782177031 -0.1233312413 0.5709582567 4287077326
-0.2795598507 -0.1232887655 0.5737125874 4287143119
-0.2804720998 -0.1230515540 0.5755847096 4287077326
-0.2813843787 -0.1228102148 0.5774568915 4286748361
-0.2822967768 -0.1225647405 0.5793293118 4286485189
-0.2832092047 -0.1223151460 0.5812017918 4286550982
-0.2841217220 -0.1220614165 0.5830745101 4286485189
-0.2850343287 -0.1218035519 0.5849472880 4286550982
-0.2859469652 -0.1215415522 0.5868202448 4286616775
-0.2868596911 -0.1212754175 0.5886933208 4286748361
-0.2877724469 -0.1210051477 0.5905664563 4286682568
-0.2886852622 -0.1207307428 0.5924397707 4286682568
-0.2891671956 -0.1202729493 0.5934287906 4286748361
-0.2900800705 -0.1199912056 0.5953021646 4287010765
-0.2905618548 -0.1195279807 0.5962909460 4286944972
-0.2914747298 -0.1192389056 0.5981643200 4286945223
-0.2923876643 -0.1189456880 0.6000378132 4287668946
-0.2933006287 -0.1186483204 0.6019113660 4289116131
-0.2937822342 -0.1181732714 0.6028997302 4290234612
-0.2946951687 -0.1178685650 0.6047732830 4290233836
-0.2951766253 -0.1173880845 0.6057613492 4288983769
-0.2960895896 -0.1170760244 0.6076349020 4288456910
-0.2970025539 -0.1167598218 0.6095085144 4289312219
-0.2979155779 -0.1164394543 0.6113821864 4290035677
-0.2983967662 -0.1159471422 0.6123697162 4288982989
-0.2993097305 -0.1156194285 0.6142432690 4288390842
-0.2997907698 -0.1151216775 0.6152304411 4290890976
-0.2901249230 -0.1892397553 0.5967544317 4287270818
-0.2897807062 -0.1883529872 0.5960463881 4283125859
-0.2890153527 -0.1871950179 0.5944721699 4283584113
-0.2882493734 -0.1860401332 0.5928965807 4284571008
-0.2862199843 -0.1840762347 0.5887224078 4288902751
-0.2804001272 -0.1796924919 0.5767515898 4288836958
-0.2686811686 -0.1715684533 0.5526469946 4288836952
-0.2649594545 -0.1685864031 0.5449918509 4288836952
-0.2629209757 -0.1666885167 0.5407989621 4288836698
-0.2621456087 -0.1655978411 0.5392040610 4288770905
-0.2613695860 -0.1645103097 0.5376079082 4288705366
-0.2610146403 -0.1636903882 0.5368778110 4288639573
-0.2606592774 -0.1628718376 0.5361468792 4288705366
-0.2607254088 -0.1623173058 0.5362828970 4288573780
-0.2607913315 -0.1617623568 0.5364184976 4288442194
-0.2604349554 -0.1609461159 0.5356855392 4288442194
-0.2600781918 -0.1601312757 0.5349516869 4288639573
-0.2601433396 -0.1595768631 0.5350856781 4288573780
-0.2602082789 -0.1590220332 0.5352192521 4288376401
-0.2598505020 -0.1582095325 0.5344833732 4287784264
-0.2599149644 -0.1576547772 0.5346159339 4287915850
-0.2599792182 -0.1570996195 0.5347480774 4288639573
-0.2596204579 -0.1562894881 0.5340101123 4288771159
-0.2596842051 -0.1557344049 0.5341413021 4288639573
-0.2593247294 -0.1549261808 0.5334019065 4288442194
-0.2593879998 -0.1543711871 0.5335320234 4288442194
-0.2590278089 -0.1535648555 0.5327911377 4288507987
-0.2590906024 -0.1530099511 0.5329203010 4288573780
-0.2591531575 -0.1524546593 0.5330489874 4288639573
-0.2592155337 -0.1518989503 0.5331772566 4288573780
-0.2588540614 -0.1510955542 0.5324337482 4288639573
-0.2593396902 -0.1507863402 0.5334326625 4288705366
-0.2589776218 -0.1499839723 0.5326879025 4289034331
-0.2586151361 -0.1491830200 0.5319423079 4288705366
-0.2586763203 -0.1486271471 0.5320681930 4287652678
-0.2587372959 -0.1480708718 0.5321936011 4288179022
-0.2583738267 -0.1472723931 0.5314459801 4288442194
-0.2584342957 -0.1467162520 0.5315703750 4288705366
-0.2584945858 -0.1461597234 0.5316943526 4288704853
-0.2581301033 -0.1453637183 0.5309446454 4288836439
-0.2581898868 -0.1448073238 0.5310676098 4288639573
-0.2582494617 -0.1442505568 0.5311901569 4288705366
-0.2583088279 -0.1436933875 0.5313122869 4288705366
-0.2579430640 -0.1429004222 0.5305599570 4288705366
-0.2580019236 -0.1423434168 0.5306810141 4288639573
-0.2580606043 -0.1417860240 0.5308017135 4288639573
-0.2576938272 -0.1409955919 0.5300472975 4288639573
-0.2577520013 -0.1404383630 0.5301669240 4288705366
-0.2573845387 -0.1396499276 0.5294110775 4288705366
-0.2574421763 -0.1390928626 0.5295296907 4288639573
-0.2570740283 -0.1383064538 0.5287724137 4288705366
-0.2571311891 -0.1377495676 0.5288899541 4288771159
-0.2567623258 -0.1369651705 0.5281313062 4288705366
-0.2568189800 -0.1364084631 0.5282478333 4288705366
-0.2568754256 -0.1358513981 0.5283638835 4288902745
-0.2569316626 -0.1352939606 0.5284795761 4288836952
-0.2569876909 -0.1347361654 0.5285948515 4287196504
-0.2566172183 -0.1339554787 0.5278328657 4284038440
-0.2566727698 -0.1333978772 0.5279470682 4281549437
-0.2567280829 -0.1328399032 0.5280608535 4281549437
-0.2567831874 -0.1322815865 0.5281742215 4281618837
-0.2568380833 -0.1317228973 0.5282871127 4283197869
-0.2568927705 -0.1311638653 0.5283995867 4284249528
-0.2569472492 -0.1306044608 0.5285116434 4284446907
-0.2570015192 -0.1300447136 0.5286232829 4284053429
-0.2574825883 -0.1296996921 0.5296127796 4284119222
-0.2579636276 -0.1293524653 0.5306022167 4284316090
-0.2580174208 -0.1287897825 0.5307129025 4284447676
-0.2589255869 -0.1286513507 0.5325808525 4284382141
-0.2594065070 -0.1282974780 0.5335700512 4284382141
-0.2615971863 -0.1287831068 0.5380760431 4284645053
-0.2603682280 -0.1275830716 0.5355482697 4284645053
-0.2625595331 -0.1280567795 0.5400555134 4285105088
-0.2634683549 -0.1278979182 0.5419248343 4284907709
-0.2643772960 -0.1277349740 0.5437944531 4285104573
-0.2648585141 -0.1273621619 0.5447842479 4285367745
-0.2657676041 -0.1271919608 0.5466541648 4285762756
-0.2666768432 -0.1270176470 0.5485243797 4285960135
-0.2675862014 -0.1268392503 0.5503947735 4286091203
-0.2680674493 -0.1264547408 0.5513846874 4286091203
-0.2689769268 -0.1262690574 0.5532553792 4286288323
-0.2698865533 -0.1260792911 0.5551263690 4286419909
-0.2703678012 -0.1256862134 0.5561162233 4286550982
-0.2712775171 -0.1254891604 0.5579874516 4286616775
-0.2721873522 -0.1252879947 0.5598588586 4286747593
-0.2730973065 -0.1250827163 0.5617305040 4286879179
-0.2740073502 -0.1248733252 0.5636023879 4286944972
-0.2744885981 -0.1244653463 0.5645922422 4286944972
-0.2753987312 -0.1242486611 0.5664643049 4286879947
-0.2763089836 -0.1240278631 0.5683365464 4287011533
-0.2772192955 -0.1238029376 0.5702089667 4287077326
-0.2781296968 -0.1235738918 0.5720816255 4287143119
-0.2790401876 -0.1233407259 0.5739544034 4287208912
-0.2799507678 -0.1231034249 0.5758273005 4287143119
-0.2808614075 -0.1228620037 0.5777004361 4286814154
-0.2817721367 -0.1226164475 0.5795736909 4286485189
-0.2826829553 -0.1223667637 0.5814471245 4286419396
-0.2835938036 -0.1221129447 0.5833206773 4286682568
-0.2845047414 -0.1218549907 0.5851943493 4286550982
-0.2854157388 -0.1215929016 0.5870681405 4286550982
-0.2863267958 -0.1213266775 0.5889421105 4286748361
-0.2872379124 -0.1210563108 0.5908161998 4286879947
-0.2881490886 -0.1207818016 0.5926903486 4286813384
-0.2886301577 -0.1203238294 0.5936799049 4286550212
-0.2895413637 -0.1200419888 0.5955541134 4286747591
-0.2900223136 -0.1195785850 0.5965433717 4287602900
-0.2909335494 -0.1192894056 0.5984176993 4288589535
-0.2918448150 -0.1189960837 0.6002920270 4289773809
-0.2927561104 -0.1186986044 0.6021664739 4290234095
-0.2932368815 -0.1182233766 0.6031553745 4289378786
-0.2941481769 -0.1179185510 0.6050298214 4288983769
-0.2946287692 -0.1174378842 0.6060183644 4288917976
-0.2959708869 -0.1172964498 0.6087788939 4289114840
-0.2964513898 -0.1168093905 0.6097672582 4289180633
-0.2973627448 -0.1164889038 0.6116418242 4288391622
-0.2978430986 -0.1159963980 0.6126298308 4287602106
-0.2987544239 -0.1156685650 0.6145043373 4289048770
-0.2988034189 -0.1150046587 0.6146051288 4291746283
-0.2887396216 -0.1887674034 0.5952649117 4286941853
-0.2875562906 -0.1873351336 0.5928253531 4283060066
-0.2884716094 -0.1872706711 0.5947123766 4283847287
-0.2868671119 -0.1855719537 0.5914044976 4284571010
-0.2848413885 -0.1836090833 0.5872282982 4288902494
-0.2781918347 -0.1786855608 0.5735196471 4288836701
-0.2677555680 -0.1713689119 0.5520042181 4288902745
-0.2640407979 -0.1683865786 0.5443458557 4288836952
-0.2624266744 -0.1667560786 0.5410181880 4288902491
-0.2616527975 -0.1656650007 0.5394227505 4288705112
-0.2612990737 -0.1648425162 0.5386935472 4288639319
-0.2605240643 -0.1637568474 0.5370957851 4288639319
-0.2605904341 -0.1632016450 0.5372325778 4288639319
-0.2602354884 -0.1623832732 0.5365008712 4288639319
-0.2598801553 -0.1615662724 0.5357682705 4288639060
-0.2599457204 -0.1610115916 0.5359034538 4288573267
-0.2600110769 -0.1604565084 0.5360382199 4288639060
-0.2600762546 -0.1599010080 0.5361725688 4288573267
-0.2601412237 -0.1593450755 0.5363065004 4288375888
-0.2597842813 -0.1585313827 0.5355706811 4287849544
-0.2594269514 -0.1577190757 0.5348339677 4288046923
-0.2594911158 -0.1571637094 0.5349662900 4288704853
-0.2595551312 -0.1566079408 0.5350981951 4288836439
-0.2591967881 -0.1557980180 0.5343594551 4288704853
-0.2592602670 -0.1552423239 0.5344903469 4288442194
-0.2589012086 -0.1544342935 0.5337501168 4288376401
-0.2589642406 -0.1538786888 0.5338799953 4288376147
-0.2586044669 -0.1530725807 0.5331383348 4288507733
-0.2586669922 -0.1525170803 0.5332672000 4288573526
-0.2587292790 -0.1519611776 0.5333957076 4288639319
-0.2587914169 -0.1514048725 0.5335237384 4288639573
-0.2588533163 -0.1508481652 0.5336513519 4288639573
-0.2584919631 -0.1500454992 0.5329064131 4288507987
-0.2585533857 -0.1494889110 0.5330330133 4288442194
-0.2581913471 -0.1486881673 0.5322866440 4287652167
-0.2582522631 -0.1481316984 0.5324122310 4288310097
-0.2578895092 -0.1473329216 0.5316643715 4288573269
-0.2579499185 -0.1467765719 0.5317889452 4288770648
-0.2580101490 -0.1462198496 0.5319131017 4288704855
-0.2576463819 -0.1454235464 0.5311631560 4288836441
-0.2577061057 -0.1448669583 0.5312862992 4288639573
-0.2577656209 -0.1443099827 0.5314089656 4288705366
-0.2578249276 -0.1437526196 0.5315312743 4288705366
-0.2574599087 -0.1429593414 0.5307787061 4288705366
-0.2575187087 -0.1424021423 0.5308999419 4288705366
-0.2575773001 -0.1418445408 0.5310207605 4288705366
-0.2572112679 -0.1410538107 0.5302661657 4288705366
-0.2572693825 -0.1404963732 0.5303859115 4288705366
-0.2569026351 -0.1397076398 0.5296298862 4288639573
-0.2569602430 -0.1391503811 0.5297486186 4288573780
-0.2565928102 -0.1383636594 0.5289911628 4288705366
-0.2566499114 -0.1378065646 0.5291088223 4288836952
-0.2567068040 -0.1372491121 0.5292261243 4288639573
-0.2567634881 -0.1366912723 0.5293430090 4288639573
-0.2568199635 -0.1361330748 0.5294594169 4288836952
-0.2564509511 -0.1353500485 0.5286986828 4288771159
-0.2565069199 -0.1347920448 0.5288140774 4287261529
-0.2565626800 -0.1342336684 0.5289289951 4284103465
-0.2566182613 -0.1336749345 0.5290435553 4281483644
-0.2566736042 -0.1331158280 0.5291576982 4281615230
-0.2563029826 -0.1323365420 0.5283936262 4281684630
-0.2563578188 -0.1317776442 0.5285066962 4283263662
-0.2564124763 -0.1312184036 0.5286192894 4284249527
-0.2564668953 -0.1306587905 0.5287315249 4284381113
-0.2565211058 -0.1300988346 0.5288432837 4284250806
-0.2570013106 -0.1297536939 0.5298332572 4284185013
-0.2574814856 -0.1294063330 0.5308232307 4284316088
-0.2579616308 -0.1290567666 0.5318130851 4284513467
-0.2584417462 -0.1287049800 0.5328028798 4284513214
-0.2589218020 -0.1283509731 0.5337925553 4284513214
-0.2598285079 -0.1282052696 0.5356618166 4284579262
-0.2611620426 -0.1282650679 0.5384110212 4284513469
-0.2620690763 -0.1281102449 0.5402809978 4284644285
-0.2629762590 -0.1279513389 0.5421512127 4284775871
-0.2638835609 -0.1277883500 0.5440217257 4285236161
-0.2643638849 -0.1274154037 0.5450119376 4285499333
-0.2652713656 -0.1272451431 0.5468828082 4285696964
-0.2661789358 -0.1270707995 0.5487538576 4285894343
-0.2670866251 -0.1268923283 0.5506251454 4286222791
-0.2679944634 -0.1267097741 0.5524967313 4286354377
-0.2684748769 -0.1263219565 0.5534871221 4286354116
-0.2693828344 -0.1261321157 0.5553589463 4286617288
-0.2702908814 -0.1259381771 0.5572310090 4286814154
-0.2711990476 -0.1257401109 0.5591033101 4286682568
-0.2716794908 -0.1253405511 0.5600937605 4286813384
-0.2725877762 -0.1251352131 0.5619663000 4287010763
-0.2734961510 -0.1249257550 0.5638390183 4287010763
-0.2744046152 -0.1247121766 0.5657119155 4286944970
-0.2753131986 -0.1244944856 0.5675850511 4286945740
-0.2762218714 -0.1242726669 0.5694583058 4287077326
-0.2767022848 -0.1238549948 0.5704487562 4287143119
-0.2776110470 -0.1236258745 0.5723222494 4287143119
-0.2785198689 -0.1233926266 0.5741959214 4287208912
-0.2794288099 -0.1231552511 0.5760697126 4287208912
-0.2803377807 -0.1229137406 0.5779436827 4286945740
-0.2812468708 -0.1226681024 0.5798178315 4286616775
-0.2821559906 -0.1224183291 0.5816921592 4286485189
-0.2830652297 -0.1221644282 0.5835665464 4286682568
-0.2839744985 -0.1219063848 0.5854411125 4286681798
-0.2848838270 -0.1216441989 0.5873158574 4286681798
-0.2857932448 -0.1213778779 0.5891906619 4286944970
-0.2867027223 -0.1211074218 0.5910655856 4286944970
-0.2876122296 -0.1208328158 0.5929406881 4286879177
-0.2880924642 -0.1203746647 0.5939307213 4286944970
-0.2890020013 -0.1200927272 0.5958058238 4287800279
-0.2894820869 -0.1196291447 0.5967956185 4289642483
-0.2903916538 -0.1193398610 0.5986707807 4291089151
-0.2913012803 -0.1190464273 0.6005460024 4290628602
-0.2917812169 -0.1185742095 0.6015354395 4289378273
-0.2926908433 -0.1182734296 0.6034107208 4289049308
-0.2936004698 -0.1179684922 0.6052860618 4289904356
-0.2940802276 -0.1174876392 0.6062750816 4290035942
-0.2954198718 -0.1173461601 0.6090369225 4289115094
-0.2958995402 -0.1168589070 0.6100257635 4288325578
-0.2968092561 -0.1165383086 0.6119012237 4287272371
-0.2972887456 -0.1160456091 0.6128897071 4288127680
-0.2977681160 -0.1155506670 0.6138780117 4291153376
-0.2869379222 -0.1880200505 0.5929081440 4286678681
-0.2870135605 -0.1874106824 0.5930644274 4282928480
-0.2862507999 -0.1862554252 0.5914883018 4283650682
-0.2850681543 -0.1848314404 0.5890445709 4284308612
-0.2834652960 -0.1831414104 0.5857325792 4288640099
-0.2759892642 -0.1776776612 0.5702846646 4288640099
-0.2668309510 -0.1711690575 0.5513604879 4288968538
-0.2635427713 -0.1684546918 0.5445660949 4288771159
-0.2619317472 -0.1668235809 0.5412371755 4288836441
-0.2611593902 -0.1657320857 0.5396412015 4288704855
-0.2599664330 -0.1643781960 0.5371761918 4288704855
-0.2604529858 -0.1640878916 0.5381815434 4288770648
-0.2600992024 -0.1632678360 0.5374504924 4288704855
-0.2597449720 -0.1624491662 0.5367185473 4288704855
-0.2598107755 -0.1618938297 0.5368545055 4288770646
-0.2594558597 -0.1610770077 0.5361211300 4288770646
-0.2595211565 -0.1605217159 0.5362560749 4288639060
-0.2595862448 -0.1599660218 0.5363906026 4288639060
-0.2596511543 -0.1594099104 0.5365247130 4288441681
-0.2588739991 -0.1583384424 0.5349188447 4287849544
-0.2589383125 -0.1577832997 0.5350517631 4287981130
-0.2590024471 -0.1572277546 0.5351842642 4288573267
-0.2586451173 -0.1564170271 0.5344458818 4288770646
-0.2587087452 -0.1558615565 0.5345773697 4288704853
-0.2587721646 -0.1553056687 0.5347084403 4288507733
-0.2584138513 -0.1544973403 0.5339680314 4288376147
-0.2584767938 -0.1539415419 0.5340980887 4288310354
-0.2585395277 -0.1533853412 0.5342277288 4288507733
-0.2581802011 -0.1525794268 0.5334852338 4288705112
-0.2582424581 -0.1520233303 0.5336138606 4288770905
-0.2583045065 -0.1514668316 0.5337420702 4288639319
-0.2579441667 -0.1506633461 0.5329975486 4288441940
-0.2580057383 -0.1501069516 0.5331246853 4288375890
-0.2580670714 -0.1495501697 0.5332514644 4288310097
-0.2577057481 -0.1487491280 0.5325048566 4287717960
-0.2577666044 -0.1481924653 0.5326306224 4288112718
-0.2574045956 -0.1473933756 0.5318825841 4288375890
-0.2574649453 -0.1468368471 0.5320072770 4288639062
-0.2571022213 -0.1460397094 0.5312578082 4288704853
-0.2571620941 -0.1454833150 0.5313814878 4288902232
-0.2572217286 -0.1449265182 0.5315047503 4288770648
-0.2572811842 -0.1443693340 0.5316275954 4288770648
-0.2569171786 -0.1435752362 0.5308754444 4288770648
-0.2569761276 -0.1430182010 0.5309972167 4288770648
-0.2570348978 -0.1424607933 0.5311186314 4288836441
-0.2566698790 -0.1416692138 0.5303643942 4288836441
-0.2567281127 -0.1411119550 0.5304847360 4288770648
-0.2567861676 -0.1405543238 0.5306047201 4288704855
-0.2564201653 -0.1397652924 0.5298484564 4288639062
-0.2560537755 -0.1389777213 0.5290913582 4288639062
-0.2561110258 -0.1384208053 0.5292096138 4288770648
-0.2561680675 -0.1378635168 0.5293274522 4288902234
-0.2562249005 -0.1373058408 0.5294449329 4288639062
-0.2562815249 -0.1367478073 0.5295619369 4288573269
-0.2563379407 -0.1361894011 0.5296785235 4288836441
-0.2563941479 -0.1356306225 0.5297946334 4288836441
-0.2560255826 -0.1348478645 0.5290330648 4287195482
-0.2560812831 -0.1342892796 0.5291481614 4284037418
-0.2561367750 -0.1337303370 0.5292628407 4281417596
-0.2561920583 -0.1331710219 0.5293771029 4281746561
-0.2558222115 -0.1323914379 0.5286127925 4281816214
-0.2558769882 -0.1318323314 0.5287260413 4283329453
-0.2559315562 -0.1312728822 0.5288388133 4284381111
-0.2559859157 -0.1307130605 0.5289511085 4284446904
-0.2564654052 -0.1303690970 0.5299418569 4284250547
-0.2565194368 -0.1298076361 0.5300535560 4284250547
-0.2569987476 -0.1294601560 0.5310440063 4284381881
-0.2574780583 -0.1291104704 0.5320343375 4284447674
-0.2579573095 -0.1287585497 0.5330246687 4284513214
-0.2584365308 -0.1284044236 0.5340148807 4284579007
-0.2597673833 -0.1284692883 0.5367648602 4284775871
-0.2606726587 -0.1283185184 0.5386354327 4284973250
-0.2615780234 -0.1281636655 0.5405062437 4284973251
-0.2629096508 -0.1282125115 0.5432578325 4284907458
-0.2633891702 -0.1278416663 0.5442487001 4285236420
-0.2642949522 -0.1276745200 0.5461202860 4285631178
-0.2652008533 -0.1275032759 0.5479921699 4285828550
-0.2656804025 -0.1271238774 0.5489830971 4285894343
-0.2665864527 -0.1269453615 0.5508552790 4286091205
-0.2674925923 -0.1267627478 0.5527276993 4286354377
-0.2683988810 -0.1265760213 0.5546003580 4286485702
-0.2688784599 -0.1261848956 0.5555913448 4286683081
-0.2697848678 -0.1259908825 0.5574643016 4286814154
-0.2706913650 -0.1257927716 0.5593374372 4286682568
-0.2715979815 -0.1255905330 0.5612108111 4286682568
-0.2720775902 -0.1251876503 0.5622017980 4286814154
-0.2729842961 -0.1249781325 0.5640753508 4287010763
-0.2738911211 -0.1247644871 0.5659492016 4287010763
-0.2752254307 -0.1247404143 0.5687062740 4286945740
-0.2757050693 -0.1243248209 0.5696973205 4287077326
-0.2766121626 -0.1240988076 0.5715717077 4287208912
-0.2775193453 -0.1238686591 0.5734462142 4287143119
-0.2784265876 -0.1236343905 0.5753208995 4287208912
-0.2793339193 -0.1233959869 0.5771958232 4287274705
-0.2798134983 -0.1229654253 0.5781867504 4287143119
-0.2807209194 -0.1227197051 0.5800617337 4286814154
-0.2816284001 -0.1224698499 0.5819368958 4286879177
-0.2825359702 -0.1222158521 0.5838122368 4286681798
-0.2834435701 -0.1219577193 0.5856876969 4286550212
-0.2843512595 -0.1216954440 0.5875632763 4286747591
-0.2852590084 -0.1214290336 0.5894389749 4286879432
-0.2861668169 -0.1211584732 0.5913147926 4286682053
-0.2870746851 -0.1208837703 0.5931907296 4287076811
-0.2875540555 -0.1204254478 0.5941812396 4288261085
-0.2884619534 -0.1201434061 0.5960572958 4289971190
-0.2889411747 -0.1196796447 0.5970475674 4290892287
-0.2898491025 -0.1193902567 0.5989235640 4290562807
-0.2903282046 -0.1189210564 0.5999135971 4289312740
-0.2912361324 -0.1186243221 0.6017896533 4289181148
-0.2921440899 -0.1183234304 0.6036657691 4289970664
-0.2926230133 -0.1178455874 0.6046554446 4290167782
-0.2939601243 -0.1177091822 0.6074182987 4289312473
-0.2944389582 -0.1172249392 0.6084077358 4287995842
-0.2953469753 -0.1169083789 0.6102840304 4287666877
-0.2958256602 -0.1164186895 0.6112731695 4287601076
-0.2963042259 -0.1159267575 0.6122620106 4289640659
-0.2859765291 -0.1878211349 0.5922808647 4286547096
-0.2856337726 -0.1869387478 0.5915709734 4282862688
-0.2848722935 -0.1857848465 0.5899938941 4283257216
-0.2849469781 -0.1851778626 0.5901486278 4283980939
-0.2837658823 -0.1837573200 0.5877024531 4288444522
-0.2817466259 -0.1818013936 0.5835204124 4288312936
-0.2738635838 -0.1760845333 0.5671939254 4288902491
-0.2663950324 -0.1706695259 0.5517259836 4288836698
-0.2631120980 -0.1679608226 0.5449267626 4288770648
-0.2615035474 -0.1663322300 0.5415953398 4288704855
-0.2607322931 -0.1652416885 0.5399979949 4288770648
-0.2599604428 -0.1641543061 0.5383993983 4288770648
-0.2596073449 -0.1633339673 0.5376681685 4288704855
-0.2592538595 -0.1625149846 0.5369360447 4288704855
-0.2593195736 -0.1619594544 0.5370721221 4288770646
-0.2593851089 -0.1614035070 0.5372078419 4288770646
-0.2590306103 -0.1605868638 0.5364736915 4288704853
-0.2590956390 -0.1600309759 0.5366083384 4288704853
-0.2591604888 -0.1594746560 0.5367426276 4288441683
-0.2592251301 -0.1589179337 0.5368765593 4287849546
-0.2588693500 -0.1581041217 0.5361396670 4287981132
-0.2589335144 -0.1575474739 0.5362725258 4288507476
-0.2581565678 -0.1564806998 0.5346634388 4288639060
-0.2582201064 -0.1559250206 0.5347950459 4288770646
-0.2582834661 -0.1553689390 0.5349262953 4288573526
-0.2579258978 -0.1545603126 0.5341857076 4288507733
-0.2579887509 -0.1540043205 0.5343158841 4288441940
-0.2580514252 -0.1534479260 0.5344457030 4288507733
-0.2576928437 -0.1526417136 0.5337030292 4288770905
-0.2577550113 -0.1520854235 0.5338317752 4288836698
-0.2578170002 -0.1515287161 0.5339601636 4288573780
-0.2578787804 -0.1509716213 0.5340881348 4288310608
-0.2575188875 -0.1501683444 0.5333427787 4288375888
-0.2571586072 -0.1493664980 0.5325965881 4288310095
-0.2576412559 -0.1490539759 0.5335962176 4287915339
-0.2572803795 -0.1482531577 0.5328487754 4287849546
-0.2573409677 -0.1476958990 0.5329742432 4287915339
-0.2569793761 -0.1468970329 0.5322253704 4288112718
-0.2570394576 -0.1463399082 0.5323498249 4288441681
-0.2566771805 -0.1455430090 0.5315995216 4288770646
-0.2567367852 -0.1449860185 0.5317229629 4288770646
-0.2567961514 -0.1444286406 0.5318459272 4288704853
-0.2564328909 -0.1436342448 0.5310935974 4288704853
-0.2564917803 -0.1430770010 0.5312155485 4288704853
-0.2565504611 -0.1425193846 0.5313370824 4288704853
-0.2566089332 -0.1419613808 0.5314581990 4288639060
-0.2562443912 -0.1411700547 0.5307031274 4288639060
-0.2563023567 -0.1406122148 0.5308232307 4288573267
-0.2559370995 -0.1398228854 0.5300667286 4288573267
-0.2555714548 -0.1390350163 0.5293094516 4288639060
-0.2556286156 -0.1384778917 0.5294278860 4288836439
-0.2552622855 -0.1376920491 0.5286691189 4288902232
-0.2557423711 -0.1373625249 0.5296634436 4288639060
-0.2553754449 -0.1365777850 0.5289034843 4288573267
-0.2554317117 -0.1360200942 0.5290200114 4288836439
-0.2554877698 -0.1354620457 0.5291361213 4288902232
-0.2555436194 -0.1349036247 0.5292518139 4286998621
-0.2555992603 -0.1343448311 0.5293670297 4283906350
-0.2552307248 -0.1335638165 0.5286037922 4281286525
-0.2552858889 -0.1330052316 0.5287179947 4281747076
-0.2553408146 -0.1324462742 0.5288317800 4281948313
-0.2553955317 -0.1318869740 0.5289451480 4283329966
-0.2554500699 -0.1313273013 0.5290580392 4284512951
-0.2555043697 -0.1307672709 0.5291705132 4284512951
-0.2555584610 -0.1302068979 0.5292825699 4284053681
-0.2564615607 -0.1300768703 0.5311529636 4284119474
-0.2569401264 -0.1297283471 0.5321440697 4284381883
-0.2574186325 -0.1293776035 0.5331351161 4284316090
-0.2578971386 -0.1290246248 0.5341261029 4284381630
-0.2583755851 -0.1286694407 0.5351170301 4284447423
-0.2592790425 -0.1285227239 0.5369881392 4284578492
-0.2601826191 -0.1283719242 0.5388596058 4284841664
-0.2615115643 -0.1284258366 0.5416119695 4284775618
-0.2624155283 -0.1282659173 0.5434840918 4285038790
-0.2633195817 -0.1281018853 0.5453565121 4285499594
-0.2637982965 -0.1277277321 0.5463479757 4285631180
-0.2647025287 -0.1275564432 0.5482206941 4285959882
-0.2656068802 -0.1273810416 0.5500936508 4286223054
-0.2665113509 -0.1272015423 0.5519669056 4286288330
-0.2674159408 -0.1270179302 0.5538403988 4286156744
-0.2678947449 -0.1266288906 0.5548319817 4286485448
-0.2687994540 -0.1264379919 0.5567057729 4286617034
-0.2697042823 -0.1262429804 0.5585797429 4286946253
-0.2701830566 -0.1258453727 0.5595713258 4287077839
-0.2715142667 -0.1258406192 0.5623283386 4286946253
-0.2724193931 -0.1256332695 0.5642029643 4286814667
-0.2728982270 -0.1252261102 0.5651946068 4286879947
-0.2738034725 -0.1250114590 0.5670694709 4286945740
-0.2747088075 -0.1247926727 0.5689445138 4287077328
-0.2751876116 -0.1243769303 0.5699360967 4287208914
-0.2760930359 -0.1241508350 0.5718113184 4287274705
-0.2769985497 -0.1239206195 0.5736867189 4287208912
-0.2779041529 -0.1236862615 0.5755622983 4287208912
-0.2788098454 -0.1234477833 0.5774380565 4287406291
-0.2797155976 -0.1232051626 0.5793139935 4287340498
-0.2806214392 -0.1229584068 0.5811900496 4287077326
-0.2815273404 -0.1227075160 0.5830662251 4287076556
-0.2824333012 -0.1224524826 0.5849425793 4286681798
-0.2829119861 -0.1220090017 0.5859339833 4286616005
-0.2838180065 -0.1217466369 0.5878103971 4286813384
-0.2847241163 -0.1214801297 0.5896869898 4286944970
-0.2856302559 -0.1212094799 0.5915637016 4286681798
-0.2861087918 -0.1207541749 0.5925548077 4287405521
-0.2870149612 -0.1204761788 0.5944315791 4289313518
-0.2874933779 -0.1200154424 0.5954223871 4290431993
-0.2883996069 -0.1197301000 0.5972992182 4289576684
-0.2888778746 -0.1192639172 0.5982897878 4288720856
-0.2897841036 -0.1189712286 0.6001666784 4288984028
-0.2906903625 -0.1186743826 0.6020436287 4289970662
-0.2915966511 -0.1183733791 0.6039206386 4289707490
-0.2925029993 -0.1180682182 0.6057977080 4288589262
-0.2929810286 -0.1175869927 0.6067878008 4287997125
-0.2938873768 -0.1172744781 0.6086648703 4287732922
-0.2943652570 -0.1167877987 0.6096546054 4287601336
-0.2948429883 -0.1162988842 0.6106440425 4289376967
-0.2957492769 -0.1159757972 0.6125209928 4291811308
-0.2850160599 -0.1876219064 0.5916526318 4286416023
-0.2834216952 -0.1859186590 0.5883429050 4282665822
-0.2822437286 -0.1844949722 0.5858976841 4283060867
-0.2781414986 -0.1811719537 0.5773820281 4283850383
-0.2798852324 -0.1816622317 0.5810018182 4288445553
-0.2720191479 -0.1759292632 0.5646728873 4288050795
-0.2654025853 -0.1710378528 0.5509378314 4288705627
-0.2629629970 -0.1688591689 0.5458736420 4288705627
-0.2609401047 -0.1669583470 0.5416744351 4288639319
-0.2601707876 -0.1658660471 0.5400773883 4288705112
-0.2594008446 -0.1647769064 0.5384791493 4288705112
-0.2590487897 -0.1639557928 0.5377482772 4288705112
-0.2591149211 -0.1634000093 0.5378855467 4288639319
-0.2587621510 -0.1625807434 0.5371533036 4288639319
-0.2588278055 -0.1620250195 0.5372895598 4288704853
-0.2588932514 -0.1614688784 0.5374253988 4288639060
-0.2585394979 -0.1606519371 0.5366910696 4288704853
-0.2586044669 -0.1600958556 0.5368258953 4288770646
-0.2586692274 -0.1595393419 0.5369603634 4288441683
-0.2587338090 -0.1589824259 0.5370944142 4287915339
-0.2583787441 -0.1581683159 0.5363573432 4288112718
-0.2584428191 -0.1576114744 0.5364903808 4288573269
-0.2580870688 -0.1567992419 0.5357518792 4288507474
-0.2581506371 -0.1562424749 0.5358839035 4288639060
-0.2582140565 -0.1556852907 0.5360154510 4288639319
-0.2574373186 -0.1546232253 0.5344030857 4288705112
-0.2575001121 -0.1540670395 0.5345335007 4288573526
-0.2575627267 -0.1535104513 0.5346634388 4288507733
-0.2572048604 -0.1527039260 0.5339205861 4288705112
-0.2572669685 -0.1521474421 0.5340495110 4288770905
-0.2573288977 -0.1515905410 0.5341780186 4288573267
-0.2573905885 -0.1510332525 0.5343061090 4288441681
-0.2570314407 -0.1502296776 0.5335605741 4288375888
-0.2570926547 -0.1496724933 0.5336876512 4288375888
-0.2571536899 -0.1491149068 0.5338143110 4288244302
-0.2567935288 -0.1483137906 0.5330666900 4287849544
-0.2568540573 -0.1477563381 0.5331923366 4287652165
-0.2564932108 -0.1469571739 0.5324432850 4287652165
-0.2565532327 -0.1463998407 0.5325678587 4288112714
-0.2561917007 -0.1456026435 0.5318173170 4288507472
-0.2562512159 -0.1450454444 0.5319409370 4288639060
-0.2563105226 -0.1444878727 0.5320640802 4288639060
-0.2559480071 -0.1436931789 0.5313115120 4288639060
-0.2560068369 -0.1431357414 0.5314335823 4288573267
-0.2560654581 -0.1425779164 0.5315552950 4288507474
-0.2561238706 -0.1420197189 0.5316765904 4288441681
-0.2557600439 -0.1412280798 0.5309212804 4288441681
-0.2558179498 -0.1406700462 0.5310415626 4288507474
-0.2558756769 -0.1401116252 0.5311613679 4288507474
-0.2555108368 -0.1393225342 0.5304040313 4288704853
-0.2551456392 -0.1385349184 0.5296459198 4288836439
-0.2552025616 -0.1379772127 0.5297640562 4288836439
-0.2552592754 -0.1374191344 0.5298817754 4288704853
-0.2553157806 -0.1368606985 0.5299990773 4288573267
-0.2549492717 -0.1360762119 0.5292382836 4288836439
-0.2550052702 -0.1355179548 0.5293545127 4288968025
-0.2550610602 -0.1349593252 0.5294703245 4286932829
-0.2551166415 -0.1344003230 0.5295857191 4283906351
-0.2547488511 -0.1336190104 0.5288222432 4281221246
-0.2548039556 -0.1330602169 0.5289366245 4281813383
-0.2548588216 -0.1325010657 0.5290505290 4282079899
-0.2549134791 -0.1319415420 0.5291640162 4283329966
-0.2549679577 -0.1313816607 0.5292770267 4284512951
-0.2550221980 -0.1308214366 0.5293896794 4284447158
-0.2554999590 -0.1304772198 0.5303814411 4284185267
-0.2555539012 -0.1299153417 0.5304933786 4284251060
-0.2560314834 -0.1295676231 0.5314847827 4284447676
-0.2569330633 -0.1294312775 0.5333563089 4284316090
-0.2574106753 -0.1290781796 0.5343477726 4284447936
-0.2578882575 -0.1287228614 0.5353391767 4284579522
-0.2592143118 -0.1287868917 0.5380918980 4284578492
-0.2601163387 -0.1286351085 0.5399643779 4284775871
-0.2610184848 -0.1284792274 0.5418370962 4284907204
-0.2619207799 -0.1283192486 0.5437101126 4285038790
-0.2628231943 -0.1281551719 0.5455833673 4285499595
-0.2637257278 -0.1279869974 0.5474569201 4285894353
-0.2642036080 -0.1276095510 0.5484489799 4286026190
-0.2651062906 -0.1274341047 0.5503228307 4285894604
-0.2660091221 -0.1272545457 0.5521969199 4285894342
-0.2669120431 -0.1270708740 0.5540712476 4286223307
-0.2673899531 -0.1266817003 0.5550633669 4286354375
-0.2682930231 -0.1264907420 0.5569379926 4286551754
-0.2687709332 -0.1260961592 0.5579300523 4287341270
-0.2696741223 -0.1258979142 0.5598049760 4287867614
-0.2710028589 -0.1258931905 0.5625631809 4287669722
-0.2719063163 -0.1256857663 0.5644387007 4287011792
-0.2728098929 -0.1254742146 0.5663143992 4286880206
-0.2732878923 -0.1250637323 0.5673066378 4286945999
-0.2741915584 -0.1248448789 0.5691825151 4287143121
-0.2750953436 -0.1246218979 0.5710586309 4287274707
-0.2759991884 -0.1243947819 0.5729348660 4287406293
-0.2764771283 -0.1239725128 0.5739269853 4287274707
-0.2773810625 -0.1237380877 0.5758034587 4287274707
-0.2782850862 -0.1234995201 0.5776801109 4287472086
-0.2791891694 -0.1232568175 0.5795568824 4287602902
-0.2800933421 -0.1230099797 0.5814337730 4287339730
-0.2809976041 -0.1227589995 0.5833109021 4287010763
-0.2819018960 -0.1225038767 0.5851880908 4286747591
-0.2828062773 -0.1222446188 0.5870654583 4286813384
-0.2832840979 -0.1217977777 0.5880573392 4286879177
-0.2841885388 -0.1215311736 0.5899347663 4287010763
-0.2846662402 -0.1210789010 0.5909264088 4286944970
-0.2855706811 -0.1208049580 0.5928039551 4287668693
-0.2864752114 -0.1205268577 0.5946816206 4289445104
-0.2869527638 -0.1200659424 0.5956729650 4288918752
-0.2878573239 -0.1197805032 0.5975506902 4288458201
-0.2883347273 -0.1193141416 0.5985417366 4289181405
-0.2892392874 -0.1190213412 0.6004194617 4289905128
-0.2897166014 -0.1185495332 0.6014102697 4289444829
-0.2910485566 -0.1184232756 0.6041752100 4288326348
-0.2919532061 -0.1181180105 0.6060531735 4287668158
-0.2924304008 -0.1176365912 0.6070437431 4287668158
-0.2929074764 -0.1171529368 0.6080340743 4288390592
-0.2933844030 -0.1166670322 0.6090241075 4289838038
-0.2938612401 -0.1161788777 0.6100139618 4292074220
-0.2836400270 -0.1871475726 0.5901568532 4286283682
-0.2832983732 -0.1862672269 0.5894459486 4283125618
-0.2821228206 -0.1848421097 0.5870000720 4283454072
-0.2809464335 -0.1834218800 0.5845524073 4284046209
-0.2797691822 -0.1820065230 0.5821029544 4287133298
-0.2694159150 -0.1746482849 0.5605613589 4287330677
-0.2640629411 -0.1705677807 0.5494236946 4288836437
-0.2620451152 -0.1686586142 0.5452253222 4289033816
-0.2608607709 -0.1672932953 0.5427610874 4288573528
-0.2596755922 -0.1659329236 0.5402951241 4288770907
-0.2584895790 -0.1645774990 0.5378274918 4288770905
-0.2589735389 -0.1642869413 0.5388343930 4288573526
-0.2586219013 -0.1634659916 0.5381027460 4288770646
-0.2582698464 -0.1626464278 0.5373702645 4288902232
-0.2583354414 -0.1620905101 0.5375066996 4288835412
-0.2584007978 -0.1615341753 0.5376427770 4288835412
-0.2580477595 -0.1607169360 0.5369082093 4288966744
-0.2581126690 -0.1601606607 0.5370432138 4289032537
-0.2581773698 -0.1596039534 0.5371778607 4288442194
-0.2582418621 -0.1590468436 0.5373120308 4287586885
-0.2578875422 -0.1582324356 0.5365747809 4288245326
-0.2579515576 -0.1576754004 0.5367079973 4288508498
-0.2580153644 -0.1571179479 0.5368407965 4288640084
-0.2576600313 -0.1563059092 0.5361014605 4288442705
-0.2577233613 -0.1557485312 0.5362332463 4288770646
-0.2569481730 -0.1546860635 0.5346202850 4288573267
-0.2570109069 -0.1541296840 0.5347508192 4288639062
-0.2570734322 -0.1535729021 0.5348809361 4288704855
-0.2567163110 -0.1527660787 0.5341378450 4288639062
-0.2567783296 -0.1522094011 0.5342669487 4288639062
-0.2568401992 -0.1516523063 0.5343956351 4288639060
-0.2569018304 -0.1510948092 0.5345239043 4288573267
-0.2565433979 -0.1502909362 0.5337781310 4288639058
-0.2566045523 -0.1497335583 0.5339053869 4288573265
-0.2566655278 -0.1491757780 0.5340322256 4288441679
-0.2563061118 -0.1483743638 0.5332843661 4288375886
-0.2563665509 -0.1478167027 0.5334101915 4288112714
-0.2560064495 -0.1470172405 0.5326609015 4287586370
-0.2560664117 -0.1464597136 0.5327856541 4287454786
-0.2557055950 -0.1456622183 0.5320349336 4287915337
-0.2557650506 -0.1451048255 0.5321586728 4288509014
-0.2558242977 -0.1445470452 0.5322819352 4288640600
-0.2554624975 -0.1437520385 0.5315291882 4288705364
-0.2555212677 -0.1431944072 0.5316514373 4288639571
-0.2555798292 -0.1426363885 0.5317732692 4288769629
-0.2556381822 -0.1420779824 0.5318946838 4288572250
-0.2552751005 -0.1412860453 0.5311392546 4288571986
-0.2553329468 -0.1407278031 0.5312595963 4288835158
-0.2553906143 -0.1401691735 0.5313795805 4288967257
-0.2550265193 -0.1393797994 0.5306220055 4289098843
-0.2550836802 -0.1388213485 0.5307409763 4288836447
-0.2547188997 -0.1380339712 0.5299819708 4288639068
-0.2547755539 -0.1374756992 0.5300998688 4288705617
-0.2548319995 -0.1369170398 0.5302172899 4289034582
-0.2548882365 -0.1363580227 0.5303342938 4289165655
-0.2545221746 -0.1355738044 0.5295726657 4288770897
-0.2545779049 -0.1350149661 0.5296886563 4286210396
-0.2546334565 -0.1344557703 0.5298041701 4283907641
-0.2542664111 -0.1336741447 0.5290404558 4281024378
-0.2543214262 -0.1331151426 0.5291549563 4282011273
-0.2543762326 -0.1325557828 0.5292690396 4282342558
-0.2544308603 -0.1319960654 0.5293826461 4283592625
-0.2544852495 -0.1314359754 0.5294958353 4284512697
-0.2545394599 -0.1308755279 0.5296086073 4284512697
-0.2550163567 -0.1305312067 0.5306008458 4284316090
-0.2550702095 -0.1299691200 0.5307129025 4284316090
-0.2559700608 -0.1298358738 0.5325852036 4284316340
-0.2564468384 -0.1294848919 0.5335772634 4284382133
-0.2569236159 -0.1291316748 0.5345692039 4284382402
-0.2578237057 -0.1289880276 0.5364419818 4284513988
-0.2587239444 -0.1288403124 0.5383150578 4285038016
-0.2600478232 -0.1288984120 0.5410696268 4284906430
-0.2609483898 -0.1287415624 0.5429434180 4284644285
-0.2618491054 -0.1285806000 0.5448174477 4285368008
-0.2627499402 -0.1284155399 0.5466917753 4285500362
-0.2632270157 -0.1280401945 0.5476844311 4285631948
-0.2637040615 -0.1276626140 0.5486769676 4286223567
-0.2646050751 -0.1274871081 0.5505517125 4286289360
-0.2655062377 -0.1273075044 0.5524266958 4286222791
-0.2664074898 -0.1271237731 0.5543019176 4286288584
-0.2668845654 -0.1267344505 0.5552945137 4286288069
-0.2682103515 -0.1267439872 0.5580530167 4286945999
-0.2691119313 -0.1265479177 0.5599288940 4287999200
-0.2695890963 -0.1261490583 0.5609216690 4288196579
-0.2704907954 -0.1259456873 0.5627978444 4287538138
-0.2713926136 -0.1257382035 0.5646741986 4286946001
-0.2722945213 -0.1255265772 0.5665507913 4287077328
-0.2727716565 -0.1251159608 0.5675435066 4287077328
-0.2736736536 -0.1248970255 0.5694202781 4287208663
-0.2745757699 -0.1246739700 0.5712972283 4287274456
-0.2754779458 -0.1244467869 0.5731744170 4287340246
-0.2763802409 -0.1242154613 0.5750517249 4287340246
-0.2772825956 -0.1239800081 0.5769292116 4287340500
-0.2781850398 -0.1237404123 0.5788068771 4287472086
-0.2790875435 -0.1234966815 0.5806847215 4287537879
-0.2799901366 -0.1232488081 0.5825626850 4287406293
-0.2804671824 -0.1228104308 0.5835552812 4287142351
-0.2813698351 -0.1225552261 0.5854333639 4286879179
-0.2818467915 -0.1221114099 0.5864257812 4286944970
-0.2827495039 -0.1218488663 0.5883039832 4286944970
-0.2836522758 -0.1215821728 0.5901823044 4287011018
-0.2845551074 -0.1213113219 0.5920608044 4287142604
-0.2850319147 -0.1208556816 0.5930528641 4287471569
-0.2859347761 -0.1205774844 0.5949314237 4288261085
-0.2864114642 -0.1201163903 0.5959232450 4287012045
-0.2873143554 -0.1198308468 0.5978018045 4288525284
-0.2877909243 -0.1193643063 0.5987933874 4289315042
-0.2886938155 -0.1190714017 0.6006720066 4288788698
-0.2895967662 -0.1187743396 0.6025507450 4288129220
-0.2904997170 -0.1184731200 0.6044294834 4287273911
-0.2909760773 -0.1179947257 0.6054206491 4287600823
-0.2918790579 -0.1176861450 0.6072994471 4289114062
-0.2923552692 -0.1172022969 0.6082902551 4290626525
-0.2822665274 -0.1866727173 0.5886594057 4285888924
-0.2819253504 -0.1857938319 0.5879479051 4283454583
-0.2811678350 -0.1846431196 0.5863681436 4283585920
-0.2799936235 -0.1832232326 0.5839193463 4283191162
-0.2759055495 -0.1799087524 0.5753937364 4285817957
-0.2680687904 -0.1741775125 0.5590503812 4287133817
-0.2635585964 -0.1706363410 0.5496445298 4288574805
-0.2615446746 -0.1687264442 0.5454445481 4288509012
-0.2603626549 -0.1673606038 0.5429794788 4288507736
-0.2591798007 -0.1659997255 0.5405126214 4288441943
-0.2588296831 -0.1651757509 0.5397825241 4288573526
-0.2584791780 -0.1643531322 0.5390515327 4288705112
-0.2581282854 -0.1635318995 0.5383197069 4288705112
-0.2581940591 -0.1629753262 0.5384569168 4288639319
-0.2582596838 -0.1624183208 0.5385937691 4288835669
-0.2579077780 -0.1615993977 0.5378598571 4289033048
-0.2579728961 -0.1610424519 0.5379956365 4288901462
-0.2576202750 -0.1602253914 0.5372602940 4288835669
-0.2576848865 -0.1596685052 0.5373950601 4288507472
-0.2577493489 -0.1591112018 0.5375294685 4287717956
-0.2578135729 -0.1585534662 0.5376634002 4288442192
-0.2574596703 -0.1577392519 0.5369253755 4288705364
-0.2575234175 -0.1571816057 0.5370582938 4288836439
-0.2571688294 -0.1563692838 0.5363187790 4288704853
-0.2572320700 -0.1558117121 0.5364507437 4288639062
-0.2572951317 -0.1552537233 0.5365822315 4288639062
-0.2569395304 -0.1544438004 0.5358406305 4288639062
-0.2570021152 -0.1538859010 0.5359711051 4288639062
-0.2566457987 -0.1530778855 0.5352280736 4288573269
-0.2562891245 -0.1522712857 0.5344842076 4288507476
-0.2563508749 -0.1517139971 0.5346130133 4288573269
-0.2564124763 -0.1511563063 0.5347414613 4288573269
-0.2560547888 -0.1503521353 0.5339955091 4288507474
-0.2561158538 -0.1497945487 0.5341228843 4288507474
-0.2561767399 -0.1492365748 0.5342498422 4288573267
-0.2558180690 -0.1484348625 0.5335018635 4288573267
-0.2558784485 -0.1478770077 0.5336278081 4288507474
-0.2555190623 -0.1470772475 0.5328782797 4288178509
-0.2555789649 -0.1465195119 0.5330032110 4287717958
-0.2556386590 -0.1459614038 0.5331277251 4287454786
-0.2552782893 -0.1451641321 0.5323761702 4287849546
-0.2553374767 -0.1446061432 0.5324996114 4288441683
-0.2553964853 -0.1440477669 0.5326226354 4288376912
-0.2550351322 -0.1432530135 0.5318690538 4288376912
-0.2550936043 -0.1426947862 0.5319910049 4288179028
-0.2551518977 -0.1421361864 0.5321125984 4288244821
-0.2547895610 -0.1413439512 0.5313569307 4288442194
-0.2548473477 -0.1407855004 0.5314774513 4288113229
-0.2549049556 -0.1402266771 0.5315975547 4288704337
-0.2545416057 -0.1394370049 0.5308398008 4288835923
