VERSION 0.7
FIELDS x y z rgba
SIZE 4 4 4 4
TYPE F F F U
COUNT 1 1 1 1
WIDTH 920
HEIGHT 1
VIEWPOINT 0.0 0.0 0.0 1.0 0.0 0.0 0.0
POINTS 920
DATA ascii
-0.3549069166 -0.1697511822 0.6688808799 4290230460
-0.3023743927 -0.1439918280 0.5698746443 4290099644
-0.2987770140 -0.1416531056 0.5630947351 4290165437
-0.2970084250 -0.1401926577 0.5597615838 4290297023
-0.2956965864 -0.1389542669 0.5572891831 4290560195
-0.2952996194 -0.1381493658 0.5565410256 4290757319
-0.2939863503 -0.1369193792 0.5540660024 4290954698
-0.2940463722 -0.1363315880 0.5541790724 4291020491
-0.2936480343 -0.1355320066 0.5534283519 4291152077
-0.2932492793 -0.1347339004 0.5526767969 4291283665
-0.2933083773 -0.1341468692 0.5527881980 4291349458
-0.2933672667 -0.1335594952 0.5528991818 4291349971
-0.2934259176 -0.1329717636 0.5530096889 4291547350
-0.2930257618 -0.1321768165 0.5522555709 4291678936
-0.2935425043 -0.1317952424 0.5532294512 4291810522
-0.2931416929 -0.1310014427 0.5524740219 4291875802
-0.2931993008 -0.1304132342 0.5525826216 4292007388
-0.2932566702 -0.1298246682 0.5526907444 4292204767
-0.2928547859 -0.1290335208 0.5519333482 4292270560
-0.2929116189 -0.1284451932 0.5520403981 4292336353
-0.2929681838 -0.1278565228 0.5521470308 4292402146
-0.2930245101 -0.1272675246 0.5522531867 4292599525
-0.2930805981 -0.1266781688 0.5523589253 4292731111
-0.2926770151 -0.1258908659 0.5515982509 4292796904
-0.2927325368 -0.1253017634 0.5517029166 4292994283
-0.2932474613 -0.1249081120 0.5526733994 4293323248
-0.2933025956 -0.1243174225 0.5527772903 4293652213
-0.2933574915 -0.1237264052 0.5528807640 4293783799
-0.2934121490 -0.1231350526 0.5529837608 4293849592
-0.2934665680 -0.1225433648 0.5530863404 4293981178
-0.2935207486 -0.1219513565 0.5531884432 4294046971
-0.2940348089 -0.1215492338 0.5541573167 4294046455
-0.2940886021 -0.1209556386 0.5542586446 4294046455
-0.2941421270 -0.1203617230 0.5543594956 4293915383
-0.2941953838 -0.1197674796 0.5544599295 4294112762
-0.2947089076 -0.1193594187 0.5554277301 4294375935
-0.2952223718 -0.1189491674 0.5563954115 4294507519
-0.2952750623 -0.1183521003 0.5564947724 4294441727
-0.2953275442 -0.1177547127 0.5565936565 4294310143
-0.2958405614 -0.1173397824 0.5575605035 4294310143
-0.2963535190 -0.1169226691 0.5585272312 4294310143
-0.2964054048 -0.1163224652 0.5586250424 4294244863
-0.2969180644 -0.1159019247 0.5595912933 4294244863
-0.2974306643 -0.1154791936 0.5605573654 4294244863
-0.2984043956 -0.1152323931 0.5623924732 4293850105
-0.3585052192 -0.1755933464 0.6770797372 4292270819
-0.3581255376 -0.1746558994 0.6763626337 4290165443
-0.3572890460 -0.1734982133 0.6747828722 4290231236
-0.3564518988 -0.1723437309 0.6732017994 4289836478
-0.3547011018 -0.1707529128 0.6698951721 4290296251
-0.3502096534 -0.1678558588 0.6614125967 4290296251
-0.3009601831 -0.1436190009 0.5683991313 4290296253
-0.2964550555 -0.1408470571 0.5598906279 4290296253
-0.2951459587 -0.1396057755 0.5574182272 4290362046
-0.2947500050 -0.1387999952 0.5566704273 4290625218
-0.2938965857 -0.1377813965 0.5550586581 4290691781
-0.2934997082 -0.1369794607 0.5543090701 4290757574
-0.2935596704 -0.1363914311 0.5544223189 4290823112
-0.2931620181 -0.1355915219 0.5536713600 4290954698
-0.2927639782 -0.1347930878 0.5529195666 4291152077
-0.2928230464 -0.1342058331 0.5530311465 4291217870
-0.2928818762 -0.1336182058 0.5531422496 4291349458
-0.2924827635 -0.1328223795 0.5523884892 4291546837
-0.2925410569 -0.1322349757 0.5524985194 4291613143
-0.2921411991 -0.1314412057 0.5517433882 4291678936
-0.2926568985 -0.1310591251 0.5527173281 4291678423
-0.2927144468 -0.1304706782 0.5528260469 4291810009
-0.2923136055 -0.1296786219 0.5520690084 4292007390
-0.2923706174 -0.1290904135 0.5521766543 4292073183
-0.2924273908 -0.1285018474 0.5522838831 4292138976
-0.2924839258 -0.1279129386 0.5523906350 4292204769
-0.2925402224 -0.1273236871 0.5524969697 4292402146
-0.2921376526 -0.1265354604 0.5517367125 4292533732
-0.2921933830 -0.1259464622 0.5518419147 4292599525
-0.2922488749 -0.1253571361 0.5519466996 4292599525
-0.2923041284 -0.1247674599 0.5520510674 4292665320
-0.2923591137 -0.1241774634 0.5521549582 4292796906
-0.2928729355 -0.1237811372 0.5531253815 4292994285
-0.2929275632 -0.1231895462 0.5532284975 4293125871
-0.2929819226 -0.1225976199 0.5533311963 4293191662
-0.2930360436 -0.1220053658 0.5534334183 4293323248
-0.2930899560 -0.1214127839 0.5535352230 4293257968
-0.2936030626 -0.1210092530 0.5545042753 4293323761
-0.2936565578 -0.1204150915 0.5546053052 4293586933
-0.2937097847 -0.1198206022 0.5547058582 4293850105
-0.2942225039 -0.1194123775 0.5556741953 4294047230
-0.2942753434 -0.1188163161 0.5557739735 4294113023
-0.2947878242 -0.1184046492 0.5567418337 4294113023
-0.2948402464 -0.1178070158 0.5568408370 4293981437
-0.2948924303 -0.1172090694 0.5569394231 4293981437
-0.2954044938 -0.1167927161 0.5579065084 4293981437
-0.2963766754 -0.1165551767 0.5597425699 4293850621
-0.2968886495 -0.1161335260 0.5607094765 4293784828
-0.2978608906 -0.1158888116 0.5625457168 4293784828
-0.2983727455 -0.1154618636 0.5635124445 4293587449
-0.3565432131 -0.1749994606 0.6747896671 4292271073
-0.3557084799 -0.1738417596 0.6732098460 4290428869
-0.3548730612 -0.1726872474 0.6716287732 4290297283
-0.3526700437 -0.1708736271 0.6674593687 4289968318
-0.3527445197 -0.1701679528 0.6676003337 4290230458
-0.3003973067 -0.1442833990 0.5685285926 4290230458
-0.2977246344 -0.1423736364 0.5634703040 4290230458
-0.2959626317 -0.1409086883 0.5601356030 4290230458
-0.2941996455 -0.1394506693 0.5567989349 4290296253
-0.2947167456 -0.1390760541 0.5577776432 4290559425
-0.2943211794 -0.1382704973 0.5570290089 4290560195
-0.2934688032 -0.1372529417 0.5554158092 4290625988
-0.2930723131 -0.1364512295 0.5546653867 4290625988
-0.2926754057 -0.1356509924 0.5539141893 4290823367
-0.2927347422 -0.1350629330 0.5540264845 4290954698
-0.2923370898 -0.1342647374 0.5532739162 4291086284
-0.2923958600 -0.1336768866 0.5533851385 4291217870
-0.2924544215 -0.1330886781 0.5534960032 4291349456
-0.2920556962 -0.1322930902 0.5527413487 4291481042
-0.2921136916 -0.1317051053 0.5528511405 4291546835
-0.2917142212 -0.1309115738 0.5520950556 4291547350
-0.2917716503 -0.1303238124 0.5522037745 4291613143
-0.2918288410 -0.1297357082 0.5523120165 4291744729
-0.2918858230 -0.1291472465 0.5524198413 4291810522
-0.2914849520 -0.1283569485 0.5516611338 4291942108
-0.2915413380 -0.1277687252 0.5517678857 4292007901
-0.2915974855 -0.1271801740 0.5518741608 4292138974
-0.2911955714 -0.1263925433 0.5511134863 4292204767
-0.2912511528 -0.1258042306 0.5512186885 4292336353
-0.2913065255 -0.1252155751 0.5513234735 4292336353
-0.2913616300 -0.1246265993 0.5514277816 4292467939
-0.2918747365 -0.1242323071 0.5523988605 4292599525
-0.2919294536 -0.1236417294 0.5525023937 4292665318
-0.2919839323 -0.1230508238 0.5526055098 4292731111
-0.2924966514 -0.1226518303 0.5535758734 4292796904
-0.2925507128 -0.1220593378 0.5536782146 4292796904
-0.2926045656 -0.1214665100 0.5537801385 4292797933
-0.2931168973 -0.1210628152 0.5547497272 4292863726
-0.2927115262 -0.1202798858 0.5539826155 4293061105
-0.2932235301 -0.1198736802 0.5549516082 4293258484
-0.2937354445 -0.1194652915 0.5559204221 4293324277
-0.2937882543 -0.1188689843 0.5560203791 4293455863
-0.2942999303 -0.1184571609 0.5569887161 4293587449
-0.2943522930 -0.1178592816 0.5570878983 4293521656
-0.2944044471 -0.1172610819 0.5571865439 4293521656
-0.2949157059 -0.1168445721 0.5581541657 4293521656
-0.2954268754 -0.1164258718 0.5591216087 4293522171
-0.2963975072 -0.1161851212 0.5609585643 4293456378
-0.2964489758 -0.1155819222 0.5610560179 4293390585
-0.2974195480 -0.1153349280 0.5628929138 4293324792
-0.3545849621 -0.1744049042 0.6724971533 4292336866
-0.3537513912 -0.1732494682 0.6709161997 4290626248
-0.3529171348 -0.1720972210 0.6693339944 4290297283
-0.3502627015 -0.1700647175 0.6642996669 4290099904
-0.3485167921 -0.1684826165 0.6609883904 4290296253
-0.3467698395 -0.1669073701 0.6576751471 4290230460
-0.2999596000 -0.1437445730 0.5688960552 4290230460
-0.2972906530 -0.1418391019 0.5638341308 4290230460
-0.2955310047 -0.1403768212 0.5604968667 4290296253
-0.2942258716 -0.1391368806 0.5580215454 4290427839
-0.2947421074 -0.1387599260 0.5590006709 4290362816
-0.2929801047 -0.1373130083 0.5556588769 4290428609
-0.2925843298 -0.1365109831 0.5549082756 4290428354
-0.2921881080 -0.1357104182 0.5541568398 4290625733
-0.2922474146 -0.1351221204 0.5542693138 4290757319
-0.2918504775 -0.1343235970 0.5535164475 4290823112
-0.2919092178 -0.1337355077 0.5536278486 4290954698
-0.2919677198 -0.1331470758 0.5537388325 4291020491
-0.2915697098 -0.1323511600 0.5529839993 4291152077
-0.2916276455 -0.1317629367 0.5530938506 4291349456
-0.2912288904 -0.1309690922 0.5523375869 4291349971
-0.2912862897 -0.1303810924 0.5524464250 4291481557
-0.2913434505 -0.1297927350 0.5525548458 4291613143
-0.2909436226 -0.1290015280 0.5517965555 4291678936
-0.2910002172 -0.1284134239 0.5519038439 4291810522
-0.2910565436 -0.1278249621 0.5520107150 4291876315
-0.2906556726 -0.1270364225 0.5512503982 4291876315
-0.2907114625 -0.1264482141 0.5513562560 4291942108
-0.2912241817 -0.1260575503 0.5523286462 4292138974
-0.2912795842 -0.1254677474 0.5524337292 4292270560
-0.2913347483 -0.1248775944 0.5525383949 4292402146
-0.2913896739 -0.1242871135 0.5526425242 4292467939
-0.2914443612 -0.1236962974 0.5527462363 4292533732
-0.2914988101 -0.1231051460 0.5528494716 4292599525
-0.2920106947 -0.1227059960 0.5538203716 4292599525
-0.2920647562 -0.1221132576 0.5539228320 4292533732
-0.2925764322 -0.1217106655 0.5548932552 4292665577
-0.2921721041 -0.1209268048 0.5541265011 4292731370
-0.2922254503 -0.1203330830 0.5542275906 4292862956
-0.2927366197 -0.1199267209 0.5551971197 4292994542
-0.2932477593 -0.1195181683 0.5561664701 4292863726
-0.2933005095 -0.1189216152 0.5562665462 4292995312
-0.2938113809 -0.1185096279 0.5572354794 4293126898
-0.2938637137 -0.1179115027 0.5573347211 4293126898
-0.2943743467 -0.1174960732 0.5583031774 4293258486
-0.2944262624 -0.1168963760 0.5584016442 4293258486
-0.2949366570 -0.1164775118 0.5593696237 4293324279
-0.2959057093 -0.1162366718 0.5612074733 4293258486
-0.2964159846 -0.1158125028 0.5621752739 4293193206
-0.2969261408 -0.1153861433 0.5631428957 4293258999
-0.3526304960 -0.1738097221 0.6702021360 4292140255
-0.3517980874 -0.1726565510 0.6686201096 4290627016
-0.3509650230 -0.1715065688 0.6670367718 4290297283
-0.3501313031 -0.1703597754 0.6654521823 4290297283
-0.3461173475 -0.1676758677 0.6578233838 4290427839
-0.3430100381 -0.1654462069 0.6519176960 4290427839
-0.2994583547 -0.1438072771 0.5691442490 4290362046
-0.2967938781 -0.1419010013 0.5640802383 4290362046
-0.2950372398 -0.1404381096 0.5607416034 4290362047
-0.2937343419 -0.1391976476 0.5582653284 4290362047
-0.2928853929 -0.1381768733 0.5566518307 4290230975
-0.2920358777 -0.1371593922 0.5550372601 4290362561
-0.2916406989 -0.1363579482 0.5542862415 4290362561
-0.2917001843 -0.1357697845 0.5543992519 4290494147
-0.2913042903 -0.1349703819 0.5536468029 4290625733
-0.2913632095 -0.1343824118 0.5537588000 4290691526
-0.2914219201 -0.1337940991 0.5538703799 4290823112
-0.2910249531 -0.1329972893 0.5531159043 4290823112
-0.2910830677 -0.1324091852 0.5532264113 4291020491
-0.2906853557 -0.1316144317 0.5524705052 4291283663
-0.2907429338 -0.1310265511 0.5525799394 4291152592
-0.2908002734 -0.1304383129 0.5526888967 4291349971
-0.2908574045 -0.1298497319 0.5527974367 4291547096
-0.2904582918 -0.1290581971 0.5520389080 4291678682
-0.2905148268 -0.1284698546 0.5521463752 4291744475
-0.2905711234 -0.1278811544 0.5522534251 4291744475
-0.2901709676 -0.1270922869 0.5514928699 4291744729
-0.2902266979 -0.1265038401 0.5515987873 4291942108
-0.2907386422 -0.1261130422 0.5525717735 4292073181
-0.2907939851 -0.1255229861 0.5526769757 4292138974
-0.2908491194 -0.1249325946 0.5527817011 4292270562
-0.2909039855 -0.1243418753 0.5528860092 4292336355
-0.2909586430 -0.1237508208 0.5529899001 4292402148
-0.2910130322 -0.1231594309 0.5530932546 4292467941
-0.2915241420 -0.1227601245 0.5540646315 4292533732
-0.2915781438 -0.1221671477 0.5541672707 4292467939
-0.2920889854 -0.1217643917 0.5551382303 4292402405
-0.2921425998 -0.1211698279 0.5552400947 4292533991
-0.2921959758 -0.1205749363 0.5553415418 4292665577
-0.2927064300 -0.1201674789 0.5563117266 4292797163
-0.2927593887 -0.1195710078 0.5564123392 4292862956
-0.2932696342 -0.1191601083 0.5573821068 4292928749
-0.2933221757 -0.1185620576 0.5574819446 4293060335
-0.2938321531 -0.1181477159 0.5584512353 4293060335
-0.2943420708 -0.1177311838 0.5594203472 4293061105
-0.2943940461 -0.1171303093 0.5595191121 4293061105
-0.2953616083 -0.1168915704 0.5613580942 4293126900
-0.2958712578 -0.1164684743 0.5623266697 4293126900
-0.2968388796 -0.1162225530 0.5641657710 4293192693
-0.2973484099 -0.1157941520 0.5651341677 4293390072
-0.3506798446 -0.1732138842 0.6679046154 4292270811
-0.3498485982 -0.1720629781 0.6663214564 4290362814
-0.3490166962 -0.1709152609 0.6647370458 4290428091
-0.3481841385 -0.1697707474 0.6631513238 4291020228
-0.3387351632 -0.1644467115 0.6451548338 4290493882
-0.2966258526 -0.1433760822 0.5649534464 4290428089
-0.2994100749 -0.1440882534 0.5702562332 4290230977
-0.2944814861 -0.1410932541 0.5608692765 4290230977
-0.2936351597 -0.1400663853 0.5592573881 4290231230
-0.2927882075 -0.1390428096 0.5576443076 4290231230
-0.2923946977 -0.1382371783 0.5568947792 4290362298
-0.2920007706 -0.1374330223 0.5561445355 4290362298
-0.2920606434 -0.1368431449 0.5562584996 4290427586
-0.2916659415 -0.1360410154 0.5555068254 4290493379
-0.2912708521 -0.1352403611 0.5547543168 4290494147
-0.2913298309 -0.1346512437 0.5548666120 4290625733
-0.2909339964 -0.1338526309 0.5541127324 4290691777
-0.2909924090 -0.1332637221 0.5542239547 4290757570
-0.2905957997 -0.1324671656 0.5534686446 4291019977
-0.2906536758 -0.1318784654 0.5535787940 4291151563
-0.2902563512 -0.1310839653 0.5528220534 4291283148
-0.2907686830 -0.1307000369 0.5537978411 4291677906
-0.2903707027 -0.1299066842 0.5530399084 4291612113
-0.2904275358 -0.1293175071 0.5531480908 4291677906
-0.2900288105 -0.1285262406 0.5523887277 4291743700
-0.2900850773 -0.1279373020 0.5524958968 4291809493
-0.2901411057 -0.1273480356 0.5526025891 4292073183
-0.2897413373 -0.1265594363 0.5518411398 4292138976
-0.2897967994 -0.1259704083 0.5519468188 4292007649
-0.2903077602 -0.1255781800 0.5529199839 4292073442
-0.2903628349 -0.1249875575 0.5530248880 4292205026
-0.2904176712 -0.1243965924 0.5531293154 4292270819
-0.2904722691 -0.1238052994 0.5532333255 4292270819
-0.2909827232 -0.1234070957 0.5542055368 4292270819
-0.2910369039 -0.1228142083 0.5543087721 4292205796
-0.2910908759 -0.1222209856 0.5544115305 4292205796
-0.2911445796 -0.1216274351 0.5545138121 4292533732
-0.2916544974 -0.1212232709 0.5554850101 4292533732
-0.2917078137 -0.1206281334 0.5555865169 4292600038
-0.2917608917 -0.1200326756 0.5556876063 4292600038
-0.2922703922 -0.1196238026 0.5566580296 4292731113
-0.2923230529 -0.1190267578 0.5567583442 4292862699
-0.2928323150 -0.1186144426 0.5577282906 4292993515
-0.2928845882 -0.1180158257 0.5578278303 4293125101
-0.2933936119 -0.1176000684 0.5587972999 4293388273
-0.2939025462 -0.1171821207 0.5597665906 4293322480
-0.2948685288 -0.1169432923 0.5616064668 4293060337
-0.2949201465 -0.1163396612 0.5617047548 4293191923
-0.2958861291 -0.1160945818 0.5635445714 4293061620
-0.2963947654 -0.1156669408 0.5645133257 4293324792
-0.3479029238 -0.1714687645 0.6640203595 4290428607
-0.3470721841 -0.1703233123 0.6624348164 4289506989
-0.3462408185 -0.1691810787 0.6608480215 4289835954
-0.3431452811 -0.1669408381 0.6549397707 4290888391
-0.3346146047 -0.1620810628 0.6386578083 4290756805
-0.2993596196 -0.1443693638 0.5713688135 4290559176
-0.2962513864 -0.1422421634 0.5654363632 4290427590
-0.2945008576 -0.1407771260 0.5620952249 4290296253
-0.2932025194 -0.1395347118 0.5596171618 4290230460
-0.2923566401 -0.1385121793 0.5580026507 4290296503
-0.2919634879 -0.1377067864 0.5572523475 4290296503
-0.2915699482 -0.1369028538 0.5565012097 4290493633
-0.2911759913 -0.1361003965 0.5557492375 4290427840
-0.2912352383 -0.1355104893 0.5558623672 4290362561
-0.2908405364 -0.1347100586 0.5551089644 4290559940
-0.2908992171 -0.1341203600 0.5552210212 4290691781
-0.2905037701 -0.1333219856 0.5544662476 4290823367
-0.2901079059 -0.1325250864 0.5537106395 4290888139
-0.2901657224 -0.1319361627 0.5538210273 4290822346
-0.2902233005 -0.1313468814 0.5539308786 4291216842
-0.2902806401 -0.1307572573 0.5540403128 4291545807
-0.2898833752 -0.1299635768 0.5532821417 4291480527
-0.2894856930 -0.1291714013 0.5525230765 4291480527
-0.2895421684 -0.1285825670 0.5526308417 4291546320
-0.2895983756 -0.1279934049 0.5527381301 4291677906
-0.2896543443 -0.1274039000 0.5528450012 4291875286
-0.2892552912 -0.1266149729 0.5520833731 4291941079
-0.2893107235 -0.1260257065 0.5521891117 4291810009
-0.2893658876 -0.1254361123 0.5522944331 4291941595
-0.2898758948 -0.1250424683 0.5532678962 4292138974
-0.2899307013 -0.1244512722 0.5533724427 4292138974
-0.2899852693 -0.1238597333 0.5534765720 4292007647
-0.2904948890 -0.1234613806 0.5544492602 4292073440
-0.2905490398 -0.1228682473 0.5545526743 4292205028
-0.2906029820 -0.1222747862 0.5546555519 4292336614
-0.2906566560 -0.1216809973 0.5547580123 4292402146
-0.2911657393 -0.1212766692 0.5557296872 4292336353
-0.2912190259 -0.1206812933 0.5558313727 4292468452
-0.2912720442 -0.1200855896 0.5559325814 4292534245
-0.2917807400 -0.1196765527 0.5569034815 4292600038
-0.2918333709 -0.1190792695 0.5570039749 4292731624
-0.2923418283 -0.1186667904 0.5579743981 4292797163
-0.2923940420 -0.1180679277 0.5580740571 4292797163
-0.2933585048 -0.1178352609 0.5599148870 4292731113
-0.2938666940 -0.1174162105 0.5608848333 4292796906
-0.2943748236 -0.1169949695 0.5618546605 4292928751
-0.2948828340 -0.1165715382 0.5628243089 4292928751
-0.2953907847 -0.1161459237 0.5637937784 4292862445
-0.2958986461 -0.1157181114 0.5647630692 4293191410
-0.3472414613 -0.1722442657 0.6641658545 4292205018
-0.3464126885 -0.1710969806 0.6625806093 4290889158
-0.3451314867 -0.1697307378 0.6601300836 4290624955
-0.3443012834 -0.1685907692 0.6585421562 4289440681
-0.3416626751 -0.1665726751 0.6534953117 4289111720
-0.3335983157 -0.1619320512 0.6380706429 4289638064
-0.2988548279 -0.1444321126 0.5716171265 4290230461
-0.2957519293 -0.1423040032 0.5656822324 4290691012
-0.2940043807 -0.1408383697 0.5623397231 4290691263
-0.2927082777 -0.1395954341 0.5598606467 4290493884
-0.2918638885 -0.1385724843 0.5582455993 4290427576
-0.2914714813 -0.1377667636 0.5574949980 4290493369
-0.2906259596 -0.1367494911 0.5558778048 4290625219
-0.2906853855 -0.1361597180 0.5559914708 4290625219
-0.2902917266 -0.1353584081 0.5552385449 4290691012
-0.2898976207 -0.1345585734 0.5544847846 4290691012
-0.2904092371 -0.1341788918 0.5554633141 4290691009
-0.2895613611 -0.1331717819 0.5538415909 4290756802
-0.2896193564 -0.1325829774 0.5539525151 4290888390
-0.2896771133 -0.1319938153 0.5540630221 4291019976
-0.2897346616 -0.1314042956 0.5541730523 4291085257
-0.2897919416 -0.1308144331 0.5542826056 4291151050
-0.2893953919 -0.1300204247 0.5535241365 4291151049
-0.2889984548 -0.1292279214 0.5527648926 4291151049
-0.2890548706 -0.1286388636 0.5528727770 4291282889
-0.2891110182 -0.1280494630 0.5529802442 4291546061
-0.2891669571 -0.1274597198 0.5530872345 4291677904
-0.2892226577 -0.1268696338 0.5531937480 4291809490
-0.2892781198 -0.1262792051 0.5532998443 4291743699
-0.2893333435 -0.1256884485 0.5534054637 4291875285
-0.2893883288 -0.1250973344 0.5535106659 4292072665
-0.2894431055 -0.1245058998 0.5536153913 4292138458
-0.2894976139 -0.1239141226 0.5537196398 4292007390
-0.2900064290 -0.1235156134 0.5546928644 4292007390
-0.2900605500 -0.1229222417 0.5547963381 4292204515
-0.2905691564 -0.1225202829 0.5557691455 4292270308
-0.2906228602 -0.1219253168 0.5558719039 4292532962
-0.2906763256 -0.1213300228 0.5559741855 4292401376
-0.2911845446 -0.1209233478 0.5569462180 4292402146
-0.2912376225 -0.1203264669 0.5570477247 4292336353
-0.2917456031 -0.1199163422 0.5580193400 4292205280
-0.2917982638 -0.1193178743 0.5581200719 4292402659
-0.2918506861 -0.1187190935 0.5582203269 4292600038
-0.2928136289 -0.1184885353 0.5600621700 4292665831
-0.2933211923 -0.1180705726 0.5610330105 4292796906
-0.2929175794 -0.1172856092 0.5602610111 4292731113
-0.2938804328 -0.1170466095 0.5621026158 4293059308
-0.2943876684 -0.1166230142 0.5630728006 4292927722
-0.2948947847 -0.1161972210 0.5640428066 4292729830
-0.2958576977 -0.1159479022 0.5658845305 4292993002
-0.3457522690 -0.1718706787 0.6627253294 4292204248
-0.3444738686 -0.1705015898 0.6602749228 4290888388
-0.3431946039 -0.1691375226 0.6578229070 4291085508
-0.3423655927 -0.1679998338 0.6562338471 4290493371
-0.3392800391 -0.1657631993 0.6503196359 4290033072
-0.3321315348 -0.1615632921 0.6366176009 4289243556
-0.2983494103 -0.1444948018 0.5718652606 4288651165
-0.2952517867 -0.1423657984 0.5659278631 4288782751
-0.2939588130 -0.1411163211 0.5634495616 4289572521
-0.2926650643 -0.1398719698 0.5609697104 4290296244
-0.2918222249 -0.1388476789 0.5593541861 4290625209
-0.2909787893 -0.1378266811 0.5577375293 4290691002
-0.2905866802 -0.1370220929 0.5569859147 4290624957
-0.2901941538 -0.1362189949 0.5562335253 4290624957
-0.2902533114 -0.1356286108 0.5563469529 4290559677
-0.2894078195 -0.1346172094 0.5547263622 4290691263
-0.2894663215 -0.1340279579 0.5548384786 4290822849
-0.2895246148 -0.1334383488 0.5549501777 4290888642
-0.2891301811 -0.1326408088 0.5541941524 4290888388
-0.2891878784 -0.1320514083 0.5543047786 4290822595
-0.2892453671 -0.1314616650 0.5544149876 4291019717
-0.2893026173 -0.1308715641 0.5545246601 4291019717
-0.2889067829 -0.1300772429 0.5537660122 4291151303
-0.2889634669 -0.1294873655 0.5538746715 4291217096
-0.2885669172 -0.1286951154 0.5531145334 4291414475
-0.2886230350 -0.1281054765 0.5532221198 4291611854
-0.2886789441 -0.1275154948 0.5533292294 4291546061
-0.2887345850 -0.1269251704 0.5534359217 4291546061
-0.2887900174 -0.1263345033 0.5535421371 4291677906
-0.2888451815 -0.1257435083 0.5536479354 4291743699
-0.2889001369 -0.1251521707 0.5537532568 4291875286
-0.2889548540 -0.1245604903 0.5538581014 4292072665
-0.2890093029 -0.1239684746 0.5539624691 4292203997
-0.2895173132 -0.1235698089 0.5549362302 4292203997
-0.2895714045 -0.1229761988 0.5550398827 4292269792
-0.2900791764 -0.1225740761 0.5560131669 4292335585
-0.2901328504 -0.1219788715 0.5561160445 4292532705
-0.2901862860 -0.1213833392 0.5562185049 4292466912
-0.2906937003 -0.1209765002 0.5571910739 4292467169
-0.2907467186 -0.1203793809 0.5572926998 4292401376
-0.2907994986 -0.1197819337 0.5573939085 4292401376
-0.2913064957 -0.1193703860 0.5583657026 4292598755
-0.2913588881 -0.1187713519 0.5584660769 4292730341
-0.2914110124 -0.1181719974 0.5585660338 4292927720
-0.2928270102 -0.1181225851 0.5612801313 4292993513
-0.2933336794 -0.1177022681 0.5622513294 4292532962
-0.2938402593 -0.1172797531 0.5632222891 4292401376
-0.2943467498 -0.1168550551 0.5641931295 4292203997
-0.2953081727 -0.1166078299 0.5660359263 4292203740
-0.2962696850 -0.1163565367 0.5678789020 4292532705
-0.3433653116 -0.1710482985 0.6595541835 4292270041
-0.3425388634 -0.1699055582 0.6579667330 4290427837
-0.3417117596 -0.1687660217 0.6563780308 4290361783
-0.3404337168 -0.1674082428 0.6539230347 4290559162
-0.3373531997 -0.1651734263 0.6480058432 4290888121
-0.3293155730 -0.1605352461 0.6325667500 4290888121
-0.2982939184 -0.1447761506 0.5729787350 4290559156
-0.2952017188 -0.1426453292 0.5670390129 4289638054
-0.2934603095 -0.1411775500 0.5636940002 4288585112
-0.2921687663 -0.1399326771 0.5612131953 4288058768
-0.2917783856 -0.1391229928 0.5604633689 4288256660
-0.2909365296 -0.1381006688 0.5588462353 4288717211
-0.2905452251 -0.1372948438 0.5580946207 4289309346
-0.2901535034 -0.1364904940 0.5573421717 4289638311
-0.2893100083 -0.1354762614 0.5557219386 4290164658
-0.2893688083 -0.1348862201 0.5558348894 4290559416
-0.2889758348 -0.1340862960 0.5550799966 4290756291
-0.2890340686 -0.1334964633 0.5551918745 4290822084
-0.2886403501 -0.1326985955 0.5544356108 4290756551
-0.2886980176 -0.1321089715 0.5545463562 4290822344
-0.2887554467 -0.1315189898 0.5546566844 4290888129
-0.2888126373 -0.1309286505 0.5547665954 4290953922
-0.2888696194 -0.1303379685 0.5548759699 4291085508
-0.2884741724 -0.1295438856 0.5541164279 4291085508
-0.2885305882 -0.1289534420 0.5542247891 4291151049
-0.2885867655 -0.1283626407 0.5543326735 4291414221
-0.2886427045 -0.1277714968 0.5544401407 4291480014
-0.2886983752 -0.1271800101 0.5545470715 4291414221
-0.2887538373 -0.1265881807 0.5546536446 4291611601
-0.2888090611 -0.1259960085 0.5547596812 4291677394
-0.2888640463 -0.1254035085 0.5548653007 4291808982
-0.2889187932 -0.1248106584 0.5549705029 4292006361
-0.2889733016 -0.1242174730 0.5550751686 4292138458
-0.2890275717 -0.1236239597 0.5551794171 4292270044
-0.2895347178 -0.1232229471 0.5561535358 4292335837
-0.2895885706 -0.1226278320 0.5562570095 4292401630
-0.2900954783 -0.1222233623 0.5572307110 4292335583
-0.2901489437 -0.1216266528 0.5573334098 4292269790
-0.2902021706 -0.1210296154 0.5574356914 4292401119
-0.2907086909 -0.1206204221 0.5584086180 4292401119
-0.2907615304 -0.1200217977 0.5585100651 4292532705
-0.2908141017 -0.1194228455 0.5586110950 4292401119
-0.2908664346 -0.1188235730 0.5587115884 4292072152
-0.2918262482 -0.1185928434 0.5605552197 4291874773
-0.2918782532 -0.1179910526 0.5606551766 4291743187
-0.2923840284 -0.1175715029 0.5616266727 4291414222
-0.2928897142 -0.1171497628 0.5625980496 4291282636
-0.2933953106 -0.1167258322 0.5635692477 4291611601
-0.2939008474 -0.1162997037 0.5645402074 4292138458
-0.2957692444 -0.1164078191 0.5681291819 4292335837
-0.3414329588 -0.1704493314 0.6572446823 4292072916
-0.3410570621 -0.1695322394 0.6565210819 4290296505
-0.3397817910 -0.1681716144 0.6540662050 4290033072
-0.3385056853 -0.1668160409 0.6516097784 4289638314
-0.3354302049 -0.1645830125 0.6456895471 4290295968
-0.3256070912 -0.1590667963 0.6267805099 4290361761
-0.2977864146 -0.1448388398 0.5732268095 4290558886
-0.2946995199 -0.1427071244 0.5672846437 4290887851
-0.2929611206 -0.1412387341 0.5639383197 4291018935
-0.2921219468 -0.1402093768 0.5623229146 4290689970
-0.2912821770 -0.1391833276 0.5607064366 4290031791
-0.2904418111 -0.1381605864 0.5590887070 4289439654
-0.2900512218 -0.1373544335 0.5583368540 4288782492
-0.2896602154 -0.1365497559 0.5575841665 4288387734
-0.2888182104 -0.1355351061 0.5559633970 4288058001
-0.2888769507 -0.1349448413 0.5560764074 4287992208
-0.2884846926 -0.1341445893 0.5553213358 4288255900
-0.2885428667 -0.1335545182 0.5554333329 4288848037
-0.2886008024 -0.1329640895 0.5555449128 4289308586
-0.2882075012 -0.1321664751 0.5547877550 4289440172
-0.2882648706 -0.1315762550 0.5548982024 4289966766
-0.2883220315 -0.1309856921 0.5550082326 4290229938
-0.2883789539 -0.1303947717 0.5551177859 4290492858
-0.2884356380 -0.1298035085 0.5552269220 4290756030
-0.2880406082 -0.1290096790 0.5544664860 4290953411
-0.2880967259 -0.1284186542 0.5545745492 4291216583
-0.2881526053 -0.1278272718 0.5546821356 4291216585
-0.2882082760 -0.1272355467 0.5547892451 4291019206
-0.2882636786 -0.1266434789 0.5548959374 4291282636
-0.2883188426 -0.1260510683 0.5550021529 4291480015
-0.2883737981 -0.1254583299 0.5551078916 4291743187
-0.2884284854 -0.1248652413 0.5552131534 4292006359
-0.2884829640 -0.1242718175 0.5553179979 4292203738
-0.2889894247 -0.1238719150 0.5562929511 4292335324
-0.2890434861 -0.1232768968 0.5563970208 4292401116
-0.2890973091 -0.1226815432 0.5565006733 4292466909
-0.2896034122 -0.1222769096 0.5574748516 4292270560
-0.2896568477 -0.1216799617 0.5575777292 4292138974
-0.2897100449 -0.1210826784 0.5576800704 4292203997
-0.2902157307 -0.1206733286 0.5586535335 4292269790
-0.2902685106 -0.1200744659 0.5587551594 4292597985
-0.2903210521 -0.1194752678 0.5588563085 4292334813
-0.2908263505 -0.1190612018 0.5598289371 4291545295
-0.2913315594 -0.1186449379 0.5608015060 4291084744
-0.2918367088 -0.1182264835 0.5617738366 4291413964
-0.2918885052 -0.1176231876 0.5618735552 4291742929
-0.2923933864 -0.1172012761 0.5628454089 4292269271
-0.2928981781 -0.1167771742 0.5638171434 4292992994
-0.2938563526 -0.1165307090 0.5656616092 4293322472
-0.2943610549 -0.1161012799 0.5666331053 4292730335
-0.3395044804 -0.1698497385 0.6549326181 4292401627
-0.3391290009 -0.1689350158 0.6542083025 4290164665
-0.3383043706 -0.1677991301 0.6526175141 4289704107
-0.3370303214 -0.1664448231 0.6501597166 4289440935
-0.3344087899 -0.1644334197 0.6451026201 4289703821
-0.3228065670 -0.1580365449 0.6227209568 4289835407
-0.2972782552 -0.1449014693 0.5734747052 4290163853
-0.2941966653 -0.1427688599 0.5675300360 4290361232
-0.2924612761 -0.1412998587 0.5641823411 4290623900
-0.2911742628 -0.1400539577 0.5616995692 4290887072
-0.2907853127 -0.1392436177 0.5609492660 4290953132
-0.2899464369 -0.1382204592 0.5593309999 4291018925
-0.2895565629 -0.1374139786 0.5585789084 4290821546
-0.2891662717 -0.1366089731 0.5578259826 4290689960
-0.2883257568 -0.1355939209 0.5562046170 4290623148
-0.2883844376 -0.1350034028 0.5563178062 4290228390
-0.2879929245 -0.1342028379 0.5555624962 4289833129
-0.2880510390 -0.1336125433 0.5556746125 4289438371
-0.2876587510 -0.1328140348 0.5549178720 4288978843
-0.2877736688 -0.1316334903 0.5551395416 4288584345
-0.2873803377 -0.1308376044 0.5543807745 4288321173
-0.2874371111 -0.1302473843 0.5544903278 4287860624
-0.2874936759 -0.1296568066 0.5545994043 4287860624
-0.2875499725 -0.1290658861 0.5547080636 4288386968
-0.2876060605 -0.1284746081 0.5548161864 4288913312
-0.2876619101 -0.1278829873 0.5549239516 4288913828
-0.2877174914 -0.1272910386 0.5550311804 4288519070
-0.2877728641 -0.1266987324 0.5551379919 4291150790
-0.2878279984 -0.1261060834 0.5552443862 4291545548
-0.2883341312 -0.1257098317 0.5562207103 4291874515
-0.2883888483 -0.1251155734 0.5563263297 4292137687
-0.2884433568 -0.1245209873 0.5564314723 4292269531
-0.2884976268 -0.1239260659 0.5565361381 4292335324
-0.2890032232 -0.1235238090 0.5575114489 4292335323
-0.2890570760 -0.1229272783 0.5576153398 4292401116
-0.2891106904 -0.1223304197 0.5577188134 4292402148
-0.2891640961 -0.1217332259 0.5578218102 4292270562
-0.2896691263 -0.1213249788 0.5587960482 4292401378
-0.2897221148 -0.1207261980 0.5588982701 4292467171
-0.2897748649 -0.1201270819 0.5590000153 4292795364
-0.2907316387 -0.1199005842 0.5608457327 4292729571
-0.2907840610 -0.1192989498 0.5609468818 4292465883
-0.2908362448 -0.1186969876 0.5610474944 4292202711
-0.2913405597 -0.1182783693 0.5620203614 4292794334
-0.2918447852 -0.1178575531 0.5629931092 4293320678
-0.2918963730 -0.1172527522 0.5630925894 4293648612
-0.2928529978 -0.1170093268 0.5649380088 4293648612
-0.2933569551 -0.1165819243 0.5659102201 4293187804
-0.2943136394 -0.1163312942 0.5677556992 4292266702
-0.3375798464 -0.1692495048 0.6526181698 4292139227
-0.3372047842 -0.1683371514 0.6518930197 4290165437
-0.3363813460 -0.1672035456 0.6503011584 4289638062
-0.3351092339 -0.1658514291 0.6478418708 4289111718
-0.3324919939 -0.1638419330 0.6427821517 4289571216
-0.3222539723 -0.1581047624 0.6229897738 4289571216
-0.2972176969 -0.1451830268 0.5745890141 4289505913
-0.2936931849 -0.1428305358 0.5677752495 4289374327
-0.2919608057 -0.1413609385 0.5644262433 4289374830
-0.2906760573 -0.1401145160 0.5619424582 4289638002
-0.2902878225 -0.1393038630 0.5611919761 4289835638
-0.2894504070 -0.1382802725 0.5595730543 4289901431
-0.2890612781 -0.1374734789 0.5588207245 4290164606
-0.2886717021 -0.1366681457 0.5580676198 4290493571
-0.2882817090 -0.1358643025 0.5573136806 4290886814
-0.2878912985 -0.1350619346 0.5565589666 4291149986
-0.2875005007 -0.1342610419 0.5558034182 4291214523
-0.2875585556 -0.1336705089 0.5559157133 4291280316
-0.2876164019 -0.1330796033 0.5560275316 4291280579
-0.2872245312 -0.1322813481 0.5552699566 4291280579
-0.2872818410 -0.1316906661 0.5553807020 4291083966
-0.2873388827 -0.1310996264 0.5554910302 4290097071
-0.2873957157 -0.1305082440 0.5556008816 4288649627
-0.2874522805 -0.1299165040 0.5557102561 4288320662
-0.2870587111 -0.1291220337 0.5549493432 4288847004
-0.2871147394 -0.1285305172 0.5550577044 4289504934
-0.2871705294 -0.1279386729 0.5551655293 4289571238
-0.2872260809 -0.1273464710 0.5552729368 4288847515
-0.2872814238 -0.1267539412 0.5553798676 4291216835
-0.2877868712 -0.1263587922 0.5563570261 4291677386
-0.2878417969 -0.1257646531 0.5564632416 4292006099
-0.2878964841 -0.1251701564 0.5565689802 4292203478
-0.2879509628 -0.1245753318 0.5566742420 4292334811
-0.2884558737 -0.1241741851 0.5576503873 4292400604
-0.2885099351 -0.1235777512 0.5577549338 4292335324
-0.2885637581 -0.1229809821 0.5578589439 4292401117
-0.2886173427 -0.1223838851 0.5579625368 4292401378
-0.2886706889 -0.1217864528 0.5580656528 4292401378
-0.2891749144 -0.1213780418 0.5590404868 4292466658
-0.2892278433 -0.1207790151 0.5591428280 4292466658
-0.2897318602 -0.1203671470 0.5601171255 4292663778
-0.2902357578 -0.1199530810 0.5610913038 4292795364
-0.2902881205 -0.1193512008 0.5611925721 4293058019
-0.2903402448 -0.1187490001 0.5612933636 4293189605
-0.2908437550 -0.1183302104 0.5622667074 4293253856
-0.2913471758 -0.1179092303 0.5632399321 4293253856
-0.2918505073 -0.1174860522 0.5642129779 4292725456
-0.2923537493 -0.1170606688 0.5651859045 4291475389
-0.2933088541 -0.1168130860 0.5670322776 4290750124
-0.2938120067 -0.1163823679 0.5680049658 4290552745
-0.3361060321 -0.1688731909 0.6511670947 4292073434
-0.3352844417 -0.1677386463 0.6495752931 4290165437
-0.3344621658 -0.1666073352 0.6479822993 4289638321
-0.3331920207 -0.1652574092 0.6455215216 4289309356
-0.3301317096 -0.1630289108 0.6395925283 4289243296
-0.3190161288 -0.1568529904 0.6180573106 4289177503
-0.2971549630 -0.1454647183 0.5757038593 4289112210
-0.2936366498 -0.1431103349 0.5688874722 4288980624
-0.2914596796 -0.1414219588 0.5646699071 4289046903
-0.2901771665 -0.1401750296 0.5621851683 4288915317
-0.2897896767 -0.1393640488 0.5614344478 4288849500
-0.2889537513 -0.1383400410 0.5598149300 4288915293
-0.2885653079 -0.1375329196 0.5590623617 4289440862
-0.2881764770 -0.1367272735 0.5583090186 4289572448
-0.2877871990 -0.1359231025 0.5575549006 4289373798
-0.2873975337 -0.1351204067 0.5567998886 4289571177
-0.2870074213 -0.1343192011 0.5560441613 4290162303
-0.2875140011 -0.1339373738 0.5570255518 4290425475
-0.2871232629 -0.1331372857 0.5562685728 4291016082
-0.2871808112 -0.1325458139 0.5563800931 4291213461
-0.2867893577 -0.1317477822 0.5556216240 4290755228
-0.2868463397 -0.1311565191 0.5557320714 4290623642
-0.2869031131 -0.1305648983 0.5558420420 4289965713
-0.2869596779 -0.1299729198 0.5559515953 4288649853
-0.2870159745 -0.1293805987 0.5560606718 4288188798
-0.2866227925 -0.1285863966 0.5552989244 4288451970
-0.2871278822 -0.1281949282 0.5562775135 4289571232
-0.2871834636 -0.1276015639 0.5563852191 4288781716
-0.2872388363 -0.1270078570 0.5564924479 4291281858
-0.2872939408 -0.1264138073 0.5565992594 4291676616
-0.2873488367 -0.1258194149 0.5567055941 4292006099
-0.2874034941 -0.1252246946 0.5568114519 4292269271
-0.2879077494 -0.1248246580 0.5577884316 4292269531
-0.2879620194 -0.1242283210 0.5578935146 4292401117
-0.2880160213 -0.1236316487 0.5579981804 4292467173
-0.2880698144 -0.1230346411 0.5581023693 4292467173
-0.2885735333 -0.1226286069 0.5590782762 4292796388
-0.2886269093 -0.1220300049 0.5591816902 4292533216
-0.2886800468 -0.1214310601 0.5592846274 4293385181
-0.2891833782 -0.1210203022 0.5602598190 4293319388
-0.2896866500 -0.1206073314 0.5612348318 4294102997
-0.2897392213 -0.1200055405 0.5613366961 4293971411
-0.2897915542 -0.1194034144 0.5614380240 4293905355
-0.2902944088 -0.1189857274 0.5624122620 4292852667
-0.2903463244 -0.1183820143 0.5625128746 4291930033
-0.2908489108 -0.1179608628 0.5634865761 4290943138
-0.2913514376 -0.1175375134 0.5644601583 4290547095
-0.2918538749 -0.1171119660 0.5654335618 4290876060
-0.2928073704 -0.1168642938 0.5672808886 4292255393
-0.2937609553 -0.1166125387 0.5691282749 4292781737
-0.3341883719 -0.1682717651 0.6488479972 4292138972
-0.3333679438 -0.1671395153 0.6472551227 4290230975
-0.3325468898 -0.1660104841 0.6456609964 4289704116
-0.3312787116 -0.1646627486 0.6431987286 4289440944
-0.3282234371 -0.1624360830 0.6372667551 4289440685
-0.3180200756 -0.1567004472 0.6174562573 4289243306
-0.2966432869 -0.1455273777 0.5759518743 4288914588
-0.2931310534 -0.1431719959 0.5691326261 4288585623
-0.2914048433 -0.1417002529 0.5657811165 4288980872
-0.2901246846 -0.1404519081 0.5632956028 4289309837
-0.2892908752 -0.1394241750 0.5616766810 4289244535
-0.2884564400 -0.1383997649 0.5600565672 4289178742
-0.2880687416 -0.1375923157 0.5593038201 4289441385
-0.2876805961 -0.1367863417 0.5585502386 4289178213
-0.2872920632 -0.1359818429 0.5577958226 4288256596
-0.2873506844 -0.1353897154 0.5579096675 4287598666
-0.2865137160 -0.1343773007 0.5562846661 4287466823
-0.2865717113 -0.1337862909 0.5563972592 4287335237
-0.2866294682 -0.1331949234 0.5565093756 4287531846
-0.2866869569 -0.1326032132 0.5566210151 4287729225
-0.2862962186 -0.1318048686 0.5558623672 4287728471
-0.2863531709 -0.1312133670 0.5559729338 4288715366
-0.2864099145 -0.1306215078 0.5560830832 4289570679
-0.2864663899 -0.1300293058 0.5561927557 4289570679
-0.2865226567 -0.1294367462 0.5563020110 4289307521
-0.2865786850 -0.1288438439 0.5564107299 4289570693
-0.2866344452 -0.1282505989 0.5565190911 4290163102
-0.2866899967 -0.1276569963 0.5566269159 4288584070
-0.2867453098 -0.1270630509 0.5567343235 4291282111
-0.2868003845 -0.1264687628 0.5568412542 4291742662
-0.2868552506 -0.1258741468 0.5569477081 4292071890
-0.2869098485 -0.1252791733 0.5570537448 4292269269
-0.2869642079 -0.1246838719 0.5571593046 4292335324
-0.2874675095 -0.1242824197 0.5581364632 4292466910
-0.2875214815 -0.1236855090 0.5582412481 4292401378
-0.2875751853 -0.1230882555 0.5583455563 4292401378
-0.2880780995 -0.1226820648 0.5593219995 4292730594
-0.2881314456 -0.1220832169 0.5594255328 4292335836
-0.2881845236 -0.1214840338 0.5595286489 4292850877
-0.2886870503 -0.1210731119 0.5605043173 4291666603
-0.2891894877 -0.1206599846 0.5614798069 4292906910
-0.2892420292 -0.1200579479 0.5615818501 4292183187
-0.2892943025 -0.1194555759 0.5616833568 4291458175
-0.2897963524 -0.1190377250 0.5626580715 4291392382
-0.2902982831 -0.1186176762 0.5636326075 4291917962
-0.2903499901 -0.1180124581 0.5637330413 4292707478
-0.2908517122 -0.1175889373 0.5647071004 4293301155
-0.2913533151 -0.1171632260 0.5656810403 4293432741
-0.2923052311 -0.1169154570 0.5675292611 4292515226
-0.2932572067 -0.1166636124 0.5693775415 4292581019
-0.3327199817 -0.1678944528 0.6473931074 4291942106
-0.3319008648 -0.1667635739 0.6457992792 4290099902
-0.3310810924 -0.1656359285 0.6442041993 4289573300
-0.3293692768 -0.1640674621 0.6408734322 4289244335
-0.3263190687 -0.1618426144 0.6349384785 4289441461
-0.3156872094 -0.1558871120 0.6142514348 4289112496
-0.2965769172 -0.1458092481 0.5770674348 4288783529
-0.2930709124 -0.1434519589 0.5702455640 4288651943
-0.2909016609 -0.1417612731 0.5660247207 4288717219
-0.2896237671 -0.1405124068 0.5635382533 4288388254
-0.2887914479 -0.1394842565 0.5619187355 4288125074
-0.2884049416 -0.1386740953 0.5611667037 4288322453
-0.2880180478 -0.1378653944 0.5604138970 4288651155
-0.2876307368 -0.1370581836 0.5596602559 4289045913
-0.2867962718 -0.1360405385 0.5580366254 4289177750
-0.2868548632 -0.1354481727 0.5581505895 4289243543
-0.2864663005 -0.1346454024 0.5573945642 4289571991
-0.2865243256 -0.1340532452 0.5575074553 4289374612
-0.2861350179 -0.1332525164 0.5567499399 4289045899
-0.2862497270 -0.1320682615 0.5569731593 4288978278
-0.2858593464 -0.1312701702 0.5562136173 4288451934
-0.2859160304 -0.1306780726 0.5563238859 4288451685
-0.2859724760 -0.1300856322 0.5564336777 4288320099
-0.2860286832 -0.1294928491 0.5565430522 4287662696
-0.2860846519 -0.1288997084 0.5566520095 4287860075
-0.2861404121 -0.1283062100 0.5567604303 4289242000
-0.2861959040 -0.1277123839 0.5568684340 4288584070
-0.2862511575 -0.1271182001 0.5569759607 4291479490
-0.2863062024 -0.1265236884 0.5570830703 4291874248
-0.2863609791 -0.1259288192 0.5571896434 4292137683
-0.2868637741 -0.1255297512 0.5581679344 4292269269
-0.2869181633 -0.1249332801 0.5582737923 4292269531
-0.2869723439 -0.1243364662 0.5583791733 4292466910
-0.2870262563 -0.1237393171 0.5584841371 4292467171
-0.2875285149 -0.1233342364 0.5594613552 4292467171
-0.2875820398 -0.1227354780 0.5595655441 4292795875
-0.2880840600 -0.1223269328 0.5605423450 4291808980
-0.2885859907 -0.1219161749 0.5615189672 4290937742
-0.2886389792 -0.1213145554 0.5616220236 4288963952
-0.2886916995 -0.1207126006 0.5617246628 4290537075
-0.2887441814 -0.1201103106 0.5618267655 4291852935
-0.2892455459 -0.1196935624 0.5628023148 4291985799
-0.2892976403 -0.1190896854 0.5629036427 4291920006
-0.2897987664 -0.1186694652 0.5638787150 4293366942
-0.2902998030 -0.1182470471 0.5648536682 4293695907
-0.2903513014 -0.1176403165 0.5649538636 4292841111
-0.2908520997 -0.1172144338 0.5659282804 4291854216
-0.2918024361 -0.1169665828 0.5677773952 4291855243
-0.2927528024 -0.1167146415 0.5696266294 4292644759
-0.3308093250 -0.1672918350 0.6450694799 4291810522
-0.3304361105 -0.1663872004 0.6443417668 4290099904
-0.3291727901 -0.1650379002 0.6418783069 4289704631
-0.3279086649 -0.1636936516 0.6394132376 4289309873
-0.3235285282 -0.1608061343 0.6308721304 4288981411
-0.3129146993 -0.1548526883 0.6101754308 4289047204
-0.2965083420 -0.1460912526 0.5781834722 4288915620
-0.2925632596 -0.1435136199 0.5704906583 4288586655
-0.2908432186 -0.1420397460 0.5671365857 4288783784
-0.2891221941 -0.1405728459 0.5637806654 4289112749
-0.2882913351 -0.1395442933 0.5621605515 4289243565
-0.2879055738 -0.1387338042 0.5614083409 4289177772
-0.2875193954 -0.1379247904 0.5606552958 4288717219
-0.2871327996 -0.1371172369 0.5599014163 4288651426
-0.2867457867 -0.1363111734 0.5591467619 4288388506
-0.2863583863 -0.1355065852 0.5583912730 4288059541
-0.2864166796 -0.1349136382 0.5585049987 4288059792
-0.2860285044 -0.1341111064 0.5577480793 4288388757
-0.2860862315 -0.1335183531 0.5578606725 4288717973
-0.2856973410 -0.1327178627 0.5571023226 4288981145
-0.2853080332 -0.1319188774 0.5563431978 4289439628
-0.2858114839 -0.1315324306 0.5573248863 4289308042
-0.2858681977 -0.1309391856 0.5574354529 4289965720
-0.2859246731 -0.1303455830 0.5575456023 4290821029
-0.2855340838 -0.1295488924 0.5567839742 4290689962
-0.2855899930 -0.1289555132 0.5568929911 4290755755
-0.2856456935 -0.1283617914 0.5570015907 4290887351
-0.2857011557 -0.1277677268 0.5571097136 4288979354
-0.2857563794 -0.1271733046 0.5572174191 4291348421
-0.2858113647 -0.1265785545 0.5573246479 4291808972
-0.2858661115 -0.1259834468 0.5574313998 4292072405
-0.2863680720 -0.1255842298 0.5584101677 4292203991
-0.2864224017 -0.1249875203 0.5585162044 4292204251
-0.2864765227 -0.1243904680 0.5586217046 4292401630
-0.2865304053 -0.1237930730 0.5587267876 4292467169
-0.2870318294 -0.1233878434 0.5597045422 4292401376
-0.2875331938 -0.1229804009 0.5606821775 4292533732
-0.2875865102 -0.1223801374 0.5607861280 4291875802
-0.2880876362 -0.1219692230 0.5617632866 4290275960
-0.2881405652 -0.1213673577 0.5618665218 4289223272
-0.2881932557 -0.1207651645 0.5619692206 4292179329
-0.2882456779 -0.1201626360 0.5620715022 4293560982
-0.2887462378 -0.1197457165 0.5630475879 4292773259
-0.2887982726 -0.1191416010 0.5631490350 4291588985
-0.2892985940 -0.1187212169 0.5641246438 4291324019
-0.2897988260 -0.1182986274 0.5651000738 4291258226
-0.2902989388 -0.1178738400 0.5660753250 4290734452
-0.2907989919 -0.1174468547 0.5670503974 4290997624
-0.2912989557 -0.1170176566 0.5680253506 4291918728
-0.2922477722 -0.1167656258 0.5698754787 4292905623
-0.3289025426 -0.1666885763 0.6427433491 4291744729
-0.3280858099 -0.1655622870 0.6411472559 4290099904
-0.3277124763 -0.1646623462 0.6404176950 4289704631
-0.3260062337 -0.1630971879 0.6370834112 4289309873
-0.3216335177 -0.1602112204 0.6285381913 4288981159
-0.3097048700 -0.1535968930 0.6052271128 4288849573
-0.2959931195 -0.1461539418 0.5784316063 4289111977
-0.2924994826 -0.1437937617 0.5716042519 4289111977
-0.2903379500 -0.1421007514 0.5673801899 4288652198
-0.2886199653 -0.1406332403 0.5640228987 4288454819
-0.2877906263 -0.1396042705 0.5624021888 4288651943
-0.2874055803 -0.1387934536 0.5616497397 4289112494
-0.2870201170 -0.1379841119 0.5608964562 4288980908
-0.2866342366 -0.1371762455 0.5601423979 4289178287
-0.2862479687 -0.1363698542 0.5593875051 4289310126
-0.2858612537 -0.1355649531 0.5586317778 4289046954
-0.2859194875 -0.1349717677 0.5587456226 4288784032
-0.2855320573 -0.1341689080 0.5579884648 4288915618
-0.2855897546 -0.1335759312 0.5581012368 4289178789
-0.2856472135 -0.1329825819 0.5582134724 4289310375
-0.2852587104 -0.1321823448 0.5574542880 4289111718
-0.2848697901 -0.1313836128 0.5566943288 4288519581
-0.2853722870 -0.1309957355 0.5576762557 4288914337
-0.2854287028 -0.1304018945 0.5577865243 4290295990
-0.2854849100 -0.1298077106 0.5578963161 4291085506
-0.2850947082 -0.1290112734 0.5571337938 4291348678
-0.2851503491 -0.1284173280 0.5572425723 4291019713
-0.2852057517 -0.1278230101 0.5573508143 4288914337
-0.2852609456 -0.1272283643 0.5574586391 4291217094
-0.2853158712 -0.1266333759 0.5575659871 4291677645
-0.2853705585 -0.1260380298 0.5576729178 4292138198
-0.2858717144 -0.1256386638 0.5586522222 4292269784
-0.2859260142 -0.1250417084 0.5587583184 4292401117
-0.2864269316 -0.1246388704 0.5597372055 4292532703
-0.2864808440 -0.1240403056 0.5598425865 4292532705
-0.2869815230 -0.1236339808 0.5608210564 4292466912
-0.2870350480 -0.1230338067 0.5609256029 4292467687
-0.2870883346 -0.1224332973 0.5610297322 4291480792
-0.2875886261 -0.1220222265 0.5620074272 4290668148
-0.2876414955 -0.1214201227 0.5621107817 4289747046
-0.2876941264 -0.1208176762 0.5622136593 4291714927
-0.2877465189 -0.1202149093 0.5623160005 4291780720
-0.2882462740 -0.1197978333 0.5632926226 4290664549
-0.2882982492 -0.1191934645 0.5633941889 4290467170
-0.2887977362 -0.1187729165 0.5643703341 4291453296
-0.2892971635 -0.1183501706 0.5653462410 4291650675
-0.2897964716 -0.1179252118 0.5663220286 4290603895
-0.2907437086 -0.1176793799 0.5681731105 4290735481
-0.2912429273 -0.1172490790 0.5691486597 4291527056
-0.2921901941 -0.1169960126 0.5709998608 4292777123
-0.3269996941 -0.1660846919 0.6404147744 4291613143
-0.3266273141 -0.1651848257 0.6396855116 4290034111
-0.3258112371 -0.1640631407 0.6380872130 4289507252
-0.3241077363 -0.1625000983 0.6347510219 4289178287
-0.3192989528 -0.1593942940 0.6253332496 4289178020
-0.3065036535 -0.1523399204 0.6002741456 4289112227
-0.2950336039 -0.1459970325 0.5778105855 4289178275
-0.2919897437 -0.1438554078 0.5718492866 4288915103
-0.2898320258 -0.1421616971 0.5676234961 4288849055
-0.2881170809 -0.1406935900 0.5642648935 4289112227
-0.2872892320 -0.1396641880 0.5626435876 4289047206
-0.2869049311 -0.1388530582 0.5618909001 4288849827
-0.2860759795 -0.1378293782 0.5602674484 4288849573
-0.2861350477 -0.1372352093 0.5603831410 4288783780
-0.2857494652 -0.1364284903 0.5596280098 4288652194
-0.2853634953 -0.1356232613 0.5588721037 4288060057
-0.2854216695 -0.1350298524 0.5589860678 4287533715
-0.2850349545 -0.1342266649 0.5582286716 4287928473
-0.2850925922 -0.1336334497 0.5583415627 4288783784
-0.2851500213 -0.1330398768 0.5584539771 4289112749
-0.2852071822 -0.1324459463 0.5585659742 4288389024
-0.2848190963 -0.1316459626 0.5578058958 4289112747
-0.2848757207 -0.1310522407 0.5579167604 4289704882
-0.2849321067 -0.1304581761 0.5580272079 4289573296
-0.2849882543 -0.1298637539 0.5581371784 4289902515
-0.2850441635 -0.1292689741 0.5582466722 4291284168
-0.2846543789 -0.1284728050 0.5574833155 4291349444
-0.2847097218 -0.1278782636 0.5575917363 4289309861
