VERSION 0.7
FIELDS x y z rgba
SIZE 4 4 4 4
TYPE F F F U
COUNT 1 1 1 1
WIDTH 920
HEIGHT 1
VIEWPOINT 0.0 0.0 0.0 1.0 0.0 0.0 0.0
POINTS 920
DATA ascii
-0.2865386903 -0.1304667741 0.5948134065 4283191128
-0.2861672938 -0.1296376437 0.5940424204 4285625469
-0.2857954502 -0.1288100332 0.5932705402 4286349192
-0.2854232192 -0.1279839575 0.5924978256 4286349192
-0.2854766846 -0.1273494959 0.5926088095 4287007122
-0.2855298817 -0.1267146617 0.5927192569 4287270294
-0.2851565778 -0.1258913130 0.5919443369 4287336087
-0.2847828865 -0.1250695139 0.5911685824 4287533466
-0.2844088078 -0.1242492422 0.5903920531 4287466903
-0.2840343118 -0.1234305352 0.5896146297 4287466903
-0.2840859592 -0.1227977574 0.5897218585 4287664282
-0.2837107182 -0.1219812110 0.5889429450 4287795868
-0.2833351195 -0.1211662218 0.5881631970 4287730075
-0.2829590738 -0.1203527898 0.5873826146 4287861661
-0.2830095291 -0.1197215021 0.5874873400 4288124831
-0.2826327682 -0.1189102530 0.5867052674 4288190624
-0.2826826274 -0.1182792485 0.5868088007 4287731356
-0.2823051810 -0.1174701899 0.5860252380 4287994528
-0.2823544741 -0.1168394759 0.5861275196 4288125860
-0.2824034989 -0.1162084267 0.5862293839 4288323239
-0.2824523151 -0.1155770570 0.5863306522 4288586411
-0.2825008631 -0.1149453521 0.5864314437 4288652204
-0.2829766273 -0.1144862697 0.5874190331 4288849837
-0.2825972140 -0.1136809811 0.5866314173 4289113009
-0.2826450169 -0.1130483076 0.5867306590 4289113009
-0.2826925516 -0.1124153137 0.5868293643 4289310388
-0.2827398479 -0.1117820069 0.5869275331 4289573306
-0.2823590934 -0.1109802276 0.5861371160 4289836478
-0.2824058235 -0.1103472412 0.5862340927 4289968064
-0.2824522853 -0.1097139418 0.5863305926 4289902271
-0.2824985087 -0.1090803370 0.5864265561 4290034111
-0.2825444639 -0.1084464192 0.5865219235 4290297283
-0.2830183506 -0.1079755425 0.5875056386 4290560453
-0.2830638587 -0.1073400453 0.5876001716 4290955211
-0.2826808393 -0.1065428108 0.5868050456 4291547090
-0.2827257812 -0.1059076712 0.5868983865 4292139227
-0.2831989229 -0.1054317281 0.5878805518 4292862950
-0.2907256484 -0.1602346301 0.6048995256 4293124842
-0.2907912731 -0.1595985740 0.6050361395 4292730084
-0.2908566892 -0.1589620858 0.6051722169 4292532705
-0.2905002534 -0.1580957025 0.6044306159 4292400606
-0.2905651033 -0.1574592888 0.6045655608 4292269020
-0.2906297147 -0.1568224430 0.6046999693 4292137436
-0.2906941175 -0.1561851799 0.6048339605 4291940057
-0.2911802828 -0.1557732373 0.6058455110 4291874264
-0.2912442982 -0.1551342010 0.6059786677 4291808471
-0.2913080752 -0.1544947326 0.6061113477 4291807439
-0.2913716137 -0.1538548470 0.6062435508 4291412681
-0.2914349139 -0.1532145590 0.6063752770 4290887367
-0.2914979756 -0.1525738388 0.6065065265 4290295230
-0.2915607989 -0.1519327164 0.6066372395 4289242801
-0.2916234136 -0.1512911618 0.6067674756 4288321699
-0.2912630141 -0.1504308730 0.6060176492 4287334545
-0.2909022272 -0.1495720446 0.6052669883 4286347650
-0.2905410230 -0.1487146467 0.6045153737 4285360753
-0.2901793718 -0.1478587240 0.6037629843 4284702823
-0.2902404070 -0.1472188681 0.6038900018 4284373860
-0.2898780406 -0.1463649273 0.6031360030 4284176481
-0.2895152569 -0.1455124617 0.6023811698 4283518810
-0.2891520262 -0.1446614563 0.6016254425 4282992466
-0.2887884080 -0.1438119262 0.6008688807 4282992466
-0.2888478935 -0.1431738138 0.6009926200 4283058259
-0.2884835303 -0.1423262954 0.6002345085 4283388764
-0.2885424495 -0.1416883320 0.6003571153 4283651936
-0.2886011600 -0.1410499662 0.6004791856 4284244843
-0.2886595726 -0.1404112279 0.6006008387 4285034359
-0.2882938385 -0.1395668387 0.5998398066 4285691519
-0.2879276574 -0.1387239546 0.5990778804 4286152070
-0.2879852057 -0.1380859315 0.5991976261 4286546571
-0.2876182795 -0.1372450888 0.5984342098 4286678157
-0.2876752615 -0.1366072446 0.5985527635 4287336087
-0.2873076200 -0.1357684731 0.5977877975 4287467673
-0.2873640060 -0.1351308078 0.5979051590 4284704367
-0.2874201834 -0.1344927847 0.5980220437 4282598991
-0.2870514691 -0.1336566508 0.5972548723 4286349192
-0.2866823375 -0.1328220367 0.5964868069 4287796638
-0.2863128185 -0.1319889575 0.5957179666 4287072145
-0.2863677442 -0.1313522607 0.5958322883 4286611594
-0.2864224315 -0.1307152063 0.5959460735 4283520093
-0.2864768803 -0.1300777942 0.5960593820 4284441195
-0.2861059606 -0.1292479783 0.5952876210 4284770160
-0.2857346535 -0.1284196824 0.5945150256 4285493883
-0.2853628993 -0.1275929213 0.5937415957 4287335317
-0.2854161263 -0.1269569099 0.5938523412 4287466903
-0.2850436866 -0.1261322796 0.5930773616 4287598489
-0.2846708298 -0.1253091991 0.5923015475 4287795868
-0.2842975557 -0.1244876608 0.5915248990 4287532694
-0.2839238644 -0.1236676797 0.5907474160 4287861659
-0.2835498154 -0.1228492483 0.5899690986 4287730073
-0.2831753492 -0.1220323741 0.5891900063 4288059038
-0.2828004658 -0.1212170571 0.5884100199 4287598487
-0.2828511596 -0.1205849126 0.5885155201 4287861659
-0.2824755609 -0.1197717711 0.5877340436 4288190624
-0.2820995748 -0.1189602017 0.5869516730 4288190624
-0.2821494043 -0.1183289513 0.5870553255 4287994017
-0.2817726731 -0.1175195724 0.5862715244 4288191396
-0.2818219364 -0.1168886051 0.5863739848 4288059810
-0.2818709314 -0.1162573099 0.5864759088 4288125603
-0.2819196582 -0.1156256869 0.5865773559 4288191396
-0.2819681764 -0.1149937361 0.5866782665 4288454568
-0.2820164263 -0.1143614575 0.5867786407 4288651947
-0.2820644081 -0.1137288585 0.5868785381 4288849326
-0.2816853523 -0.1129248366 0.5860898495 4288849837
-0.2817327976 -0.1122925580 0.5861885548 4288981423
-0.2817799747 -0.1116599515 0.5862867236 4289113009
-0.2818268836 -0.1110270321 0.5863843560 4289310388
-0.2814464867 -0.1102265343 0.5855928659 4289639353
-0.2814928293 -0.1095939428 0.5856893063 4289770939
-0.2815389335 -0.1089610457 0.5857852101 4289770939
-0.2815847993 -0.1083278358 0.5858805776 4289902525
-0.2816303968 -0.1076943129 0.5859754682 4290165182
-0.2816757262 -0.1070604846 0.5860698223 4290494147
-0.2812933326 -0.1062648594 0.5852741599 4290757574
-0.2813380957 -0.1056313887 0.5853673220 4290823367
-0.2818102539 -0.1051571816 0.5863496661 4291152332
-0.2818545699 -0.1045221463 0.5864419341 4291678676
-0.2818986475 -0.1038868055 0.5865336061 4292336864
-0.2819424570 -0.1032511741 0.5866248012 4292994794
-0.2895917892 -0.1572953463 0.6039360762 4292993256
-0.2896562517 -0.1566591859 0.6040704846 4292598498
-0.2897204757 -0.1560226083 0.6042044163 4292335326
-0.2897844613 -0.1553856134 0.6043378711 4292137947
-0.2898482382 -0.1547481865 0.6044708490 4291940568
-0.2899117470 -0.1541103423 0.6046033502 4292136918
-0.2899750471 -0.1534720808 0.6047353148 4291873746
-0.2900381088 -0.1528334022 0.6048668027 4291742676
-0.2901009023 -0.1521943063 0.6049978137 4291676883
-0.2901634872 -0.1515547931 0.6051283479 4291282638
-0.2902258337 -0.1509148777 0.6052583456 4291019466
-0.2898660302 -0.1500561237 0.6045079231 4290558402
-0.2895057797 -0.1491988152 0.6037566662 4289900472
-0.2891451120 -0.1483429670 0.6030045152 4288913577
-0.2892062366 -0.1477041990 0.6031320095 4287992475
-0.2888448536 -0.1468503475 0.6023783088 4287071632
-0.2889054120 -0.1462117136 0.6025046110 4286347909
-0.2885432541 -0.1453598440 0.6017493606 4285558906
-0.2881807089 -0.1445094496 0.6009932756 4284966769
-0.2882403731 -0.1438714862 0.6011176705 4284440425
-0.2882997990 -0.1432331204 0.6012416482 4283848288
-0.2883589864 -0.1425943673 0.6013650894 4283521120
-0.2879950404 -0.1417470872 0.6006060243 4282731604
-0.2880536616 -0.1411084831 0.6007282734 4282402639
-0.2876889706 -0.1402632147 0.5999677181 4282797397
-0.2877469957 -0.1396247894 0.6000888348 4283455327
-0.2873815894 -0.1387815624 0.5993267298 4284179050
-0.2874390483 -0.1381433010 0.5994465947 4284902003
-0.2870728970 -0.1373021454 0.5986829400 4285230968
-0.2871298194 -0.1366640478 0.5988016725 4286152070
-0.2867628932 -0.1358249485 0.5980364680 4287402137
-0.2868192494 -0.1351870447 0.5981540084 4286678414
-0.2868753374 -0.1345487684 0.5982709527 4283454557
-0.2865073681 -0.1337123215 0.5975036025 4283783265
-0.2861390114 -0.1328773797 0.5967353582 4286151813
-0.2857702076 -0.1320439577 0.5959662795 4286612364
-0.2858251035 -0.1314070374 0.5960807204 4284243816
-0.2858797312 -0.1307697296 0.5961946249 4282796370
-0.2855098844 -0.1299390048 0.5954233408 4284967539
-0.2855639458 -0.1293019205 0.5955361128 4283849058
-0.2851933837 -0.1284732968 0.5947632790 4285362297
-0.2848224044 -0.1276462227 0.5939896107 4287599259
-0.2848755717 -0.1270099580 0.5941004753 4287533466
-0.2849285007 -0.1263733506 0.5942108631 4287993247
-0.2845564485 -0.1255489886 0.5934349895 4287598489
-0.2841840088 -0.1247261763 0.5926582813 4287795866
-0.2838111818 -0.1239049211 0.5918807387 4287532694
-0.2834379375 -0.1230852157 0.5911023617 4287401108
-0.2830642760 -0.1222670674 0.5903230906 4287598487
-0.2826902270 -0.1214504763 0.5895430446 4287664023
-0.2823157907 -0.1206354499 0.5887621641 4287795609
-0.2823662162 -0.1200027168 0.5888673067 4287927195
-0.2819910347 -0.1191898659 0.5880848765 4287795609
-0.2816154659 -0.1183785945 0.5873016715 4287665052
-0.2812395096 -0.1175688952 0.5865175724 4287796638
-0.2812887132 -0.1169376820 0.5866202116 4287730845
-0.2813376486 -0.1163061410 0.5867222548 4287796638
-0.2813863456 -0.1156742647 0.5868238211 4287994017
-0.2814348042 -0.1150420681 0.5869248509 4288191396
-0.2814829946 -0.1144095436 0.5870253444 4288191396
-0.2815309465 -0.1137766913 0.5871253610 4288257189
-0.2811526656 -0.1129723489 0.5863364339 4288257187
-0.2812000215 -0.1123398170 0.5864352584 4288454566
-0.2812471688 -0.1117069647 0.5865335464 4288651945
-0.2812940478 -0.1110737920 0.5866312981 4288849324
-0.2809143960 -0.1102729738 0.5858395696 4288981423
-0.2809606791 -0.1096401289 0.5859361291 4288981423
-0.2810067534 -0.1090069786 0.5860321522 4288981423
-0.2810525298 -0.1083735153 0.5861276984 4289047216
-0.2810980976 -0.1077397466 0.5862226486 4289638838
-0.2811433971 -0.1071056649 0.5863171220 4289967803
-0.2803350389 -0.1061481461 0.5846313834 4290362561
-0.2803797126 -0.1055153906 0.5847244859 4290559940
-0.2804241180 -0.1048823223 0.5848171115 4290757319
-0.2804682553 -0.1042489558 0.5849091411 4290823112
-0.2800851762 -0.1034575850 0.5841102600 4290955211
-0.2801287472 -0.1028245911 0.5842011571 4291152590
-0.2801720798 -0.1021913067 0.5842915177 4291284176
-0.2806423008 -0.1017125323 0.5852721334 4292007899
-0.2806851864 -0.1010776982 0.5853615403 4292994793
-0.2888115942 -0.1552234739 0.6037073135 4292928488
-0.2888751924 -0.1545867473 0.6038402319 4292665316
-0.2885179818 -0.1537255049 0.6030935645 4292598498
-0.2885810137 -0.1530888677 0.6032253504 4292203740
-0.2886438072 -0.1524518132 0.6033565998 4292072154
-0.2887063920 -0.1518143415 0.6034873724 4292006361
-0.2887687087 -0.1511764526 0.6036176682 4291874775
-0.2884097695 -0.1503187120 0.6028673649 4291874775
-0.2888926566 -0.1498994529 0.6038767695 4291808982
-0.2885330915 -0.1490427554 0.6031251550 4291545810
-0.2881730795 -0.1481875032 0.6023725867 4291151311
-0.2882340252 -0.1475494355 0.6025000215 4290822346
-0.2878732979 -0.1466961801 0.6017459631 4290164932
-0.2879337072 -0.1460582465 0.6018722057 4289243830
-0.2875722051 -0.1452069879 0.6011165977 4288125349
-0.2876320481 -0.1445691884 0.6012417078 4287335833
-0.2872698009 -0.1437199414 0.6004844904 4286677389
-0.2873290777 -0.1430822760 0.6006084085 4285953666
-0.2873881161 -0.1424442232 0.6007317901 4285034359
-0.2870248258 -0.1415975392 0.5999724269 4284244843
-0.2870832980 -0.1409596354 0.6000946164 4283784292
-0.2867192626 -0.1401149929 0.5993337035 4283586913
-0.2867771685 -0.1394772530 0.5994547009 4282928983
-0.2868348360 -0.1388391256 0.5995752215 4282468432
-0.2864697278 -0.1379970759 0.5988121033 4282730834
-0.2865268290 -0.1373591274 0.5989314318 4283059799
-0.2861609757 -0.1365191340 0.5981667042 4284046694
-0.2862175107 -0.1358813643 0.5982849002 4285033589
-0.2862738073 -0.1352432221 0.5984025002 4286086277
-0.2863298357 -0.1346046925 0.5985196829 4285428347
-0.2855395973 -0.1335700452 0.5968677998 4284375659
-0.2855949998 -0.1329326630 0.5969836116 4283849315
-0.2852269411 -0.1320989132 0.5962142944 4284375402
-0.2852817774 -0.1314617395 0.5963288546 4284638574
-0.2849130034 -0.1306301057 0.5955580473 4285296504
-0.2849672437 -0.1299931407 0.5956714153 4286086020
-0.2850212455 -0.1293558180 0.5957843065 4283585886
-0.2846514285 -0.1285268664 0.5950112939 4285954434
-0.2847048640 -0.1278897822 0.5951229930 4287994017
-0.2843343019 -0.1270629615 0.5943483710 4287533466
-0.2843871713 -0.1264261007 0.5944588780 4287861661
-0.2840158939 -0.1256014109 0.5936827660 4287927454
-0.2836441994 -0.1247782856 0.5929058194 4287532694
-0.2836961746 -0.1241422594 0.5930144787 4287795866
-0.2828996181 -0.1231366694 0.5913494229 4287861402
-0.2825267315 -0.1223182008 0.5905699730 4287795609
-0.2821534574 -0.1215012819 0.5897896886 4287664023
-0.2822041214 -0.1208676919 0.5898956060 4287664023
-0.2818301022 -0.1200529560 0.5891138315 4287466644
-0.2818801999 -0.1194196343 0.5892185569 4287729816
-0.2815054655 -0.1186070815 0.5884352326 4287532696
-0.2811303437 -0.1177961081 0.5876510739 4287466903
-0.2807548344 -0.1169867069 0.5868661404 4287730075
-0.2808037102 -0.1163549125 0.5869683027 4287598489
-0.2812772393 -0.1158978641 0.5879581571 4287795868
-0.2809007466 -0.1150903478 0.5871711373 4287927454
-0.2809489071 -0.1144575700 0.5872718096 4287993247
-0.2809967995 -0.1138244718 0.5873719454 4288322212
-0.2806192636 -0.1130198091 0.5865827799 4288059808
-0.2806665897 -0.1123870239 0.5866817236 4288125601
-0.2807136774 -0.1117539257 0.5867801309 4288257187
-0.2803350985 -0.1109521389 0.5859887600 4288454566
-0.2803816199 -0.1103193611 0.5860859752 4288520359
-0.2800023258 -0.1095198244 0.5852931738 4288586152
-0.2800482512 -0.1088873819 0.5853891969 4288717738
-0.2800939381 -0.1082546264 0.5854846835 4288717738
-0.2801393867 -0.1076215655 0.5855796337 4288980910
-0.2801845670 -0.1069881991 0.5856741071 4289178289
-0.2798036039 -0.1061928868 0.5848777890 4289573045
-0.2794222534 -0.1053992063 0.5840806365 4289902010
-0.2794665396 -0.1047668532 0.5841732025 4290165182
-0.2795105875 -0.1041342020 0.5842652917 4290296768
-0.2791282237 -0.1033434719 0.5834659934 4290363076
-0.2791716754 -0.1027111858 0.5835568309 4290428869
-0.2796411514 -0.1022344530 0.5845382214 4290494660
-0.2792578340 -0.1014457420 0.5837369561 4290626246
-0.2793005407 -0.1008125767 0.5838261843 4290823112
-0.2793429792 -0.1001791283 0.5839149356 4291349456
-0.2793851793 -0.0995453894 0.5840030909 4292204765
-0.2794271111 -0.0989113674 0.5840907693 4293125867
-0.2872520685 -0.1520697922 0.6018446684 4293059306
-0.2873143852 -0.1514339447 0.6019752622 4292796134
-0.2873764634 -0.1507976800 0.6021053195 4292401376
-0.2874383032 -0.1501610130 0.6022349000 4292269790
-0.2870796025 -0.1493053287 0.6014833450 4292138204
-0.2871409059 -0.1486687660 0.6016117334 4291940825
-0.2867814302 -0.1478150636 0.6008586287 4291941343
-0.2868421674 -0.1471786350 0.6009858847 4291809757
-0.2864819765 -0.1463269144 0.6002312303 4291612892
-0.2865421474 -0.1456906050 0.6003572941 4291415513
-0.2861812115 -0.1448408961 0.5996010303 4291020754
-0.2862408161 -0.1442047209 0.5997259617 4290625996
-0.2863001823 -0.1435681432 0.5998502970 4289967553
-0.2859381735 -0.1427209973 0.5990918875 4289112244
-0.2859969735 -0.1420845687 0.5992150903 4287929253
-0.2860555351 -0.1414477527 0.5993377566 4286744979
-0.2861138582 -0.1408105493 0.5994599462 4285758082
-0.2857504785 -0.1399665177 0.5986986160 4285231738
-0.2858082354 -0.1393294781 0.5988196135 4284705394
-0.2858657539 -0.1386920512 0.5989401340 4284113257
-0.2855013311 -0.1378506273 0.5981765389 4283586913
-0.2855582833 -0.1372133642 0.5982958674 4283257948
-0.2851930857 -0.1363739967 0.5975307822 4283191385
-0.2852494717 -0.1357369274 0.5976489186 4282401869
-0.2853056192 -0.1350994855 0.5977665186 4282796627
-0.2853615284 -0.1344616562 0.5978836417 4284046694
-0.2849949598 -0.1336255074 0.5971156359 4284573038
-0.2850503027 -0.1329878718 0.5972315669 4284046694
-0.2846829891 -0.1321538091 0.5964620113 4283585886
-0.2843153179 -0.1313212663 0.5956916213 4283783265
-0.2843697369 -0.1306844205 0.5958057046 4284967796
-0.2844239473 -0.1300472170 0.5959192514 4284704624
-0.2844778895 -0.1294096559 0.5960322618 4282599248
-0.2841088176 -0.1285803765 0.5952590108 4284112487
-0.2841621935 -0.1279430389 0.5953708291 4285757312
-0.2842153311 -0.1273053437 0.5954821706 4287665309
-0.2838451862 -0.1264787912 0.5947066545 4287862431
-0.2834746540 -0.1256537884 0.5939303637 4287928224
-0.2831037343 -0.1248303279 0.5931531787 4287730845
-0.2827323973 -0.1240084246 0.5923751593 4287796638
-0.2823606431 -0.1231880710 0.5915963054 4287598487
-0.2824119031 -0.1225530133 0.5917037129 4288059038
-0.2820394635 -0.1217348203 0.5909233093 4287335315
-0.2816666067 -0.1209181994 0.5901421309 4287993245
-0.2817169726 -0.1202840135 0.5902476907 4287861402
-0.2813434005 -0.1194695756 0.5894649625 4287400851
-0.2809694111 -0.1186567023 0.5886813998 4287400851
-0.2810188830 -0.1180234104 0.5887850523 4287071886
-0.2814920545 -0.1175668538 0.5897764564 4287203729
-0.2815411389 -0.1169319451 0.5898792148 4287269522
-0.2811658680 -0.1161215603 0.5890929699 4287532694
-0.2807901800 -0.1153127626 0.5883058906 4287664280
-0.2804141343 -0.1145055518 0.5875179768 4287664282
-0.2804619968 -0.1138722077 0.5876182318 4287730075
-0.2800852060 -0.1130672172 0.5868288279 4287861661
-0.2801324725 -0.1124341860 0.5869278908 4287861661
-0.2797549963 -0.1116314381 0.5861369967 4287993247
-0.2798016965 -0.1109987274 0.5862348676 4288059040
-0.2794235051 -0.1101982221 0.5854424238 4288190626
-0.2794696391 -0.1095658466 0.5855391026 4288322212
-0.2795155346 -0.1089331508 0.5856352448 4288453798
-0.2791363001 -0.1081355587 0.5848407149 4288519591
-0.2791815996 -0.1075032055 0.5849356055 4288586665
-0.2792266607 -0.1068705469 0.5850300193 4288652458
-0.2792714834 -0.1062375829 0.5851239562 4288915115
-0.2788909078 -0.1054435745 0.5843265653 4289178287
-0.2785099447 -0.1046511978 0.5835283399 4289441461
-0.2785538435 -0.1040192619 0.5836203694 4289638840
-0.2781721950 -0.1032291800 0.5828207135 4289967805
-0.2782155275 -0.1025976092 0.5829115510 4290230977
-0.2782586217 -0.1019657403 0.5830017924 4290165184
-0.2783014774 -0.1013335884 0.5830915570 4290362563
-0.2779184580 -0.1005471572 0.5822890997 4290559942
-0.2779607177 -0.0999153927 0.5823776722 4290559942
-0.2784284651 -0.0994353741 0.5833576918 4290494149
-0.2784703076 -0.0988020599 0.5834453106 4290691528
-0.2785118818 -0.0981684625 0.5835323930 4291152079
-0.2785531878 -0.0975345895 0.5836189985 4291612630
-0.2785942554 -0.0969004259 0.5837050080 4292534243
-0.2786350548 -0.0962659866 0.5837905407 4293192173
-0.2856902182 -0.1489292979 0.5999684930 4292731624
-0.2853316367 -0.1480766088 0.5992154479 4292468452
-0.2853923738 -0.1474422067 0.5993429422 4292205798
-0.2854528427 -0.1468073875 0.5994699597 4291942626
-0.2850932181 -0.1459572315 0.5987147689 4291876833
-0.2851531506 -0.1453225464 0.5988405943 4291811040
-0.2847927809 -0.1444743872 0.5980837941 4291745247
-0.2848521471 -0.1438398361 0.5982084870 4291613661
-0.2849112451 -0.1432049125 0.5983326435 4291350489
-0.2849701345 -0.1425695717 0.5984562635 4290955731
-0.2846083939 -0.1417245120 0.5976966023 4290824658
-0.2846667171 -0.1410893351 0.5978190899 4290100935
-0.2847248018 -0.1404537708 0.5979410410 4289310906
-0.2843620181 -0.1396112889 0.5971791744 4288389804
-0.2844195366 -0.1389758885 0.5972999334 4287337116
-0.2844768167 -0.1383401006 0.5974202752 4286481807
-0.2845338583 -0.1377039403 0.5975400209 4285758082
-0.2841696739 -0.1368646175 0.5967752337 4285165945
-0.2842261493 -0.1362286359 0.5968938470 4284902003
-0.2842823863 -0.1355922669 0.5970119238 4284046694
-0.2843383849 -0.1349555254 0.5971295238 4283322971
-0.2839727998 -0.1341194063 0.5963618159 4282862420
-0.2840282321 -0.1334828585 0.5964782238 4282401612
-0.2840834260 -0.1328459382 0.5965941548 4282927956
-0.2841383815 -0.1322086453 0.5967095494 4283191385
-0.2837714255 -0.1313757747 0.5959389210 4283059799
-0.2838258147 -0.1307386905 0.5960531235 4283060569
-0.2838799357 -0.1301012486 0.5961667895 4283192155
-0.2835119367 -0.1292710602 0.5953939557 4282402639
-0.2835655212 -0.1286338419 0.5955064297 4282600018
-0.2836188376 -0.1279962510 0.5956184268 4283257948
-0.2836719155 -0.1273583025 0.5957298875 4286087047
-0.2833025157 -0.1265314370 0.5949541926 4285428347
-0.2829327583 -0.1257061064 0.5941776037 4285296761
-0.2825625539 -0.1248823181 0.5934001803 4287072915
-0.2826144099 -0.1242458075 0.5935091376 4287270294
-0.2822435200 -0.1234241799 0.5927301645 4286678157
-0.2818722129 -0.1226041093 0.5919504166 4287336087
-0.2815004885 -0.1217855960 0.5911697745 4287730075
-0.2815511525 -0.1211505607 0.5912761688 4287927454
-0.2811787128 -0.1203342229 0.5904940367 4287730075
-0.2816517055 -0.1198794544 0.5914872885 4287598489
-0.2812786102 -0.1190643460 0.5907038450 4287598230
-0.2813282013 -0.1184289083 0.5908079743 4287335058
-0.2809543908 -0.1176159978 0.5900229812 4287532437
-0.2810034156 -0.1169808432 0.5901258588 4287598230
-0.2810521722 -0.1163453534 0.5902282596 4287532437
-0.2806773484 -0.1155352741 0.5894411206 4287466644
-0.2803021073 -0.1147267818 0.5886530876 4287532183
-0.2799265087 -0.1139198840 0.5878642797 4287663769
-0.2799740434 -0.1132859662 0.5879641175 4287532183
-0.2795976996 -0.1124812961 0.5871738195 4287597976
-0.2796446979 -0.1118476912 0.5872724652 4287729562
-0.2792676389 -0.1110452637 0.5864806175 4287861148
-0.2788901925 -0.1102444455 0.5856879950 4287992734
-0.2789362967 -0.1096118093 0.5857847929 4288058527
-0.2789821327 -0.1089788675 0.5858810544 4288124320
-0.2786036432 -0.1081809551 0.5850862265 4288124320
-0.2786489129 -0.1075483486 0.5851812959 4288191394
-0.2786939442 -0.1069154441 0.5852758288 4288257187
-0.2783144414 -0.1061204597 0.5844788551 4288388773
-0.2783588767 -0.1054879054 0.5845721960 4288586152
-0.2779786885 -0.1046952084 0.5837737322 4288717738
-0.2780225575 -0.1040630117 0.5838658810 4288915117
-0.2780661583 -0.1034305245 0.5839574933 4289178289
-0.2776849568 -0.1026407927 0.5831568837 4289375668
-0.2777279913 -0.1020086706 0.5832473040 4289573047
-0.2773460746 -0.1012212560 0.5824452043 4289638840
-0.2773885429 -0.1005895212 0.5825344324 4289902012
-0.2774307728 -0.0999574959 0.5826230645 4290230977
-0.2770478129 -0.0991730765 0.5818188787 4290296770
-0.2770894766 -0.0985414535 0.5819063783 4290428356
-0.2771308720 -0.0979095399 0.5819932818 4290625735
-0.2771720290 -0.0972773433 0.5820797086 4290757321
-0.2772129178 -0.0966448635 0.5821655989 4290560453
-0.2772535384 -0.0960121080 0.5822509527 4290823625
-0.2772939205 -0.0953790769 0.5823357105 4291415762
-0.2777594328 -0.0948910862 0.5833132863 4292205278
-0.2777993381 -0.0942565352 0.5833971500 4293060586
-0.2833475173 -0.1447399557 0.5964398980 4292600554
-0.2834068835 -0.1441074461 0.5965648293 4292140003
-0.2834660113 -0.1434745491 0.5966892838 4291811038
-0.2835249007 -0.1428412497 0.5968132019 4291679965
-0.2835835516 -0.1422075629 0.5969366431 4291548379
-0.2832223773 -0.1413640529 0.5961763859 4291745760
-0.2832804620 -0.1407305151 0.5962986946 4291679967
-0.2833383083 -0.1400965899 0.5964204669 4291613661
-0.2833959162 -0.1394622773 0.5965417027 4291153110
-0.2830333710 -0.1386218965 0.5957785249 4290429387
-0.2830904126 -0.1379877627 0.5958986282 4289639871
-0.2831472158 -0.1373532265 0.5960182548 4288718769
-0.2832038105 -0.1367183179 0.5961373448 4287929253
-0.2832601368 -0.1360830367 0.5962558985 4286810770
-0.2833162248 -0.1354473680 0.5963739753 4285955461
-0.2833720744 -0.1348113269 0.5964915752 4285099382
-0.2834276855 -0.1341749132 0.5966086388 4284309866
-0.2830624580 -0.1333399862 0.5958397985 4283783265
-0.2831175029 -0.1327037662 0.5959556699 4283388507
-0.2831723094 -0.1320671886 0.5960710645 4282796627
-0.2828060389 -0.1312349290 0.5953000188 4282533455
-0.2828602791 -0.1305985600 0.5954142213 4281547843
-0.2829142809 -0.1299618036 0.5955278873 4281876808
-0.2829680145 -0.1293247044 0.5956410170 4282073674
-0.2826003730 -0.1284957379 0.5948671103 4282468432
-0.2826535404 -0.1278588474 0.5949790478 4282534225
-0.2827064991 -0.1272216141 0.5950905085 4283521120
-0.2827591896 -0.1265840083 0.5952014327 4282139467
-0.2823901474 -0.1257583648 0.5944246054 4282863190
-0.2820207179 -0.1249342561 0.5936470032 4284638831
-0.2820725441 -0.1242974997 0.5937560201 4284836210
-0.2817023695 -0.1234755442 0.5929768682 4284836210
-0.2813318372 -0.1226551533 0.5921968818 4286020484
-0.2813827395 -0.1220192611 0.5923040509 4287401880
-0.2810114622 -0.1212010309 0.5915225148 4287204501
-0.2814838290 -0.1207464337 0.5925167799 4287138708
-0.2811118960 -0.1199294329 0.5917339325 4287862431
-0.2811617553 -0.1192931235 0.5918388367 4288124320
-0.2812113464 -0.1186564788 0.5919432640 4287729562
-0.2808384001 -0.1178422943 0.5911581516 4287071632
-0.2808874249 -0.1172059327 0.5912613869 4287466390
-0.2805137336 -0.1163939461 0.5904747844 4287597976
-0.2805621922 -0.1157578826 0.5905768275 4287663769
-0.2801878154 -0.1149481088 0.5897887349 4287663769
-0.2798130214 -0.1141399294 0.5889998078 4287663769
-0.2798605859 -0.1135048047 0.5890999436 4287664023
-0.2794850767 -0.1126988530 0.5883094668 4287664023
-0.2795320749 -0.1120640412 0.5884084105 4287664023
-0.2791558504 -0.1112603322 0.5876165032 4287664023
-0.2787792385 -0.1104582250 0.5868237615 4287729816
-0.2788253427 -0.1098243818 0.5869207978 4287795609
-0.2788712084 -0.1091902256 0.5870172977 4287795866
-0.2784935832 -0.1083910316 0.5862224102 4287861659
-0.2785388529 -0.1077572182 0.5863177180 4287730843
-0.2785838842 -0.1071230918 0.5864125490 4287796636
-0.2782052159 -0.1063268259 0.5856154561 4287928224
-0.2778261900 -0.1055321842 0.5848175287 4288059810
-0.2774467468 -0.1047391668 0.5840188265 4288257187
-0.2779142261 -0.1042656600 0.5850028992 4288454566
-0.2775341272 -0.1034739763 0.5842028260 4288651945
-0.2771536708 -0.1026839316 0.5834019780 4288849324
-0.2767728269 -0.1018955186 0.5826002955 4288651945
-0.2768155336 -0.1012638211 0.5826901197 4288849324
-0.2768579423 -0.1006318331 0.5827794671 4289244082
-0.2764760852 -0.0998464227 0.5819756389 4289441461
-0.2765179574 -0.0992148221 0.5820637941 4289507254
-0.2761353850 -0.0984317437 0.5812584758 4289638840
-0.2761766911 -0.0978005454 0.5813454390 4289967805
-0.2762177289 -0.0971690640 0.5814318061 4290296770
-0.2762584984 -0.0965373069 0.5815176368 4290428869
-0.2762990296 -0.0959052667 0.5816029906 4290428869
-0.2763393223 -0.0952729508 0.5816877484 4290494660
-0.2763793468 -0.0946403593 0.5817720294 4290494660
-0.2764191031 -0.0940074921 0.5818557143 4290626246
-0.2764586210 -0.0933743492 0.5819388628 4291021004
-0.2769226134 -0.0928834006 0.5829155445 4292007386
-0.2769616544 -0.0922487527 0.5829977989 4292862695
-0.2817224860 -0.1422657967 0.5944088697 4292666860
-0.2817808092 -0.1416346729 0.5945318937 4292140516
-0.2818388939 -0.1410031766 0.5946545005 4292206311
-0.2818967402 -0.1403712779 0.5947765112 4291943139
-0.2819543481 -0.1397389919 0.5948981047 4291877346
-0.2820117474 -0.1391063184 0.5950191617 4291811553
-0.2820688784 -0.1384732574 0.5951397419 4291745247
-0.2821257710 -0.1378398240 0.5952597857 4291613661
-0.2821824551 -0.1372060031 0.5953793526 4291284696
-0.2822388709 -0.1365717947 0.5954984426 4290758352
-0.2818756104 -0.1357352287 0.5947319269 4289508283
-0.2823510170 -0.1353022456 0.5957350135 4288784560
-0.2824067175 -0.1346669048 0.5958525538 4287928481
-0.2824621797 -0.1340311915 0.5959696174 4286612621
-0.2820976377 -0.1331968904 0.5952004194 4285625726
-0.2821525335 -0.1325613856 0.5953162313 4285099382
-0.2822071910 -0.1319254935 0.5954315662 4284309866
-0.2822616100 -0.1312892437 0.5955464244 4283520350
-0.2818956971 -0.1304581910 0.5947743058 4282994776
-0.2819495499 -0.1298221648 0.5948879123 4282665811
-0.2820031643 -0.1291857511 0.5950010419 4282271053
-0.2820565104 -0.1285489947 0.5951136947 4282139467
-0.2816892266 -0.1277212352 0.5943386555 4282073674
-0.2817420065 -0.1270847023 0.5944501162 4282468432
-0.2817945778 -0.1264478117 0.5945609808 4281810502
-0.2814262211 -0.1256227791 0.5937837958 4283192155
-0.2814782262 -0.1249861345 0.5938934684 4282138697
-0.2811091542 -0.1241632551 0.5931147933 4283257178
-0.2811605632 -0.1235268563 0.5932232738 4281349181
-0.2812117338 -0.1228901073 0.5933312774 4282204490
-0.2812626660 -0.1222530156 0.5934387445 4284967796
-0.2808922231 -0.1214335114 0.5926570892 4285691519
-0.2809425890 -0.1207966805 0.5927633643 4283586143
-0.2809927166 -0.1201595142 0.5928691030 4286349449
-0.2806212306 -0.1193428040 0.5920853019 4287335317
-0.2806707621 -0.1187059134 0.5921898484 4286940559
-0.2807200551 -0.1180686802 0.5922938585 4285295734
-0.2803475559 -0.1172547936 0.5915078521 4286414215
-0.2803962827 -0.1166178510 0.5916106701 4287598489
-0.2800230384 -0.1158061698 0.5908231735 4287993247
-0.2800711989 -0.1151695251 0.5909247994 4287664282
-0.2796972394 -0.1143600717 0.5901357532 4287335317
-0.2793228924 -0.1135522053 0.5893459320 4287664280
-0.2793701589 -0.1129164994 0.5894456506 4287532694
-0.2789950967 -0.1121108681 0.5886542797 4287401108
-0.2790417671 -0.1114754900 0.5887528062 4287335315
-0.2786660194 -0.1106721014 0.5879600048 4287269522
-0.2782898545 -0.1098703220 0.5871663094 4287401108
-0.2783356607 -0.1092359200 0.5872629285 4287466901
-0.2779587805 -0.1084364057 0.5864678025 4287466901
-0.2780040205 -0.1078023389 0.5865632296 4287795868
-0.2780489922 -0.1071679592 0.5866581202 4287730075
-0.2776710987 -0.1063713729 0.5858607888 4287664798
-0.2777155042 -0.1057373509 0.5859545469 4287730591
-0.2777596712 -0.1051030234 0.5860477090 4287862431
-0.2773807645 -0.1043093875 0.5852482319 4288125603
-0.2774243355 -0.1036754251 0.5853402019 4288322982
-0.2766217589 -0.1027270183 0.5836467743 4288322982
-0.2762416601 -0.1019382924 0.5828448534 4288191396
-0.2762843072 -0.1013063416 0.5829347968 4288257189
-0.2763266861 -0.1006741002 0.5830242634 4288454825
-0.2759456038 -0.0998883694 0.5822201967 4288717997
-0.2759874165 -0.0992565230 0.5823084116 4288915376
-0.2756056190 -0.0984731242 0.5815028548 4289046962
-0.2756468654 -0.0978416726 0.5815898776 4289309875
-0.2756878734 -0.0972099379 0.5816763639 4289441461
-0.2753050625 -0.0964295715 0.5808687210 4289573560
-0.2753455043 -0.0957982540 0.5809540153 4289770939
-0.2753856778 -0.0951666534 0.5810387731 4290034109
-0.2754255831 -0.0945347771 0.5811229944 4290231488
-0.2754652500 -0.0939026251 0.5812066793 4290363074
-0.2759284973 -0.0934137031 0.5821841359 4290494660
-0.2759677172 -0.0927800387 0.5822668672 4290692039
-0.2760066688 -0.0921460986 0.5823490620 4290955211
-0.2756213546 -0.0913713276 0.5815360546 4291152077
-0.2756597400 -0.0907378346 0.5816169977 4292007386
-0.2756978571 -0.0901040807 0.5816974640 4293060329
-0.2805729806 -0.1393809915 0.5933740139 4292601069
-0.2806301117 -0.1387499720 0.5934948921 4292337897
-0.2806870341 -0.1381185502 0.5936152339 4291877346
-0.2807436883 -0.1374867558 0.5937350988 4291745760
-0.2808001339 -0.1368545890 0.5938544273 4291745760
-0.2808563411 -0.1362220198 0.5939732790 4291614174
-0.2804936469 -0.1353870183 0.5932062864 4291351002
-0.2805492878 -0.1347546428 0.5933239460 4291087830
-0.2810235023 -0.1343220770 0.5943267941 4290824143
-0.2810787261 -0.1336880177 0.5944436789 4289903041
-0.2811337411 -0.1330535859 0.5945599675 4289178548
-0.2807694376 -0.1322214305 0.5937895179 4287994274
-0.2808238864 -0.1315871924 0.5939046741 4286744977
-0.2812972963 -0.1311480403 0.5949059129 4285955461
-0.2813513279 -0.1305121332 0.5950201750 4284771187
-0.2809857428 -0.1296822876 0.5942469835 4283718499
-0.2810392380 -0.1290465891 0.5943601131 4283521120
-0.2810924649 -0.1284105331 0.5944726467 4283060569
-0.2811454535 -0.1277741194 0.5945847631 4282731604
-0.2811982036 -0.1271373332 0.5946962833 4282928983
-0.2808309197 -0.1263113916 0.5939195752 4282138697
-0.2808831036 -0.1256748438 0.5940299034 4282796627
-0.2805151045 -0.1248510554 0.5932516456 4281809732
-0.2805667222 -0.1242147535 0.5933607817 4283059799
-0.2806180716 -0.1235781088 0.5934694409 4281480767
-0.2806692123 -0.1229411140 0.5935775042 4282862420
-0.2807200849 -0.1223037764 0.5936851501 4282796627
-0.2803503871 -0.1214839518 0.5929033160 4284638831
-0.2804006934 -0.1208468750 0.5930097103 4280954423
-0.2804507613 -0.1202094555 0.5931155682 4282928213
-0.2800800204 -0.1193924323 0.5923315287 4285229941
-0.2801295221 -0.1187552884 0.5924361944 4286085250
-0.2801787555 -0.1181178093 0.5925403237 4284966769
-0.2802277505 -0.1174799949 0.5926439762 4286545801
-0.2798556685 -0.1166664138 0.5918570161 4287532696
-0.2799040973 -0.1160288900 0.5919594765 4287664282
-0.2795313001 -0.1152175143 0.5911710262 4287467673
-0.2795791626 -0.1145802960 0.5912722349 4287796638
-0.2792056501 -0.1137711480 0.5904822946 4287533464
-0.2788317204 -0.1129636019 0.5896915197 4287467671
-0.2788786888 -0.1123273298 0.5897908211 4287401878
-0.2785040736 -0.1115220189 0.5889985561 4287336085
-0.2785504758 -0.1108860672 0.5890967250 4287204499
-0.2781751454 -0.1100830063 0.5883029103 4287204499
-0.2782209516 -0.1094473898 0.5883998275 4287270292
-0.2778449059 -0.1086465865 0.5876045823 4287204499
-0.2778901756 -0.1080113053 0.5877002478 4287401112
-0.2779351771 -0.1073757187 0.5877954364 4287401112
-0.2775581181 -0.1065778509 0.5869979858 4287401626
-0.2776025534 -0.1059426069 0.5870919824 4287467419
-0.2772247791 -0.1051470265 0.5862930417 4287533212
-0.2772686481 -0.1045121476 0.5863857865 4287730591
-0.2768901587 -0.1037188545 0.5855853558 4288059040
-0.2765113115 -0.1029272005 0.5847841501 4287927454
-0.2761320472 -0.1021371931 0.5839821100 4287599259
-0.2757524252 -0.1013488173 0.5831792355 4287862431
-0.2757947743 -0.1007163227 0.5832687616 4288125860
-0.2754144371 -0.0999302790 0.5824644566 4288257446
-0.2754562199 -0.0992981791 0.5825527906 4288323239
-0.2750751972 -0.0985144600 0.5817469954 4288389032
-0.2751164138 -0.0978827551 0.5818341374 4288651945
-0.2751573622 -0.0972507745 0.5819207430 4288980910
-0.2747753263 -0.0964700878 0.5811127424 4288849837
-0.2748157084 -0.0958385170 0.5811981559 4289178802
-0.2748558223 -0.0952066630 0.5812830329 4289376181
-0.2753186226 -0.0947200283 0.5822618008 4289507767
-0.2753582895 -0.0940866545 0.5823457241 4289770937
-0.2753977180 -0.0934530050 0.5824290514 4290034109
-0.2754369080 -0.0928190872 0.5825119019 4290297283
-0.2750526667 -0.0920432881 0.5816993117 4290428869
-0.2746680379 -0.0912691802 0.5808858871 4290428869
-0.2747063339 -0.0906364024 0.5809668303 4290692041
-0.2747443616 -0.0900033638 0.5810472965 4290955211
-0.2747821212 -0.0893700644 0.5811271667 4291284176
-0.2748196423 -0.0887365043 0.5812065005 4291876313
-0.2744334042 -0.0879669338 0.5803896189 4292731622
-0.2793077528 -0.1377634406 0.5920889974 4292666345
-0.2793641984 -0.1371333003 0.5922086835 4292403173
-0.2794204056 -0.1365027726 0.5923278332 4292140516
-0.2794763744 -0.1358718574 0.5924464464 4291877344
-0.2795321047 -0.1352405697 0.5925645828 4291614172
-0.2795875967 -0.1346089095 0.5926822424 4291482586
-0.2796428502 -0.1339768618 0.5927993655 4291416793
-0.2796978652 -0.1333444566 0.5929160118 4291416793
-0.2797526419 -0.1327116638 0.5930321217 4291153621
-0.2798071802 -0.1320785135 0.5931476951 4290758863
-0.2794431448 -0.1312485039 0.5923760533 4289969347
-0.2799155414 -0.1308110803 0.5933774114 4289179831
-0.2799693346 -0.1301768273 0.5934914947 4287928998
-0.2796043456 -0.1293485612 0.5927177668 4286744724
-0.2796576023 -0.1287145168 0.5928306580 4285626243
-0.2797106206 -0.1280801147 0.5929430127 4284902520
-0.2797634006 -0.1274453551 0.5930548906 4284047211
-0.2798159122 -0.1268102378 0.5931662321 4283389281
-0.2798682153 -0.1261747628 0.5932770967 4283126364
-0.2795011997 -0.1253509969 0.5924991369 4282928985
-0.2795529366 -0.1247157604 0.5926087499 4282271053
-0.2796044052 -0.1240801737 0.5927178860 4282600018
-0.2800749242 -0.1236293092 0.5937153101 4281547330
-0.2801259756 -0.1229920685 0.5938235521 4282271053
-0.2797573805 -0.1221713200 0.5930421352 4281810502
-0.2798078656 -0.1215343401 0.5931491852 4282863190
-0.2794385552 -0.1207157597 0.5923662782 4280757812
-0.2799081206 -0.1202593520 0.5933617353 4282731602
-0.2795381546 -0.1194420010 0.5925774574 4283717731
-0.2795875967 -0.1188046113 0.5926822424 4283783524
-0.2796367705 -0.1181668863 0.5927864909 4284309868
-0.2796857357 -0.1175288260 0.5928902626 4283915110
-0.2793143988 -0.1167149171 0.5921031237 4284375661
-0.2793627679 -0.1160771474 0.5922056437 4286349451
-0.2789907157 -0.1152654514 0.5914169550 4287336087
-0.2786183059 -0.1144553497 0.5906274915 4287138708
-0.2786657810 -0.1138185188 0.5907281637 4288190626
-0.2782926261 -0.1130106449 0.5899370909 4287795868
-0.2783395350 -0.1123741269 0.5900365710 4287861661
-0.2783862054 -0.1117372811 0.5901355147 4287927454
-0.2780120373 -0.1109322980 0.5893422961 4288190626
-0.2780581117 -0.1102957800 0.5894399881 4287664282
-0.2776832283 -0.1094930470 0.5886452794 4287597976
-0.2777287662 -0.1088568643 0.5887418389 4287729562
-0.2773531675 -0.1080563962 0.5879455805 4287336085
-0.2773981094 -0.1074205562 0.5880408883 4287270292
-0.2774428129 -0.1067844033 0.5881356597 4287533464
-0.2770662010 -0.1059868783 0.5873373151 4287599257
-0.2771103382 -0.1053510830 0.5874308348 4287599259
-0.2767330110 -0.1045558453 0.5866310000 4287796638
-0.2763552964 -0.1037622392 0.5858302712 4287796638
-0.2759772241 -0.1029702649 0.5850288272 4287599259
-0.2755987346 -0.1021799371 0.5842264891 4287795868
-0.2756413519 -0.1015465185 0.5843168497 4287993247
-0.2752621770 -0.1007585004 0.5835130215 4288190626
-0.2753042281 -0.1001254693 0.5836021304 4288322212
-0.2749243379 -0.0993397832 0.5827968717 4288453798
-0.2749658227 -0.0987071469 0.5828847885 4288453798
-0.2745852470 -0.0979238003 0.5820780396 4288519591
-0.2746261656 -0.0972915590 0.5821647644 4288716970
-0.2746668160 -0.0966590345 0.5822509527 4288521388
-0.2742852271 -0.0958787352 0.5814420581 4288784560
-0.2743253112 -0.0952466279 0.5815270543 4289047732
-0.2747872472 -0.0947598070 0.5825062394 4289245111
-0.2748268843 -0.0941261724 0.5825902820 4289441974
-0.2744440436 -0.0933486521 0.5817787051 4289639353
-0.2744831145 -0.0927154571 0.5818615556 4289967805
-0.2745219171 -0.0920819864 0.5819438100 4290165184
-0.2741380930 -0.0913075581 0.5811301470 4290362563
-0.2737538815 -0.0905348137 0.5803156495 4290757321
-0.2737917900 -0.0899024904 0.5803960562 4290757834
-0.2738294899 -0.0892699137 0.5804759264 4290823627
-0.2738668919 -0.0886370763 0.5805552602 4290824395
-0.2734813690 -0.0878681690 0.5797379613 4290955981
-0.2735182047 -0.0872357860 0.5798161030 4291284946
-0.2735548019 -0.0866031572 0.5798936486 4291811290
-0.2735911310 -0.0859702677 0.5799707174 4292797414
-0.2781544626 -0.1348916590 0.5910357833 4292534761
-0.2782097459 -0.1342616379 0.5911532640 4292337382
-0.2782647610 -0.1336312592 0.5912701488 4292008930
-0.2783195674 -0.1330004930 0.5913865566 4291614172
-0.2783741057 -0.1323693693 0.5915024877 4291416793
-0.2784284353 -0.1317378581 0.5916178823 4291416793
-0.2784824967 -0.1311059892 0.5917328000 4291219414
-0.2785363197 -0.1304737478 0.5918471813 4290956242
-0.2785899341 -0.1298411489 0.5919610858 4290758097
-0.2786432803 -0.1292081773 0.5920744538 4290231753
-0.2782785594 -0.1283820719 0.5912994742 4289376444
-0.2779134512 -0.1275575161 0.5905236602 4288257963
-0.2783839107 -0.1271162331 0.5915233493 4287073689
-0.2784362137 -0.1264827698 0.5916345119 4286218380
-0.2784883082 -0.1258489490 0.5917451382 4285100154
-0.2785401344 -0.1252147853 0.5918552876 4283981673
-0.2785917222 -0.1245802566 0.5919649005 4283323741
-0.2786430418 -0.1239453778 0.5920739770 4283389534
-0.2786941528 -0.1233101487 0.5921825767 4282797397
-0.2787449956 -0.1226745695 0.5922906399 4282797397
-0.2787956297 -0.1220386475 0.5923981667 4282139467
-0.2788459957 -0.1214023829 0.5925051570 4282271053
-0.2788960934 -0.1207657680 0.5926116705 4280889398
-0.2789459825 -0.1201288104 0.5927176476 4282139465
-0.2789956033 -0.1194915175 0.5928230882 4282072906
-0.2790449858 -0.1188538820 0.5929280519 4282072906
-0.2786750793 -0.1180384085 0.5921419859 4282468434
-0.2787238955 -0.1174010560 0.5922456980 4282600020
-0.2787724435 -0.1167633682 0.5923489332 4282599248
-0.2788207829 -0.1161253527 0.5924515724 4284112487
-0.2784494758 -0.1153133363 0.5916626453 4286480778
-0.2780778110 -0.1145029142 0.5908729434 4287270294
-0.2781252563 -0.1138658300 0.5909737349 4287730845
-0.2777528465 -0.1130576432 0.5901824236 4287665052
-0.2777997255 -0.1124208719 0.5902820230 4286941327
-0.2778463364 -0.1117837802 0.5903810859 4286612362
-0.2778927088 -0.1111463681 0.5904795527 4287598487
-0.2775189579 -0.1103417054 0.5896854401 4287993245
-0.2771448493 -0.1095386520 0.5888904929 4287927452
-0.2771903276 -0.1089022234 0.5889871120 4287927452
-0.2776556015 -0.1084295139 0.5899757743 4287795866
-0.2777006328 -0.1077914909 0.5900714993 4287598487
-0.2773252428 -0.1069910526 0.5892738104 4287466901
-0.2769494653 -0.1061922386 0.5884753466 4287466901
-0.2765732706 -0.1053950489 0.5876760483 4287466901
-0.2761967182 -0.1045994908 0.5868759155 4287598487
-0.2758197784 -0.1038055718 0.5860749483 4287795866
-0.2754424512 -0.1030132845 0.5852732062 4287730073
-0.2754853368 -0.1023789346 0.5853643417 4287598487
-0.2751073241 -0.1015889645 0.5845610499 4287730073
-0.2751496434 -0.1009550020 0.5846509933 4287927454
-0.2747709155 -0.1001673490 0.5838462710 4288059040
-0.2748126686 -0.0995337740 0.5839349627 4288124833
-0.2744332254 -0.0987484530 0.5831287503 4288124833
-0.2744744122 -0.0981152728 0.5832162499 4288124833
-0.2740943134 -0.0973322988 0.5824085474 4288124833
-0.2741349041 -0.0966995284 0.5824948549 4288125603
-0.2741752565 -0.0960664749 0.5825806260 4288322982
-0.2742153704 -0.0954331383 0.5826658010 4288586411
-0.2742552161 -0.0947995335 0.5827504992 4288783790
-0.2742948234 -0.0941656455 0.5828346014 4288783790
-0.2739127576 -0.0933878124 0.5820227861 4288915376
-0.2739517689 -0.0927543566 0.5821056962 4289112755
-0.2735690176 -0.0919789076 0.5812923908 4289310134
-0.2736074626 -0.0913458914 0.5813741088 4289639353
-0.2732240260 -0.0905728340 0.5805593729 4289902525
-0.2732619345 -0.0899402574 0.5806398988 4289968832
-0.2732995450 -0.0893074274 0.5807198286 4290166211
-0.2733369172 -0.0886743292 0.5807992816 4290297797
-0.2729521692 -0.0879051089 0.5799817443 4290363590
-0.2725670636 -0.0871375874 0.5791633725 4290692041
-0.2726035416 -0.0865056738 0.5792409182 4290955213
-0.2726397812 -0.0858735144 0.5793179274 4290955211
-0.2730978727 -0.0853730515 0.5802913308 4291284176
-0.2727114856 -0.0846084356 0.5794703364 4292073434
-0.2727469802 -0.0839755237 0.5795456767 4292862950
-0.2773602903 -0.1328556389 0.5907424688 4292468968
-0.2774147093 -0.1322252154 0.5908583403 4292074723
-0.2770522535 -0.1313968301 0.5900863409 4291943137
-0.2771061063 -0.1307666153 0.5902010798 4291811551
-0.2771597207 -0.1301360279 0.5903152823 4291614172
-0.2772130966 -0.1295050830 0.5904289484 4291613919
-0.2772662342 -0.1288737655 0.5905421376 4291548126
-0.2773191333 -0.1282420903 0.5906547904 4291481820
-0.2769546807 -0.1274181753 0.5898785591 4290823890
-0.2770070136 -0.1267867237 0.5899900198 4290100167
-0.2774763703 -0.1263449192 0.5909897089 4289705409
-0.2775283158 -0.1257118136 0.5911003351 4288850355
-0.2775799930 -0.1250783503 0.5912104249 4287534495
-0.2776314616 -0.1244445369 0.5913199782 4286416014
-0.2776826620 -0.1238103658 0.5914290547 4285297533
-0.2777336240 -0.1231758520 0.5915375948 4284508017
-0.2777843475 -0.1225409880 0.5916456580 4283784294
-0.2778348327 -0.1219057739 0.5917531252 4283652706
-0.2778850496 -0.1212702170 0.5918601155 4283126362
-0.2775171101 -0.1204529107 0.5910764337 4282271053
-0.2779847980 -0.1199980676 0.5920725465 4282073674
-0.2780342996 -0.1193614826 0.5921779871 4282533457
-0.2776653767 -0.1185460240 0.5913922191 4282007113
-0.2777143121 -0.1179097220 0.5914964676 4281810504
-0.2777630091 -0.1172730848 0.5916001797 4282139469
-0.2778114378 -0.1166361123 0.5917032957 4282007111
-0.2778596282 -0.1159988046 0.5918059945 4283059799
-0.2779075801 -0.1153611690 0.5919080973 4285757312
-0.2775366604 -0.1145504266 0.5911180973 4286612621
-0.2775840461 -0.1139130965 0.5912190080 4287204499
-0.2772124112 -0.1131045818 0.5904275179 4287138706
-0.2772592306 -0.1124675646 0.5905271769 4285625467
-0.2773057818 -0.1118302271 0.5906263590 4284638572
-0.2773520947 -0.1111925617 0.5907250047 4285428088
-0.2769791186 -0.1103875786 0.5899306536 4286283397
-0.2766057849 -0.1095842123 0.5891354084 4286546569
-0.2770703733 -0.1091125980 0.5901249647 4287007120
-0.2771156132 -0.1084746420 0.5902212858 4287795866
-0.2771606147 -0.1078363657 0.5903171301 4287927452
-0.2767859697 -0.1070356071 0.5895192027 4287730073
-0.2764109373 -0.1062364727 0.5887205005 4287730073
-0.2764550447 -0.1055992097 0.5888144374 4287795866
-0.2760793269 -0.1048023701 0.5880141854 4287664280
-0.2757032216 -0.1040071622 0.5872130990 4287532694
-0.2753267288 -0.1032135859 0.5864112377 4287335315
-0.2749498785 -0.1024216563 0.5856085420 4287466644
-0.2749924362 -0.1017867625 0.5856992602 4287466644
-0.2746148705 -0.1009971499 0.5848950744 4287598230
-0.2746568918 -0.1003626361 0.5849845409 4287795609
-0.2742786407 -0.0995753556 0.5841789246 4287861148
-0.2743200660 -0.0989412367 0.5842671990 4287992734
-0.2739410996 -0.0981562883 0.5834600329 4288058527
-0.2739819884 -0.0975225717 0.5835471153 4287992734
-0.2744429111 -0.0970371738 0.5845287442 4288190113
-0.2740629911 -0.0962542966 0.5837196112 4288321699
-0.2741031051 -0.0956197381 0.5838050842 4288454568
-0.2737224996 -0.0948392153 0.5829944611 4288586154
-0.2737620473 -0.0942050815 0.5830786824 4288389032
-0.2733807862 -0.0934269354 0.5822665691 4288454825
-0.2734197676 -0.0927932188 0.5823495984 4288521388
-0.2730377614 -0.0920174569 0.5815360546 4288587181
-0.2726554275 -0.0912433788 0.5807216763 4288916146
-0.2726935148 -0.0906108171 0.5808027983 4289047732
-0.2727313638 -0.0899779871 0.5808834434 4289245111
-0.2723480165 -0.0892070159 0.5800669193 4289442490
-0.2723852992 -0.0885746479 0.5801463723 4289574076
-0.2724223137 -0.0879420117 0.5802251697 4289771455
-0.2720379829 -0.0871741772 0.5794066191 4290099650
-0.2720744312 -0.0865420103 0.5794842243 4290231236
-0.2721106410 -0.0859095901 0.5795613527 4290560455
-0.2725678682 -0.0854089260 0.5805351734 4290692041
-0.2721822560 -0.0846439973 0.5797138810 4290955211
-0.2722176909 -0.0840108320 0.5797893405 4291218383
-0.2718314230 -0.0832483470 0.5789666772 4291612628
-0.2718662918 -0.0826156661 0.5790408850 4292270558
-0.2719008923 -0.0819827467 0.5791146159 4293389039
-0.2757323086 -0.1304268539 0.5886675715 4292666860
-0.2762016654 -0.1299937069 0.5896696448 4292206309
-0.2758388519 -0.1291686445 0.5888950825 4291943139
-0.2758917809 -0.1285389811 0.5890080333 4291745760
-0.2759444416 -0.1279089749 0.5891205072 4291679967
-0.2764131725 -0.1274705827 0.5901212096 4291614174
-0.2764654458 -0.1268388927 0.5902327895 4291351002
-0.2765174806 -0.1262068599 0.5903438926 4291219416
-0.2765692770 -0.1255744547 0.5904544592 4291021524
-0.2766208351 -0.1249417067 0.5905645490 4290429387
-0.2766721547 -0.1243086085 0.5906741023 4289837250
-0.2767232358 -0.1236751527 0.5907831192 4288981941
-0.2763572335 -0.1228560433 0.5900017619 4288192425
-0.2764077485 -0.1222228408 0.5901095867 4286876565
-0.2764580250 -0.1215892956 0.5902169347 4285954693
-0.2765080333 -0.1209554076 0.5903237462 4284573040
-0.2765578330 -0.1203211769 0.5904300213 4284178282
-0.2770245671 -0.1198671237 0.5914264917 4283586145
-0.2770739198 -0.1192312464 0.5915318727 4283915110
-0.2767057121 -0.1184164286 0.5907456875 4283586145
-0.2767544985 -0.1177808419 0.5908499360 4282863192
-0.2768030763 -0.1171449125 0.5909535885 4282468434
-0.2768513858 -0.1165086553 0.5910567045 4281875527
-0.2768994570 -0.1158720627 0.5911593437 4282401871
