VERSION 0.7
FIELDS x y z rgba
SIZE 4 4 4 4
TYPE F F F U
COUNT 1 1 1 1
WIDTH 920
HEIGHT 1
VIEWPOINT 0.0 0.0 0.0 1.0 0.0 0.0 0.0
POINTS 920
DATA ascii
-0.2998601794 -0.1227932423 0.6125803590 4287857855
-0.2999122143 -0.1221338138 0.6126866937 4290160357
-0.2999640107 -0.1214740500 0.6127924919 4290291943
-0.3000155389 -0.1208139434 0.6128977537 4288976095
-0.3000667989 -0.1201534942 0.6130024791 4288449751
-0.3005508780 -0.1196651384 0.6139913797 4290554367
-0.3006016910 -0.1190030649 0.6140952110 4289172718
-0.3006522357 -0.1183406562 0.6141984463 4288251113
-0.3007025123 -0.1176779196 0.6143011451 4288382699
-0.3007525206 -0.1170148402 0.6144033074 4287922920
-0.3016691208 -0.1166867465 0.6162758470 4286146509
-0.3021522462 -0.1161877960 0.6172628403 4285949130
-0.3026352525 -0.1156866103 0.6182495356 4287001818
-0.3031181395 -0.1151831821 0.6192359924 4287067609
-0.3031671643 -0.1145136803 0.6193361878 4286475472
-0.3032159209 -0.1138438657 0.6194357872 4284897730
-0.3036982715 -0.1133356243 0.6204211712 4284502972
-0.3037465513 -0.1126642078 0.6205198169 4283976364
-0.3046625555 -0.1123124436 0.6223911047 4284305329
-0.3047104180 -0.1116384640 0.6224888563 4283647398
-0.3051921427 -0.1111222357 0.6234729886 4283318433
-0.3052395582 -0.1104466617 0.6235698462 4282266511
-0.3057209551 -0.1099269241 0.6245532632 4286608849
-0.3062021732 -0.1094049439 0.6255363822 4291941344
-0.3062489033 -0.1087265164 0.6256318092 4292665067
-0.3067297935 -0.1082010269 0.6266142130 4293125101
-0.3076450527 -0.1078256071 0.6284840107 4293585652
-0.3076911271 -0.1071433574 0.6285781264 4294046203
-0.3081715703 -0.1066111773 0.6295596361 4293848824
-0.3082171679 -0.1059273556 0.6296527386 4293586418
-0.3082624674 -0.1052432284 0.6297453046 4293652211
-0.3083074689 -0.1045588031 0.6298372746 4293389805
-0.3083522022 -0.1038740799 0.6299286485 4293652977
-0.2992582917 -0.1289526522 0.6127411127 4292730862
-0.2988814414 -0.1281103194 0.6119694710 4291480795
-0.2985041440 -0.1272695214 0.6111969948 4290821844
-0.2985579073 -0.1266132295 0.6113070250 4289834949
-0.2981798649 -0.1257745624 0.6105329990 4287530929
-0.2978014350 -0.1249374524 0.6097580791 4287333550
-0.2978542447 -0.1242820024 0.6098662615 4289635050
-0.2974750400 -0.1234470382 0.6090898514 4289898222
-0.2979590893 -0.1229700670 0.6100809574 4288317401
-0.2980111241 -0.1223135814 0.6101874709 4288975331
-0.2980628908 -0.1216567531 0.6102935076 4290422525
-0.2985464633 -0.1211749390 0.6112836003 4289106665
-0.2985977829 -0.1205164790 0.6113886833 4287922140
-0.2990810573 -0.1200311333 0.6123781800 4287987933
-0.2991319299 -0.1193710342 0.6124823689 4288448492
-0.2996148765 -0.1188821569 0.6134712100 4286211530
-0.2996653020 -0.1182204336 0.6135744452 4286079948
-0.3001479506 -0.1177280173 0.6145626903 4287395808
-0.3006304801 -0.1172333583 0.6155506968 4288251631
-0.3006802499 -0.1165687367 0.6156526208 4287330529
-0.3011624515 -0.1160705462 0.6166399121 4286541267
-0.3020773232 -0.1157359257 0.6185131073 4286014923
-0.3025593460 -0.1152323037 0.6195001006 4285422786
-0.3026083112 -0.1145625338 0.6196003556 4284896442
-0.3030900061 -0.1140553802 0.6205866933 4283450019
-0.3031385243 -0.1133840084 0.6206859946 4283450019
-0.3036198914 -0.1128733307 0.6216716170 4283515810
-0.3041011095 -0.1123604178 0.6226569414 4283647396
-0.3045822084 -0.1118452623 0.6236419678 4283318433
-0.3046298325 -0.1111697331 0.6237394810 4283844777
-0.3051105738 -0.1106510609 0.6247238517 4283187867
-0.3051577210 -0.1099739373 0.6248203516 4287003861
-0.3056381345 -0.1094517484 0.6258040071 4292007137
-0.3056847751 -0.1087730452 0.6258995533 4292665067
-0.3065984845 -0.1084006727 0.6277703643 4293191664
-0.3066447377 -0.1077194139 0.6278650761 4293454836
-0.3066906929 -0.1070378572 0.6279591918 4293389043
-0.3067363799 -0.1063559875 0.6280527115 4292862699
-0.3067817688 -0.1056738123 0.6281456947 4292731364
-0.3068268895 -0.1049913391 0.6282380819 4293060329
-0.3068717420 -0.1043085679 0.6283298731 4293324012
-0.3069163263 -0.1036254987 0.6284211278 4293850356
-0.2992883027 -0.1326716244 0.6141992807 4293522171
-0.2989140153 -0.1318241507 0.6134311557 4292994544
-0.2981091440 -0.1307894588 0.6117794514 4291876063
-0.2977339327 -0.1299459785 0.6110094190 4290888406
-0.2973583341 -0.1291040182 0.6102386117 4289835718
-0.2969823182 -0.1282635927 0.6094669700 4287860153
-0.2966058552 -0.1274247169 0.6086944342 4287399602
-0.2966595888 -0.1267713755 0.6088046432 4289635552
-0.2967130542 -0.1261176616 0.6089143753 4289767138
-0.2963355184 -0.1252815127 0.6081396341 4288844507
-0.2959575951 -0.1244469136 0.6073640585 4288120784
-0.2964409888 -0.1239742562 0.6083560586 4290685695
-0.2964933515 -0.1233201027 0.6084635258 4289304046
-0.2965454459 -0.1226655990 0.6085703969 4288841971
-0.2970283628 -0.1221880987 0.6095615029 4288578799
-0.2970800102 -0.1215319633 0.6096674800 4289171706
-0.2971314192 -0.1208754852 0.6097729206 4286671572
-0.2976138592 -0.1203931496 0.6107630134 4286013642
-0.2980962098 -0.1199085638 0.6117528677 4287395295
-0.2985784113 -0.1194217354 0.6127424836 4287329761
-0.2986289859 -0.1187610403 0.6128462553 4286935003
-0.2991108894 -0.1182706803 0.6138352752 4286474706
-0.2991610169 -0.1176083609 0.6139380932 4286935257
-0.3000743687 -0.1172832176 0.6158124804 4286804439
-0.3001240790 -0.1166183278 0.6159145236 4285751751
-0.3006054461 -0.1161199436 0.6169023514 4284896440
-0.3010866940 -0.1156193167 0.6178899407 4284238510
-0.3015677929 -0.1151164472 0.6188772917 4284436402
-0.3020487726 -0.1146113351 0.6198643446 4284567988
-0.3025296032 -0.1141039804 0.6208510995 4283779234
-0.3025780618 -0.1134323403 0.6209505796 4283910820
-0.3030585945 -0.1129214615 0.6219366789 4284305580
-0.3031065762 -0.1122482195 0.6220351458 4284437166
-0.3035867512 -0.1117338166 0.6230205894 4284634291
-0.3040667772 -0.1112171784 0.6240057349 4284502705
-0.3041141033 -0.1105410606 0.6241027713 4284175013
-0.3041611314 -0.1098646224 0.6241993308 4288780523
-0.3042078912 -0.1091878787 0.6242952347 4292336102
-0.3042543530 -0.1085108146 0.6243906617 4292599274
-0.3051662743 -0.1081402302 0.6262621284 4292928492
-0.3056452870 -0.1076130494 0.6272450686 4292862699
-0.3056911230 -0.1069321781 0.6273391843 4292533732
-0.3057366908 -0.1062509939 0.6274327040 4292270560
-0.3057819903 -0.1055695117 0.6275256872 4292468703
-0.3058270216 -0.1048877239 0.6276180148 4293192426
-0.3058717549 -0.1042056382 0.6277098656 4293784563
-0.2981341481 -0.1345059574 0.6132284999 4293323007
-0.2977615297 -0.1336573511 0.6124620438 4291875561
-0.2973884940 -0.1328102797 0.6116948128 4291347954
-0.2970150709 -0.1319647133 0.6109266281 4290032094
-0.2966412008 -0.1311206818 0.6101576686 4288122567
-0.2962669134 -0.1302781701 0.6093878150 4286675121
-0.2958922386 -0.1294371933 0.6086171269 4288517071
-0.2955171168 -0.1285977364 0.6078456044 4288977622
-0.2951416075 -0.1277598292 0.6070731878 4288582103
-0.2947656810 -0.1269234568 0.6062999368 4288384724
-0.2948191166 -0.1262726933 0.6064098477 4291016191
-0.2948722839 -0.1256215870 0.6065192223 4289437164
-0.2949252129 -0.1249701232 0.6066280603 4288909545
-0.2945478559 -0.1241370812 0.6058518887 4287922650
-0.2950302660 -0.1236661449 0.6068441272 4289500669
-0.2950824201 -0.1230136380 0.6069514155 4286408398
-0.2955645323 -0.1225391477 0.6079430580 4286079437
-0.2956162393 -0.1218850017 0.6080493927 4287724262
-0.2960980535 -0.1214069724 0.6090404391 4288447983
-0.2965797484 -0.1209266931 0.6100313067 4287658467
-0.2966308296 -0.1202696189 0.6101363301 4286869464
-0.2971122563 -0.1197858006 0.6111265421 4287001050
-0.2975935340 -0.1192997396 0.6121165156 4286869460
-0.2980747223 -0.1188114285 0.6131062508 4286014151
-0.2985557914 -0.1183208749 0.6140957475 4285291197
-0.2990367413 -0.1178280786 0.6150850058 4285356990
-0.2990866005 -0.1171642020 0.6151875854 4285291964
-0.2995672226 -0.1166678742 0.6161761880 4284897206
-0.3000477254 -0.1161692962 0.6171645522 4284502448
-0.3005281091 -0.1156684682 0.6181526184 4284502448
-0.3010083735 -0.1151654050 0.6191404462 4285291710
-0.3014884889 -0.1146600917 0.6201280355 4285225917
-0.3015370965 -0.1139894649 0.6202279925 4284108201
-0.3020169139 -0.1134806275 0.6212148666 4284634545
-0.3020650446 -0.1128083915 0.6213139296 4285029303
-0.3025445044 -0.1122960299 0.6223000884 4285095096
-0.3025921881 -0.1116221920 0.6223981380 4285160885
-0.3030712903 -0.1111063063 0.6233836412 4284766127
-0.3031184971 -0.1104308739 0.6234807372 4285820339
-0.3031654060 -0.1097551286 0.6235772371 4290689021
-0.3032120466 -0.1090790704 0.6236731410 4292138725
-0.3036904037 -0.1085571200 0.6246570945 4292401897
-0.3037365675 -0.1078794748 0.6247520447 4292599784
-0.3042145669 -0.1073540151 0.6257352829 4292665577
-0.3042602539 -0.1066747904 0.6258292198 4292797417
-0.3043056428 -0.1059952676 0.6259225607 4293126382
-0.3043507636 -0.1053154320 0.6260153651 4293587180
-0.2960090637 -0.1372431517 0.6102515459 4293324277
-0.2964943051 -0.1367889792 0.6112518907 4292928498
-0.2961235940 -0.1359396726 0.6104876995 4292138982
-0.2961804867 -0.1352873594 0.6106050014 4291217884
-0.2958090603 -0.1344401240 0.6098392010 4289902024
-0.2958653569 -0.1337880045 0.6099553108 4288384707
-0.2954931557 -0.1329428554 0.6091879606 4287266226
-0.2951205373 -0.1320992112 0.6084197760 4288448984
-0.2947475314 -0.1312571019 0.6076507568 4289172707
-0.2943740785 -0.1304165125 0.6068809032 4288645861
-0.2940002382 -0.1295774579 0.6061101556 4288316896
-0.2940546274 -0.1289278716 0.6062223315 4290619647
-0.2936800420 -0.1280909330 0.6054500341 4289632756
-0.2933050394 -0.1272555292 0.6046769023 4289633017
-0.2933585048 -0.1266067624 0.6047871709 4289106673
-0.2934117019 -0.1259576529 0.6048969030 4289765375
-0.2938937247 -0.1254913807 0.6058905721 4286936276
-0.2939465046 -0.1248406097 0.6059994102 4286277576
-0.2939990461 -0.1241894960 0.6061077118 4286803920
-0.2940513194 -0.1235380247 0.6062154770 4288711153
-0.2945326567 -0.1230656058 0.6072078347 4287658465
-0.2945845127 -0.1224124953 0.6073147058 4287132887
-0.2950655818 -0.1219365299 0.6083064675 4287396059
-0.2951169908 -0.1212817803 0.6084124446 4286738129
-0.2955977619 -0.1208022684 0.6094036102 4286474957
-0.2960784435 -0.1203205138 0.6103945971 4286014151
-0.2965589762 -0.1198365167 0.6113852859 4286079944
-0.2970394194 -0.1193502620 0.6123757958 4285949381
-0.2979497015 -0.1190335304 0.6142523885 4285291451
-0.2984299958 -0.1185418293 0.6152425408 4284502448
-0.2984800637 -0.1178780273 0.6153457761 4284897206
-0.2985298634 -0.1172138900 0.6154484749 4285555136
-0.2990096509 -0.1167173609 0.6164375544 4285423550
-0.2994893193 -0.1162185892 0.6174264550 4284634291
-0.2999688387 -0.1157175750 0.6184149981 4284568498
-0.3004482388 -0.1152143031 0.6194033623 4285160637
-0.3004969954 -0.1145446897 0.6195039153 4284502707
-0.3009760678 -0.1140379012 0.6204915643 4284173742
-0.3010243773 -0.1133666784 0.6205911040 4284634293
-0.3015031219 -0.1128563508 0.6215780973 4284635310
-0.3015509248 -0.1121835262 0.6216766834 4284108966
-0.3020293415 -0.1116696820 0.6226629615 4284175260
-0.3020766973 -0.1109952554 0.6227605939 4285622706
-0.3021237552 -0.1103205159 0.6228576303 4288715729
-0.3021705747 -0.1096454561 0.6229541302 4291676414
-0.3026482165 -0.1091255397 0.6239388585 4292139236
-0.3026945293 -0.1084488928 0.6240343451 4292797166
-0.3027406037 -0.1077719405 0.6241292953 4293520886
-0.3027863503 -0.1070946753 0.6242236495 4293784058
-0.2940013111 -0.1386500448 0.6075034142 4292796916
-0.2940591276 -0.1380022019 0.6076229215 4291546849
-0.2941167355 -0.1373539865 0.6077418923 4290493399
-0.2941740751 -0.1367053837 0.6078603864 4289309125
-0.2942311466 -0.1360564083 0.6079783440 4288255932
-0.2938608825 -0.1352105290 0.6072131991 4287861174
-0.2939173877 -0.1345617473 0.6073299646 4288452292
-0.2935463488 -0.1337179393 0.6065633297 4288386499
-0.2936022580 -0.1330693513 0.6066788435 4288053448
-0.2932305038 -0.1322276443 0.6059106588 4288250827
-0.2932858467 -0.1315792650 0.6060250401 4290553084
-0.2929133177 -0.1307396591 0.6052552462 4290355705
-0.2925403714 -0.1299015731 0.6044846773 4289960442
-0.2925948203 -0.1292539835 0.6045971513 4289631477
-0.2922211289 -0.1284180284 0.6038249731 4290355711
-0.2922749817 -0.1277706623 0.6039362550 4287460823
-0.2923285663 -0.1271229535 0.6040470004 4287066077
-0.2923819125 -0.1264748871 0.6041572094 4287526628
-0.2924349904 -0.1258264631 0.6042668819 4288579831
-0.2929160595 -0.1253609657 0.6052609682 4288316659
-0.2929687202 -0.1247108951 0.6053697467 4287133402
-0.2930211127 -0.1240604743 0.6054779887 4287133402
-0.2935017347 -0.1235901266 0.6064711213 4286672850
-0.2935536802 -0.1229380518 0.6065784693 4286607057
-0.2940340042 -0.1224641576 0.6075710058 4285751230
-0.2940855324 -0.1218104437 0.6076774597 4285290679
-0.2945655882 -0.1213330030 0.6086694002 4285554623
-0.2950454950 -0.1208533049 0.6096611023 4285357244
-0.2955253124 -0.1203713641 0.6106525064 4284764853
-0.2964340150 -0.1200609282 0.6125301719 4285159611
-0.2969136834 -0.1195735335 0.6135213375 4285094331
-0.2973932326 -0.1190838888 0.6145122647 4285489089
-0.2978726625 -0.1185919940 0.6155028939 4284831159
-0.2983519733 -0.1180978566 0.6164932847 4285028538
-0.2984018028 -0.1174324974 0.6165962815 4285555395
-0.2984513640 -0.1167668104 0.6166986823 4285160637
-0.2989301682 -0.1162678376 0.6176880598 4284502707
-0.2994088531 -0.1157666221 0.6186771393 4284634293
-0.2994577587 -0.1150980294 0.6187782288 4285029051
-0.2999361157 -0.1145932823 0.6197666526 4284239535
-0.2999845445 -0.1139230728 0.6198667884 4283977383
-0.3004625738 -0.1134147942 0.6208544970 4283977383
-0.3005105555 -0.1127429754 0.6209536195 4283320203
-0.3005582392 -0.1120708436 0.6210522056 4283649168
-0.3006056845 -0.1113983840 0.6211502552 4285689251
-0.3006528616 -0.1107256114 0.6212477088 4288715729
-0.3006997406 -0.1100525260 0.6213445663 4291545582
-0.3007463813 -0.1093791276 0.6214409471 4292532477
-0.3012230396 -0.1088609248 0.6224258542 4293191923
-0.2919388115 -0.1406812221 0.6046292186 4292863477
-0.2919973135 -0.1400374919 0.6047503948 4291876582
-0.2920555770 -0.1393933743 0.6048710942 4290690778
-0.2921136022 -0.1387488842 0.6049912572 4289506504
-0.2917454541 -0.1379026771 0.6042287946 4288058039
-0.2913769186 -0.1370579898 0.6034654975 4287531695
-0.2914340198 -0.1364142150 0.6035837531 4287728567
-0.2914908826 -0.1357700825 0.6037015319 4288649669
-0.2915475070 -0.1351255625 0.6038187742 4290096606
-0.2911775410 -0.1342840642 0.6030526161 4291478259
-0.2912335694 -0.1336397529 0.6031686664 4292727039
-0.2912893593 -0.1329950541 0.6032841802 4292661247
-0.2913449109 -0.1323499978 0.6033992171 4291540478
-0.2914001942 -0.1317045689 0.6035137177 4288842965
-0.2914552391 -0.1310587674 0.6036277413 4289237230
-0.2910832167 -0.1302216649 0.6028572321 4286934475
-0.2911376953 -0.1295760870 0.6029700637 4286407884
-0.2911919057 -0.1289301515 0.6030822992 4287394779
-0.2912458479 -0.1282838434 0.6031940579 4289369083
-0.2912995815 -0.1276371926 0.6033053398 4288119016
-0.2913530171 -0.1269901693 0.6034160256 4287658465
-0.2914062440 -0.1263428032 0.6035262346 4287329500
-0.2914591730 -0.1256950796 0.6036359072 4287132887
-0.2915118933 -0.1250469983 0.6037450433 4287264473
-0.2919918299 -0.1245809719 0.6047390699 4285949381
-0.2920441031 -0.1239312440 0.6048473120 4285488830
-0.2925238013 -0.1234616712 0.6058408022 4284698811
-0.2930033505 -0.1229898408 0.6068339944 4285027776
-0.2934828401 -0.1225157604 0.6078270674 4285291449
-0.2935343087 -0.1218617931 0.6079336405 4285423035
-0.2940135002 -0.1213841662 0.6089260578 4285620162
-0.2944925427 -0.1209042892 0.6099182367 4285620162
-0.2949715257 -0.1204221621 0.6109102368 4284699061
-0.2958785594 -0.1201116070 0.6127887964 4284896440
-0.2963573635 -0.1196240261 0.6137804389 4285225918
-0.2968360484 -0.1191341951 0.6147718430 4284962746
-0.2973146141 -0.1186421067 0.6157630086 4284896953
-0.2977930903 -0.1181477755 0.6167539358 4284831160
-0.2978428602 -0.1174821556 0.6168569922 4285094842
-0.2983210087 -0.1169842780 0.6178472638 4284568498
-0.2983703315 -0.1163170338 0.6179494262 4284173992
-0.2988481522 -0.1158156246 0.6189390421 4284042406
-0.2988969982 -0.1151467636 0.6190402508 4283911071
-0.2989456058 -0.1144775748 0.6191408634 4283713692
-0.2989939153 -0.1138080582 0.6192409396 4284175512
-0.2994710207 -0.1133005396 0.6202290654 4285425579
-0.2995188832 -0.1126294136 0.6203281879 4286348199
-0.2995664775 -0.1119579747 0.6204267740 4287664059
-0.2996137738 -0.1112862080 0.6205247641 4289769936
-0.2996608317 -0.1106141284 0.6206221581 4291546347
-0.2997076213 -0.1099417359 0.6207190752 4292927736
-0.3001835644 -0.1094255671 0.6217048168 4293980415
-0.2903034985 -0.1428939700 0.6026285887 4292995320
-0.2903627455 -0.1422534287 0.6027515531 4292074218
-0.2899971306 -0.1414054632 0.6019926667 4290889946
-0.2904804945 -0.1409711838 0.6029960513 4289639879
-0.2905390263 -0.1403294802 0.6031175256 4288191673
-0.2901724279 -0.1394831687 0.6023565531 4287073192
-0.2898054421 -0.1386383474 0.6015947461 4287465395
-0.2894380391 -0.1377950162 0.6008320451 4288057532
-0.2894953489 -0.1371545941 0.6009509563 4289767641
-0.2891272008 -0.1363133192 0.6001867652 4290820329
-0.2891839147 -0.1356730759 0.6003044844 4292267516
-0.2892403901 -0.1350324601 0.6004217267 4292728063
-0.2892965972 -0.1343914717 0.6005384326 4292990463
-0.2893525958 -0.1337501109 0.6006546617 4292464125
-0.2894083261 -0.1331083626 0.6007703543 4291476717
-0.2894638181 -0.1324662566 0.6008855104 4289831892
-0.2895190418 -0.1318237782 0.6010001898 4287658452
-0.2899998724 -0.1313738525 0.6019983292 4286474178
-0.2900547087 -0.1307297051 0.6021121144 4289106164
-0.2901092768 -0.1300851852 0.6022254229 4287461339
-0.2901636064 -0.1294403076 0.6023381948 4287067092
-0.2902176678 -0.1287950575 0.6024504304 4286935506
-0.2902714908 -0.1281494498 0.6025621891 4287396057
-0.2903250754 -0.1275034994 0.6026734114 4287067092
-0.2903783917 -0.1268571764 0.6027840972 4286277327
-0.2908579409 -0.1263958365 0.6037795544 4285816776
-0.2909108400 -0.1257478595 0.6038893461 4285685186
-0.2909635007 -0.1250995249 0.6039986610 4285487807
-0.2914426029 -0.1246333271 0.6049931645 4285224886
-0.2914947867 -0.1239833385 0.6051015854 4284764335
-0.2919736207 -0.1235135868 0.6060955524 4285225405
-0.2924523354 -0.1230415776 0.6070892811 4285422784
-0.2925039530 -0.1223886460 0.6071963906 4285159863
-0.2929823697 -0.1219130903 0.6081895232 4284567726
-0.2934606969 -0.1214352772 0.6091824770 4284830900
-0.2939389050 -0.1209552214 0.6101751924 4285028279
-0.2948443294 -0.1206477582 0.6120547056 4284238510
-0.2953223884 -0.1201622412 0.6130470634 4284106924
-0.2958003283 -0.1196744666 0.6140392423 4284502195
-0.2962781787 -0.1191844419 0.6150311232 4284699574
-0.2963282764 -0.1185211465 0.6151351929 4284436655
-0.2968057990 -0.1180275753 0.6161264777 4284305069
-0.2968554497 -0.1173626482 0.6162295341 4284436905
-0.2973326743 -0.1168655381 0.6172201633 4283844768
-0.2973818779 -0.1161989868 0.6173222661 4284042908
-0.2974308133 -0.1155321077 0.6174238920 4284700838
-0.2979075015 -0.1150301695 0.6184134483 4285819567
-0.2979559898 -0.1143616736 0.6185140610 4287530185
-0.2980041802 -0.1136928573 0.6186141372 4289374166
-0.2984803617 -0.1131860986 0.6196026206 4290426854
-0.2985281050 -0.1125156656 0.6197016835 4291546598
-0.2985755801 -0.1118449196 0.6198002696 4292138735
-0.2986227870 -0.1111738458 0.6198982000 4292731123
-0.2982411981 -0.1103439182 0.6191061139 4293520639
-0.2887286842 -0.1444496512 0.6007446051 4292929519
-0.2887884080 -0.1438119262 0.6008688807 4291942108
-0.2888478935 -0.1431738138 0.6009926200 4290955213
-0.2884835303 -0.1423262954 0.6002345085 4290297807
-0.2881187499 -0.1414802670 0.5994755030 4289639877
-0.2881773412 -0.1408428550 0.5995974541 4289244608
-0.2882357240 -0.1402050406 0.5997188687 4289376194
-0.2882938385 -0.1395668387 0.5998398066 4290099148
-0.2879276574 -0.1387239546 0.5990778804 4291020250
-0.2871369421 -0.1376791894 0.5974326730 4292006384
-0.2867698371 -0.1368402392 0.5966688991 4292532728
-0.2868266702 -0.1362042725 0.5967870951 4293057279
-0.2868832350 -0.1355679333 0.5969048142 4292465151
-0.2869395316 -0.1349312067 0.5970219970 4291476991
-0.2869956195 -0.1342941225 0.5971387029 4290029548
-0.2870514691 -0.1336566508 0.5972548723 4288645863
-0.2871070504 -0.1330188215 0.5973705053 4287593175
-0.2875871956 -0.1325764358 0.5983695388 4286934491
-0.2880672514 -0.1321318001 0.5993683934 4286539733
-0.2881222665 -0.1314909756 0.5994828343 4285816772
-0.2886020839 -0.1310427636 0.6004811525 4287001046
-0.2886566818 -0.1304002553 0.6005947590 4287987681
-0.2891362607 -0.1299484819 0.6015926003 4287724509
-0.2891904414 -0.1293043047 0.6017053127 4286474955
-0.2892443836 -0.1286597550 0.6018175483 4285751232
-0.2892980576 -0.1280148476 0.6019292474 4285817541
-0.2897770107 -0.1275568902 0.6029257774 4286080713
-0.2898302972 -0.1269103289 0.6030366421 4285160125
-0.2898833156 -0.1262633950 0.6031469107 4284502195
-0.2903618217 -0.1258005798 0.6041425467 4284699573
-0.2904143929 -0.1251519918 0.6042519808 4285554882
-0.2908926308 -0.1246856153 0.6052470207 4285291964
-0.2909448147 -0.1240353808 0.6053555608 4284699827
-0.2914227545 -0.1235654503 0.6063500047 4285687233
-0.2919006348 -0.1230932623 0.6073442698 4285358268
-0.2923783660 -0.1226188168 0.6083382964 4283779232
-0.2924297452 -0.1219643354 0.6084451675 4283910818
-0.2933335602 -0.1216631755 0.6103257537 4284436912
-0.2933845520 -0.1210060939 0.6104318500 4284305326
-0.2938618064 -0.1205235943 0.6114248037 4284041897
-0.2947655022 -0.1202128157 0.6133051515 4284370862
-0.2952426076 -0.1197248548 0.6142978072 4284305318
-0.2952928543 -0.1190625876 0.6144023538 4283778974
-0.2953428328 -0.1183999851 0.6145063639 4283845017
-0.2953925729 -0.1177370399 0.6146098375 4284437154
-0.2958689630 -0.1172429472 0.6156010628 4285227180
-0.2963452637 -0.1167466044 0.6165920496 4286674626
-0.2963943183 -0.1160807535 0.6166941524 4288453074
-0.2964431345 -0.1154145673 0.6167957187 4289834727
-0.2964916825 -0.1147480533 0.6168966889 4290625510
-0.2969672680 -0.1142455935 0.6178862453 4291283440
-0.2970153689 -0.1135774627 0.6179862618 4292204779
-0.2970631719 -0.1129090115 0.6180858016 4292665330
-0.2971107364 -0.1122402400 0.6181847453 4293125879
-0.2971580029 -0.1115711480 0.6182830930 4293520637
-0.2870952487 -0.1466260701 0.5987296104 4293060856
-0.2871556878 -0.1459915638 0.5988556147 4292073961
-0.2872158885 -0.1453566700 0.5989812016 4291350238
-0.2868534029 -0.1445085406 0.5982252359 4290429134
-0.2873356044 -0.1440856755 0.5992308259 4289508032
-0.2869724631 -0.1432386190 0.5984734893 4289638597
-0.2870316207 -0.1426030695 0.5985968709 4290428113
-0.2866677344 -0.1417580396 0.5978379846 4291613410
-0.2863034308 -0.1409144998 0.5970782638 4292139754
-0.2859387100 -0.1400724351 0.5963176489 4292796665
-0.2859966755 -0.1394381374 0.5964385271 4293059837
-0.2860543728 -0.1388034672 0.5965588689 4293190399
-0.2856886089 -0.1379640102 0.5957960486 4292861439
-0.2853224277 -0.1371260434 0.5950323939 4291807231
-0.2849558294 -0.1362895817 0.5942679048 4290491374
-0.2850123346 -0.1356562078 0.5943856835 4288845284
-0.2850685716 -0.1350224465 0.5945030451 4287595217
-0.2855482697 -0.1345879883 0.5955033898 4286738125
-0.2856041193 -0.1339525431 0.5956198573 4286474953
-0.2856597304 -0.1333167255 0.5957358479 4286540497
-0.2861390114 -0.1328773797 0.5967353582 4286606290
-0.2861942053 -0.1322398782 0.5968504548 4286671574
-0.2866732478 -0.1317969710 0.5978494883 4286539988
-0.2871522009 -0.1313517988 0.5988483429 4285684936
-0.2876310647 -0.1309043765 0.5998470187 4285948108
-0.2881098390 -0.1304546893 0.6008454561 4286343116
-0.2881641388 -0.1298115700 0.6009587049 4286211530
-0.2886426747 -0.1293583214 0.6019566655 4285356472
-0.2886965573 -0.1287135184 0.6020690203 4285027507
-0.2887501717 -0.1280683726 0.6021808982 4285686207
-0.2888035774 -0.1274228543 0.6022922397 4286278344
-0.2892814875 -0.1269634217 0.6032888889 4285291451
-0.2893344462 -0.1263162494 0.6033993363 4285094072
-0.2893871665 -0.1256687194 0.6035093069 4285488576
-0.2898646295 -0.1252044141 0.6045050621 4285291197
-0.2903420031 -0.1247378588 0.6055005789 4284567728
-0.2903940976 -0.1240873635 0.6056092381 4284699314
-0.2908712029 -0.1236172542 0.6066042185 4285555136
-0.2913482189 -0.1231448874 0.6075990200 4285357757
-0.2913996875 -0.1224914491 0.6077063680 4283713694
-0.2918764055 -0.1220155209 0.6087005734 4284108452
-0.2923530042 -0.1215373501 0.6096944809 4283976613
-0.2928295135 -0.1210569218 0.6106882095 4283516062
-0.2928801775 -0.1203992367 0.6107939482 4283451036
-0.2933563888 -0.1199152544 0.6117870212 4284043173
-0.2938324809 -0.1194290221 0.6127798557 4284898985
-0.2943084538 -0.1189405397 0.6137725115 4285820087
-0.2943583131 -0.1182786301 0.6138765216 4287465413
-0.2944079041 -0.1176163852 0.6139799356 4288978652
-0.2944572568 -0.1169538051 0.6140828133 4290492906
-0.2949325442 -0.1164591908 0.6150740385 4291479801
-0.2949814200 -0.1157949865 0.6151759624 4292203512
-0.2950300276 -0.1151304543 0.6152773499 4292400891
-0.2950783968 -0.1144656017 0.6153782010 4292796152
-0.2951264977 -0.1138004139 0.6154785156 4293519871
-0.2858835459 -0.1490020603 0.5975868106 4293258735
-0.2859447896 -0.1483698636 0.5977147818 4292270572
-0.2860057652 -0.1477372646 0.5978422761 4291283677
-0.2860665321 -0.1471042633 0.5979692936 4290230987
-0.2857056558 -0.1462551504 0.5972149372 4290165194
-0.2857658565 -0.1456222832 0.5973407626 4290099401
-0.2858258188 -0.1449889988 0.5974661112 4290494159
-0.2850422263 -0.1439295113 0.5958281755 4291348704
-0.2851015627 -0.1432973146 0.5959521532 4292006634
-0.2847388089 -0.1424536854 0.5951938629 4292532980
-0.2847975492 -0.1418216377 0.5953167081 4293059324
-0.2844340503 -0.1409800351 0.5945568681 4293782783
-0.2840701640 -0.1401399076 0.5937961936 4293453823
-0.2837058306 -0.1393012851 0.5930346847 4292598015
-0.2837633789 -0.1386705041 0.5931549668 4291018991
-0.2838206887 -0.1380393356 0.5932747722 4289372139
-0.2838777602 -0.1374077946 0.5933940411 4287990486
-0.2835120857 -0.1365723312 0.5926296711 4287002075
-0.2835685909 -0.1359409541 0.5927477479 4286409938
-0.2836248577 -0.1353092194 0.5928654075 4286277341
-0.2836808860 -0.1346770972 0.5929824710 4286474720
-0.2841595113 -0.1342443824 0.5939829946 4286737376
-0.2842151523 -0.1336105764 0.5940992832 4286342618
-0.2846935391 -0.1331742704 0.5950993299 4285816774
-0.2847487926 -0.1325387806 0.5952147245 4285750981
-0.2852269411 -0.1320989132 0.5962142944 4285751482
-0.2857050300 -0.1316567808 0.5972136259 4285554103
-0.2861830294 -0.1312123984 0.5982128382 4285422534
-0.2866609693 -0.1307657510 0.5992118120 4285290948
-0.2871387899 -0.1303168535 0.6002106667 4285751234
-0.2871929705 -0.1296744347 0.6003238559 4286080199
-0.2876705527 -0.1292219609 0.6013221741 4285619898
-0.2881480455 -0.1287672371 0.6023202538 4285685691
-0.2882016003 -0.1281218231 0.6024322510 4286146756
-0.2882549465 -0.1274760664 0.6025437117 4286212549
-0.2883080244 -0.1268299371 0.6026546955 4284830900
-0.2887848914 -0.1263690293 0.6036515236 4284699314
-0.2888375521 -0.1257212460 0.6037615538 4285685441
-0.2893141508 -0.1252567768 0.6047578454 4285027511
-0.2893663943 -0.1246073321 0.6048670411 4284501167
-0.2898427248 -0.1241392940 0.6058627367 4285027511
-0.2898945212 -0.1234882027 0.6059709787 4284962486
-0.2903705835 -0.1230166107 0.6069660783 4284699314
-0.2908465266 -0.1225427613 0.6079609990 4283384979
-0.2913223803 -0.1220666617 0.6089556813 4283582358
-0.2913733721 -0.1214113161 0.6090622544 4283977883
-0.2918489277 -0.1209316552 0.6100563407 4285096364
-0.2918995023 -0.1202746779 0.6101620197 4286610365
-0.2923747599 -0.1197914630 0.6111554503 4288255190
-0.2924248874 -0.1191328466 0.6112602353 4289769700
-0.2928998470 -0.1186460853 0.6122530699 4290756595
-0.2929494977 -0.1179858297 0.6123568416 4291546865
-0.2929989100 -0.1173252463 0.6124601364 4292139002
-0.2930480540 -0.1166643202 0.6125628948 4292731123
-0.2935223281 -0.1161714345 0.6135542393 4293125881
-0.2939965129 -0.1156762913 0.6145454049 4293783547
-0.2842504382 -0.1511424482 0.5955557227 4293258231
-0.2843123674 -0.1505135298 0.5956854820 4292402672
-0.2839539945 -0.1496627927 0.5949345827 4291613156
-0.2840153277 -0.1490339786 0.5950631499 4290494157
-0.2840764523 -0.1484047472 0.5951912403 4288915125
-0.2841373682 -0.1477751136 0.5953187943 4288652207
-0.2837775946 -0.1469274163 0.5945650339 4289573309
-0.2834174335 -0.1460811645 0.5938104391 4291217371
-0.2834774554 -0.1454521865 0.5939362049 4292204266
-0.2835372388 -0.1448228210 0.5940614343 4292927987
-0.2831760049 -0.1439791173 0.5933046341 4293125366
-0.2828143835 -0.1431368887 0.5925469398 4293387773
-0.2824523449 -0.1422961354 0.5917884111 4292993015
-0.2825109065 -0.1416679770 0.5919111371 4291675897
-0.2825692594 -0.1410394460 0.5920333266 4290425830
-0.2822061479 -0.1402012706 0.5912725925 4288779753
-0.2822639346 -0.1395729035 0.5913936496 4288253409
-0.2823214829 -0.1389441341 0.5915142298 4287331797
-0.2819573283 -0.1381085515 0.5907512903 4286410695
-0.2820143402 -0.1374799758 0.5908706784 4286344398
-0.2820710838 -0.1368510127 0.5909895897 4286804949
-0.2821275890 -0.1362216622 0.5911080241 4286870493
-0.2821838856 -0.1355919391 0.5912259221 4286541528
-0.2826617956 -0.1351635754 0.5922272205 4286211797
-0.2827176750 -0.1345321685 0.5923443437 4285882832
-0.2827733159 -0.1339003742 0.5924609303 4285619914
-0.2832508683 -0.1334671229 0.5934614539 4285422535
-0.2833060920 -0.1328336447 0.5935772061 4285159614
-0.2837834060 -0.1323968172 0.5945771933 4285028028
-0.2842606306 -0.1319577396 0.5955770612 4285224888
-0.2847377658 -0.1315163970 0.5965767503 4285224888
-0.2852148116 -0.1310727894 0.5975763202 4285027256
-0.2856917977 -0.1306269318 0.5985756516 4285290428
-0.2861686945 -0.1301788092 0.5995748043 4285882816
-0.2866455019 -0.1297284216 0.6005737782 4285882816
-0.2866993546 -0.1290853918 0.6006866693 4285290931
-0.2871758938 -0.1286314428 0.6016851068 4285356724
-0.2872293293 -0.1279867291 0.6017970443 4285620412
-0.2877056301 -0.1275292188 0.6027949452 4285291447
-0.2877586484 -0.1268828511 0.6029060483 4284633521
-0.2882346511 -0.1264217645 0.6039034128 4284567728
-0.2882872522 -0.1257737279 0.6040136218 4284831413
-0.2887630165 -0.1253090799 0.6050103903 4284107690
-0.2888151705 -0.1246593818 0.6051197052 4283778975
-0.2888670862 -0.1240093410 0.6052284837 4284239526
-0.2897660136 -0.1237207055 0.6071118712 4284437156
-0.2898176014 -0.1230680496 0.6072199345 4284897707
-0.2898688912 -0.1224150583 0.6073274016 4286150066
-0.2903437912 -0.1219397262 0.6083224416 4287860684
-0.2903946638 -0.1212850809 0.6084290147 4289242840
-0.2904452980 -0.1206300929 0.6085350513 4290558700
-0.2909197211 -0.1201499104 0.6095290780 4291612405
-0.2909699082 -0.1194932908 0.6096342206 4291941370
-0.2910198271 -0.1188363209 0.6097387671 4292336632
-0.2910694778 -0.1181790233 0.6098428369 4293060351
-0.2911188602 -0.1175213829 0.6099463105 4293192440
-0.2911680043 -0.1168634146 0.6100493073 4293587198
-0.2826807797 -0.1526371688 0.5936484337 4292534763
-0.2827431262 -0.1520111114 0.5937793851 4291811040
-0.2823862731 -0.1511603594 0.5930299759 4290757080
-0.2824480534 -0.1505343914 0.5931597352 4290230736
-0.2825096250 -0.1499080211 0.5932890177 4289704643
-0.2821517289 -0.1490597427 0.5925374031 4289836229
-0.2817934155 -0.1482129395 0.5917849541 4290362062
-0.2818540931 -0.1475872099 0.5919123888 4290559441
-0.2814950645 -0.1467423737 0.5911583900 4291414748
-0.2815552056 -0.1461167634 0.5912846923 4292862194
-0.2811954021 -0.1452739388 0.5905290842 4293716989
-0.2808352113 -0.1444325745 0.5897727013 4293190645
-0.2808944881 -0.1438076347 0.5898971558 4292268286
-0.2809535265 -0.1431823075 0.5900211334 4290755047
-0.2805922925 -0.1423434913 0.5892624855 4288977124
-0.2802306414 -0.1415061504 0.5885030031 4287266506
-0.2802888155 -0.1408815235 0.5886251330 4286081979
-0.2803467512 -0.1402565092 0.5887468457 4285424049
-0.2804044485 -0.1396310925 0.5888679624 4285488589
-0.2804619074 -0.1390053034 0.5889886618 4286146519
-0.2805191278 -0.1383791268 0.5891088247 4286870240
-0.2805761099 -0.1377525628 0.5892285109 4287133412
-0.2810536027 -0.1373312026 0.5902312994 4287067359
-0.2811102271 -0.1367029399 0.5903502107 4286475222
-0.2811665833 -0.1360743046 0.5904685855 4285620165
-0.2812227309 -0.1354452819 0.5905864239 4284896442
-0.2812786102 -0.1348158866 0.5907038450 4285028025
-0.2817554176 -0.1343870014 0.5917051435 4285028025
-0.2822321653 -0.1339558512 0.5927063823 4284962486
-0.2822875082 -0.1333234459 0.5928226113 4285094072
-0.2827640176 -0.1328887194 0.5938233137 4285093818
-0.2832404673 -0.1324517280 0.5948238373 4284962232
-0.2837167978 -0.1320124865 0.5958241820 4284764856
-0.2837714255 -0.1313757747 0.5959389210 4284764856
-0.2842475474 -0.1309329569 0.5969387889 4284829366
-0.2847235799 -0.1304878742 0.5979384780 4284895159
-0.2851995230 -0.1300405264 0.5989379883 4285093304
-0.2856753767 -0.1295909286 0.5999373198 4285093304
-0.2861511409 -0.1291390806 0.6009364724 4284633521
-0.2862046957 -0.1284954399 0.6010488868 4284699314
-0.2866801918 -0.1280400008 0.6020475030 4284831411
-0.2867333293 -0.1273946911 0.6021590829 4284370860
-0.2872085869 -0.1269356906 0.6031571627 4283713441
-0.2872613072 -0.1262887120 0.6032678485 4283845027
-0.2877362669 -0.1258261502 0.6042653322 4283714460
-0.2877885699 -0.1251775175 0.6043751836 4284043425
-0.2878406048 -0.1245285198 0.6044844389 4285491882
-0.2878924012 -0.1238791794 0.6045932174 4287399879
-0.2887895703 -0.1235913932 0.6064773202 4288979668
-0.2888410091 -0.1229394376 0.6065853238 4290492907
-0.2888921797 -0.1222871467 0.6066927910 4291151853
-0.2889430821 -0.1216344982 0.6067997217 4292072955
-0.2889937758 -0.1209815145 0.6069061756 4292205042
-0.2890441716 -0.1203281805 0.6070120335 4292468214
-0.2895176113 -0.1198497340 0.6080062389 4293389049
-0.2895675898 -0.1191947609 0.6081112027 4293652221
-0.2814044058 -0.1555939317 0.5923496485 4293390068
-0.2814677358 -0.1549706608 0.5924829245 4292732140
-0.2815308273 -0.1543469578 0.5926157236 4292140003
-0.2815936804 -0.1537228376 0.5927481055 4291152855
-0.2812384367 -0.1528711617 0.5920003057 4290034374
-0.2813007534 -0.1522471309 0.5921314955 4289376448
-0.2805267274 -0.1511721015 0.5905021429 4289376448
-0.2805883884 -0.1505491138 0.5906319618 4290362563
-0.2802315950 -0.1497022659 0.5898808837 4291415251
-0.2798743844 -0.1488568783 0.5891289711 4292269292
-0.2795167565 -0.1480129510 0.5883762240 4292664050
-0.2791587412 -0.1471704692 0.5876225233 4293321726
-0.2788002789 -0.1463294476 0.5868680477 4293519103
-0.2788601518 -0.1457086653 0.5869940519 4292663547
-0.2789197862 -0.1450874954 0.5871195793 4291742445
-0.2785602808 -0.1442490071 0.5863628387 4289635561
-0.2786193788 -0.1436279714 0.5864872336 4287924943
-0.2786782384 -0.1430065483 0.5866110921 4286278606
-0.2787368596 -0.1423847228 0.5867344737 4285554883
-0.2787952423 -0.1417625099 0.5868573785 4285685704
-0.2788533866 -0.1411399096 0.5869798064 4286146255
-0.2789113224 -0.1405169070 0.5871017575 4286344147
-0.2789690197 -0.1398935318 0.5872231722 4286278354
-0.2790264785 -0.1392697692 0.5873441696 4286541267
-0.2790836990 -0.1386456192 0.5874646306 4286343888
-0.2795604467 -0.1382286251 0.5884681940 4286146255
-0.2796173096 -0.1376027763 0.5885878205 4285883083
-0.2800938487 -0.1371822059 0.5895909667 4285290948
-0.2801502943 -0.1365546435 0.5897097588 4284633018
-0.2806266248 -0.1361304969 0.5907124281 4284501432
-0.2806827128 -0.1355012506 0.5908304453 4284764604
-0.2807385325 -0.1348716170 0.5909479856 4285028026
-0.2812144756 -0.1344425678 0.5919498205 4285291198
-0.2816903591 -0.1340112537 0.5929515362 4285028792
-0.2817456424 -0.1333786249 0.5930678844 4284634034
-0.2818006575 -0.1327456087 0.5931837559 4284568241
-0.2822761536 -0.1323094070 0.5941846371 4284634034
-0.2827515602 -0.1318709403 0.5951853395 4284502194
-0.2832268775 -0.1314302236 0.5961859226 4284502194
-0.2832812071 -0.1307929009 0.5963002443 4284961467
-0.2837562859 -0.1303486079 0.5973002911 4284895674
-0.2842312753 -0.1299020499 0.5983000994 4284699061
-0.2847061753 -0.1294532269 0.5992997885 4284567475
-0.2851810157 -0.1290021539 0.6002992988 4284041893
-0.2856557369 -0.1285488158 0.6012985706 4283581342
-0.2857089937 -0.1279045641 0.6014106870 4283647897
-0.2861834466 -0.1274476498 0.6024094224 4283779483
-0.2862362862 -0.1268017292 0.6025206447 4284767651
-0.2862888575 -0.1261554509 0.6026313305 4286807234
-0.2867628932 -0.1256936640 0.6036291122 4288059082
-0.2868150473 -0.1250457317 0.6037389040 4289572321
-0.2868669629 -0.1243974417 0.6038481593 4290823653
-0.2873405516 -0.1239307895 0.6048451066 4291744755
-0.2873920202 -0.1232808456 0.6049534082 4292271597
-0.2874432504 -0.1226305515 0.6050612330 4292732148
-0.2874942124 -0.1219799072 0.6051685810 4293192442
-0.2875449359 -0.1213289201 0.6052753329 4293652991
-0.2794204652 -0.1568241417 0.5895518661 4293389303
-0.2799006402 -0.1564374715 0.5905649662 4292862959
-0.2795475423 -0.1555847824 0.5898199081 4291152087
-0.2796107233 -0.1549644768 0.5899532437 4290428364
-0.2800905108 -0.1545737684 0.5909655094 4289835716
-0.2797364295 -0.1537225991 0.5902184844 4289704130
-0.2797989547 -0.1531010270 0.5903503895 4289901512
-0.2794441879 -0.1522518098 0.5896018744 4290493649
-0.2790889740 -0.1514040232 0.5888524055 4291546083
-0.2787333727 -0.1505576968 0.5881021023 4292335599
-0.2779600024 -0.1494883448 0.5864703655 4293585151
-0.2776034772 -0.1486458331 0.5857181549 4293453566
-0.2776640952 -0.1480273604 0.5858460069 4293189375
-0.2773068249 -0.1471868306 0.5850922465 4292268276
-0.2769491971 -0.1463477612 0.5843376517 4290885619
-0.2765911222 -0.1455101520 0.5835821629 4289240794
-0.2766505480 -0.1448928714 0.5837075710 4287529173
-0.2767097652 -0.1442752033 0.5838325024 4286344899
-0.2767687440 -0.1436571330 0.5839568973 4286015434
-0.2768274844 -0.1430386752 0.5840808749 4286212813
-0.2768860161 -0.1424198151 0.5842043757 4286738145
-0.2773626447 -0.1420147717 0.5852100253 4287132903
-0.2774207890 -0.1413941979 0.5853326917 4287330280
-0.2774787247 -0.1407732368 0.5854549408 4287198694
-0.2779550254 -0.1403632760 0.5864598751 4286541264
-0.2780125439 -0.1397406012 0.5865812898 4285685955
-0.2784886360 -0.1393270642 0.5875857472 4285093049
-0.2785458267 -0.1387026757 0.5877063870 4285290428
-0.2786027491 -0.1380778998 0.5878264904 4285158842
-0.2790784836 -0.1376594454 0.5888302922 4284895670
-0.2791350186 -0.1370329708 0.5889495611 4284895925
-0.2796105444 -0.1366109401 0.5899528861 4284961718
-0.2796666920 -0.1359827667 0.5900713801 4284699314
-0.2801420093 -0.1355571449 0.5910742283 4284501935
-0.2801977694 -0.1349272728 0.5911918879 4284962486
-0.2802533209 -0.1342970282 0.5913090706 4284962486
-0.2807282209 -0.1338665187 0.5923110843 4284830900
-0.2807833552 -0.1332345754 0.5924274325 4284699314
-0.2808382511 -0.1326022744 0.5925432444 4284567474
-0.2813127935 -0.1321668476 0.5935444832 4284370095
-0.2817872465 -0.1317291856 0.5945455432 4284435889
-0.2822616100 -0.1312892437 0.5955464244 4284896440
-0.2823157907 -0.1306526214 0.5956606865 4284568752
-0.2827899158 -0.1302091032 0.5966610909 4284239787
-0.2832639813 -0.1297633350 0.5976612568 4283582876
-0.2837379277 -0.1293153018 0.5986613035 4283780255
-0.2837913632 -0.1286743730 0.5987740755 4284636063
-0.2842650712 -0.1282227784 0.5997735262 4285820337
-0.2847386897 -0.1277689040 0.6007727981 4287399869
-0.2847915590 -0.1271249950 0.6008843780 4288649936
-0.2852649093 -0.1266675591 0.6018831134 4290558947
-0.2853173614 -0.1260219961 0.6019937396 4291611635
-0.2853695452 -0.1253760606 0.6021038890 4291941872
-0.2854214907 -0.1247297823 0.6022134423 4292402423
-0.2858942449 -0.1242661625 0.6032109261 4292863475
-0.2859457731 -0.1236182228 0.6033195853 4293587198
-0.2778562009 -0.1582711935 0.5876284242 4292731370
-0.2783356607 -0.1578902751 0.5886424184 4291678174
-0.2783995867 -0.1572723687 0.5887776017 4290559693
-0.2784632742 -0.1566540152 0.5889123082 4289440961
-0.2785267532 -0.1560352594 0.5890465379 4288651445
-0.2781741917 -0.1551841050 0.5883009434 4289177537
-0.2782371342 -0.1545654237 0.5884340405 4290230225
-0.2778838575 -0.1537162066 0.5876868963 4291808489
-0.2779462337 -0.1530976146 0.5878188610 4292729591
-0.2775922418 -0.1522503346 0.5870701671 4292992763
-0.2772378027 -0.1514045000 0.5863206387 4292992763
-0.2768829763 -0.1505601108 0.5855702162 4292598007
-0.2761113048 -0.1494916975 0.5839381814 4291940077
-0.2757555544 -0.1486511379 0.5831858516 4290622960
-0.2753994167 -0.1478120238 0.5824326277 4289109721
-0.2750428617 -0.1469743699 0.5816785693 4287661260
-0.2746858895 -0.1461381763 0.5809236765 4286542779
-0.2743285298 -0.1453034431 0.5801678896 4285752765
-0.2743877769 -0.1446900666 0.5802931786 4285818558
-0.2744467854 -0.1440763026 0.5804179311 4286804950
-0.2745055556 -0.1434621364 0.5805422664 4287594466
-0.2749813795 -0.1430646628 0.5815485716 4288778486
-0.2754571736 -0.1426649392 0.5825547576 4288186349
-0.2755154371 -0.1420477182 0.5826780200 4287265239
-0.2759910226 -0.1416444033 0.5836838484 4286212551
-0.2760489285 -0.1410254836 0.5838062763 4285357242
-0.2765243351 -0.1406185776 0.5848116875 4284830898
-0.2769996524 -0.1402094066 0.5858169794 4284633268
-0.2774749398 -0.1397979856 0.5868220925 4284699061
-0.2775321901 -0.1391746849 0.5869431496 4285027250
-0.2780072689 -0.1387596726 0.5879479051 4285093043
-0.2780641317 -0.1381346732 0.5880681276 4285026996
-0.2781207561 -0.1375092864 0.5881879330 4284961203
-0.2781771719 -0.1368835121 0.5883072019 4284895925
-0.2786517143 -0.1364622712 0.5893108249 4284764339
-0.2791262269 -0.1360387653 0.5903143287 4284500914
-0.2791820765 -0.1354099661 0.5904324651 4284303535
-0.2796563506 -0.1349828839 0.5914354920 4284698295
-0.2797118127 -0.1343524009 0.5915527940 4284895674
-0.2801858783 -0.1339217126 0.5925553441 4284699061
-0.2802409530 -0.1332895458 0.5926718116 4284435889
-0.2802957892 -0.1326569915 0.5927878022 4284304552
-0.2803503871 -0.1320240796 0.5929032564 4284107173
-0.2808238864 -0.1315871924 0.5939046741 4283976094
-0.2812972963 -0.1311480403 0.5949059129 4283910301
-0.2817706466 -0.1307066232 0.5959069133 4284176541
-0.2818245292 -0.1300694048 0.5960208774 4285426608
-0.2822976112 -0.1296244115 0.5970214009 4286546105
-0.2827706337 -0.1291771680 0.5980217457 4287927758
-0.2828239202 -0.1285369396 0.5981345177 4289572824
-0.2832966745 -0.1280861199 0.5991343260 4290625512
-0.2833495736 -0.1274442226 0.5992462039 4291678184
-0.2838220894 -0.1269898266 0.6002454758 4292336114
-0.2838745713 -0.1263462752 0.6003564596 4292862705
-0.2839267850 -0.1257023662 0.6004669070 4293257463
-0.2843988538 -0.1252430826 0.6014652848 4293652475
-0.2762294412 -0.1603174359 0.5855634809 4293193204
-0.2762941122 -0.1597042084 0.5857005715 4292467696
-0.2763585448 -0.1590905488 0.5858371258 4291151836
-0.2764227390 -0.1584764570 0.5859732628 4289507266
-0.2764867544 -0.1578619331 0.5861089230 4288651957
-0.2765505314 -0.1572469920 0.5862441659 4288915129
-0.2766140997 -0.1566316187 0.5863788724 4289770438
-0.2766774297 -0.1560158283 0.5865131617 4290757080
-0.2763256431 -0.1551666260 0.5857673883 4291415010
-0.2759734392 -0.1543188542 0.5850207806 4292664050
-0.2760359347 -0.1537036449 0.5851532817 4293453566
-0.2756830156 -0.1528578252 0.5844051242 4293716223
-0.2753296793 -0.1520134211 0.5836561322 4292860926
-0.2758066952 -0.1516271830 0.5846673250 4291543807
-0.2746218145 -0.1503289640 0.5821555257 4290030570
-0.2746828198 -0.1497153938 0.5822848678 4288253160
-0.2743279338 -0.1488758475 0.5815325975 4286805714
-0.2739726603 -0.1480377614 0.5807794929 4286211534
-0.2736169994 -0.1472011209 0.5800254941 4286343120
-0.2736768425 -0.1465887278 0.5801523328 4287132634
-0.2733204365 -0.1457540840 0.5793968439 4288185322
-0.2729636431 -0.1449209005 0.5786404610 4289040631
-0.2734388113 -0.1445291489 0.5796477795 4289303803
-0.2734976709 -0.1439160854 0.5797725320 4288382703
-0.2735562921 -0.1433026344 0.5798968077 4287001050
-0.2740311623 -0.1429059654 0.5809034705 4285685190
-0.2745059729 -0.1425070316 0.5819099545 4285093053
-0.2745640874 -0.1418905258 0.5820332170 4284566705
-0.2750387192 -0.1414880008 0.5830393434 4284500912
-0.2755132914 -0.1410832256 0.5840453506 4284764339
-0.2759878039 -0.1406761706 0.5850512385 4285027511
-0.2760452628 -0.1400552988 0.5851730704 4285093304
-0.2765195966 -0.1396446675 0.5861785412 4284961718
-0.2769938409 -0.1392317712 0.5871838927 4284566445
-0.2770507932 -0.1386078596 0.5873046517 4284566445
-0.2775248587 -0.1381913722 0.5883095264 4284435372
-0.2775814235 -0.1375657469 0.5884294510 4284303786
-0.2776377499 -0.1369397491 0.5885488987 4284369579
-0.2781114280 -0.1365183443 0.5895529985 4284501165
-0.2781673968 -0.1358906478 0.5896716118 4284566958
-0.2786408663 -0.1354656667 0.5906752944 4284566958
-0.2786964178 -0.1348362565 0.5907930732 4284304556
-0.2791696787 -0.1344076991 0.5917962790 4284370349
-0.2792248428 -0.1337766051 0.5919132829 4284041895
-0.2792797685 -0.1331451386 0.5920296907 4283647137
-0.2793344557 -0.1325132996 0.5921456814 4283516313
-0.2793889344 -0.1318810880 0.5922610760 4284174243
-0.2798614800 -0.1314449757 0.5932627916 4285819317
-0.2799155414 -0.1308110803 0.5933774114 4287464142
-0.2803878486 -0.1303714067 0.5943786502 4288783818
-0.2804414928 -0.1297358274 0.5944923759 4290033885
-0.2809135616 -0.1292925775 0.5954930782 4291283689
-0.2813855410 -0.1288470626 0.5964936018 4291875826
-0.2814386189 -0.1282085031 0.5966061354 4292336882
-0.2819103599 -0.1277594119 0.5976061225 4292731640
-0.2819630206 -0.1271191835 0.5977178216 4292995061
-0.2824344933 -0.1266665161 0.5987172723 4293192440
-0.2750822306 -0.1619766802 0.5845077634 4292467696
-0.2751473486 -0.1613654494 0.5846461654 4291020250
-0.2752122879 -0.1607537866 0.5847840905 4289967817
-0.2752769589 -0.1601416916 0.5849215388 4289309887
-0.2753414512 -0.1595291495 0.5850585699 4289702864
-0.2749921978 -0.1586775780 0.5843164325 4289373899
-0.2750561535 -0.1580651104 0.5844523311 4289572547
-0.2747061551 -0.1572154462 0.5837087035 4290625235
-0.2747695744 -0.1566030532 0.5838434100 4291743967
-0.2744188905 -0.1557553113 0.5830982327 4292928241
-0.2744817734 -0.1551429927 0.5832318664 4293519103
-0.2741303444 -0.1542971730 0.5824851394 4293190143
-0.2737784982 -0.1534527838 0.5817375183 4292004607
-0.2738405466 -0.1528410614 0.5818693638 4290622958
-0.2734879851 -0.1519986242 0.5811202526 4288713698
-0.2735494971 -0.1513869911 0.5812509656 4287332045
-0.2727816701 -0.1503180563 0.5796194077 4286739406
-0.2724278867 -0.1494799405 0.5788676739 4286344648
-0.2724884450 -0.1488698721 0.5789963603 4286804949
-0.2721339464 -0.1480337381 0.5782431364 4287923430
-0.2721939981 -0.1474237740 0.5783706903 4288843768
-0.2722538114 -0.1468134224 0.5784977674 4289172733
-0.2723133862 -0.1462026536 0.5786244273 4288778227
-0.2719575465 -0.1453695595 0.5778682828 4287593953
-0.2720166147 -0.1447589397 0.5779938102 4286343886
-0.2720754445 -0.1441479176 0.5781188011 4285291198
-0.2725495100 -0.1437556297 0.5791261196 4284830647
-0.2726079822 -0.1431428790 0.5792503953 4285028026
-0.2730818987 -0.1427470148 0.5802573562 4284895925
-0.2735557258 -0.1423488855 0.5812641978 4285093304
-0.2740295231 -0.1419484764 0.5822709203 4285290681
-0.2740873694 -0.1413313597 0.5823938251 4285224888
-0.2745609581 -0.1409273744 0.5834001899 4285027509
-0.2750345170 -0.1405211240 0.5844063759 4284895923
-0.2755080163 -0.1401126087 0.5854125023 4284829877
-0.2755652070 -0.1394911110 0.5855339766 4284764084
-0.2760384977 -0.1390790045 0.5865396857 4284566699
-0.2765117288 -0.1386646330 0.5875452161 4284303527
-0.2765683830 -0.1380401105 0.5876656175 4284040614
-0.2770414054 -0.1376221478 0.5886707306 4284172200
-0.2770976722 -0.1369959116 0.5887902975 4284304556
-0.2775704861 -0.1365743726 0.5897949338 4284172970
-0.2776263654 -0.1359464228 0.5899136662 4283844514
