VERSION 0.7
FIELDS x y z rgba
SIZE 4 4 4 4
TYPE F F F U
COUNT 1 1 1 1
WIDTH 920
HEIGHT 1
VIEWPOINT 0.0 0.0 0.0 1.0 0.0 0.0 0.0
POINTS 920
DATA ascii
-0.3084949553 -0.1600424498 0.6041740775 4289374898
-0.3081203401 -0.1591776460 0.6034404039 4289046701
-0.3077453077 -0.1583142430 0.6027058959 4289244080
-0.3073698282 -0.1574522555 0.6019705534 4287402131
-0.3074369133 -0.1568176448 0.6021019816 4285888892
-0.3070606887 -0.1559575796 0.6013650894 4290823627
-0.3071271777 -0.1553230435 0.6014953256 4290428869
-0.3071934581 -0.1546881050 0.6016250849 4289901761
-0.3068161011 -0.1538304687 0.6008860469 4289572796
-0.3064382970 -0.1529742479 0.6001461744 4289309875
-0.3060600758 -0.1521194428 0.5994054675 4289902012
-0.3047941029 -0.1508270055 0.5969260931 4290428356
-0.3039710820 -0.1497582942 0.5953142643 4290230977
-0.3031474352 -0.1486928612 0.5937011838 4289968064
-0.3023231626 -0.1476307064 0.5920869112 4290231236
-0.3023863435 -0.1470035762 0.5922106504 4290231236
-0.3024493158 -0.1463760585 0.5923339128 4290099650
-0.3029562235 -0.1459621638 0.5933266878 4290231236
-0.3039073944 -0.1457591355 0.5951895118 4290165443
-0.3044142723 -0.1453398466 0.5961822271 4291021524
-0.3053655922 -0.1451295614 0.5980453491 4290692559
-0.3058724701 -0.1447048783 0.5990380049 4289047992
-0.3068239093 -0.1444873661 0.6009014249 4290166473
-0.3073307276 -0.1440572739 0.6018939614 4290955731
-0.3078374565 -0.1436249465 0.6028863788 4290889938
-0.3083441257 -0.1431903839 0.6038786173 4290890449
-0.3088507056 -0.1427535862 0.6048707962 4291351000
-0.3080218732 -0.1417002380 0.6032475233 4291614174
-0.3071924150 -0.1406502128 0.6016230583 4291548381
-0.3054717779 -0.1391977072 0.5982533097 4291679454
-0.3028594255 -0.1373482943 0.5931370854 4291745247
-0.2984638810 -0.1347054392 0.5845286846 4291745245
-0.2940663695 -0.1320808381 0.5759163499 4291811038
-0.2914494574 -0.1302712560 0.5707911849 4290692557
-0.2906141877 -0.1292655319 0.5691553354 4282402639
-0.2902241349 -0.1284605116 0.5683914423 4281217595
-0.2898336649 -0.1276570112 0.5676267743 4281743939
-0.2889968157 -0.1266595572 0.5659878254 4281678146
-0.2894975841 -0.1262490898 0.5669685602 4281546560
-0.2899982631 -0.1258364022 0.5679491162 4281678400
-0.2904988825 -0.1254215091 0.5689295530 4281612607
-0.2914457619 -0.1251961291 0.5707839131 4282072393
-0.2914998829 -0.1245850921 0.5708899498 4282138186
-0.2915537953 -0.1239737123 0.5709955096 4282269772
-0.2916074395 -0.1233619899 0.5711005926 4282269772
-0.2916608453 -0.1227499396 0.5712051988 4282269772
-0.2917140126 -0.1221375465 0.5713093281 4282203979
-0.2922137380 -0.1217109188 0.5722880363 4282270026
-0.2927133739 -0.1212820858 0.5732665658 4282270026
-0.2927659750 -0.1206668243 0.5733695030 4282270026
-0.2932653427 -0.1202345043 0.5743475556 4282270026
-0.2937646508 -0.1197999790 0.5753253698 4282335819
-0.2947110534 -0.1195446476 0.5771788955 4282401612
-0.2952102423 -0.1191047654 0.5781565309 4282664784
-0.2961567044 -0.1188421845 0.5800101161 4282796370
-0.2966557741 -0.1183969378 0.5809875131 4282664784
-0.2971547544 -0.1179494783 0.5819647312 4282730577
-0.2976536155 -0.1174998060 0.5829417706 4282664530
-0.2986000776 -0.1172236651 0.5847953558 4282664530
-0.2995465696 -0.1169434339 0.5866490602 4282730577
-0.3009409308 -0.1168329567 0.5893798470 4282927956
-0.3023355007 -0.1167164817 0.5921110511 4283388507
-0.3041782379 -0.1167659834 0.5957199931 4284112230
-0.3055732846 -0.1166365743 0.5984520912 4284178280
-0.3078647256 -0.1168413088 0.6029397845 4288849583
-0.3097084761 -0.1168671250 0.6065506935 4293192689
-0.3203594983 -0.1945045888 0.6287779808 4289245371
-0.3178140819 -0.1922660768 0.6237819791 4284968566
-0.3157049417 -0.1903016716 0.6196423769 4281810502
-0.3127185404 -0.1878195554 0.6137808561 4282138699
-0.3110446334 -0.1861358881 0.6104954481 4287599518
-0.3098078072 -0.1847201586 0.6080679297 4290493897
-0.3090084195 -0.1835696697 0.6064989567 4290954448
-0.3095236421 -0.1832007468 0.6075101495 4291151311
-0.3096003234 -0.1825709790 0.6076606512 4291217104
-0.3101153970 -0.1821984500 0.6086716056 4290625994
-0.3106305003 -0.1818236560 0.6096825600 4290757580
-0.3111455441 -0.1814466268 0.6106935143 4288916661
-0.3112216294 -0.1808122993 0.6108428836 4285429632
-0.3112975061 -0.1801775247 0.6109917760 4285626498
-0.3113731444 -0.1795422733 0.6111401916 4289179320
-0.3114485443 -0.1789065748 0.6112881899 4290888139
-0.3115237057 -0.1782703996 0.6114357114 4290690760
-0.3115986288 -0.1776337773 0.6115828156 4290493897
-0.3121129274 -0.1772463322 0.6125922203 4290428104
-0.3121875226 -0.1766078770 0.6127386093 4290691530
-0.3122618496 -0.1759689748 0.6128845215 4290757323
-0.3123359680 -0.1753296256 0.6130300164 4290888909
-0.3128498495 -0.1749358475 0.6140385866 4290954702
-0.3120433688 -0.1738044024 0.6124556661 4291020495
-0.3121166527 -0.1731645912 0.6125995517 4291020495
-0.3121897280 -0.1725243181 0.6127429605 4290954702
-0.3127029836 -0.1721260399 0.6137503386 4290625737
-0.3123351336 -0.1712424457 0.6130283475 4290362563
-0.3124074936 -0.1706008464 0.6131703854 4290033598
-0.3124796152 -0.1699587852 0.6133118868 4290032828
-0.3121106625 -0.1690774858 0.6125877500 4289967035
-0.3121821880 -0.1684354395 0.6127281189 4289374898
-0.3118124306 -0.1675559729 0.6120024323 4287927452
-0.3114422560 -0.1666778773 0.6112758517 4287532686
-0.3110716343 -0.1658011675 0.6105484366 4287927444
-0.3107005656 -0.1649258435 0.6098201275 4288651426
-0.3103290796 -0.1640518904 0.6090909839 4289309356
-0.3095155954 -0.1629468948 0.6074943542 4289769910
-0.3087014854 -0.1618451029 0.6058964729 4289835703
-0.3078867495 -0.1607465297 0.6042973399 4289506484
-0.3070713580 -0.1596511900 0.6026970148 4289506484
-0.3066972792 -0.1587878764 0.6019628048 4289177773
-0.3067647815 -0.1581538469 0.6020953059 4289243566
-0.3063899279 -0.1572924405 0.6013595462 4287731353
-0.3060146570 -0.1564324349 0.6006229520 4286876044
-0.3065235615 -0.1560241431 0.6016218066 4290560455
-0.3065899909 -0.1553893834 0.6017522216 4290099904
-0.3062136769 -0.1545308828 0.6010136008 4289835968
-0.3058369458 -0.1536738127 0.6002742052 4289638589
-0.3054597974 -0.1528181732 0.5995339155 4289507254
-0.3046393991 -0.1517434120 0.5979236960 4290296770
-0.3038183749 -0.1506719142 0.5963122845 4290494408
-0.3029967546 -0.1496036947 0.5946996808 4290165443
-0.3021745086 -0.1485387534 0.5930858254 4290099650
-0.3017948270 -0.1476939768 0.5923405886 4290231236
-0.3014146984 -0.1468506455 0.5915945172 4290165443
-0.3019208312 -0.1464388371 0.5925879478 4290099650
-0.3024269342 -0.1460247785 0.5935812593 4290033857
-0.3033764958 -0.1458216906 0.5954449773 4290165443
-0.3043261766 -0.1456145197 0.5973089337 4291218903
-0.3048322499 -0.1451919079 0.5983022451 4290034629
-0.3053382933 -0.1447670758 0.5992954373 4289114040
-0.3062881231 -0.1445494741 0.6011597514 4290298314
-0.3063501120 -0.1439106613 0.6012814045 4290824145
-0.3073000014 -0.1436867416 0.6031457782 4290758352
-0.3073616624 -0.1430453062 0.6032668352 4290824658
-0.3078673482 -0.1426092684 0.6042593122 4291416795
-0.3070399165 -0.1415564269 0.6026352644 4291679967
-0.3057674468 -0.1403029710 0.6001377702 4291679967
-0.3044942021 -0.1390547156 0.5976387262 4291876833
-0.3018863797 -0.1372054517 0.5925202966 4291876833
-0.2979431748 -0.1347635686 0.5847808719 4291811038
-0.2939981520 -0.1323380470 0.5770378709 4291876831
-0.2913859487 -0.1305267811 0.5719107985 4290099650
-0.2901073098 -0.1293213665 0.5694012046 4282007111
-0.2897179723 -0.1285160184 0.5686370730 4281480767
-0.2893282473 -0.1277121902 0.5678721070 4281809732
-0.2889381051 -0.1269098818 0.5671063662 4281743682
-0.2894381285 -0.1264983118 0.5680878162 4281743682
-0.2899380922 -0.1260845512 0.5690690875 4281809473
-0.2904379666 -0.1256685555 0.5700501800 4281743680
-0.2909377515 -0.1252503544 0.5710311532 4282072393
-0.2909918427 -0.1246390715 0.5711373091 4282203979
-0.2910456955 -0.1240274459 0.5712430477 4282335565
-0.2910993099 -0.1234154850 0.5713482499 4282335565
-0.2911526859 -0.1228031814 0.5714529753 4282270026
-0.2912057936 -0.1221905425 0.5715572238 4282270026
-0.2912586629 -0.1215775684 0.5716609955 4282270026
-0.2917574048 -0.1211495101 0.5726398826 4282335819
-0.2922560275 -0.1207192391 0.5736185908 4282335819
-0.2927545905 -0.1202867553 0.5745971203 4282401612
-0.2932530642 -0.1198520586 0.5755754709 4282401612
-0.2937514484 -0.1194151491 0.5765536427 4282533198
-0.2946962416 -0.1191565692 0.5784080029 4282796370
-0.2956410944 -0.1188938990 0.5802625418 4282796370
-0.2961393297 -0.1184484735 0.5812404156 4282664784
-0.2970842421 -0.1181785464 0.5830950141 4282730577
-0.2975823581 -0.1177277565 0.5840727091 4282730323
-0.2985273004 -0.1174505726 0.5859273076 4282796116
-0.2994722426 -0.1171692833 0.5877820253 4282861909
-0.3004172742 -0.1168838963 0.5896368623 4282993495
-0.3018094599 -0.1167673916 0.5923693180 4283454557
-0.3032018542 -0.1166448891 0.5951021910 4284112487
-0.3050416708 -0.1166874841 0.5987132788 4283717729
-0.3077765405 -0.1170624793 0.6040810943 4287928481
-0.3096171916 -0.1170873716 0.6076937914 4292995310
-0.3193576634 -0.1943199337 0.6281810403 4290298059
-0.3168166876 -0.1920814216 0.6231828928 4288981941
-0.3142741323 -0.1898530722 0.6181816459 4285034361
-0.3121672571 -0.1878980547 0.6140373945 4285691521
-0.3104963601 -0.1862137318 0.6107507348 4288981171
-0.3096992075 -0.1850588173 0.6091827750 4291151827
-0.3089014292 -0.1839070022 0.6076134443 4290822862
-0.3089782596 -0.1832774729 0.6077646017 4291480276
-0.3094926178 -0.1829061806 0.6087763309 4291019725
-0.3095690906 -0.1822748333 0.6089268327 4290231236
-0.3096453547 -0.1816430092 0.6090767980 4290691787
-0.3101594746 -0.1812667400 0.6100881100 4290035399
-0.3102353811 -0.1806330830 0.6102374196 4286745749
-0.3103110790 -0.1799989641 0.6103862524 4284836982
-0.3103865385 -0.1793643832 0.6105346680 4287600288
-0.3104617596 -0.1787293553 0.6106826663 4290756553
-0.3105367422 -0.1780938506 0.6108301878 4290822346
-0.3106115162 -0.1774578840 0.6109772325 4290625483
-0.3111248612 -0.1770712137 0.6119869947 4290362311
-0.3111992776 -0.1764334291 0.6121333838 4290559944
-0.3117124736 -0.1760431379 0.6131428480 4290757323
-0.3113473654 -0.1751565039 0.6124246716 4290888909
-0.3122995496 -0.1750096530 0.6142976284 4291086288
-0.3119339049 -0.1741230041 0.6135783792 4291020495
-0.3111283481 -0.1729933769 0.6119938493 4290757323
-0.3116407692 -0.1725972146 0.6130018234 4290691530
-0.3117135465 -0.1719562560 0.6131449342 4290362565
-0.3113462925 -0.1710732281 0.6124225855 4289902012
-0.3114185035 -0.1704322845 0.6125645638 4289836219
-0.3114904463 -0.1697909087 0.6127060652 4289704633
-0.3115621507 -0.1691490710 0.6128471494 4290362563
-0.3111934662 -0.1682687998 0.6121219397 4290230207
-0.3112645745 -0.1676269919 0.6122618318 4287993245
-0.3108951151 -0.1667485535 0.6115350723 4285756016
-0.3105252087 -0.1658715010 0.6108074784 4286808704
-0.3105953932 -0.1652301997 0.6109455824 4288651169
-0.3097840548 -0.1641215533 0.6093496084 4289374892
-0.3089720607 -0.1630161107 0.6077524424 4289506738
-0.3077185750 -0.1616822481 0.6052868366 4289638324
-0.3069052398 -0.1605841517 0.6036869287 4289375152
-0.3060912490 -0.1594892889 0.6020858288 4289440945
-0.3057177663 -0.1586265415 0.6013512015 4289177772
-0.3053438663 -0.1577652097 0.6006157398 4289111979
-0.3054108918 -0.1571323574 0.6007475257 4287862682
-0.3050362170 -0.1562729478 0.6000105739 4287402131
-0.3051026464 -0.1556401849 0.6001412272 4290231490
-0.3056104779 -0.1552313268 0.6011401415 4289836732
-0.3052347898 -0.1543734074 0.6004011631 4289901760
-0.3053005040 -0.1537394077 0.6005304456 4289835967
-0.3044821322 -0.1526618600 0.5989207029 4289836478
-0.3036631644 -0.1515875906 0.5973097086 4290560201
-0.3028435409 -0.1505165696 0.5956975222 4290429387
-0.3015811145 -0.1492300332 0.5932143331 4290034629
-0.3020870686 -0.1488201767 0.5942095518 4290100422
-0.3008234203 -0.1475401968 0.5917239189 4290100422
-0.3008863926 -0.1469135135 0.5918477774 4290165443
-0.3013916910 -0.1465015411 0.5928417444 4290099650
-0.3018969595 -0.1460873485 0.5938355923 4289968064
-0.3028449118 -0.1458842009 0.5957002044 4290165443
-0.3037929833 -0.1456769556 0.5975651145 4291284696
-0.3042982221 -0.1452541947 0.5985589623 4289442492
-0.3052464426 -0.1450397074 0.6004241109 4289114040
-0.3057516515 -0.1446115375 0.6014178395 4290429900
-0.3058135808 -0.1439724863 0.6015396714 4290758350
-0.3063185811 -0.1435407549 0.6025329828 4290626764
-0.3063800931 -0.1429000050 0.6026539803 4290693072
-0.3068848550 -0.1424647272 0.6036468148 4291416795
-0.3060588241 -0.1414123774 0.6020220518 4291679967
-0.3047885597 -0.1401593387 0.5995233655 4291679967
-0.3030737638 -0.1387084126 0.5961503983 4291942626
-0.3004703820 -0.1368602365 0.5910294652 4291942626
-0.2969778478 -0.1346203983 0.5841596723 4291745245
-0.2934837043 -0.1323951036 0.5772866011 4291876831
-0.2913202047 -0.1307824254 0.5730309486 4289244341
-0.2900439501 -0.1295755804 0.5705205202 4281546560
-0.2896554470 -0.1287689805 0.5697563291 4281743682
-0.2897108495 -0.1281604618 0.5698653460 4282006854
-0.2888771892 -0.1271603256 0.5682255030 4281809475
-0.2893764675 -0.1267476678 0.5692076087 4281809475
-0.2898756564 -0.1263328046 0.5701895356 4281940289
-0.2903748155 -0.1259157211 0.5711713433 4282006082
-0.2908738554 -0.1254964173 0.5721529722 4282138186
-0.2909279764 -0.1248839572 0.5722594857 4282269772
-0.2909818888 -0.1242711470 0.5723654628 4282335819
-0.2910355330 -0.1236580014 0.5724709630 4282335819
-0.2910889089 -0.1230445206 0.5725759864 4282335819
-0.2906968892 -0.1222434938 0.5718048811 4282270026
-0.2907497287 -0.1216302738 0.5719088316 4282335819
-0.2908023000 -0.1210167184 0.5720122457 4282335819
-0.2913000286 -0.1205872223 0.5729913116 4282401612
-0.2917976975 -0.1201555058 0.5739701986 4282467405
-0.2927408218 -0.1199040860 0.5758253336 4282401612
-0.2932383716 -0.1194670126 0.5768040419 4282533198
-0.2937358320 -0.1190277189 0.5777825117 4282730577
-0.2946790159 -0.1187658906 0.5796377659 4282796370
-0.2956222296 -0.1184999645 0.5814931393 4282598991
-0.2965655327 -0.1182299405 0.5833485723 4282862163
-0.2975088656 -0.1179558113 0.5852041245 4282861909
-0.2984522581 -0.1176775843 0.5870597959 4282598737
-0.2993957102 -0.1173952520 0.5889155865 4282598737
-0.3003391922 -0.1171088070 0.5907714367 4282730323
-0.3012827337 -0.1168182641 0.5926274061 4282994006
-0.3026727140 -0.1166957244 0.5953615308 4283388764
-0.3045094013 -0.1167383492 0.5989742875 4282862420
-0.3072395325 -0.1171135232 0.6043444872 4287204758
-0.3095236719 -0.1173077226 0.6088374257 4292863724
-0.3179205656 -0.1938690543 0.6267234683 4290823890
-0.3158201277 -0.1918964684 0.6225828528 4291283924
-0.3137183785 -0.1899322718 0.6184395552 4290362822
-0.3116152883 -0.1879764944 0.6142936945 4290231236
-0.3099474013 -0.1862915009 0.6110057831 4290823373
-0.3091517389 -0.1851361394 0.6094372869 4291020752
-0.3083554208 -0.1839838773 0.6078674793 4290889166
-0.3084321916 -0.1833541244 0.6080188155 4290889166
-0.3089456856 -0.1829827279 0.6090310812 4290889166
-0.3090220988 -0.1823511422 0.6091817617 4290428615
-0.3090983033 -0.1817190796 0.6093319654 4290560201
-0.3091742694 -0.1810865700 0.6094816923 4290296772
-0.3092499971 -0.1804535836 0.6096310019 4288980912
-0.3093255162 -0.1798201352 0.6097798347 4285822848
-0.3094007969 -0.1791862249 0.6099282503 4286086020
-0.3094758391 -0.1785518527 0.6100761890 4288783792
-0.3095506430 -0.1779170185 0.6102236509 4290625996
-0.3096252382 -0.1772817224 0.6103706956 4290953679
-0.3101376593 -0.1768958122 0.6113808155 4290493128
-0.3102118671 -0.1762586981 0.6115271449 4290757069
-0.3102858663 -0.1756211370 0.6116729975 4290493897
-0.3107979894 -0.1752302647 0.6126825809 4291152081
-0.3113101125 -0.1748371273 0.6136921048 4291152081
-0.3113836050 -0.1741963923 0.6138370037 4291480792
-0.3101408482 -0.1728218794 0.6113871336 4290757069
-0.3110911250 -0.1726700217 0.6132604480 4290098623
-0.3111638129 -0.1720288396 0.6134037375 4289967037
-0.3107973039 -0.1711454690 0.6126812100 4290229950
-0.3108694255 -0.1705043018 0.6128233671 4289769399
-0.3109413087 -0.1698626727 0.6129650474 4289703863
-0.3105736673 -0.1689815968 0.6122403145 4290098621
-0.3106449544 -0.1683399826 0.6123809218 4290559172
-0.3107160330 -0.1676979363 0.6125209928 4290098621
-0.3103472590 -0.1668191701 0.6117940545 4287862162
-0.3095383644 -0.1657063961 0.6101994514 4287204232
-0.3091686368 -0.1648312956 0.6094706059 4288585885
-0.3079186976 -0.1634904742 0.6070065498 4289704366
-0.3057879508 -0.1616893858 0.6028061509 4290164408
-0.3067365587 -0.1615191251 0.6046761870 4289967029
-0.3059245944 -0.1604215205 0.6030755043 4289967035
-0.3051120043 -0.1593271196 0.6014736295 4289703863
-0.3047391474 -0.1584649682 0.6007386446 4289573049
-0.3048063219 -0.1578322947 0.6008710861 4289638842
-0.3044327199 -0.1569720358 0.6001345515 4288257446
-0.3044993281 -0.1563394368 0.6002658606 4287796895
-0.3045656979 -0.1557064354 0.6003967524 4289375927
-0.3046318293 -0.1550730169 0.6005271077 4289046962
-0.3042567670 -0.1542156935 0.5997877121 4289441720
-0.3043223321 -0.1535823643 0.5999169946 4289902271
-0.3035053611 -0.1525053084 0.5983064771 4290494408
-0.3026877642 -0.1514315158 0.5966947079 4291020752
-0.3018695712 -0.1503610015 0.5950818062 4290495178
-0.3014921844 -0.1495126635 0.5943378210 4290034627
-0.3011143506 -0.1486657709 0.5935930014 4290166726
-0.3007360995 -0.1478203237 0.5928473473 4290232519
-0.3007991016 -0.1471924633 0.5929715633 4290100420
-0.3013036847 -0.1467794329 0.5939662457 4290166213
-0.3018081784 -0.1463641524 0.5949608088 4290297029
-0.3027546108 -0.1461600214 0.5968264937 4290494408
-0.3032591045 -0.1457393467 0.5978209972 4291087315
-0.3037635088 -0.1453164369 0.5988153815 4288850353
-0.3047101200 -0.1451018751 0.6006814241 4289508283
-0.3052144945 -0.1446735561 0.6016757488 4290297799
-0.3052763641 -0.1440342367 0.6017976999 4290626764
-0.3057805300 -0.1436023563 0.6027915478 4290626764
-0.3058419824 -0.1429613531 0.6029127240 4291022035
-0.3059031963 -0.1423199475 0.6030333638 4291416793
-0.3050785959 -0.1412681043 0.6014078259 4291679454
-0.3038105369 -0.1400154829 0.5989080071 4292008419
-0.3020987213 -0.1385648847 0.5955334902 4292074212
-0.2994998395 -0.1367168725 0.5904102921 4291745247
-0.2964565754 -0.1346783340 0.5844110250 4291942624
-0.2929686010 -0.1324520856 0.5775351524 4291942624
-0.2912522554 -0.1310382038 0.5741516352 4287863458
-0.2904217541 -0.1300284415 0.5725144744 4281020986
-0.2895906568 -0.1290220618 0.5708761215 4281941320
-0.2892025709 -0.1282157153 0.5701110363 4281809734
-0.2888140380 -0.1274108887 0.5693451762 4281940807
-0.2888688445 -0.1268023551 0.5694531798 4281809221
-0.2893672287 -0.1263873279 0.5704356432 4282072904
-0.2898655236 -0.1259700954 0.5714179873 4282072904
-0.2903637588 -0.1255506277 0.5724001527 4282400844
-0.2899737656 -0.1247468889 0.5716313720 4282466637
-0.2900275290 -0.1241347715 0.5717373490 4282400844
-0.2905252874 -0.1237114817 0.5727185607 4282335051
-0.2905786335 -0.1230977476 0.5728237033 4282400844
-0.2901873291 -0.1222963929 0.5720523596 4282400844
-0.2902401090 -0.1216829270 0.5721563697 4282466637
-0.2902926505 -0.1210691333 0.5722599626 4282532430
-0.2907895446 -0.1206394657 0.5732395053 4282532430
-0.2912863791 -0.1202075854 0.5742189288 4282466637
-0.2922279239 -0.1199560687 0.5760749578 4282466637
-0.2927246392 -0.1195188239 0.5770542026 4282598223
-0.2932212651 -0.1190793589 0.5780332088 4282861395
-0.2941628397 -0.1188174337 0.5798893571 4282861395
-0.2951044440 -0.1185514182 0.5817455649 4282729809
-0.2956009507 -0.1181034222 0.5827243328 4282664016
-0.2965426147 -0.1178301424 0.5845806599 4282532430
-0.2974843383 -0.1175527498 0.5864370465 4282598223
-0.2984260917 -0.1172712594 0.5882935524 4282466637
-0.2989223897 -0.1168115661 0.5892719626 4282729809
-0.3003097475 -0.1166959405 0.5920068622 4282401612
-0.3025885522 -0.1169186980 0.5964990854 4282598991
-0.3044221103 -0.1169604138 0.6001136899 4282204233
-0.3062560260 -0.1169942245 0.6037288904 4286217606
-0.3085361123 -0.1171894744 0.6082237363 4292534245
-0.3160505295 -0.1931515932 0.6244041324 4290560718
-0.3143889904 -0.1914460510 0.6211215258 4291086545
-0.3127263486 -0.1897471398 0.6178367734 4290889166
-0.3106269538 -0.1877914667 0.6136890650 4290888909
-0.3093977571 -0.1863691956 0.6112605929 4290888909
-0.3086035848 -0.1852134019 0.6096915603 4290888909
-0.3078087270 -0.1840606928 0.6081212163 4291020495
-0.3078854084 -0.1834307164 0.6082727313 4290889166
-0.3083980978 -0.1830591857 0.6092855930 4290691787
-0.3084744215 -0.1824273765 0.6094364524 4290560201
-0.3085505366 -0.1817951053 0.6095868349 4290297029
-0.3086264431 -0.1811623573 0.6097367406 4290296772
-0.3087021112 -0.1805291474 0.6098862290 4289967807
-0.3087775409 -0.1798954606 0.6100353003 4288059556
-0.3088527620 -0.1792613268 0.6101838946 4285098871
-0.3089277446 -0.1786267161 0.6103320122 4286612623
-0.3085654080 -0.1777399033 0.6096162200 4289836480
-0.3086398244 -0.1771052778 0.6097632051 4290888655
-0.3091512918 -0.1767201424 0.6107736826 4290888655
-0.3096627295 -0.1763327569 0.6117841005 4290362565
-0.3097366393 -0.1756949574 0.6119301319 4290494151
-0.3098103404 -0.1750566959 0.6120757461 4291020493
-0.3103215098 -0.1746643484 0.6130855680 4290888907
-0.3099570274 -0.1737788171 0.6123655438 4291678423
-0.3100300431 -0.1731391996 0.6125097275 4289967805
-0.3101027906 -0.1724991351 0.6126534939 4287532948
-0.3101752996 -0.1718586236 0.6127967834 4287335569
-0.3098093867 -0.1709758192 0.6120738387 4288190364
-0.3098813295 -0.1703353077 0.6122159958 4289111466
-0.3103914559 -0.1699343771 0.6132237911 4289506224
-0.3100245297 -0.1690529585 0.6124988794 4289637810
-0.3100957572 -0.1684111059 0.6126396060 4290295740
-0.3101667762 -0.1677688211 0.6127799153 4290887877
-0.3097987175 -0.1668897122 0.6120527387 4290691012
-0.3094302118 -0.1660119891 0.6113247275 4290033082
-0.3086223006 -0.1649010628 0.6097285748 4290164667
-0.3082528412 -0.1640270203 0.6089986563 4290362046
-0.3070045114 -0.1626888663 0.6065323949 4290296253
-0.3057553768 -0.1613557637 0.6040645242 4290296253
-0.3049448133 -0.1602586210 0.6024631262 4290230975
-0.3045731187 -0.1593947113 0.6017287970 4290230975
-0.3042009771 -0.1585322171 0.6009935737 4289902525
-0.3038284183 -0.1576711237 0.6002575159 4289705146
-0.3038952053 -0.1570387185 0.6003894806 4288718251
-0.3039617538 -0.1564058810 0.6005209684 4287402391
-0.3040280640 -0.1557726413 0.6006519794 4288126628
-0.3040941358 -0.1551389843 0.6007825136 4287797663
-0.3037197888 -0.1542813182 0.6000429392 4288587181
-0.3029047549 -0.1532023847 0.5984327197 4289705662
-0.3025294542 -0.1523485035 0.5976912975 4290691528
-0.3021537364 -0.1514960378 0.5969489813 4290954700
-0.3013370335 -0.1504250914 0.5953354239 4290626248
-0.3009603322 -0.1495764107 0.5945912600 4290297283
-0.3005832434 -0.1487291902 0.5938462019 4290232004
-0.3002057076 -0.1478834152 0.5931003690 4290297797
-0.3002686799 -0.1472553164 0.5932247639 4290428615
-0.3007723987 -0.1468421221 0.5942199826 4290362822
-0.3017171919 -0.1466410905 0.5960865021 4290494408
-0.3022208810 -0.1462225020 0.5970816612 4290889166
-0.3031658232 -0.1460142136 0.5989485383 4290495178
-0.3036695123 -0.1455902159 0.5999435782 4288455595
-0.3041731119 -0.1451639831 0.6009385586 4289639869
-0.3046766520 -0.1447355002 0.6019333601 4290429385
-0.3047384620 -0.1440959424 0.6020554900 4290297799
-0.3052417934 -0.1436638981 0.6030498743 4290626764
-0.3053031862 -0.1430226415 0.6031711698 4290890449
-0.3049224317 -0.1421749443 0.6024189591 4291087828
-0.3040992618 -0.1411235929 0.6007926464 4291679454
-0.3028333783 -0.1398713887 0.5982916951 4291745247
-0.3011245430 -0.1384211183 0.5949156284 4291745247
-0.2989724874 -0.1367755979 0.5906639695 4291942626
-0.2950499058 -0.1343334168 0.5829142928 4292205796
-0.2928952873 -0.1327095032 0.5786575079 4291811038
-0.2911820710 -0.1312940866 0.5752728581 4286546828
-0.2899105549 -0.1300843805 0.5727607608 4280757044
-0.2895236909 -0.1292752624 0.5719964504 4282072393
-0.2891363800 -0.1284676492 0.5712313056 4282138186
-0.2883058190 -0.1274657696 0.5695903897 4282006600
-0.2883605957 -0.1268569976 0.5696985722 4281875014
-0.2888581157 -0.1264418215 0.5706815720 4282006854
-0.2893556058 -0.1260244101 0.5716643929 4282138440
-0.2894097865 -0.1254127324 0.5717714429 4282400844
-0.2894637585 -0.1248007193 0.5718780756 4282400844
-0.2895174623 -0.1241883636 0.5719841719 4282400844
-0.2895709276 -0.1235756651 0.5720897913 4282400844
-0.2900676727 -0.1231509298 0.5730711818 4282400844
-0.2896771133 -0.1223492473 0.5722995996 4282400844
-0.2897298336 -0.1217355430 0.5724037886 4282466637
-0.2897823155 -0.1211214960 0.5725074410 4282466637
-0.2902784050 -0.1206916571 0.5734875202 4282598223
-0.2907744050 -0.1202596128 0.5744674802 4282466637
-0.2912703156 -0.1198253483 0.5754472017 4282466637
-0.2917661369 -0.1193888709 0.5764267445 4282598223
-0.2927060425 -0.1191309541 0.5782836676 4282795602
-0.2936459780 -0.1188689396 0.5801407099 4282795602
-0.2941416800 -0.1184239313 0.5811200142 4282598223
-0.2946372628 -0.1179767027 0.5820991397 4282400844
-0.2955772579 -0.1177042648 0.5839561820 4282335051
-0.2969618142 -0.1176037714 0.5866916180 4282400844
-0.2974573374 -0.1171470657 0.5876705647 4282203465
-0.2979527414 -0.1166881397 0.5886493325 4282335051
-0.2993376255 -0.1165734306 0.5913853645 4282006854
-0.3016124070 -0.1167972460 0.5958794951 4282138440
-0.3034427166 -0.1168399453 0.5994955897 4282006854
-0.3057183921 -0.1170451120 0.6039915085 4285362297
-0.3075494468 -0.1170710400 0.6076090336 4291942108
-0.3150535524 -0.1929657161 0.6238032579 4290429132
-0.3138296008 -0.1915256679 0.6213798523 4290494151
-0.3121699691 -0.1898260862 0.6180937886 4290625737
-0.3105092645 -0.1881331354 0.6148055792 4290690760
-0.3097174168 -0.1869720221 0.6132377982 4290427588
-0.3084898293 -0.1855522841 0.6108071208 4290428358
-0.3076965809 -0.1843982488 0.6092364788 4290691530
-0.3077732921 -0.1837671548 0.6093884110 4290757323
-0.3078497946 -0.1831355840 0.6095398664 4290559944
-0.3074905276 -0.1822454035 0.6088285446 4290494151
-0.3075664639 -0.1816138029 0.6089788675 4290428358
-0.3076421916 -0.1809817255 0.6091288328 4290362311
-0.3081535399 -0.1806046367 0.6101412773 4290230725
-0.3077929318 -0.1797161698 0.6094272733 4289704381
-0.3078679442 -0.1790826917 0.6095758677 4286151559
-0.3079427481 -0.1784487665 0.6097239256 4285296763
-0.3075810373 -0.1775625050 0.6090077758 4288257448
-0.3076552749 -0.1769285500 0.6091547608 4290560203
-0.3081657887 -0.1765441895 0.6101655364 4291152340
-0.3082396686 -0.1759084165 0.6103118062 4290362565
-0.3083133101 -0.1752721816 0.6104576588 4290625737
-0.3083867431 -0.1746354997 0.6106030345 4290823114
-0.3088968396 -0.1742448211 0.6116130352 4290823114
-0.3089698851 -0.1736063212 0.6117576957 4291612114
-0.3090427220 -0.1729673743 0.6119018793 4289046187
-0.3091152906 -0.1723279655 0.6120455861 4285361778
-0.3091876507 -0.1716881245 0.6121888161 4284769641
-0.3092597723 -0.1710478216 0.6123316288 4284637796
-0.3093316555 -0.1704070717 0.6124739647 4285229933
-0.3098409176 -0.1700060070 0.6134822965 4286282106
-0.3099124432 -0.1693634689 0.6136239171 4287729552
-0.3095458746 -0.1684821695 0.6128981113 4288979619
-0.3096168041 -0.1678396463 0.6130385399 4289966514
-0.3092494607 -0.1669601947 0.6123112440 4290888139
-0.3088817000 -0.1660821289 0.6115830541 4291151311
-0.3080752492 -0.1649707705 0.6099863052 4290954700
-0.3077065051 -0.1640963852 0.6092561483 4290757321
-0.3060220480 -0.1625248492 0.6059209108 4290625733
-0.3038980067 -0.1607282609 0.6017153859 4290625733
-0.3035272658 -0.1598644406 0.6009813547 4290297281
-0.3031560779 -0.1590020359 0.6002463698 4290231488
-0.3027844727 -0.1581410319 0.5995106101 4290165695
-0.3028513491 -0.1575097144 0.5996429920 4290034109
-0.3029179871 -0.1568779796 0.5997749567 4289310386
-0.3029843867 -0.1562458128 0.5999064445 4286415494
-0.3030505478 -0.1556132436 0.6000373960 4286547596
-0.3031164706 -0.1549802721 0.6001679301 4286942354
-0.3023033440 -0.1538994908 0.5985579491 4288126630
-0.3019290864 -0.1530447453 0.5978169441 4290034627
-0.3011148572 -0.1519695818 0.5962047577 4290888907
-0.3011793196 -0.1513395607 0.5963324308 4290823114
-0.3008037806 -0.1504891217 0.5955888629 4290626248
-0.2999879718 -0.1494210213 0.5939735174 4290428869
-0.3004914224 -0.1490107328 0.5949703455 4290428356
-0.3001146913 -0.1481636912 0.5942244530 4290428356
-0.3001776934 -0.1475344300 0.5943492055 4290494662
-0.3006806672 -0.1471201628 0.5953450799 4290363076
-0.3016239405 -0.1469181478 0.5972127318 4290625994
-0.3021268845 -0.1464984864 0.5982086062 4291152338
-0.3026297987 -0.1460765749 0.5992043614 4289376697
-0.3031326234 -0.1456524283 0.6001999378 4288455595
-0.3036353886 -0.1452260315 0.6011954546 4290034627
-0.3041380942 -0.1447973996 0.6021907926 4290363592
-0.3041998744 -0.1441575885 0.6023130417 4290166213
-0.3042613864 -0.1435173899 0.6024348736 4290560971
-0.3038816154 -0.1426697373 0.6016829014 4290824656
-0.3039425313 -0.1420297027 0.6018035412 4291285207
-0.3031207621 -0.1409788579 0.6001764536 4291613659
-0.3022983968 -0.1399313509 0.5985481739 4291482073
-0.3001512289 -0.1382771283 0.5942968130 4291876831
-0.2971199751 -0.1362270266 0.5882949233 4292008417
-0.2949703932 -0.1345925480 0.5840387940 4291811038
-0.2923780680 -0.1327664852 0.5789059997 4291284694
-0.2906679213 -0.1313504875 0.5755199194 4284704624
-0.2898405492 -0.1303389668 0.5738816857 4280559665
-0.2890125513 -0.1293308288 0.5722423196 4282072393
-0.2886260152 -0.1285229027 0.5714769363 4282269772
-0.2882390320 -0.1277164817 0.5707107782 4282006600
-0.2882938087 -0.1271065325 0.5708192587 4282006600
-0.2883483768 -0.1264962554 0.5709272623 4282006600
-0.2888450027 -0.1260786951 0.5719105601 4282138186
-0.2888991535 -0.1254667640 0.5720177889 4282335051
-0.2889530659 -0.1248545125 0.5721245408 4282269258
-0.2890067399 -0.1242419034 0.5722307563 4282335051
-0.2890601456 -0.1236289591 0.5723365545 4282400844
-0.2891133130 -0.1230156794 0.5724418163 4282335051
-0.2891662419 -0.1224020571 0.5725466013 4282400844
-0.2892189324 -0.1217880994 0.5726509094 4282400844
-0.2892713547 -0.1211738065 0.5727547407 4282335051
-0.2893235385 -0.1205591857 0.5728580952 4282400844
-0.2902617753 -0.1203115955 0.5747157931 4282269258
-0.2903136313 -0.1196944192 0.5748184323 4282335051
-0.2903652489 -0.1190769151 0.5749205947 4282466637
-0.2921901345 -0.1191825047 0.5785338879 4282532430
-0.2935719490 -0.1191003025 0.5812698603 4282532430
-0.2936233282 -0.1184752062 0.5813716054 4282335051
-0.2941181064 -0.1180278063 0.5823512673 4282006086
-0.2950564623 -0.1177552640 0.5842092037 4281940293
-0.2959948778 -0.1174786165 0.5860672593 4282006086
-0.2969333231 -0.1171978638 0.5879253745 4281874500
-0.2974279225 -0.1167387590 0.5889046788 4281940293
-0.2988103926 -0.1166240126 0.5916419625 4281809221
-0.3006371260 -0.1166756004 0.5952588916 4281940807
-0.3024641871 -0.1167192832 0.5988764763 4282138440
-0.3038473725 -0.1165846139 0.6016151309 4284309609
-0.3061193526 -0.1167829111 0.6061136127 4291218385
-0.3136236370 -0.1925132722 0.6223406196 4290297546
-0.3128356040 -0.1913398206 0.6207768917 4290690760
-0.3116129041 -0.1899049580 0.6183506250 4290427588
-0.3099552095 -0.1882113367 0.6150611639 4290164416
-0.3095990717 -0.1873124987 0.6143544912 4290296002
-0.3083738387 -0.1858913153 0.6119232178 4290428358
-0.3075821698 -0.1847359389 0.6103522182 4290559944
-0.3072243929 -0.1838437021 0.6096422672 4290559944
-0.3073008060 -0.1832119077 0.6097939014 4290559944
-0.3069422543 -0.1823213995 0.6090824008 4290493897
-0.3070181310 -0.1816895604 0.6092329621 4290428104
-0.3070937693 -0.1810572594 0.6093830466 4290099139
-0.3071691692 -0.1804244816 0.6095327139 4290164932
-0.3068091571 -0.1795365959 0.6088182926 4290165445
-0.3064487278 -0.1786500216 0.6081030965 4288520620
-0.3065232337 -0.1780176610 0.6082509756 4285428349
-0.3065975308 -0.1773848236 0.6083983779 4286283658
-0.3066715896 -0.1767515391 0.6085453629 4288981686
-0.3067454398 -0.1761177927 0.6086918712 4290626511
-0.3068190515 -0.1754835844 0.6088379025 4290757582
-0.3068924248 -0.1748489290 0.6089835167 4290625996
-0.3074015677 -0.1744612753 0.6099938750 4290559944
-0.3074745834 -0.1738248020 0.6101387739 4290823116
-0.3075473905 -0.1731878817 0.6102831960 4291282895
-0.3076199293 -0.1725505143 0.6104271412 4289045933
-0.3081286848 -0.1721565276 0.6114367247 4287072396
-0.3082008660 -0.1715173572 0.6115799546 4286546052
-0.3082728088 -0.1708777249 0.6117227077 4285493616
-0.3087812662 -0.1704787761 0.6127316952 4284769893
-0.3088528514 -0.1698373556 0.6128737330 4284440156
-0.3089241982 -0.1691954732 0.6130152941 4284900707
-0.3089953065 -0.1685531586 0.6131563783 4285426281
-0.3090661764 -0.1679103971 0.6132969856 4286150004
-0.3091367781 -0.1672672033 0.6134371161 4288058779
-0.3083324730 -0.1661522090 0.6118410826 4289835190
-0.3079649806 -0.1652751714 0.6111118197 4290691012
-0.3071594834 -0.1641656905 0.6095134616 4290954184
-0.3054780662 -0.1625935286 0.6061769724 4290691781
-0.3042333722 -0.1612602621 0.6037070155 4290823367
-0.3034256995 -0.1601631641 0.6021043062 4290625988
-0.3030553460 -0.1592995077 0.6013693810 4290757574
-0.3026845455 -0.1584372520 0.6006335616 4290559940
-0.3023132980 -0.1575764120 0.5998969674 4290230975
-0.3023798764 -0.1569444388 0.6000290513 4289507765
-0.3024462163 -0.1563120335 0.6001606584 4285691771
-0.3025123179 -0.1556792259 0.6002918482 4285625980
-0.3025781810 -0.1550460160 0.6004225016 4285889152
-0.3022051752 -0.1541885883 0.5996823311 4286679184
-0.3018317521 -0.1533325911 0.5989413261 4289837248
-0.3010190725 -0.1522560865 0.5973287225 4290954700
-0.3006446958 -0.1514038742 0.5965858102 4290757321
-0.3002698720 -0.1505530924 0.5958420634 4290625735
-0.2998946607 -0.1497037560 0.5950974822 4290625735
-0.2999581695 -0.1490741223 0.5952234864 4290362563
-0.2995821536 -0.1482267529 0.5944773555 4290296770
-0.3000844717 -0.1478136629 0.5954741240 4290494149
-0.3005867004 -0.1473983377 0.5964707732 4290362563
-0.3010888994 -0.1469807625 0.5974672437 4290495178
-0.3015910089 -0.1465609521 0.5984636545 4290560971
-0.3020930886 -0.1461388916 0.5994599462 4288127143
-0.3025950789 -0.1457145810 0.6004560590 4288982452
-0.3030970097 -0.1452880353 0.6014520526 4290297799
-0.3031588793 -0.1446492970 0.6015748382 4289968834
-0.3032204807 -0.1440101564 0.6016970873 4290166213
-0.3037220240 -0.1435787380 0.6026923656 4290363592
-0.3037832379 -0.1429378986 0.6028138399 4290890447
-0.3029634953 -0.1418842226 0.6011871696 4291022033
-0.3021431565 -0.1408338845 0.5995593071 4291416280
-0.3008816838 -0.1395825148 0.5970560908 4291547866
-0.2991788089 -0.1381329149 0.5936769843 4291613659
-0.2961528897 -0.1360828876 0.5876724720 4291679452
-0.2940070927 -0.1344486624 0.5834144354 4292073440
-0.2923010588 -0.1330240518 0.5800290704 4290560201
-0.2905940711 -0.1316065341 0.5766418576 4283125592
-0.2893272340 -0.1303948909 0.5741279721 4281151802
-0.2889419198 -0.1295841932 0.5733633041 4282072393
-0.2881149650 -0.1285780817 0.5717223287 4282138186
-0.2881700099 -0.1279673129 0.5718316436 4282071879
-0.2877834439 -0.1271611601 0.5710645318 4282203465
-0.2882794142 -0.1267447323 0.5720487237 4282203465
-0.2883337736 -0.1261329055 0.5721565485 4282203465
-0.2883878648 -0.1255207509 0.5722638965 4282203465
-0.2888834476 -0.1250995249 0.5732473135 4282203465
-0.2889371216 -0.1244857460 0.5733538270 4282203465
-0.2885487080 -0.1236822084 0.5725830793 4282269258
-0.2886018157 -0.1230686828 0.5726884604 4282269258
-0.2886546850 -0.1224548221 0.5727934241 4282203465
-0.2882651985 -0.1216540337 0.5720205307 4282203465
-0.2883175015 -0.1210404336 0.5721243024 4282137672
-0.2888118625 -0.1206112057 0.5731052756 4282006086
-0.2893061042 -0.1201797649 0.5740860701 4282006086
-0.2898002863 -0.1197461039 0.5750666857 4282071879
-0.2898518443 -0.1191283539 0.5751689672 4282137672
-0.2907883525 -0.1188721433 0.5770273209 4282203465
-0.2926102877 -0.1189717948 0.5806427002 4282203465
-0.2935470641 -0.1187054813 0.5825015903 4282071879
-0.2935982645 -0.1180788651 0.5826031566 4281874500
-0.2940920889 -0.1176290736 0.5835831165 4281742914
-0.2950288057 -0.1173532680 0.5854418874 4281742914
-0.2959655821 -0.1170733497 0.5873007774 4281545535
-0.2969023883 -0.1167893261 0.5891597867 4281742914
-0.2982824743 -0.1166745499 0.5918983221 4281875014
-0.2996627390 -0.1165537611 0.5946372747 4282269772
-0.3014865518 -0.1165984273 0.5982563496 4282599248
-0.3033106923 -0.1166351810 0.6018761396 4283651936
-0.3051351607 -0.1166640148 0.6054965258 4290297283
-0.3121961355 -0.1920603067 0.6208763123 4290165960
-0.3114093542 -0.1908881962 0.6193116307 4290690760
-0.3101886809 -0.1894545555 0.6168840528 4290098623
-0.3089671433 -0.1880257577 0.6144547462 4289770428
-0.3081781566 -0.1868646592 0.6128856540 4290165186
-0.3073885143 -0.1857066453 0.6113152504 4290494151
-0.3065982163 -0.1845517159 0.6097435355 4290559944
-0.3062410057 -0.1836600304 0.6090331674 4290559690
-0.3063172698 -0.1830289066 0.6091848016 4290559690
-0.3063932955 -0.1823973209 0.6093360186 4290428104
-0.3060349822 -0.1815077960 0.6086234450 4290296518
-0.3061104417 -0.1808761656 0.6087735295 4289968066
-0.3057513833 -0.1799883991 0.6080594063 4289902273
-0.3053918779 -0.1791019589 0.6073444486 4290165445
-0.3054664433 -0.1784707159 0.6074927449 4290231238
-0.3055407703 -0.1778390259 0.6076406240 4287270553
-0.3051801622 -0.1769547909 0.6069234610 4285099384
-0.3052539527 -0.1763230860 0.6070701480 4286613651
-0.3053275049 -0.1756909043 0.6072164774 4289376957
-0.3058358729 -0.1753076464 0.6082274914 4290889938
-0.3059090674 -0.1746736616 0.6083730459 4290889938
-0.3059820533 -0.1740392148 0.6085181236 4290691530
-0.3064901233 -0.1736509800 0.6095286012 4290625737
-0.3065627515 -0.1730147302 0.6096730232 4290888907
-0.3066351116 -0.1723780334 0.6098169684 4289507254
-0.3071429133 -0.1719848216 0.6108268499 4288520612
-0.3072149456 -0.1713463217 0.6109700799 4289046956
-0.3072867095 -0.1707073599 0.6111128330 4288322461
-0.3073582649 -0.1700679511 0.6112551093 4286743429
-0.3078656495 -0.1696684361 0.6122641563 4285953654
-0.3079368174 -0.1690272242 0.6124056578 4286348412
-0.3080077469 -0.1683855802 0.6125467420 4285756016
-0.3080784380 -0.1677434891 0.6126873493 4284834914
-0.3081489205 -0.1671009660 0.6128274798 4284571999
-0.3073459864 -0.1659864336 0.6112306714 4285690480
-0.3065424263 -0.1648751199 0.6096326113 4287006855
-0.3061750233 -0.1640009731 0.6089019179 4289046438
-0.3049334288 -0.1626621336 0.6064327359 4290230458
-0.3036909997 -0.1613283306 0.6039618850 4290625216
-0.3033218980 -0.1604620218 0.6032277942 4290428609
-0.3025151789 -0.1593668163 0.6016234756 4290823367
-0.3021450937 -0.1585042179 0.6008874774 4291085770
-0.3022119403 -0.1578715146 0.6010203958 4290493633
-0.3018410802 -0.1570108235 0.6002829075 4289507254
-0.3019073606 -0.1563781947 0.6004146934 4285428088
-0.3019734025 -0.1557451487 0.6005460024 4284968050
-0.3016014695 -0.1548868865 0.5998063087 4284375913
-0.3012290895 -0.1540300548 0.5990657806 4284770671
-0.3008562922 -0.1531746387 0.5983243585 4289507767
-0.3004830480 -0.1523206681 0.5975821018 4290691787
-0.2996712625 -0.1512469947 0.5959677100 4290560201
-0.3006117046 -0.1510574073 0.5978379846 4290428358
-0.2993607819 -0.1497673392 0.5953502059 4290494151
-0.2994242311 -0.1491374671 0.5954763889 4290362565
-0.2994874418 -0.1485071927 0.5956020951 4290165186
-0.2995504141 -0.1478765309 0.5957273245 4290231236
-0.3000518382 -0.1474610418 0.5967245102 4290231236
-0.3009919226 -0.1472579837 0.5985941291 4290560971
-0.3014933169 -0.1468370855 0.5995912552 4289310904
-0.3024335802 -0.1466267556 0.6014611721 4287798178
-0.3024958670 -0.1459885538 0.6015850902 4289508796
-0.3029970527 -0.1455609202 0.6025817990 4290100420
-0.3030589521 -0.1449210048 0.6027048826 4289705662
-0.3026812971 -0.1440716088 0.6019538045 4289968834
-0.3027426004 -0.1434318423 0.6020757556 4290100420
-0.3023642004 -0.1425844431 0.6013231874 4290824141
-0.3019853532 -0.1417385191 0.6005697846 4291284692
-0.3007267714 -0.1404833049 0.5980667472 4291613657
-0.2994673848 -0.1392332762 0.5955622196 4291745243
-0.2977674305 -0.1377849430 0.5921814442 4291547866
-0.2951866686 -0.1359385103 0.5870490074 4291613659
-0.2930446565 -0.1343045533 0.5827890635 4292270819
-0.2917817235 -0.1330810040 0.5802774429 4289441720
-0.2905180156 -0.1318627000 0.5777642131 4281875268
-0.2892535627 -0.1306496263 0.5752495527 4281875268
-0.2884286940 -0.1296397448 0.5736091137 4282072393
-0.2880436778 -0.1288302243 0.5728434324 4281940807
-0.2880987823 -0.1282182634 0.5729530454 4282071879
-0.2877130210 -0.1274108589 0.5721858740 4282071879
-0.2877675593 -0.1267991513 0.5722943544 4282269258
-0.2878218591 -0.1261870861 0.5724022985 4282071879
-0.2878759205 -0.1255746782 0.5725097656 4282137672
-0.2883706391 -0.1251533031 0.5734937191 4282137672
-0.2888652980 -0.1247297004 0.5744774342 4282137672
-0.2884776890 -0.1239249036 0.5737065673 4282137672
-0.2880896628 -0.1231216416 0.5729349256 4282071879
-0.2881425023 -0.1225075349 0.5730399489 4282006086
-0.2877537310 -0.1217064187 0.5722668171 4281940293
-0.2878060043 -0.1210925728 0.5723707676 4281874500
-0.2878580093 -0.1204783991 0.5724741817 4281808707
-0.2883513570 -0.1200477332 0.5734553337 4281874500
-0.2888446152 -0.1196148470 0.5744363070 4281874500
-0.2893377841 -0.1191797480 0.5754171014 4281874500
-0.2902726829 -0.1189234406 0.5772763491 4281940293
-0.2916495204 -0.1188430935 0.5800145268 4281940293
-0.2925846279 -0.1185776219 0.5818741918 4281874500
-0.2930777371 -0.1181298718 0.5828548670 4281808707
-0.2935707271 -0.1176799014 0.5838353038 4281742659
-0.2945058346 -0.1174039990 0.5856949687 4281676866
-0.2954410017 -0.1171239838 0.5875547528 4281414463
-0.2963761985 -0.1168398485 0.5894146562 4281677635
-0.2973114252 -0.1165516004 0.5912745595 4282138186
-0.2986892164 -0.1164317280 0.5940146446 4282532944
-0.3005097806 -0.1164773777 0.5976352692 4282928213
-0.3027733266 -0.1166857034 0.6021368504 4283322971
-0.3050373197 -0.1168842092 0.6066393852 4289573560
-0.3112032413 -0.1918733269 0.6202718616 4290034374
-0.3099855185 -0.1904360503 0.6178447008 4290230979
-0.3087668717 -0.1890036315 0.6154158115 4289836221
-0.3079799414 -0.1878398955 0.6138473153 4289704635
-0.3071923256 -0.1866792440 0.6122775078 4289902014
-0.3064040542 -0.1855216771 0.6107063890 4290230725
-0.3056151271 -0.1843671948 0.6091338992 4290428104
-0.3056915104 -0.1837363243 0.6092861891 4290493897
-0.3053345978 -0.1828456223 0.6085748076 4290428104
-0.3049772382 -0.1819562465 0.6078624725 4290362311
-0.3050527275 -0.1813257486 0.6080129743 4290296518
-0.3051280081 -0.1806947738 0.6081630588 4290099652
-0.3047695458 -0.1798075736 0.6074485779 4289836480
-0.3044106364 -0.1789216995 0.6067332029 4290231238
-0.3044850230 -0.1782911420 0.6068814993 4290362824
-0.3045592010 -0.1776601225 0.6070293188 4289704894
-0.3037652373 -0.1765242815 0.6054468155 4286612623
-0.3038387299 -0.1758941263 0.6055933237 4284639601
-0.3043461740 -0.1755139083 0.6066046953 4287337114
-0.3044193089 -0.1748819500 0.6067504883 4290165443
-0.3044922352 -0.1742495298 0.6068958640 4291349717
-0.3049994111 -0.1738643348 0.6079066992 4291283924
-0.3055065274 -0.1734768748 0.6089174747 4290691787
-0.3055789769 -0.1728412956 0.6090618968 4291020491
-0.3056511879 -0.1722052693 0.6092057824 4290099389
-0.3061580360 -0.1718128473 0.6102160215 4288717991
-0.3062298894 -0.1711750031 0.6103591919 4288586405
-0.3063014746 -0.1705367267 0.6105019450 4288651426
-0.3063728511 -0.1698979884 0.6106442213 4288651426
-0.3068792820 -0.1694992334 0.6116535664 4288585887
-0.3065149188 -0.1686191857 0.6109272838 4288191129
-0.3065855801 -0.1679791212 0.6110681891 4286874756
-0.3066560030 -0.1673386246 0.6112085581 4285690482
-0.3067261875 -0.1666976660 0.6113484502 4285427048
-0.3063603640 -0.1658204049 0.6106193066 4285295462
-0.3059940934 -0.1649445295 0.6098892689 4284901218
-0.3056273758 -0.1640700400 0.6091583967 4285295976
-0.3048241735 -0.1629638076 0.6075574160 4286743429
-0.3035841286 -0.1616285592 0.6050858498 4288717219
-0.3027795255 -0.1605296880 0.6034821868 4289967288
-0.3024106920 -0.1596644521 0.6027470827 4290559425
-0.3020414412 -0.1588006169 0.6020110846 4290888137
-0.3021083176 -0.1581667513 0.6021443605 4291019723
-0.3013016284 -0.1570771635 0.6005365252 4289704633
-0.3013678193 -0.1564442962 0.6006684899 4284638572
-0.3014338017 -0.1558110118 0.6007999778 4283914849
-0.3010625839 -0.1549524218 0.6000600457 4283651677
-0.3006909192 -0.1540952474 0.5993192792 4283849569
-0.3003188372 -0.1532395035 0.5985776782 4289047216
-0.2999463379 -0.1523851901 0.5978352427 4290297029
-0.2991360724 -0.1513110995 0.5962202549 4290297029
-0.2992000282 -0.1506808698 0.5963477492 4290165186
-0.2992637455 -0.1500502378 0.5964747667 4290230979
-0.2993272543 -0.1494192034 0.5966013074 4290296772
-0.2993904948 -0.1487877667 0.5967273712 4290099393
-0.2998912930 -0.1483725309 0.5977255106 4290099650
-0.3003920317 -0.1479550451 0.5987235904 4290362822
-0.3008927107 -0.1475353241 0.5997214913 4290297799
-0.3013933599 -0.1471133530 0.6007193327 4288192423
-0.3018939197 -0.1466891319 0.6017169952 4288455595
-0.3019561470 -0.1460506916 0.6018410921 4289771455
-0.3020181358 -0.1454118490 0.6019646525 4289639869
-0.3016414642 -0.1445624977 0.6012138724 4289639869
-0.3012643456 -0.1437146068 0.6004622579 4289508283
-0.3013254404 -0.1430764496 0.6005839705 4289837248
-0.3005088568 -0.1420232505 0.5989564657 4290034627
-0.2992529273 -0.1407669634 0.5964531302 4290955729
-0.2971184254 -0.1391049474 0.5921988487 4291482071
-0.2980555594 -0.1388836354 0.5940666795 4291745243
-0.2963585258 -0.1374365836 0.5906841755 4291876061
-0.2942213714 -0.1357939243 0.5864245892 4291941854
-0.2925223410 -0.1343619674 0.5830382109 4291678425
-0.2912617028 -0.1331379116 0.5805255771 4287007122
-0.2900003195 -0.1319191009 0.5780113935 4280954166
-0.2891776264 -0.1309044808 0.5763716698 4282138440
-0.2883543670 -0.1298932433 0.5747308135 4282204233
-0.2875305414 -0.1288853884 0.5730887651 4281941061
-0.2875855863 -0.1282732040 0.5731984973 4282203463
-0.2872005701 -0.1274654567 0.5724311471 4281940291
-0.2872550488 -0.1268535107 0.5725396872 4282137672
-0.2873092890 -0.1262412071 0.5726478100 4281874500
-0.2873632908 -0.1256285608 0.5727554560 4282071879
-0.2878572047 -0.1252070218 0.5737398863 4282071879
-0.2883510292 -0.1247832626 0.5747241378 4282006086
-0.2879641354 -0.1239781380 0.5739530325 4281940293
-0.2875768542 -0.1231745481 0.5731810927 4281940293
-0.2876296341 -0.1225601956 0.5732862949 4281808707
-0.2872416079 -0.1217587590 0.5725129247 4281742914
-0.2868531942 -0.1209588647 0.5717387795 4281742914
-0.2873457968 -0.1205302477 0.5727205873 4281611328
-0.2878383100 -0.1200994179 0.5737022161 4281677121
-0.2878898680 -0.1194833890 0.5738049746 4281611328
-0.2883821130 -0.1190490574 0.5747861266 4281545535
-0.2893153131 -0.1187936068 0.5766460896 4281611328
-0.2906896770 -0.1187141836 0.5793853998 4281611328
-0.2911818922 -0.1182703674 0.5803664327 4281611328
-0.2916740179 -0.1178243384 0.5813472867 4281611328
-0.2926073670 -0.1175533906 0.5832076073 4281742659
-0.2935407758 -0.1172783300 0.5850680470 4281808452
-0.2944742441 -0.1169991493 0.5869285464 4281743428
-0.2954077423 -0.1167158633 0.5887891650 4282072393
-0.2963413000 -0.1164284497 0.5906498432 4282335565
-0.2977165878 -0.1163094938 0.5933910608 4282598737
-0.2995338738 -0.1163561344 0.5970131755 4282730834
-0.3017933667 -0.1165655181 0.6015166044 4283059799
-0.3040533364 -0.1167650744 0.6060210466 4289376695
-0.3106426895 -0.1919526309 0.6205282211 4289836995
-0.3089956641 -0.1902491003 0.6172381639 4290099393
-0.3077791631 -0.1888170242 0.6148082018 4289967807
-0.3065618277 -0.1873898059 0.6123764515 4289770174
-0.3062073588 -0.1864935160 0.6116684079 4289835967
-0.3054204583 -0.1853364110 0.6100965142 4290164932
