VERSION 0.7
FIELDS x y z rgba
SIZE 4 4 4 4
TYPE F F F U
COUNT 1 1 1 1
WIDTH 920
HEIGHT 1
VIEWPOINT 0.0 0.0 0.0 1.0 0.0 0.0 0.0
POINTS 920
DATA ascii
-0.2903919816 -0.1267862618 0.5200756788 4286939797
-0.2904492319 -0.1262333095 0.5201782584 4287005590
-0.2909832597 -0.1258863956 0.5211346745 4283255641
-0.2905630469 -0.1251264066 0.5203820467 4281676609
-0.2896651924 -0.1241633669 0.5187740922 4281545022
-0.2901986539 -0.1238145679 0.5197294354 4281610815
-0.2892998755 -0.1228554398 0.5181198120 4281347901
-0.2879230082 -0.1216978058 0.5156539083 4280229420
-0.2870229781 -0.1207462400 0.5140419602 4283519070
-0.2899453938 -0.1268435866 0.5203108191 4284505456
-0.2900025845 -0.1262903959 0.5204135180 4284176491
-0.2895832956 -0.1255304217 0.5196610689 4281413183
-0.2896399498 -0.1249774918 0.5197627544 4281478976
-0.2882669568 -0.1238102987 0.5172989368 4281610816
-0.2887994647 -0.1234631911 0.5182544589 4281479230
-0.2879019380 -0.1225054637 0.5166438818 4280032043
-0.2870038152 -0.1215510666 0.5150321722 4284177002
-0.2865891457 -0.1261982620 0.5153151155 4282729558
-0.2890799046 -0.1261399984 0.5197937489 4283124312
-0.2886611819 -0.1253806055 0.5190408826 4281084729
-0.2872907817 -0.1242114082 0.5165767670 4281808452
-0.2863953412 -0.1232520938 0.5149666071 4281545280
-0.2859751284 -0.1224999279 0.5142110586 4279966248
-0.2841267288 -0.1211405173 0.5108874440 4284440944
-0.2875694036 -0.1268832982 0.5181124210 4282334798
-0.2876264751 -0.1263327152 0.5182152390 4284506220
-0.2862591743 -0.1251591146 0.5157517791 4282006086
-0.2877399623 -0.1252305657 0.5184197426 4281348156
-0.2873214483 -0.1244732589 0.5176656842 4281019191
-0.2850025296 -0.1228981242 0.5134876966 4280427054
-0.2850579321 -0.1223513782 0.5135874748 4284703599
-0.2846378982 -0.1216013134 0.5128307343 4288651953
-0.2835010290 -0.1236330867 0.5118066072 4280821812
-0.2821341157 -0.1224710792 0.5093389750 4280295468
-0.2823691368 -0.1358507127 0.5128481984 4286612613
-0.2824295461 -0.1353098452 0.5129578710 4286348671
-0.2823940814 -0.1361373216 0.5139301419 4287204750
-0.2824545503 -0.1355953366 0.5140402317 4287006855
-0.2825147808 -0.1350530088 0.5141498446 4286809476
-0.2830442190 -0.1347337663 0.5151133537 4286480257
-0.2836930156 -0.1333216876 0.5162941217 4285427571
-0.2819485664 -0.1361978650 0.5141586661 4287532945
-0.2820090055 -0.1356556565 0.5142688751 4287270027
-0.2820692062 -0.1351131052 0.5143786669 4287072648
-0.2825978696 -0.1347937584 0.5153427124 4286414464
-0.2826577425 -0.1342496127 0.5154519081 4286480257
-0.2831862569 -0.1339268535 0.5164156556 4286217087
-0.2827768326 -0.1331602931 0.5156690478 4285559157
-0.2833051085 -0.1328350306 0.5166324377 4284177505
-0.2828950584 -0.1320695877 0.5158846974 4283519575
-0.2834230959 -0.1317418516 0.5168476105 4284177253
-0.2834817767 -0.1311947405 0.5169546008 4284177253
-0.2815628648 -0.1357159317 0.5144973397 4287138441
-0.2816829979 -0.1346300542 0.5147168636 4286282878
-0.2822107375 -0.1343093365 0.5156812072 4286414464
-0.2823297679 -0.1332195848 0.5158987045 4285756536
-0.2823889256 -0.1326741874 0.5160068274 4284243298
-0.2829751670 -0.1318005770 0.5170779824 4283848288
-0.2835023701 -0.1314705610 0.5180413723 4284111460
-0.2822127938 -0.1297266036 0.5156849623 4281612096
-0.2815226614 -0.1365452409 0.5154700875 4287467406
-0.2817033529 -0.1349135935 0.5158008933 4286611843
-0.2812958658 -0.1341461837 0.5150547624 4286480257
-0.2818227112 -0.1338240951 0.5160194635 4286611845
-0.2818820775 -0.1332788318 0.5161281228 4285953915
-0.2814736664 -0.1325130910 0.5153803229 4284243297
-0.2815324664 -0.1319680512 0.5154880285 4282927437
-0.2825266123 -0.1318592727 0.5173082948 4283322712
-0.2821173370 -0.1310943216 0.5165588856 4283520091
-0.2821756005 -0.1305473447 0.5166655779 4281941061
-0.2803614438 -0.1291376799 0.5133438706 4280756787
-0.2790144682 -0.1279496104 0.5108774900 4280690994
-0.2853870094 -0.1544093639 0.5236105323 4280887855
-0.2845276594 -0.1533644050 0.5220338702 4280756269
-0.2859852314 -0.1535670608 0.5247080922 4280558890
-0.2869796157 -0.1535160094 0.5265325308 4280427304
-0.2865830660 -0.1527196616 0.5258049369 4280427050
-0.2857222259 -0.1516784728 0.5242255926 4280295464
-0.2871804833 -0.1518671662 0.5269010663 4280229671
-0.2883079648 -0.1507002413 0.5289697051 4280163878
-0.2806085348 -0.1363791972 0.5148432255 4287664785
-0.2816012800 -0.1362876445 0.5166646838 4287796369
-0.2807289064 -0.1352931559 0.5150641203 4287335818
-0.2807887793 -0.1347496212 0.5151739717 4286743429
-0.2808484137 -0.1342057288 0.5152834058 4286480257
-0.2809078693 -0.1336614937 0.5153924823 4286677638
-0.2814337909 -0.1333380342 0.5163574219 4285756536
-0.2810260653 -0.1325719804 0.5156093836 4284045918
-0.2815517783 -0.1322460324 0.5165739059 4283190609
-0.2816104591 -0.1316995174 0.5166814923 4283650907
-0.2821359932 -0.1313701570 0.5176457763 4282335047
-0.2807927132 -0.1301722825 0.5151811838 4281085752
-0.2813178301 -0.1298422515 0.5161446333 4280822580
-0.2804407179 -0.1288657337 0.5145353675 4280559408
-0.2786279917 -0.1274647862 0.5112094879 4280362029
-0.2834750414 -0.1542671323 0.5211645961 4280362027
-0.2849299908 -0.1544768810 0.5238394737 4280624683
-0.2845347226 -0.1536813676 0.5231128335 4280756269
-0.2855273485 -0.1536342651 0.5249377489 4280756269
-0.2860573530 -0.1533351094 0.5259121060 4280756269
-0.2861243486 -0.1527865529 0.5260353088 4280821808
-0.2866542339 -0.1524839699 0.5270094872 4280624429
-0.2876473367 -0.1524246633 0.5288352966 4280558636
-0.2882439196 -0.1515632123 0.5299320817 4280361257
-0.2883102894 -0.1510091871 0.5300541520 4280295464
-0.2879128456 -0.1502128989 0.5293233991 4280229671
-0.2833571434 -0.1385750920 0.5209478736 4287730576
-0.2824875712 -0.1375727803 0.5193490982 4287796369
-0.2811518610 -0.1363479793 0.5168934464 4287598990
-0.2821432650 -0.1362524480 0.5187161565 4287204232
-0.2808064520 -0.1350332648 0.5162584186 4286875269
-0.2808661461 -0.1344882548 0.5163682103 4286480511
-0.2809256613 -0.1339429021 0.5164775848 4286940808
-0.2809849381 -0.1333972067 0.5165865421 4285822327
-0.2805778980 -0.1326308399 0.5158382654 4284243295
-0.2806366384 -0.1320853531 0.5159462690 4283848537
-0.2811614573 -0.1317580342 0.5169110894 4282466635
-0.2812198400 -0.1312109530 0.5170184374 4281216568
-0.2808115780 -0.1304468513 0.5162678361 4280822580
-0.2804028690 -0.1296842247 0.5155164599 4280954166
-0.2790604532 -0.1284933388 0.5130484700 4280625201
-0.3032291234 -0.1259949356 0.5574821830 4284638320
-0.3029286861 -0.1240137294 0.5569298267 4284375148
-0.2835487425 -0.1540425718 0.5223667026 4280295464
-0.2840777934 -0.1537485272 0.5233413577 4280295464
-0.2841448486 -0.1532032043 0.5234649181 4280163878
-0.2855980694 -0.1534021646 0.5261421204 4280558636
-0.2870517671 -0.1535954177 0.5288201571 4280690222
-0.2877148986 -0.1521835029 0.5300418139 4280690222
-0.2877814472 -0.1516296566 0.5301644206 4280690222
-0.2806414366 -0.1369533688 0.5170108080 4287533199
-0.2811666131 -0.1366341263 0.5179782510 4287598992
-0.2803570926 -0.1350930482 0.5164869428 4287006601
-0.2804167569 -0.1345478147 0.5165968537 4287138187
-0.2804762125 -0.1340022534 0.5167064071 4287138189
-0.2805354595 -0.1334563345 0.5168154836 4285493364
-0.2801291347 -0.1326896548 0.5160669684 4284309091
-0.2801878452 -0.1321439445 0.5161750913 4283059024
-0.2807118595 -0.1318165064 0.5171404481 4280888373
-0.2807702124 -0.1312692016 0.5172479749 4280098857
-0.2808283567 -0.1307215691 0.5173550844 4280493615
-0.2780914009 -0.1288783401 0.5123129487 4280559408
-0.2795462608 -0.1289803833 0.5149931312 4281085498
-0.2786714435 -0.1280063540 0.5133815408 4280624947
-0.3075435758 -0.1318261027 0.5665711164 4283716967
-0.3058486581 -0.1292214990 0.5634486675 4284111979
-0.3059063852 -0.1286197305 0.5635550022 4283190874
-0.3050852418 -0.1270255446 0.5620422959 4283979874
-0.3037380278 -0.1258428991 0.5595603585 4283519323
-0.3023900092 -0.1246654540 0.5570769906 4283256149
-0.3033821881 -0.1244535074 0.5589048266 4282664012
-0.3029696047 -0.1236641258 0.5581447482 4282533194
-0.3025566339 -0.1228762716 0.5573839545 4282270022
-0.3030801415 -0.1224685088 0.5583483577 4283454551
-0.3045405746 -0.1224352941 0.5610389113 4285033583
-0.3060013056 -0.1223962009 0.5637298822 4284901742
-0.3466170728 -0.1294187009 0.6385541558 4286415759
-0.3782644868 -0.2121265680 0.6982852817 4285428088
-0.3783564866 -0.2114021331 0.6984550953 4280756785
-0.3779878020 -0.2104208618 0.6977745295 4281019957
-0.2832139730 -0.1570806205 0.5228197575 4280888371
-0.2819680274 -0.1552329063 0.5205197334 4280625199
-0.2829571962 -0.1551971138 0.5223457217 4280427820
-0.2825637460 -0.1544017494 0.5216194391 4280164648
-0.2830919921 -0.1541097611 0.5225945711 4280163878
-0.2831590772 -0.1535655111 0.5227184296 4280295464
-0.2832259834 -0.1530208737 0.5228419304 4280098085
-0.2837540507 -0.1527241766 0.5238167048 4279966499
-0.2847436070 -0.1526727676 0.5256435275 4280361257
-0.2857334018 -0.1526174098 0.5274707079 4280427050
-0.2862617075 -0.1523124576 0.5284459591 4280558636
-0.2858663797 -0.1515157819 0.5277161598 4280624429
-0.2863945067 -0.1512082666 0.5286910534 4280690222
-0.2864605784 -0.1506556123 0.5288130641 4280690222
-0.2869885564 -0.1503446549 0.5297877192 4280756015
-0.2861298323 -0.1493079215 0.5282024741 4280756015
-0.2829742432 -0.1383749098 0.5223771930 4287664785
-0.2816432416 -0.1371463686 0.5199201703 4287204234
-0.2812395990 -0.1363729835 0.5191749930 4287006855
-0.2803713679 -0.1353769153 0.5175722241 4287072394
-0.2799667716 -0.1346073300 0.5168253779 4287598738
-0.2795618176 -0.1338392198 0.5160777569 4287072396
-0.2800853848 -0.1335154027 0.5170443058 4285230192
-0.2796797752 -0.1327484101 0.5162955523 4283782747
-0.2802031040 -0.1324221045 0.5172616243 4282269508
-0.2802616656 -0.1318749338 0.5173696876 4280362029
-0.2803199589 -0.1313274205 0.5174773932 4280493615
-0.2803780735 -0.1307795644 0.5175846219 4280362029
-0.2795058191 -0.1297994256 0.5159744024 4280493615
-0.2786329687 -0.1288225949 0.5143631101 4280888119
-0.2772942483 -0.1276348978 0.5118918419 4281151291
-0.2764201164 -0.1266655922 0.5102781057 4280032811
-0.3075180650 -0.1320854425 0.5676857233 4284309104
-0.3108440638 -0.1328764707 0.5738255978 4283519588
-0.3048346341 -0.1296823770 0.5627320409 4284046184
-0.3067601323 -0.1298723221 0.5662865043 4283125082
-0.3035490811 -0.1278902739 0.5603588223 4282927702
-0.3040732443 -0.1274874508 0.5613265038 4282203979
-0.3031958342 -0.1264977008 0.5597067475 4282335047
-0.3023177981 -0.1255113035 0.5580858588 4282532426
-0.3024297357 -0.1243171617 0.5582925081 4283059024
-0.3024853170 -0.1237195954 0.5583950877 4283651161
-0.3025957346 -0.1225234717 0.5585989952 4284243295
-0.3045216799 -0.1226787120 0.5621542931 4284967018
-0.3059802055 -0.1226387024 0.5648467541 4285690743
-0.3069710135 -0.1224062070 0.5666758418 4286217087
-0.3369245827 -0.1288219094 0.6219708323 4292599786
-0.3445988595 -0.1296357512 0.6361377239 4289245113
-0.3451260924 -0.1291262209 0.6371110082 4286547600
-0.3870918155 -0.2230919003 0.7160488367 4288257700
-0.3871881068 -0.2223516256 0.7162269950 4288652458
-0.3854486942 -0.2205605209 0.7130093575 4288389286
-0.3841670454 -0.2190375775 0.7106385827 4289113009
-0.3819662929 -0.2169977278 0.7065675855 4288784044
-0.3820601404 -0.2162658125 0.7067412138 4288652458
-0.3821537495 -0.2155333608 0.7069143653 4288060321
-0.3817876279 -0.2145421952 0.7062370777 4284046435
-0.3809614778 -0.2132949680 0.7047088742 4282335817
-0.3805942833 -0.2123071402 0.7040296197 4281151543
-0.3802265525 -0.2113205492 0.7033494115 4280822578
-0.3798583448 -0.2103351951 0.7026683092 4280888371
-0.2819723189 -0.1555542052 0.5215970874 4280888371
-0.2820398510 -0.1550117880 0.5217220187 4281019957
-0.2825674117 -0.1547209769 0.5226978660 4280690992
-0.2835552990 -0.1546791196 0.5245252848 4280492843
-0.2831621170 -0.1538826674 0.5237979889 4280492843
-0.2832290530 -0.1533369273 0.5239218473 4280558636
-0.2832958102 -0.1527908146 0.5240452886 4280361257
-0.2842838466 -0.1527394056 0.5258729458 4280558636
-0.2852720916 -0.1526840627 0.5277010798 4280427050
-0.2848776877 -0.1518874615 0.5269714594 4280427050
-0.2863271236 -0.1520717740 0.5296526551 4280492843
-0.2863934636 -0.1515183896 0.5297753811 4280492843
-0.2859983146 -0.1507215202 0.5290443897 4280492843
-0.2865255177 -0.1504104733 0.5300196409 4280558636
-0.2859747112 -0.1424804777 0.5290007591 4284638055
-0.2829205096 -0.1392143518 0.5233510733 4287270027
-0.2797397375 -0.1370742768 0.5174672008 4287335820
-0.2811897993 -0.1372068971 0.5201495886 4287006855
-0.2798601687 -0.1359829009 0.5176900029 4286677890
-0.2799200714 -0.1354366988 0.5178008080 4287072394
-0.2799797356 -0.1348901391 0.5179111958 4287861910
-0.2795755565 -0.1341208071 0.5171635151 4286677639
-0.2791709900 -0.1333529353 0.5164151192 4284769642
-0.2792298198 -0.1328071356 0.5165239573 4283190356
-0.2797523737 -0.1324807107 0.5174905658 4281611324
-0.2798108459 -0.1319333166 0.5175987482 4280690224
-0.2803332508 -0.1316034794 0.5185651183 4280690224
-0.2803914249 -0.1310544908 0.5186727047 4280690224
-0.2799850404 -0.1302891076 0.5179209709 4280756017
-0.2800426483 -0.1297403574 0.5180275440 4280821812
-0.2787065208 -0.1285485178 0.5155559778 4280624433
-0.2778342068 -0.1275751591 0.5139423609 4281348671
-0.3015490770 -0.1285482049 0.5578104854 4282729554
-0.2997416854 -0.1271616668 0.5544671416 4281808452
-0.2998547852 -0.1259770840 0.5546763539 4282335049
-0.2999109626 -0.1253842860 0.5547803044 4283124306
-0.2999669313 -0.1247911602 0.5548837781 4283716443
-0.3024114966 -0.1245650649 0.5594058037 4285427059
-0.3326423168 -0.1274458915 0.6153272390 4292599786
-0.3426429927 -0.1291648000 0.6338266730 4290034629
-0.3441055119 -0.1290088892 0.6365320683 4287271323
-0.3455682397 -0.1288470328 0.6392378807 4289771457
-0.3785846233 -0.2194178700 0.7017538548 4290494662
-0.3786791861 -0.2186927795 0.7019291520 4287336598
-0.3787734807 -0.2179671526 0.7021039724 4287994528
-0.3788675070 -0.2172409892 0.7022782564 4288915630
-0.3794195056 -0.2167760730 0.7033014894 4289507767
-0.3781380653 -0.2152651697 0.7009261847 4288586665
-0.3777726293 -0.2142791003 0.7002487779 4288980910
-0.3778652549 -0.2135534137 0.7004204392 4288388773
-0.3779576123 -0.2128272057 0.7005916238 4284046435
-0.3752968907 -0.2105560452 0.6956596971 4283914849
-0.3749291301 -0.2095775455 0.6949779987 4281875266
-0.3745608628 -0.2086002827 0.6942954063 4281151543
-0.3728147447 -0.2068600059 0.6910586953 4281019957
-0.2819745243 -0.1558756679 0.5226749778 4280954164
-0.2825014591 -0.1555851549 0.5236517787 4281348152
-0.2826362848 -0.1544952244 0.5239016414 4280953394
-0.2831630707 -0.1541999876 0.5248781443 4280756015
-0.2832300663 -0.1536531597 0.5250023007 4280821808
-0.2832968533 -0.1531059444 0.5251261592 4280887601
-0.2838234603 -0.1528059989 0.5261022449 4280953394
-0.2843500674 -0.1525038928 0.5270783901 4280624429
-0.2848766744 -0.1521996260 0.5280544758 4280427050
-0.2844826281 -0.1514032036 0.5273240805 4280427050
-0.2845486104 -0.1508522779 0.5274463892 4280427050
-0.2846143544 -0.1503009796 0.5275682807 4280427050
-0.2851405442 -0.1499916017 0.5285436511 4280492843
-0.2847452462 -0.1491972357 0.5278108716 4280492843
-0.2792879939 -0.1371346563 0.5176951885 4286809476
-0.2790054977 -0.1352721006 0.5171715617 4287072394
-0.2790650129 -0.1347262412 0.5172818899 4287598738
-0.2791834474 -0.1336334497 0.5175014138 4284374884
-0.2798227370 -0.1322105527 0.5186864138 4280559154
-0.2795335054 -0.1303467900 0.5181502700 4281151291
-0.2787778974 -0.1282720119 0.5167496204 4285362044
-0.2760508955 -0.1264487356 0.5116948485 4291020242
-0.2784270942 -0.1269637495 0.5160993934 4292928241
-0.3046110868 -0.1320028901 0.5646346807 4284835448
-0.3051348925 -0.1316014677 0.5656056404 4282401361
-0.3070543408 -0.1317969263 0.5691636205 4282335568
-0.3029250801 -0.1294006407 0.5615094900 4283124312
-0.3020518422 -0.1284055412 0.5598908067 4284571758
-0.2993159890 -0.1266260594 0.5548195839 4287203731
-0.3007691503 -0.1266213804 0.5575131774 4286940559
-0.3008255363 -0.1260255724 0.5576177239 4286940300
-0.3008817136 -0.1254294366 0.5577218533 4286808714
-0.3004717827 -0.1246397123 0.5569619536 4287137677
-0.3009932935 -0.1242361516 0.5579286814 4286874505
-0.3015147448 -0.1238304079 0.5588952303 4286940298
-0.3025022149 -0.1236129478 0.5607256293 4286742919
-0.3025574088 -0.1230123788 0.5608279109 4286348160
-0.3044774234 -0.1231659427 0.5643869638 4286150781
-0.3059315383 -0.1231240779 0.5670823455 4286742919
-0.3073858917 -0.1230763271 0.5697781444 4287006091
-0.3083739579 -0.1228368506 0.5716096759 4287072397
-0.3301252127 -0.1281017065 0.6119283438 4287402137
-0.3343857825 -0.1290663034 0.6198258400 4291612891
-0.3307068050 -0.1269652098 0.6130064130 4292665579
-0.3387058079 -0.1293386072 0.6278334856 4292337129
-0.3449553847 -0.1295937598 0.6394178867 4288192170
-0.3454810381 -0.1290797293 0.6403923035 4290626766
-0.3743118644 -0.2173890322 0.6952651739 4289310902
-0.3748625815 -0.2169352621 0.6962881088 4282271051
-0.3749560118 -0.2162155062 0.6964616776 4282467916
-0.3755065501 -0.2157580256 0.6974842548 4284507499
-0.3755995631 -0.2150363177 0.6976570487 4287730841
-0.3752347231 -0.2140530348 0.6969793439 4289046701
-0.3748693764 -0.2130709887 0.6963007450 4288980908
-0.3745035231 -0.2120901644 0.6956211925 4287533462
-0.3732213378 -0.2105937749 0.6932395697 4284967535
-0.3733123243 -0.2098747045 0.6934086084 4286020223
-0.3729449213 -0.2088984698 0.6927261353 4284572777
-0.3725770116 -0.2079234868 0.6920427680 4282993745
-0.2819067538 -0.1567414999 0.5236274004 4282598987
-0.2819746137 -0.1561972946 0.5237534642 4281875264
-0.2820422947 -0.1556527168 0.5238791704 4281479992
-0.2821097374 -0.1551077366 0.5240044594 4281282613
-0.2826358378 -0.1548136920 0.5249816179 4281348406
-0.2827029824 -0.1542670429 0.5251063704 4281151027
-0.2827699482 -0.1537200063 0.5252307057 4280887855
-0.2832958400 -0.1534212530 0.5262075663 4280887855
-0.2829032242 -0.1526247859 0.5254783034 4281348152
-0.2829695642 -0.1520765871 0.5256015062 4281150773
-0.2839546204 -0.1520199776 0.5274312496 4280953394
-0.2840207517 -0.1514692307 0.5275540352 4280887601
-0.2836269736 -0.1506738961 0.5268226266 4280756015
-0.2836925983 -0.1501232684 0.5269445181 4280624429
-0.2832980752 -0.1493298560 0.5262117386 4280492843
-0.2852031887 -0.1497454643 0.5297503471 4280492843
-0.2838881314 -0.1484691203 0.5273077488 4280492843
-0.2844130993 -0.1481567174 0.5282828212 4280427050
-0.2878948748 -0.1475938559 0.5347500443 4280427050
-0.2860977054 -0.1419490129 0.5314118862 4287138187
-0.2861599624 -0.1413893402 0.5315275192 4287006855
-0.2816055417 -0.1385578662 0.5230678916 4286677890
-0.2793576121 -0.1368753016 0.5188925266 4287072648
-0.2789559066 -0.1361027807 0.5181463361 4286875269
-0.2790157199 -0.1355561316 0.5182574391 4286875015
-0.2786132395 -0.1347856224 0.5175098777 4287006601
-0.2791346610 -0.1344618052 0.5184783936 4285690744
-0.2782693505 -0.1334706843 0.5168710947 4284111712
-0.2783280909 -0.1329244673 0.5169802308 4282335047
-0.2797739208 -0.1330375820 0.5196657777 4281084980
-0.2793700099 -0.1322689503 0.5189155340 4280624947
-0.2794283032 -0.1317198724 0.5190237761 4280888119
-0.2799490988 -0.1313876361 0.5199911594 4280953912
-0.2795442045 -0.1306207031 0.5192391276 4281151291
-0.2791389227 -0.1298552454 0.5184863210 4280624948
-0.2796592712 -0.1295201629 0.5194528103 4281348671
-0.2783271372 -0.1283288002 0.5169784427 4287664799
-0.2769942284 -0.1271425933 0.5145026445 4290888656
-0.2798301876 -0.1278668046 0.5197702646 4292402154
-0.3027263582 -0.1314567924 0.5622987151 4282137935
-0.3055710793 -0.1320614666 0.5675826669 4283190877
-0.3042362630 -0.1308567226 0.5651033521 4285427839
-0.3010424078 -0.1288617104 0.5591709018 4287861408
-0.2997057140 -0.1276710182 0.5566880703 4288453545
-0.2997624874 -0.1270765662 0.5567935109 4288914349
-0.2993541658 -0.1262856722 0.5560351014 4289309107
-0.2994103432 -0.1256914735 0.5561394691 4288716711
-0.2999313176 -0.1252911836 0.5571070910 4288124574
-0.2999871075 -0.1246953830 0.5572107434 4287795609
-0.3000426590 -0.1240992546 0.5573139191 4286479749
-0.3010284901 -0.1238857508 0.5591450334 4287071884
-0.3024797738 -0.1238587648 0.5618407130 4287137677
-0.3034658730 -0.1236362755 0.5636723638 4287598227
-0.3049175739 -0.1235984489 0.5663688779 4287532434
-0.3068351746 -0.1237425134 0.5699306726 4287006603
-0.3078217804 -0.1235051304 0.5717632771 4285361778
-0.3092742562 -0.1234496310 0.5744611621 4284045919
-0.3125904202 -0.1241281852 0.5806207061 4283519575
-0.3135777414 -0.1238731071 0.5824546814 4284835951
-0.3239425123 -0.1266304404 0.6017067432 4288652204
-0.3267962933 -0.1270715594 0.6070074439 4290494408
-0.3319820762 -0.1284028739 0.6166397929 4292468970
-0.3353039920 -0.1289957166 0.6228100657 4292666349
-0.3381603062 -0.1293967068 0.6281155348 4292534763
-0.3419503272 -0.1301412433 0.6351552606 4292600556
-0.3410754502 -0.1291043907 0.6335302591 4291679199
-0.3425333202 -0.1289493144 0.6362381577 4289836995
-0.3439913690 -0.1287882924 0.6389464140 4290955731
-0.3718754053 -0.2164204866 0.6921675205 4287863458
-0.3724248409 -0.2159700692 0.6931902170 4281218365
-0.3725177348 -0.2152535766 0.6933631301 4280954677
-0.3726103902 -0.2145365328 0.6935355663 4279967782
-0.3727027774 -0.2138189673 0.6937075257 4281677885
-0.3727948964 -0.2131008655 0.6938789487 4285033328
-0.3710543513 -0.2075018138 0.6906393170 4286809739
-0.2819047272 -0.1570643932 0.5247061253 4286217088
-0.2819726467 -0.1565191001 0.5248325467 4285295986
-0.2820403576 -0.1559734344 0.5249586105 4284374884
-0.2821078897 -0.1554273665 0.5250842571 4283453782
-0.2826332748 -0.1551323384 0.5260621309 4282072129
-0.2822422981 -0.1543340534 0.5253344774 4281479992
-0.2823092043 -0.1537868083 0.5254589915 4281151027
-0.2828342915 -0.1534879506 0.5264363289 4281216820
-0.2824423909 -0.1526911706 0.5257068872 4281150773
-0.2834258974 -0.1526367366 0.5275374651 4281282359
-0.2834922075 -0.1520861685 0.5276608467 4281348152
-0.2835582793 -0.1515352130 0.5277838707 4281348152
-0.2831652164 -0.1507395506 0.5270522237 4281216566
-0.2832307518 -0.1501887292 0.5271742344 4280953394
-0.2828369439 -0.1493949890 0.5264412761 4280690222
-0.2838204801 -0.1493275464 0.5282719135 4280624429
-0.2838855088 -0.1487746835 0.5283929706 4280558636
-0.2848692834 -0.1487011164 0.5302239656 4280492843
-0.2863127887 -0.1488625258 0.5329108238 4280492843
-0.2872970700 -0.1487801373 0.5347428322 4280361257
-0.2873619795 -0.1482194811 0.5348635912 4280361257
-0.2874266505 -0.1476584375 0.5349839926 4280427050
-0.2870311439 -0.1468616724 0.5342478752 4280361257
-0.2875553966 -0.1465352327 0.5352236032 4280558636
-0.2859682441 -0.1433608830 0.5322694778 4287006603
-0.2860310078 -0.1428008229 0.5323863029 4286940808
-0.2847114503 -0.1415532529 0.5299302340 4286875015
-0.2856950760 -0.1414514631 0.5317610502 4286743683
-0.2806871831 -0.1383915246 0.5224399567 4286875269
-0.2793648839 -0.1371618360 0.5199787617 4286875269
-0.2794250548 -0.1366135180 0.5200907588 4286743683
-0.2785626352 -0.1356157959 0.5184854865 4286743429
-0.2786221802 -0.1350685805 0.5185963511 4286546050
-0.2791428864 -0.1347437352 0.5195655823 4285493365
-0.2782791257 -0.1337513030 0.5179578066 4283782747
-0.2783379257 -0.1332039535 0.5180673003 4281808703
-0.2788581848 -0.1328762621 0.5190356374 4280953394
-0.2798402309 -0.1327654868 0.5208634734 4280559154
-0.2794367969 -0.1319961995 0.5201125741 4280953912
-0.2804188728 -0.1318801790 0.5219404697 4281151805
-0.2795528173 -0.1308947504 0.5203285217 4281546563
-0.2796105146 -0.1303435266 0.5204359293 4280428082
-0.2801302373 -0.1300064921 0.5214032531 4285230971
-0.2788005173 -0.1288128048 0.5189282894 4290362571
-0.2797822356 -0.1286877990 0.5207555294 4292731119
-0.2789139450 -0.1277116239 0.5191394091 4292796912
-0.3069308698 -0.1329233646 0.5712869763 4286941078
-0.3004975915 -0.1295158565 0.5593128204 4289243833
-0.2986997962 -0.1281232685 0.5559666157 4289506233
-0.2992205918 -0.1277278662 0.5569359064 4286742927
-0.3003183603 -0.1263332814 0.5589792132 4289177519
-0.3008947968 -0.1253312528 0.5600521564 4287400849
-0.3018794358 -0.1251170784 0.5618848205 4287532435
-0.3037931621 -0.1252819896 0.5654468536 4287598228
-0.3057073653 -0.1254391819 0.5690096617 4286808712
-0.3043691814 -0.1242606416 0.5665189624 4285295726
-0.3053540587 -0.1240312606 0.5683521032 4284637796
-0.3077336252 -0.1243614033 0.5727811456 4284374881
-0.3091838956 -0.1243080869 0.5754805207 4285032811
-0.3101693690 -0.1240628660 0.5773147941 4286809224
-0.3120851517 -0.1241837442 0.5808805823 4288848807
-0.3158620596 -0.1250334233 0.5879105330 4290888905
-0.3196400404 -0.1258679181 0.5949424505 4292270558
-0.3294686377 -0.1290568709 0.6132363081 4292665831
-0.3318534493 -0.1293047518 0.6176751256 4292665831
-0.3323767483 -0.1288212836 0.6186491251 4292929003
-0.3352279067 -0.1292330623 0.6239559650 4292797417
-0.3357513845 -0.1287405342 0.6249303222 4292403175
-0.3381377459 -0.1289562732 0.6293720007 4292271589
-0.3405246437 -0.1291623563 0.6338146925 4291942626
-0.3424460888 -0.1291829944 0.6373910904 4291482075
-0.3434359431 -0.1288461536 0.6392334700 4292007649
-0.3694441319 -0.2154509574 0.6890667081 4286810770
-0.3695366383 -0.2147391289 0.6892392635 4282863190
-0.3700846732 -0.2142906487 0.6902614236 4282928467
-0.3701767921 -0.2135768682 0.6904332638 4281744193
-0.3702686429 -0.2128625512 0.6906045675 4281217334
-0.3703602254 -0.2121477127 0.6907753944 4280954162
-0.3704515696 -0.2114323378 0.6909457445 4283125331
-0.3700862825 -0.2104569227 0.6902644634 4284704363
-0.3701769710 -0.2097413838 0.6904336214 4285164914
-0.3698108494 -0.2087675631 0.6897507310 4288059806
-0.3689875603 -0.2075381428 0.6882151365 4287796634
-0.3686203361 -0.2065677047 0.6875302196 4287336083
-0.3682526350 -0.2055985183 0.6868444085 4287861913
-0.3683414459 -0.2048847824 0.6870100498 4287467155
-0.2815792561 -0.1560409963 0.5251860023 4286940811
-0.2821039259 -0.1557471454 0.5261645913 4285230193
-0.2821713090 -0.1551996022 0.5262902379 4281479992
-0.2822384536 -0.1546516567 0.5264155269 4280295718
-0.2827629745 -0.1543530822 0.5273938179 4280229925
-0.2823721766 -0.1535546035 0.5266649127 4280427304
-0.2819809616 -0.1527574956 0.5259352326 4280361257
-0.2820471823 -0.1522088945 0.5260587931 4280624429
-0.2825711966 -0.1519061029 0.5270361304 4280953394
-0.2826370895 -0.1513558179 0.5271590948 4281084980
-0.2827028036 -0.1508051604 0.5272816420 4281150773
-0.2823100388 -0.1500106007 0.5265490413 4281150773
-0.2819168270 -0.1492174417 0.5258156061 4281084980
-0.2824401855 -0.1489091665 0.5267918110 4281019187
-0.2829635739 -0.1485987157 0.5277679563 4280756015
-0.2858456075 -0.1489274949 0.5331434011 4280756015
-0.2859104872 -0.1483687907 0.5332643986 4280690222
-0.2859751284 -0.1478097141 0.5333849788 4280690222
-0.2860395610 -0.1472502649 0.5335051417 4280624429
-0.2861037850 -0.1466904283 0.5336248875 4280492843
-0.2866271138 -0.1463647634 0.5346010327 4280624429
-0.2866910100 -0.1458032727 0.5347201824 4279900960
-0.2858355939 -0.1447758973 0.5331246853 4279769374
-0.2859618664 -0.1436546594 0.5333602428 4287072396
-0.2860246897 -0.1430934817 0.5334774256 4286809222
-0.2847074270 -0.1418444812 0.5310205221 4286809222
-0.2806290984 -0.1392310560 0.5234138370 4287072648
-0.2783893049 -0.1375429034 0.5192363262 4286941062
-0.2775290608 -0.1365427524 0.5176318288 4286743429
-0.2785095870 -0.1364480108 0.5194606185 4286546050
-0.2781089544 -0.1356754005 0.5187134147 4286743431
-0.2772473693 -0.1346805394 0.5171064138 4286348673
-0.2782277465 -0.1345802099 0.5189349651 4285230193
-0.2792082727 -0.1344759017 0.5207638144 4283190610
-0.2792673409 -0.1339256018 0.5208739638 4281413945
-0.2797870934 -0.1335950643 0.5218433738 4281084980
-0.2798458040 -0.1330431700 0.5219529271 4280888119
-0.2803654373 -0.1327092052 0.5229220986 4280953912
-0.2795013487 -0.1317209750 0.5213104486 4281414464
-0.2795593143 -0.1311689615 0.5214185119 4281348671
-0.2810012996 -0.1312632114 0.5241080523 4281085499
-0.3122682273 -0.1374563128 0.5824253559 4283453281
-0.3090900779 -0.1354168206 0.5764977336 4282926937
-0.3123896420 -0.1362150311 0.5826518536 4285098106
-0.3045808673 -0.1321788877 0.5680873394 4290493130
-0.3014562726 -0.1295734942 0.5622595549 4287532185
-0.2987348139 -0.1277846694 0.5571836233 4283189847
-0.2987914979 -0.1271897256 0.5572893620 4281413434
-0.2988479435 -0.1265944541 0.5573946238 4285689979
-0.2989041209 -0.1259988248 0.5574994087 4289177260
-0.2994235754 -0.1255972981 0.5584682822 4288256158
-0.3008701503 -0.1255805939 0.5611663461 4287664020
-0.3013896346 -0.1251728386 0.5621352792 4285953402
-0.3028365672 -0.1251462102 0.5648339987 4284308577
-0.3066030145 -0.1260672957 0.5718589425 4283848026
-0.3085148036 -0.1262140423 0.5754247308 4285098347
-0.3062509000 -0.1246532276 0.5712022185 4286940551
-0.3109473884 -0.1259204596 0.5799618363 4289177770
-0.3105392754 -0.1251116693 0.5792006850 4291217353
-0.3119878173 -0.1250487268 0.5819023848 4292072662
-0.3129722476 -0.1247947216 0.5837385058 4292401627
-0.3158144951 -0.1252735704 0.5890396833 4292467937
-0.3195864856 -0.1261075139 0.5960749984 4292467937
-0.3228949010 -0.1267438680 0.6022456884 4292467939
-0.3262042105 -0.1273668557 0.6084180474 4292731111
-0.3290496171 -0.1277959645 0.6137251258 4292534245
-0.3346847594 -0.1292909682 0.6242355108 4292534245
-0.3375320435 -0.1296914071 0.6295460463 4292599784
-0.3408449888 -0.1302580237 0.6357252002 4292797163
-0.3399730623 -0.1292202771 0.6340989470 4292140005
-0.3414263129 -0.1290650964 0.6368094683 4291350489
-0.3414840400 -0.1283792555 0.6369171143 4292403177
-0.3669258058 -0.2151884884 0.6857903004 4292008419
-0.3670180440 -0.2144804448 0.6859627366 4286613391
-0.3675649464 -0.2140367478 0.6869848967 4284705394
-0.3676567972 -0.2133267522 0.6871565580 4283388764
-0.3677483797 -0.2126162350 0.6873277426 4283257178
-0.3678397238 -0.2119051814 0.6874984503 4283059538
-0.3679307997 -0.2111935914 0.6876686811 4282401608
-0.3680216074 -0.2104814798 0.6878383756 4282993745
-0.3676565588 -0.2095092237 0.6871561408 4284704363
-0.3677467406 -0.2087969333 0.6873246431 4285164914
-0.3673808277 -0.2078262866 0.6866407990 4287467669
-0.3665585220 -0.2065999061 0.6851038933 4287138704
-0.3661915362 -0.2056326270 0.6844179630 4287138704
-0.3658240736 -0.2046665996 0.6837311983 4287335569
-0.3659123778 -0.2039561421 0.6838961840 4287335569
-0.2811175287 -0.1561085135 0.5254132152 4287335569
-0.2811849415 -0.1555620432 0.5255392194 4285559158
-0.2817087173 -0.1552668214 0.5265182257 4280690476
-0.2817758322 -0.1547186673 0.5266436338 4279571995
-0.2819759250 -0.1530718803 0.5270176530 4279834913
-0.2815850973 -0.1522749662 0.5262871385 4280098085
-0.2816510797 -0.1517257690 0.5264104605 4280361257
-0.2812595069 -0.1509307623 0.5256786346 4280558636
-0.2813249528 -0.1503816843 0.5258009434 4280756015
-0.2809326351 -0.1495885849 0.5250676870 4281019187
-0.2809975743 -0.1490396410 0.5251890421 4281150773
-0.2810622752 -0.1484903097 0.5253100395 4281019187
-0.2815846503 -0.1481815428 0.5262863636 4281019187
-0.2825649977 -0.1481106579 0.5281186104 4280887601
-0.2853778303 -0.1489924192 0.5333757997 4280887601
-0.2837207615 -0.1422355175 0.5302788019 4286743429
-0.2833237350 -0.1414481252 0.5295366645 4287006601
-0.2755775154 -0.1370085925 0.5150588751 4287204234
-0.2770156264 -0.1371483207 0.5177467465 4287006855
-0.2775351107 -0.1368291825 0.5187177062 4286677636
-0.2762162089 -0.1356053501 0.5162526369 4286348671
-0.2771949768 -0.1355102360 0.5180819631 4286875017
-0.2772543430 -0.1349635124 0.5181928873 4286480259
-0.2763937116 -0.1339706033 0.5165843368 4285098607
-0.2773724198 -0.1338689923 0.5184136033 4282664266
-0.2778912187 -0.1335423142 0.5193831921 4281216566
-0.2779498100 -0.1329932809 0.5194927454 4281282359
-0.2798492908 -0.1333210021 0.5230429173 4280756533
-0.2803682089 -0.1329860091 0.5240128040 4281085498
-0.2804266214 -0.1324313730 0.5241219401 4281677636
-0.2804848254 -0.1318764091 0.5242307186 4281282878
-0.2805428207 -0.1313210875 0.5243391395 4283651428
-0.2810613215 -0.1309801489 0.5253082514 4289112247
-0.2806580961 -0.1302094162 0.5245546103 4292138725
-0.2802544832 -0.1294401735 0.5238001943 4293059827
-0.2803114951 -0.1288844049 0.5239067674 4292599276
-0.2803682685 -0.1283282936 0.5240128636 4292401897
-0.2808860540 -0.1279820055 0.5249806046 4291941094
-0.2841717005 -0.1288889498 0.5311215520 4284177520
-0.3145919740 -0.1381133795 0.5879775286 4284308588
-0.3132669032 -0.1368811131 0.5855009556 4285558655
-0.3059921861 -0.1324315965 0.5719044209 4291874781
-0.3018900156 -0.1300292909 0.5642373562 4289900733
-0.2987107933 -0.1280396432 0.5582953691 4283913570
-0.2992300093 -0.1276408136 0.5592657924 4281742653
-0.2983614206 -0.1266507208 0.5576424003 4282729548
-0.2988802493 -0.1262502968 0.5586121082 4287006091
-0.2993989885 -0.1258476824 0.5595816374 4286084989
-0.3003804982 -0.1256364733 0.5614160895 4284308577
-0.3004362881 -0.1250359118 0.5615203381 4284703335
-0.3018808067 -0.1250102073 0.5642201900 4286611073
-0.3033256233 -0.1249786243 0.5669205785 4288848035
-0.3043075204 -0.1247512624 0.5687556863 4291085256
-0.3080690503 -0.1256535798 0.5757861137 4292335323
-0.3081249297 -0.1250365078 0.5758905411 4292401627
-0.3152449429 -0.1259618700 0.5891979337 4292599008
-0.3185467720 -0.1266196817 0.5953691602 4292664548
-0.3158206046 -0.1248802170 0.5902739167 4292796134
-0.3219062090 -0.1266180724 0.6016479731 4292336355
-0.3252100945 -0.1272422969 0.6078230143 4292731113
-0.3312988877 -0.1289366186 0.6192030311 4292665320
-0.3318204880 -0.1284505576 0.6201779246 4292731113
-0.3369835913 -0.1297494620 0.6298278570 4292402405
-0.3388984799 -0.1297829896 0.6334068179 4292336612
-0.3398850858 -0.1294550002 0.6352507472 4292139235
-0.3394784927 -0.1285951734 0.6344908476 4291810270
-0.3404648900 -0.1282618195 0.6363344789 4292666349
-0.3645054698 -0.2142137438 0.6826838255 4291678682
-0.3645972013 -0.2135089338 0.6828556061 4286415494
-0.3651428223 -0.2130686194 0.6838775277 4286218115
-0.3656884134 -0.2126260102 0.6848993897 4285757304
-0.3657795787 -0.2119178623 0.6850701571 4284836202
-0.3658705056 -0.2112091929 0.6852404475 4284178274
-0.3659611642 -0.2104999870 0.6854102015 4283059793
-0.3655968308 -0.2095296532 0.6847279072 4283849054
-0.3656868637 -0.2088202685 0.6848964691 4284178019
-0.3653216958 -0.2078515291 0.6842125654 4284309605
-0.3649560213 -0.2068840414 0.6835277081 4285757051
-0.3645898700 -0.2059177905 0.6828418970 4286283650
-0.3642232418 -0.2049527913 0.6821552515 4287073166
-0.3638561070 -0.2039890587 0.6814676523 4287401876
-0.3639440238 -0.2032809854 0.6816322803 4287401876
-0.3640316427 -0.2025724053 0.6817964315 4287138704
-0.2811782658 -0.1558819413 0.5266199708 4284704363
-0.2817013562 -0.1555857360 0.5275996923 4279835683
-0.2822244763 -0.1552873552 0.5285794139 4279375132
-0.2822915316 -0.1547368318 0.5287050009 4279375130
-0.2809899449 -0.1534386575 0.5262672901 4279638302
-0.2815125287 -0.1531382203 0.5272460580 4279900706
-0.2806660533 -0.1520936936 0.5256606340 4280098085
-0.2811883390 -0.1517915875 0.5266388059 4280032292
-0.2807974517 -0.1509962678 0.5259067416 4280098085
-0.2808628678 -0.1504469812 0.5260292292 4280361257
-0.2809280455 -0.1498973072 0.5261513591 4280427050
-0.2805361450 -0.1491044164 0.5254173279 4280362027
-0.2810578048 -0.1487968117 0.5263943672 4280690992
-0.2815794647 -0.1484870464 0.5273714066 4280427820
-0.2816439271 -0.1479349583 0.5274921060 4280427820
-0.2835374475 -0.1483395249 0.5310385227 4281085750
-0.2849741876 -0.1484981626 0.5337293744 4281217336
-0.2852947712 -0.1456968337 0.5343297720 4279834907
-0.2839841247 -0.1444365531 0.5318750739 4283650901
-0.2845052183 -0.1441095471 0.5328510404 4286282367
-0.2841098011 -0.1433180422 0.5321104527 4286545539
-0.2841723263 -0.1427582353 0.5322275758 4286545539
-0.2833177447 -0.1417393535 0.5306270123 4286742918
-0.2824625373 -0.1407237351 0.5290252566 4286677638
-0.2761029899 -0.1369808316 0.5171144605 4286611845
-0.2752453685 -0.1359825879 0.5155082345 4286677638
-0.2757636607 -0.1356647909 0.5164788961 4286677638
-0.2758229673 -0.1351200044 0.5165900588 4286875018
-0.2758820951 -0.1345748752 0.5167007446 4286019709
-0.2764001489 -0.1342524141 0.5176709890 4284769388
-0.2782958448 -0.1345940828 0.5212215185 4282335047
-0.2769768238 -0.1333797723 0.5187510848 4281546299
-0.2784135640 -0.1334922910 0.5214419365 4281743678
-0.2798506618 -0.1335989833 0.5241335034 4280559414
-0.2799092531 -0.1330444962 0.5242432356 4281085758
-0.2804273367 -0.1327071935 0.5252135992 4281612102
-0.2804856002 -0.1321510971 0.5253226757 4281414723
-0.2805436254 -0.1315946430 0.5254313946 4286743958
-0.2806014419 -0.1310378462 0.5255396366 4290033608
-0.2811191380 -0.1306946129 0.5265092254 4292270311
-0.2811765969 -0.1301362216 0.5266168118 4292599276
-0.2816941142 -0.1297895610 0.5275861025 4292796655
-0.2812908590 -0.1290183961 0.5268307924 4292862448
-0.2827290595 -0.1290897131 0.5295244455 4291941092
-0.2837070227 -0.1289458722 0.5313560963 4284967034
-0.2869884074 -0.1298400760 0.5375018120 4285822343
-0.3057166636 -0.1351322830 0.5725780129 4283914348
-0.3094659448 -0.1361455470 0.5796000361 4284044903
-0.3150615692 -0.1379516423 0.5900801420 4285097591
-0.3035880029 -0.1322961450 0.5685912967 4291742937
-0.3124144077 -0.1354923546 0.5851222873 4292993004
-0.2981660366 -0.1286924481 0.5584364533 4291940829
-0.2996079028 -0.1286913157 0.5611369014 4287795870
-0.2987414002 -0.1276974678 0.5595140457 4283256151
-0.2987979352 -0.1270998567 0.5596199036 4281808705
-0.2997780144 -0.1268929392 0.5614555478 4283322196
-0.3007582128 -0.1266819984 0.5632913709 4285822330
-0.3012764454 -0.1262733340 0.5642619729 4287598227
-0.3013324440 -0.1256697476 0.5643668175 4290032568
-0.3013881743 -0.1250658184 0.5644711852 4291743440
-0.3028306663 -0.1250342429 0.5671728253 4292598749
-0.3042734265 -0.1249967664 0.5698750019 4292402146
-0.3057164252 -0.1249533817 0.5725775957 4292467939
-0.3085474670 -0.1254684329 0.5778798461 4292204767
-0.3095285594 -0.1252232790 0.5797173381 4292138974
-0.3114352226 -0.1253465712 0.5832883716 4292336355
-0.3128794730 -0.1252767593 0.5859932899 4292270562
-0.3180273473 -0.1266761720 0.5956347585 4292336353
-0.3208617270 -0.1271374673 0.6009432673 4292402146
-0.3218444586 -0.1268571317 0.6027838588 4292336866
-0.3242167830 -0.1271175295 0.6072269678 4292468452
-0.3275161386 -0.1277295798 0.6134063601 4292533991
-0.3335962892 -0.1294066161 0.6247939467 4292533991
-0.3359709978 -0.1296286732 0.6292415261 4292468200
-0.3378827274 -0.1296631694 0.6328220367 4292468200
-0.3403739631 -0.1284943074 0.6374878883 4292599786
-0.3625435531 -0.2135048807 0.6804247499 4290757580
-0.3626348674 -0.2128024548 0.6805961132 4286152322
-0.3631793261 -0.2123646289 0.6816179752 4286547080
-0.3637237549 -0.2119245231 0.6826397777 4286875785
-0.3638145030 -0.2112187445 0.6828101277 4285954683
-0.3639050126 -0.2105124593 0.6829800010 4285757304
-0.3635413945 -0.2095440328 0.6822975278 4284967788
-0.3636312783 -0.2088375688 0.6824662089 4284573032
-0.3632668257 -0.2078707516 0.6817821860 4283915102
-0.3633560538 -0.2071641237 0.6819496751 4283191379
-0.3629907370 -0.2061989009 0.6812640429 4283454551
-0.3621705174 -0.2049777508 0.6797246933 4283651930
-0.3622586727 -0.2042722255 0.6798900962 4284178274
-0.3618918955 -0.2033107728 0.6792017221 4285494134
-0.3619793952 -0.2026050985 0.6793659329 4286152064
-0.3620666265 -0.2018989176 0.6795296669 4286480774
-0.3621536195 -0.2011922300 0.6796929240 4283717468
-0.2835122049 -0.1569122821 0.5320980549 4279243546
-0.2840350568 -0.1566093713 0.5330793262 4279375132
-0.2831920385 -0.1555540115 0.5314971805 4279638302
-0.2846253514 -0.1557478160 0.5341872573 4279769888
-0.2815040648 -0.1534528136 0.5283291340 4280229671
-0.2838484347 -0.1541388631 0.5327290893 4280361257
-0.2807249725 -0.1518573463 0.5268669724 4280295464
-0.2803348303 -0.1510617137 0.5261347294 4280295464
-0.2799442410 -0.1502674818 0.5254016519 4280492843
-0.2800092697 -0.1497185081 0.5255237222 4280492843
-0.2800740898 -0.1491691321 0.5256453753 4280427050
-0.2801387012 -0.1486193836 0.5257666707 4280492843
-0.2806594670 -0.1483104080 0.5267440677 4279835683
-0.2826141417 -0.1481646746 0.5304125547 4281612094
-0.2835917771 -0.1480858475 0.5322474241 4281677887
-0.2824763954 -0.1451472640 0.5301541090 4280230441
-0.2834539115 -0.1450584680 0.5319886804 4280821548
-0.2826024592 -0.1440334320 0.5303906202 4284966507
-0.2831225395 -0.1437081099 0.5313667655 4286742919
-0.2831851244 -0.1431493610 0.5314841866 4286479747
-0.2827898860 -0.1423598826 0.5307424664 4286677639
-0.2814788818 -0.1411129534 0.5282819271 4286809225
-0.2815404236 -0.1405567080 0.5283973813 4286809225
-0.2751912773 -0.1368131042 0.5164812803 4286940811
-0.2752510011 -0.1362688243 0.5165933371 4287137936
-0.2753104866 -0.1357241869 0.5167050362 4286545799
-0.2758279443 -0.1354041100 0.5176762342 4286480008
-0.2758871317 -0.1348578632 0.5177872777 4285822078
-0.2764044702 -0.1345343590 0.5187581778 4284704367
-0.2782972157 -0.1348752975 0.5223105550 4281809475
-0.2793323696 -0.1342120171 0.5242533088 4282467405
-0.2793911397 -0.1336576492 0.5243636370 4281810251
-0.2799085677 -0.1333214939 0.5253347158 4281678665
-0.2799669802 -0.1327655166 0.5254443884 4281612102
-0.2806001902 -0.1313104182 0.5266327858 4291481052
-0.2806578279 -0.1307521462 0.5267409682 4292073189
-0.2811746895 -0.1304066032 0.5277110338 4292204775
-0.2812319696 -0.1298467368 0.5278185010 4292665326
-0.2822082937 -0.1297090203 0.5296508670 4292731119
-0.2841041684 -0.1299879849 0.5332090855 4292072678
-0.2850809693 -0.1298404187 0.5350423455 4284901241
-0.2878974974 -0.1305228770 0.5403284431 4284506483
-0.3060762584 -0.1362114996 0.5744464993 4289308858
-0.3056759536 -0.1353959292 0.5736951828 4285361278
-0.3089587688 -0.1362057626 0.5798563957 4283979623
-0.3122426271 -0.1370023489 0.5860195160 4284703346
-0.3127636909 -0.1365787834 0.5869975090 4291348180
-0.3128240108 -0.1359528005 0.5871106982 4292861419
-0.3101192415 -0.1341306269 0.5820344090 4292796138
-0.2991171777 -0.1287483573 0.5613855720 4290296004
-0.3005570173 -0.1287413538 0.5640878677 4284309609
-0.2996917963 -0.1277458072 0.5624640584 4281019959
-0.3021107614 -0.1275169402 0.5670039654 4290164668
-0.3017058671 -0.1267169118 0.5662441254 4292335836
-0.3022233844 -0.1263040602 0.5672153831 4292796387
-0.3032023311 -0.1260809153 0.5690526962 4292599008
-0.3051045239 -0.1262356788 0.5726227164 4292664801
-0.3079304695 -0.1267627776 0.5779264569 4292204765
-0.3066014349 -0.1255763322 0.5754321218 4292270558
-0.3098899722 -0.1262770295 0.5816040635 4291810009
-0.3104079366 -0.1258407980 0.5825762153 4292007388
-0.3118497729 -0.1257750541 0.5852822661 4292138974
-0.3137539625 -0.1258887798 0.5888560414 4292204767
-0.3161207139 -0.1261792034 0.5932980180 4292138974
-0.3184880018 -0.1264599711 0.5977409482 4292336353
-0.3240921795 -0.1280093640 0.6082589030 4292402659
-0.3269235492 -0.1284459680 0.6135728359 4292402659
-0.3306806087 -0.1292325407 0.6206241250 4292402405
-0.3330509663 -0.1294643879 0.6250728369 4292468198
-0.3354218304 -0.1296865493 0.6295225024 4292468198
-0.3368677795 -0.1295431554 0.6322362423 4292468198
-0.3378510773 -0.1292167753 0.6340817213 4292139233
-0.3388344347 -0.1288863122 0.6359273195 4291547096
-0.3370400071 -0.1275009215 0.6325595379 4292600556
-0.3610377908 -0.2130622417 0.6790141463 4289704892
-0.3615813255 -0.2126274407 0.6800364256 4284441704
-0.3616721928 -0.2119251192 0.6802073121 4283783774
-0.3617627919 -0.2112222612 0.6803777218 4285165167
-0.3618531525 -0.2105188817 0.6805476546 4286283648
-0.3614902496 -0.2095523775 0.6798651218 4286809222
-0.3615799844 -0.2088488340 0.6800338626 4286414464
-0.3612162471 -0.2078839242 0.6793497801 4284835434
-0.3613053262 -0.2071802020 0.6795173287 4283387988
-0.3609407246 -0.2062169015 0.6788316369 4282532679
-0.3605756462 -0.2052548528 0.6781449914 4282532679
-0.3602100909 -0.2042940557 0.6774574518 4282467656
-0.3598440588 -0.2033345103 0.6767690182 4282665035
-0.3599314094 -0.2026317567 0.6769333482 4283191379
-0.3600185215 -0.2019284815 0.6770971417 4284112481
-0.3601053357 -0.2012247145 0.6772604585 4285362293
-0.3592835069 -0.2000146955 0.6757147908 4282533194
-0.2844062746 -0.1577359140 0.5348910689 4278980374
-0.3549956083 -0.1954021901 0.6676504612 4279704095
-0.2797403634 -0.1522253752 0.5261157155 4280361511
-0.2793511152 -0.1514298171 0.5253836513 4280361511
-0.2798715830 -0.1511271149 0.5263625383 4280361511
-0.2794816792 -0.1503325701 0.5256292224 4280624683
-0.2795466781 -0.1497833878 0.5257514715 4280756269
-0.2796114385 -0.1492338032 0.5258733034 4280887855
-0.2805870175 -0.1491681635 0.5277080536 4280953648
-0.2801959813 -0.1483747661 0.5269726515 4279901474
-0.2797286510 -0.1440356225 0.5260937214 4280822576
-0.2811605036 -0.1441853791 0.5287866592 4282729545
-0.2789405286 -0.1424640268 0.5246114731 4285821816
-0.2817422450 -0.1433062404 0.5298807621 4286677126
-0.2818045914 -0.1427490711 0.5299980044 4286545540
-0.2814098597 -0.1419610828 0.5292556286 4286809225
-0.2801008821 -0.1407154351 0.5267937779 4286809225
-0.2787910402 -0.1394748539 0.5243303776 4286874764
-0.2742804885 -0.1366451383 0.5158472061 4286940557
-0.2747972906 -0.1363283843 0.5168191195 4287203729
-0.2743993998 -0.1355575919 0.5160708427 4287006350
-0.2749159634 -0.1352383196 0.5170423388 4286808973
-0.2749750018 -0.1346927583 0.5171533823 4285493113
-0.2754914463 -0.1343700588 0.5181246400 4284177769
-0.2760078609 -0.1340451837 0.5190958977 4281743428
-0.2765242457 -0.1337181479 0.5200670958 4282533198
-0.2779564559 -0.1338298917 0.5227606893 4282598991
-0.2793890536 -0.1339358389 0.5254549980 4282402388
-0.2799057662 -0.1335986406 0.5264267921 4282731353
-0.2804224491 -0.1332592815 0.5273985267 4281547079
-0.2800225019 -0.1324840784 0.5266463757 4285231487
-0.2800805271 -0.1319262683 0.5267555118 4289968583
-0.2805968225 -0.1315831244 0.5277265310 4291679201
-0.2806545198 -0.1310237199 0.5278350115 4292138982
-0.2811706662 -0.1306771338 0.5288057923 4292467947
-0.2816867828 -0.1303283870 0.5297764540 4292533740
-0.2826617360 -0.1301888078 0.5316100121 4292665326
-0.2893183529 -0.1308364570 0.5441293120 4283848553
-0.3069515824 -0.1368863881 0.5772926807 4283387486
-0.3088502586 -0.1370877177 0.5808635354 4280624180
-0.3148865998 -0.1391090453 0.5922162533 4280821557
-0.3121892214 -0.1372650564 0.5871432424 4284308586
-0.3150089383 -0.1378465891 0.5924463868 4292006367
-0.3136898577 -0.1366138756 0.5899655223 4293059055
-0.3105297983 -0.1345887631 0.5840223432 4292401894
-0.2990859151 -0.1290038079 0.5624994636 4290493897
-0.3000632823 -0.1287983656 0.5643376708 4283914081
-0.3015010953 -0.1287854910 0.5670417547 4281216568
-0.3006372154 -0.1277882606 0.5654170513 4287401362
-0.3011541665 -0.1273787022 0.5663893223 4291743700
-0.3021316230 -0.1271607876 0.5682275891 4292336606
-0.3026485145 -0.1267459244 0.5691997409 4292402399
-0.3027045727 -0.1261368692 0.5693052411 4292599523
-0.3036820590 -0.1259095967 0.5711435676 4292599523
-0.3055814207 -0.1260585487 0.5747157931 4292270558
-0.3084032238 -0.1265781373 0.5800228119 4292073179
-0.3089203835 -0.1261448711 0.5809954405 4291086284
-0.3122043908 -0.1268334836 0.5871717930 4291810007
-0.3127218783 -0.1263902336 0.5881450176 4292138972
-0.3141618967 -0.1263157576 0.5908533335 4292402144
-0.3160635531 -0.1264199167 0.5944298506 4292270558
-0.3188886046 -0.1268835217 0.5997429490 4292402144
-0.3212527931 -0.1271529198 0.6041893363 4292402659
-0.3240791559 -0.1275944114 0.6095049977 4292336866
-0.3269062638 -0.1280243546 0.6148219705 4292402405
-0.3301958442 -0.1286226511 0.6210088134 4292402405
-0.3321006000 -0.1286706477 0.6245911121 4292402405
-0.3344676793 -0.1288888603 0.6290429831 4292402405
-0.3359111547 -0.1287431866 0.6317577958 4292139233
-0.3368927240 -0.1284154058 0.6336038113 4291678682
