VERSION 0.7
FIELDS x y z rgba
SIZE 4 4 4 4
TYPE F F F U
COUNT 1 1 1 1
WIDTH 920
HEIGHT 1
VIEWPOINT 0.0 0.0 0.0 1.0 0.0 0.0 0.0
POINTS 920
DATA ascii
-0.2827527821 -0.1260635406 0.5896735191 4292337131
-0.2828053236 -0.1254316717 0.5897830725 4292599533
-0.2828575969 -0.1247994453 0.5898920894 4292599533
-0.2833344340 -0.1243533045 0.5908864737 4292665326
-0.2838111818 -0.1239049211 0.5918807387 4292731119
-0.2838628888 -0.1232697517 0.5919885635 4292600303
-0.2839143276 -0.1226342320 0.5920958519 4292468717
-0.2843906283 -0.1221810058 0.5930891633 4292599533
-0.2844416797 -0.1215438470 0.5931956172 4292665326
-0.2849177122 -0.1210870743 0.5941883922 4292599533
-0.2849683166 -0.1204482839 0.5942939520 4292467947
-0.2845932841 -0.1196303293 0.5935118198 4293125877
-0.2846433222 -0.1189918146 0.5936161280 4292994291
-0.2846931219 -0.1183529645 0.5937199593 4292994291
-0.2855938971 -0.1180656850 0.5955985188 4293191670
-0.2856433392 -0.1174242571 0.5957016349 4293257717
-0.2856925130 -0.1167824939 0.5958042145 4292994545
-0.2857414484 -0.1161403954 0.5959062576 4292862705
-0.2857901156 -0.1154979765 0.5960077643 4293125877
-0.2862645090 -0.1150263920 0.5969971418 4293060338
-0.2867388129 -0.1145525724 0.5979862809 4293191924
-0.2867868841 -0.1139072478 0.5980864763 4293060337
-0.2872608900 -0.1134299040 0.5990750194 4293126130
-0.2873084843 -0.1127829775 0.5991742611 4293191923
-0.2873558402 -0.1121357307 0.5992730260 4293191923
-0.2882557809 -0.1118189916 0.6011498570 4293191924
-0.2887292504 -0.1113336384 0.6021372080 4292731373
-0.2887760401 -0.1106825620 0.6022348404 4292205026
-0.2888225615 -0.1100311577 0.6023318768 4290954959
-0.2892955244 -0.1095410138 0.6033182144 4289112755
-0.2897683680 -0.1090486273 0.6043043137 4286678414
-0.2902410924 -0.1085540056 0.6052901149 4284573040
-0.2907136679 -0.1080571413 0.6062756777 4283059801
-0.2916130722 -0.1077157483 0.6081513762 4282796629
-0.2916584611 -0.1070566997 0.6082460284 4283125594
-0.2921306491 -0.1065531299 0.6092307568 4282468434
-0.2921755314 -0.1058925018 0.6093243957 4282797399
-0.2926473916 -0.1053854227 0.6103084683 4283389536
-0.2926918566 -0.1047232226 0.6104011536 4283850087
-0.2931633592 -0.1042126417 0.6113844514 4284310638
-0.2932073176 -0.1035488769 0.6114761829 4284771189
-0.2932510376 -0.1028848141 0.6115673184 4285165947
-0.2928669155 -0.1020714417 0.6107662320 4285692291
-0.2933376133 -0.1015558019 0.6117478609 4286283658
-0.2933804989 -0.1008908525 0.6118373275 4287796897
-0.2934231460 -0.1002256200 0.6119261980 4289047734
-0.2938932776 -0.0997052267 0.6129066944 4290824145
-0.2839928865 -0.1631867588 0.5936346650 4287994276
-0.2836402953 -0.1623254120 0.5928976536 4281151804
-0.2837063670 -0.1617043167 0.5930357575 4281612094
-0.2833530307 -0.1608448476 0.5922971964 4281283129
-0.2825800478 -0.1597497612 0.5906814337 4281414715
-0.2822257876 -0.1588940322 0.5899409056 4281217336
-0.2818711400 -0.1580397189 0.5891995430 4281019957
-0.2810964882 -0.1569525450 0.5875803232 4281217336
-0.2799016237 -0.1556353122 0.5850826502 4281151543
-0.2787059546 -0.1543231905 0.5825833678 4281283129
-0.2770896554 -0.1527846754 0.5792047977 4281348152
-0.2754723728 -0.1512531489 0.5758241415 4281084980
-0.2742741406 -0.1499582380 0.5733194947 4280690222
-0.2739153802 -0.1491259038 0.5725694895 4280427050
-0.2739763856 -0.1485228240 0.5726970434 4280229671
-0.2736168802 -0.1476924568 0.5719455481 4279769120
-0.2724161744 -0.1464116722 0.5694357157 4279637534
-0.2720556855 -0.1455860734 0.5686821938 4280427050
-0.2716947794 -0.1447619200 0.5679277778 4281150773
-0.2713334560 -0.1439392418 0.5671725273 4281019187
-0.2713924944 -0.1433402598 0.5672959089 4281019187
-0.2714513242 -0.1427408904 0.5674188733 4281019187
-0.2706680596 -0.1417003870 0.5657815933 4280953394
-0.2703052163 -0.1408826560 0.5650231838 4280953394
-0.2699419856 -0.1400664002 0.5642638803 4281019189
-0.2695783377 -0.1392516196 0.5635037422 4280953396
-0.2687930167 -0.1382216811 0.5618621707 4280427822
-0.2688498795 -0.1376265287 0.5619810224 4280427822
-0.2689065337 -0.1370309889 0.5620994568 4280362029
-0.2685413659 -0.1362212300 0.5613361597 4280954166
-0.2685974836 -0.1356258839 0.5614534616 4281151545
-0.2690751255 -0.1352421343 0.5624518991 4281283131
-0.2699745595 -0.1350671947 0.5643320084 4282335819
-0.2712960243 -0.1350982487 0.5670942664 4289441463
-0.2721957862 -0.1349141300 0.5689750910 4292204775
-0.2735177875 -0.1349341273 0.5717384219 4292204775
-0.2744178474 -0.1347408295 0.5736198425 4292138982
-0.2757403255 -0.1347497553 0.5763842463 4292138982
-0.2762183547 -0.1343418509 0.5773834586 4292270568
-0.2771187723 -0.1341361701 0.5792656541 4292336361
-0.2775967717 -0.1337228268 0.5802648067 4292270568
-0.2780747116 -0.1333072335 0.5812638402 4292270568
-0.2785525620 -0.1328893751 0.5822626948 4292204775
-0.2786076069 -0.1322685629 0.5823777318 4292204775
-0.2790852487 -0.1318471581 0.5833761692 4292204775
-0.2795628011 -0.1314234883 0.5843744278 4292138982
-0.2796172798 -0.1307996958 0.5844883323 4292204775
-0.2800946534 -0.1303724796 0.5854861140 4292204775
-0.2801487148 -0.1297470033 0.5855991840 4292204775
-0.2806258500 -0.1293162256 0.5865964890 4292204775
-0.2806795239 -0.1286890805 0.5867087245 4292073959
-0.2807329595 -0.1280615926 0.5868204236 4292073959
-0.2807861865 -0.1274337322 0.5869316459 4292139752
-0.2812627256 -0.1269967854 0.5879278183 4292139752
-0.2813155353 -0.1263672709 0.5880381465 4292205545
-0.2817918360 -0.1259267777 0.5890337825 4292271338
-0.2818442285 -0.1252956092 0.5891433358 4292533740
-0.2818963826 -0.1246640906 0.5892522931 4292533740
-0.2823722661 -0.1242187396 0.5902470946 4292467947
-0.2828480601 -0.1237711385 0.5912416577 4292599533
-0.2828996181 -0.1231366694 0.5913494229 4292533740
-0.2829509377 -0.1225018576 0.5914567113 4292402154
-0.2834263146 -0.1220494136 0.5924503803 4292467947
-0.2834772170 -0.1214129552 0.5925567746 4292533740
-0.2839523256 -0.1209569648 0.5935499072 4292533483
-0.2840028107 -0.1203188747 0.5936554074 4292533483
-0.2840530276 -0.1196804494 0.5937604308 4292599535
-0.2836783528 -0.1188637465 0.5929772258 4292796914
-0.2841527462 -0.1184025779 0.5939688683 4292731119
-0.2846270502 -0.1179391742 0.5949603319 4292599533
-0.2846763730 -0.1172984466 0.5950633883 4292665326
-0.2847254276 -0.1166573837 0.5951659083 4292796912
-0.2847742140 -0.1160159931 0.5952679515 4292796912
-0.2852478921 -0.1155464798 0.5962580442 4292731119
-0.2852962613 -0.1149034724 0.5963591337 4293060338
-0.2857696116 -0.1144304276 0.5973486304 4293520889
-0.2858175635 -0.1137858108 0.5974488258 4293455095
-0.2862906158 -0.1133092418 0.5984377265 4293191923
-0.2863381207 -0.1126630157 0.5985369682 4293126130
-0.2863853574 -0.1120164767 0.5986357331 4292468200
-0.2872835398 -0.1117005795 0.6005132198 4290954448
-0.2877560854 -0.1112160012 0.6015009880 4289112244
-0.2878027558 -0.1105656251 0.6015985608 4286152070
-0.2878491879 -0.1099149287 0.6016955972 4284309866
-0.2883212268 -0.1094255522 0.6026822925 4283125592
-0.2883671820 -0.1087732613 0.6027783751 4282533455
-0.2892649174 -0.1084400788 0.6046549082 4283322971
-0.2901626527 -0.1081027240 0.6065315008 4283257178
-0.2906342745 -0.1076034307 0.6075172424 4282336078
-0.2906795144 -0.1069450825 0.6076118350 4282336078
-0.2911507785 -0.1064422801 0.6085969806 4282534227
-0.2916219234 -0.1059372351 0.6095817685 4282928985
-0.2920929193 -0.1054299474 0.6105663180 4283455329
-0.2921373248 -0.1047674865 0.6106591225 4284179052
-0.2921814322 -0.1041047201 0.6107513309 4284836982
-0.2922253013 -0.1034416556 0.6108430028 4285429119
-0.2922688723 -0.1027782932 0.6109341383 4285955463
-0.2918854654 -0.1019655615 0.6101326942 4286284428
-0.2919284701 -0.1013025790 0.6102225780 4286875795
-0.2923980355 -0.1007864401 0.6112041473 4288520620
-0.2924405634 -0.1001219079 0.6112930179 4290100420
-0.2924827933 -0.0994570777 0.6113812923 4291679452
-0.2929518223 -0.0989361927 0.6123617291 4293257966
-0.2826127708 -0.1627716273 0.5921245217 4288783792
-0.2822607160 -0.1619117856 0.5913869143 4281283390
-0.2819082439 -0.1610533446 0.5906484127 4281677117
-0.2819737196 -0.1604343504 0.5907856226 4281348152
-0.2816205323 -0.1595778167 0.5900455713 4281150773
-0.2812668979 -0.1587226838 0.5893046856 4281150773
-0.2809128761 -0.1578689516 0.5885629654 4281216566
-0.2801396847 -0.1567822993 0.5869429708 4281084980
-0.2785282135 -0.1552320421 0.5835666656 4281084980
-0.2777536213 -0.1541537642 0.5819437504 4281348152
-0.2765594125 -0.1528471708 0.5794416666 4281216566
-0.2753643990 -0.1515457034 0.5769379139 4281150773
-0.2741686106 -0.1502493620 0.5744324923 4280954164
-0.2733913362 -0.1491869837 0.5728039742 4280954164
-0.2730329037 -0.1483557820 0.5720529556 4280954164
-0.2726740241 -0.1475260407 0.5713011026 4280493613
-0.2718951702 -0.1464717090 0.5696692467 4280230441
-0.2706960440 -0.1451955736 0.5671568513 4280559406
-0.2707554698 -0.1445971578 0.5672813654 4281084980
-0.2703948021 -0.1437750906 0.5665256977 4281019187
-0.2704536915 -0.1431768239 0.5666490793 4281019187
-0.2705123723 -0.1425781548 0.5667720437 4281019187
-0.2701506913 -0.1417586505 0.5660142303 4281019187
-0.2693683505 -0.1407210678 0.5643751025 4281019187
-0.2690057755 -0.1399054378 0.5636154413 4280888373
-0.2686427832 -0.1390912831 0.5628549457 4280888373
-0.2682794034 -0.1382786036 0.5620935559 4280362029
-0.2679156363 -0.1374674290 0.5613313913 4280362029
-0.2679721415 -0.1368726045 0.5614497662 4280296236
-0.2680284083 -0.1362774074 0.5615676641 4281019959
-0.2680844665 -0.1356818378 0.5616850853 4281217338
-0.2685612440 -0.1352979541 0.5626840591 4281283131
-0.2694589794 -0.1351229697 0.5645650029 4282533198
-0.2711991072 -0.1353642344 0.5682108402 4290033600
-0.2720972896 -0.1351791322 0.5700926781 4292008166
-0.2729955614 -0.1349899024 0.5719747543 4292008166
-0.2738939822 -0.1347965449 0.5738571286 4292008166
-0.2747925222 -0.1345990747 0.5757396817 4292008166
-0.2756911516 -0.1343974620 0.5776224732 4292008166
-0.2761682570 -0.1339871585 0.5786221027 4292008166
-0.2766453028 -0.1335746050 0.5796216130 4292008166
-0.2771222889 -0.1331598014 0.5806209445 4292008166
-0.2775991857 -0.1327427328 0.5816202164 4292008166
-0.2776540816 -0.1321226358 0.5817351937 4292073959
-0.2781307697 -0.1317020059 0.5827339292 4292008166
-0.2781852782 -0.1310802251 0.5828481317 4291942373
-0.2786617279 -0.1306560487 0.5838463902 4291942373
-0.2787158489 -0.1300325841 0.5839597583 4291942373
-0.2791920900 -0.1296048462 0.5849575996 4292008166
-0.2796682417 -0.1291748583 0.5859552026 4291942373
-0.2797217965 -0.1285484284 0.5860674381 4291942886
-0.2797751129 -0.1279216409 0.5861791372 4291942886
-0.2798281610 -0.1272944808 0.5862902999 4292008679
-0.2803037763 -0.1268583238 0.5872867703 4292008679
-0.2803564370 -0.1262295246 0.5873970985 4292139752
-0.2808318138 -0.1257898062 0.5883930922 4292205545
-0.2808840573 -0.1251593381 0.5885025859 4292271338
-0.2813591659 -0.1247160733 0.5894980431 4292271338
-0.2818341851 -0.1242705509 0.5904932618 4292402154
-0.2818858922 -0.1236371398 0.5906015635 4292533740
-0.2819373310 -0.1230033785 0.5907093287 4292533740
-0.2824119031 -0.1225530133 0.5917037129 4292467947
-0.2824629247 -0.1219176054 0.5918105841 4292402154
-0.2829372585 -0.1214636937 0.5928044319 4292402154
-0.2829878628 -0.1208266541 0.5929104090 4292336361
-0.2830382288 -0.1201892719 0.5930159092 4292402154
-0.2830883265 -0.1195515469 0.5931209326 4292468717
-0.2831381857 -0.1189134866 0.5932253599 4292666096
-0.2836117446 -0.1184521466 0.5942175388 4292534510
-0.2836611569 -0.1178124622 0.5943210721 4292337131
-0.2837103307 -0.1171724349 0.5944241285 4292467947
-0.2837592661 -0.1165320799 0.5945266485 4292533740
-0.2842321694 -0.1160646304 0.5955174565 4292599787
-0.2842806876 -0.1154226586 0.5956190825 4292270822
-0.2847532928 -0.1149516702 0.5966092944 4292928752
-0.2848013639 -0.1143080890 0.5967100263 4292599787
-0.2848491669 -0.1136641800 0.5968101621 4292007649
-0.2853213251 -0.1131883860 0.5977994204 4290889168
-0.2853686810 -0.1125428677 0.5978986621 4288849072
-0.2858405411 -0.1120635420 0.5988872647 4286151559
-0.2863122523 -0.1115819812 0.5998756289 4283980644
-0.2863590121 -0.1109335870 0.5999735594 4283059542
-0.2864054739 -0.1102848724 0.6000709534 4282467662
-0.2868767083 -0.1097985059 0.6010582447 4282665041
-0.2869227529 -0.1091482043 0.6011547446 4282796627
-0.2873936892 -0.1086583212 0.6021413803 4282072904
-0.2882896662 -0.1083259732 0.6040186882 4282072904
-0.2887604237 -0.1078306511 0.6050049663 4281875525
-0.2892310321 -0.1073330864 0.6059909463 4281875525
-0.2897014916 -0.1068332866 0.6069766879 4282928213
-0.2897463739 -0.1061753407 0.6070706844 4282994778
-0.2902165353 -0.1056720242 0.6080557704 4283257950
-0.2906865478 -0.1051664799 0.6090404987 4283586915
-0.2907307446 -0.1045056805 0.6091331244 4284310638
-0.2907747030 -0.1038445905 0.6092252135 4285100412
-0.2908183634 -0.1031831950 0.6093167663 4285955721
-0.2908617854 -0.1025215015 0.6094077229 4287403167
-0.2909049392 -0.1018595174 0.6094981432 4288587441
-0.2909478247 -0.1011972353 0.6095879674 4289310651
-0.2909904420 -0.1005346626 0.6096772552 4290429132
-0.2914589047 -0.1000180244 0.6106587648 4291811038
-0.2919272184 -0.0994991586 0.6116399169 4292797933
-0.2812351882 -0.1623560190 0.5906126499 4289507515
-0.2808836699 -0.1614976972 0.5898744464 4281743941
-0.2805317640 -0.1606407762 0.5891353488 4281413945
-0.2801794112 -0.1597852707 0.5883954167 4281545531
-0.2802442908 -0.1591683775 0.5885316730 4281084980
-0.2798912227 -0.1583147645 0.5877901912 4281216566
-0.2795377374 -0.1574625671 0.5870478749 4281282359
-0.2787658870 -0.1563773453 0.5854269266 4281019187
-0.2779934406 -0.1552953869 0.5838047266 4281150773
-0.2772203982 -0.1542166919 0.5821812749 4281216566
-0.2764467597 -0.1531412750 0.5805565715 4281216566
-0.2756724954 -0.1520691365 0.5789306164 4281084980
-0.2740608156 -0.1505406052 0.5755459666 4281019957
-0.2728666961 -0.1492479891 0.5730382204 4281019957
-0.2729275823 -0.1486444622 0.5731660724 4281085750
-0.2725695372 -0.1478134841 0.5724142194 4280954164
-0.2717923224 -0.1467578113 0.5707820058 4280756785
-0.2701767683 -0.1452550590 0.5673891902 4280888371
-0.2698171437 -0.1444321424 0.5666339993 4281084982
-0.2698761821 -0.1438340396 0.5667579770 4281019189
-0.2699350119 -0.1432355493 0.5668815374 4280888373
-0.2699936330 -0.1426366717 0.5670046210 4280888373
-0.2696326673 -0.1418168396 0.5662465692 4280954166
-0.2688519061 -0.1407788694 0.5646069050 4280822580
-0.2684900761 -0.1399629265 0.5638470054 4280756787
-0.2681278288 -0.1391484588 0.5630862713 4280822580
-0.2677651942 -0.1383354813 0.5623247027 4280493615
-0.2678219378 -0.1377398819 0.5624439120 4280427822
-0.2682983279 -0.1373588592 0.5634443760 4280559408
-0.2679347694 -0.1365475506 0.5626808405 4281019959
-0.2679908276 -0.1359508187 0.5627986193 4281283131
-0.2688869834 -0.1357780248 0.5646805763 4281414717
-0.2697832286 -0.1356011033 0.5665627718 4282993749
-0.2706796229 -0.1354200691 0.5684452057 4290691530
-0.2715761065 -0.1352349073 0.5703279376 4291942373
-0.2724727392 -0.1350456327 0.5722109079 4291942373
-0.2733694613 -0.1348522156 0.5740940571 4291942373
-0.2738456726 -0.1344481558 0.5750941038 4291942373
-0.2747425437 -0.1342474222 0.5769776106 4291876580
-0.2752186954 -0.1338379085 0.5779775977 4291876580
-0.2756947875 -0.1334261447 0.5789774060 4291876580
-0.2761708200 -0.1330121309 0.5799770951 4291876580
-0.2766467929 -0.1325958669 0.5809766650 4291942373
-0.2767015100 -0.1319764704 0.5810916424 4291942373
-0.2771772742 -0.1315566450 0.5820907354 4291876580
-0.2772316337 -0.1309355646 0.5822048783 4291810787
-0.2777071297 -0.1305121779 0.5832034945 4291744994
-0.2777611017 -0.1298894286 0.5833168030 4291810787
-0.2782363892 -0.1294624656 0.5843149424 4291876580
-0.2782899737 -0.1288380474 0.5844274759 4291876580
-0.2783432901 -0.1282132715 0.5845394731 4291877091
-0.2783963680 -0.1275881380 0.5846509337 4291877091
-0.2788711190 -0.1271550208 0.5856479406 4291877091
-0.2793457806 -0.1267196387 0.5866447687 4291877091
-0.2793983221 -0.1260915399 0.5867550373 4291942884
-0.2798727155 -0.1256526113 0.5877513885 4292008677
-0.2799248397 -0.1250228584 0.5878608227 4292140263
-0.2803990245 -0.1245803759 0.5888566375 4292206056
-0.2808730900 -0.1241356432 0.5898522139 4292205543
-0.2809246480 -0.1235029325 0.5899604559 4292271336
-0.2809759676 -0.1228698790 0.5900682211 4292468201
-0.2814496160 -0.1224202961 0.5910629034 4292402408
-0.2819231749 -0.1219684631 0.5920574665 4292402408
-0.2819738984 -0.1213324666 0.5921639800 4292468201
-0.2820243537 -0.1206961349 0.5922699571 4292402408
-0.2824974954 -0.1202394515 0.5932635665 4292270822
-0.2821245790 -0.1194224358 0.5924803615 4292139752
-0.2821742892 -0.1187850833 0.5925848484 4292337131
-0.2826468945 -0.1183245257 0.5935773253 4292271336
-0.2826962173 -0.1176855415 0.5936808586 4292337129
-0.2827452719 -0.1170462295 0.5937838554 4292533994
-0.2827940583 -0.1164065823 0.5938863754 4292533994
-0.2832660377 -0.1159399077 0.5948775411 4292139235
-0.2833144069 -0.1152986437 0.5949791074 4291415512
-0.2837860882 -0.1148284376 0.5959696770 4290165445
-0.2838340402 -0.1141855568 0.5960704088 4288191655
-0.2838817239 -0.1135423556 0.5961705446 4285691519
-0.2843529284 -0.1130673364 0.5971601009 4283586143
-0.2844001949 -0.1124225259 0.5972593427 4282598991
-0.2848711014 -0.1119439751 0.5982483029 4282401612
-0.2853418887 -0.1114631891 0.5992369652 4282270026
-0.2853885293 -0.1108154953 0.5993348956 4282335819
-0.2854348719 -0.1101674885 0.5994322896 4282336076
-0.2854810059 -0.1095191687 0.5995290875 4282072904
-0.2859511077 -0.1090323031 0.6005163789 4281480767
-0.2868454158 -0.1087040007 0.6023945212 4281086009
-0.2873153687 -0.1082116887 0.6033813953 4282007111
-0.2877851725 -0.1077171341 0.6043680310 4282467662
-0.2882548571 -0.1072203442 0.6053543687 4282402641
-0.2882997990 -0.1065643653 0.6054487824 4282731606
-0.2883445024 -0.1059080884 0.6055426598 4283323743
-0.2888136506 -0.1054065153 0.6065279245 4283981673
-0.2892826796 -0.1049026996 0.6075128913 4284770934
-0.2893267274 -0.1042435765 0.6076053977 4286086794
-0.2893705070 -0.1035841480 0.6076973081 4287468960
-0.2894140184 -0.1029244289 0.6077886820 4288455855
-0.2894572616 -0.1022644117 0.6078795195 4289705922
-0.2895002365 -0.1016040966 0.6079697609 4290758610
-0.2895429432 -0.1009434909 0.6080594659 4290889683
-0.2900106311 -0.1004298478 0.6090416312 4291416027
-0.2900528610 -0.0997676849 0.6091303229 4292140003
-0.2905201912 -0.0992505550 0.6101117730 4292732140
-0.2795092165 -0.1610831469 0.5883603096 4282007113
-0.2791578174 -0.1602277458 0.5876206160 4280888373
-0.2792227566 -0.1596119851 0.5877572894 4281348924
-0.2784537971 -0.1585211754 0.5861386657 4281019959
-0.2785181105 -0.1579063982 0.5862740278 4280954166
-0.2781651616 -0.1570557207 0.5855310559 4280888373
-0.2778117955 -0.1562064737 0.5847872496 4280822580
-0.2766235471 -0.1548914015 0.5822860599 4281151545
-0.2762691975 -0.1540468484 0.5815401077 4280888373
-0.2754969895 -0.1529719383 0.5799146295 4281216568
-0.2751416862 -0.1521311700 0.5791667700 4281084982
-0.2739507854 -0.1508319825 0.5766599178 4281150775
-0.2727590799 -0.1495379359 0.5741514564 4281084982
-0.2724021971 -0.1487051845 0.5734001994 4281019189
-0.2720449269 -0.1478738785 0.5726481080 4281019189
-0.2712692320 -0.1468178183 0.5710153580 4280953394
-0.2700749040 -0.1455397606 0.5685012937 4281019187
-0.2697161138 -0.1447156221 0.5677461028 4280888371
-0.2701934576 -0.1443397999 0.5687508583 4280954164
-0.2702524066 -0.1437392384 0.5688748956 4280888371
-0.2703111172 -0.1431382746 0.5689985156 4280888371
-0.2695325613 -0.1420956254 0.5673596859 4280888373
-0.2687534392 -0.1410563141 0.5657196641 4280822580
-0.2683924139 -0.1402391195 0.5649597049 4280690994
-0.2680310309 -0.1394234151 0.5641989708 4280756787
-0.2676692009 -0.1386092007 0.5634374022 4280362029
-0.2677259743 -0.1380124390 0.5635569096 4280296236
-0.2677825391 -0.1374153048 0.5636759400 4280690994
-0.2678388655 -0.1368177980 0.5637944937 4281019959
-0.2678949833 -0.1362199187 0.5639125705 4281283131
-0.2687895000 -0.1360461414 0.5657956004 4281217338
-0.2692647576 -0.1356569231 0.5667960048 4283651679
-0.2701594830 -0.1354758441 0.5686793327 4291086288
-0.2710542977 -0.1352906227 0.5705628991 4291745507
-0.2719492316 -0.1351012886 0.5724467039 4291745507
-0.2728442848 -0.1349078268 0.5743308067 4291745507
-0.2733196318 -0.1345036179 0.5753313303 4291811300
-0.2737948895 -0.1340971440 0.5763317943 4291745507
-0.2742700875 -0.1336884350 0.5773320794 4291745507
-0.2747452259 -0.1332774609 0.5783322453 4291745507
-0.2752203047 -0.1328642517 0.5793322921 4291679714
-0.2756953239 -0.1324487776 0.5803321600 4291679714
-0.2761702836 -0.1320310384 0.5813319087 4291679714
-0.2762247026 -0.1314110458 0.5814465284 4291613921
-0.2766994536 -0.1309897453 0.5824458003 4291548128
-0.2767534852 -0.1303680688 0.5825595856 4291548128
-0.2768073082 -0.1297460347 0.5826728940 4291613921
-0.2772816718 -0.1293198764 0.5836713314 4291679714
-0.2773350775 -0.1286961585 0.5837838054 4291745507
-0.2773882747 -0.1280720979 0.5838958025 4291746018
-0.2774412334 -0.1274476647 0.5840072632 4291746018
-0.2779150307 -0.1270153373 0.5850045681 4291745505
-0.2779675722 -0.1263892502 0.5851151943 4291811298
-0.2784411311 -0.1259533614 0.5861120224 4291877091
-0.2789146006 -0.1255152076 0.5871086717 4291942884
-0.2793879807 -0.1250748187 0.5881051421 4291942884
-0.2794398069 -0.1244444698 0.5882142186 4292074470
-0.2799129486 -0.1240005195 0.5892101526 4292337642
-0.2799643576 -0.1233685166 0.5893183947 4292271849
-0.2800155282 -0.1227361709 0.5894261003 4292205543
-0.2804882526 -0.1222873703 0.5904211402 4292073957
-0.2809608579 -0.1218363196 0.5914160013 4292139750
-0.2810114622 -0.1212010309 0.5915225148 4292337129
-0.2814838290 -0.1207464337 0.5925167799 4292337129
-0.2815339863 -0.1201095134 0.5926223993 4292139750
-0.2815839052 -0.1194722429 0.5927274823 4292468201
-0.2812113464 -0.1186564788 0.5919432640 4292336615
-0.2816830277 -0.1181967035 0.5929360986 4292139236
-0.2817322016 -0.1175584272 0.5930396318 4291810271
-0.2817811072 -0.1169198230 0.5931426287 4291020755
-0.2818298042 -0.1162808836 0.5932450891 4289507516
-0.2823008299 -0.1158149913 0.5942366123 4287270553
-0.2823490798 -0.1151744276 0.5943381786 4285296763
-0.2828198373 -0.1147050038 0.5953290462 4283257178
-0.2828676403 -0.1140628308 0.5954297185 4282270283
-0.2829152048 -0.1134203374 0.5955298543 4281875525
-0.2829625309 -0.1127775162 0.5956294537 4281678146
-0.2834326327 -0.1123019904 0.5966190100 4281678146
-0.2839026153 -0.1118242219 0.5976082683 4281414974
-0.2843724787 -0.1113442108 0.5985973477 4280822578
-0.2844189703 -0.1106972247 0.5986952186 4280690992
-0.2844652236 -0.1100499257 0.5987925529 4281612353
-0.2845112085 -0.1094023064 0.5988894105 4282007111
-0.2849803865 -0.1089162156 0.5998769999 4282138697
-0.2858729661 -0.1085887551 0.6017558575 4282467662
-0.2859183848 -0.1079373062 0.6018514633 4282928213
-0.2863872051 -0.1074444950 0.6028383374 4282862420
-0.2868559062 -0.1069494411 0.6038249135 4283323743
-0.2869006693 -0.1062951386 0.6039191484 4283915880
-0.2869451940 -0.1056405306 0.6040128469 4285494912
-0.2874133587 -0.1051406935 0.6049983501 4287073944
-0.2878814042 -0.1046386138 0.6059835553 4288652976
-0.2879252434 -0.1039811596 0.6060758829 4289771457
-0.2879688442 -0.1033234149 0.6061676145 4290627024
-0.2880121768 -0.1026653647 0.6062588692 4290955989
-0.2880552411 -0.1020070165 0.6063495278 4291284954
-0.2880980670 -0.1013483778 0.6064396501 4291745505
-0.2881405950 -0.1006894484 0.6065291762 4291613661
-0.2886072993 -0.1001775414 0.6075115800 4291876833
-0.2890738547 -0.0996634066 0.6084936261 4292205794
-0.2891157269 -0.0990016609 0.6085817814 4292666345
-0.2781372964 -0.1606681347 0.5868444443 4283454559
-0.2777864337 -0.1598142534 0.5861041546 4280756787
-0.2774351835 -0.1589617878 0.5853630304 4280559408
-0.2774995267 -0.1583481431 0.5854988098 4280888373
-0.2771475315 -0.1574975699 0.5847561359 4281151545
-0.2767951190 -0.1566484272 0.5840126276 4280954166
-0.2764423192 -0.1558007002 0.5832681656 4280888373
-0.2756726742 -0.1547206938 0.5816442966 4280888373
-0.2753189206 -0.1538767368 0.5808979273 4280625201
-0.2749647796 -0.1530342102 0.5801507235 4281019189
-0.2741935253 -0.1519621909 0.5785234571 4280887603
-0.2738384902 -0.1511234641 0.5777743459 4280953396
-0.2726492286 -0.1498279870 0.5752651095 4280953396
-0.2722931802 -0.1489939988 0.5745139122 4280953394
-0.2715196311 -0.1479342282 0.5728818178 4281019187
-0.2707455158 -0.1468777508 0.5712484717 4280953394
-0.2703880668 -0.1460499763 0.5704942346 4281084980
-0.2696128488 -0.1449992061 0.5688586235 4280822578
-0.2696719468 -0.1443988085 0.5689833164 4280822578
-0.2693132758 -0.1435754150 0.5682265759 4280822578
-0.2693718672 -0.1429751664 0.5683501363 4280822578
-0.2690124810 -0.1421537846 0.5675919056 4280822578
-0.2682349086 -0.1411140710 0.5659512877 4280822578
-0.2678746283 -0.1402965784 0.5651911497 4280822578
-0.2675139606 -0.1394805610 0.5644301772 4280822578
-0.2671529055 -0.1386660337 0.5636683702 4280296236
-0.2667914629 -0.1378529817 0.5629057288 4280296236
-0.2668478489 -0.1372565627 0.5630247593 4280625201
-0.2673223615 -0.1368739605 0.5640259385 4281085752
-0.2673784196 -0.1362758577 0.5641441941 4281217338
-0.2682712674 -0.1361020356 0.5660280585 4280954166
-0.2691642642 -0.1359240860 0.5679121614 4284638574
-0.2696386874 -0.1355315447 0.5689131618 4291349460
-0.2705318332 -0.1353462785 0.5707976222 4291679714
-0.2714250982 -0.1351568848 0.5726823211 4291548128
-0.2723184824 -0.1349633634 0.5745672584 4291548128
-0.2727929354 -0.1345590055 0.5755683184 4291679714
-0.2732673287 -0.1341523975 0.5765692592 4291613921
-0.2733224630 -0.1335387230 0.5766855478 4291613921
-0.2737966478 -0.1331285536 0.5776860714 4291613921
-0.2742707729 -0.1327161342 0.5786864161 4291613921
-0.2747448385 -0.1323014498 0.5796866417 4291548128
-0.2752188146 -0.1318845153 0.5806867480 4291482335
-0.2752731144 -0.1312652230 0.5808013082 4291482335
-0.2757468820 -0.1308447123 0.5818009377 4291482335
-0.2758007944 -0.1302237511 0.5819146633 4291482335
-0.2758544981 -0.1296024173 0.5820279121 4291548128
-0.2763278782 -0.1291770488 0.5830267668 4291548128
-0.2763811648 -0.1285540462 0.5831391811 4291613921
-0.2764342129 -0.1279306859 0.5832511187 4291613919
-0.2769072354 -0.1275004447 0.5842491388 4291679712
-0.2769598663 -0.1268754303 0.5843601823 4291679199
-0.2774326503 -0.1264416277 0.5853577256 4291744992
-0.2774848938 -0.1258149445 0.5854679346 4291810785
-0.2779574394 -0.1253775954 0.5864649415 4291876578
-0.2784298658 -0.1249379814 0.5874617696 4291811298
-0.2784815431 -0.1243083477 0.5875707865 4291877091
-0.2789537609 -0.1238651797 0.5885670781 4291744992
-0.2790050209 -0.1232338920 0.5886753201 4292073957
-0.2790560722 -0.1226022542 0.5887829661 4292337129
-0.2795278430 -0.1221542433 0.5897783637 4292271336
-0.2799995244 -0.1217039749 0.5907735825 4292073957
-0.2800499797 -0.1210693941 0.5908800364 4291810785
-0.2805213928 -0.1206155792 0.5918746591 4291218648
-0.2805714309 -0.1199793592 0.5919802785 4290626511
-0.2806212306 -0.1193428040 0.5920853019 4290099652
-0.2806707621 -0.1187059134 0.5921898484 4289046964
-0.2807200551 -0.1180686802 0.5922938585 4287862691
-0.2807691097 -0.1174311191 0.5923973322 4286283659
-0.2808179259 -0.1167932153 0.5925003290 4284441455
-0.2808664739 -0.1161549836 0.5926027894 4282928216
-0.2813365757 -0.1156898737 0.5935946107 4282138699
-0.2813847065 -0.1150500253 0.5936961770 4281941320
-0.2818545103 -0.1145813763 0.5946874619 4282270283
-0.2819021940 -0.1139399111 0.5947880745 4282072904
-0.2819496393 -0.1132981256 0.5948881507 4281875527
-0.2819968462 -0.1126560122 0.5949877501 4281020218
-0.2820437849 -0.1120135784 0.5950867534 4280757044
-0.2825127542 -0.1115375534 0.5960762501 4281151802
-0.2829816043 -0.1110592782 0.5970655084 4281151802
-0.2834503651 -0.1105787605 0.5980545282 4281480767
-0.2834964991 -0.1099321693 0.5981518626 4282336846
-0.2835423648 -0.1092852578 0.5982486606 4282205260
-0.2844332457 -0.1089618504 0.6001283526 4282468432
-0.2844787538 -0.1083123833 0.6002243757 4283060569
-0.2849467695 -0.1078225896 0.6012117863 4284047464
-0.2849918008 -0.1071715355 0.6013068557 4285034359
-0.2854594886 -0.1066782251 0.6022936702 4286613391
-0.2855041027 -0.1060255915 0.6023877263 4287929251
-0.2855484486 -0.1053726599 0.6024813056 4289310906
-0.2860156000 -0.1048745587 0.6034669876 4290166215
-0.2860594988 -0.1042200550 0.6035595536 4290824145
-0.2865263522 -0.1037184447 0.6045445800 4291218903
-0.2865697742 -0.1030623689 0.6046361923 4291613661
-0.2866129279 -0.1024059951 0.6047272682 4291811040
-0.2866558135 -0.1017493308 0.6048177481 4291811553
-0.2866984606 -0.1010923609 0.6049076915 4292074725
-0.2871643603 -0.1005834639 0.6058907509 4292073440
-0.2872065306 -0.0999249443 0.6059797406 4292533991
-0.2872484326 -0.0992661417 0.6060681343 4293060587
-0.2763530016 -0.1600124091 0.5844493508 4286152072
-0.2764176428 -0.1594003141 0.5845860243 4281875014
-0.2760668993 -0.1585493684 0.5838443041 4280361775
-0.2757157683 -0.1576998383 0.5831016898 4280624947
-0.2757795453 -0.1570882946 0.5832365751 4281019705
-0.2758431137 -0.1564763337 0.5833709836 4280756787
-0.2754909396 -0.1556292176 0.5826262236 4280690994
-0.2751383483 -0.1547835320 0.5818805099 4280625201
-0.2747853398 -0.1539392620 0.5811339617 4280690994
-0.2740161419 -0.1528644562 0.5795072317 4281019189
-0.2736622393 -0.1520239860 0.5787587762 4280953396
-0.2733079195 -0.1511849463 0.5780094266 4280887603
-0.2725371122 -0.1501181722 0.5763792396 4280821810
-0.2721818984 -0.1492829472 0.5756280422 4280887601
-0.2714099884 -0.1482218355 0.5739955902 4280953394
-0.2706375122 -0.1471640170 0.5723618269 4280887601
-0.2702808976 -0.1463350058 0.5716076493 4281019187
-0.2695073187 -0.1452829093 0.5699716806 4280756783
-0.2691498101 -0.1444577426 0.5692155361 4280756783
-0.2687918842 -0.1436340362 0.5684586167 4280822576
-0.2688503861 -0.1430335641 0.5685823560 4280822576
-0.2680748403 -0.1419910491 0.5669421554 4280756785
-0.2677157223 -0.1411717683 0.5661826730 4280822578
-0.2673562169 -0.1403539628 0.5654223561 4280954164
-0.2669962943 -0.1395376325 0.5646611452 4280888371
-0.2666359842 -0.1387227923 0.5638991594 4280427820
-0.2658579051 -0.1376932859 0.5622536540 4280427820
-0.2663315833 -0.1373127997 0.5632554293 4280559408
-0.2663877010 -0.1367157847 0.5633741021 4281217338
-0.2668612301 -0.1363317370 0.5643755198 4281283131
-0.2677524090 -0.1361578703 0.5662602782 4280888373
-0.2686437070 -0.1359798610 0.5681452751 4285493883
-0.2691172659 -0.1355872005 0.5691467524 4291678425
-0.2700087130 -0.1354018748 0.5710320473 4291613408
-0.2709003091 -0.1352124363 0.5729176402 4291547615
-0.2713738680 -0.1348111331 0.5739191175 4291547615
-0.2718473673 -0.1344075650 0.5749205351 4291613408
-0.2723208070 -0.1340017617 0.5759217739 4291481822
-0.2727941871 -0.1335936934 0.5769229531 4291481822
-0.2728490233 -0.1329794228 0.5770388842 4291547615
-0.2733221948 -0.1325677782 0.5780395865 4291547615
-0.2737952769 -0.1321538985 0.5790401697 4291613408
-0.2742683291 -0.1317377537 0.5800405741 4291547615
-0.2743224800 -0.1311191767 0.5801550746 4291481822
-0.2747953236 -0.1306994706 0.5811550617 4291547615
-0.2748490870 -0.1300792098 0.5812687874 4291547615
-0.2753216922 -0.1296559423 0.5822682381 4291547615
-0.2753750682 -0.1290340126 0.5823811293 4291547615
-0.2754282057 -0.1284117252 0.5824935436 4291547615
-0.2754811347 -0.1277890652 0.5826054215 4291548126
-0.2759531736 -0.1273596138 0.5836037993 4291548126
-0.2760056853 -0.1267353147 0.5837148428 4291613406
-0.2764775157 -0.1263023019 0.5847126842 4291613406
-0.2769492567 -0.1258670390 0.5857103467 4291679199
-0.2770012021 -0.1252397597 0.5858201981 4291744992
-0.2774727046 -0.1248009428 0.5868173838 4291744992
-0.2775242627 -0.1241720095 0.5869264007 4291876578
-0.2779954970 -0.1237296388 0.5879230499 4292139750
-0.2780466378 -0.1230990589 0.5880311728 4291876578
-0.2785176337 -0.1226531267 0.5890272856 4290758097
-0.2789885402 -0.1222049445 0.5900231600 4288915893
-0.2790391147 -0.1215714142 0.5901301503 4287204761
-0.2790894508 -0.1209375486 0.5902365446 4285691522
-0.2791395187 -0.1203033403 0.5903424621 4284244590
-0.2796098292 -0.1198490113 0.5913370848 4283520867
-0.2796594799 -0.1192131639 0.5914421082 4282665043
-0.2797088921 -0.1185769811 0.5915466547 4282138699
-0.2797580659 -0.1179404557 0.5916506052 4281743942
-0.2802277505 -0.1174799949 0.5926439762 4281480770
-0.2802765071 -0.1168418527 0.5927470326 4281809735
-0.2803249955 -0.1162033677 0.5928496122 4282336079
-0.2803732455 -0.1155645549 0.5929516554 4282072906
-0.2808423042 -0.1150979772 0.5939436555 4281349183
-0.2808901370 -0.1144575551 0.5940448046 4281217597
-0.2809377015 -0.1138167977 0.5941454172 4280888632
-0.2809850276 -0.1131757200 0.5942454934 4281151804
-0.2810320854 -0.1125343218 0.5943450332 4281086011
-0.2810789049 -0.1118925959 0.5944440365 4281480769
-0.2815469503 -0.1114173457 0.5954338908 4281941320
-0.2820148766 -0.1109398529 0.5964234471 4282007111
-0.2820610702 -0.1102952436 0.5965211987 4282730834
-0.2821070254 -0.1096503288 0.5966183543 4283389534
-0.2821527123 -0.1090050936 0.5967149734 4283850085
-0.2830417752 -0.1086834893 0.5985952020 4285429117
-0.2830871046 -0.1080356985 0.5986910462 4286744977
-0.2835541070 -0.1075476408 0.5996786952 4288258216
-0.2840209901 -0.1070573404 0.6006661057 4289245111
-0.2840656638 -0.1064066961 0.6007606387 4289903041
-0.2841100991 -0.1057557389 0.6008545160 4290429385
-0.2841542363 -0.1051044762 0.6009479165 4291021522
-0.2846204340 -0.1046081185 0.6019338369 4291153108
-0.2846641243 -0.1039552912 0.6020262837 4291416280
-0.2851299942 -0.1034554243 0.6030114889 4291679452
-0.2851732373 -0.1028010249 0.6031029820 4291942624
-0.2852162123 -0.1021463275 0.6031938791 4292008417
-0.2852589488 -0.1014913395 0.6032842398 4292271589
-0.2853013873 -0.1008360535 0.6033740044 4293061105
-0.2857663333 -0.1003288925 0.6043573022 4292797163
-0.2754011750 -0.1598367244 0.5838077068 4289243830
-0.2750513852 -0.1589858979 0.5830662251 4286217606
-0.2751155496 -0.1583749950 0.5832021832 4282138440
-0.2747650445 -0.1575260609 0.5824592113 4280427822
-0.2748286724 -0.1569152325 0.5825940371 4280559408
-0.2748920619 -0.1563039720 0.5827284455 4280625199
-0.2741258144 -0.1552226394 0.5811040998 4280427820
-0.2737737596 -0.1543784738 0.5803578496 4280690222
-0.2734213173 -0.1535357535 0.5796107054 4280624429
-0.2730684578 -0.1526944488 0.5788626671 4280821808
-0.2727152109 -0.1518545896 0.5781138539 4280821808
-0.2723615170 -0.1510161608 0.5773640871 4280690222
-0.2720074654 -0.1501791775 0.5766135454 4280690222
-0.2716529667 -0.1493436396 0.5758621097 4280756015
-0.2712980807 -0.1485095471 0.5751097798 4280690222
-0.2705272436 -0.1474504173 0.5734757185 4280756015
-0.2701714635 -0.1466201544 0.5727214813 4280953394
-0.2698152661 -0.1457913667 0.5719664097 4281019187
-0.2694586813 -0.1449640244 0.5712105036 4280953394
-0.2691016793 -0.1441381574 0.5704537630 4280756785
-0.2687442899 -0.1433137506 0.5696961284 4280756785
-0.2683864832 -0.1424908191 0.5689376593 4280756785
-0.2676120996 -0.1414493769 0.5672960877 4280822578
-0.2672534287 -0.1406303346 0.5665357113 4280954164
-0.2668943405 -0.1398127675 0.5657745004 4280756785
-0.2665348649 -0.1389966756 0.5650124550 4280164650
-0.2657584250 -0.1379658282 0.5633665919 4280033064
-0.2662313282 -0.1375842839 0.5643690825 4280559408
-0.2662874758 -0.1369861066 0.5644880533 4280954166
-0.2667602003 -0.1366010010 0.5654901862 4281217595
-0.2672328949 -0.1362136304 0.5664921999 4281020216
-0.2681225240 -0.1360355914 0.5683780909 4286415242
-0.2685951889 -0.1356427819 0.5693800449 4291876061
-0.2694849670 -0.1354574114 0.5712662339 4291548126
-0.2699576318 -0.1350591630 0.5722681880 4291613919
-0.2708475590 -0.1348664612 0.5741547346 4291482333
-0.2713201940 -0.1344627589 0.5751566291 4291416540
-0.2713752389 -0.1338508874 0.5752733350 4291416540
-0.2718476653 -0.1334436089 0.5762748122 4291416540
-0.2723200321 -0.1330340803 0.5772761106 4291350747
-0.2727923393 -0.1326223016 0.5782773495 4291219161
-0.2732645571 -0.1322082728 0.5792784095 4292140265
-0.2729008794 -0.1313895583 0.5785074830 4291942886
-0.2737908363 -0.1311731637 0.5803939700 4291942886
-0.2738446891 -0.1305539906 0.5805081725 4291877093
-0.2738983333 -0.1299344450 0.5806218386 4291877093
-0.2743699551 -0.1295119673 0.5816217065 4292008679
-0.2744232118 -0.1288907379 0.5817345381 4291811300
-0.2744762003 -0.1282691658 0.5818468928 4291679714
-0.2749474645 -0.1278418154 0.5828459263 4292205029
-0.2750000954 -0.1272185743 0.5829574466 4292073443
-0.2750524580 -0.1265949756 0.5830684900 4292007650
-0.2755233347 -0.1261627525 0.5840666294 4291876064
-0.2755753100 -0.1255374998 0.5841768384 4291876064
-0.2760459483 -0.1251017153 0.5851745009 4291744478
-0.2765164971 -0.1246636808 0.5861719847 4292205029
-0.2765679061 -0.1240354627 0.5862810016 4291941857
-0.2770382166 -0.1235938743 0.5872779489 4289902274
-0.2775084078 -0.1231500357 0.5882747173 4286349452
-0.2779785395 -0.1227039397 0.5892713070 4283520353
-0.2780292332 -0.1220714673 0.5893787742 4281941321
-0.2780796587 -0.1214386523 0.5894856453 4281480770
-0.2781298459 -0.1208054945 0.5895920992 4281546563
-0.2781798244 -0.1201719940 0.5896979570 4282138700
-0.2782295048 -0.1195381507 0.5898033381 4282270286
-0.2786987126 -0.1190833151 0.5907979608 4281743942
-0.2787480056 -0.1184478402 0.5909023881 4281875528
-0.2787970304 -0.1178120300 0.5910063982 4281941321
-0.2792657912 -0.1173523515 0.5920000672 4281809735
-0.2793143988 -0.1167149171 0.5921031237 4281414977
-0.2793627679 -0.1160771474 0.5922056437 4280888633
-0.2794108987 -0.1154390499 0.5923076868 4280822839
-0.2798790038 -0.1149732545 0.5932999849 4281151804
-0.2799267173 -0.1143335328 0.5934011340 4281414976
-0.2799741626 -0.1136934906 0.5935016870 4281743941
-0.2800213397 -0.1130531207 0.5936017632 4282072906
-0.2800683081 -0.1124124303 0.5937012434 4282270285
-0.2801150084 -0.1117714196 0.5938002467 4282730836
-0.2805821002 -0.1112969518 0.5947904587 4283257180
-0.2806283534 -0.1106543392 0.5948885083 4284178280
-0.2810951769 -0.1101763397 0.5958780646 4285494140
-0.2811409831 -0.1095321327 0.5959752202 4286877084
-0.2816075087 -0.1090506092 0.5969641209 4287995565
-0.2820738852 -0.1085668504 0.5979527831 4289311166
-0.2821190953 -0.1079197675 0.5980486274 4290166475
-0.2825851738 -0.1074324846 0.5990366340 4290758097
-0.2826299071 -0.1067838222 0.5991314650 4290955476
-0.2826744020 -0.1061348468 0.5992258191 4291152338
-0.2831399739 -0.1056427807 0.6002127528 4291349717
-0.2831840217 -0.1049922258 0.6003060937 4291284178
-0.2832278013 -0.1043413728 0.6003989577 4291481557
-0.2832713425 -0.1036902219 0.6004912257 4291613659
-0.2837361991 -0.1031920984 0.6014766693 4291876831
-0.2837792635 -0.1025393754 0.6015679240 4292140516
-0.2838220894 -0.1018863618 0.6016587019 4292403688
-0.2838646472 -0.1012330502 0.6017488837 4292798446
-0.2746692002 -0.1617334783 0.5836301446 4289375929
-0.2747342288 -0.1611231565 0.5837683082 4288783792
-0.2743858099 -0.1602710336 0.5830279589 4288323239
-0.2744503021 -0.1596607715 0.5831650496 4287665309
-0.2741011679 -0.1588105559 0.5824231505 4286546569
-0.2737516165 -0.1579617411 0.5816804171 4283980642
-0.2738153040 -0.1573520452 0.5818157196 4282138438
-0.2738787234 -0.1567419171 0.5819505453 4281019957
-0.2739419639 -0.1561313570 0.5820848942 4280493613
-0.2731771767 -0.1550505310 0.5804597735 4280362027
-0.2724117637 -0.1539729834 0.5788334608 4280559406
-0.2724739611 -0.1533648670 0.5789656043 4280493613
-0.2721217573 -0.1525241733 0.5782172084 4280559406
-0.2721834183 -0.1519161612 0.5783482194 4280493613
-0.2718304992 -0.1510774195 0.5775983334 4280624429
-0.2714771628 -0.1502401233 0.5768474936 4280624429
-0.2711234093 -0.1494042724 0.5760958791 4280690222
-0.2707692683 -0.1485698670 0.5753433704 4280690222
-0.2704147100 -0.1477369219 0.5745900273 4280756015
-0.2700597644 -0.1469054222 0.5738357902 4280887601
-0.2701193392 -0.1463001221 0.5739623904 4280887601
-0.2697636783 -0.1454706192 0.5732066631 4280953394
-0.2694076002 -0.1446425766 0.5724500418 4280821808
-0.2690511346 -0.1438159943 0.5716925859 4280821808
-0.2686942816 -0.1429908872 0.5709342957 4280756785
-0.2679216266 -0.1419471800 0.5692925453 4280888371
-0.2675638497 -0.1411259621 0.5685323477 4280954164
-0.2667901218 -0.1400880069 0.5668883324 4280822578
-0.2664314806 -0.1392706782 0.5661262870 4280098857
-0.2656567097 -0.1382385045 0.5644799471 4280098857
-0.2661288381 -0.1378558874 0.5654831529 4280559408
-0.2657690942 -0.1370420903 0.5647187233 4281019959
-0.2662409544 -0.1366568506 0.5657213926 4281480767
-0.2671288252 -0.1364819407 0.5676079988 4281349181
-0.2676006854 -0.1360912472 0.5686106086 4287138965
-0.2680724859 -0.1356983036 0.5696130991 4291941854
-0.2689605653 -0.1355128735 0.5715001822 4291350747
-0.2694323659 -0.1351144910 0.5725026727 4291416540
-0.2699040771 -0.1347138435 0.5735049844 4291416540
-0.2703757584 -0.1343109459 0.5745071769 4291416540
-0.2708473504 -0.1339057833 0.5755093098 4291350747
-0.2709021270 -0.1332933009 0.5756256580 4291350747
-0.2713735402 -0.1328845769 0.5766273737 4291416540
-0.2718448639 -0.1324735880 0.5776288509 4291284954
-0.2723161578 -0.1320603490 0.5786302686 4291679201
-0.2723702490 -0.1314435601 0.5787452459 4291744994
-0.2728413045 -0.1310267448 0.5797461867 4291876580
-0.2728950381 -0.1304082870 0.5798603296 4291876580
-0.2733658850 -0.1299879104 0.5808607936 4291810787
-0.2734192014 -0.1293677688 0.5809741020 4291679201
-0.2734723091 -0.1287472546 0.5810869336 4291613408
-0.2739427686 -0.1283220053 0.5820866227 4291613408
-0.2739954889 -0.1276998371 0.5821986198 4291876064
-0.2744657099 -0.1272710264 0.5831977725 4291876064
-0.2745180428 -0.1266471893 0.5833089352 4291679199
-0.2745701373 -0.1260229945 0.5834196210 4291481820
-0.2746219635 -0.1253984421 0.5835297704 4291876578
-0.2750916481 -0.1249634549 0.5845277905 4291876578
-0.2755612433 -0.1245262101 0.5855255723 4290691790
-0.2756125331 -0.1238987073 0.5856345892 4287994277
-0.2756635845 -0.1232708544 0.5857430100 4283191388
-0.2765511274 -0.1230148524 0.5876289606 4281743942
-0.2770203054 -0.1225695461 0.5886259079 4281547077
-0.2770708799 -0.1219377890 0.5887333155 4281744456
-0.2771211863 -0.1213056818 0.5888401866 4281810249
-0.2771712244 -0.1206732392 0.5889465809 4281810249
-0.2772210538 -0.1200404465 0.5890524387 4281941321
-0.2772706449 -0.1194073185 0.5891577601 4281414977
-0.2777388692 -0.1189532652 0.5901527405 4280822839
-0.2777880430 -0.1183185056 0.5902571678 4280822839
-0.2778369486 -0.1176834032 0.5903611183 4280757047
-0.2778856158 -0.1170479655 0.5904645324 4281020219
-0.2783532441 -0.1165877879 0.5914581418 4281414977
-0.2784014940 -0.1159507260 0.5915606618 4281612356
-0.2784494758 -0.1153133363 0.5916626453 4281809734
-0.2784972489 -0.1146756187 0.5917641521 4282138699
-0.2785447538 -0.1140375733 0.5918650627 4282401871
-0.2785919905 -0.1133992076 0.5919654965 4282796629
-0.2786389887 -0.1127605140 0.5920653343 4283322973
-0.2791054547 -0.1122903526 0.5930565000 4284244075
-0.2791520357 -0.1116500497 0.5931554437 4285888900
-0.2796182036 -0.1111763641 0.5941460133 4287402139
-0.2800842524 -0.1107004285 0.5951362848 4288586411
-0.2801302075 -0.1100572422 0.5952339768 4289639099
-0.2801759243 -0.1094137430 0.5953310728 4290166475
-0.2806414962 -0.1089330092 0.5963203311 4290495440
-0.2806867659 -0.1082879156 0.5964165330 4290824405
-0.2811520100 -0.1078036502 0.5974051356 4290955991
-0.2811968327 -0.1071569771 0.5975003839 4291087575
-0.2812414169 -0.1065099835 0.5975950956 4291219161
-0.2817061841 -0.1060209349 0.5985826254 4291416795
-0.2817502916 -0.1053723618 0.5986763835 4291614174
-0.2817941606 -0.1047234908 0.5987696052 4291745758
-0.2818377614 -0.1040743217 0.5988622308 4292074723
-0.2818811238 -0.1034248471 0.5989543796 4292534759
-0.2819242179 -0.1027750745 0.5990459323 4292929517
-0.2735231519 -0.1633814722 0.5825698376 4289441720
-0.2735886574 -0.1627731621 0.5827093124 4289178550
-0.2732418180 -0.1619202048 0.5819705725 4288520620
-0.2733067870 -0.1613119394 0.5821089745 4287928483
-0.2733715475 -0.1607032418 0.5822468996 4286744209
-0.2730236650 -0.1598526537 0.5815059543 4285559933
-0.2730878890 -0.1592440158 0.5816428065 4284704624
-0.2727392912 -0.1583953202 0.5809003115 4284441706
-0.2728030086 -0.1577867419 0.5810360312 4283717983
-0.2728665173 -0.1571777463 0.5811712742 4282665295
-0.2725168765 -0.1563314497 0.5804265738 4281415228
-0.2725798488 -0.1557225287 0.5805606842 4280823091
-0.2722294927 -0.1548781693 0.5798144937 4280494126
-0.2718787491 -0.1540352255 0.5790674090 4280625199
-0.2715275884 -0.1531937271 0.5783194900 4280559406
-0.2715893984 -0.1525858939 0.5784511566 4280822578
-0.2716509998 -0.1519776583 0.5785823464 4280690992
-0.2712987959 -0.1511386037 0.5778322220 4280625199
-0.2705325484 -0.1500715315 0.5762001872 4280625199
-0.2705931962 -0.1494648308 0.5763294101 4280559406
-0.2706536353 -0.1488577276 0.5764581561 4280559406
-0.2702999413 -0.1480235457 0.5757047534 4280756015
-0.2699458003 -0.1471908092 0.5749505162 4280821808
-0.2695913017 -0.1463595331 0.5741954446 4280756015
-0.2696505785 -0.1457536072 0.5743217468 4280953394
-0.2692953348 -0.1449243128 0.5735651255 4280821808
-0.2693541050 -0.1443185359 0.5736902952 4280821808
-0.2685836852 -0.1432701498 0.5720493793 4280822578
-0.2682272494 -0.1424452662 0.5712901950 4280888371
-0.2674557567 -0.1414026469 0.5696470141 4280954166
-0.2670984268 -0.1405816525 0.5688859820 4280756787
-0.2667407095 -0.1397621483 0.5681240559 4280164650
-0.2663825750 -0.1389441341 0.5673612952 4280164650
-0.2660240531 -0.1381275952 0.5665977001 4280690994
-0.2656651437 -0.1373125613 0.5658332705 4280954166
-0.2657210231 -0.1367126256 0.5659523010 4281677889
-0.2661919594 -0.1363249868 0.5669553280 4281677889
-0.2666628361 -0.1359351128 0.5679582357 4288191653
-0.2675491273 -0.1357537657 0.5698459148 4292007647
-0.2680200040 -0.1353584230 0.5708488226 4291547615
-0.2684908211 -0.1349608302 0.5718516111 4291481822
-0.2689615786 -0.1345609874 0.5728542805 4291416029
-0.2694322765 -0.1341588795 0.5738568306 4291350236
-0.2699029446 -0.1337545216 0.5748592019 4291218650
-0.2703735232 -0.1333479136 0.5758615136 4291218650
-0.2708440423 -0.1329390407 0.5768637061 4291416029
-0.2713145316 -0.1325279027 0.5778657198 4291218650
-0.2713687122 -0.1319122016 0.5779811144 4291810785
-0.2718389630 -0.1314975023 0.5789827108 4291679199
-0.2718927860 -0.1308801025 0.5790973306 4291547613
-0.2723627985 -0.1304618418 0.5800984502 4291613406
-0.2724162340 -0.1298427731 0.5802122355 4291679199
-0.2728860676 -0.1294209361 0.5812128782 4291679199
-0.2729390860 -0.1288001984 0.5813258886 4291679199
-0.2734086812 -0.1283747852 0.5823260546 4291481820
-0.2734613419 -0.1277523786 0.5824381709 4292138982
-0.2735137641 -0.1271296144 0.5825498104 4292007396
-0.2735659480 -0.1265064925 0.5826609731 4291810787
-0.2736178935 -0.1258830130 0.5827715993 4291679201
-0.2740867734 -0.1254501194 0.5837702751 4291087064
-0.2741383016 -0.1248249784 0.5838800669 4288652723
-0.2750242949 -0.1245775670 0.5857670903 4285362303
-0.2750755250 -0.1239498258 0.5858761668 4282862169
-0.2751265168 -0.1233217269 0.5859847665 4282401618
-0.2755948305 -0.1228794605 0.5869822502 4281809481
-0.2760630548 -0.1224349439 0.5879794955 4281020733
-0.2761134803 -0.1218038946 0.5880868435 4280625975
-0.2761636376 -0.1211725026 0.5881937146 4280889147
-0.2762135863 -0.1205407679 0.5883001089 4280823354
-0.2762632668 -0.1199086979 0.5884059072 4280822840
-0.2767307162 -0.1194567233 0.5894015431 4280822840
-0.2767800093 -0.1188230142 0.5895065069 4280428081
-0.2768290341 -0.1181889623 0.5896109343 4281151804
-0.2768778205 -0.1175545752 0.5897148252 4281612356
-0.2769263685 -0.1169198528 0.5898182392 4281809735
