VERSION 0.7
FIELDS x y z rgba
SIZE 4 4 4 4
TYPE F F F U
COUNT 1 1 1 1
WIDTH 920
HEIGHT 1
VIEWPOINT 0.0 0.0 0.0 1.0 0.0 0.0 0.0
POINTS 920
DATA ascii
-0.2699299157 -0.1742949635 0.5477080345 4282997661
-0.2695756257 -0.1734584570 0.5469891429 4284576693
-0.2696462274 -0.1728959829 0.5471324325 4282997661
-0.2697166502 -0.1723330617 0.5472753048 4282800282
-0.2697868645 -0.1717697084 0.5474177599 4285103037
-0.2694312334 -0.1709358692 0.5466961861 4285366209
-0.2695009708 -0.1703725308 0.5468376875 4283787177
-0.2691446245 -0.1695404947 0.5461146235 4285103037
-0.2687878609 -0.1687097996 0.5453907847 4285037244
-0.2688567936 -0.1681469381 0.5455306172 4285037242
-0.2689255178 -0.1675836295 0.5456700325 4283984554
-0.2685677409 -0.1667552143 0.5449441075 4282800280
-0.2682095468 -0.1659281552 0.5442172885 4284050347
-0.2678509653 -0.1651024520 0.5434896946 4284905656
-0.2683452070 -0.1648021191 0.5444925427 4284050347
-0.2679859996 -0.1639773548 0.5437636971 4282866332
-0.2680532038 -0.1634141803 0.5439000726 4282405781
-0.2676932812 -0.1625912488 0.5431697369 4282274197
-0.2677600086 -0.1620281339 0.5433051586 4282471576
-0.2678265274 -0.1614645720 0.5434401035 4281485194
-0.2678928375 -0.1609006077 0.5435746908 4280629885
-0.2679589689 -0.1603362262 0.5437088609 4281156229
-0.2680248916 -0.1597714126 0.5438426137 4281682573
-0.2676630318 -0.1589522809 0.5431083441 4281221767
-0.2681561112 -0.1586405635 0.5441088676 4280958595
-0.2677936554 -0.1578224003 0.5433734059 4280696452
-0.2678586543 -0.1572568417 0.5435053110 4280630659
-0.2679234743 -0.1566908658 0.5436367989 4280498822
-0.2675599754 -0.1558750868 0.5428992510 4281025166
-0.2676242888 -0.1553092003 0.5430297256 4281749669
-0.2676883638 -0.1547429115 0.5431597829 4283131322
-0.2677522600 -0.1541762054 0.5432894230 4283985855
-0.2682444751 -0.1538548768 0.5442881584 4284117441
-0.2687366605 -0.1535313278 0.5452868342 4284314808
-0.2692288458 -0.1532055587 0.5462855101 4285630668
-0.2701498568 -0.1531206220 0.5481542945 4289829524
-0.2706421316 -0.1527895033 0.5491531491 4289829524
-0.2719924152 -0.1529386044 0.5518929958 4290092181
-0.2733430862 -0.1530818492 0.5546336770 4290289560
-0.2742649615 -0.1529798061 0.5565041900 4289961878
-0.2751870155 -0.1528737098 0.5583750606 4290093464
-0.2761092484 -0.1527635604 0.5602463484 4290158487
-0.2770316601 -0.1526493430 0.5621179938 4290290073
-0.2779542208 -0.1525310725 0.5639899969 4290093215
-0.2788769901 -0.1524087340 0.5658623576 4289369492
-0.2797999382 -0.1522823423 0.5677350760 4286613160
-0.2807230353 -0.1521518677 0.5696080923 4286086816
-0.2816463113 -0.1520173252 0.5714814663 4286152887
-0.2821396589 -0.1516475379 0.5724825263 4286152887
-0.2830631435 -0.1515057534 0.5743563771 4287864510
-0.2835565507 -0.1511305720 0.5753574967 4292338431
-0.2840498984 -0.1507531404 0.5763585567 4293653747
-0.2854041457 -0.1508284509 0.5791064501 4293653747
-0.2846058905 -0.1497649699 0.5774867535 4293653753
-0.2859603763 -0.1498330384 0.5802350640 4293785339
-0.2864536643 -0.1494457126 0.5812360048 4293653494
-0.2869469225 -0.1490561366 0.5822368264 4293916666
-0.2874401212 -0.1486643255 0.5832375884 4293851134
-0.2883643210 -0.1484922171 0.5851128697 4293653755
-0.2888575494 -0.1480949819 0.5861136317 4293719548
-0.2897819281 -0.1479156166 0.5879892707 4293719548
-0.2902751267 -0.1475129575 0.5889900327 4293061618
-0.2907682955 -0.1471080482 0.5899906754 4292206309
-0.2912614048 -0.1467008889 0.5909912586 4292074721
-0.2921860516 -0.1465078890 0.5928673744 4292798444
-0.2926791310 -0.1460953057 0.5938678980 4293719546
-0.2936039269 -0.1458950192 0.5957443714 4293785339
-0.2940969765 -0.1454769969 0.5967448354 4293916925
-0.2950219214 -0.1452694088 0.5986216068 4294048511
-0.2959469855 -0.1450577229 0.6004986763 4294114303
-0.2955696881 -0.2033030838 0.6010876894 4282600808
-0.2948067784 -0.2021121979 0.5995361805 4281483139
-0.2919307947 -0.1994808763 0.5936874747 4281417346
-0.2856722772 -0.1945588291 0.5809597373 4281221248
-0.2777192295 -0.1885148436 0.5647859573 4281352834
-0.2744126618 -0.1856503040 0.5580615401 4282405006
-0.2727957964 -0.1839400530 0.5547733903 4282799764
-0.2711778283 -0.1822363585 0.5514829755 4282273168
-0.2704050839 -0.1811060756 0.5499114990 4281681031
-0.2700549960 -0.1802613884 0.5491995215 4280958848
-0.2701278627 -0.1796996742 0.5493477583 4280827262
-0.2697770596 -0.1788567305 0.5486342907 4281023869
-0.2698494494 -0.1782949865 0.5487815142 4281089662
-0.2699216604 -0.1777327955 0.5489283800 4281550213
-0.2699936628 -0.1771701574 0.5490748286 4281550213
-0.2696415186 -0.1763298064 0.5483586788 4282273936
-0.2697130442 -0.1757671535 0.5485041142 4282800280
-0.2693601847 -0.1749285758 0.5477865338 4282997659
-0.2694312036 -0.1743659079 0.5479309559 4283260831
-0.2695020437 -0.1738027930 0.5480750203 4283984556
-0.2691481709 -0.1729664207 0.5473553538 4283260833
-0.2692185044 -0.1724033207 0.5474984050 4283589798
-0.2692886591 -0.1718397737 0.5476410389 4283458212
-0.2693586051 -0.1712757796 0.5477833152 4283852970
-0.2690033913 -0.1704420894 0.5470609665 4285168830
-0.2686477602 -0.1696097553 0.5463377237 4286024139
-0.2687169313 -0.1690462381 0.5464783311 4284313521
-0.2683605850 -0.1682156920 0.5457536578 4284774068
-0.2684292197 -0.1676522046 0.5458933115 4284971447
-0.2684976757 -0.1670882702 0.5460324883 4281484418
-0.2677147090 -0.1659961045 0.5444402099 4285037240
-0.2677825689 -0.1654331088 0.5445781946 4286155721
-0.2674243748 -0.1646075696 0.5438497663 4284642482
-0.2674917281 -0.1640446186 0.5439867377 4284182192
-0.2675588727 -0.1634812355 0.5441232920 4284511157
-0.2676258087 -0.1629174352 0.5442594290 4284116399
-0.2672663033 -0.1620946825 0.5435283184 4284708536
-0.2673327625 -0.1615309417 0.5436634421 4282603673
-0.2673990130 -0.1609667689 0.5437982082 4281879950
-0.2674650550 -0.1604021788 0.5439324975 4282274710
-0.2675309181 -0.1598371863 0.5440664291 4282011538
-0.2675965726 -0.1592717618 0.5441999435 4281155974
-0.2676620185 -0.1587059200 0.5443330407 4281024388
-0.2673002779 -0.1578874588 0.5435974002 4280564870
-0.2673652172 -0.1573216915 0.5437294841 4280499077
-0.2674299777 -0.1567555219 0.5438611507 4280498824
-0.2670671940 -0.1559394300 0.5431233644 4281090961
-0.2671314180 -0.1553733498 0.5432540178 4281750182
-0.2671954632 -0.1548068523 0.5433842540 4283066042
-0.2676869035 -0.1544867307 0.5443836451 4283854783
-0.2677506208 -0.1539185196 0.5445132852 4283986369
-0.2682419717 -0.1535948664 0.5455124974 4284183483
-0.2687333226 -0.1532689929 0.5465117097 4285499343
-0.2696526647 -0.1531840414 0.5483813286 4289566869
-0.2701441050 -0.1528528035 0.5493807197 4289698455
-0.2714919448 -0.1530020088 0.5521218181 4290092696
-0.2728402019 -0.1531453431 0.5548636913 4290158489
-0.2737604082 -0.1530432850 0.5567350984 4289962389
-0.2746808231 -0.1529371738 0.5586069226 4290028182
-0.2756014168 -0.1528270096 0.5604790449 4289896596
-0.2765221894 -0.1527127773 0.5623515844 4290028182
-0.2774431109 -0.1525944918 0.5642244816 4289633953
-0.2783642411 -0.1524721235 0.5660976768 4288449679
-0.2801435590 -0.1528137326 0.5697162151 4285890993
-0.2793487608 -0.1517490000 0.5680999160 4285890993
-0.2811286151 -0.1520806402 0.5717194676 4286021817
-0.2816210985 -0.1517107189 0.5727210641 4286087610
-0.2821135819 -0.1513385624 0.5737225413 4288193473
-0.2826060057 -0.1509641707 0.5747240186 4292535807
-0.2835280001 -0.1508160383 0.5765990019 4293654006
-0.2848798037 -0.1508914083 0.5793481469 4293654006
-0.2840830982 -0.1498275101 0.5777279139 4293587962
-0.2854351103 -0.1498956382 0.5804774761 4293851134
-0.2859275639 -0.1495081782 0.5814788938 4293654007
-0.2864199579 -0.1491184682 0.5824803114 4293917179
-0.2869123220 -0.1487265080 0.5834815502 4293587962
-0.2878348827 -0.1485543698 0.5853577256 4293785341
-0.2887575626 -0.1483781189 0.5872341990 4293653755
-0.2892499864 -0.1479775757 0.5882355571 4293061618
-0.2897423208 -0.1475747675 0.5892368555 4292337895
-0.2902346253 -0.1471697241 0.5902380347 4292403688
-0.2911576033 -0.1469798386 0.5921149850 4293258995
-0.2916498780 -0.1465693563 0.5931161642 4293982718
-0.2921421230 -0.1461566240 0.5941171646 4293982718
-0.2930652499 -0.1459562778 0.5959945321 4293851132
-0.2935574651 -0.1455381066 0.5969955325 4293916925
-0.2944807708 -0.1453304738 0.5988731980 4294048511
-0.2949729562 -0.1449068636 0.5998741388 4294114303
-0.2933349311 -0.2022227198 0.5978934765 4282600806
-0.2925730348 -0.2010348886 0.5963404775 4281483650
-0.2905454040 -0.1989836544 0.5922076106 4281352064
-0.2838765085 -0.1937734932 0.5786147118 4280892796
-0.2767817974 -0.1883038431 0.5641537905 4281024382
-0.2739033401 -0.1857252419 0.5582867265 4282733971
-0.2722895443 -0.1840143353 0.5549974442 4283391901
-0.2710969150 -0.1825944036 0.5525665283 4282668694
-0.2699033916 -0.1811792850 0.5501338243 4282537108
-0.2695539892 -0.1803342998 0.5494216681 4282208913
-0.2696267962 -0.1797724068 0.5495700836 4281682569
-0.2696994245 -0.1792100519 0.5497180820 4281813383
-0.2697718441 -0.1786472350 0.5498657227 4282208141
-0.2698440850 -0.1780839711 0.5500129461 4281155453
-0.2694930732 -0.1772420108 0.5492975116 4281023867
-0.2695648372 -0.1766787171 0.5494437218 4281155455
-0.2692130804 -0.1758385152 0.5487267971 4281550213
-0.2692843378 -0.1752752215 0.5488720536 4281155455
-0.2693554163 -0.1747114807 0.5490168929 4281681799
-0.2690026462 -0.1738734692 0.5482978821 4281287041
-0.2690732181 -0.1733097285 0.5484417081 4282405522
-0.2687197626 -0.1724735051 0.5477212667 4282208143
-0.2687898278 -0.1719097644 0.5478640795 4282076557
-0.2688597143 -0.1713455766 0.5480065346 4282734489
-0.2685052156 -0.1705115885 0.5472839475 4283195040
-0.2681502998 -0.1696789414 0.5465605855 4284181935
-0.2682193816 -0.1691152155 0.5467013717 4281944973
-0.2682882547 -0.1685510725 0.5468418002 4281616004
-0.2679323554 -0.1677206904 0.5461162925 4284642482
-0.2680007219 -0.1671565622 0.5462557077 4282603153
-0.2672192454 -0.1660639942 0.5446628332 4284708529
-0.2672870159 -0.1655008048 0.5448009968 4285300412
-0.2669295669 -0.1646749526 0.5440723896 4286353100
-0.2669968307 -0.1641118079 0.5442095399 4284313778
-0.2670639157 -0.1635482311 0.5443462729 4285234880
-0.2671307921 -0.1629842371 0.5444825888 4284116401
-0.2671974897 -0.1624198109 0.5446184874 4285037503
-0.2672639787 -0.1618549675 0.5447540283 4285037503
-0.2673302591 -0.1612896919 0.5448891521 4284379573
-0.2669705749 -0.1604680717 0.5441559553 4282998178
-0.2670363486 -0.1599028707 0.5442900658 4282735006
-0.2671019435 -0.1593372524 0.5444236994 4281353355
-0.2671673298 -0.1587712169 0.5445569754 4280892804
-0.2672325075 -0.1582047641 0.5446898341 4280302215
-0.2668711841 -0.1573864818 0.5439533591 4280302215
-0.2669358552 -0.1568201035 0.5440852046 4280302215
-0.2665738165 -0.1560037136 0.5433472395 4280960145
-0.2666379809 -0.1554374248 0.5434780717 4281619363
-0.2671286762 -0.1551185250 0.5444782376 4282935223
-0.2671925426 -0.1545505077 0.5446084142 4283855294
-0.2676831186 -0.1542280614 0.5456083417 4283986880
-0.2681736946 -0.1539033949 0.5466082692 4283986874
-0.2686643004 -0.1535765082 0.5476081967 4285302734
-0.2691548765 -0.1532474011 0.5486081243 4289435544
-0.2700727582 -0.1531583965 0.5504790545 4289632923
-0.2709908783 -0.1530653536 0.5523504019 4289895832
-0.2723366916 -0.1532087624 0.5550935268 4289961625
-0.2732552588 -0.1531067044 0.5569658279 4289962899
-0.2741740048 -0.1530005783 0.5588384867 4289962899
-0.2750929594 -0.1528903842 0.5607115030 4289634451
-0.2760120630 -0.1527761370 0.5625849366 4289766037
-0.2769313753 -0.1526578367 0.5644586682 4289370788
-0.2778508365 -0.1525354534 0.5663328171 4287923342
-0.2796269059 -0.1528772265 0.5699529052 4285497526
-0.2788336575 -0.1518120766 0.5683360696 4285826491
-0.2806102633 -0.1521438807 0.5719572902 4285956537
-0.2811019123 -0.1517738402 0.5729593635 4286088123
-0.2815935314 -0.1514015645 0.5739613771 4288325829
-0.2820850909 -0.1510270387 0.5749633312 4292536575
-0.2830054462 -0.1508788764 0.5768392086 4293654006
-0.2834970355 -0.1504989415 0.5778412223 4293654006
-0.2839885950 -0.1501167566 0.5788431764 4293456889
-0.2849092185 -0.1499581784 0.5807196498 4293785854
-0.2854008079 -0.1495705694 0.5817216039 4293654006
-0.2858923376 -0.1491807401 0.5827234983 4293917178
-0.2868131995 -0.1490117162 0.5846004486 4293785341
-0.2873047590 -0.1486164480 0.5856023431 4293456376
-0.2877962589 -0.1482189298 0.5866041780 4292732655
-0.2887173593 -0.1480394602 0.5884816051 4292206311
-0.2896385789 -0.1478558928 0.5903593302 4292206309
-0.2901301086 -0.1474497765 0.5913612247 4292864239
-0.2906216085 -0.1470413953 0.5923629999 4293587960
-0.2915430367 -0.1468473524 0.5942411423 4293522167
-0.2920345068 -0.1464335471 0.5952428579 4293456374
-0.2925259173 -0.1460174769 0.5962444544 4293719546
-0.2930172682 -0.1455991566 0.5972459912 4293982718
-0.2939389348 -0.1453914642 0.5991245508 4293916925
-0.2944302559 -0.1449676901 0.6001259685 4293916925
-0.2919471562 -0.2017226517 0.5964149833 4282797667
-0.2911865115 -0.2005361468 0.5948610306 4281220221
-0.2891624570 -0.1984858811 0.5907261968 4281286014
-0.2820848227 -0.1929873824 0.5762673020 4280958337
-0.2762664258 -0.1883796901 0.5643810630 4281287302
-0.2733933926 -0.1858000904 0.5585117340 4282799512
-0.2717826664 -0.1840885282 0.5552212000 4283194270
-0.2705923021 -0.1826680750 0.5527894497 4282339477
-0.2694010735 -0.1812524348 0.5503559113 4283655337
-0.2694741189 -0.1806899160 0.5505051017 4283328166
-0.2691251338 -0.1798450500 0.5497921705 4282604443
-0.2691976726 -0.1792825013 0.5499403477 4282800539
-0.2692700326 -0.1787195057 0.5500881672 4283129504
-0.2693421841 -0.1781560481 0.5502355695 4281945230
-0.2694141567 -0.1775921434 0.5503826141 4280892542
-0.2690635622 -0.1767503172 0.5496664047 4282208145
-0.2691350281 -0.1761863828 0.5498124361 4282800282
-0.2687837183 -0.1753463149 0.5490946770 4281682060
-0.2688547075 -0.1747823805 0.5492396951 4281879439
-0.2685026526 -0.1739440709 0.5485205650 4281089923
-0.2685731649 -0.1733801365 0.5486645699 4281550474
-0.2686434686 -0.1728157550 0.5488081574 4281484422
-0.2682904005 -0.1719796658 0.5480868816 4281089664
-0.2683601975 -0.1714152992 0.5482295156 4281616008
-0.2684298158 -0.1708504856 0.5483717322 4281352836
-0.2680757344 -0.1700166464 0.5476483703 4281878926
-0.2677212358 -0.1691841483 0.5469241738 4281220996
-0.2677900493 -0.1686197966 0.5470647812 4281024131
-0.2674348354 -0.1677891165 0.5463390946 4282208405
-0.2675031722 -0.1672247946 0.5464786887 4283260063
-0.2671472430 -0.1663959324 0.5457515717 4283260063
-0.2667908967 -0.1655684114 0.5450236201 4284246956
-0.2672826648 -0.1652669311 0.5460281968 4284246956
-0.2665013671 -0.1641789228 0.5444321036 4284181933
-0.2665683627 -0.1636151522 0.5445690155 4284905656
-0.2666351795 -0.1630509496 0.5447055101 4283722154
-0.2667017877 -0.1624863297 0.5448415875 4283919533
-0.2667682171 -0.1619212925 0.5449772477 4284380086
-0.2668344378 -0.1613558233 0.5451125503 4284972223
-0.2669004500 -0.1607899368 0.5452474356 4282076819
-0.2665411830 -0.1599684954 0.5445134640 4281747854
-0.2666066885 -0.1594026834 0.5446472764 4281090183
-0.2666720152 -0.1588364393 0.5447807312 4280892804
-0.2667371333 -0.1582697928 0.5449137092 4280172679
-0.2663765252 -0.1574511975 0.5441770554 4280041093
-0.2664411366 -0.1568846256 0.5443090200 4280499594
-0.2665055394 -0.1563176364 0.5444406271 4281025938
-0.2661439180 -0.1555014402 0.5437018871 4281749160
-0.2666337490 -0.1551824361 0.5447025299 4283262399
-0.2666975558 -0.1546142101 0.5448328853 4283855548
-0.2671872675 -0.1542916745 0.5458333492 4283921341
-0.2676770091 -0.1539669037 0.5468338132 4284969666
-0.2681667209 -0.1536399126 0.5478342772 4286285526
-0.2686564624 -0.1533106863 0.5488347411 4288912294
-0.2695727050 -0.1532216817 0.5507065058 4289109673
-0.2704891562 -0.1531286240 0.5525787473 4289633675
-0.2714057863 -0.1530315131 0.5544512868 4289831054
-0.2727494538 -0.1531700492 0.5571962595 4289963416
-0.2736665606 -0.1530639082 0.5590698123 4290029209
-0.2745838463 -0.1529537141 0.5609437227 4290028441
-0.2755013406 -0.1528394520 0.5628179908 4289436304
-0.2764189839 -0.1527211070 0.5646926761 4287205295
-0.2773368061 -0.1525987089 0.5665676594 4286481572
-0.2782548070 -0.1524722427 0.5684430599 4285694643
-0.2791729569 -0.1523416936 0.5703187585 4285892022
-0.2800912857 -0.1522070616 0.5721948147 4286153403
-0.2805820704 -0.1518369019 0.5731974244 4286153403
-0.2810728252 -0.1514644921 0.5741999745 4288850638
-0.2815635502 -0.1510898322 0.5752024055 4292798207
-0.2824822366 -0.1509416401 0.5770792365 4294047481
-0.2838291824 -0.1510171294 0.5798308849 4293850102
-0.2830354869 -0.1499524117 0.5782094598 4293849599
-0.2843826413 -0.1500206441 0.5809615254 4293915391
-0.2848733664 -0.1496329159 0.5819640756 4293261564
-0.2853640616 -0.1492429376 0.5829664469 4293327357
-0.2862832844 -0.1490738690 0.5848442912 4293324537
-0.2867739797 -0.1486784667 0.5858467221 4292403435
-0.2872646153 -0.1482808143 0.5868490934 4292008677
-0.2881840467 -0.1481013000 0.5887274146 4292469228
-0.2891036272 -0.1479176730 0.5906059742 4292666607
-0.2895943224 -0.1475114077 0.5916084051 4292666607
-0.2900849581 -0.1471028924 0.5926107168 4292930034
-0.2910047472 -0.1469087899 0.5944897532 4292732655
-0.2914953530 -0.1464948356 0.5954920053 4292995825
-0.2919858992 -0.1460786313 0.5964941382 4293851134
-0.2924764156 -0.1456601620 0.5974961519 4294114303
-0.2933964133 -0.1454523951 0.5993756056 4293851134
-0.2938868701 -0.1450284719 0.6003776193 4293916927
-0.2905618548 -0.2012220472 0.5949348807 4282797667
-0.2898024619 -0.2000368536 0.5933799744 4281286014
-0.2882021666 -0.1982765943 0.5901033282 4281417600
-0.2807174325 -0.1924886405 0.5747780800 4281089923
-0.2757504582 -0.1884554625 0.5646080375 4281155716
-0.2733033001 -0.1861612648 0.5595974326 4282141582
-0.2716957629 -0.1844481826 0.5563059449 4282273168
-0.2705078125 -0.1830263138 0.5538735390 4281813133
-0.2697397768 -0.1818930209 0.5523009896 4282997407
-0.2689711154 -0.1807627827 0.5507271290 4282736027
-0.2690438926 -0.1801996231 0.5508760810 4282275476
-0.2691164613 -0.1796360165 0.5510247350 4283524264
-0.2687675953 -0.1787917018 0.5503103733 4283655850
-0.2688396871 -0.1782280505 0.5504579544 4282011023
-0.2689115703 -0.1776639670 0.5506051779 4281484679
-0.2689832747 -0.1770994067 0.5507520437 4283195297
-0.2686330974 -0.1762577146 0.5500349998 4283655848
-0.2687042952 -0.1756931543 0.5501807928 4282668955
-0.2683533728 -0.1748532057 0.5494623184 4282471576
-0.2680020630 -0.1740145981 0.5487429500 4282471576
-0.2680724859 -0.1734504700 0.5488871336 4282603162
-0.2681427002 -0.1728858948 0.5490309000 4281681547
-0.2682127357 -0.1723208874 0.5491743088 4281484168
-0.2678600848 -0.1714849472 0.5484522581 4282405270
-0.2679296434 -0.1709199399 0.5485946536 4281878926
-0.2675762773 -0.1700857878 0.5478711128 4281616268
-0.2672224939 -0.1692529917 0.5471467376 4281155717
-0.2672912180 -0.1686884612 0.5472875237 4280958337
-0.2669367492 -0.1678574681 0.5465616584 4281024130
-0.2670049667 -0.1672929525 0.5467013717 4281155457
-0.2666497827 -0.1664637774 0.5459740758 4280958078
-0.2667175233 -0.1658993065 0.5461127758 4281089410
-0.2667850554 -0.1653343886 0.5462511182 4281615754
-0.2668524086 -0.1647690535 0.5463889837 4282011026
-0.2660722136 -0.1636820138 0.5447915196 4282142612
-0.2665627301 -0.1633773595 0.5457958579 4282274457
-0.2662054896 -0.1625527889 0.5450644493 4282471836
-0.2662718594 -0.1619875580 0.5452002883 4282340250
-0.2663379908 -0.1614218801 0.5453357100 4283327145
-0.2664039433 -0.1608557999 0.5454707742 4281353353
-0.2660453916 -0.1600340605 0.5447365642 4280827009
-0.2661108375 -0.1594680399 0.5448706150 4280761218
-0.2661760747 -0.1589016020 0.5450041890 4280761218
-0.2662411332 -0.1583347470 0.5451374054 4280696454
-0.2658812404 -0.1575158536 0.5444005132 4280564868
-0.2659457922 -0.1569490731 0.5445326567 4280826759
-0.2660101354 -0.1563818902 0.5446643829 4281287310
-0.2660742700 -0.1558142900 0.5447957516 4281945507
-0.2661381960 -0.1552462727 0.5449266434 4283524539
-0.2662019432 -0.1546778530 0.5450571179 4283986874
-0.2666908205 -0.1543552130 0.5460581183 4283986874
-0.2671796978 -0.1540303379 0.5470591187 4284640184
-0.2676685452 -0.1537032425 0.5480600595 4285956044
-0.2681574225 -0.1533739120 0.5490610600 4288649122
-0.2690720260 -0.1532848924 0.5509337187 4289109673
-0.2699868381 -0.1531918347 0.5528067946 4289699720
-0.2713277638 -0.1533354223 0.5555524230 4289831306
-0.2722430229 -0.1532333344 0.5574264526 4290094735
-0.2731584907 -0.1531271785 0.5593008995 4290292114
-0.2740741372 -0.1530169696 0.5611757040 4289503905
-0.2749899626 -0.1529026777 0.5630508661 4288122252
-0.2759059370 -0.1527843326 0.5649263859 4286087596
-0.2768221200 -0.1526619047 0.5668023229 4286021803
-0.2777384520 -0.1525354087 0.5686785579 4285760951
-0.2786549926 -0.1524048299 0.5705551505 4285892537
-0.2795716524 -0.1522701830 0.5724321008 4286088634
-0.2800615728 -0.1518998891 0.5734351873 4286154427
-0.2805514634 -0.1515273601 0.5744382739 4288916691
-0.2810413241 -0.1511525810 0.5754413009 4292798463
-0.2819583714 -0.1510043442 0.5773189664 4293982205
-0.2833028734 -0.1510798931 0.5800718665 4293916412
-0.2825107276 -0.1500147581 0.5784499049 4293915647
-0.2838554084 -0.1500830501 0.5812032223 4293784061
-0.2843452990 -0.1496951878 0.5822062492 4292997882
-0.2848351300 -0.1493050754 0.5832091570 4293261054
-0.2857526839 -0.1491359621 0.5850878954 4292337642
-0.2862425148 -0.1487404257 0.5860908628 4292140263
-0.2871602774 -0.1485640407 0.5879700184 4292271849
-0.2876501083 -0.1481630653 0.5889729261 4292535021
-0.2881398797 -0.1477598399 0.5899757743 4292403435
-0.2890578508 -0.1475729793 0.5918553472 4292337642
-0.2895476222 -0.1471643150 0.5928581953 4292535276
-0.2904657722 -0.1469701678 0.5947381258 4292535276
-0.2909555137 -0.1465560645 0.5957409143 4293324277
-0.2914452255 -0.1461397111 0.5967435837 4293719035
-0.2919348478 -0.1457210928 0.5977461338 4293916414
-0.2928532064 -0.1455132514 0.5996264815 4293982207
-0.2933427989 -0.1450891942 0.6006289124 4294179583
-0.2891790569 -0.2007208765 0.5934531093 4282731874
-0.2884209156 -0.1995370090 0.5918972492 4281286012
-0.2864041030 -0.1974886805 0.5877583623 4281417598
-0.2797720134 -0.1922776401 0.5741479993 4281352836
-0.2748142779 -0.1882437468 0.5639737844 4281221250
-0.2723716795 -0.1859495491 0.5589610338 4281615236
-0.2711868882 -0.1845223457 0.5565295815 4281483650
-0.2700012028 -0.1830999404 0.5540963411 4281549445
-0.2692346871 -0.1819662303 0.5525232553 4282273168
-0.2688876390 -0.1811185777 0.5518110991 4282011788
-0.2689604461 -0.1805543453 0.5519605279 4281880202
-0.2686127126 -0.1797084212 0.5512468815 4282668955
-0.2686850131 -0.1791441739 0.5513952374 4283129506
-0.2683365345 -0.1782999784 0.5506801605 4281879439
-0.2684083581 -0.1777357012 0.5508275032 4281813646
-0.2684800029 -0.1771709621 0.5509745479 4283195299
-0.2681305110 -0.1763289571 0.5502573252 4283590057
-0.2682016492 -0.1757642031 0.5504032969 4283787437
-0.2682726085 -0.1751990020 0.5505489111 4283984816
-0.2679221034 -0.1743592024 0.5498296022 4283195300
-0.2675711811 -0.1735207289 0.5491094589 4283195300
-0.2676413357 -0.1729559749 0.5492534637 4281682061
-0.2677113116 -0.1723907590 0.5493969917 4282011026
-0.2673593760 -0.1715545207 0.5486747622 4283458472
-0.2670070231 -0.1707196236 0.5479516983 4282997921
-0.2670761943 -0.1701548696 0.5480936170 4282405784
-0.2667231262 -0.1693217605 0.5473690629 4282405784
-0.2667917907 -0.1687570363 0.5475100279 4282339731
-0.2668602765 -0.1681918651 0.5476505160 4282537110
-0.2665061951 -0.1673610359 0.5469238758 4282536856
-0.2665741742 -0.1667958945 0.5470633507 4282273684
-0.2662193775 -0.1659668833 0.5463352799 4281550221
-0.2662868500 -0.1654017866 0.5464737415 4281352842
-0.2663541436 -0.1648362428 0.5466118455 4281221258
-0.2659983337 -0.1640095413 0.5458816290 4280958086
-0.2660651207 -0.1634440422 0.5460186601 4281089672
-0.2657085955 -0.1626191884 0.5452870131 4281221258
-0.2657748759 -0.1620537490 0.5454230309 4281023877
-0.2658409476 -0.1614878774 0.5455586910 4281747600
-0.2659068406 -0.1609216034 0.5456938744 4281024390
-0.2659725249 -0.1603548974 0.5458286405 4280827011
-0.2656143606 -0.1595333368 0.5450936556 4280630402
-0.2656795382 -0.1589666903 0.5452274680 4280696195
-0.2657445371 -0.1583996415 0.5453608036 4281089159
-0.2658092976 -0.1578321606 0.5454937220 4280957573
-0.2654498518 -0.1570134610 0.5447560549 4280957573
-0.2655141056 -0.1564460695 0.5448879600 4281352331
-0.2655781806 -0.1558782607 0.5450194478 4281879966
-0.2656420767 -0.1553100497 0.5451505184 4283590584
-0.2657057345 -0.1547414362 0.5452811718 4284053180
-0.2661937475 -0.1544186771 0.5462826490 4284053180
-0.2666817605 -0.1540937126 0.5472841859 4284707006
-0.2671697736 -0.1537664980 0.5482856631 4284904385
-0.2676577866 -0.1534370780 0.5492871404 4287005850
-0.2685707211 -0.1533480436 0.5511606932 4288387503
-0.2694838643 -0.1532549709 0.5530346632 4289701022
-0.2708223760 -0.1533986628 0.5557815433 4289832608
-0.2717359960 -0.1532965600 0.5576564670 4289767579
-0.2730751336 -0.1534293741 0.5604046583 4289767579
-0.2739892304 -0.1533182263 0.5622805357 4288190375
-0.2749034762 -0.1532030106 0.5641568303 4286808722
-0.2753922939 -0.1528474838 0.5651599169 4285430193
-0.2763068080 -0.1527250409 0.5670366883 4285890744
-0.2780731618 -0.1530673206 0.5706616640 4285827259
-0.2772844732 -0.1520009339 0.5690430999 4285893052
-0.2786253393 -0.1521006674 0.5717948079 4286023608
-0.2795404494 -0.1519628167 0.5736727715 4286023608
-0.2800294757 -0.1515901685 0.5746763349 4289114840
-0.2809447944 -0.1514450610 0.5765547752 4292733439
-0.2814338505 -0.1510669887 0.5775584579 4293850623
-0.2827759087 -0.1511425972 0.5803126097 4293850623
-0.2824118733 -0.1503040940 0.5795655251 4293916414
-0.2833275497 -0.1501453966 0.5814446211 4293784828
-0.2842433453 -0.1499825865 0.5833240747 4292733944
-0.2847324014 -0.1495914161 0.5843276978 4292207600
-0.2852214277 -0.1491979957 0.5853312612 4292534510
-0.2857103944 -0.1488023102 0.5863347650 4292205545
-0.2866264880 -0.1486258805 0.5882147551 4292468717
-0.2871154845 -0.1482247710 0.5892182589 4292731889
-0.2876043916 -0.1478213966 0.5902215838 4292534508
-0.2880932689 -0.1474157721 0.5912248492 4292468715
-0.2890096307 -0.1472256929 0.5931054354 4292995312
-0.2894984782 -0.1468146294 0.5941086411 4293587449
-0.2904149890 -0.1466172338 0.5959895253 4293916412
-0.2909038365 -0.1462007165 0.5969927311 4293982205
-0.2913926244 -0.1457819492 0.5979958177 4294047998
-0.2923093140 -0.1455740631 0.5998770595 4294179583
-0.2927980721 -0.1451498419 0.6008800268 4294377215
-0.2882170677 -0.2005101740 0.5928301811 4282731874
-0.2878787220 -0.1996168941 0.5921342373 4281351035
-0.2867028713 -0.1981463283 0.5897156000 4281482621
-0.2851074338 -0.1963921338 0.5864340067 4281221250
-0.2789043784 -0.1914818585 0.5736750364 4281287043
-0.2739543617 -0.1874573231 0.5634933710 4281549186
-0.2715153992 -0.1851679236 0.5584766865 4281351807
-0.2703322470 -0.1837432235 0.5560430884 4281483393
-0.2695674300 -0.1826073378 0.5544700027 4281549186
-0.2688019872 -0.1814745218 0.5528955460 4281155966
-0.2684553862 -0.1806269884 0.5521825552 4281090173
-0.2685278952 -0.1800621152 0.5523318052 4281352836
-0.2677608728 -0.1789358556 0.5507540703 4282010766
-0.2678328156 -0.1783718318 0.5509020686 4281484422
-0.2679045498 -0.1778073609 0.5510496497 4281484422
-0.2679761052 -0.1772424430 0.5511968136 4281813387
-0.2676273584 -0.1764001399 0.5504794121 4281944973
-0.2676984072 -0.1758351922 0.5506256223 4282668955
-0.2677692771 -0.1752697974 0.5507713556 4283392678
-0.2674194872 -0.1744296998 0.5500519276 4282932127
-0.2674898803 -0.1738642901 0.5501966476 4283129506
-0.2671393752 -0.1730259657 0.5494757295 4281945233
-0.2672092617 -0.1724605560 0.5496194959 4282603163
-0.2668580413 -0.1716240197 0.5488970876 4283853230
-0.2669274211 -0.1710586250 0.5490397811 4283655851
-0.2665755153 -0.1702238768 0.5483158827 4283195300
-0.2662231624 -0.1693904698 0.5475911498 4283326886
-0.2662917674 -0.1688255370 0.5477322936 4283523235
-0.2663601637 -0.1682601869 0.5478729606 4283589028
-0.2664283514 -0.1676943898 0.5480132699 4283326372
-0.2660746872 -0.1668637097 0.5472857952 4283655337
-0.2661423981 -0.1662979424 0.5474250913 4282932128
-0.2662099302 -0.1657317430 0.5475639105 4282274198
-0.2658552527 -0.1649033725 0.5468344092 4281879186
-0.2659222484 -0.1643372029 0.5469722152 4281813393
-0.2659890652 -0.1637706161 0.5471096635 4282076565
-0.2660556734 -0.1632036120 0.5472466946 4282010772
-0.2656996846 -0.1623780131 0.5465144515 4281879440
-0.2653432786 -0.1615538001 0.5457813740 4281484682
-0.2654091120 -0.1609873176 0.5459167361 4281155717
-0.2654747069 -0.1604204178 0.5460516810 4281353096
-0.2651172876 -0.1595985442 0.5453165174 4280629632
-0.2656053305 -0.1592853516 0.5463203788 4280695425
-0.2652473152 -0.1584644616 0.5455839634 4280827013
-0.2653120160 -0.1578967869 0.5457170606 4280827013
-0.2649532855 -0.1570777744 0.5449792147 4280761736
-0.2650175095 -0.1565101892 0.5451112390 4281090701
-0.2650814950 -0.1559421867 0.5452429056 4281618334
-0.2651453018 -0.1553737670 0.5453741550 4283328952
-0.2652089000 -0.1548049450 0.5455049872 4283922623
-0.2656960487 -0.1544820815 0.5465070009 4283988416
-0.2661832273 -0.1541570127 0.5475090146 4284314305
-0.2666703761 -0.1538297087 0.5485110283 4284314305
-0.2671574950 -0.1535001695 0.5495130420 4285495205
-0.2680688202 -0.1534111351 0.5513874888 4286350514
-0.2694045603 -0.1535598785 0.5541349649 4287993524
-0.2703163326 -0.1534618288 0.5560103655 4288717247
-0.2712283134 -0.1533597112 0.5578861833 4288323259
-0.2725650072 -0.1534926146 0.5606356263 4287665329
-0.2734774351 -0.1533814520 0.5625123978 4286416297
-0.2743900418 -0.1532662064 0.5643895268 4286021539
-0.2748779953 -0.1529105604 0.5653932095 4285694141
-0.2757908404 -0.1527881026 0.5672708154 4285957313
-0.2767038941 -0.1526615620 0.5691488385 4285761979
-0.2776170969 -0.1525309384 0.5710272193 4285893565
-0.2781052291 -0.1521635652 0.5720312595 4286089916
-0.2790186703 -0.1520256847 0.5739100575 4285958330
-0.2795068324 -0.1516529024 0.5749142170 4289444310
-0.2804204822 -0.1515077651 0.5767934918 4292733951
-0.2809087038 -0.1511295587 0.5777976513 4293850623
-0.2818225920 -0.1509771794 0.5796774030 4293982207
-0.2823108137 -0.1505935490 0.5806816816 4293587449
-0.2827990055 -0.1502076685 0.5816858411 4292732140
-0.2837131321 -0.1500448287 0.5835661292 4292074985
-0.2842013538 -0.1496535242 0.5845702887 4292272364
-0.2846895158 -0.1492599547 0.5855743885 4292402924
-0.2851776183 -0.1488641500 0.5865783691 4292271338
-0.2860920727 -0.1486876607 0.5884592533 4292337129
-0.2865801752 -0.1482864171 0.5894632936 4292139750
-0.2874947786 -0.1481026411 0.5913445354 4292468970
-0.2879829109 -0.1476959437 0.5923485160 4293390072
-0.2884709537 -0.1472869962 0.5933523774 4293916414
-0.2889589369 -0.1468757838 0.5943561196 4294047999
-0.2894468904 -0.1464623213 0.5953598022 4293916412
-0.2903617918 -0.1462616771 0.5972416401 4294047998
-0.2908497155 -0.1458427608 0.5982452035 4294048252
-0.2913375497 -0.1454215795 0.5992487073 4293982459
-0.2918253541 -0.1449981481 0.6002520323 4294114044
-0.2868384719 -0.2000080198 0.5913454890 4282731874
-0.2865006030 -0.1991161704 0.5906489491 4281351035
-0.2857445478 -0.1979362071 0.5890902281 4281680000
-0.2833163440 -0.1956052184 0.5840842724 4281681031
-0.2733628154 -0.1881070137 0.5635641217 4281681031
-0.2709293962 -0.1858119369 0.5585473776 4281614979
-0.2697490454 -0.1843845546 0.5561140180 4281417600
-0.2689861655 -0.1832469553 0.5545412302 4281614725
-0.2682226598 -0.1821124107 0.5529671311 4281483139
-0.2682955861 -0.1815473884 0.5531175733 4281090173
-0.2679496706 -0.1806995571 0.5524044037 4281090173
-0.2680221498 -0.1801344901 0.5525537729 4281221248
-0.2672566175 -0.1790078282 0.5509755611 4281221248
-0.2673284709 -0.1784436107 0.5511237383 4281155457
-0.2674001455 -0.1778789461 0.5512714982 4281089664
-0.2674716115 -0.1773138344 0.5514188409 4280892285
-0.2671235502 -0.1764712334 0.5507012606 4280826492
-0.2667751014 -0.1756299436 0.5499829054 4281155457
-0.2668457925 -0.1750652492 0.5501286387 4281418629
-0.2669162750 -0.1745001078 0.5502739549 4281944719
-0.2669865787 -0.1739345193 0.5504189134 4282142098
-0.2666367888 -0.1730958819 0.5496977568 4281418888
-0.2662865818 -0.1722585857 0.5489758253 4282076818
-0.2663561106 -0.1716934443 0.5491191149 4282537369
-0.2660051882 -0.1708579361 0.5483956337 4282668955
-0.2660742104 -0.1702928096 0.5485379696 4282537369
-0.2661430240 -0.1697272360 0.5486798286 4282537369
-0.2657911181 -0.1688939780 0.5479543209 4282734235
-0.2658594251 -0.1683284193 0.5480951667 4283194786
-0.2655068040 -0.1674969792 0.5473681688 4283458472
-0.2655746341 -0.1669314504 0.5475080013 4283524265
-0.2656422555 -0.1663654894 0.5476474166 4282800799
-0.2657096982 -0.1657990962 0.5477864742 4283458729
-0.2657769322 -0.1652322710 0.5479251146 4284116914
-0.2654226720 -0.1644040644 0.5471947789 4283787949
-0.2654894292 -0.1638372838 0.5473323464 4283721643
-0.2651344538 -0.1630109102 0.5466005802 4283524264
-0.2652007043 -0.1624441743 0.5467371345 4283326886
-0.2652667463 -0.1618770063 0.5468732715 4282471577
-0.2653325796 -0.1613094360 0.5470090508 4281945492
-0.2645543814 -0.1602303237 0.5454046726 4281616527
-0.2646196187 -0.1596637070 0.5455391407 4280827527
-0.2646846473 -0.1590966731 0.5456732512 4280827527
-0.2643272579 -0.1582763791 0.5449364185 4280499592
-0.2643917799 -0.1577094048 0.5450694561 4280565385
-0.2644561231 -0.1571420282 0.5452021360 4280631180
-0.2645202577 -0.1565742344 0.5453343391 4280894352
-0.2645842135 -0.1560060233 0.5454661250 4281618849
-0.2646479309 -0.1554374099 0.5455975533 4283263674
-0.2651343346 -0.1551157683 0.5466002822 4283922623
-0.2651977539 -0.1545454264 0.5467310548 4283922623
-0.2656840682 -0.1542202532 0.5477336049 4284117692
-0.2661703527 -0.1538928300 0.5487361550 4284249278
-0.2670798898 -0.1538069397 0.5506112576 4284970673
-0.2675662637 -0.1534741521 0.5516139865 4285233845
-0.2688995600 -0.1536229849 0.5543627143 4285825210
-0.2702332437 -0.1537659317 0.5571122169 4286088382
-0.2711436749 -0.1536628902 0.5589891076 4285826242
-0.2720542550 -0.1535557806 0.5608664155 4285694656
-0.2729650140 -0.1534446031 0.5627440214 4285563060
-0.2738759816 -0.1533293426 0.5646220446 4285694646
-0.2743630409 -0.1529735923 0.5656262040 4285761217
-0.2752742469 -0.1528511047 0.5675047636 4285761217
-0.2761856318 -0.1527245343 0.5693836212 4285695934
-0.2770971656 -0.1525938809 0.5712628961 4285893313
-0.2775844336 -0.1522263885 0.5722674131 4286221251
-0.2784962356 -0.1520884782 0.5741471648 4286155458
-0.2789835334 -0.1517155766 0.5751518011 4290101973
-0.2798955441 -0.1515704095 0.5770319700 4293128447
-0.2803828716 -0.1511920840 0.5780366659 4293652989
-0.2817200124 -0.1512678117 0.5807933211 4293258231
-0.2813574672 -0.1504286528 0.5800458789 4292666094
-0.2826949060 -0.1504961848 0.5828031301 4292271336
-0.2831822932 -0.1501069963 0.5838078856 4292205798
-0.2836696208 -0.1497155577 0.5848126411 4292468970
-0.2845823169 -0.1495454013 0.5866941810 4292205543
-0.2850696445 -0.1491485238 0.5876989365 4292139750
-0.2855569422 -0.1487493813 0.5887035131 4292468970
-0.2860442102 -0.1483479887 0.5897080302 4292732142
-0.2869571745 -0.1481641680 0.5915902257 4293258484
-0.2874444127 -0.1477573365 0.5925946832 4294047999
-0.2879315913 -0.1473482400 0.5935990810 4294311167
-0.2884187400 -0.1469368786 0.5946033597 4294113791
-0.2889058292 -0.1465232670 0.5956075788 4294114045
-0.2893928587 -0.1461073905 0.5966116190 4294048252
-0.2903061211 -0.1459034979 0.5984944105 4294048251
-0.2907931209 -0.1454821825 0.5994983912 4294114044
-0.2912800610 -0.1450585872 0.6005022526 4294180091
-0.2850456536 -0.1992140710 0.5889980793 4282666083
-0.2767879963 -0.1928074509 0.5719350576 4281351035
-0.2843701839 -0.1974362582 0.5876023769 4281745793
-0.2819464207 -0.1951061487 0.5825940371 4282339731
-0.2761834860 -0.1904841512 0.5706859827 4282208145
-0.2729210258 -0.1876074523 0.5639446378 4281681031
-0.2704913914 -0.1853162944 0.5589241982 4281352066
-0.2693128288 -0.1838905364 0.5564888716 4281286275
-0.2685510218 -0.1827538311 0.5549147725 4281352068
-0.2682063580 -0.1819035113 0.5542025566 4281221759
-0.2678612769 -0.1810545027 0.5534895062 4281221759
-0.2675157487 -0.1802067906 0.5527755618 4281221248
-0.2675879598 -0.1796410829 0.5529247522 4280892283
-0.2672417462 -0.1787951142 0.5522093177 4281023871
-0.2668951154 -0.1779504567 0.5514931083 4281023871
-0.2665480673 -0.1771071255 0.5507760048 4280826492
-0.2666191757 -0.1765422523 0.5509229302 4280958078
-0.2666900754 -0.1759769171 0.5510694385 4280958078
-0.2663420141 -0.1751357764 0.5503502488 4281023871
-0.2664124370 -0.1745704412 0.5504957438 4281023871
-0.2660636902 -0.1737310737 0.5497750640 4281023871
-0.2665527165 -0.1734384298 0.5507856011 4280826238
-0.2657841146 -0.1723281294 0.5491974354 4281023617
-0.2658535540 -0.1717627943 0.5493409038 4281023617
-0.2659228146 -0.1711970121 0.5494839549 4281418375
-0.2655723095 -0.1703616679 0.5487597585 4281615754
-0.2656410635 -0.1697959006 0.5489017963 4281549961
-0.2652898431 -0.1689623445 0.5481761098 4281944979
-0.2657779753 -0.1686630398 0.5491847396 4282602909
-0.2654261589 -0.1678304076 0.5484577417 4282800801
-0.2654940188 -0.1672637910 0.5485979915 4282866594
-0.2655616999 -0.1666967273 0.5487378240 4283063971
-0.2652088702 -0.1658663750 0.5480087399 4283656108
-0.2652760446 -0.1652993560 0.5481475592 4283656363
-0.2653430104 -0.1647319049 0.5482859612 4283064226
-0.2649891675 -0.1639038622 0.5475547910 4283327398
-0.2650556564 -0.1633364558 0.5476921797 4283393191
-0.2647010982 -0.1625102609 0.5469595194 4283130536
-0.2647670805 -0.1619428992 0.5470958948 4283196329
-0.2648328543 -0.1613751203 0.5472317934 4282538658
-0.2640561461 -0.1602956057 0.5456268787 4281222798
-0.2641213238 -0.1597287953 0.5457615256 4280828042
-0.2641862929 -0.1591615528 0.5458957553 4280762249
-0.2642510533 -0.1585938931 0.5460296273 4280565387
-0.2638940811 -0.1577737927 0.5452919602 4280565387
-0.2639583647 -0.1572062075 0.5454247594 4280499601
-0.2640224099 -0.1566382200 0.5455572009 4280828566
-0.2640862763 -0.1560698003 0.5456891656 4281684388
-0.2645719349 -0.1557493955 0.5466926098 4283263420
-0.2646355033 -0.1551792473 0.5468239784 4284052926
-0.2651210129 -0.1548552811 0.5478272438 4283987133
-0.2656065524 -0.1545290947 0.5488305092 4284249014
-0.2660920620 -0.1542006582 0.5498337746 4284183221
-0.2665776014 -0.1538700014 0.5508369803 4284708275
-0.2674856782 -0.1537800431 0.5527133942 4285300412
-0.2683939636 -0.1536860317 0.5545902252 4285366207
-0.2697251737 -0.1538290679 0.5573409796 4284839863
-0.2706339359 -0.1537260115 0.5592187047 4284708796
-0.2715428770 -0.1536188871 0.5610969067 4285235140
-0.2724519670 -0.1535076946 0.5629754066 4285432511
-0.2733612657 -0.1533924192 0.5648543239 4285366718
-0.2738474905 -0.1530365348 0.5658589602 4285629631
-0.2747570276 -0.1529140323 0.5677384138 4285761217
-0.2765136361 -0.1532568336 0.5713681579 4285761474
-0.2757295370 -0.1521892101 0.5697479248 4285893060
-0.2770630419 -0.1522891372 0.5725033283 4286089932
-0.2779731452 -0.1521512121 0.5743839741 4286221518
-0.2784595788 -0.1517781764 0.5753891468 4290364630
-0.2789460123 -0.1514028907 0.5763942003 4293456895
-0.2798564136 -0.1512545198 0.5782754421 4293652221
-0.2811911106 -0.1513303071 0.5810332894 4292599533
-0.2804050446 -0.1502635181 0.5794090629 4292205543
-0.2821642458 -0.1505584270 0.5830441713 4292666094
-0.2826507688 -0.1501691043 0.5840494633 4292666349
-0.2831372321 -0.1497775316 0.5850546956 4292271591
-0.2836236954 -0.1493836939 0.5860598087 4292468970
-0.2845347524 -0.1492103040 0.5879424214 4292337384
-0.2850211859 -0.1488110274 0.5889475346 4293061105
-0.2855075896 -0.1484095007 0.5899525881 4293982207
-0.2864188850 -0.1482256353 0.5918356180 4294311167
-0.2869052589 -0.1478186548 0.5928406119 4294179583
-0.2873915732 -0.1474094093 0.5938455462 4294113791
-0.2878778577 -0.1469979137 0.5948503613 4294179583
-0.2883640826 -0.1465841532 0.5958550572 4293850873
-0.2888502479 -0.1461681277 0.5968596339 4293587701
-0.2897618413 -0.1459641904 0.5987433195 4293785333
-0.2902479768 -0.1455427110 0.5997477770 4294311677
-0.2907340527 -0.1451189667 0.6007521749 4294443007
-0.2836728692 -0.1987106949 0.5875098109 4282469474
-0.2829197645 -0.1975321174 0.5859500766 4281154428
-0.2805013061 -0.1951981038 0.5809412599 4281549186
-0.2751672566 -0.1908529997 0.5698939562 4282800541
-0.2719120383 -0.1879695058 0.5631521344 4282734748
-0.2699043453 -0.1859605312 0.5589940548 4281944719
-0.2687285841 -0.1845320761 0.5565589666 4281615754
-0.2679687142 -0.1833936423 0.5549851656 4281024131
-0.2676250339 -0.1825426072 0.5542734265 4281155717
-0.2668640018 -0.1814094335 0.5526972413 4281222018
-0.2673535645 -0.1811270267 0.5537111759 4281156225
-0.2665915787 -0.1799973249 0.5521330237 4281221250
-0.2670809031 -0.1797131151 0.5531464219 4281089664
-0.2671528161 -0.1791467667 0.5532954335 4280958335
-0.2668070197 -0.1783009171 0.5525792241 4280892542
-0.2660431564 -0.1771782488 0.5509971976 4280892544
-0.2661141753 -0.1766131818 0.5511443019 4280892544
-0.2661850154 -0.1760476679 0.5512909889 4281023871
-0.2662556469 -0.1754817069 0.5514373183 4281221250
-0.2659080029 -0.1746407002 0.5507172942 4281089664
-0.2659781575 -0.1740747243 0.5508626103 4280958078
-0.2656297982 -0.1732354909 0.5501411557 4281023617
-0.2652810514 -0.1723975986 0.5494188070 4280957824
-0.2653504014 -0.1718320698 0.5495624542 4280760445
-0.2654195726 -0.1712660939 0.5497057438 4281155203
-0.2654885352 -0.1706996858 0.5498485565 4281220996
-0.2651384771 -0.1698644906 0.5491235256 4281220996
-0.2652069330 -0.1692980826 0.5492653847 4281287049
-0.2652752399 -0.1687312424 0.5494067669 4281155463
-0.2649241388 -0.1678983122 0.5486796498 4281155976
-0.2649919391 -0.1673314869 0.5488200784 4281484941
-0.2650595307 -0.1667642444 0.5489600301 4282011285
-0.2651269436 -0.1661965549 0.5490996242 4281879699
-0.2647745311 -0.1653663665 0.5483697653 4282077078
-0.2648414373 -0.1647987217 0.5485083461 4282866594
-0.2649081349 -0.1642306447 0.5486465096 4282472606
-0.2645547092 -0.1634027660 0.5479145050 4282735778
-0.2646209300 -0.1628347486 0.5480516553 4282670244
-0.2642667890 -0.1620087177 0.5473182201 4283328174
-0.2643325031 -0.1614407450 0.5474542975 4282867625
-0.2643980086 -0.1608723402 0.5475899577 4281288593
-0.2640428543 -0.1600486636 0.5468544364 4280893320
-0.2641078830 -0.1594803184 0.5469890833 4280761734
-0.2637520134 -0.1586585194 0.5462520719 4280761736
-0.2638165355 -0.1580902338 0.5463857055 4280761736
-0.2634599805 -0.1572703272 0.5456472039 4280565135
-0.2635239661 -0.1567021310 0.5457797647 4280959893
-0.2640088499 -0.1563829333 0.5467839837 4281684388
-0.2640725374 -0.1558130085 0.5469158888 4283329213
-0.2645573020 -0.1554902494 0.5479198694 4284052927
-0.2646206915 -0.1549185961 0.5480511785 4284052927
-0.2651053667 -0.1545922905 0.5490549803 4284183221
-0.2655900419 -0.1542637646 0.5500587225 4284380600
-0.2664963603 -0.1541769505 0.5519358516 4284840122
-0.2669810951 -0.1538430303 0.5529397726 4285169087
-0.2683095932 -0.1539911330 0.5556911826 4285497795
-0.2692164779 -0.1538921297 0.5575694442 4285497795
-0.2701235712 -0.1537890732 0.5594481230 4285366718
-0.2710308433 -0.1536819339 0.5613271594 4285300925
-0.2719382942 -0.1535707116 0.5632065535 4285301952
-0.2728459239 -0.1534554213 0.5650863051 4285170366
-0.2733312547 -0.1530994326 0.5660914779 4285891781
-0.2742391527 -0.1529769003 0.5679717660 4286154953
-0.2755698562 -0.1530850679 0.5707277656 4285893064
-0.2752099335 -0.1522518396 0.5699823499 4285958857
-0.2765409648 -0.1523518413 0.5727390647 4286155471
-0.2774494290 -0.1522138864 0.5746205449 4286287057
-0.2779349983 -0.1518407166 0.5756261945 4290561241
-0.2784205377 -0.1514652967 0.5766318440 4293521919
-0.2789060771 -0.1510876417 0.5776373744 4293718015
-0.2798148692 -0.1509360671 0.5795195699 4292928502
-0.2803004086 -0.1505529583 0.5805251598 4292140516
-0.2812094390 -0.1503941119 0.5824078321 4292206309
-0.2816949785 -0.1500055790 0.5834134817 4292534510
-0.2826042175 -0.1498394459 0.5852965117 4292731889
-0.2830897868 -0.1494454741 0.5863021612 4292863726
-0.2835752964 -0.1490492374 0.5873077512 4293324277
-0.2844847441 -0.1488726288 0.5891912580 4293850619
-0.2849702835 -0.1484709531 0.5901968479 4294113791
-0.2858799100 -0.1482870281 0.5920807719 4294179838
-0.2863654196 -0.1478799134 0.5930863023 4294311423
-0.2868508995 -0.1474705189 0.5940917730 4294114045
-0.2873363197 -0.1470588744 0.5950970650 4293587701
-0.2878216505 -0.1466449797 0.5961022973 4292863207
-0.2883069515 -0.1462288052 0.5971074104 4292929000
-0.2887921929 -0.1458103657 0.5981123447 4293587184
-0.2897021770 -0.1456031650 0.5999969840 4294376700
-0.2901873887 -0.1451792866 0.6010018587 4294508286
-0.2823026180 -0.1982067674 0.5860198736 4282272354
-0.2815507650 -0.1970295161 0.5844591856 4281023099
-0.2791367471 -0.1946963817 0.5794479847 4281352064
-0.2742281556 -0.1906401813 0.5692585111 4282669468
-0.2713946998 -0.1880444288 0.5633766055 4283130019
-0.2689751685 -0.1857476085 0.5583540201 4282668956
-0.2682174146 -0.1846057177 0.5567810535 4282668956
-0.2674590349 -0.1834668815 0.5552067757 4281945492
-0.2667000294 -0.1823311001 0.5536311865 4282077078
-0.2667727470 -0.1817655116 0.5537821054 4281946770
-0.2664289474 -0.1809167713 0.5530684590 4281880977
-0.2660847604 -0.1800693572 0.5523539782 4281813646
-0.2665732205 -0.1797850728 0.5533679128 4281879439
-0.2666450739 -0.1792185307 0.5535170436 4281221509
-0.2662999630 -0.1783723831 0.5528007150 4281155716
-0.2659544647 -0.1775275618 0.5520834923 4281418889
-0.2656085491 -0.1766840518 0.5513654351 4281221510
-0.2656793296 -0.1761183441 0.5515123010 4281089410
-0.2657498717 -0.1755521894 0.5516588092 4280957824
-0.2654029727 -0.1747108847 0.5509386063 4280892031
-0.2654730380 -0.1741447300 0.5510841012 4280826238
-0.2651253939 -0.1733051836 0.5503624678 4281155717
-0.2651949823 -0.1727390289 0.5505068898 4281024131
-0.2648466229 -0.1719012707 0.5497837663 4281023618
-0.2649157345 -0.1713351160 0.5499272346 4281089411
-0.2649846375 -0.1707684994 0.5500702262 4280892031
-0.2646352649 -0.1699329913 0.5493450165 4280957824
-0.2647036612 -0.1693664044 0.5494869947 4280958337
-0.2647718787 -0.1687993705 0.5496286154 4280826751
-0.2648399174 -0.1682319045 0.5497698188 4281089924
-0.2644892335 -0.1673991233 0.5490418673 4280695166
-0.2645567656 -0.1668316871 0.5491820574 4280826498
-0.2646240890 -0.1662638038 0.5493218303 4281023877
-0.2642723918 -0.1654333174 0.5485917330 4281352842
-0.2643392384 -0.1648654640 0.5487304926 4281287049
-0.2644058764 -0.1642971933 0.5488688350 4281353103
-0.2640531659 -0.1634690166 0.5481366515 4281418896
-0.2641192973 -0.1629007906 0.5482739806 4281617045
-0.2641852498 -0.1623321325 0.5484108329 4282077596
-0.2638315260 -0.1615062803 0.5476765633 4282077594
-0.2638969719 -0.1609376818 0.5478124022 4281419664
-0.2635425627 -0.1601137072 0.5470767021 4280892802
-0.2640272379 -0.1597992182 0.5480828881 4280958595
-0.2636722326 -0.1589761972 0.5473458767 4280761471
-0.2637367547 -0.1584068239 0.5474798679 4280827264
-0.2638010979 -0.1578370333 0.5476133823 4280565385
-0.2630248964 -0.1567659676 0.5460021496 4280960143
-0.2635089159 -0.1564466804 0.5470068455 4281619365
-0.2635725439 -0.1558765471 0.5471389294 4283198397
-0.2640564442 -0.1555536985 0.5481434464 4284053190
-0.2641197741 -0.1549818367 0.5482749343 4284118983
-0.2646035552 -0.1546554267 0.5492792130 4284183483
-0.2650873661 -0.1543267965 0.5502834916 4284446655
-0.2659920156 -0.1542399675 0.5521614552 4284840132
-0.2664759159 -0.1539059579 0.5531659126 4284971718
-0.2678019404 -0.1540541500 0.5559185743 4285234882
-0.2687071562 -0.1539551318 0.5577976704 4285366468
-0.2700338662 -0.1540924460 0.5605517030 4285498557
