VERSION 0.7
FIELDS x y z rgba
SIZE 4 4 4 4
TYPE F F F U
COUNT 1 1 1 1
WIDTH 920
HEIGHT 1
VIEWPOINT 0.0 0.0 0.0 1.0 0.0 0.0 0.0
POINTS 920
DATA ascii
-0.2698171437 -0.1444321424 0.5666339993 4291545045
-0.2690380812 -0.1433873624 0.5649978518 4291413459
-0.2686775625 -0.1425683051 0.5642407537 4291348429
-0.2683166564 -0.1417507231 0.5634828210 4291480015
-0.2675360143 -0.1407140642 0.5618434548 4291085767
-0.2659159303 -0.1392415017 0.5584411621 4288914598
-0.2642949224 -0.1377760023 0.5550369024 4289215035
-0.2618337572 -0.1358820647 0.5498682857 4289215035
-0.2606303692 -0.1346494257 0.5473411679 4289346621
-0.2594262660 -0.1334220171 0.5448124409 4289478207
-0.2590611279 -0.1326297671 0.5440456271 4288501081
-0.2586956322 -0.1318390071 0.5432780385 4291593352
-0.2583297193 -0.1310497671 0.5425096154 4292979640
-0.2583835721 -0.1304741949 0.5426227450 4293900742
-0.2580169737 -0.1296870410 0.5418528318 4293899975
-0.2580703199 -0.1291116774 0.5419648290 4293373631
-0.2581234276 -0.1285359710 0.5420764089 4291004556
-0.2590172887 -0.1283767074 0.5439535379 4287846492
-0.2590701282 -0.1277984083 0.5440645218 4289937218
-0.2587021291 -0.1270132363 0.5432916880 4290266183
-0.2591751814 -0.1266407520 0.5442851782 4290198591
-0.2592273951 -0.1260613948 0.5443947911 4289606454
-0.2592793703 -0.1254816949 0.5445039272 4288244847
-0.2593311369 -0.1249016374 0.5446126461 4292981943
-0.2593826652 -0.1243212372 0.5447208881 4293052879
-0.2594339848 -0.1237404943 0.5448286533 4292855500
-0.2594850957 -0.1231594086 0.5449360013 4292724432
-0.2599573135 -0.1227769628 0.5459276438 4292592846
-0.2600080371 -0.1221942455 0.5460342169 4291545546
-0.2604800761 -0.1218082905 0.5470255017 4289242791
-0.2605304420 -0.1212239489 0.5471313000 4289934648
-0.2605805993 -0.1206392646 0.5472366214 4290000441
-0.2606305480 -0.1200542524 0.5473414660 4290460223
-0.2611020505 -0.1196622103 0.5483317375 4290394430
-0.2611516118 -0.1190755740 0.5484358072 4288702830
-0.2616229355 -0.1186800301 0.5494256020 4293768891
-0.2616721392 -0.1180917770 0.5495288968 4291021522
-0.2617211044 -0.1175031960 0.5496317744 4291350487
-0.2617698610 -0.1169142872 0.5497341156 4291349971
-0.2618183494 -0.1163250506 0.5498359799 4291613143
-0.2618666589 -0.1157354861 0.5499374270 4290494662
-0.2623371482 -0.1153313145 0.5509254932 4285099636
-0.2623850703 -0.1147401482 0.5510261059 4281233343
-0.2624327540 -0.1141486540 0.5511262417 4280970171
-0.2629028559 -0.1137397066 0.5521135330 4280838322
-0.2629501820 -0.1131466180 0.5522128940 4280575150
-0.2629972398 -0.1125532165 0.5523117185 4282020800
-0.2630440593 -0.1119594947 0.5524100661 4283468246
-0.2635136545 -0.1115444973 0.5533962250 4284123862
-0.2635600865 -0.1109491885 0.5534937978 4284189655
-0.2636063099 -0.1103535593 0.5535908341 4283531725
-0.2636522949 -0.1097576246 0.5536873937 4283597518
-0.2641213238 -0.1093365997 0.5546723604 4284386521
-0.2641669214 -0.1087390855 0.5547680855 4284123349
-0.2646356821 -0.1083145663 0.5557525754 4284122579
-0.2646808624 -0.1077154726 0.5558474660 4283398856
-0.2647258341 -0.1071160808 0.5559418797 4283989964
-0.2651941776 -0.1066868082 0.5569254756 4283332034
-0.2652387321 -0.1060858443 0.5570190549 4281291938
-0.2652830780 -0.1054845750 0.5571120977 4282870970
-0.2657510042 -0.1050505564 0.5580947995 4283133885
-0.2657949030 -0.1044477299 0.5581870079 4283857608
-0.2658385932 -0.1038446054 0.5582787395 4284186573
-0.2658820152 -0.1032411829 0.5583699346 4282870713
-0.2659252286 -0.1026374698 0.5584606528 4284382923
-0.2659681737 -0.1020334587 0.5585508943 4281356445
-0.2660109103 -0.1014291570 0.5586405993 4282540719
-0.2660533786 -0.1008245647 0.5587298274 4283593407
-0.2660956085 -0.1002196893 0.5588185191 4283658432
-0.2661375999 -0.0996145159 0.5589067340 4283987397
-0.2666038871 -0.0991669744 0.5598859191 4283987397
-0.2666454911 -0.0985602662 0.5599732399 4283790018
-0.2666868269 -0.0979532823 0.5600600839 4281816228
-0.2671526372 -0.0975010246 0.5610383153 4281947814
-0.2671935558 -0.0968925059 0.5611242652 4283461053
-0.2672342360 -0.0962837115 0.5612096786 4284118983
-0.2672746480 -0.0956746414 0.5612946153 4284842452
-0.2673148513 -0.0950652957 0.5613789558 4284776659
-0.2673547864 -0.0944556743 0.5614628792 4283921350
-0.2678195834 -0.0939949751 0.5624389648 4282473904
-0.2678591013 -0.0933838412 0.5625219345 4280699550
-0.2678983808 -0.0927724391 0.5626044273 4280962722
-0.2683627009 -0.0923070535 0.5635794997 4281029028
-0.2684015334 -0.0916941464 0.5636610985 4281029028
-0.2684400976 -0.0910809711 0.5637421012 4280963235
-0.2684784532 -0.0904675275 0.5638226271 4280963235
-0.2689420879 -0.0899962261 0.5647962689 4280964005
-0.2689799666 -0.0893812925 0.5648759007 4281095591
-0.2694433033 -0.0889065489 0.5658488870 4281095850
-0.2699064612 -0.0884296075 0.5668215752 4281030057
-0.2699437439 -0.0878119469 0.5668998361 4281030057
-0.2699807584 -0.0871940404 0.5669775605 4281030057
-0.2700175345 -0.0865758732 0.5670548081 4280965034
-0.2700540423 -0.0859574601 0.5671314597 4281162413
-0.2700903118 -0.0853387937 0.5672076344 4281293999
-0.2701263130 -0.0847198814 0.5672832727 4281359792
-0.2701620758 -0.0841007158 0.5673583746 4280899754
-0.2701976001 -0.0834813118 0.5674329400 4280702375
-0.2702328265 -0.0828616619 0.5675069690 4286421448
-0.2706941366 -0.0823714957 0.5684757233 4292342783
-0.2807317376 -0.1578482836 0.5909336805 4290232006
-0.2807958722 -0.1572276205 0.5910686851 4289639353
-0.2800250947 -0.1561411321 0.5894462466 4289441974
-0.2788363397 -0.1548261493 0.5869439244 4289441974
-0.2772292495 -0.1532854289 0.5835610628 4289376181
-0.2760388255 -0.1519816071 0.5810552239 4289244595
-0.2748475969 -0.1506829411 0.5785477161 4289639353
-0.2736555934 -0.1493894011 0.5760385394 4290297283
-0.2724628150 -0.1481010318 0.5735277534 4290692041
-0.2712692320 -0.1468178183 0.5710153580 4290428356
-0.2704929709 -0.1457650512 0.5693813562 4290888907
-0.2697161138 -0.1447156221 0.5677461028 4291282125
-0.2689386904 -0.1436695009 0.5661095977 4291413711
-0.2685790062 -0.1428492069 0.5653524995 4291412682
-0.2682189345 -0.1420303881 0.5645945072 4291675854
-0.2674399316 -0.1409923881 0.5629547238 4291544780
-0.2654044926 -0.1392986029 0.5586701632 4288452509
-0.2642053366 -0.1380513012 0.5561460257 4289279286
-0.2617490292 -0.1361556798 0.5509755611 4289805630
-0.2601292431 -0.1347047091 0.5475658774 4290067007
-0.2593464553 -0.1336928010 0.5459181666 4289935421
-0.2585631013 -0.1326842606 0.5442692637 4289822081
-0.2586174905 -0.1321073323 0.5443837047 4293506489
-0.2582524419 -0.1313168555 0.5436152816 4292725202
-0.2583062947 -0.1307401210 0.5437286496 4292527823
-0.2583599687 -0.1301630288 0.5438416004 4292528595
-0.2584134042 -0.1295855939 0.5439541340 4292594388
-0.2584666312 -0.1290077865 0.5440661907 4292392894
-0.2585196495 -0.1284296215 0.5441777706 4288642693
-0.2585724294 -0.1278510988 0.5442888737 4290264134
-0.2586250007 -0.1272722334 0.5443995595 4290395720
-0.2586773634 -0.1266930103 0.5445097685 4290199620
-0.2587295175 -0.1261134446 0.5446195602 4289804862
-0.2587814331 -0.1255335212 0.5447288156 4290154134
-0.2588331401 -0.1249532476 0.5448376536 4293575370
-0.2593049109 -0.1245745271 0.5458307266 4293314772
-0.2593562603 -0.1239926219 0.5459387898 4293183186
-0.2594073713 -0.1234103665 0.5460464358 4292724179
-0.2598788142 -0.1230268478 0.5470387340 4292329421
-0.2595089674 -0.1222448349 0.5462602973 4292268503
-0.2599801123 -0.1218587384 0.5472520590 4291084229
-0.2600304484 -0.1212741733 0.5473579764 4290854981
-0.2605013847 -0.1208845600 0.5483493209 4290262844
-0.2605513632 -0.1202983707 0.5484544635 4290394176
-0.2606011033 -0.1197118461 0.5485591292 4290131004
-0.2606506050 -0.1191249862 0.5486633778 4288832363
-0.2611210644 -0.1187292933 0.5496536493 4294227389
-0.2611702085 -0.1181408167 0.5497571230 4291022035
-0.2612191141 -0.1175520122 0.5498600602 4291219414
-0.2612678111 -0.1169628724 0.5499625802 4291415510
-0.2613162696 -0.1163734049 0.5500645638 4291547096
-0.2617860436 -0.1159703657 0.5510534644 4290363592
-0.2618341446 -0.1153792888 0.5511546731 4285165945
-0.2623037100 -0.1149727404 0.5521430969 4281036476
-0.2623514235 -0.1143800691 0.5522435308 4280575925
-0.2623988986 -0.1137870774 0.5523434877 4280641711
-0.2624461353 -0.1131937578 0.5524429083 4280575918
-0.2624931633 -0.1126001254 0.5525419116 4282086595
-0.2625399530 -0.1120061725 0.5526403785 4283007697
-0.2630086541 -0.1115910187 0.5536270142 4284191195
-0.2630550563 -0.1109954789 0.5537247062 4284322781
-0.2631012201 -0.1103996187 0.5538218617 4283861715
-0.2631471455 -0.1098034531 0.5539185405 4283861715
-0.2636153102 -0.1093822643 0.5549040437 4284387545
-0.2640833855 -0.1089588478 0.5558893085 4284190166
-0.2641287744 -0.1083598360 0.5559848547 4284451798
-0.2641739249 -0.1077605113 0.5560798645 4283267524
-0.2642188370 -0.1071608812 0.5561743975 4284055757
-0.2646863163 -0.1067314371 0.5571584702 4283529413
-0.2647308409 -0.1061302423 0.5572521687 4281752232
-0.2651980519 -0.1056973115 0.5582356453 4282870713
-0.2652421594 -0.1050945520 0.5583285093 4283330235
-0.2652860284 -0.1044914871 0.5584208369 4283724993
-0.2653296590 -0.1038881242 0.5585126877 4283790532
-0.2653730512 -0.1032844633 0.5586040020 4281948328
-0.2654162049 -0.1026805118 0.5586948395 4283856325
-0.2654591203 -0.1020762622 0.5587852001 4281027226
-0.2655017972 -0.1014717221 0.5588750243 4281948328
-0.2655442357 -0.1008668840 0.5589643121 4282606258
-0.2655864358 -0.1002617627 0.5590531826 4282474672
-0.2656283677 -0.0996563584 0.5591414571 4283132602
-0.2660937905 -0.0992086381 0.5601211786 4282869430
-0.2661353350 -0.0986016914 0.5602086186 4282474672
-0.2666004896 -0.0981505066 0.5611877441 4281487779
-0.2666415870 -0.0975420251 0.5612742901 4281487779
-0.2666824758 -0.0969332680 0.5613602996 4282277295
-0.2667230964 -0.0963242278 0.5614458323 4282672053
-0.2667634785 -0.0957149118 0.5615308285 4283264190
-0.2668036222 -0.0951053202 0.5616153479 4283264190
-0.2668435276 -0.0944954529 0.5616993308 4282737846
-0.2673074901 -0.0940345749 0.5626759529 4281750951
-0.2673469484 -0.0934231952 0.5627590418 4280765343
-0.2673861682 -0.0928115472 0.5628415942 4280962722
-0.2674251497 -0.0921996310 0.5629236102 4281094308
-0.2678884268 -0.0917328224 0.5638988018 4281028515
-0.2679269612 -0.0911193937 0.5639799833 4280963237
-0.2679652572 -0.0905057117 0.5640605688 4280963237
-0.2684280574 -0.0900342166 0.5650346875 4281029028
-0.2688907087 -0.0895605236 0.5660085678 4281094821
-0.2693532109 -0.0890846178 0.5669821501 4281226409
-0.2693907022 -0.0884669647 0.5670610666 4281226409
-0.2694279253 -0.0878490582 0.5671394467 4281029544
-0.2694649100 -0.0872308984 0.5672172904 4281029544
-0.2695016265 -0.0866124853 0.5672945976 4281095339
-0.2695381045 -0.0859938189 0.5673713684 4281226925
-0.2695743442 -0.0853748992 0.5674476027 4281292716
-0.2696103156 -0.0847557336 0.5675233603 4281358509
-0.2696460187 -0.0841363221 0.5675985217 4281095591
-0.2696814835 -0.0835166648 0.5676732063 4280898212
-0.2697167099 -0.0828967616 0.5677472949 4286881742
-0.2701771557 -0.0824063867 0.5687165260 4292539903
-0.2789402902 -0.1572085470 0.5885387063 4290100933
-0.2790040672 -0.1565904170 0.5886732340 4289507513
-0.2786510885 -0.1557390839 0.5879284739 4289310134
-0.2774644792 -0.1544254422 0.5854248405 4289770939
-0.2762770653 -0.1531169116 0.5829195380 4289441974
-0.2746720910 -0.1515835077 0.5795331597 4289376181
-0.2738999128 -0.1505152732 0.5779039860 4289770939
-0.2727101743 -0.1492221653 0.5753936768 4290099904
-0.2715196311 -0.1479342282 0.5728818178 4290560455
-0.2703283429 -0.1466514319 0.5703682303 4290625735
-0.2699708045 -0.1458245814 0.5696138740 4290954700
-0.2691954970 -0.1447747499 0.5679780245 4291348429
-0.2684195936 -0.1437282264 0.5663409829 4291480015
-0.2680606544 -0.1429076195 0.5655836463 4291609293
-0.2677013278 -0.1420884877 0.5648255348 4291740879
-0.2669238746 -0.1410501003 0.5631851554 4291939025
-0.2653102279 -0.1395754367 0.5597804785 4287728273
-0.2636956275 -0.1381078660 0.5563738346 4289146673
-0.2616620958 -0.1364294142 0.5520833135 4290330947
-0.2600455582 -0.1349769533 0.5486724973 4290395457
-0.2592644095 -0.1339637190 0.5470243692 4290198078
-0.2584827244 -0.1329538524 0.5453750491 4290809489
-0.2581187785 -0.1321615577 0.5446072221 4294033346
-0.2577544749 -0.1313707829 0.5438385606 4292856529
-0.2578082681 -0.1307938397 0.5439520478 4292395978
-0.2578618824 -0.1302165389 0.5440651774 4292329672
-0.2579152584 -0.1296388805 0.5441778302 4292921809
-0.2579684258 -0.1290608495 0.5442900062 4293049806
-0.2580213845 -0.1284824759 0.5444017053 4289694363
-0.2580741346 -0.1279037446 0.5445129871 4290459718
-0.2581266463 -0.1273246557 0.5446237922 4290328132
-0.2581789494 -0.1267452240 0.5447341204 4290656323
-0.2582310140 -0.1261654198 0.5448440313 4290656323
-0.2582828999 -0.1255852878 0.5449534655 4291077287
-0.2583345473 -0.1250047982 0.5450624228 4293182663
-0.2588054240 -0.1246259436 0.5460559726 4292136907
-0.2588567138 -0.1240438148 0.5461642146 4292268493
-0.2589077950 -0.1234613433 0.5462719798 4292529872
-0.2593783438 -0.1230776832 0.5472648144 4292661458
-0.2590092719 -0.1222953647 0.5464860797 4292202708
-0.2594795525 -0.1219091266 0.5474783182 4290426297
-0.2595298290 -0.1213243380 0.5475844145 4291116361
-0.2599999011 -0.1209345832 0.5485762358 4290655810
-0.2600498199 -0.1203481704 0.5486814976 4290459712
-0.2600995004 -0.1197614223 0.5487863421 4290064954
-0.2601489723 -0.1191743389 0.5488907099 4289225324
-0.2606185377 -0.1187785044 0.5498814583 4294554557
-0.2606676221 -0.1181898043 0.5499850512 4291154132
-0.2607164979 -0.1176007688 0.5500881672 4291154132
-0.2607651353 -0.1170114055 0.5501907468 4291415510
-0.2608135343 -0.1164217144 0.5502929091 4291612889
-0.2612824738 -0.1160185188 0.5512822866 4290297799
-0.2613305151 -0.1154272184 0.5513836741 4284836980
-0.2617992163 -0.1150205210 0.5523725748 4280970424
-0.2618468702 -0.1144276187 0.5524731278 4280838838
-0.2618942857 -0.1138343960 0.5525732040 4280969905
-0.2619414926 -0.1132408455 0.5526727438 4280443561
-0.2619884610 -0.1126469821 0.5527718663 4282020543
-0.2620351911 -0.1120527983 0.5528704524 4283007438
-0.2625030279 -0.1116374880 0.5538575649 4282875849
-0.2625493705 -0.1110417172 0.5539553761 4282941642
-0.2630169988 -0.1106229052 0.5549420118 4283006919
-0.2630629539 -0.1100255474 0.5550389886 4282743747
-0.2631086707 -0.1094278768 0.5551354289 4283006406
-0.2635758817 -0.1090043038 0.5561212301 4283401164
-0.2636212111 -0.1084050536 0.5562168360 4283465930
-0.2636663318 -0.1078054905 0.5563120246 4282150070
-0.2637111843 -0.1072056293 0.5564066768 4282675387
-0.2641777992 -0.1067760289 0.5573912263 4282543801
-0.2642222643 -0.1061745882 0.5574850440 4281621416
-0.2646886408 -0.1057415009 0.5584690571 4282081967
-0.2647327185 -0.1051384956 0.5585619807 4282213040
-0.2647765279 -0.1045351923 0.5586544275 4281686696
-0.2648200989 -0.1039315909 0.5587463975 4281554853
-0.2648634613 -0.1033276990 0.5588378310 4280896923
-0.2649065554 -0.1027235016 0.5589287877 4282014123
-0.2649494112 -0.1021190137 0.5590192676 4280435091
-0.2649920583 -0.1015142351 0.5591091514 4280961435
-0.2650344372 -0.1009091586 0.5591986179 4281421986
-0.2654993534 -0.1004637778 0.5601795316 4281224607
-0.2655413151 -0.0998571590 0.5602681041 4281750951
-0.2655830681 -0.0992502570 0.5603561401 4281290658
-0.2656245530 -0.0986430719 0.5604436994 4280830107
-0.2660888433 -0.0981917083 0.5614233017 4281356451
-0.2661299109 -0.0975829884 0.5615099669 4281290658
-0.2665939033 -0.0971281528 0.5624889731 4281224865
-0.2666345537 -0.0965179056 0.5625746846 4281159072
-0.2666749656 -0.0959073752 0.5626599789 4281422244
-0.2667151392 -0.0952965692 0.5627447367 4281422244
-0.2667550445 -0.0946854874 0.5628289580 4281159844
-0.2667947114 -0.0940741375 0.5629126430 4281028258
-0.2668341398 -0.0934625119 0.5629958510 4281094051
-0.2672969401 -0.0929979980 0.5639722943 4281094051
-0.2673359215 -0.0923848599 0.5640545487 4281094051
-0.2673746943 -0.0917714536 0.5641363263 4281094051
-0.2674131989 -0.0911577791 0.5642175674 4281028517
-0.2678752840 -0.0906873420 0.5651925802 4281028517
-0.2683372796 -0.0902146921 0.5661672950 4281225637
-0.2683751583 -0.0895982832 0.5662472248 4281225637
-0.2688368261 -0.0891221911 0.5672212839 4281225894
-0.2688742578 -0.0885042921 0.5673003197 4281225894
-0.2689114511 -0.0878861323 0.5673787594 4281226409
-0.2689484060 -0.0872677192 0.5674567223 4281226409
-0.2694093585 -0.0867857262 0.5684292912 4281226155
-0.2694458365 -0.0861658305 0.5685063004 4281357741
-0.2694820762 -0.0855456814 0.5685827732 4281489068
-0.2695180774 -0.0849252865 0.5686587095 4281423275
-0.2695538104 -0.0843046457 0.5687341094 4281225894
-0.2695893049 -0.0836837590 0.5688089728 4281028515
-0.2696245313 -0.0830626264 0.5688832998 4287538902
-0.2696595192 -0.0824412480 0.5689570904 4292868095
-0.2775685489 -0.1568028927 0.5870200396 4290166728
-0.2776320577 -0.1561864018 0.5871543884 4289441720
-0.2772796154 -0.1553365886 0.5864090323 4289310134
-0.2760951817 -0.1540242881 0.5839040875 4289836732
-0.2749099433 -0.1527170986 0.5813974738 4289441974
-0.2737239003 -0.1514150649 0.5788891912 4289508283
-0.2725371122 -0.1501181722 0.5763792396 4290034627
-0.2717657089 -0.1490546763 0.5747478604 4290231490
-0.2705774605 -0.1477671564 0.5722348094 4290560455
-0.2698047757 -0.1467112154 0.5706007481 4290625733
-0.2690315247 -0.1456585824 0.5689653754 4290823112
-0.2682576776 -0.1446092576 0.5673288107 4291480528
-0.2678998709 -0.1437868774 0.5665721297 4291283149
-0.2675416768 -0.1429659724 0.5658146143 4291544529
-0.2667662799 -0.1419247836 0.5641747117 4291412943
-0.2664071918 -0.1411077529 0.5634152889 4291545808
-0.2647967041 -0.1396325082 0.5600093603 4287335056
-0.2631852925 -0.1381643564 0.5566014051 4289409075
-0.2611557543 -0.1364852488 0.5523092151 4289803833
-0.2599596381 -0.1352493018 0.5497795939 4290265154
-0.2587627769 -0.1340185851 0.5472484231 4289673017
-0.2579826415 -0.1330083311 0.5455985069 4291727766
-0.2576194704 -0.1322157383 0.5448304415 4294425279
-0.2572558820 -0.1314246505 0.5440615416 4293376968
-0.2573096454 -0.1308474988 0.5441752076 4293574347
-0.2573632002 -0.1302699745 0.5442884564 4294032328
-0.2574165165 -0.1296921074 0.5444012284 4293966535
-0.2574696243 -0.1291138679 0.5445135236 4292327105
-0.2575225234 -0.1285352707 0.5446254015 4289037455
-0.2575751841 -0.1279563159 0.5447368026 4290458942
-0.2576276660 -0.1273770183 0.5448477864 4290524735
-0.2576799095 -0.1267973632 0.5449582338 4290330430
-0.2577319145 -0.1262173504 0.5450682640 4290001465
-0.2582022250 -0.1258409470 0.5460628867 4292318100
-0.2582538724 -0.1252592951 0.5461721420 4293897132
-0.2583053410 -0.1246773005 0.5462809801 4294093737
-0.2583565712 -0.1240949482 0.5463893414 4294159530
-0.2584075928 -0.1235122606 0.5464972258 4293697958
-0.2584584057 -0.1229292229 0.5466046929 4293697958
-0.2589279413 -0.1225441322 0.5475977063 4292711589
-0.2589783967 -0.1219594628 0.5477043986 4291461522
-0.2590285838 -0.1213744581 0.5478105545 4291116099
-0.2594978213 -0.1209845543 0.5488029122 4291050306
-0.2595476508 -0.1203979254 0.5489083529 4290458942
-0.2600166798 -0.1200045049 0.5499002337 4290393149
-0.2600661516 -0.1194162518 0.5500048399 4289421933
-0.2601154149 -0.1188276559 0.5501090288 4294422201
-0.2601644397 -0.1182387322 0.5502127409 4291285205
-0.2602132559 -0.1176494732 0.5503159761 4291153619
-0.2602618337 -0.1170598865 0.5504187346 4291283665
-0.2607300580 -0.1166578233 0.5514089465 4291678423
-0.2607782483 -0.1160666198 0.5515108705 4290363076
-0.2608262300 -0.1154750958 0.5516123176 4285033843
-0.2612940669 -0.1150682420 0.5526017547 4281298619
-0.2613416910 -0.1144751087 0.5527024269 4281101240
-0.2613890469 -0.1138816625 0.5528026223 4281101232
-0.2614361942 -0.1132878810 0.5529023409 4280574888
-0.2619034946 -0.1128749698 0.5538905859 4281756601
-0.2619502544 -0.1122796014 0.5539894700 4281822394
-0.2624173164 -0.1118631810 0.5549772978 4281755571
-0.2624636889 -0.1112662181 0.5550753474 4281689778
-0.2625098228 -0.1106689423 0.5551729202 4282282169
-0.2625557482 -0.1100713462 0.5552700162 4282084790
-0.2626014054 -0.1094734445 0.5553665757 4282479548
-0.2630677521 -0.1090497077 0.5563528538 4283532236
-0.2631130517 -0.1084502265 0.5564486384 4283334603
-0.2631580830 -0.1078504324 0.5565438867 4281952950
-0.2632029057 -0.1072503328 0.5566386580 4282808259
-0.2636686862 -0.1068205610 0.5576236844 4281952950
-0.2637130916 -0.1062188894 0.5577176213 4281887411
-0.2641786039 -0.1057856381 0.5587021112 4282347962
-0.2642225921 -0.1051823944 0.5587952137 4282084790
-0.2642663717 -0.1045788601 0.5588877797 4281163688
-0.2643099129 -0.1039750203 0.5589798689 4281295020
-0.2643532157 -0.1033708826 0.5590714216 4281426606
-0.2643962801 -0.1027664468 0.5591624975 4282014383
-0.2644390762 -0.1021617204 0.5592530370 4281619625
-0.2644816637 -0.1015567034 0.5593430996 4281751209
-0.2645240128 -0.1009513885 0.5594326258 4282211760
-0.2649880648 -0.1005058289 0.5604140759 4282014381
-0.2650299966 -0.0998989716 0.5605027080 4282343346
-0.2654937804 -0.0994499400 0.5614835620 4281883567
-0.2655352950 -0.0988415405 0.5615713596 4281423016
-0.2655765414 -0.0982328653 0.5616586208 4280962211
-0.2656175792 -0.0976238996 0.5617454052 4281225383
-0.2660807073 -0.0971688926 0.5627248287 4281028258
-0.2661213279 -0.0965583995 0.5628107190 4281028258
-0.2661616802 -0.0959476233 0.5628960729 4280962722
-0.2662017941 -0.0953365713 0.5629809499 4280896929
-0.2662416697 -0.0947252512 0.5630652905 4280831138
-0.2662813067 -0.0941136479 0.5631490946 4281160103
-0.2663207054 -0.0935017765 0.5632323623 4281224865
-0.2667826116 -0.0930370763 0.5642092824 4281159072
-0.2668215930 -0.0924236998 0.5642916560 4281094051
-0.2668602765 -0.0918100476 0.5643735528 4281159844
-0.2668987513 -0.0911961272 0.5644549131 4281028258
-0.2673600018 -0.0907254964 0.5654304028 4281028258
-0.2678211331 -0.0902526602 0.5664055943 4281159844
-0.2678589821 -0.0896360055 0.5664856434 4281094051
-0.2683197856 -0.0891597196 0.5674601793 4281159844
-0.2683571875 -0.0885415748 0.5675392747 4281094051
-0.2683943212 -0.0879231617 0.5676178336 4281160103
-0.2684312165 -0.0873045027 0.5676958561 4281225896
-0.2688913345 -0.0868223161 0.5686689019 4281160103
-0.2689277828 -0.0862021670 0.5687460303 4281291689
-0.2689639926 -0.0855817720 0.5688225627 4281488555
-0.2689999342 -0.0849611238 0.5688986182 4281356969
-0.2690356374 -0.0843402296 0.5689741373 4281094051
-0.2690710723 -0.0837190822 0.5690490603 4281094051
-0.2691062689 -0.0830976963 0.5691235065 4287998940
-0.2761993706 -0.1563967913 0.5854997635 4290165445
-0.2762626112 -0.1557819247 0.5856338143 4289310906
-0.2759107351 -0.1549336463 0.5848878622 4288981941
-0.2751434445 -0.1538547426 0.5832613707 4289705662
-0.2739604712 -0.1525479853 0.5807536244 4289639869
-0.2731918991 -0.1514765769 0.5791243911 4289771966
-0.2715921700 -0.1499498934 0.5757331848 4290100931
-0.2708222270 -0.1488869339 0.5741010308 4290363590
-0.2700516880 -0.1478272676 0.5724676251 4290429383
-0.2692805827 -0.1467709243 0.5708329678 4290560455
-0.2685088515 -0.1457178891 0.5691970587 4290889420
-0.2677365541 -0.1446681619 0.5675598979 4291610320
-0.2673795223 -0.1438454837 0.5668030381 4291412941
-0.2670220733 -0.1430242658 0.5660452843 4291086286
-0.2666642368 -0.1422045082 0.5652866960 4291020493
-0.2658898830 -0.1411653310 0.5636451840 4291283916
-0.2646987438 -0.1399094909 0.5611202121 4287204750
-0.2626743019 -0.1382207721 0.5568287373 4288883501
-0.2606487572 -0.1365410089 0.5525348783 4289673017
-0.2594550252 -0.1353045851 0.5500043035 4290000190
-0.2582605481 -0.1340733767 0.5474722385 4289539639
-0.2578985989 -0.1332780570 0.5467049479 4288697438
-0.2571195364 -0.1322698444 0.5450534225 4290473849
-0.2567566931 -0.1314784586 0.5442842841 4289688443
-0.2568103969 -0.1309010983 0.5443981290 4289359478
-0.2568638921 -0.1303233653 0.5445114970 4290865778
-0.2569171488 -0.1297452748 0.5446243882 4290668399
-0.2569701970 -0.1291668117 0.5447368622 4288769128
-0.2570230365 -0.1285880059 0.5448488593 4287584854
-0.2570756376 -0.1280088425 0.5449604392 4288950329
-0.2571280599 -0.1274293214 0.5450714827 4288950329
-0.2571802437 -0.1268494427 0.5451821089 4290785856
-0.2572321892 -0.1262692213 0.5452922583 4291180614
-0.2577016354 -0.1258926839 0.5462873578 4290658890
-0.2577532530 -0.1253108233 0.5463967919 4290527304
-0.2578046322 -0.1247285977 0.5465057492 4289804864
-0.2578558028 -0.1241460294 0.5466142297 4289870657
-0.2579067647 -0.1235631183 0.5467222929 4290130745
-0.2583755851 -0.1231791824 0.5477161407 4289735987
-0.2580080330 -0.1223962605 0.5469369292 4289867056
-0.2584765851 -0.1220097467 0.5479301810 4290196021
-0.2585267425 -0.1214245111 0.5480365157 4290132536
-0.2585766912 -0.1208389401 0.5481423736 4290264122
-0.2590448856 -0.1204476133 0.5491349101 4290461003
-0.2595130205 -0.1200540587 0.5501272678 4289737280
-0.2595624626 -0.1194655746 0.5502320528 4290077802
-0.2596116662 -0.1188767552 0.5503363609 4294946998
-0.2596606314 -0.1182876080 0.5504401922 4291153110
-0.2597093880 -0.1176981255 0.5505435467 4291284696
-0.2597579062 -0.1171083078 0.5506464243 4291152079
-0.2602252662 -0.1167060956 0.5516371131 4291415251
-0.2602734268 -0.1161146685 0.5517392159 4290231490
-0.2603213489 -0.1155229211 0.5518407822 4285099636
-0.2603690326 -0.1149308383 0.5519419312 4281364404
-0.2608358562 -0.1145225540 0.5529314876 4281232818
-0.2608831823 -0.1139288768 0.5530318022 4281757371
-0.2609302700 -0.1133348718 0.5531316400 4281428406
-0.2613967061 -0.1129217967 0.5541204214 4282747086
-0.2614434361 -0.1123261973 0.5542194247 4281957570
-0.2619096339 -0.1119096205 0.5552076697 4282481091
-0.2619559467 -0.1113124266 0.5553058982 4282546884
-0.2620020211 -0.1107149199 0.5554035902 4282479294
-0.2620478868 -0.1101171002 0.5555008054 4282084536
-0.2620935142 -0.1095189601 0.5555974841 4282479037
-0.2621389031 -0.1089205146 0.5556937456 4284255448
-0.2626042366 -0.1084953472 0.5566801429 4283006408
-0.2626492083 -0.1078953147 0.5567755103 4283203787
-0.2631143034 -0.1074666530 0.5577614307 4284124889
-0.2631588876 -0.1068650559 0.5578559637 4282019513
-0.2632032633 -0.1062631458 0.5579499602 4282018486
-0.2636679113 -0.1058297232 0.5589349866 4284387034
-0.2637118697 -0.1052262485 0.5590281487 4283991763
-0.2637555897 -0.1046224684 0.5591208339 4283333833
-0.2637990713 -0.1040183902 0.5592130423 4283400139
-0.2638423145 -0.1034140214 0.5593047142 4283465932
-0.2638853490 -0.1028093472 0.5593959093 4283858117
-0.2639281154 -0.1022043824 0.5594865680 4283002808
-0.2639706433 -0.1015991271 0.5595767498 4283003067
-0.2640129328 -0.1009935737 0.5596663952 4283989962
-0.2644761205 -0.1005478427 0.5606482625 4283332034
-0.2649392188 -0.1000998840 0.5616299510 4283003069
-0.2649809420 -0.0994915366 0.5617184043 4283069378
-0.2650223970 -0.0988828987 0.5618062615 4281227174
-0.2650636137 -0.0982739776 0.5618937016 4280897440
-0.2651045918 -0.0976647660 0.5619805455 4280765854
-0.2655668855 -0.0972095802 0.5629605055 4281094310
-0.2656074464 -0.0965988412 0.5630465150 4280962724
-0.2656477690 -0.0959878266 0.5631319880 4280896420
-0.2656878233 -0.0953765363 0.5632169247 4280896420
-0.2657276690 -0.0947649628 0.5633013248 4281224615
-0.2657672465 -0.0941531211 0.5633852482 4280961443
-0.2662284970 -0.0936894789 0.5643630624 4280831649
-0.2662676573 -0.0930761248 0.5644460917 4280897442
-0.2663065791 -0.0924624950 0.5645285845 4280962722
-0.2663452327 -0.0918485969 0.5646105409 4281094308
-0.2663836777 -0.0912344307 0.5646919608 4281093797
-0.2668440640 -0.0907636136 0.5656679273 4280962211
-0.2673043311 -0.0902905911 0.5666436553 4281028004
-0.2673421204 -0.0896736830 0.5667237639 4281028004
-0.2673796713 -0.0890565217 0.5668033361 4281093797
-0.2678394318 -0.0885788128 0.5677779913 4281159590
-0.2678765357 -0.0879601538 0.5678566694 4281421994
-0.2679134011 -0.0873412415 0.5679347515 4281421994
-0.2683726549 -0.0868588611 0.5689083338 4281553323
-0.2684090734 -0.0862384662 0.5689855218 4281553323
-0.2684452236 -0.0856178179 0.5690621734 4281553580
-0.2684811354 -0.0849969164 0.5691382885 4281553580
-0.2685168087 -0.0843757689 0.5692138672 4281355940
-0.2685522139 -0.0837543756 0.5692889690 4281487526
-0.2685873806 -0.0831327364 0.5693634748 4288787419
-0.2752466798 -0.1562251598 0.5848572254 4290166215
-0.2753097713 -0.1556109935 0.5849912167 4289704892
-0.2749585211 -0.1547633260 0.5842449069 4289310134
-0.2741926908 -0.1536849439 0.5826176405 4289574074
-0.2730119824 -0.1523786038 0.5801088214 4289574074
-0.2722448707 -0.1513077170 0.5784788132 4289771453
-0.2710626721 -0.1500107497 0.5759668350 4290034625
-0.2702942789 -0.1489473730 0.5743341446 4290560455
-0.2691106498 -0.1476597935 0.5718190670 4290626248
-0.2687557340 -0.1468305588 0.5710649490 4290560453
-0.2679855824 -0.1457771212 0.5694284439 4290823625
-0.2672148347 -0.1447270066 0.5677907467 4291349458
-0.2668585181 -0.1439040005 0.5670336485 4291152079
-0.2665018141 -0.1430824846 0.5662757158 4291479502
-0.2657295167 -0.1420404911 0.5646346807 4291413709
-0.2653719187 -0.1412228346 0.5638748407 4291218636
-0.2641831636 -0.1399665177 0.5613489151 4287007884
-0.2625781894 -0.1384962797 0.5579385757 4288752942
-0.2601411641 -0.1365967095 0.5527602434 4289739837
-0.2589497864 -0.1353597939 0.5502287745 4290460222
-0.2577576935 -0.1341281235 0.5476957560 4289802292
-0.2573964894 -0.1333324909 0.5469282269 4289015865
-0.2570348978 -0.1325383633 0.5461599231 4288884279
-0.2566729188 -0.1317457408 0.5453907847 4288489521
-0.2563105226 -0.1309546232 0.5446207523 4288621107
-0.2563639581 -0.1303766817 0.5447342992 4289670960
-0.2564171553 -0.1297983825 0.5448473096 4289605167
-0.2564701438 -0.1292197108 0.5449599624 4288491571
-0.2565229237 -0.1286406815 0.5450720787 4288623157
-0.2565754950 -0.1280613095 0.5451837778 4289539637
-0.2566278279 -0.1274815649 0.5452950001 4290000188
-0.2566799521 -0.1269014776 0.5454057455 4290721601
-0.2571486235 -0.1265261024 0.5464016199 4290590015
-0.2572004199 -0.1259443611 0.5465116501 4290263362
-0.2572519779 -0.1253622770 0.5466212034 4290263362
-0.2573033273 -0.1247798428 0.5467302799 4290132546
-0.2573544383 -0.1241970509 0.5468388796 4290198339
-0.2574053407 -0.1236139238 0.5469470620 4290067007
-0.2578732967 -0.1232298464 0.5479413867 4290001214
-0.2575064898 -0.1224466264 0.5471619964 4290198080
-0.2579741478 -0.1220599636 0.5481557250 4290395459
-0.2584417760 -0.1216710731 0.5491493344 4290591044
-0.2584917247 -0.1210843325 0.5492554903 4290393665
-0.2585414648 -0.1204972565 0.5493611693 4290199109
-0.2585909963 -0.1199098378 0.5494664311 4289475386
-0.2590581179 -0.1195148453 0.5504589677 4289294190
-0.2595251799 -0.1191176176 0.5514514446 4294228665
-0.2595742047 -0.1185272932 0.5515555739 4290695126
-0.2596229613 -0.1179366335 0.5516591668 4290826712
-0.2596715093 -0.1173456460 0.5517623425 4290956501
-0.2597198486 -0.1167543232 0.5518650413 4291219673
-0.2597679496 -0.1161626652 0.5519672632 4290034625
-0.2602342069 -0.1157567948 0.5529579520 4284902771
-0.2602819204 -0.1151635349 0.5530593991 4281299389
-0.2603294253 -0.1145699471 0.5531603098 4281036217
-0.2603766918 -0.1139760390 0.5532607436 4281690810
-0.2608424127 -0.1135640889 0.5542503595 4281690810
-0.2613080740 -0.1131499112 0.5552397370 4283796951
-0.2613548040 -0.1125531197 0.5553390384 4283665365
-0.2614012957 -0.1119560152 0.5554378629 4283534546
-0.2614475489 -0.1113585904 0.5555361509 4283534546
-0.2619126439 -0.1109383479 0.5565244555 4283072712
-0.2619585395 -0.1103393361 0.5566219091 4281888438
-0.2620041668 -0.1097400114 0.5567188859 4282743234
-0.2620495856 -0.1091403663 0.5568153858 4284124887
-0.2620947659 -0.1085404158 0.5569114089 4283993814
-0.2621397078 -0.1079401523 0.5570068955 4284717537
-0.2626039386 -0.1075113267 0.5579932928 4284585951
-0.2630680501 -0.1070802733 0.5589794517 4282546368
-0.2631124258 -0.1064771712 0.5590737462 4281756339
-0.2631565630 -0.1058737636 0.5591675639 4284651231
-0.2632004917 -0.1052700505 0.5592608452 4284124373
-0.2632441521 -0.1046660319 0.5593536496 4285045475
-0.2632876039 -0.1040617228 0.5594459772 4283598543
-0.2633307874 -0.1034571081 0.5595377684 4283203785
-0.2633737624 -0.1028522030 0.5596290827 4284847324
-0.2634164989 -0.1022469997 0.5597198606 4283465671
-0.2634589672 -0.1016414985 0.5598101020 4283859659
-0.2635012269 -0.1010357141 0.5598998666 4284386003
-0.2639635503 -0.1005898044 0.5608822703 4282609081
-0.2644257843 -0.1001416743 0.5618644357 4282543288
-0.2644674480 -0.0995330811 0.5619529486 4283661001
-0.2645088732 -0.0989242047 0.5620409846 4281555625
-0.2649706304 -0.0984713435 0.5630221367 4281094562
-0.2650116384 -0.0978609249 0.5631092787 4281028769
-0.2650524080 -0.0972502306 0.5631958842 4281225637
-0.2650929093 -0.0966392457 0.5632820129 4281028258
-0.2651332021 -0.0960279852 0.5633675456 4281028004
-0.2651732266 -0.0954164490 0.5634526014 4280896418
-0.2652130127 -0.0948046371 0.5635371804 4281028006
-0.2656735778 -0.0943420604 0.5645158291 4280962213
-0.2657129467 -0.0937287286 0.5645994544 4280962722
-0.2657520473 -0.0931151211 0.5646826029 4280896929
-0.2657909393 -0.0925012454 0.5647651553 4280896672
-0.2658295631 -0.0918871015 0.5648472309 4281028258
-0.2658679485 -0.0912726969 0.5649287701 4280962465
-0.2667488754 -0.0909453630 0.5668006539 4280962465
-0.2667868733 -0.0903284773 0.5668814182 4281028004
-0.2668246329 -0.0897113234 0.5669616461 4281028004
-0.2668621540 -0.0890939087 0.5670413375 4281159590
-0.2673210502 -0.0886160135 0.5680164099 4281159590
-0.2673581243 -0.0879971087 0.5680952072 4281290662
-0.2673949301 -0.0873779431 0.5681734085 4281290662
-0.2678533196 -0.0868953690 0.5691474080 4281487528
-0.2678897083 -0.0862747207 0.5692247152 4281553321
-0.2679258287 -0.0856538191 0.5693014860 4281553834
-0.2679616809 -0.0850326717 0.5693777204 4281553834
-0.2679973245 -0.0844112709 0.5694534183 4281290147
-0.2680326998 -0.0837896243 0.5695285797 4281816491
-0.2680678070 -0.0831677318 0.5696032047 4289313763
-0.2734687924 -0.1555832326 0.5824540257 4290297799
-0.2735314965 -0.1549716145 0.5825875998 4289902271
-0.2735939920 -0.1543595791 0.5827206969 4289507513
-0.2728295326 -0.1532826275 0.5810924768 4289507767
-0.2720644474 -0.1522089690 0.5794630051 4289507767
-0.2712987959 -0.1511386037 0.5778322220 4289836219
-0.2705325484 -0.1500715315 0.5762001872 4290165184
-0.2697657049 -0.1490077525 0.5745669007 4290559940
-0.2685844302 -0.1477196813 0.5720509887 4290691526
-0.2678163052 -0.1466634572 0.5704149604 4290625733
-0.2674616575 -0.1458362937 0.5696595907 4290823112
-0.2666924596 -0.1447857767 0.5680212975 4291480525
-0.2663368881 -0.1439624727 0.5672640204 4291217353
-0.2655666471 -0.1429176778 0.5656234622 4291610571
-0.2652101815 -0.1420982480 0.5648642778 4291478985
-0.2644388676 -0.1410591900 0.5632214546 4291087820
-0.2636669576 -0.1400234848 0.5615773797 4286679689
-0.2620651722 -0.1385526657 0.5581657290 4288949555
-0.2596329451 -0.1366523504 0.5529854298 4289870657
-0.2580291033 -0.1351975948 0.5495694876 4290000701
-0.2572542131 -0.1341827959 0.5479190350 4290132287
-0.2568937540 -0.1333868653 0.5471513271 4290262339
-0.2565329075 -0.1325924397 0.5463827252 4290130753
-0.2561716735 -0.1317995191 0.5456133485 4290458433
-0.2558100522 -0.1310081035 0.5448431969 4290655812
-0.2558634281 -0.1304299384 0.5449568033 4290394683
-0.2559165657 -0.1298514307 0.5450699925 4290197304
-0.2559694946 -0.1292725503 0.5451827645 4290589758
-0.2560222149 -0.1286932975 0.5452950001 4290589758
-0.2560746968 -0.1281137019 0.5454068184 4289934910
-0.2561269999 -0.1275337636 0.5455182195 4289869117
-0.2561790645 -0.1269534528 0.5456290841 4290066242
-0.2566468716 -0.1265779436 0.5466254950 4290197828
-0.2566985786 -0.1259959787 0.5467356443 4290591557
-0.2567500770 -0.1254136860 0.5468453169 4290788936
-0.2568013668 -0.1248310208 0.5469545126 4290395200
-0.2568524480 -0.1242480204 0.5470632911 4290460993
-0.2569032907 -0.1236646697 0.5471715927 4290395969
-0.2573703527 -0.1232804507 0.5481663942 4290330176
-0.2574208379 -0.1226954684 0.5482739806 4290263871
-0.2574711144 -0.1221101359 0.5483810306 4290329664
-0.2579378784 -0.1217211038 0.5493751168 4290656837
-0.2579877675 -0.1211341396 0.5494813919 4290459458
-0.2580374479 -0.1205468327 0.5495872498 4290525505
-0.2580869198 -0.1199591905 0.5496925712 4290130747
-0.2585531771 -0.1195640638 0.5506856441 4289231484
-0.2586022615 -0.1189747974 0.5507901907 4293771201
-0.2590683103 -0.1185761392 0.5517828465 4291087830
-0.2591170371 -0.1179852560 0.5518866181 4291219416
-0.2591655254 -0.1173940375 0.5519899130 4291087064
-0.2592138052 -0.1168024912 0.5520927310 4291218650
-0.2592618465 -0.1162106097 0.5521950722 4290099391
-0.2597272396 -0.1158045828 0.5531862974 4284770158
-0.2597749233 -0.1152110994 0.5532878041 4281233347
-0.2602400780 -0.1148015559 0.5542785525 4280970175
-0.2602873743 -0.1142064631 0.5543792844 4281296566
-0.2607522905 -0.1137934029 0.5553694963 4281362359
-0.2607991993 -0.1131967083 0.5554693937 4283664339
-0.2608458698 -0.1125996932 0.5555688143 4284059097
-0.2608923316 -0.1120023578 0.5556677580 4283929050
-0.2609385550 -0.1114047021 0.5557662249 4283600085
-0.2614027858 -0.1109843031 0.5567549467 4283073228
-0.2614485919 -0.1103850603 0.5568525791 4281823161
-0.2614941895 -0.1097854972 0.5569496751 4283467986
-0.2615395486 -0.1091856211 0.5570462942 4283862744
-0.2615846992 -0.1085854396 0.5571423769 4283336400
-0.2616295815 -0.1079849452 0.5572380424 4283073228
-0.2620929182 -0.1075559556 0.5582248569 4283467986
-0.2621374130 -0.1069538817 0.5583196282 4282349505
-0.2626005113 -0.1065213978 0.5593059659 4282151612
-0.2626446187 -0.1059177518 0.5593999028 4283993816
-0.2626884580 -0.1053138003 0.5594933033 4282480577
-0.2627320886 -0.1047095507 0.5595862269 4283862230
-0.2627754807 -0.1041050032 0.5596786737 4282612677
-0.2628186345 -0.1035001501 0.5597705841 4282875849
-0.2628615499 -0.1028950065 0.5598619580 4283335373
-0.2629042268 -0.1022895649 0.5599528551 4283466959
-0.2633660436 -0.1018460020 0.5609364510 4283926483
-0.2634083033 -0.1012390107 0.5610265136 4283334346
-0.2634503543 -0.1006317213 0.5611159801 4282017203
-0.2639116943 -0.1001834199 0.5620986819 4282675133
-0.2639533281 -0.0995745882 0.5621873140 4283792332
-0.2639946938 -0.0989654660 0.5622754097 4281686956
-0.2644555867 -0.0985124335 0.5632570982 4281423016
-0.2644965649 -0.0979017690 0.5633442998 4281291430
-0.2645372748 -0.0972908288 0.5634310246 4281356453
-0.2645777464 -0.0966796055 0.5635172129 4281224867
-0.2646179795 -0.0960681066 0.5636029243 4281356455
-0.2646579742 -0.0954563245 0.5636880994 4281159076
-0.2646977007 -0.0948442668 0.5637727380 4281159076
-0.2647371888 -0.0942319334 0.5638568401 4281159076
-0.2651967406 -0.0937679335 0.5648356080 4281225637
-0.2652358115 -0.0931540802 0.5649188161 4281094051
-0.2652746439 -0.0925399587 0.5650015473 4281094051
-0.2653132081 -0.0919255689 0.5650836825 4281159844
-0.2653515637 -0.0913109109 0.5651653409 4281159074
-0.2662308216 -0.0909834579 0.5670380592 4281093281
-0.2662687898 -0.0903663188 0.5671189427 4281159844
-0.2663064897 -0.0897489265 0.5671992302 4281094051
-0.2663439512 -0.0891312584 0.5672790408 4281225637
-0.2668020129 -0.0886531696 0.5682545900 4281159844
-0.2668390274 -0.0880340189 0.5683335066 4281290660
-0.2668758035 -0.0874146074 0.5684118271 4281356453
-0.2669123411 -0.0867949352 0.5684896111 4281422248
-0.2673696578 -0.0863109380 0.5694636703 4281488041
-0.2674057484 -0.0856897905 0.5695405602 4281553834
-0.2674416006 -0.0850683823 0.5696168542 4281553834
-0.2674771845 -0.0844467357 0.5696926713 4281158561
-0.2679337859 -0.0839568451 0.5706651807 4282079663
-0.2675475776 -0.0832026899 0.5698426366 4289840105
-0.2721073627 -0.1551757604 0.5809286237 4290758350
-0.2721698284 -0.1545657814 0.5810619593 4290034627
-0.2722320557 -0.1539553851 0.5811948180 4289705662
-0.2718815207 -0.1531122178 0.5804464817 4289441461
-0.2711179256 -0.1520390809 0.5788161755 4289375668
-0.2703537047 -0.1509692371 0.5771846771 4289507252
-0.2695889175 -0.1499026865 0.5755519271 4289967803
-0.2688235343 -0.1488394290 0.5739178658 4290428354
-0.2680575550 -0.1477794945 0.5722826123 4290559940
-0.2668778896 -0.1464960873 0.5697640777 4290559940
-0.2665238678 -0.1456695497 0.5690082908 4290888905
-0.2661694586 -0.1448444724 0.5682516098 4291611339
-0.2658146322 -0.1440208703 0.5674940944 4291348167
-0.2650459409 -0.1429756731 0.5658529997 4291480007
-0.2642766535 -0.1419338137 0.5642106533 4291480007
-0.2639204562 -0.1411164850 0.5634502172 4291285199
-0.2627363503 -0.1398601234 0.5609222054 4286942861
-0.2615514994 -0.1386089921 0.5583926439 4290063932
-0.2591241002 -0.1367079318 0.5532103181 4290656069
-0.2579374611 -0.1354700476 0.5506769419 4290787907
-0.2567501068 -0.1342374235 0.5481420159 4290853700
-0.2563904226 -0.1334411800 0.5473741293 4290329415
-0.2560303211 -0.1326464564 0.5466053486 4290263622
-0.2556698322 -0.1318532377 0.5458357334 4290656839
-0.2553089857 -0.1310615242 0.5450653434 4290525253
-0.2553622723 -0.1304831505 0.5451791286 4290198333
-0.2554153502 -0.1299044192 0.5452924371 4290395712
-0.2554682195 -0.1293253154 0.5454053283 4290461250
-0.2559356987 -0.1289548725 0.5464032888 4290395457
-0.2559882104 -0.1283741146 0.5465154648 4290002241
-0.2560405135 -0.1277929991 0.5466271043 4289870655
-0.2560926080 -0.1272115409 0.5467383265 4290394948
-0.2561444938 -0.1266297251 0.5468490720 4290592327
-0.2561961412 -0.1260475516 0.5469593406 4290723143
-0.2562475801 -0.1254650205 0.5470691919 4290657350
-0.2562988102 -0.1248821467 0.5471785665 4290461765
-0.2567653060 -0.1245003790 0.5481744409 4290330179
-0.2568161786 -0.1239158660 0.5482830405 4290329153
-0.2568668127 -0.1233310029 0.5483912230 4290197567
-0.2573329806 -0.1229444146 0.5493863821 4290132289
-0.2573832572 -0.1223579124 0.5494937897 4290198082
-0.2574333251 -0.1217710674 0.5496006608 4289543749
-0.2574831843 -0.1211838871 0.5497070551 4289412163
-0.2575328052 -0.1205963641 0.5498130322 4288952641
-0.2579983473 -0.1202023700 0.5508068800 4289281606
-0.2580476105 -0.1196132228 0.5509120822 4288775305
-0.2580966353 -0.1190237328 0.5510167480 4292591299
-0.2585618198 -0.1186249331 0.5520098805 4291610838
-0.2586104870 -0.1180338189 0.5521137714 4291874010
-0.2586589158 -0.1174423769 0.5522171855 4291283416
-0.2591237426 -0.1170387715 0.5532095432 4291480795
-0.2591718137 -0.1164457127 0.5533121824 4289770424
-0.2592196465 -0.1158523262 0.5534143448 4284112226
-0.2592672706 -0.1152586117 0.5535159707 4280968894
-0.2597315609 -0.1148489192 0.5545071959 4280837308
-0.2597787976 -0.1142535955 0.5546080470 4281230257
-0.2602428496 -0.1138403863 0.5555987954 4281361843
-0.2602897286 -0.1132434607 0.5556988120 4282743496
-0.2603363395 -0.1126462147 0.5557983518 4283072461
-0.2603827417 -0.1120486408 0.5558974147 4283204817
-0.2604289055 -0.1114507616 0.5559959412 4283007438
-0.2608922720 -0.1110302061 0.5569851995 4282481351
-0.2609380484 -0.1104307249 0.5570829511 4281626042
-0.2609835863 -0.1098309308 0.5571801662 4282744523
-0.2610288858 -0.1092308238 0.5572769046 4282547144
-0.2614916861 -0.1088042185 0.5582649112 4282020800
-0.2615365982 -0.1082025245 0.5583608150 4281494456
-0.2615812719 -0.1076005325 0.5584562421 4281888957
-0.2616257370 -0.1069982201 0.5585511327 4281362613
-0.2620879412 -0.1065655723 0.5595379472 4281888187
-0.2621319890 -0.1059616879 0.5596319437 4282414531
-0.2621758282 -0.1053575054 0.5597255230 4281362613
-0.2622193992 -0.1047530174 0.5598185658 4281888957
-0.2622627318 -0.1041482314 0.5599110723 4281494456
-0.2623058259 -0.1035431474 0.5600031018 4281560249
-0.2623487115 -0.1029377654 0.5600945950 4281493427
-0.2628098130 -0.1024952903 0.5610790849 4281625013
-0.2628522813 -0.1018883511 0.5611696839 4281492916
-0.2633131146 -0.1014423966 0.5621535778 4281492916
-0.2633551657 -0.1008339003 0.5622433424 4281360303
-0.2633969784 -0.1002251208 0.5623326302 4281097131
-0.2634385526 -0.0996160433 0.5624213219 4281687728
-0.2638987601 -0.0991640836 0.5634038448 4281556142
-0.2639399171 -0.0985534713 0.5634917617 4281489066
-0.2639808357 -0.0979425684 0.5635790825 4281291687
-0.2644405961 -0.0974858776 0.5645605922 4281422248
-0.2644810677 -0.0968734473 0.5646470785 4281356455
-0.2645213306 -0.0962607265 0.5647329688 4281553321
-0.2645613253 -0.0956477299 0.5648183823 4281290149
-0.2646010816 -0.0950344577 0.5649032593 4281290149
-0.2646405995 -0.0944209099 0.5649876595 4281290149
-0.2646798790 -0.0938070863 0.5650714636 4281028258
-0.2647189200 -0.0931929946 0.5651547909 4281094051
-0.2647576928 -0.0925786272 0.5652376413 4281224867
-0.2652158737 -0.0921097398 0.5662158132 4281290660
-0.2652542293 -0.0914938599 0.5662977099 4281224867
-0.2657121122 -0.0910215080 0.5672752261 4281093281
-0.2657500207 -0.0904041231 0.5673561692 4281094051
-0.2657876909 -0.0897864774 0.5674365759 4281094051
-0.2662450671 -0.0893094391 0.5684130192 4281225637
-0.2662822902 -0.0886902884 0.5684925318 4281225637
-0.2663192749 -0.0880708843 0.5685715079 4281291430
-0.2667761445 -0.0875891596 0.5695468783 4281357223
-0.2668126822 -0.0869682655 0.5696249008 4281357223
-0.2668489814 -0.0863471180 0.5697023869 4281291430
-0.2668850422 -0.0857257172 0.5697793365 4281357223
-0.2669208348 -0.0851040632 0.5698557496 4281423016
-0.2669563591 -0.0844821557 0.5699316263 4281026975
-0.2674121261 -0.0839920714 0.5709046125 4282211249
-0.2678677440 -0.0834997818 0.5718773007 4290169070
-0.2708107531 -0.1541595012 0.5795346498 4289968834
-0.2708727419 -0.1535507292 0.5796672702 4289574076
-0.2705227435 -0.1527091116 0.5789182782 4289704633
-0.2701723278 -0.1518689245 0.5781684518 4289309875
-0.2694095969 -0.1507996023 0.5765361786 4289244082
-0.2686462700 -0.1497335732 0.5749026537 4289704633
-0.2678823471 -0.1486708522 0.5732678771 4290362561
-0.2671178281 -0.1476114392 0.5716317892 4290428354
-0.2663527429 -0.1465553343 0.5699945092 4290428354
-0.2655870616 -0.1455025524 0.5683559775 4290888905
-0.2652333081 -0.1446781009 0.5675989389 4291414735
-0.2648791671 -0.1438551247 0.5668410063 4291348942
-0.2641119063 -0.1428104639 0.5651991367 4291612365
-0.2633441091 -0.1417691410 0.5635560155 4291480779
-0.2629885674 -0.1409524381 0.5627951622 4291152328
-0.2618067563 -0.1396965235 0.5602660775 4286875783
-0.2606242001 -0.1384458393 0.5577353835 4289473846
-0.2586146295 -0.1367634386 0.5534349680 4289473846
-0.2574303746 -0.1355250925 0.5509006977 4289934906
-0.2566587031 -0.1345085800 0.5492492914 4289803320
-0.2558864653 -0.1334954351 0.5475966334 4289541690
-0.2555271089 -0.1327004135 0.5468276739 4289673276
-0.2551673949 -0.1319068819 0.5460578799 4290262844
-0.2552209198 -0.1313277185 0.5461724401 4290131258
-0.2548605204 -0.1305362880 0.5454011559 4290263097
-0.2549135387 -0.1299573332 0.5455145836 4290592062
-0.2549663484 -0.1293780357 0.5456275940 4290066234
-0.2550189495 -0.1287983656 0.5457401872 4290329406
-0.2554853857 -0.1284264773 0.5467383862 4290657602
-0.2555376291 -0.1278451532 0.5468502045 4290526016
-0.2555896640 -0.1272634715 0.5469615459 4290525251
-0.2556414902 -0.1266814321 0.5470724106 4290854216
-0.2556930780 -0.1260990500 0.5471828580 4290463570
-0.2557444572 -0.1255163103 0.5472928286 4290595156
-0.2557956278 -0.1249332130 0.5474023223 4289746270
-0.2562612593 -0.1245513111 0.5483987331 4290206821
-0.2563120723 -0.1239665821 0.5485074520 4290209137
-0.2563626468 -0.1233814955 0.5486156940 4290406516
-0.2568279207 -0.1229947656 0.5496113896 4290146173
-0.2568781674 -0.1224080473 0.5497189164 4290409345
-0.2569281757 -0.1218209863 0.5498259068 4289758090
-0.2569779754 -0.1212335750 0.5499324799 4290087055
-0.2574427724 -0.1208407357 0.5509271622 4290284172
-0.2574921846 -0.1202517003 0.5510329604 4290547344
-0.2575413883 -0.1196623221 0.5511382222 4289769910
-0.2575903833 -0.1190726086 0.5512430668 4291480528
-0.2580546737 -0.1186736673 0.5522366762 4291545558
-0.2581033111 -0.1180823296 0.5523406863 4291808730
