VERSION 0.7
FIELDS x y z rgba
SIZE 4 4 4 4
TYPE F F F U
COUNT 1 1 1 1
WIDTH 920
HEIGHT 1
VIEWPOINT 0.0 0.0 0.0 1.0 0.0 0.0 0.0
POINTS 920
DATA ascii
-0.2961468101 -0.1089583486 0.5150156617 4279708271
-0.2961972952 -0.1084046140 0.5151034594 4279906677
-0.2962475419 -0.1078505889 0.5151908994 4280104056
-0.2962975800 -0.1072962880 0.5152778625 4280103541
-0.2968379855 -0.1069184244 0.5162176490 4280103541
-0.2968875766 -0.1063626483 0.5163039565 4279841396
-0.2969369590 -0.1058065891 0.5163897872 4279709810
-0.2964951992 -0.1050762832 0.5156215429 4280103288
-0.2970349789 -0.1046936363 0.5165602565 4280037495
-0.2970836163 -0.1041367501 0.5166448355 4280037235
-0.2971320152 -0.1035795957 0.5167289972 4279774063
-0.2971801460 -0.1030221656 0.5168127418 4279839856
-0.2972280681 -0.1024644673 0.5168960094 4279774063
-0.2977671027 -0.1020749360 0.5178334117 4279906162
-0.2978145778 -0.1015157774 0.5179160237 4279840369
-0.2983533740 -0.1011229455 0.5188530087 4279971955
-0.2984004319 -0.1005623266 0.5189348459 4279906162
-0.2984472811 -0.1000014469 0.5190163255 4279971700
-0.2984938622 -0.0994402990 0.5190973282 4280037493
-0.2985402048 -0.0988788977 0.5191779137 4279840116
-0.2990781963 -0.0984792039 0.5201135278 4279708530
-0.2991241217 -0.0979163498 0.5201933980 4279775093
-0.2991697788 -0.0973532349 0.5202727914 4279840886
-0.2992151976 -0.0967898667 0.5203517675 4279709298
-0.2992603779 -0.0962262452 0.5204303265 4279709298
-0.2993052900 -0.0956623703 0.5205084682 4279972470
-0.2993499637 -0.0950982347 0.5205861330 4280038263
-0.2993943691 -0.0945338532 0.5206633806 4279512445
-0.2994385362 -0.0939692184 0.5207402110 4279512445
-0.2994824648 -0.0934043378 0.5208165646 4279710588
-0.3000187576 -0.0929918960 0.5217491984 4279513209
-0.3000622392 -0.0924255922 0.5218248367 4279382128
-0.3001054823 -0.0918590352 0.5218999982 4279711093
-0.3001484573 -0.0912922397 0.5219747424 4279643768
-0.3001911640 -0.0907251984 0.5220490098 4279841147
-0.3002336323 -0.0901579186 0.5221229196 4280103804
-0.3007689118 -0.0897375122 0.5230537653 4279972218
-0.3008109331 -0.0891688168 0.5231268406 4279906930
-0.3008527160 -0.0885998830 0.5231994987 4279906930
-0.3008942306 -0.0880307183 0.5232716799 4280104058
-0.3004421592 -0.0873179361 0.5224854946 4280169851
-0.3004830778 -0.0867492408 0.5225566626 4280104055
-0.3010172248 -0.0863218158 0.5234856009 4280038262
-0.3010577261 -0.0857517198 0.5235559940 4279906926
-0.3006043434 -0.0850417465 0.5227675438 4280104305
-0.3006442487 -0.0844721273 0.5228369832 4280300908
-0.3006838858 -0.0839022845 0.5229059458 4280366701
-0.3012170792 -0.0834690481 0.5238331556 4281416058
-0.3017501533 -0.0830337182 0.5247601867 4282008195
-0.3017891347 -0.0824613273 0.5248280168 4283058044
-0.3018278778 -0.0818887129 0.5248953700 4283321216
-0.3023604155 -0.0814489722 0.5258215070 4284304753
-0.3023987114 -0.0808749869 0.5258880854 4283909995
-0.3024367392 -0.0803007856 0.5259541869 4284368442
-0.3024744987 -0.0797263607 0.5260198712 4284894786
-0.3025119901 -0.0791517273 0.5260850787 4286274103
-0.3025492132 -0.0785768777 0.5261498094 4286866240
-0.3025861979 -0.0780018196 0.5262141228 4286405440
-0.3031173944 -0.0775530711 0.5271378756 4286405440
-0.3026593626 -0.0768510774 0.5263413787 4287993239
-0.3022325933 -0.1394978315 0.5266163945 4289113525
-0.3013255894 -0.1384958476 0.5250359774 4290164147
-0.3023592532 -0.1383855939 0.5268370509 4290427319
-0.3024222553 -0.1378289461 0.5269468427 4290756030
-0.3029705584 -0.1374922991 0.5279021859 4290624444
-0.3025475442 -0.1367146075 0.5271651745 4290295483
-0.3016383946 -0.1357198358 0.5255810022 4290492862
-0.2982994616 -0.1336400062 0.5197631717 4291144622
-0.2944729924 -0.1313556284 0.5130958557 4290552485
-0.2930748463 -0.1301645786 0.5106596947 4290685098
-0.2926481366 -0.1294085085 0.5099161863 4290750891
-0.2917347848 -0.1284398437 0.5083247423 4290816684
-0.2913071215 -0.1276876032 0.5075795650 4290750891
-0.2923383117 -0.1275736541 0.5093763471 4290685098
-0.2914236188 -0.1266102940 0.5077825189 4290750891
-0.2914815247 -0.1260711700 0.5078834295 4290816684
-0.2915391922 -0.1255317032 0.5079839230 4290816684
-0.2915966511 -0.1249919236 0.5080840588 4290750891
-0.2916538715 -0.1244518310 0.5081837773 4290750891
-0.2921978831 -0.1241182834 0.5091316700 4290685098
-0.2927418351 -0.1237826049 0.5100795031 4290882477
-0.2927985787 -0.1232397556 0.5101783276 4290750891
-0.2928551137 -0.1226965860 0.5102767944 4290553512
-0.2929113805 -0.1221531108 0.5103749037 4290619305
-0.2929674387 -0.1216093153 0.5104725957 4290487719
-0.2930232882 -0.1210652068 0.5105698705 4290620331
-0.2930788696 -0.1205207929 0.5106667280 4290620331
-0.2931342423 -0.1199760661 0.5107632279 4291012516
-0.2931893766 -0.1194310337 0.5108593106 4290749344
-0.2937322259 -0.1190835088 0.5118051171 4290747554
-0.2942750156 -0.1187338606 0.5127509236 4290681761
-0.2938415408 -0.1179900989 0.5119956136 4291008673
-0.2943840325 -0.1176380217 0.5129408836 4290942880
-0.2944382131 -0.1170896441 0.5130352378 4290156444
-0.2944921255 -0.1165409684 0.5131292343 4290288030
-0.2945458293 -0.1159919947 0.5132227540 4290418838
-0.2945992947 -0.1154427156 0.5133159161 4290418838
-0.2946525216 -0.1148931384 0.5134086609 4291071115
-0.2951942384 -0.1145328879 0.5143525600 4292781733
-0.2952470779 -0.1139818057 0.5144446492 4289379771
-0.2948107719 -0.1132426336 0.5136844516 4289248185
-0.2948630750 -0.1126918718 0.5137755275 4290361526
-0.2949151099 -0.1121408269 0.5138662457 4290229940
-0.2949669361 -0.1115894839 0.5139564872 4290361785
-0.2950184941 -0.1110378504 0.5140463710 4286085240
-0.2950698435 -0.1104859337 0.5141358376 4279708530
-0.2951209545 -0.1099337265 0.5142248869 4279971702
-0.2951717973 -0.1093812287 0.5143134594 4279643505
-0.2957120240 -0.1090089306 0.5152547359 4279577712
-0.2957624793 -0.1084549502 0.5153427124 4279775604
-0.2958126962 -0.1079006866 0.5154302120 4279775604
-0.2958626747 -0.1073461473 0.5155172944 4279841397
-0.2959124148 -0.1067913175 0.5156039596 4279709811
-0.2959619164 -0.1062362120 0.5156902075 4279841397
-0.2960111797 -0.1056808308 0.5157760382 4279775604
-0.2960602045 -0.1051251739 0.5158614516 4280037497
-0.2965992391 -0.1047423705 0.5168006420 4279905911
-0.2966478467 -0.1041852385 0.5168853998 4280037495
-0.2966962159 -0.1036278382 0.5169696808 4279774323
-0.2972348332 -0.1032405272 0.5179081559 4280037493
-0.2972827852 -0.1026816592 0.5179917216 4279905907
-0.2973304987 -0.1021225229 0.5180748701 4279971955
-0.2973779738 -0.1015631184 0.5181576014 4279774576
-0.2979159951 -0.1011701152 0.5190950632 4280169079
-0.2979630530 -0.1006092578 0.5191770196 4280037493
-0.2980098724 -0.1000481248 0.5192586184 4279972472
-0.2980564237 -0.0994867384 0.5193397403 4279577714
-0.2981027365 -0.0989250839 0.5194204450 4279972472
-0.2986400127 -0.0985252112 0.5203565359 4279906679
-0.2986859083 -0.0979621112 0.5204365253 4279906677
-0.2987315357 -0.0973987505 0.5205160379 4279840884
-0.2987769246 -0.0968351364 0.5205951333 4279840884
-0.2988220751 -0.0962712616 0.5206738114 4279972470
-0.2988669872 -0.0957071334 0.5207520127 4279775352
-0.2989116311 -0.0951427519 0.5208297968 4279906938
-0.2989560068 -0.0945781171 0.5209071636 4279644283
-0.2994919419 -0.0941678584 0.5218409896 4279578490
-0.2995359004 -0.0936017931 0.5219175816 4279513461
-0.3000715375 -0.0931882486 0.5228508711 4279645047
-0.3001150489 -0.0926207528 0.5229266882 4279907706
-0.3001583219 -0.0920530185 0.5230021477 4279973499
-0.3002013564 -0.0914850384 0.5230770707 4280169600
-0.3002441227 -0.0909168124 0.5231515765 4279840635
-0.3002866507 -0.0903483406 0.5232256651 4279906679
-0.3003289104 -0.0897796378 0.5232993364 4280104058
-0.3003709018 -0.0892106891 0.5233725309 4279776373
-0.3004126549 -0.0886415020 0.5234452486 4279907959
-0.3004541397 -0.0880720764 0.5235175490 4279776895
-0.3004953861 -0.0875024199 0.5235893726 4279447930
-0.3005363643 -0.0869325325 0.5236607790 4280038271
-0.3005770743 -0.0863624066 0.5237317681 4279906685
-0.3006175458 -0.0857920498 0.5238022804 4280891252
-0.3006577492 -0.0852214694 0.5238723159 4281220217
-0.3006977141 -0.0846506581 0.5239419341 4282336344
-0.3007374108 -0.0840796158 0.5240110755 4283125860
-0.3007768393 -0.0835083500 0.5240797997 4284635222
-0.3013091683 -0.0830728263 0.5250073075 4285490531
-0.3013481498 -0.0825001746 0.5250752568 4286079814
-0.3013868630 -0.0819273070 0.5251427293 4285421884
-0.3019186556 -0.0814873651 0.5260693431 4285024307
-0.3019569218 -0.0809131116 0.5261359811 4284563756
-0.3019949198 -0.0803386495 0.5262022018 4284957745
-0.3020326495 -0.0797639713 0.5262680054 4285352503
-0.3020701408 -0.0791890696 0.5263332725 4285419073
-0.3021073639 -0.0786139667 0.5263981223 4285550659
-0.3021443188 -0.0780386403 0.5264624953 4286339649
-0.3026747704 -0.0775896832 0.5273867846 4287194958
-0.2953629494 -0.1377372593 0.5156444311 4289308856
-0.2979097962 -0.1377692372 0.5200907588 4288917172
-0.3008794487 -0.1385589391 0.5252751708 4290492082
-0.3009424210 -0.1380041987 0.5253850818 4290623668
-0.3019745946 -0.1378917843 0.5271870494 4290755255
-0.3020373285 -0.1373345554 0.5272965431 4290689462
-0.3020998240 -0.1367769986 0.5274056792 4290427069
-0.3007070720 -0.1355631351 0.5249741673 4290492862
-0.2997985780 -0.1345720440 0.5233881474 4290493373
-0.2998598814 -0.1340179294 0.5234951973 4290690752
-0.2940972745 -0.1308719516 0.5134348273 4291149759
-0.2927007377 -0.1296827346 0.5109967589 4291149759
-0.2922743857 -0.1289269179 0.5102524161 4291018686
-0.2913620174 -0.1279592961 0.5086596012 4290952893
-0.2909347415 -0.1272073239 0.5079136491 4290952893
-0.2909928262 -0.1266682744 0.5080150962 4290952893
-0.2910507023 -0.1261289120 0.5081161261 4291018173
-0.2911083400 -0.1255892366 0.5082167387 4290952380
-0.2916518450 -0.1252579987 0.5091656446 4291018173
-0.2917091548 -0.1247167736 0.5092656612 4291018173
-0.2917662263 -0.1241752282 0.5093652606 4290887100
-0.2923094332 -0.1238394305 0.5103136301 4290887100
-0.2923661470 -0.1232963502 0.5104126334 4290820794
-0.2924226224 -0.1227529570 0.5105112195 4290820794
-0.2924788892 -0.1222092435 0.5106094480 4290952380
-0.2930216491 -0.1218676642 0.5115570426 4290952380
-0.2930775583 -0.1213224232 0.5116546154 4291017670
-0.2931331992 -0.1207768694 0.5117517710 4290820291
-0.2931886315 -0.1202310100 0.5118485093 4291212983
-0.2932438552 -0.1196848378 0.5119448900 4291212983
-0.2932988107 -0.1191383600 0.5120408535 4290755003
-0.2933535576 -0.1185915768 0.5121364594 4290755003
-0.2938954532 -0.1182405725 0.5130825043 4291409335
-0.2939498127 -0.1176922694 0.5131773949 4291211956
-0.2940039337 -0.1171436608 0.5132719278 4291011746
-0.2940578461 -0.1165947467 0.5133659840 4290945953
-0.2941115201 -0.1160455346 0.5134596825 4291729300
-0.2946527898 -0.1156875640 0.5144046545 4291400335
-0.2947060764 -0.1151368394 0.5144976377 4291856003
-0.2947591245 -0.1145858169 0.5145902634 4293500828
-0.2948119342 -0.1140345037 0.5146824718 4290558127
-0.2943763137 -0.1132950038 0.5139219761 4290689713
-0.2944285870 -0.1127440110 0.5140132308 4290623928
-0.2944805920 -0.1121927202 0.5141040683 4290426549
-0.2945323884 -0.1116411462 0.5141944289 4290623676
-0.2945839167 -0.1110892743 0.5142844319 4286018166
-0.2946352363 -0.1105371192 0.5143740177 4279773812
-0.2946863174 -0.1099846736 0.5144631863 4279971191
-0.2947371304 -0.1094319373 0.5145519376 4279577714
-0.2947877347 -0.1088789180 0.5146402121 4279577714
-0.2953270376 -0.1085052639 0.5155817270 4279841913
-0.2953772247 -0.1079507619 0.5156694055 4279644534
-0.2954272032 -0.1073959768 0.5157566071 4279841143
-0.2954769135 -0.1068409085 0.5158433914 4279709557
-0.2955263853 -0.1062855646 0.5159297585 4279775350
-0.2955756187 -0.1057299450 0.5160157084 4279906936
-0.2956246138 -0.1051740423 0.5161012411 4280037243
-0.2961629033 -0.1047910750 0.5170409679 4279971450
-0.2962114811 -0.1042337045 0.5171257854 4279972220
-0.2962598205 -0.1036760584 0.5172101855 4279774841
-0.2967976928 -0.1032885835 0.5181491971 4279643253
-0.2968456149 -0.1027294695 0.5182328820 4279511667
-0.2968932986 -0.1021700874 0.5183161497 4279972472
-0.2969407439 -0.1016104370 0.5183990002 4279775093
-0.2974780500 -0.1012172699 0.5193369389 4279709559
-0.2975250781 -0.1006561592 0.5194190741 4279643766
-0.2975718677 -0.1000947878 0.5195007324 4279709559
-0.2976183891 -0.0995331481 0.5195819736 4279577973
-0.2976646721 -0.0989712402 0.5196627975 4279577971
-0.2977107167 -0.0984090790 0.5197432041 4279643764
-0.2977565229 -0.0978466570 0.5198231339 4279709557
-0.2978020608 -0.0972839743 0.5199026465 4279643764
-0.2978473604 -0.0967210382 0.5199817419 4279710329
-0.2978923917 -0.0961578414 0.5200603604 4279578743
-0.2979372144 -0.0955943912 0.5201385617 4279512445
-0.2984726727 -0.0951872393 0.5210734010 4279709824
-0.2985170186 -0.0946223587 0.5211508274 4279710842
-0.2985611558 -0.0940572172 0.5212278366 4279710842
-0.2986050248 -0.0934918299 0.5213044286 4279907706
-0.2986486256 -0.0929261968 0.5213806033 4279776120
-0.2986919880 -0.0923603177 0.5214563012 4279709048
-0.2992264330 -0.0919451639 0.5223893523 4279906427
-0.2992693782 -0.0913778618 0.5224642754 4280037243
-0.2993120551 -0.0908103138 0.5225387812 4279971450
-0.2993544638 -0.0902425200 0.5226128697 4279709046
-0.2993966341 -0.0896744952 0.5226864815 4280103804
-0.2999302447 -0.0892525390 0.5236180425 4280235901
-0.2999719679 -0.0886830986 0.5236908793 4280170108
-0.3000134528 -0.0881134197 0.5237632394 4279841913
-0.3000546694 -0.0875435024 0.5238352418 4280039292
-0.3000956178 -0.0869733542 0.5239067078 4280497007
-0.3001363277 -0.0864029750 0.5239777565 4280825972
-0.3001767695 -0.0858323649 0.5240483880 4283386472
-0.3002169430 -0.0852615237 0.5241185427 4284241781
-0.3002568781 -0.0846904516 0.5241882801 4286276172
-0.3002965450 -0.0841191560 0.5242575407 4286868309
-0.3003359735 -0.0835476294 0.5243263245 4287194696
-0.3008675277 -0.0831119120 0.5252543688 4287326282
-0.3009065092 -0.0825389996 0.5253223777 4287062330
-0.3009451926 -0.0819658712 0.5253899097 4286535986
-0.3014762402 -0.0815257356 0.5263170600 4285548581
-0.3015145063 -0.0809512213 0.5263838172 4285153823
-0.3015524745 -0.0803764984 0.5264500976 4285219879
-0.3015902042 -0.0798015594 0.5265159607 4285351465
-0.3021205068 -0.0793558508 0.5274417996 4285549620
-0.3021577597 -0.0787795410 0.5275068283 4285812792
-0.3021947742 -0.0782030150 0.5275714397 4286010684
-0.3022314906 -0.0776262805 0.5276355743 4287655509
-0.2958282530 -0.1387972087 0.5174601078 4288979891
-0.2958911657 -0.1382516623 0.5175701976 4289243063
-0.2983717918 -0.1388308257 0.5219092369 4288785586
-0.2979511023 -0.1380560100 0.5211733580 4288851379
-0.3009164929 -0.1388452053 0.5263603926 4290492083
-0.3014634252 -0.1385116875 0.5273171067 4290623669
-0.3015263379 -0.1379545778 0.5274271369 4290623926
-0.3011049330 -0.1371765882 0.5266900659 4290623926
-0.3001989126 -0.1361804008 0.5251052380 4290755005
-0.2973550856 -0.1343124509 0.5201308727 4290557626
-0.2993537784 -0.1346334368 0.5236269236 4290427065
-0.2974770963 -0.1332112700 0.5203442574 4290624444
-0.2936610281 -0.1309317052 0.5136692524 4291214784
-0.2922666073 -0.1297419667 0.5112301111 4291148991
-0.2918409407 -0.1289858222 0.5104855895 4291018175
-0.2914148569 -0.1282311529 0.5097402930 4291018175
-0.2909883559 -0.1274779588 0.5089942217 4291083968
-0.2905614376 -0.1267262250 0.5082474947 4291083968
-0.2906192839 -0.1261866391 0.5083486438 4291148991
-0.2906769216 -0.1256467402 0.5084494352 4291148991
-0.2907342911 -0.1251065135 0.5085498095 4291016892
-0.2912769318 -0.1247739196 0.5094990134 4290951099
-0.2913339734 -0.1242321506 0.5095987320 4290885819
-0.2918764353 -0.1238962114 0.5105476379 4290820026
-0.2919330895 -0.1233529076 0.5106467605 4290820026
-0.2919895649 -0.1228092834 0.5107455254 4291017405
-0.2920457721 -0.1222653463 0.5108438730 4291082685
-0.2921017706 -0.1217210963 0.5109418035 4290951099
-0.2926436663 -0.1213781610 0.5118896365 4291148480
-0.2926992774 -0.1208323836 0.5119869709 4290951101
-0.2927546799 -0.1202862859 0.5120838881 4291735981
-0.2928098738 -0.1197398901 0.5121803880 4291604395
-0.2928647995 -0.1191931814 0.5122764707 4290488995
-0.2929195166 -0.1186461598 0.5123721957 4289567893
-0.2934606671 -0.1182950214 0.5133187175 4289627523
-0.2935149968 -0.1177464798 0.5134137869 4288903800
-0.2935690880 -0.1171976402 0.5135084391 4288632918
-0.2936229706 -0.1166484952 0.5136026740 4287580230
-0.2936765850 -0.1160990521 0.5136964917 4287508275
-0.2942171097 -0.1157409325 0.5146419406 4287442482
-0.2942703664 -0.1151899695 0.5147351027 4288628298
-0.2943233848 -0.1146387160 0.5148278475 4293760152
-0.2943761647 -0.1140871644 0.5149201751 4290623666
-0.2944287360 -0.1135353148 0.5150120854 4290557873
-0.2939935029 -0.1127961129 0.5142507553 4290558137
-0.2940454781 -0.1122445911 0.5143417120 4290558137
-0.2945849597 -0.1118780002 0.5152853727 4290557885
-0.2946365774 -0.1113249809 0.5153756142 4285689203
-0.2946879268 -0.1107716709 0.5154654980 4279773301
-0.2947390676 -0.1102180704 0.5155549049 4280036473
-0.2947899401 -0.1096641794 0.5156439543 4279774325
-0.2948406041 -0.1091100052 0.5157325268 4279708532
-0.2948909998 -0.1085555479 0.5158206820 4279906938
-0.2954294980 -0.1081796139 0.5167626143 4279906938
-0.2954795063 -0.1076236740 0.5168501139 4279906938
-0.2950407863 -0.1068904772 0.5160827041 4279906938
-0.2950902283 -0.1063348874 0.5161691904 4279578743
-0.2951394320 -0.1057790220 0.5162552595 4279644536
-0.2951883972 -0.1052228808 0.5163409114 4279775099
-0.2952371240 -0.1046664640 0.5164261460 4279906685
-0.2952856123 -0.1041097715 0.5165109634 4279381110
-0.2963117659 -0.1038956940 0.5183058977 4279578489
-0.2963599265 -0.1033366099 0.5183901191 4279643766
-0.2964078486 -0.1027772501 0.5184739232 4279512180
-0.2969447076 -0.1023863032 0.5194129944 4279841145
-0.2969922125 -0.1018254831 0.5194960833 4279709559
-0.2970394492 -0.1012643948 0.5195787549 4279512697
-0.2975758910 -0.1008689404 0.5205171108 4279710076
-0.2976227403 -0.1003063917 0.5205990076 4279710076
-0.2976693213 -0.0997435823 0.5206804872 4279907455
-0.2977156639 -0.0991805047 0.5207615495 4279446903
-0.2977617681 -0.0986171663 0.5208421946 4279381110
-0.2978076041 -0.0980535671 0.5209223628 4279578489
-0.2978532016 -0.0974897146 0.5210021138 4279578489
-0.2974085808 -0.0967661813 0.5202243924 4279578749
-0.2979436517 -0.0963612199 0.5211603642 4279644542
-0.2979884744 -0.0957965925 0.5212388039 4279579783
-0.2980330884 -0.0952317119 0.5213168263 4279448197
-0.2980774343 -0.0946665704 0.5213943720 4279645047
-0.2981215119 -0.0941011831 0.5214715004 4279513461
-0.2981653810 -0.0935355499 0.5215482116 4279840886
-0.2982089520 -0.0929696634 0.5216244459 4280169851
-0.2987428606 -0.0925555080 0.5225583315 4280168829
-0.2992766201 -0.0921392441 0.5234919786 4279971450
-0.2993195951 -0.0915707499 0.5235671401 4279643507
-0.2993623316 -0.0910020173 0.5236418843 4280169851
-0.2994047999 -0.0904330388 0.5237161517 4279840892
-0.2994470000 -0.0898638219 0.5237900019 4279643513
-0.2994889617 -0.0892943665 0.5238634348 4280036982
-0.3000217080 -0.0888701230 0.5247952938 4280234361
-0.3000632226 -0.0882992521 0.5248678923 4280628068
-0.3001044691 -0.0877281502 0.5249400735 4281220205
-0.3001454771 -0.0871568099 0.5250117779 4283188329
-0.3001862168 -0.0865852386 0.5250830650 4284306810
-0.3002267182 -0.0860134289 0.5251538754 4286670429
-0.3002669513 -0.0854413956 0.5252242684 4286867808
-0.3003069162 -0.0848691314 0.5252941847 4287917616
-0.3003466427 -0.0842966363 0.5253636837 4288180788
-0.3003861010 -0.0837239176 0.5254326463 4287982401
-0.3004252911 -0.0831509754 0.5255012512 4287850815
-0.3004642427 -0.0825778097 0.5255693793 4287127872
-0.3005029261 -0.0820044205 0.5256370306 4286601528
-0.3010332286 -0.0815640837 0.5265645981 4285810983
-0.3010714352 -0.0809893161 0.5266314745 4285416225
-0.3011094034 -0.0804143250 0.5266978741 4285415973
-0.3011471033 -0.0798391253 0.5267638564 4285350180
-0.3011845648 -0.0792637020 0.5268293023 4285548337
-0.3012217283 -0.0786880702 0.5268943310 4285679923
-0.3012586534 -0.0781122223 0.5269589424 4285484340
-0.3012953103 -0.0775361657 0.5270230174 4287458130
-0.2999221981 -0.1392398477 0.5256423950 4289114040
-0.3009514511 -0.1391316503 0.5274463296 4290426038
-0.3014977276 -0.1387971044 0.5284036994 4290689210
-0.3010774553 -0.1380173415 0.5276671052 4290428089
-0.3011400998 -0.1374596655 0.5277768970 4290362296
-0.3002355993 -0.1364621520 0.5261916518 4291016381
-0.2969125807 -0.1343736351 0.5203678012 4290753209
-0.2936481237 -0.1317526102 0.5146465302 4291278776
-0.2922564447 -0.1305591017 0.5122074485 4291345598
-0.2913479209 -0.1295859069 0.5106151700 4291279805
-0.2909228504 -0.1288303435 0.5098702312 4291148989
-0.2909815311 -0.1282897145 0.5099730492 4291148989
-0.2905557156 -0.1275361925 0.5092267394 4291148732
-0.2901294827 -0.1267841458 0.5084797740 4291148732
-0.2906717360 -0.1264550984 0.5094301105 4291214012
-0.2907294333 -0.1259140521 0.5095311999 4291279805
-0.2907868922 -0.1253727078 0.5096318722 4291476414
-0.2908441126 -0.1248310283 0.5097321868 4291344828
-0.2913859487 -0.1244961843 0.5106818080 4291411391
-0.2914428115 -0.1239529699 0.5107815266 4291411391
-0.2914994657 -0.1234094352 0.5108807683 4291345598
-0.2915558815 -0.1228655875 0.5109796524 4291279805
-0.2916120887 -0.1223214194 0.5110781193 4290686898
-0.2921533585 -0.1219795644 0.5120267868 4289963175
-0.2922091782 -0.1214338690 0.5121245980 4291329928
-0.2922647595 -0.1208878607 0.5122220516 4290277240
-0.2923201323 -0.1203415394 0.5123190880 4290923859
-0.2923752666 -0.1197949052 0.5124157071 4289607999
-0.2924301922 -0.1192479655 0.5125119686 4288622132
-0.2929707170 -0.1188979000 0.5134592652 4288161581
-0.2930252552 -0.1183494329 0.5135548711 4288618535
-0.2930795550 -0.1178006679 0.5136500597 4288618535
-0.2931336462 -0.1172515899 0.5137448311 4288617505
-0.2931874692 -0.1167022139 0.5138391852 4288683298
-0.2932410836 -0.1161525398 0.5139331222 4288093735
-0.2938870490 -0.1146915853 0.5150652528 4294024355
-0.2939398289 -0.1141397953 0.5151577592 4290362298
-0.2939923406 -0.1135877147 0.5152497888 4290164919
-0.2940446138 -0.1130353361 0.5153414011 4290230458
-0.2936097682 -0.1122964323 0.5145792961 4290362044
-0.2941484749 -0.1119296923 0.5155234337 4290361533
-0.2942000628 -0.1113764346 0.5156138539 4285163886
-0.2942513824 -0.1108228862 0.5157037973 4279642228
-0.2943024933 -0.1102690473 0.5157933235 4280036986
-0.2943533659 -0.1097149178 0.5158824921 4279840118
-0.2944039702 -0.1091605052 0.5159711838 4279642739
-0.2944543660 -0.1086058095 0.5160595179 4279775354
-0.2945044935 -0.1080508232 0.5161473751 4279841147
-0.2950420678 -0.1076735333 0.5170895457 4279381364
-0.2950918078 -0.1071170643 0.5171766877 4279710329
-0.2946534753 -0.1063841879 0.5164085031 4279579515
-0.2947026491 -0.1058280766 0.5164946914 4279513722
-0.2947516143 -0.1052716970 0.5165804625 4279381883
-0.2948002815 -0.1047150344 0.5166658163 4279250297
-0.2948487401 -0.1041580960 0.5167506933 4279644534
-0.2958734334 -0.1039439365 0.5185465813 4279578741
-0.2959215641 -0.1033846065 0.5186309218 4279512948
-0.2959694564 -0.1028250083 0.5187148452 4279512948
-0.2965055704 -0.1024338901 0.5196544528 4279447157
-0.2965530455 -0.1018728241 0.5197376609 4279512950
-0.2970888913 -0.1014783978 0.5206767917 4279513210
-0.2971359491 -0.1009158716 0.5207592845 4279447417
-0.2971827686 -0.1003530771 0.5208413005 4279447417
-0.2972293198 -0.0997900143 0.5209228992 4279381624
-0.2972756326 -0.0992266908 0.5210040808 4279446904
-0.2973217070 -0.0986631066 0.5210848451 4279512697
-0.2973675430 -0.0980992615 0.5211651325 4279447163
-0.2974131107 -0.0975351557 0.5212450027 4279644542
-0.2974584103 -0.0969707891 0.5213243961 4279381120
-0.2975035012 -0.0964061618 0.5214034319 4279578499
-0.2975483239 -0.0958412886 0.5214819908 4278923393
-0.2975928783 -0.0952761546 0.5215600729 4278989186
-0.2976372242 -0.0947107673 0.5216377378 4279711351
-0.2976812720 -0.0941451266 0.5217149854 4279513972
-0.2977251112 -0.0935792401 0.5217918158 4279905909
-0.2977686822 -0.0930131003 0.5218681693 4279971702
-0.2978119850 -0.0924467146 0.5219441056 4279971189
-0.2988348305 -0.0921823159 0.5237367153 4280168568
-0.2988778055 -0.0916135758 0.5238119960 4279972980
-0.2989204824 -0.0910445899 0.5238868594 4280038773
-0.2989629507 -0.0904753581 0.5239612460 4279578492
-0.2990051210 -0.0899058804 0.5240351558 4279907457
-0.2995373011 -0.0894826204 0.5249678493 4280627577
-0.2995790541 -0.0889117345 0.5250410438 4280759163
-0.2996205389 -0.0883406103 0.5251137614 4282138974
-0.2996617854 -0.0877692550 0.5251860619 4283783799
-0.2997027636 -0.0871976539 0.5252578855 4287130972
-0.2997435033 -0.0866258293 0.5253292322 4287328351
-0.2997839749 -0.0860537663 0.5254001617 4287786056
-0.2998241782 -0.0854814723 0.5254706144 4287983435
-0.2998641133 -0.0849089473 0.5255406499 4288377905
-0.2999038100 -0.0843361989 0.5256102085 4288048940
-0.2999432683 -0.0837632194 0.5256793499 4287655740
-0.3004734218 -0.0833261758 0.5266084671 4287918912
-0.3000213504 -0.0826165900 0.5258162022 4287327034
-0.3000600040 -0.0820429474 0.5258839726 4286603311
-0.3005895615 -0.0816024095 0.5268120766 4285811487
-0.3006277680 -0.0810273811 0.5268790126 4285416729
-0.3006657064 -0.0804521367 0.5269455314 4285416225
-0.3007034063 -0.0798766688 0.5270115733 4285482018
-0.3012322187 -0.0794305652 0.5279383659 4285549618
-0.3012694418 -0.0788537338 0.5280036330 4285549618
-0.3013063967 -0.0782766789 0.5280683637 4284957996
-0.3013431132 -0.0776994228 0.5281326771 4287063372
-0.2954910696 -0.1386032701 0.5188864470 4288915115
-0.2975452840 -0.1384057552 0.5224937201 4289505973
-0.3000196815 -0.1389714032 0.5268388391 4289902774
-0.3010475636 -0.1388601661 0.5286437869 4290429118
-0.3011105061 -0.1383017153 0.5287542939 4291081910
-0.3011732101 -0.1377429068 0.5288644433 4291081910
-0.3007529676 -0.1369639188 0.5281264186 4291082436
-0.2998494208 -0.1359674186 0.5265398026 4290819264
-0.2984623015 -0.1347561181 0.5241040587 4290819515
-0.2965913415 -0.1333326995 0.5208185911 4290819515
-0.2932699025 -0.1312673539 0.5149860978 4291147967
-0.2923630774 -0.1302910447 0.5133937001 4291016381
-0.2914556563 -0.1293179989 0.5118002295 4291148480
-0.2905475795 -0.1283482313 0.5102056861 4291148480
-0.2906060219 -0.1278070509 0.5103082657 4290951614
-0.2901805639 -0.1270537823 0.5095611811 4291148993
-0.2902384400 -0.1265128404 0.5096628070 4291411393
-0.2902960777 -0.1259715855 0.5097640157 4291214014
-0.2903535068 -0.1254300028 0.5098648667 4291143082
-0.2904106975 -0.1248881072 0.5099653006 4290550945
-0.2904676795 -0.1243458912 0.5100653172 4291003532
-0.2910086215 -0.1240096912 0.5110152364 4290016637
-0.2910652459 -0.1234659329 0.5111146569 4289551201
-0.2911216319 -0.1229218543 0.5112136602 4288235341
-0.2911777794 -0.1223774627 0.5113123059 4287247415
-0.2912337184 -0.1218327582 0.5114105344 4286260520
-0.2912894189 -0.1212877408 0.5115083456 4287240224
-0.2918296456 -0.1209433079 0.5124570131 4287306017
-0.2918849885 -0.1203967556 0.5125541687 4288418848
-0.2919400930 -0.1198498979 0.5126509070 4288879399
-0.2924800217 -0.1195009053 0.5135990381 4288420893
-0.2925347686 -0.1189525127 0.5136951804 4288684065
-0.2925892770 -0.1184038222 0.5137908459 4289403171
-0.2926435471 -0.1178548187 0.5138861537 4289403171
-0.2926975787 -0.1173055097 0.5139811039 4288617256
-0.2927513719 -0.1167559028 0.5140755773 4288551463
-0.2932905555 -0.1163987070 0.5150223374 4289338408
-0.2933439612 -0.1158475801 0.5151161551 4289141029
-0.2933971584 -0.1152961552 0.5152095556 4286594357
-0.2934501171 -0.1147444248 0.5153025389 4292976278
-0.2935028672 -0.1141924039 0.5153951645 4289706417
-0.2935553491 -0.1136400849 0.5154873133 4289443245
-0.2936075926 -0.1130874678 0.5155791044 4290558651
-0.2936596274 -0.1125345528 0.5156704187 4290361272
-0.2937113941 -0.1119813472 0.5157613754 4290427578
-0.2937629521 -0.1114278510 0.5158518553 4285164138
-0.2938142419 -0.1108740643 0.5159419775 4279381113
-0.2938653231 -0.1103199944 0.5160316825 4279578492
-0.2939161658 -0.1097656265 0.5161209106 4279513471
-0.2939667404 -0.1092109755 0.5162097812 4279184506
-0.2940171063 -0.1086560339 0.5162981749 4279513723
-0.2940672040 -0.1081008166 0.5163861513 4279579516
-0.2946040332 -0.1077233627 0.5173288584 4279710076
-0.2946537435 -0.1071666554 0.5174161792 4279644283
-0.2947032452 -0.1066096649 0.5175030231 4279578749
-0.2947524786 -0.1060523987 0.5175895095 4279512956
-0.2948014438 -0.1054948494 0.5176755190 4279513210
-0.2948502004 -0.1049370319 0.5177611113 4279579003
-0.2948987186 -0.1043789312 0.5178462863 4279644285
-0.2954345047 -0.1039921567 0.5187871456 4279578492
-0.2954826057 -0.1034325808 0.5188716054 4279578492
-0.2960181236 -0.1030424982 0.5198119879 4279578492
-0.2960658073 -0.1024814546 0.5198957324 4279512956
-0.2961132526 -0.1019201428 0.5199790597 4279512956
-0.2966483533 -0.1015255451 0.5209187269 4279578749
-0.2966954112 -0.1009627730 0.5210012794 4279644542
-0.2967421710 -0.1003997326 0.5210834742 4279447163
-0.2967887223 -0.0998364240 0.5211651921 4279447163
-0.2968350053 -0.0992728546 0.5212464929 4279579262
-0.2968810499 -0.0987090245 0.5213273168 4279645055
-0.2974152267 -0.0983063504 0.5222653151 4279513471
-0.2974608243 -0.0977410674 0.5223454237 4279513471
-0.2970176935 -0.0970159546 0.5215672255 4279579264
-0.2970627248 -0.0964510813 0.5216463804 4279447678
-0.2971075475 -0.0958859548 0.5217249990 4278988154
-0.2971520722 -0.0953205749 0.5218032598 4279185533
-0.2971963882 -0.0947549343 0.5218810439 4279315581
-0.2972404361 -0.0941890478 0.5219584107 4279447167
-0.2972842157 -0.0936229005 0.5220353007 4279512445
-0.2978167832 -0.0932095647 0.5229704976 4279446652
-0.2978601456 -0.0926419944 0.5230466127 4279776641
-0.2983924448 -0.0922253653 0.5239813328 4279842434
-0.2984353602 -0.0916563720 0.5240567327 4279185784
-0.2984780371 -0.0910871327 0.5241316557 4279383163
-0.2990098298 -0.0906660408 0.5250654817 4279775342
-0.2990520895 -0.0900953785 0.5251396894 4280038514
-0.2990940511 -0.0895244777 0.5252134204 4281152341
-0.2991358042 -0.0889533311 0.5252866745 4282994545
-0.2991772592 -0.0883819535 0.5253595114 4285557104
-0.2992184758 -0.0878103375 0.5254318714 4286741378
-0.2992594242 -0.0872384831 0.5255038142 4287986520
-0.2993001342 -0.0866663978 0.5255752802 4287525969
-0.2993405759 -0.0860940814 0.5256462693 4287721800
-0.2993807793 -0.0855215266 0.5257168412 4287392835
-0.2994207144 -0.0849487484 0.5257869959 4287720765
-0.2994603813 -0.0843757391 0.5258566737 4287918144
-0.2994997799 -0.0838025063 0.5259258747 4287786297
-0.3000291884 -0.0833652616 0.5268554688 4287786297
-0.3000681698 -0.0827906355 0.5269238949 4287982648
-0.3001068532 -0.0822157860 0.5269919038 4287324718
-0.3001452982 -0.0816407204 0.5270593762 4286600229
-0.3001834750 -0.0810654312 0.5271264315 4285876506
-0.3002214134 -0.0804899260 0.5271930099 4285416478
-0.3002590537 -0.0799141973 0.5272591710 4285416478
-0.3007871509 -0.0794678926 0.5281864405 4285088809
-0.3008243442 -0.0788907930 0.5282517672 4285088809
-0.3008612692 -0.0783134848 0.5283166766 4285155115
-0.3008979559 -0.0777359605 0.5283810496 4286931526
-0.2940230072 -0.1387589574 0.5173175335 4288258468
-0.2945670485 -0.1384398490 0.5182747245 4288784812
-0.2965553105 -0.1387945712 0.5217729807 4289309107
-0.2970996201 -0.1384685189 0.5227305889 4289374900
-0.2995703816 -0.1390344501 0.5270777941 4290099640
-0.3005967736 -0.1389231831 0.5288836956 4290362812
-0.3006596863 -0.1383644938 0.5289943814 4290754485
-0.3007223606 -0.1378054768 0.5291046500 4291017657
-0.3003027737 -0.1370261461 0.5283664465 4290689988
-0.2994006574 -0.1360292286 0.5267791748 4290558402
-0.2980156839 -0.1348173916 0.5243423581 4291081656
-0.2980768383 -0.1342623681 0.5244500041 4290884277
-0.2928311229 -0.1313271075 0.5152204633 4291933883
-0.2919257283 -0.1303503662 0.5136274695 4292131262
-0.2910197079 -0.1293769032 0.5120333433 4291475640
-0.2905957699 -0.1286203712 0.5112875104 4290883503
-0.2901714444 -0.1278653145 0.5105409026 4290554023
-0.2902295887 -0.1273235828 0.5106431842 4289567128
-0.2898045182 -0.1265705675 0.5098953247 4289099129
-0.2898621261 -0.1260290891 0.5099966526 4288046441
-0.2904027402 -0.1256964207 0.5109478235 4288625224
-0.2904599905 -0.1251533926 0.5110485554 4288098880
-0.2905170321 -0.1246100515 0.5111488700 4289207854
-0.2905738354 -0.1240663826 0.5112488270 4288813096
-0.2906304002 -0.1235223934 0.5113484263 4289206306
-0.2906867564 -0.1229780912 0.5114475489 4289403685
-0.2907428741 -0.1224334762 0.5115463138 4289143333
-0.2912826538 -0.1220913455 0.5124959946 4289143333
-0.2913384140 -0.1215451956 0.5125941038 4289797417
-0.2913939357 -0.1209987253 0.5126917958 4289731624
-0.2914492488 -0.1204519421 0.5127891302 4289600553
-0.2915043235 -0.1199048534 0.5128859878 4289797932
-0.2915591598 -0.1193574518 0.5129824877 4289011234
-0.2920981944 -0.1190071031 0.5139309168 4289142820
-0.2921526730 -0.1184581742 0.5140267611 4289535524
-0.2922069132 -0.1179089397 0.5141221881 4289535524
-0.2922609150 -0.1173594072 0.5142171979 4289076519
-0.2923147082 -0.1168095618 0.5143117905 4289273898
-0.2928530872 -0.1164522171 0.5152590871 4289273896
-0.2929064929 -0.1159008592 0.5153530836 4289010724
-0.2929596603 -0.1153491959 0.5154466033 4286990914
-0.2930125892 -0.1147972345 0.5155397058 4292978077
-0.2930652797 -0.1142449751 0.5156324506 4290296503
-0.2931177616 -0.1136924177 0.5157247782 4289770159
-0.2926845849 -0.1129522547 0.5149626136 4290821055
-0.2932219803 -0.1125864238 0.5159081221 4290557883
-0.2927881777 -0.1118474975 0.5151448846 4290361787
-0.2933252454 -0.1114792451 0.5160897970 4284966761
-0.2933765054 -0.1109252200 0.5161800385 4279315320
-0.2934275568 -0.1103709117 0.5162698030 4279512699
-0.2934783697 -0.1098163053 0.5163592100 4279513473
-0.2935289145 -0.1092614159 0.5164481997 4279184508
-0.2935792506 -0.1087062359 0.5165367126 4279513723
-0.2936293185 -0.1081507802 0.5166248679 4279579516
-0.2941654027 -0.1077731699 0.5175680518 4279644285
-0.2942150831 -0.1072162241 0.5176554322 4279644285
-0.2942645252 -0.1066589877 0.5177424550 4279578751
-0.2943137288 -0.1061014831 0.5178290009 4279578751
-0.2943626940 -0.1055436954 0.5179151893 4279513210
-0.2944114208 -0.1049856246 0.5180009007 4279579003
-0.2944599092 -0.1044272855 0.5180861950 4279578238
-0.2949949205 -0.1040403470 0.5190275311 4279578238
-0.2950430214 -0.1034805328 0.5191121101 4279512958
-0.2955777943 -0.1030902788 0.5200530291 4279447165
-0.2956254482 -0.1025289968 0.5201368928 4279512958
-0.2961599827 -0.1021354198 0.5210773945 4279512958
-0.2962072194 -0.1015726700 0.5211604834 4279578751
-0.2962542176 -0.1010096520 0.5212432146 4279578751
-0.2963009775 -0.1004463658 0.5213254690 4279381372
-0.2963474989 -0.0998828113 0.5214073062 4279447165
-0.2963937521 -0.0993189961 0.5214887261 4279447678
-0.2964397669 -0.0987549126 0.5215696692 4279513471
-0.2969731987 -0.0983520672 0.5225082040 4279579264
-0.2970187962 -0.0977865309 0.5225883722 4279579264
-0.2970641255 -0.0972207412 0.5226681828 4279513471
-0.2966213524 -0.0964959785 0.5218891501 4279447678
-0.2966661453 -0.0959305987 0.5219679475 4279053172
-0.2967106700 -0.0953649655 0.5220462680 4279053172
-0.2967549264 -0.0947990790 0.5221241713 4279447165
-0.2967989445 -0.0942329392 0.5222015977 4279381372
-0.2968427241 -0.0936665460 0.5222786665 4279644033
-0.2973745465 -0.0932530314 0.5232143402 4279972998
-0.2974178791 -0.0926852077 0.5232905746 4279710588
-0.2979494035 -0.0922683999 0.5242257714 4279973760
-0.2979923189 -0.0916991457 0.5243012905 4279578994
-0.2980349660 -0.0911296532 0.5243763328 4279447408
-0.2985660136 -0.0907083750 0.5253106952 4280957807
-0.2986082435 -0.0901374593 0.5253849626 4283589527
-0.2986502051 -0.0895663053 0.5254588127 4285625742
-0.2986918986 -0.0889949054 0.5255321860 4286152086
-0.2987333536 -0.0884232745 0.5256050825 4286741112
-0.2987745404 -0.0878513977 0.5256775618 4286806905
-0.2988154888 -0.0872792900 0.5257495642 4288643672
-0.2988561690 -0.0867069438 0.5258211493 4287985742
-0.2988965809 -0.0861343741 0.5258923173 4287919433
-0.2989367545 -0.0855615661 0.5259629488 4287919433
-0.2989766598 -0.0849885270 0.5260331631 4287984453
-0.2990163267 -0.0844152570 0.5261029601 4287787074
-0.2990556955 -0.0838417634 0.5261722803 4287720765
-0.2995843589 -0.0834043249 0.5271024108 4287852351
-0.2996233106 -0.0828294456 0.5271708965 4288114492
-0.2996619642 -0.0822543353 0.5272389650 4287653941
-0.2997004092 -0.0816790089 0.5273065567 4287258157
-0.2997385561 -0.0811034590 0.5273737311 4286600227
-0.2997764647 -0.0805276930 0.5274403691 4286074146
-0.2998141050 -0.0799517035 0.5275065899 4285876767
-0.3003414273 -0.0795051977 0.5284344554 4285483041
-0.3003786206 -0.0789278373 0.5284998417 4285351455
-0.3004155457 -0.0783502683 0.5285648108 4285089579
-0.3004521728 -0.0777724832 0.5286293030 4287129162
-0.2990573347 -0.1396538615 0.5272053480 4289309877
-0.3000822663 -0.1395447105 0.5290122032 4290362044
-0.3001453578 -0.1389861554 0.5291234255 4290427837
-0.3002082407 -0.1384272575 0.5292342901 4290558137
-0.2997896671 -0.1376470625 0.5284963846 4290689723
-0.2988893688 -0.1366482526 0.5269092917 4290099391
-0.2955814600 -0.1345569640 0.5210777521 4290296770
-0.2956424057 -0.1340056360 0.5211852193 4291208873
-0.2923319340 -0.1319325119 0.5153492689 4290156185
-0.2914283872 -0.1309539080 0.5137563348 4292966014
-0.2905241847 -0.1299785525 0.5121623278 4292110705
-0.2901012599 -0.1292211264 0.5114167929 4290794843
-0.2901599407 -0.1286789179 0.5115202069 4289215811
-0.2897363007 -0.1279235333 0.5107733607 4288424498
-0.2897944152 -0.1273815781 0.5108758211 4288029740
-0.2893700302 -0.1266282499 0.5101277232 4288290345
-0.2899099886 -0.1262966841 0.5110796094 4288092966
-0.2899674475 -0.1257537603 0.5111808777 4288748326
-0.2900246680 -0.1252105087 0.5112817287 4288616740
-0.2900816500 -0.1246669367 0.5113822222 4289076517
-0.2901384234 -0.1241230369 0.5114822984 4288944931
-0.2901949883 -0.1235788241 0.5115820169 4289339942
-0.2902513146 -0.1230342984 0.5116813183 4289208356
-0.2907904387 -0.1226932555 0.5126317143 4289010975
-0.2908464074 -0.1221471876 0.5127303600 4288813596
-0.2909021378 -0.1216008067 0.5128286481 4289011747
-0.2909576297 -0.1210541055 0.5129264593 4289011747
-0.2914963067 -0.1207072735 0.5138760805 4288750374
-0.2910679579 -0.1199597791 0.5131209493 4288750374
-0.2916063368 -0.1196105033 0.5140700936 4288814370
-0.2916610241 -0.1190616563 0.5141664743 4288945956
-0.2917154729 -0.1185124964 0.5142624378 4288945444
-0.2922535539 -0.1181586608 0.5152110457 4288813858
-0.2923076153 -0.1176079810 0.5153063536 4289074470
-0.2923614383 -0.1170569882 0.5154012442 4289206056
-0.2924150527 -0.1165056974 0.5154957175 4288485670
-0.2924684286 -0.1159541085 0.5155898333 4288617256
-0.2925215662 -0.1154022142 0.5156834722 4287255634
-0.2925744653 -0.1148500144 0.5157767534 4292255902
-0.2926271260 -0.1142975241 0.5158696175 4290426551
-0.2926795483 -0.1137447283 0.5159620047 4290229172
-0.2927317321 -0.1131916419 0.5160540342 4290821055
-0.2927837074 -0.1126382574 0.5161456466 4290557883
-0.2928354144 -0.1120845824 0.5162368417 4290295994
-0.2928869128 -0.1115306094 0.5163275599 4284703589
-0.2929381728 -0.1109763458 0.5164179206 4279380859
-0.2929891646 -0.1104217991 0.5165078640 4279512445
-0.2930399477 -0.1098669544 0.5165973902 4279512960
-0.2930904925 -0.1093118265 0.5166864395 4279249788
-0.2936260998 -0.1089364737 0.5176306963 4279513469
-0.2936762571 -0.1083798483 0.5177190900 4279513469
-0.2937261462 -0.1078229472 0.5178070664 4279644285
-0.2937757969 -0.1072657555 0.5178946257 4279578492
-0.2938252389 -0.1067082882 0.5179817080 4279578751
-0.2938744128 -0.1061505377 0.5180684328 4279578751
-0.2939233482 -0.1055925041 0.5181546807 4279512956
-0.2944579422 -0.1052078083 0.5190971494 4279512956
-0.2945064604 -0.1046482995 0.5191826820 4279512958
-0.2950408161 -0.1042602733 0.5201246738 4279512958
-0.2950889468 -0.1036992893 0.5202095509 4279447165
-0.2951368392 -0.1031380370 0.5202939510 4279447165
-0.2956707776 -0.1027454957 0.5212352276 4279447165
-0.2957182527 -0.1021827683 0.5213189125 4279512958
-0.2957654595 -0.1016197726 0.5214021802 4279512958
-0.2958124578 -0.1010565013 0.5214849710 4279578751
-0.2963458002 -0.1006582528 0.5224251747 4279381372
-0.2963923514 -0.1000935286 0.5225073099 4279447165
-0.2964386642 -0.0995285362 0.5225889087 4279381885
-0.2964847386 -0.0989632756 0.5226701498 4279447678
-0.2965305448 -0.0983977541 0.5227509141 4279513471
-0.2965761125 -0.0978319719 0.5228312612 4279513471
-0.2961343825 -0.0971062183 0.5220525265 4279513471
-0.2961793840 -0.0965408459 0.5221318007 4279447678
-0.2962241173 -0.0959752202 0.5222107172 4279316084
-0.2967559099 -0.0955662578 0.5231481791 4279645049
-0.2968002260 -0.0949991867 0.5232263207 4279381370
-0.2968443036 -0.0944318697 0.5233039856 4279447163
-0.2968881130 -0.0938642919 0.5233812332 4279710337
-0.2969316840 -0.0932964683 0.5234580636 4279776130
-0.2969749868 -0.0927283913 0.5235344172 4280301948
-0.2979934812 -0.0924627334 0.5253299475 4280301948
-0.2980364263 -0.0918922946 0.5254056454 4279576924
-0.2980791330 -0.0913216174 0.5254809260 4282208644
-0.2981215715 -0.0907506868 0.5255557299 4285693087
-0.2981637716 -0.0901795179 0.5256301165 4288259014
-0.2982057035 -0.0896081105 0.5257040262 4289308596
-0.2982473969 -0.0890364572 0.5257775187 4288584873
-0.2982888222 -0.0884645656 0.5258505344 4287794051
-0.2983299792 -0.0878924355 0.5259231329 4286872949
-0.2983708978 -0.0873200744 0.5259952545 4287919951
-0.2984115481 -0.0867474750 0.5260669589 4288051537
-0.2989404202 -0.0863156766 0.5269992948 4288314707
-0.2989806235 -0.0857416764 0.5270701647 4288314707
-0.2990205884 -0.0851674452 0.5271405578 4288182605
-0.2990602851 -0.0845929831 0.5272105336 4288051019
-0.2986109853 -0.0838810056 0.5264185071 4288050504
-0.2991389036 -0.0834433734 0.5273491740 4287853125
-0.2991778255 -0.0828682333 0.5274177790 4287983424
-0.2992164791 -0.0822928622 0.5274859071 4287720252
-0.2992548645 -0.0817172751 0.5275536180 4287784501
-0.2992930114 -0.0811414644 0.5276208520 4287323950
-0.2993308902 -0.0805654377 0.5276876092 4286863399
-0.2993685007 -0.0799891874 0.5277539492 4286666020
-0.2994058728 -0.0794127285 0.5278198123 4286337570
-0.2999322712 -0.0789648667 0.5287477374 4286140191
-0.2999691665 -0.0783870295 0.5288128257 4285484337
-0.3000057936 -0.0778089836 0.5288773775 4287721299
-0.2932014167 -0.1383387148 0.5178960562 4288915628
-0.2962064743 -0.1385939270 0.5232040286 4289375668
-0.2986699343 -0.1391604245 0.5275553465 4290295740
-0.2996933460 -0.1390490979 0.5293630362 4290361533
-0.2997561693 -0.1384899616 0.5294740200 4290427580
-0.2998187840 -0.1379304826 0.5295846462 4290559166
-0.2994005680 -0.1371505111 0.5288459659 4290427840
-0.2985012829 -0.1361527294 0.5272574425 4290230461
-0.2971205711 -0.1349398494 0.5248186588 4289752949
-0.2952581644 -0.1335145682 0.5215289593 4286265920
-0.2919518054 -0.1314464808 0.5156888366 4288681242
-0.2910492420 -0.1304689199 0.5140945315 4288681242
-0.2901460230 -0.1294946223 0.5124992132 4289142820
-0.2897234857 -0.1287374347 0.5117528439 4289405992
-0.2893005311 -0.1279817373 0.5110057592 4289142309
-0.2893586159 -0.1274395585 0.5111083388 4289273895
-0.2894164920 -0.1268970519 0.5112105608 4289930798
-0.2894741297 -0.1263542175 0.5113123655 4290062384
-0.2895315588 -0.1258110553 0.5114138126 4289536298
-0.2895887494 -0.1252675802 0.5115147829 4289404712
-0.2896457016 -0.1247237846 0.5116154552 4289472815
-0.2897024453 -0.1241796613 0.5117156506 4289012264
-0.2902410924 -0.1238409355 0.5126670599 4289079340
-0.2902974784 -0.1232952774 0.5127666593 4288750375
-0.2903536260 -0.1227492914 0.5128658414 4288749092
-0.2904095352 -0.1222029999 0.5129646659 4288551713
-0.2904652357 -0.1216563880 0.5130630136 4289272868
-0.2905207276 -0.1211094558 0.5131610036 4289601833
-0.2910586298 -0.1207624897 0.5141111612 4289340201
-0.2911137342 -0.1202140301 0.5142084956 4289208615
-0.2911686003 -0.1196652576 0.5143054128 4288879910
-0.2912232578 -0.1191161796 0.5144019127 4289011496
-0.2912776768 -0.1185667887 0.5144980550 4287511614
-0.2913318574 -0.1180170923 0.5145937204 4288432716
-0.2918690145 -0.1176618934 0.5155425668 4288959324
-0.2919228375 -0.1171106771 0.5156376362 4289748840
-0.2919763923 -0.1165591478 0.5157322288 4290014838
-0.2920297384 -0.1160073206 0.5158264637 4290738561
-0.2920828462 -0.1154551953 0.5159202814 4289567382
-0.2921357155 -0.1149027646 0.5160136223 4291212207
-0.2921883464 -0.1143500358 0.5161066055 4290163895
-0.2922407389 -0.1137970090 0.5161991715 4290229688
-0.2922929227 -0.1132436842 0.5162913203 4290689469
-0.2923448384 -0.1126900688 0.5163830519 4290557883
-0.2923965454 -0.1121361554 0.5164743662 4290164408
-0.2924479842 -0.1115819439 0.5165652633 4284440417
-0.2924992144 -0.1110274419 0.5166556835 4279446652
-0.2925501764 -0.1104726568 0.5167457461 4279446652
-0.2926009297 -0.1099175736 0.5168353915 4279447680
-0.2926514447 -0.1093622074 0.5169246197 4279184508
-0.2931863070 -0.1089866981 0.5178693533 4279513469
-0.2932364345 -0.1084298342 0.5179578662 4279513469
-0.2932862937 -0.1078726947 0.5180459619 4279644285
-0.2933359146 -0.1073152646 0.5181336403 4279644285
-0.2933853269 -0.1067575514 0.5182209015 4279578751
-0.2934344709 -0.1061995625 0.5183076859 4279578751
-0.2934833765 -0.1056412905 0.5183941126 4279578749
-0.2940172255 -0.1052564308 0.5193370581 4279512956
-0.2940657139 -0.1046966761 0.5194227099 4279578749
-0.2941139936 -0.1041366458 0.5195079446 4279512956
-0.2946474254 -0.1037472636 0.5204501748 4279512956
-0.2951807678 -0.1033557579 0.5213922858 4279447163
-0.2952284515 -0.1027930528 0.5214765072 4279447163
-0.2952758968 -0.1022300795 0.5215603113 4279512956
-0.2953231037 -0.1016668379 0.5216436982 4279512956
-0.2953700423 -0.1011033282 0.5217266083 4279578749
-0.2959026396 -0.1007049084 0.5226673484 4279447163
-0.2959491611 -0.1001399308 0.5227495432 4279512956
-0.2959954441 -0.0995746925 0.5228313208 4279447676
-0.2960414886 -0.0990091860 0.5229126215 4279447676
-0.2960872948 -0.0984434187 0.5229935050 4279447676
-0.2961328328 -0.0978773907 0.5230739713 4279447676
-0.2961781323 -0.0973111019 0.5231539607 4279447676
-0.2957367599 -0.0965856910 0.5223743320 4279447676
-0.2957814932 -0.0960198119 0.5224533677 4279513461
-0.2958259583 -0.0954536796 0.5225319266 4279184496
-0.2963567972 -0.0950433537 0.5234695673 4279513469
-0.2964008451 -0.0944757834 0.5235473514 4279645055
-0.2964446545 -0.0939079598 0.5236247182 4279645309
-0.2964881957 -0.0933398828 0.5237016678 4279908481
-0.2965314984 -0.0927715600 0.5237781405 4280367730
-0.2975485027 -0.0925057828 0.5255745053 4280828281
-0.2975914180 -0.0919350982 0.5256503224 4284049290
-0.2976340950 -0.0913641602 0.5257257223 4287207354
-0.2976765335 -0.0907929763 0.5258006454 4289375680
-0.2977186739 -0.0902215540 0.5258751512 4289573059
-0.2977606058 -0.0896498859 0.5259491801 4289571758
-0.2978022695 -0.0890779793 0.5260227323 4289769137
-0.2978436649 -0.0885058343 0.5260958672 4289637025
-0.2978847921 -0.0879334509 0.5261685848 4288847509
-0.2979257107 -0.0873608291 0.5262407660 4288316778
-0.2979663312 -0.0867879763 0.5263125896 4287856227
-0.2984944582 -0.0863559917 0.5272454023 4287789143
-0.2985346317 -0.0857817307 0.5273163915 4287986522
-0.2985745668 -0.0852072388 0.5273869038 4288445525
-0.2986142337 -0.0846325234 0.5274569988 4288248146
-0.2981656492 -0.0839202255 0.5266646147 4288247626
-0.2982047498 -0.0833459869 0.5267336965 4288116040
-0.2987317145 -0.0829069912 0.5276644826 4288181062
-0.2987703383 -0.0823313668 0.5277327299 4287983683
-0.2988087237 -0.0817555189 0.5278005004 4288048447
-0.2988468409 -0.0811794549 0.5278678536 4287653689
-0.2988846898 -0.0806031600 0.5279347301 4287456049
-0.2989223003 -0.0800266564 0.5280011296 4287324463
-0.2989596426 -0.0794499293 0.5280671120 4287126826
-0.2994852662 -0.0790018663 0.5289955139 4286863654
