VERSION 0.7
FIELDS x y z rgba
SIZE 4 4 4 4
TYPE F F F U
COUNT 1 1 1 1
WIDTH 920
HEIGHT 1
VIEWPOINT 0.0 0.0 0.0 1.0 0.0 0.0 0.0
POINTS 920
DATA ascii
-0.2797913253 -0.0921911597 0.5444066525 4292006871
-0.2802839875 -0.0917475522 0.5453652740 4292006871
-0.2812286615 -0.0914487988 0.5472034216 4292072664
-0.2821733654 -0.0911459699 0.5490415096 4292072665
-0.2826657891 -0.0906939432 0.5499997139 4292138458
-0.2836104333 -0.0903839022 0.5518377423 4292270044
-0.2845550776 -0.0900697708 0.5536757708 4292335837
-0.2854996920 -0.0897515640 0.5555137992 4292270558
-0.2864443362 -0.0894292668 0.5573518276 4292336351
-0.2873889506 -0.0891028792 0.5591898561 4292467937
-0.2887862027 -0.0889117643 0.5619085431 4292533730
-0.2901835740 -0.0887146518 0.5646274686 4292534245
-0.2911282778 -0.0883740783 0.5664656758 4292731624
-0.2929786146 -0.0883023813 0.5700659752 4293061103
-0.2948291898 -0.0882227421 0.5736666918 4293587447
-0.3157502711 -0.2096151114 0.6157047153 4292402922
-0.3062262535 -0.2026289999 0.5971331000 4290495180
-0.3111164868 -0.2051908225 0.6066690087 4288718769
-0.3020225763 -0.1985387504 0.5889360905 4287862688
-0.2990442514 -0.1959330142 0.5831284523 4287599516
-0.2969387174 -0.1939101368 0.5790227056 4287862427
-0.2957066596 -0.1924648881 0.5766201615 4287072911
-0.2949112356 -0.1913082302 0.5750691295 4287401361
-0.2941151261 -0.1901545972 0.5735167861 4288059291
-0.2941939533 -0.1895681620 0.5736705065 4288651169
-0.2938346565 -0.1887000352 0.5729698539 4289045927
-0.2939129770 -0.1881135404 0.5731225610 4289440685
-0.2939910591 -0.1875265837 0.5732748508 4289967029
-0.2940689623 -0.1869391501 0.5734267235 4291545807
-0.2937082648 -0.1860735267 0.5727233887 4293322218
-0.2937856317 -0.1854860336 0.5728742480 4293519597
-0.2943013906 -0.1851740479 0.5738800168 4292006358
-0.2939397693 -0.1843096614 0.5731748343 4290033081
-0.2948941886 -0.1842692047 0.5750358701 4289769909
-0.2936541140 -0.1828581244 0.5726178288 4289704116
-0.2937303483 -0.1822692007 0.5727664828 4289440944
-0.2960022390 -0.1830376685 0.5771965981 4289177772
-0.2943214774 -0.1813606918 0.5739191175 4289375151
-0.2961547971 -0.1818487346 0.5774940252 4290756804
-0.2962307632 -0.1812535822 0.5776422024 4290098874
-0.2958668768 -0.1803899258 0.5769326091 4289835702
-0.2946231067 -0.1789932698 0.5745072961 4289967288
-0.2951378226 -0.1786665469 0.5755110383 4290098874
-0.2943326831 -0.1775414646 0.5739409924 4289967288
-0.2922067046 -0.1756259799 0.5697953701 4289901493
-0.2900793850 -0.1737189144 0.5656471252 4289835700
-0.2875104547 -0.1715575606 0.5606378317 4289769909
-0.2853803933 -0.1696682572 0.5564842224 4289638323
-0.2823680043 -0.1672655195 0.5506101847 4289572528
-0.2806757390 -0.1656549722 0.5473102927 4289638321
-0.2794231176 -0.1643102914 0.5448677540 4289703857
-0.2781696320 -0.1629705429 0.5424234867 4289638064
-0.2773562670 -0.1618930995 0.5408374071 4289572271
-0.2765422463 -0.1608188152 0.5392501354 4289572271
-0.2761687636 -0.1600032747 0.5385218263 4289572271
-0.2753535807 -0.1589344293 0.5369322300 4289572271
-0.2749791443 -0.1581225395 0.5362021327 4289572271
-0.2741628289 -0.1570591331 0.5346102715 4289506478
-0.2737874687 -0.1562509239 0.5338783264 4289440685
-0.2725282609 -0.1549418569 0.5314229727 4289440685
-0.2730354667 -0.1546386629 0.5324119925 4289310126
-0.2722169459 -0.1535852998 0.5308158994 4289244333
-0.2718397975 -0.1527835578 0.5300804973 4289244333
-0.2714622617 -0.1519832313 0.5293442607 4289244333
-0.2710842788 -0.1511842906 0.5286072493 4289309356
-0.2711482346 -0.1506325006 0.5287319422 4289309356
-0.2712120116 -0.1500803232 0.5288562775 4289309356
-0.2703904808 -0.1490398943 0.5272542834 4289309356
-0.2704536021 -0.1484887451 0.5273774266 4289243563
-0.2700738013 -0.1476950794 0.5266367793 4289243563
-0.2701364160 -0.1471440643 0.5267589092 4289243563
-0.2697558701 -0.1463523507 0.5260168910 4289243563
-0.2693749368 -0.1455620527 0.5252740383 4289309099
-0.2694367468 -0.1450116932 0.5253945589 4289243306
-0.2690550983 -0.1442233622 0.5246503353 4289243306
-0.2691163719 -0.1436731666 0.5247698426 4289243306
-0.2687340081 -0.1428867877 0.5240242481 4289309099
-0.2683512270 -0.1421018690 0.5232778192 4289309099
-0.2684116960 -0.1415523589 0.5233957171 4289309099
-0.2684719563 -0.1410024762 0.5235132575 4289309099
-0.2685320079 -0.1404522210 0.5236303210 4289243306
-0.2681478858 -0.1396703720 0.5228813291 4289243306
-0.2682074308 -0.1391202956 0.5229974389 4289243306
-0.2682667673 -0.1385698467 0.5231131315 4289243306
-0.2678816319 -0.1377905309 0.5223621130 4289243304
-0.2679404318 -0.1372402757 0.5224767923 4289243304
-0.2679990530 -0.1366896480 0.5225911140 4289243304
-0.2680574358 -0.1361386776 0.5227049589 4289243304
-0.2681156099 -0.1355873346 0.5228183866 4289309097
-0.2681735754 -0.1350356340 0.5229314566 4289374890
-0.2677865326 -0.1342605501 0.5221766829 4289440683
-0.2678439617 -0.1337090582 0.5222886801 4289374890
-0.2679012120 -0.1331572086 0.5224003196 4289375403
-0.2679582536 -0.1326050013 0.5225115418 4289309610
-0.2680150568 -0.1320524514 0.5226222873 4289243817
-0.2676263452 -0.1312811077 0.5218643546 4289178024
-0.2676826417 -0.1307287663 0.5219741464 4289243817
-0.2672932446 -0.1299594939 0.5212147832 4289309610
-0.2673490047 -0.1294073761 0.5213235617 4289375403
-0.2674045563 -0.1288549304 0.5214318633 4289441196
-0.2674598992 -0.1283021271 0.5215398073 4289375403
-0.2675150335 -0.1277489811 0.5216472745 4289441196
-0.2675699592 -0.1271954924 0.5217543840 4289440942
-0.2676246464 -0.1266416758 0.5218610168 4289440942
-0.2672329843 -0.1258773655 0.5210973024 4289440942
-0.2672871649 -0.1253237873 0.5212029815 4289506735
-0.2673411369 -0.1247698739 0.5213081837 4289506735
-0.2673948705 -0.1242156252 0.5214129686 4289506735
-0.2674483955 -0.1236610487 0.5215173364 4289572782
-0.2675016820 -0.1231061369 0.5216212273 4289572782
-0.2675547600 -0.1225508898 0.5217247605 4289638321
-0.2671608627 -0.1217916533 0.5209566951 4289638321
-0.2672134340 -0.1212366745 0.5210591555 4289704114
-0.2672657669 -0.1206813753 0.5211611986 4289769907
-0.2673178911 -0.1201257482 0.5212628245 4289769907
-0.2673697770 -0.1195697933 0.5213640332 4289769907
-0.2678686380 -0.1192125380 0.5223368406 4289769907
-0.2679201961 -0.1186550111 0.5224373341 4289769907
-0.2679715157 -0.1180971637 0.5225374103 4289835702
-0.2680225968 -0.1175389960 0.5226370096 4289967288
-0.2680734694 -0.1169805080 0.5227362514 4290033081
-0.2681241333 -0.1164216995 0.5228350163 4290098874
-0.2681745589 -0.1158625856 0.5229333043 4290164667
-0.2686725557 -0.1154956371 0.5239043832 4290164667
-0.2687225938 -0.1149349585 0.5240020156 4290230460
-0.2687724531 -0.1143739596 0.5240991712 4290230460
-0.2692700922 -0.1140023395 0.5250695944 4290296253
-0.2688714266 -0.1132510379 0.5242922306 4290296253
-0.2693687975 -0.1128769219 0.5252620578 4290362046
-0.2694178224 -0.1123137549 0.5253576636 4290427839
-0.2694666088 -0.1117502749 0.5254527926 4290427839
-0.2695151567 -0.1111864895 0.5255474448 4290427839
-0.2695634961 -0.1106224060 0.5256417394 4290493632
-0.2696115971 -0.1100580096 0.5257354975 4290493632
-0.2701081336 -0.1096755043 0.5267037749 4290428609
-0.2701558769 -0.1091095731 0.5267968178 4290428609
-0.2702033520 -0.1085433438 0.5268894434 4290560195
-0.2702506185 -0.1079768166 0.5269815922 4290560195
-0.2707466483 -0.1075884104 0.5279488564 4290560195
-0.2707935274 -0.1070203483 0.5280402303 4290625988
-0.2708401680 -0.1064519882 0.5281311870 4290756804
-0.2713358104 -0.1060589328 0.5290976763 4290822597
-0.2713820636 -0.1054890528 0.5291879177 4290888390
-0.2714280784 -0.1049188748 0.5292776227 4290888390
-0.2714738846 -0.1043484062 0.5293669105 4290888390
-0.2719689608 -0.1039494723 0.5303323269 4290954183
-0.2720143497 -0.1033774838 0.5304208398 4291019976
-0.2725092173 -0.1029751375 0.5313857794 4291019976
-0.2725541890 -0.1024016365 0.5314735174 4291019976
-0.2730487883 -0.1019958854 0.5324379802 4291019976
-0.2730934024 -0.1014208719 0.5325249434 4291085769
-0.2731377482 -0.1008455753 0.5326114297 4291085769
-0.2736319304 -0.1004351899 0.5335750580 4291217355
-0.2741259933 -0.1000226289 0.5345385075 4291217355
-0.2750701904 -0.0997711867 0.5363796353 4291283148
-0.2751138806 -0.0991909802 0.5364648104 4291283148
-0.2751573324 -0.0986104980 0.5365495682 4291348942
-0.2752005160 -0.0980297476 0.5366337895 4291348942
-0.2756939828 -0.0976082087 0.5375959873 4291414734
-0.2757367790 -0.0970259607 0.5376794338 4291414734
-0.2762299478 -0.0966010317 0.5386410952 4291480527
-0.2767229974 -0.0961739272 0.5396025777 4291612113
-0.2767651975 -0.0955889598 0.5396848917 4291612113
-0.2772579789 -0.0951584652 0.5406457782 4291677906
-0.2777506709 -0.0947257876 0.5416064858 4291677906
-0.2782432139 -0.0942909494 0.5425669551 4291743699
-0.2782846391 -0.0937020630 0.5426477194 4291809492
-0.2787769139 -0.0932638273 0.5436076522 4291875285
-0.2792690694 -0.0928234234 0.5445673466 4291941078
-0.2797611058 -0.0923808515 0.5455268025 4292006871
-0.2802530229 -0.0919361040 0.5464860201 4292072664
-0.2807448208 -0.0914891884 0.5474450588 4292072664
-0.2821393609 -0.0913323611 0.5501643419 4292006872
-0.2826310396 -0.0908791870 0.5511230826 4292204251
-0.2835741639 -0.0905680656 0.5529621243 4292335837
-0.2840656340 -0.0901095942 0.5539205670 4292335837
-0.2850086987 -0.0897912532 0.5557594299 4292204765
-0.2864034772 -0.0896101594 0.5584792495 4292336351
-0.2873465717 -0.0892826840 0.5603182316 4292468450
-0.2887415290 -0.0890905410 0.5630383492 4292600036
-0.2896846533 -0.0887539238 0.5648774505 4292600036
-0.2910797596 -0.0885507166 0.5675978661 4292797415
-0.2929269969 -0.0884780288 0.5711999536 4293192689
-0.3101347983 -0.2049873173 0.6060672998 4291284441
-0.3054199219 -0.2012078166 0.5968534946 4289375929
-0.3020115197 -0.1983066499 0.5901927948 4288389034
-0.2990375757 -0.1957046092 0.5843810439 4287796636
-0.2964984477 -0.1933991015 0.5794190764 4287467671
-0.2957048416 -0.1922394037 0.5778682232 4287796120
-0.2949105799 -0.1910827011 0.5763159990 4287730327
-0.2941156328 -0.1899290234 0.5747625232 4287729813
-0.2959428430 -0.1904664040 0.5783332586 4288387743
-0.2933982313 -0.1881916821 0.5733606219 4288716708
-0.2934762537 -0.1876045018 0.5735130906 4288782501
-0.2935540676 -0.1870168746 0.5736651421 4288979880
-0.2931940854 -0.1861509234 0.5729616880 4289835189
-0.2932713926 -0.1855632365 0.5731127262 4290032568
-0.2933484614 -0.1849750876 0.5732633471 4289835189
-0.2934253514 -0.1843864620 0.5734136105 4289046186
-0.2939400971 -0.1840717047 0.5744195580 4289111979
-0.2935785353 -0.1832078397 0.5737129450 4289111979
-0.2940931022 -0.1828904003 0.5747184753 4289046186
-0.2941692770 -0.1822990477 0.5748673677 4288848807
-0.2946837544 -0.1819780469 0.5758727789 4288914600
-0.2947596312 -0.1813849062 0.5760210752 4290625218
-0.2948352993 -0.1807913035 0.5761689544 4290296253
-0.2944719195 -0.1799290925 0.5754587650 4289835702
-0.2949860096 -0.1796027273 0.5764634609 4289901495
-0.2941828966 -0.1784750074 0.5748940110 4290098874
-0.2933790982 -0.1773503572 0.5733232498 4289967288
-0.2921353877 -0.1759642065 0.5708927512 4289901495
-0.2904513478 -0.1743192226 0.5676018000 4289901495
-0.2878871858 -0.1721552163 0.5625908971 4289835702
-0.2857611477 -0.1702633798 0.5584361553 4289704116
-0.2831940353 -0.1681189537 0.5534195304 4289638321
-0.2810652554 -0.1662449241 0.5492594242 4289572528
-0.2793751657 -0.1646386683 0.5459566116 4289572530
-0.2785640955 -0.1635558754 0.5443716645 4289572530
-0.2773122489 -0.1622187346 0.5419252515 4289572528
-0.2764998078 -0.1611431390 0.5403376222 4289572528
-0.2761271298 -0.1603264064 0.5396093726 4289572271
-0.2744325399 -0.1587466151 0.5362977386 4289506478
-0.2753805518 -0.1586970538 0.5381503701 4289506478
-0.2741251886 -0.1573784202 0.5356971025 4289506478
-0.2733098269 -0.1563168764 0.5341036916 4289506478
-0.2729347348 -0.1555097401 0.5333707333 4289506478
-0.2725592554 -0.1547040045 0.5326369405 4289440942
-0.2717422247 -0.1536502242 0.5310402513 4289375149
-0.2713657916 -0.1528481841 0.5303046703 4289375149
-0.2714303136 -0.1522951722 0.5304307342 4289375149
-0.2710531652 -0.1514950395 0.5296937227 4289375149
-0.2702340484 -0.1504504681 0.5280929804 4289309356
-0.2698559761 -0.1496540606 0.5273541808 4289243563
-0.2699192464 -0.1491030902 0.5274778605 4289309356
-0.2696032226 -0.1477577537 0.5268602967 4289309099
-0.2696658075 -0.1472065300 0.5269825459 4289309099
-0.2692859769 -0.1464145035 0.5262402892 4289309099
-0.2693480253 -0.1458634138 0.5263615847 4289309099
-0.2689675093 -0.1450733393 0.5256179571 4289309099
-0.2685865760 -0.1442847103 0.5248734951 4289309099
-0.2686477900 -0.1437342912 0.5249931812 4289309099
-0.2687088251 -0.1431835145 0.5251123905 4289309099
-0.2683268487 -0.1423973739 0.5243659616 4289309099
-0.2679444849 -0.1416126788 0.5236187577 4289309099
-0.2680046856 -0.1410625875 0.5237364173 4289309099
-0.2680647075 -0.1405121237 0.5238536596 4289243306
-0.2681244910 -0.1399613023 0.5239704847 4289243306
-0.2677407861 -0.1391796768 0.5232206583 4289243306
-0.2678000629 -0.1386290193 0.5233365297 4289243306
-0.2678591311 -0.1380780041 0.5234519243 4289243304
-0.2674744129 -0.1372989416 0.5227001309 4289243304
-0.2675329745 -0.1367481053 0.5228145719 4289309097
-0.2675912976 -0.1361969113 0.5229285955 4289309097
-0.2676494420 -0.1356453598 0.5230421424 4289309097
-0.2677073479 -0.1350934505 0.5231553316 4289374890
-0.2677650750 -0.1345411837 0.5232681036 4289374890
-0.2673784196 -0.1337663680 0.5225125551 4289309097
-0.2674356103 -0.1332142949 0.5226243138 4289309610
-0.2674925923 -0.1326618791 0.5227356553 4289309610
-0.2675493360 -0.1321091205 0.5228465796 4289243817
-0.2671613693 -0.1313374639 0.5220883489 4289243817
-0.2672176063 -0.1307849139 0.5221982598 4289309610
-0.2672736347 -0.1302320212 0.5223077536 4289375403
-0.2668846548 -0.1294630021 0.5215476155 4289440942
-0.2669401765 -0.1289103329 0.5216560960 4289440942
-0.2669954598 -0.1283573210 0.5217641592 4289440942
-0.2670505345 -0.1278039515 0.5218718052 4289506735
-0.2671054006 -0.1272502542 0.5219789743 4289506735
-0.2671600580 -0.1266962141 0.5220857859 4289440942
-0.2672144771 -0.1261418462 0.5221921802 4289440942
-0.2672686875 -0.1255871207 0.5222980976 4289506735
-0.2673226893 -0.1250320673 0.5224036574 4289506735
-0.2673764825 -0.1244766787 0.5225087404 4289440942
-0.2674300373 -0.1239209548 0.5226134062 4289638575
-0.2674833834 -0.1233648956 0.5227176547 4289638575
-0.2670906186 -0.1226038188 0.5219501257 4289638575
-0.2671434283 -0.1220480278 0.5220533013 4289704368
-0.2671960294 -0.1214919090 0.5221561193 4289704368
-0.2672484219 -0.1209354550 0.5222584605 4289770161
-0.2673005760 -0.1203786805 0.5223603845 4289769907
-0.2673524916 -0.1198215783 0.5224618912 4289769907
-0.2674042284 -0.1192641482 0.5225629807 4289835700
-0.2674557269 -0.1187063977 0.5226635933 4289901493
-0.2679535747 -0.1183455735 0.5236365199 4289967029
-0.2680047154 -0.1177862510 0.5237364769 4290032822
-0.2680556178 -0.1172266081 0.5238359571 4290098615
-0.2681063116 -0.1166666448 0.5239350200 4290164408
-0.2681567967 -0.1161063686 0.5240336061 4290164154
-0.2682070434 -0.1155457720 0.5241318345 4290229947
-0.2682570517 -0.1149848625 0.5242295861 4290164667
-0.2687540352 -0.1146143526 0.5252007246 4290230460
-0.2688036859 -0.1140518785 0.5252977610 4290230460
-0.2688530982 -0.1134890988 0.5253943801 4290296253
-0.2689023018 -0.1129260138 0.5254905224 4290362046
-0.2693987787 -0.1125495732 0.5264607072 4290427839
-0.2694475949 -0.1119849309 0.5265561342 4290493632
-0.2694962025 -0.1114199758 0.5266510844 4290493632
-0.2695445716 -0.1108547226 0.5267456174 4290428609
-0.2695927024 -0.1102891639 0.5268397331 4290362816
-0.2696406245 -0.1097233072 0.5269333124 4290428609
-0.2701362967 -0.1093384698 0.5279019475 4290494402
-0.2701838017 -0.1087710634 0.5279948711 4290494402
-0.2702310979 -0.1082033664 0.5280872583 4290560195
-0.2702781856 -0.1076353639 0.5281792879 4290625988
-0.2703250051 -0.1070670709 0.5282707810 4290625988
-0.2708199918 -0.1066750959 0.5292381048 4290822595
-0.2708664536 -0.1061052680 0.5293288827 4290822595
-0.2709126770 -0.1055351496 0.5294191837 4290888388
-0.2714072466 -0.1051385254 0.5303857327 4290888388
-0.2714530826 -0.1045668796 0.5304752588 4290954181
-0.2714986801 -0.1039949507 0.5305643678 4290954181
-0.2719928622 -0.1035936698 0.5315300822 4291019976
-0.2720380425 -0.1030202210 0.5316184163 4291019976
-0.2720830142 -0.1024464816 0.5317062736 4291019976
-0.2725767791 -0.1020405665 0.5326712132 4291019976
-0.2726213336 -0.1014653146 0.5327582955 4291085769
-0.2731148601 -0.1010559946 0.5337227583 4291151562
-0.2731590271 -0.1004792303 0.5338090062 4291217355
-0.2741016448 -0.1002308130 0.5356510878 4291283148
-0.2745948732 -0.0998149589 0.5366149545 4291348941
-0.2746385336 -0.0992345139 0.5367003083 4291348941
-0.2751314938 -0.0988152623 0.5376636386 4291348942
-0.2751747370 -0.0982333124 0.5377481580 4291414735
-0.2752177417 -0.0976510942 0.5378322005 4291480528
-0.2757102847 -0.0972272083 0.5387946963 4291546321
-0.2757528424 -0.0966434926 0.5388779044 4291612114
-0.2762451172 -0.0962162167 0.5398398638 4291612114
-0.2767372429 -0.0957867578 0.5408016443 4291612114
-0.2767792344 -0.0952003300 0.5408836603 4291677907
-0.2772710919 -0.0947674811 0.5418448448 4291677907
-0.2777628601 -0.0943324566 0.5428058505 4291743700
-0.2782544792 -0.0938952640 0.5437666178 4291809493
-0.2782956958 -0.0933049172 0.5438471437 4291875286
-0.2787870169 -0.0928643271 0.5448073149 4291941079
-0.2797287107 -0.0925706327 0.5466475487 4292006872
-0.2806704044 -0.0922728553 0.5484877825 4292072665
-0.2811615169 -0.0918238387 0.5494475365 4292072665
-0.2821031511 -0.0915188491 0.5512877107 4292072665
-0.2825940847 -0.0910645351 0.5522471070 4292204251
-0.2835356593 -0.0907523185 0.5540871024 4292204765
-0.2840264142 -0.0902926996 0.5550461411 4292138972
-0.2854188383 -0.0901156366 0.5577672124 4292204765
-0.2863604128 -0.0897911564 0.5596072674 4292336351
-0.2873019576 -0.0894625857 0.5614472628 4292468450
-0.2886946201 -0.0892694071 0.5641687512 4292600036
-0.2900873721 -0.0890702084 0.5668904781 4292600036
-0.2910290062 -0.0887274370 0.5687306523 4292929001
-0.2928731740 -0.0886537731 0.5723345280 4293390322
-0.3088028133 -0.2038789392 0.6047769785 4292336614
-0.3049658835 -0.2006821036 0.5972625017 4290297031
-0.3015623987 -0.1977862567 0.5905969143 4288849326
-0.2985927165 -0.1951887906 0.5847809315 4288059810
-0.2947491407 -0.1920348853 0.5772534609 4287861659
-0.2965730131 -0.1925778538 0.5808254480 4287795866
-0.2957801223 -0.1914193779 0.5792726278 4287664534
-0.2941138148 -0.1897010058 0.5760092139 4287401362
-0.2937558293 -0.1888308972 0.5753080845 4287598228
-0.2933973968 -0.1879620701 0.5746061206 4288256158
-0.2934752703 -0.1873733550 0.5747586489 4288387744
-0.2931160927 -0.1865062118 0.5740551949 4288650916
-0.2927564681 -0.1856403649 0.5733509660 4288848294
-0.2928335071 -0.1850520074 0.5735017657 4289111466
-0.2929103076 -0.1844631881 0.5736522079 4288848807
-0.2929869294 -0.1838738918 0.5738022923 4288651428
-0.2930633426 -0.1832841486 0.5739519000 4288651428
-0.2931395471 -0.1826939434 0.5741011500 4288651428
-0.2927778959 -0.1818314791 0.5733928680 4288388256
-0.2937290668 -0.1817830503 0.5752557516 4288322463
-0.2938047647 -0.1811905801 0.5754039884 4290230458
-0.2934422791 -0.1803285033 0.5746940374 4290427837
-0.2935174406 -0.1797360033 0.5748412609 4289835700
-0.2931542099 -0.1788756847 0.5741298795 4289835700
-0.2927905321 -0.1780166626 0.5734176040 4290098872
-0.2919880152 -0.1768933684 0.5718458891 4290033079
-0.2903077602 -0.1752437353 0.5685552359 4289901495
-0.2882602513 -0.1727532446 0.5645452738 4289835702
-0.2861382067 -0.1708588749 0.5603892803 4289638323
-0.2835758626 -0.1687118113 0.5553711057 4289638321
-0.2810120285 -0.1665749848 0.5503498912 4289506735
-0.2784466445 -0.1644484252 0.5453257561 4289440944
-0.2793941796 -0.1644000560 0.5471814275 4289506737
-0.2772660553 -0.1625445187 0.5430136323 4289572530
-0.2764552236 -0.1614676118 0.5414256454 4289506737
-0.2756437361 -0.1603938639 0.5398364067 4289506735
-0.2752713859 -0.1595781893 0.5391070843 4289440942
-0.2744587362 -0.1585098803 0.5375155807 4289440942
-0.2740854323 -0.1576978713 0.5367844701 4289440942
-0.2732716203 -0.1566350162 0.5351907015 4289440942
-0.2724572122 -0.1555753350 0.5335956812 4289440942
-0.2720824480 -0.1547692865 0.5328617096 4289375149
-0.2717072368 -0.1539646387 0.5321269035 4289375149
-0.2713316381 -0.1531613767 0.5313913226 4289375149
-0.2709556222 -0.1523595303 0.5306549072 4289375149
-0.2705791891 -0.1515590847 0.5299176574 4289375149
-0.2702023387 -0.1507600546 0.5291796327 4289309356
-0.2702659965 -0.1502074599 0.5293042660 4289309356
-0.2698884308 -0.1494103521 0.5285648108 4289309356
-0.2695104480 -0.1486146450 0.5278245807 4289309099
-0.2691320777 -0.1478203684 0.5270835757 4289309099
-0.2691945732 -0.1472689509 0.5272059441 4289309099
-0.2688154876 -0.1464766115 0.5264635086 4289309099
-0.2688774765 -0.1459253281 0.5265849233 4289309099
-0.2689392567 -0.1453736424 0.5267059803 4289309099
-0.2681174278 -0.1443459988 0.5250964165 4289309099
-0.2681786120 -0.1437953711 0.5252162814 4289309099
-0.2682395875 -0.1432443857 0.5253356695 4289243306
-0.2678583562 -0.1424579322 0.5245890021 4289243306
-0.2679187953 -0.1419071108 0.5247074366 4289243306
-0.2679790556 -0.1413559020 0.5248254538 4289309099
-0.2680391073 -0.1408043206 0.5249430537 4289309099
-0.2676565349 -0.1400209367 0.5241937637 4289309099
-0.2677160501 -0.1394695342 0.5243103504 4289309099
-0.2673327923 -0.1386881471 0.5235597491 4289309099
-0.2673918009 -0.1381369233 0.5236753225 4289243306
-0.2674506009 -0.1375853270 0.5237904787 4289309099
-0.2675091922 -0.1370333731 0.5239052176 4289309097
-0.2675675750 -0.1364810616 0.5240195394 4289309097
-0.2671826780 -0.1357033402 0.5232657194 4289309097
-0.2672405243 -0.1351512223 0.5233790874 4289309097
-0.2672981918 -0.1345987469 0.5234919786 4289309097
-0.2669122517 -0.1338236034 0.5227361321 4289309097
-0.2669694126 -0.1332713366 0.5228480697 4289243563
-0.2670263350 -0.1327187121 0.5229595304 4289243563
-0.2670830488 -0.1321657300 0.5230706334 4289243817
-0.2666957974 -0.1313937753 0.5223122239 4289243817
-0.2667519748 -0.1308410019 0.5224222541 4289309610
-0.2668079734 -0.1302879006 0.5225318670 4289375403
-0.2668637335 -0.1297344416 0.5226411223 4289440942
-0.2664751709 -0.1289656907 0.5218800902 4289440942
-0.2665303946 -0.1284124553 0.5219882727 4289440942
-0.2665854394 -0.1278588921 0.5220960975 4289440942
-0.2666402459 -0.1273049712 0.5222034454 4289440942
-0.2666948438 -0.1267507076 0.5223103762 4289440942
-0.2667492330 -0.1261961162 0.5224168897 4289506735
-0.2668034136 -0.1256411821 0.5225229263 4289506735
-0.2668573558 -0.1250859201 0.5226286054 4289506735
-0.2669110894 -0.1245303079 0.5227338672 4289506735
-0.2669646144 -0.1239743605 0.5228386521 4289703855
-0.2670179009 -0.1234180853 0.5229430199 4289703855
-0.2670709789 -0.1228614748 0.5230469704 4289769648
-0.2666786313 -0.1221006960 0.5222786069 4289769648
-0.2667311728 -0.1215443537 0.5223815441 4289769648
-0.2667835057 -0.1209876835 0.5224840045 4289835441
-0.2668356299 -0.1204306856 0.5225860476 4289835443
-0.2668875158 -0.1198733598 0.5226876736 4289835443
-0.2669391930 -0.1193157136 0.5227888823 4289901236
-0.2669906318 -0.1187577471 0.5228896737 4289967029
-0.2674876750 -0.1183967814 0.5238630772 4289967286
-0.2675387859 -0.1178372353 0.5239631534 4289967286
-0.2675896585 -0.1172773689 0.5240627527 4290033079
-0.2676402926 -0.1167171821 0.5241619945 4290098872
-0.2676907182 -0.1161566824 0.5242606997 4290098874
-0.2677409053 -0.1155958623 0.5243590474 4290164667
-0.2677908838 -0.1150347292 0.5244569182 4290164667
-0.2682870328 -0.1146640778 0.5254285932 4290164667
-0.2683366537 -0.1141013801 0.5255257487 4290230460
-0.2683860362 -0.1135383770 0.5256224871 4290296253
-0.2684351802 -0.1129750535 0.5257187486 4290362046
-0.2689308524 -0.1125984713 0.5266894698 4290427839
-0.2689796388 -0.1120335981 0.5267850161 4290362816
-0.2690281868 -0.1114684269 0.5268800855 4290362816
-0.2690764964 -0.1109029427 0.5269747376 4290428609
-0.2691245973 -0.1103371531 0.5270689130 4290362816
-0.2696196139 -0.1099534109 0.5280383825 4290559425
-0.2696673274 -0.1093860716 0.5281318426 4290625218
-0.2697148025 -0.1088184416 0.5282248259 4290494402
-0.2697620690 -0.1082505137 0.5283173919 4290560195
-0.2698090971 -0.1076822802 0.5284094810 4290625988
-0.2703034282 -0.1072913930 0.5293775797 4290560195
-0.2703500688 -0.1067216247 0.5294689536 4290756802
-0.2703964710 -0.1061515659 0.5295597911 4290756802
-0.2704426348 -0.1055812165 0.5296502709 4290756802
-0.2709363997 -0.1051844284 0.5306172967 4290888388
-0.2709822059 -0.1046125516 0.5307069421 4290954181
-0.2714757323 -0.1042123511 0.5316734910 4291085767
-0.2715211213 -0.1036389470 0.5317624211 4291085769
-0.2715662718 -0.1030652598 0.5318508148 4291085769
-0.2716111839 -0.1024912894 0.5319387913 4291085769
-0.2721041441 -0.1020852104 0.5329042673 4291019976
-0.2725970149 -0.1016769484 0.5338695049 4291151562
-0.2726413906 -0.1011002287 0.5339564085 4291217355
-0.2735824883 -0.1008538976 0.5357995033 4291217355
-0.2736265063 -0.1002747193 0.5358857512 4291283148
-0.2741189301 -0.0998587012 0.5368500948 4291348941
-0.2741625607 -0.0992780179 0.5369355083 4291348941
-0.2746547163 -0.0988585874 0.5378993750 4291414735
-0.2746979296 -0.0982763991 0.5379840136 4291414735
-0.2751897871 -0.0978535712 0.5389473438 4291480528
-0.2752325833 -0.0972698778 0.5390311480 4291546321
-0.2757242024 -0.0968436524 0.5399939418 4291612114
-0.2757665813 -0.0962584689 0.5400769711 4291612114
-0.2762579024 -0.0958288386 0.5410391688 4291677907
-0.2767491341 -0.0953970328 0.5420012474 4291677907
-0.2767908871 -0.0948091373 0.5420830250 4291677907
-0.2772818208 -0.0943739340 0.5430445075 4291743700
-0.2777726650 -0.0939365625 0.5440057516 4291809493
-0.2782633603 -0.0934970081 0.5449668169 4291875286
-0.2787539661 -0.0930552855 0.5459275842 4291941079
-0.2792444229 -0.0926113874 0.5468881726 4292006872
-0.2801845372 -0.0923134908 0.5487293005 4292072665
-0.2811246216 -0.0920115039 0.5505704284 4292072665
-0.2816148698 -0.0915591717 0.5515305996 4292270044
-0.2825549245 -0.0912499651 0.5533716083 4292270044
-0.2834949791 -0.0909366757 0.5552126765 4292138972
-0.2839849591 -0.0904759020 0.5561723113 4292138972
-0.2853750885 -0.0902978107 0.5588947535 4292204765
-0.2863151133 -0.0899722353 0.5607358217 4292336351
-0.2877053916 -0.0897830799 0.5634586215 4292468450
-0.2886454761 -0.0894483551 0.5652997494 4292534243
-0.2900359035 -0.0892481282 0.5680228472 4292535013
-0.2914264500 -0.0890418738 0.5707461238 4292995564
-0.3045108020 -0.2001554072 0.5976713300 4291086547
-0.3015473485 -0.1975499392 0.5918548703 4289112757
-0.2990173101 -0.1952403933 0.5868890882 4287665052
-0.2969210446 -0.1932241321 0.5827746987 4287401880
-0.2956943512 -0.1917810291 0.5803670287 4287466901
-0.2940311432 -0.1900611073 0.5771026611 4287664280
-0.2936739922 -0.1891898066 0.5764015913 4287795866
-0.2928805351 -0.1880399734 0.5748443007 4287598487
-0.2933942676 -0.1877299994 0.5758526325 4287992986
-0.2925998569 -0.1865835935 0.5742933750 4288190365
-0.2922409475 -0.1857174337 0.5735889673 4288190364
-0.2920346558 -0.1836757958 0.5731840730 4288256670
-0.2921108902 -0.1830867231 0.5733336806 4288256670
-0.2921868861 -0.1824971884 0.5734828711 4288125084
-0.2926995754 -0.1821790934 0.5744891167 4287993498
-0.2927753031 -0.1815877557 0.5746377110 4287796119
-0.2924889028 -0.1801344603 0.5740756392 4290427837
-0.2925638855 -0.1795426309 0.5742228031 4289835700
-0.2922012210 -0.1786828637 0.5735110044 4289769907
-0.2922756970 -0.1780910194 0.5736571550 4290098872
-0.2914746404 -0.1769672930 0.5720849037 4290033079
-0.2915484309 -0.1763763130 0.5722297430 4289901495
-0.2903084457 -0.1749930680 0.5697959661 4289769909
-0.2886295617 -0.1733516604 0.5665008426 4289704116
-0.2865115404 -0.1714547575 0.5623436570 4289638323
-0.2839539945 -0.1693050414 0.5573239326 4289572528
-0.2796416879 -0.1661240309 0.5488600135 4289440942
-0.2819032669 -0.1668528020 0.5532988906 4289440944
-0.2784648836 -0.1642104387 0.5465503335 4289506737
-0.2772177458 -0.1628704667 0.5441024899 4289506737
-0.2764084935 -0.1617922336 0.5425141454 4289506737
-0.2755985856 -0.1607171744 0.5409246087 4289506735
-0.2752270401 -0.1599003077 0.5401952863 4289440942
-0.2744159997 -0.1588306725 0.5386034250 4289440942
-0.2736043334 -0.1577642262 0.5370103717 4289440942
-0.2732312977 -0.1569532901 0.5362781882 4289375151
-0.2728578448 -0.1561437547 0.5355452299 4289375151
-0.2720445096 -0.1550850570 0.5339488983 4289309358
-0.2712305486 -0.1540295482 0.5323512554 4289375151
-0.2708556354 -0.1532259881 0.5316154957 4289375151
-0.2704803348 -0.1524238288 0.5308788419 4289309358
-0.2705445290 -0.1518700272 0.5310048461 4289309356
-0.2701685131 -0.1510697752 0.5302668214 4289309356
-0.2697920799 -0.1502709389 0.5295279622 4289309356
-0.2698554397 -0.1497177631 0.5296523571 4289309356
-0.2694782913 -0.1489208490 0.5289121270 4289243563
-0.2686603069 -0.1478829384 0.5273066163 4289177770
-0.2691632807 -0.1475728303 0.5282938480 4289243563
-0.2683443725 -0.1465386599 0.5266865492 4289243563
-0.2684063315 -0.1459871680 0.5268081427 4289243306
-0.2684680521 -0.1454352885 0.5269293189 4289309099
-0.2680886686 -0.1446451247 0.5261846185 4289309099
-0.2677088380 -0.1438564062 0.5254391432 4289243306
-0.2677697539 -0.1433052123 0.5255587101 4289243052
-0.2673892379 -0.1425184458 0.5248118639 4289243052
-0.2674496472 -0.1419674158 0.5249304175 4289309099
-0.2675098479 -0.1414159983 0.5250485539 4289309099
-0.2675698400 -0.1408642232 0.5251663327 4289309099
-0.2671879828 -0.1400805265 0.5244168639 4289309099
-0.2672474682 -0.1395289153 0.5245335698 4289309099
-0.2673067153 -0.1389769316 0.5246499181 4289309099
-0.2669238448 -0.1381957829 0.5238984227 4289309099
-0.2669826150 -0.1376439929 0.5240137577 4289309099
-0.2670411468 -0.1370918304 0.5241286755 4289309097
-0.2670994997 -0.1365392953 0.5242431760 4289309097
-0.2671576142 -0.1359864175 0.5243572593 4289309097
-0.2667731047 -0.1352089345 0.5236025453 4289243304
-0.2668307126 -0.1346562505 0.5237156153 4289309097
-0.2668881118 -0.1341032088 0.5238282681 4289374890
-0.2665025890 -0.1333283186 0.5230716467 4289309099
-0.2665594816 -0.1327754855 0.5231832266 4289374892
-0.2666161358 -0.1322222948 0.5232944489 4289309610
-0.2666725814 -0.1316687465 0.5234052539 4289309610
-0.2662857473 -0.1308970451 0.5226460099 4289309610
-0.2663416862 -0.1303437203 0.5227558017 4289375403
-0.2663973868 -0.1297900528 0.5228651762 4289506478
-0.2664529085 -0.1292360276 0.5229740739 4289506478
-0.2665081918 -0.1286816597 0.5230826139 4289506478
-0.2665632665 -0.1281269491 0.5231906772 4289506478
-0.2666181326 -0.1275718957 0.5232983828 4289440942
-0.2662290633 -0.1268051565 0.5225347281 4289506735
-0.2662833929 -0.1262503564 0.5226413608 4289506735
-0.2663375139 -0.1256951988 0.5227475762 4289506735
-0.2668353915 -0.1253482699 0.5237247944 4289572271
-0.2664451003 -0.1245838851 0.5229587555 4289638064
-0.2664985657 -0.1240277216 0.5230637193 4289703855
-0.2665518224 -0.1234712303 0.5231682062 4289703855
-0.2666048408 -0.1229144037 0.5232723355 4289769648
-0.2666576505 -0.1223572418 0.5233759880 4289769648
-0.2667102516 -0.1217997521 0.5234791636 4289835441
-0.2667626143 -0.1212419346 0.5235819817 4289835441
-0.2668147683 -0.1206837893 0.5236843228 4289835700
-0.2668667138 -0.1201253086 0.5237863064 4289835700
-0.2669184208 -0.1195665151 0.5238877535 4289835700
-0.2669699192 -0.1190073863 0.5239888430 4289901493
-0.2670211792 -0.1184479445 0.5240894556 4289967286
-0.2670722306 -0.1178881750 0.5241896510 4289967286
-0.2671230435 -0.1173280850 0.5242894292 4290033079
-0.2671736479 -0.1167676821 0.5243887305 4290098872
-0.2676694095 -0.1164006293 0.5253617764 4290164667
-0.2681651115 -0.1160314009 0.5263347030 4290164667
-0.2682152092 -0.1154681668 0.5264329910 4290230460
-0.2682650685 -0.1149046272 0.5265308619 4290230460
-0.2683147192 -0.1143407673 0.5266283154 4290230460
-0.2683641315 -0.1137766019 0.5267253518 4290296253
-0.2684133351 -0.1132121235 0.5268219113 4290362046
-0.2684623003 -0.1126473323 0.5269179940 4290427839
-0.2685110569 -0.1120822281 0.5270136595 4290297023
-0.2685595453 -0.1115168259 0.5271088481 4290362816
-0.2686078548 -0.1109511107 0.5272036195 4290428609
-0.2691021562 -0.1105684638 0.5281738639 4290428609
-0.2691500783 -0.1100011989 0.5282679200 4290559425
-0.2691977620 -0.1094336435 0.5283614993 4290625218
-0.2696917057 -0.1090463176 0.5293309689 4290625218
-0.2697390020 -0.1084772125 0.5294238329 4290625218
-0.2697860599 -0.1079078093 0.5295161605 4290560195
-0.2698329091 -0.1073381081 0.5296080709 4290560195
-0.2703263164 -0.1069448814 0.5305765271 4290756804
-0.2703727782 -0.1063736454 0.5306677222 4290756804
-0.2704189718 -0.1058021188 0.5307583809 4290756804
-0.2704649568 -0.1052302942 0.5308486819 4290888390
-0.2709578276 -0.1048311740 0.5318160057 4290954183
-0.2710034251 -0.1042578220 0.5319054723 4291019976
-0.2710487545 -0.1036841869 0.5319945216 4291085769
-0.2715412378 -0.1032804102 0.5329610705 4291085769
-0.2715861797 -0.1027052552 0.5330493450 4291085769
-0.2716309130 -0.1021298096 0.5331370831 4291085769
-0.2721229494 -0.1017213911 0.5341028571 4291151562
-0.2726149261 -0.1013107896 0.5350684524 4291217355
-0.2731067836 -0.1008980125 0.5360338092 4291217355
-0.2735985518 -0.1004830450 0.5369990468 4291283148
-0.2736423910 -0.0999023989 0.5370850563 4291348941
-0.2741338909 -0.0994840339 0.5380497575 4291348941
-0.2741772830 -0.0989018753 0.5381349325 4291480527
-0.2746685445 -0.0984800979 0.5390990973 4291480527
-0.2747115195 -0.0978964493 0.5391834974 4291480527
-0.2752024829 -0.0974712670 0.5401471257 4291546320
-0.2752450705 -0.0968861133 0.5402306914 4291612114
-0.2757357657 -0.0964575261 0.5411937833 4291612114
-0.2757779360 -0.0958708823 0.5412765741 4291677907
-0.2762683332 -0.0954388976 0.5422390699 4291743700
-0.2767586410 -0.0950047374 0.5432013869 4291743700
-0.2772487998 -0.0945684016 0.5441635251 4291743700
-0.2777388692 -0.0941298902 0.5451253653 4291809493
-0.2782288492 -0.0936892033 0.5460870266 4291875286
-0.2787186801 -0.0932463408 0.5470484495 4291941079
-0.2792084217 -0.0928013027 0.5480096340 4292072665
-0.2801469564 -0.0925023258 0.5498517752 4292072665
-0.2806365192 -0.0920519829 0.5508126616 4292138458
-0.2815750241 -0.0917457864 0.5526546836 4292139227
-0.2820644081 -0.0912901312 0.5536152124 4292139227
-0.2830028534 -0.0909767076 0.5554571152 4292139227
-0.2839413285 -0.0906591937 0.5572990775 4292205020
-0.2848797739 -0.0903375894 0.5591409802 4292270813
-0.2862676084 -0.0901534110 0.5618649721 4292402399
-0.2876555920 -0.0899632201 0.5645891428 4292534243
-0.2890436649 -0.0897670090 0.5673135519 4292665829
-0.2904318273 -0.0895647779 0.5700381398 4292600806
-0.2913704813 -0.0892188400 0.5718804598 4293192943
-0.3049234152 -0.2001980841 0.5997886658 4291876063
-0.3023989797 -0.1978797615 0.5948230624 4289968064
-0.2994383276 -0.1952879876 0.5889993906 4288454825
-0.2973452508 -0.1932730824 0.5848823190 4287796638
-0.2961204648 -0.1918298155 0.5824731588 4287665052
-0.2948947847 -0.1903913319 0.5800622106 4287730843
-0.2941032946 -0.1892375499 0.5785053372 4287796636
-0.2933111191 -0.1880867928 0.5769470930 4287466642
-0.2929535508 -0.1872172654 0.5762438178 4287466642
-0.2925955653 -0.1863490343 0.5755396485 4287532434
-0.2922371626 -0.1854820698 0.5748346448 4287466641
-0.2923139334 -0.1848919690 0.5749856830 4287796119
-0.2919547856 -0.1840267181 0.5742791891 4287598740
-0.2920310497 -0.1834365577 0.5744292140 4287796119
-0.2916711271 -0.1825730354 0.5737212300 4287993498
-0.2917468548 -0.1819828302 0.5738701820 4287664533
-0.2918224037 -0.1813921779 0.5740187764 4287401361
-0.2918977141 -0.1808010638 0.5741669536 4289177770
-0.2919728458 -0.1802094877 0.5743147135 4290427837
-0.2920477688 -0.1796174496 0.5744620562 4289901747
-0.2916858196 -0.1787573695 0.5737501383 4289835954
-0.2917602062 -0.1781653166 0.5738964081 4290033079
-0.2913974822 -0.1773069799 0.5731830001 4289967286
-0.2905973792 -0.1761850268 0.5716091394 4289835189
-0.2897965908 -0.1750661731 0.5700340271 4289637810
-0.2885579765 -0.1736872792 0.5675975680 4289572017
-0.2864438295 -0.1717887223 0.5634390712 4289637810
-0.2821412385 -0.1685917228 0.5549758077 4289506735
-0.2843993306 -0.1693194807 0.5594174862 4289440942
-0.2800936103 -0.1661438793 0.5509480834 4289506737
-0.2788497806 -0.1647966653 0.5485014915 4289506737
-0.2776051164 -0.1634543687 0.5460531712 4289440944
-0.2763595879 -0.1621170193 0.5436031818 4289440944
-0.2755512893 -0.1610406488 0.5420132875 4289506735
-0.2747423649 -0.1599674374 0.5404220819 4289440942
-0.2743710876 -0.1591516286 0.5396918058 4289440942
-0.2735610008 -0.1580838710 0.5380983949 4289440942
-0.2731887996 -0.1572717279 0.5373662710 4289375151
-0.2723775804 -0.1562094390 0.5357705355 4289375151
-0.2720044255 -0.1554009765 0.5350365639 4289375151
-0.2716308832 -0.1545938998 0.5343017578 4289375151
-0.2703790665 -0.1532905400 0.5318394303 4289375151
-0.2708825171 -0.1529839784 0.5328297615 4289309358
-0.2700685859 -0.1519340575 0.5312287807 4289309358
-0.2696932852 -0.1511335075 0.5304905176 4289375151
-0.2693175673 -0.1503343731 0.5297514796 4289375151
-0.2693808973 -0.1497809887 0.5298759937 4289309358
-0.2694439888 -0.1492272019 0.5300001502 4289243565
-0.2690672576 -0.1484305114 0.5292590857 4289177772
-0.2686901093 -0.1476352364 0.5285172462 4289243563
-0.2683125436 -0.1468413770 0.5277745724 4289243563
-0.2679345608 -0.1460489482 0.5270310640 4289177770
-0.2679962516 -0.1454968750 0.5271524191 4289243563
-0.2676175535 -0.1447064131 0.5264075398 4289243563
-0.2676787376 -0.1441544741 0.5265278816 4289177770
-0.2672993243 -0.1433659643 0.5257815719 4289308845
-0.2669195235 -0.1425789148 0.5250344872 4289308845
-0.2669798732 -0.1420276612 0.5251532197 4289309099
-0.2670400143 -0.1414760500 0.5252714753 4289309099
-0.2670999467 -0.1409240514 0.5253893733 4289309099
-0.2667188346 -0.1401400566 0.5246397257 4289309099
-0.2667782605 -0.1395882368 0.5247566104 4289243306
-0.2668374777 -0.1390360445 0.5248730779 4289243306
-0.2668964863 -0.1384834945 0.5249891281 4289309099
-0.2669552565 -0.1379305720 0.5251048207 4289243306
-0.2665725052 -0.1371502131 0.5243518949 4289243304
-0.2666307986 -0.1365974844 0.5244665146 4289309097
-0.2666888535 -0.1360443830 0.5245807767 4289374890
-0.2667467296 -0.1354909241 0.5246945620 4289309097
-0.2663626373 -0.1347136945 0.5239390731 4289309097
-0.2664199769 -0.1341604441 0.5240519047 4289309097
-0.2664771080 -0.1336068213 0.5241642594 4289374892
-0.2660920322 -0.1328321993 0.5234067440 4289374892
-0.2661486268 -0.1322788000 0.5235181451 4289309610
-0.2662050426 -0.1317250431 0.5236290693 4289309610
-0.2658189237 -0.1309530437 0.5228695869 4289309610
-0.2658748031 -0.1303994954 0.5229794979 4289375403
-0.2659304738 -0.1298456192 0.5230889916 4289440685
-0.2659859359 -0.1292913854 0.5231980681 4289506478
-0.2660411596 -0.1287367940 0.5233067274 4289572271
-0.2660961747 -0.1281818748 0.5234149694 4289572271
-0.2661510110 -0.1276266128 0.5235227942 4289506735
-0.2662055790 -0.1270709932 0.5236301422 4289572528
-0.2658169270 -0.1263045371 0.5228656530 4289572528
-0.2658710182 -0.1257491708 0.5229720473 4289506735
-0.2663680613 -0.1254021227 0.5239497423 4289572017
-0.2659785151 -0.1246374175 0.5231834650 4289637810
-0.2660319209 -0.1240810379 0.5232885480 4289703855
-0.2660851181 -0.1235243306 0.5233932137 4289703855
-0.2661381066 -0.1229672804 0.5234974027 4289703855
-0.2661908865 -0.1224099025 0.5236012340 4289769648
-0.2662434280 -0.1218521968 0.5237045884 4289770161
-0.2662957609 -0.1212941557 0.5238075256 4289835954
-0.2663478553 -0.1207357869 0.5239099860 4289835700
-0.2663997412 -0.1201770902 0.5240120888 4289835700
-0.2664514184 -0.1196180731 0.5241137147 4289835700
-0.2665028572 -0.1190587282 0.5242148638 4289835700
-0.2665540874 -0.1184990630 0.5243156552 4289901493
-0.2666050792 -0.1179390699 0.5244159698 4289967286
-0.2666558623 -0.1173787564 0.5245158672 4289902263
-0.2667064071 -0.1168181300 0.5246152878 4289968056
-0.2676459551 -0.1166447029 0.5264633298 4290099644
-0.2676962316 -0.1160815656 0.5265622735 4290033851
-0.2677462697 -0.1155181155 0.5266606808 4290230460
-0.2677960992 -0.1149543449 0.5267587304 4290230460
-0.2678456903 -0.1143902615 0.5268563032 4290230460
-0.2678950727 -0.1138258651 0.5269533992 4290296253
-0.2679442167 -0.1132611632 0.5270500779 4290362046
-0.2679931521 -0.1126961410 0.5271463394 4290362046
-0.2680418491 -0.1121308208 0.5272421241 4290297023
-0.2680903077 -0.1115651876 0.5273374319 4290297023
-0.2685839832 -0.1111836284 0.5283084512 4290362816
-0.2686320543 -0.1106164455 0.5284031034 4290428609
-0.2686799467 -0.1100489572 0.5284972191 4290559425
-0.2687275708 -0.1094811633 0.5285909176 4290559425
-0.2692207098 -0.1090936884 0.5295609236 4290625218
-0.2692679465 -0.1085243523 0.5296539068 4290625218
-0.2693149745 -0.1079547182 0.5297463536 4290494402
-0.2698077261 -0.1075625792 0.5307156444 4290560195
-0.2694083154 -0.1068145633 0.5299299955 4290756804
-0.2699007690 -0.1064199358 0.5308986306 4290756804
-0.2699469328 -0.1058481783 0.5309894681 4290888390
-0.2699928880 -0.1052761227 0.5310798287 4290888390
-0.2704849243 -0.1048768386 0.5320476890 4290888390
-0.2705304921 -0.1043032557 0.5321372747 4290954183
-0.2705757916 -0.1037293822 0.5322263837 4291019976
-0.2710674405 -0.1033254489 0.5331934690 4291085769
-0.2711123526 -0.1027500555 0.5332818627 4291085769
-0.2716037631 -0.1023427024 0.5342484117 4291151562
-0.2716482580 -0.1017657891 0.5343359709 4291151563
-0.2725862563 -0.1015214548 0.5361810327 4291151563
-0.2730773985 -0.1011075601 0.5371471047 4291283149
-0.2731214166 -0.1005269513 0.5372336507 4291348942
-0.2731651962 -0.0999460667 0.5373197794 4291348942
-0.2736558914 -0.0995275229 0.5382850170 4291414735
-0.2736992538 -0.0989451334 0.5383703113 4291480527
-0.2741896808 -0.0985231847 0.5393349528 4291480527
-0.2742326260 -0.0979392827 0.5394194722 4291546320
-0.2747227848 -0.0975139290 0.5403835773 4291612113
-0.2752128243 -0.0970863998 0.5413475037 4291612113
-0.2752552032 -0.0964997783 0.5414308310 4291677906
-0.2757449448 -0.0960688442 0.5423942208 4291677907
-0.2757869065 -0.0954807252 0.5424767137 4291677907
-0.2767241597 -0.0952004343 0.5443203449 4291743700
-0.2772136033 -0.0947629660 0.5452830791 4291743700
-0.2777028978 -0.0943233147 0.5462455750 4291809493
-0.2781921327 -0.0938814878 0.5472078323 4291875286
-0.2786812186 -0.0934374854 0.5481699109 4292006618
-0.2796182930 -0.0931405723 0.5500131249 4292072411
-0.2801072001 -0.0926912576 0.5509748459 4292138204
-0.2805960178 -0.0922397673 0.5519363284 4292138204
-0.2810846865 -0.0917861015 0.5528975725 4292073434
-0.2820216119 -0.0914756879 0.5547404885 4292073434
-0.2829585373 -0.0911611840 0.5565834045 4292139227
-0.2838954329 -0.0908425823 0.5584263802 4292205020
-0.2848323584 -0.0905198827 0.5602692962 4292270813
-0.2862178981 -0.0903346762 0.5629946589 4292402399
-0.2876035273 -0.0901434496 0.5657202005 4292600036
-0.2889892757 -0.0899462029 0.5684460402 4292863208
-0.2903751433 -0.0897429287 0.5711719990 4292666599
-0.2917611003 -0.0895336345 0.5738982558 4293324529
-0.3079346418 -0.2019433230 0.6070380211 4292468200
-0.3028118014 -0.1979205161 0.5969392657 4291349719
-0.3002896309 -0.1956142783 0.5919672251 4289638588
-0.2981998920 -0.1935998499 0.5878477097 4288191142
-0.2965429723 -0.1918746233 0.5845813751 4287796384
-0.2948849201 -0.1901559234 0.5813128352 4287862177
-0.2940945625 -0.1890021116 0.5797547698 4287795866
-0.2933035493 -0.1878513247 0.5781953931 4287401108
-0.2929464877 -0.1869810075 0.5774915218 4287466901
-0.2925890088 -0.1861119866 0.5767868161 4287203729
-0.2922310829 -0.1852442473 0.5760812163 4287203729
-0.2918727100 -0.1843778044 0.5753747821 4287203729
-0.2915139198 -0.1835126579 0.5746675134 4287335569
-0.2915899158 -0.1829218268 0.5748172998 4287269776
-0.2912303805 -0.1820584089 0.5741085410 4287664533
-0.2908703983 -0.1811962873 0.5733988881 4287072396
-0.2909455597 -0.1806058437 0.5735470653 4288388508
-0.2910204828 -0.1800149530 0.5736947656 4290230712
-0.2910952270 -0.1794236004 0.5738421082 4289967540
-0.2907338738 -0.1785640717 0.5731297135 4289901747
-0.2908080518 -0.1779727042 0.5732759833 4289967286
-0.2908820510 -0.1773808748 0.5734218955 4290098872
-0.2892109752 -0.1757283956 0.5701276660 4289769909
-0.2866661549 -0.1735542417 0.5651109815 4289506737
-0.2884841859 -0.1740230471 0.5686948895 4289440944
-0.2846277654 -0.1710733175 0.5610926747 4289506737
-0.2820791304 -0.1689236611 0.5560684800 4289506737
-0.2804025114 -0.1673054546 0.5527633429 4289375151
-0.2787248194 -0.1656939536 0.5494560599 4289440944
-0.2809788883 -0.1664185226 0.5538995862 4289572530
-0.2775516808 -0.1637807190 0.5471434593 4289506737
-0.2763085365 -0.1624419540 0.5446927547 4289375151
-0.2755018175 -0.1613642722 0.5431025028 4289375151
-0.2746944726 -0.1602897495 0.5415109992 4289506737
-0.2743240297 -0.1594727337 0.5407807231 4289440944
-0.2735155523 -0.1584036648 0.5391868949 4289375151
-0.2727064192 -0.1573377699 0.5375918746 4289440944
-0.2723345160 -0.1565266997 0.5368587375 4289440944
-0.2719621956 -0.1557170451 0.5361247659 4289178542
-0.2711514235 -0.1546589136 0.5345264673 4289244335
-0.2703400254 -0.1536039859 0.5329269171 4289244335
-0.2699662447 -0.1528003067 0.5321900845 4289244335
-0.2695920467 -0.1519980431 0.5314524770 4289375149
-0.2692174613 -0.1511971802 0.5307140350 4289375149
-0.2688424587 -0.1503977329 0.5299747586 4289375149
-0.2689057291 -0.1498441398 0.5300994515 4289309356
-0.2689687908 -0.1492901593 0.5302237868 4289243563
-0.2681538761 -0.1482505202 0.5286173224 4289243563
-0.2686553001 -0.1479393095 0.5296058059 4289243563
-0.2682785392 -0.1471442431 0.5288631320 4289243563
-0.2674622238 -0.1461106837 0.5272538662 4289243817
-0.2679631114 -0.1457974166 0.5282413363 4289178024
-0.2675852478 -0.1450057328 0.5274963975 4289243817
-0.2672069967 -0.1442154795 0.5267507434 4289309610
-0.2672678828 -0.1436629742 0.5268707871 4289309099
-0.2668889165 -0.1428746879 0.5261237025 4289309099
-0.2665095329 -0.1420878619 0.5253757834 4289309099
-0.2665696144 -0.1415360421 0.5254942179 4289309099
-0.2666294873 -0.1409838349 0.5256122947 4289309099
-0.2666891515 -0.1404312700 0.5257298946 4289309099
-0.2663084567 -0.1396474987 0.5249794126 4289309099
-0.2663676143 -0.1390951127 0.5250960588 4289309099
-0.2664265633 -0.1385423392 0.5252122283 4289309099
-0.2664853036 -0.1379892081 0.5253280401 4289243306
-0.2665438354 -0.1374357194 0.5254434347 4289309099
-0.2661615014 -0.1366556138 0.5246897340 4289309099
-0.2662195265 -0.1361023039 0.5248041153 4289374892
-0.2662773132 -0.1355486363 0.5249180198 4289309099
-0.2663349211 -0.1349945962 0.5250315666 4289374892
-0.2659512460 -0.1342176348 0.5242752433 4289374892
-0.2660083473 -0.1336638033 0.5243877769 4289375149
-0.2656239569 -0.1328888834 0.5236300826 4289375149
-0.2656805217 -0.1323352605 0.5237416029 4289375149
-0.2657368779 -0.1317812949 0.5238526464 4289375149
-0.2653515041 -0.1310089827 0.5230929255 4289375149
-0.2654073238 -0.1304552257 0.5232030153 4289375149
-0.2654629350 -0.1299011260 0.5233126283 4289440685
-0.2655183375 -0.1293466836 0.5234218836 4289440685
-0.2655735314 -0.1287918836 0.5235306621 4289572271
-0.2656285167 -0.1282367408 0.5236390233 4289572271
-0.2656832635 -0.1276812702 0.5237469673 4289572271
-0.2657378018 -0.1271254420 0.5238544941 4289572271
-0.2657921314 -0.1265692711 0.5239616036 4289638064
-0.2658462524 -0.1260127574 0.5240682960 4289638064
-0.2659001350 -0.1254559159 0.5241745114 4289572271
-0.2659538388 -0.1248987243 0.5242803097 4289638064
-0.2660072744 -0.1243411973 0.5243857503 4289703855
-0.2660605311 -0.1237833425 0.5244907141 4289703855
-0.2656707764 -0.1230201125 0.5237223506 4289638575
