VERSION 0.7
FIELDS x y z rgba
SIZE 4 4 4 4
TYPE F F F U
COUNT 1 1 1 1
WIDTH 920
HEIGHT 1
VIEWPOINT 0.0 0.0 0.0 1.0 0.0 0.0 0.0
POINTS 920
DATA ascii
-0.2781449854 -0.1578287631 0.5253098607 4288782755
-0.2777602375 -0.1570276022 0.5245832205 4288782755
-0.2778275609 -0.1564826816 0.5247104168 4288782755
-0.2774420977 -0.1556833833 0.5239824057 4288782753
-0.2770562172 -0.1548854858 0.5232536197 4288782753
-0.2766699195 -0.1540889591 0.5225239992 4288782753
-0.2767361104 -0.1535451263 0.5226490498 4288716960
-0.2768020928 -0.1530009061 0.5227736831 4288716960
-0.2764147520 -0.1522067785 0.5220421553 4288716960
-0.2764802277 -0.1516626626 0.5221657753 4288716962
-0.2760921717 -0.1508704424 0.5214328766 4288651169
-0.2757036686 -0.1500796080 0.5206991434 4288651169
-0.2757683098 -0.1495361328 0.5208212733 4288651169
-0.2758327723 -0.1489922851 0.5209429860 4288651167
-0.2754432261 -0.1482038796 0.5202072859 4288716960
-0.2755071819 -0.1476601660 0.5203280449 4288848546
-0.2755708992 -0.1471160650 0.5204483867 4288848546
-0.2751803398 -0.1463301182 0.5197107792 4288848546
-0.2747893333 -0.1455455869 0.5189723372 4288782753
-0.2748522460 -0.1450021565 0.5190911293 4288716960
-0.2744605243 -0.1442195773 0.5183513761 4288651167
-0.2745229304 -0.1436763108 0.5184691548 4288716958
-0.2745850980 -0.1431326568 0.5185865760 4288716958
-0.2746470571 -0.1425886452 0.5187036395 4288782751
-0.2747088373 -0.1420442611 0.5188202858 4288782751
-0.2743154764 -0.1412652433 0.5180773735 4288717219
-0.2743766904 -0.1407210380 0.5181930065 4288783012
-0.2744377255 -0.1401764601 0.5183082819 4288783012
-0.2744985521 -0.1396315247 0.5184231400 4288783012
-0.2745591700 -0.1390862167 0.5185376406 4288783012
-0.2746195793 -0.1385405660 0.5186517239 4288848805
-0.2746797800 -0.1379945427 0.5187653899 4288848805
-0.2742841244 -0.1372202188 0.5180181861 4288914598
-0.2743437886 -0.1366743892 0.5181308389 4288914598
-0.2744032443 -0.1361282021 0.5182431340 4288914598
-0.2744624913 -0.1355816722 0.5183550715 4288980391
-0.2745215297 -0.1350347698 0.5184665322 4288980391
-0.2745803297 -0.1344875246 0.5185776353 4289046184
-0.2741827369 -0.1337174475 0.5178266764 4289111977
-0.2742410302 -0.1331704110 0.5179367661 4289177770
-0.2742991149 -0.1326230168 0.5180464387 4289111977
-0.2743569613 -0.1320752949 0.5181557536 4289178024
-0.2744145989 -0.1315272152 0.5182645917 4289243817
-0.2744720280 -0.1309787929 0.5183730721 4289243817
-0.2745292485 -0.1304300278 0.5184811354 4289178024
-0.2741293609 -0.1296648085 0.5177259445 4289243563
-0.2741860747 -0.1291162670 0.5178329945 4289309356
-0.2746995986 -0.1287816763 0.5188028812 4289440942
-0.2747559547 -0.1282315403 0.5189092755 4289440942
-0.2748120725 -0.1276810765 0.5190153122 4289440942
-0.2748679817 -0.1271302700 0.5191208720 4289506735
-0.2749236822 -0.1265791357 0.5192260742 4289572530
-0.2749791443 -0.1260276586 0.5193307996 4289638323
-0.2750343978 -0.1254758537 0.5194351673 4289638323
-0.2750894427 -0.1249237135 0.5195391178 4289704116
-0.2756020427 -0.1245781854 0.5205072165 4289704116
-0.2756567299 -0.1240244657 0.5206105113 4289769909
-0.2757111788 -0.1234704182 0.5207133293 4289835189
-0.2757654190 -0.1229160354 0.5208157897 4289835189
-0.2758194208 -0.1223613396 0.5209177732 4289900982
-0.2758732140 -0.1218063086 0.5210193992 4289966775
-0.2759267986 -0.1212509573 0.5211205482 4290032822
-0.2759801149 -0.1206952855 0.5212212801 4290032822
-0.2755747139 -0.1199397221 0.5204555988 4290033079
-0.2756275237 -0.1193843260 0.5205553174 4290098872
-0.2761387825 -0.1190263331 0.5215209723 4290033079
-0.2761912346 -0.1184693798 0.5216199756 4290098872
-0.2762434483 -0.1179121062 0.5217186213 4290164665
-0.2762954235 -0.1173545197 0.5218167901 4290230458
-0.2763471901 -0.1167966202 0.5219145417 4290231228
-0.2763987184 -0.1162384078 0.5220118761 4290231228
-0.2764500380 -0.1156798825 0.5221087337 4290231228
-0.2765011191 -0.1151210517 0.5222052336 4290231228
-0.2770113349 -0.1147522107 0.5231688619 4290427839
-0.2770620286 -0.1141918302 0.5232645869 4290493632
-0.2775720656 -0.1138195843 0.5242278576 4290493632
-0.2776224017 -0.1132576615 0.5243229270 4290559425
-0.2776724994 -0.1126954257 0.5244175196 4290625218
-0.2777223587 -0.1121328995 0.5245116949 4290691011
-0.2777719796 -0.1115700603 0.5246053934 4290756804
-0.2778213918 -0.1110069230 0.5246987343 4290756804
-0.2783305943 -0.1106263399 0.5256604552 4290756804
-0.2783796191 -0.1100616753 0.5257530212 4290822597
-0.2784284055 -0.1094967127 0.5258451104 4290691781
-0.2784769535 -0.1089314446 0.5259368420 4290757574
-0.2785252631 -0.1083658934 0.5260280371 4290823367
-0.2790337801 -0.1079782248 0.5269884467 4290889160
-0.2795422375 -0.1075883880 0.5279487371 4290954953
-0.2800506055 -0.1071963906 0.5289088488 4290954953
-0.2800981998 -0.1066268608 0.5289987922 4290954953
-0.2806063592 -0.1062314734 0.5299584270 4291020746
-0.2806535661 -0.1056604236 0.5300475955 4291086539
-0.2811614275 -0.1052616462 0.5310068130 4291152332
-0.2816692293 -0.1048607081 0.5319658518 4291218125
-0.2817158997 -0.1042869240 0.5320539474 4291283918
-0.2822234333 -0.1038825959 0.5330125093 4291349711
-0.2822696865 -0.1033072993 0.5330998302 4291415504
-0.2827769518 -0.1028995886 0.5340579152 4291547090
-0.2828227878 -0.1023227870 0.5341444612 4291612883
-0.2833298147 -0.1019116938 0.5351020694 4291612883
-0.2838367522 -0.1014984325 0.5360594988 4291678676
-0.2843436003 -0.1010830104 0.5370166898 4291678421
-0.2848503590 -0.1006654352 0.5379737616 4291678421
-0.2853569984 -0.1002456844 0.5389305949 4291678676
-0.2858635187 -0.0998237804 0.5398872495 4291744469
-0.2863699794 -0.0993997157 0.5408437252 4291941078
-0.2868762910 -0.0989734828 0.5418000221 4291941078
-0.2878445685 -0.0987035260 0.5436286926 4292006871
-0.2883507311 -0.0982720256 0.5445846915 4292072664
-0.2897811532 -0.0981514528 0.5472862124 4292138457
-0.2902872860 -0.0977137387 0.5482420325 4292204250
-0.2907932699 -0.0972738639 0.5491976738 4292138972
-0.2917615175 -0.0969855264 0.5510263443 4292138972
-0.2927297950 -0.0966931358 0.5528550148 4292073692
-0.2936981022 -0.0963966846 0.5546838045 4292139485
-0.2946664095 -0.0960961804 0.5565125346 4292140001
-0.2960973978 -0.0959415212 0.5592151284 4292403173
-0.2970657945 -0.0956319422 0.5610440969 4292534759
-0.2984969914 -0.0954663083 0.5637470484 4292732138
-0.3003911674 -0.0954417735 0.5673244596 4293192689
-0.3018226922 -0.0952632651 0.5700280666 4293587447
-0.3504824638 -0.2206663787 0.6633192301 4292139235
-0.3501272500 -0.2197064906 0.6626469493 4291152340
-0.3497715592 -0.2187477946 0.6619737744 4290692041
-0.3494153917 -0.2177902907 0.6612997055 4290428869
-0.3490587473 -0.2168339938 0.6606246829 4290165695
-0.3487016261 -0.2158789039 0.6599488258 4289902523
-0.3474462628 -0.2143711001 0.6575729251 4289902265
-0.3448428810 -0.2120397091 0.6526458263 4289836472
-0.3072056472 -0.1882510334 0.5814139843 4289704886
-0.2965034544 -0.1810694039 0.5611591339 4289639093
-0.2920865715 -0.1777578741 0.5527997613 4289639093
-0.2894650698 -0.1755537987 0.5478383303 4289573300
-0.2877411544 -0.1739032269 0.5445756912 4289441714
-0.2864658535 -0.1725300848 0.5421620607 4289310128
-0.2856394649 -0.1714317352 0.5405980349 4289506735
-0.2839125395 -0.1697982848 0.5373297334 4289440942
-0.2848848403 -0.1697807163 0.5391698480 4289375149
-0.2831563652 -0.1681551933 0.5358985662 4289309356
-0.2818770707 -0.1668027490 0.5334774256 4289243563
-0.2805969119 -0.1654551625 0.5310545564 4289111977
-0.2815684080 -0.1654359251 0.5328932405 4289111977
-0.2802870572 -0.1640936732 0.5304681063 4289111977
-0.2794555426 -0.1630192250 0.5288944244 4288980132
-0.2791434824 -0.1616632193 0.5283038020 4288914339
-0.2792125046 -0.1611160636 0.5284344554 4288848546
-0.2788301706 -0.1603091210 0.5277108550 4288848546
-0.2784473896 -0.1595035195 0.5269864202 4288848546
-0.2780641913 -0.1586993039 0.5262612104 4288848546
-0.2776805758 -0.1578964591 0.5255351663 4288782753
-0.2777481675 -0.1573508382 0.5256630778 4288848548
-0.2773638070 -0.1565498561 0.5249356627 4288782755
-0.2769790590 -0.1557502598 0.5242074728 4288782755
-0.2765938640 -0.1549520344 0.5234784484 4288782755
-0.2766603231 -0.1544075012 0.5236042142 4288782755
-0.2767265737 -0.1538625807 0.5237296224 4288782755
-0.2763403356 -0.1530667394 0.5229986310 4288782755
-0.2764060795 -0.1525219232 0.5231230855 4288716962
-0.2760191262 -0.1517279893 0.5223907232 4288716962
-0.2760843337 -0.1511832923 0.5225141644 4288651169
-0.2756966650 -0.1503912657 0.5217804313 4288716960
-0.2753085494 -0.1496006399 0.5210459232 4288716960
-0.2753729522 -0.1490565836 0.5211678147 4288716960
-0.2749841213 -0.1482678652 0.5204318762 4288782753
-0.2750480175 -0.1477239430 0.5205528140 4288848546
-0.2751117051 -0.1471796334 0.5206733346 4288848546
-0.2747218311 -0.1463933885 0.5199354887 4288782753
-0.2747849822 -0.1458492279 0.5200549960 4288782753
-0.2743943930 -0.1450649053 0.5193157792 4288716958
-0.2744570374 -0.1445209086 0.5194343328 4288716958
-0.2745194733 -0.1439765245 0.5195525289 4288716958
-0.2745817006 -0.1434317678 0.5196703076 4288716958
-0.2741897702 -0.1426504701 0.5189285278 4288782753
-0.2742514908 -0.1421058774 0.5190452933 4288848546
-0.2743130028 -0.1415609270 0.5191617012 4288783012
-0.2739200294 -0.1407821327 0.5184180140 4288848805
-0.2739810050 -0.1402373463 0.5185334086 4288783012
-0.2740417719 -0.1396921873 0.5186484456 4288783012
-0.2741023600 -0.1391466856 0.5187630653 4288848805
-0.2741627097 -0.1386008114 0.5188772678 4288848805
-0.2742228508 -0.1380545795 0.5189911127 4288914598
-0.2742827833 -0.1375079900 0.5191045403 4288914598
-0.2743425071 -0.1369610429 0.5192175508 4288914598
-0.2744019926 -0.1364137381 0.5193302035 4288914598
-0.2740061283 -0.1356407553 0.5185809731 4288980391
-0.2740651369 -0.1350936592 0.5186926126 4288980391
-0.2741239071 -0.1345461905 0.5188038349 4289111720
-0.2741824389 -0.1339983791 0.5189146399 4289177513
-0.2742407918 -0.1334502250 0.5190250874 4289243306
-0.2742989361 -0.1329017133 0.5191350579 4289177513
-0.2743568420 -0.1323528588 0.5192446709 4289177770
-0.2739586830 -0.1315847039 0.5184911489 4289177770
-0.2740160823 -0.1310360730 0.5185998082 4289243563
-0.2740732431 -0.1304870844 0.5187079906 4289243563
-0.2741301954 -0.1299377680 0.5188157558 4289243563
-0.2737307250 -0.1291728020 0.5180597305 4289309356
-0.2742434740 -0.1288380921 0.5190300941 4289375149
-0.2742997706 -0.1282877326 0.5191366673 4289375149
-0.2743558586 -0.1277370602 0.5192428231 4289440942
-0.2744117081 -0.1271860301 0.5193485618 4289506735
-0.2744673789 -0.1266346723 0.5194538832 4289572528
-0.2745227814 -0.1260829717 0.5195587873 4289572528
-0.2745780051 -0.1255309582 0.5196632743 4289638323
-0.2746329904 -0.1249785945 0.5197673440 4289704116
-0.2751448154 -0.1246329322 0.5207359791 4289769909
-0.2751994431 -0.1240789890 0.5208393931 4289769909
-0.2752538621 -0.1235247180 0.5209423900 4289835189
-0.2753080428 -0.1229701191 0.5210449100 4289900982
-0.2753620148 -0.1224151924 0.5211470723 4289835189
-0.2754157782 -0.1218599454 0.5212488174 4289900982
-0.2754692733 -0.1213043705 0.5213500857 4289967286
-0.2755225897 -0.1207484677 0.5214509964 4290033079
-0.2755756676 -0.1201922521 0.5215514302 4289967286
-0.2751706541 -0.1194369793 0.5207849145 4290033079
-0.2756811380 -0.1190788448 0.5217510462 4290033079
-0.2757335305 -0.1185216680 0.5218502283 4290098872
-0.2757857144 -0.1179641709 0.5219489336 4290164665
-0.2758376598 -0.1174063534 0.5220472813 4290230458
-0.2758893669 -0.1168482304 0.5221451521 4290362044
-0.2759408653 -0.1162897870 0.5222426057 4290362044
-0.2759921253 -0.1157310382 0.5223396420 4290362044
-0.2765017152 -0.1153632924 0.5233040452 4290427837
-0.2765525877 -0.1148029864 0.5234003663 4290493632
-0.2770619690 -0.1144318357 0.5243644118 4290493632
-0.2771124840 -0.1138699874 0.5244600177 4290559425
-0.2771627605 -0.1133078337 0.5245551467 4290625218
-0.2772128284 -0.1127453670 0.5246499181 4290691011
-0.2772626579 -0.1121826097 0.5247442126 4290756804
-0.2773122489 -0.1116195396 0.5248380899 4290756804
-0.2773616016 -0.1110561714 0.5249314904 4290822597
-0.2774107456 -0.1104925051 0.5250244737 4290822597
-0.2779189944 -0.1101105362 0.5259864330 4290888390
-0.2779677510 -0.1095453352 0.5260786414 4290888390
-0.2780162692 -0.1089798436 0.5261704922 4291019976
-0.2789837420 -0.1087724417 0.5280015469 4290954953
-0.2790319622 -0.1082044840 0.5280927420 4291020746
-0.2795396745 -0.1078135595 0.5290536880 4291086539
-0.2795874774 -0.1072440818 0.5291441679 4291086539
-0.2800949812 -0.1068497598 0.5301046371 4291020746
-0.2801423967 -0.1062787622 0.5301943421 4291086539
-0.2801895738 -0.1057074741 0.5302836299 4291152332
-0.2806966603 -0.1053085402 0.5312433243 4291218125
-0.2812036574 -0.1049074307 0.5322028995 4291349711
-0.2812502682 -0.1043334082 0.5322911143 4291415504
-0.2817570269 -0.1039289162 0.5332502127 4291415504
-0.2822636962 -0.1035222560 0.5342090726 4291481297
-0.2823097110 -0.1029454991 0.5342962146 4291612883
-0.2828161120 -0.1025354564 0.5352546573 4291547090
-0.2828617394 -0.1019571945 0.5353409648 4291546835
-0.2838286459 -0.1017088816 0.5371709466 4291612628
-0.2843347490 -0.1012923419 0.5381287932 4291678421
-0.2843798697 -0.1007104218 0.5382141471 4291744214
-0.2848857045 -0.1002904996 0.5391715169 4291810007
-0.2858525217 -0.1000297591 0.5410012603 4291810007
-0.2863582373 -0.0996045694 0.5419583917 4291941078
-0.2868638337 -0.0991772190 0.5429152846 4291941078
-0.2873693407 -0.0987477079 0.5438719988 4292006871
-0.2878747284 -0.0983160287 0.5448284745 4292072664
-0.2893028259 -0.0981954113 0.5475313067 4292007641
-0.2898081541 -0.0977575183 0.5484876633 4292139227
-0.2907748818 -0.0974721760 0.5503172874 4292139227
-0.2917416692 -0.0971827805 0.5521470308 4292205020
-0.2927084565 -0.0968893170 0.5539767146 4292073692
-0.2936752439 -0.0965918005 0.5558065176 4292205278
-0.2946420610 -0.0962902233 0.5576363206 4292336866
-0.2956089079 -0.0959845781 0.5594661236 4292534245
-0.2970376909 -0.0958238989 0.5621702671 4292600552
-0.2984666526 -0.0956572592 0.5648746490 4292797931
-0.2998957038 -0.0954846442 0.5675792694 4293192689
-0.3017870784 -0.0954522416 0.5711588264 4293653240
-0.3489984870 -0.2201949209 0.6619020104 4292402407
-0.3486437201 -0.2192364037 0.6612291336 4291152340
-0.3487361372 -0.2185596526 0.6614044309 4290692041
-0.3483805358 -0.2176026702 0.6607299447 4290428869
-0.3480244279 -0.2166468799 0.6600546241 4290165695
-0.3476678729 -0.2156923115 0.6593784094 4289968316
-0.3468627036 -0.2144618630 0.6578513384 4289968058
-0.3456085622 -0.2129581571 0.6554727554 4289902265
-0.3434567451 -0.2109085023 0.6513916254 4289770679
-0.3368185759 -0.2061223984 0.6388018727 4289704886
-0.2924934626 -0.1783804744 0.5547359586 4289704886
-0.2898766696 -0.1761737466 0.5497729778 4289573300
-0.2877071202 -0.1742489338 0.5456582308 4289506737
-0.2864341140 -0.1728743613 0.5432439446 4289440944
-0.2856093049 -0.1717747152 0.5416796207 4289440942
-0.2847838104 -0.1706781387 0.5401140451 4289440942
-0.2839576900 -0.1695846468 0.5385472178 4289375149
-0.2831308842 -0.1684942544 0.5369791389 4289309356
-0.2823034525 -0.1674069613 0.5354098082 4289243563
-0.2814753652 -0.1663227528 0.5338392854 4289243563
-0.2810963690 -0.1655064672 0.5331204534 4289243563
-0.2807169557 -0.1646915376 0.5324009061 4289177770
-0.2803370953 -0.1638779640 0.5316804647 4289243304
-0.2799568176 -0.1630657315 0.5309592485 4289243304
-0.2786757350 -0.1617323011 0.5285295844 4289177511
-0.2787446976 -0.1611849517 0.5286603570 4289045925
-0.2783630490 -0.1603776813 0.5279365778 4288980132
-0.2784315348 -0.1598304063 0.5280663967 4288980132
-0.2780491412 -0.1590249985 0.5273411870 4288980132
-0.2772155702 -0.1579640955 0.5257602930 4288980132
-0.2772831023 -0.1574182808 0.5258883834 4288980134
-0.2768994570 -0.1566169858 0.5251607299 4288914341
-0.2769664824 -0.1560712606 0.5252878666 4288848548
-0.2765821218 -0.1552718431 0.5245588422 4288848548
-0.2761973143 -0.1544738114 0.5238290429 4288848548
-0.2762635052 -0.1539286822 0.5239546299 4288848548
-0.2758779824 -0.1531325281 0.5232234597 4288848548
-0.2759436667 -0.1525875181 0.5233480334 4288914341
-0.2760091424 -0.1520421058 0.5234721899 4288782755
-0.2756225765 -0.1512483656 0.5227390528 4288782755
-0.2752356231 -0.1504560262 0.5220051408 4288782753
-0.2748482227 -0.1496650875 0.5212703943 4288782753
-0.2753647268 -0.1493660957 0.5222499967 4288782753
-0.2749767005 -0.1485761702 0.5215140581 4288782753
-0.2745882571 -0.1477876753 0.5207774043 4288848548
-0.2746518850 -0.1472431719 0.5208980441 4288848548
-0.2742627263 -0.1464565992 0.5201600194 4288848548
-0.2743258476 -0.1459122300 0.5202797055 4288782755
-0.2743887603 -0.1453674883 0.5203989744 4288782753
-0.2739985585 -0.1445833892 0.5196589828 4288782753
-0.2740609348 -0.1440388113 0.5197772980 4288782753
-0.2741231322 -0.1434938461 0.5198951960 4288782753
-0.2741850913 -0.1429485083 0.5200127363 4288848546
-0.2737935483 -0.1421674341 0.5192701817 4288980132
-0.2738550305 -0.1416222751 0.5193867087 4288848805
-0.2734627426 -0.1408431679 0.5186427832 4288783012
-0.2735236883 -0.1402981728 0.5187583566 4288848805
-0.2735844254 -0.1397528201 0.5188735127 4288914598
-0.2736449242 -0.1392070949 0.5189882517 4288914598
-0.2737052441 -0.1386610121 0.5191026330 4288914598
-0.2737653255 -0.1381145716 0.5192166567 4288980391
-0.2738252282 -0.1375677735 0.5193302035 4288980391
-0.2738848925 -0.1370206177 0.5194433928 4288980391
-0.2739443481 -0.1364730895 0.5195561647 4288914598
-0.2740035951 -0.1359252185 0.5196685195 4289046184
-0.2736081183 -0.1351524889 0.5189185143 4289111977
-0.2736668587 -0.1346048117 0.5190298557 4289111720
-0.2737253606 -0.1340567917 0.5191408396 4289177513
-0.2737836540 -0.1335084140 0.5192514062 4289243306
-0.2738417387 -0.1329596937 0.5193615556 4289243306
-0.2738996148 -0.1324106157 0.5194712877 4289177770
-0.2739572525 -0.1318611950 0.5195806623 4289177770
-0.2735595405 -0.1310933083 0.5188263059 4289243563
-0.2736166418 -0.1305441111 0.5189346671 4289309356
-0.2736735642 -0.1299945712 0.5190425515 4289375149
-0.2737302482 -0.1294446737 0.5191500783 4289440942
-0.2737867236 -0.1288944483 0.5192571878 4289440942
-0.2738429904 -0.1283438951 0.5193638802 4289440942
-0.2738990188 -0.1277929842 0.5194702148 4289572528
-0.2739548385 -0.1272417456 0.5195760727 4289572528
-0.2740104496 -0.1266901642 0.5196815133 4289572528
-0.2740658224 -0.1261382550 0.5197865367 4289572528
-0.2741209865 -0.1255860031 0.5198912024 4289507505
-0.2741759419 -0.1250334233 0.5199953914 4289639091
-0.2746869624 -0.1246876344 0.5209645629 4289704884
-0.2747415602 -0.1241334751 0.5210680962 4289704884
-0.2747959197 -0.1235789806 0.5211712122 4289835702
-0.2748500705 -0.1230241582 0.5212739110 4289769909
-0.2749040127 -0.1224690154 0.5213761926 4289835702
-0.2749577165 -0.1219135374 0.5214780569 4289901495
-0.2750111818 -0.1213577390 0.5215795040 4290033079
-0.2750644386 -0.1208016127 0.5216804743 4290033079
-0.2751174867 -0.1202451736 0.5217810869 4290098872
-0.2751702666 -0.1196884066 0.5218812227 4290098872
-0.2752228677 -0.1191313192 0.5219809413 4290098872
-0.2752752304 -0.1185739115 0.5220802426 4290164665
-0.2753273547 -0.1180161908 0.5221791267 4290230458
-0.2753792703 -0.1174581498 0.5222775340 4290296251
-0.2758884728 -0.1170939803 0.5232433081 4290427837
-0.2759400010 -0.1165343896 0.5233410597 4290427837
-0.2759913206 -0.1159744784 0.5234383345 4290427837
-0.2760424018 -0.1154142544 0.5235352516 4290493630
-0.2765510976 -0.1150441989 0.5245000720 4290559425
-0.2766018212 -0.1144824252 0.5245962143 4290559425
-0.2766523063 -0.1139203459 0.5246919394 4290625218
-0.2767025530 -0.1133579612 0.5247872472 4290691011
-0.2767525613 -0.1127952710 0.5248821378 4290756804
-0.2772606313 -0.1124180928 0.5258457065 4290822597
-0.2773102522 -0.1118538603 0.5259398818 4290888390
-0.2773596644 -0.1112893298 0.5260335803 4290888390
-0.2774088383 -0.1107244939 0.5261268020 4290954183
-0.2774577737 -0.1101593599 0.5262196064 4290954183
-0.2775064707 -0.1095939279 0.5263119936 4291019976
-0.2780137360 -0.1092084050 0.5272740126 4291085769
-0.2785208821 -0.1088207215 0.5282359123 4291151562
-0.2790279686 -0.1084308699 0.5291976333 4291217355
-0.2790759802 -0.1078614518 0.5292886496 4291152332
-0.2795828283 -0.1074682027 0.5302499533 4291152332
-0.2796304524 -0.1068972573 0.5303402543 4291152332
-0.2796778083 -0.1063260213 0.5304300785 4291218125
-0.2801842690 -0.1059281453 0.5313906074 4291217870
-0.2802312374 -0.1053553894 0.5314797163 4291283663
-0.2807374597 -0.1049541235 0.5324397683 4291415249
-0.2807840109 -0.1043798625 0.5325281024 4291415249
-0.2812899649 -0.1039751992 0.5334876776 4291481297
-0.2817958295 -0.1035683826 0.5344470739 4291547090
-0.2823016047 -0.1031593904 0.5354063511 4291547090
-0.2823474407 -0.1025811657 0.5354932547 4291547090
-0.2828529477 -0.1021687910 0.5364519954 4291612628
-0.2833583653 -0.1017542481 0.5374105573 4291678421
-0.2843237519 -0.1015017852 0.5392414927 4291744214
-0.2843689024 -0.1009186730 0.5393271446 4291810007
-0.2848740220 -0.1004976407 0.5402851105 4291810007
-0.2853790522 -0.1000744402 0.5412428975 4291810007
-0.2858839631 -0.0996490791 0.5422005057 4291875285
-0.2868492007 -0.0993810669 0.5440312028 4291941078
-0.2878144979 -0.0991090015 0.5458618999 4292006872
-0.2878586650 -0.0985176265 0.5459456444 4292072665
-0.2888238430 -0.0982393399 0.5477762222 4292007386
-0.2897890806 -0.0979570001 0.5496068597 4292073179
-0.2902935445 -0.0975158066 0.5505636334 4292138972
-0.2912587523 -0.0972262919 0.5523942113 4292138972
-0.2922239900 -0.0969327167 0.5542248487 4292205278
-0.2931892276 -0.0966350734 0.5560555458 4292205278
-0.2941544950 -0.0963333771 0.5578861833 4292402659
-0.2955808938 -0.0961776525 0.5605914593 4292600038
-0.2970074117 -0.0960159600 0.5632970333 4292731624
-0.2984341085 -0.0958483070 0.5660027862 4292994796
-0.2998609245 -0.0956746787 0.5687088966 4293324275
-0.3471624553 -0.2187657654 0.6598096490 4291349719
-0.3472545445 -0.2180905193 0.6599847078 4290757834
-0.3464523554 -0.2168550938 0.6584600806 4290428869
-0.3460965753 -0.2159015685 0.6577839255 4290034625
-0.3448458016 -0.2143931091 0.6554067135 4289903039
-0.3435941041 -0.2128893584 0.6530277133 4290164667
-0.3414464295 -0.2108376473 0.6489459276 4290033081
-0.3339259028 -0.2054886967 0.6346525550 4289901495
-0.2977459431 -0.1825958043 0.5658896565 4289769909
-0.2928967476 -0.1790034771 0.5566734076 4289835702
-0.2898366451 -0.1765212715 0.5508574843 4289704116
-0.2881190181 -0.1748667508 0.5475929379 4289572530
-0.2868484557 -0.1734898835 0.5451781750 4289506737
-0.2855769992 -0.1721178442 0.5427616835 4289572528
-0.2847530842 -0.1710199714 0.5411957502 4289572528
-0.2839285135 -0.1699251831 0.5396286249 4289440942
-0.2826546431 -0.1685659140 0.5372074842 4289309356
-0.2822774351 -0.1677448750 0.5364905596 4289309356
-0.2814508975 -0.1666593701 0.5349196792 4289375149
-0.2810727060 -0.1658418924 0.5342009068 4289375149
-0.2806940973 -0.1650257558 0.5334812999 4289375149
-0.2798658311 -0.1639478207 0.5319071412 4289309097
-0.2794862688 -0.1631352901 0.5311857462 4289374890
-0.2782073915 -0.1618013233 0.5287551284 4289374890
-0.2787258625 -0.1615142822 0.5297405124 4289309097
-0.2778953612 -0.1604461968 0.5281620622 4289243304
-0.2779637575 -0.1598987132 0.5282921195 4289177511
-0.2775820792 -0.1590929925 0.5275666714 4289111718
-0.2771999836 -0.1582886428 0.5268404484 4289045925
-0.2768174708 -0.1574856639 0.5261134505 4288980134
-0.2764345109 -0.1566840559 0.5253856182 4288980134
-0.2765014768 -0.1561381221 0.5255129337 4288980134
-0.2761178017 -0.1553383917 0.5247837305 4288980134
-0.2757337093 -0.1545400470 0.5240536928 4288980134
-0.2757998705 -0.1539947242 0.5241793990 4288914341
-0.2754150331 -0.1531982720 0.5234480500 4288914341
-0.2754806578 -0.1526530534 0.5235728025 4288980134
-0.2755461037 -0.1521074325 0.5236971378 4288914341
-0.2751602232 -0.1513133794 0.5229637623 4288914341
-0.2752251625 -0.1507678926 0.5230871439 4288848546
-0.2748385668 -0.1499757469 0.5223523974 4288782753
-0.2749029696 -0.1494303942 0.5224748254 4288782753
-0.2745156586 -0.1486401707 0.5217387080 4288782753
-0.2745795250 -0.1480949372 0.5218601227 4288782755
-0.2741914988 -0.1473066360 0.5211226344 4288914341
-0.2738030553 -0.1465197653 0.5203843117 4288848548
-0.2738661170 -0.1459751874 0.5205041766 4288782755
-0.2739289701 -0.1454302520 0.5206236243 4288782753
-0.2739916146 -0.1448849291 0.5207427144 4288848546
-0.2736018002 -0.1441010386 0.5200018883 4288914339
-0.2736639380 -0.1435558796 0.5201199651 4288914339
-0.2737258673 -0.1430103332 0.5202376246 4288914341
-0.2733350396 -0.1422289461 0.5194948316 4288980134
-0.2733964324 -0.1416835785 0.5196115375 4288717989
-0.2730048895 -0.1409041584 0.5188673735 4288586403
-0.2730657756 -0.1403589547 0.5189830661 4288717989
-0.2731264532 -0.1398133934 0.5190984011 4288783782
-0.2731869221 -0.1392674595 0.5192133188 4288783782
-0.2732471824 -0.1387211680 0.5193278790 4288849575
-0.2733072340 -0.1381745189 0.5194419622 4288915368
-0.2733670473 -0.1376274973 0.5195556879 4288783782
-0.2734266818 -0.1370801330 0.5196689963 4289046184
-0.2734861076 -0.1365323961 0.5197819471 4288980391
-0.2735452950 -0.1359843165 0.5198944211 4289046184
-0.2736042738 -0.1354358792 0.5200065374 4289177770
-0.2736630440 -0.1348870844 0.5201182365 4289111977
-0.2737216055 -0.1343379319 0.5202295780 4289111977
-0.2733259201 -0.1335665584 0.5194775462 4289243563
-0.2733839750 -0.1330176145 0.5195878148 4289243563
-0.2734417915 -0.1324683279 0.5196977258 4289243563
-0.2734993994 -0.1319186985 0.5198072195 4289177770
-0.2735567987 -0.1313687116 0.5199162960 4289309356
-0.2731594443 -0.1306010783 0.5191611052 4289440942
-0.2732163072 -0.1300513148 0.5192691684 4289506735
-0.2732729614 -0.1295012236 0.5193768740 4289506735
-0.2733294070 -0.1289507747 0.5194841027 4289506735
-0.2733856142 -0.1283999979 0.5195909739 4289506735
-0.2734416127 -0.1278488785 0.5196973681 4289441712
-0.2734973729 -0.1272974163 0.5198034048 4289441712
-0.2735529244 -0.1267456114 0.5199089646 4289507505
-0.2736082673 -0.1261934787 0.5200141668 4289573298
-0.2736634016 -0.1256410182 0.5201188922 4289639091
-0.2737182975 -0.1250882149 0.5202232599 4289704884
-0.2742285132 -0.1247422993 0.5211929679 4289704884
-0.2742830515 -0.1241879165 0.5212966204 4289704884
-0.2743373811 -0.1236331984 0.5213998556 4289639093
-0.2743915021 -0.1230781600 0.5215027332 4289639093
-0.2744453847 -0.1225227863 0.5216051340 4289770679
-0.2744990289 -0.1219670922 0.5217071176 4289836472
-0.2745524645 -0.1214110702 0.5218086839 4289902263
-0.2746056914 -0.1208547205 0.5219098330 4289902263
-0.2746586800 -0.1202980503 0.5220105052 4290033849
-0.2747114599 -0.1197410598 0.5221108198 4290099642
-0.2747640014 -0.1191837490 0.5222106576 4290099642
-0.2748163044 -0.1186261177 0.5223100781 4290165435
-0.2748683989 -0.1180681661 0.5224090815 4290231228
-0.2749202549 -0.1175099015 0.5225076675 4290231228
-0.2754286528 -0.1171455905 0.5234739184 4290362814
-0.2754801512 -0.1165857688 0.5235717893 4290362814
-0.2755314410 -0.1160256341 0.5236692429 4290297021
-0.2755824625 -0.1154651865 0.5237662792 4290362814
-0.2760903835 -0.1150949821 0.5247315764 4290691011
-0.2761410475 -0.1145329848 0.5248278975 4290691011
-0.2761915028 -0.1139706746 0.5249237418 4290756804
-0.2762416899 -0.1134080589 0.5250191689 4290822597
-0.2762916684 -0.1128451377 0.5251141787 4290888390
-0.2767989337 -0.1124678105 0.5260782838 4290954183
-0.2768485546 -0.1119033471 0.5261725187 4290954183
-0.2768979073 -0.1113385782 0.5262663364 4291019976
-0.2769470513 -0.1107735112 0.5263597369 4291019976
-0.2769959271 -0.1102081463 0.5264526606 4291085769
-0.2775025368 -0.1098237038 0.5274155140 4291085769
-0.2775510550 -0.1092568040 0.5275077224 4291151562
-0.2785154879 -0.1090483218 0.5293406844 4291217355
-0.2785637081 -0.1084789559 0.5294322968 4291283148
-0.2790699005 -0.1080867797 0.5303944349 4291348941
-0.2791177332 -0.1075158939 0.5304852724 4291348941
-0.2791652977 -0.1069447100 0.5305756927 4291218125
-0.2792126238 -0.1063732356 0.5306656361 4291283918
-0.2797182798 -0.1059752032 0.5316267014 4291283663
-0.2802238464 -0.1055750027 0.5325875878 4291349456
-0.2802706361 -0.1050007790 0.5326764584 4291415249
-0.2807759345 -0.1045971885 0.5336368680 4291481042
-0.2808223069 -0.1040214524 0.5337249637 4291481297
-0.2813273668 -0.1036144644 0.5346848965 4291547090
-0.2818323374 -0.1032053083 0.5356446505 4291612883
-0.2823372185 -0.1027939916 0.5366042256 4291612883
-0.2823828459 -0.1022142991 0.5366909504 4291612628
-0.2833467126 -0.1019648463 0.5385227799 4291678421
-0.2838512957 -0.1015470251 0.5394818187 4291678421
-0.2843557894 -0.1011270359 0.5404406786 4291744214
-0.2844007313 -0.1005424559 0.5405260921 4291810007
-0.2849049568 -0.1001190841 0.5414843559 4291875800
-0.2854090631 -0.0996935442 0.5424425006 4291876055
-0.2863727510 -0.0994254276 0.5442740321 4291941848
-0.2873364687 -0.0991532579 0.5461056828 4291941593
-0.2878403962 -0.0987193286 0.5470634103 4292007386
-0.2888041139 -0.0984399840 0.5488950610 4292073179
-0.2893078923 -0.0980007797 0.5498524904 4292138972
-0.2902715802 -0.0977142602 0.5516840816 4292204765
-0.2907752097 -0.0972697735 0.5526412725 4292204765
-0.2917388678 -0.0969760790 0.5544728041 4292205278
-0.2931627929 -0.0968303308 0.5571790338 4292205278
-0.2941265404 -0.0965275541 0.5590107441 4292402405
-0.2955506742 -0.0963708237 0.5617173910 4292665577
-0.2969749570 -0.0962081254 0.5644243956 4292731370
-0.2983993590 -0.0960394517 0.5671315789 4293060335
-0.2998239100 -0.0958648100 0.5698390603 4293652726
-0.3456834555 -0.2182945758 0.6583884954 4291481305
-0.3457752466 -0.2176208198 0.6585633159 4290823627
-0.3458667994 -0.2169465423 0.6587377191 4290494662
-0.3450653255 -0.2157136053 0.6572111845 4290165697
-0.3447096348 -0.2147618085 0.6565337777 4289968318
-0.3434602320 -0.2132565826 0.6541541815 4290164667
-0.3417631388 -0.2114796191 0.6509218812 4290098874
-0.3391711414 -0.2091579884 0.6459851861 4289901495
-0.2981370687 -0.1832224429 0.5678316951 4289769909
-0.2928492427 -0.1793530583 0.5577605367 4289769909
-0.2897945046 -0.1768689603 0.5519424677 4289704116
-0.2880799472 -0.1752129048 0.5486769080 4289638321
-0.2863642871 -0.1735634208 0.5454092622 4289638321
-0.2841999233 -0.1716502160 0.5412870049 4289506735
-0.2856155932 -0.1719008386 0.5439832807 4289506735
-0.2834494710 -0.1699973196 0.5398576856 4289506735
-0.2826256752 -0.1689051837 0.5382887125 4289440942
-0.2818012536 -0.1678161472 0.5367185473 4289375403
-0.2814243138 -0.1669961363 0.5360006094 4289375403
-0.2805987000 -0.1659124345 0.5344281197 4289374890
-0.2802207768 -0.1650959998 0.5337083936 4289374890
-0.2798424661 -0.1642809063 0.5329877734 4289309097
-0.2794637084 -0.1634671688 0.5322663784 4289309097
-0.2781871259 -0.1621317863 0.5298350453 4289374890
-0.2778072953 -0.1613225341 0.5291116238 4289374890
-0.2778759599 -0.1607743800 0.5292423964 4289309099
-0.2774954140 -0.1599669755 0.5285176039 4289309099
-0.2771144211 -0.1591609418 0.5277919769 4289243304
-0.2767330408 -0.1583562642 0.5270655751 4289177511
-0.2763512135 -0.1575529873 0.5263383389 4289309097
-0.2764184177 -0.1570063680 0.5264663696 4289177511
-0.2760358751 -0.1562049389 0.5257377625 4289177513
-0.2761025727 -0.1556584090 0.5258648396 4289177513
-0.2757193148 -0.1548588723 0.5251348615 4289111720
-0.2753356099 -0.1540607214 0.5244040489 4289111720
-0.2754015028 -0.1535147876 0.5245295167 4289045925
-0.2750170529 -0.1527185291 0.5237973332 4289045925
-0.2750824392 -0.1521727145 0.5239218473 4288914339
-0.2746972740 -0.1513783485 0.5231882930 4288980132
-0.2747621536 -0.1508326530 0.5233118534 4288980132
-0.2743762732 -0.1500402093 0.5225768685 4288980132
-0.2744406164 -0.1494946331 0.5226994157 4288980132
-0.2740540206 -0.1487041116 0.5219631195 4288980132
-0.2741178274 -0.1481586695 0.5220847130 4288980132
-0.2741814554 -0.1476128548 0.5222058892 4288980132
-0.2737938166 -0.1468247622 0.5214675665 4288914339
-0.2734057605 -0.1460381001 0.5207284689 4288914339
-0.2734685838 -0.1454929411 0.5208480954 4288849059
-0.2735311687 -0.1449474096 0.5209673047 4288914852
-0.2731420696 -0.1441632211 0.5202262402 4288980645
-0.2732041478 -0.1436178535 0.5203444958 4288980645
-0.2732660472 -0.1430720985 0.5204623342 4288914852
-0.2728759050 -0.1422904134 0.5197193027 4288914852
-0.2729372680 -0.1417448223 0.5198361874 4288849059
-0.2729984224 -0.1411988735 0.5199526548 4288849059
-0.2726072669 -0.1404196918 0.5192076564 4288914598
-0.2726678848 -0.1398739219 0.5193231106 4288914598
-0.2727283239 -0.1393277794 0.5194382071 4288980391
-0.2727885246 -0.1387812793 0.5195528865 4288980391
-0.2728485167 -0.1382344067 0.5196671486 4289046438
-0.2729083002 -0.1376871914 0.5197809935 4289046438
-0.2729678750 -0.1371396035 0.5198944807 4289112231
-0.2730272412 -0.1365916580 0.5200075507 4289112231
-0.2730863988 -0.1360433698 0.5201202035 4289111977
-0.2731453478 -0.1354947090 0.5202324390 4289111977
-0.2732040584 -0.1349457055 0.5203443170 4289111977
-0.2732625604 -0.1343963444 0.5204557776 4289111977
-0.2728675902 -0.1336246580 0.5197035074 4289178024
-0.2729255855 -0.1330755055 0.5198139548 4289178024
-0.2729833722 -0.1325260103 0.5199239850 4289111977
-0.2730409205 -0.1319761574 0.5200335979 4289177770
-0.2730982602 -0.1314259470 0.5201427937 4289309356
-0.2731553912 -0.1308754086 0.5202516317 4289440942
-0.2732123137 -0.1303245127 0.5203599930 4289572528
-0.2732689977 -0.1297732890 0.5204679966 4289572528
-0.2733254731 -0.1292217076 0.5205755830 4289375919
-0.2729276121 -0.1284560561 0.5198178291 4289441712
-0.2729835808 -0.1279047132 0.5199243426 4289507505
-0.2730393112 -0.1273530424 0.5200304985 4289507505
-0.2730948329 -0.1268010288 0.5201362371 4289573298
-0.2731501162 -0.1262486726 0.5202415586 4289639091
-0.2736597657 -0.1259051263 0.5212122798 4289704884
-0.2737147212 -0.1253511906 0.5213169456 4289770677
-0.2737694383 -0.1247969195 0.5214211345 4289770677
-0.2738239467 -0.1242423132 0.5215249658 4289836470
-0.2738782465 -0.1236873791 0.5216283798 4290032822
-0.2739323080 -0.1231321096 0.5217313170 4290032822
-0.2739861608 -0.1225765198 0.5218338966 4290033079
-0.2740397751 -0.1220206022 0.5219359994 4290098872
-0.2740931511 -0.1214643568 0.5220376849 4290164665
-0.2741463482 -0.1209077835 0.5221389532 4290230458
-0.2741992772 -0.1203508899 0.5222398043 4290362046
-0.2747075856 -0.1199926659 0.5232079029 4290362046
-0.2747601569 -0.1194342002 0.5233080387 4290427839
-0.2748125196 -0.1188754216 0.5234077573 4290427839
-0.2748646736 -0.1183163226 0.5235070586 4290362814
-0.2749165595 -0.1177569032 0.5236059427 4290428607
-0.2749682665 -0.1171971634 0.5237044096 4290428607
-0.2750197053 -0.1166371182 0.5238023996 4290428607
-0.2755271196 -0.1162692532 0.5247687697 4290625218
-0.2755782008 -0.1157076433 0.5248661041 4290691011
-0.2756290436 -0.1151457280 0.5249629617 4290691011
-0.2756796777 -0.1145834997 0.5250593424 4290691011
-0.2761865854 -0.1142097339 0.5260248184 4290822597
-0.2762368321 -0.1136459559 0.5261205435 4290888390
-0.2762868404 -0.1130818725 0.5262157917 4290954183
-0.2763366401 -0.1125174835 0.5263106227 4290954183
-0.2763862014 -0.1119527891 0.5264050364 4291019976
-0.2768924534 -0.1115719005 0.5273692012 4291019976
-0.2769416273 -0.1110056713 0.5274628401 4291085769
-0.2769905627 -0.1104391366 0.5275560617 4291085769
-0.2770392895 -0.1098722965 0.5276488662 4291151562
-0.2780022323 -0.1096659079 0.5294829011 4291217355
-0.2780506313 -0.1090966091 0.5295751095 4291217355
-0.2785561979 -0.1087055057 0.5305379629 4291217355
-0.2786042094 -0.1081346720 0.5306293964 4291152332
-0.2786519825 -0.1075635478 0.5307204127 4291218125
-0.2791571617 -0.1071678102 0.5316825509 4291283663
-0.2792045176 -0.1065951660 0.5317727923 4291217870
-0.2792516649 -0.1060222238 0.5318625569 4291152590
-0.2797564268 -0.1056218594 0.5328239202 4291218383
-0.2802610993 -0.1052193269 0.5337851644 4291284176
-0.2803076804 -0.1046436429 0.5338738561 4291349969
-0.2808121145 -0.1042377129 0.5348346233 4291415762
-0.2813164592 -0.1038296148 0.5357951522 4291481555
-0.2818207145 -0.1034193560 0.5367555618 4291547348
-0.2818665504 -0.1028397009 0.5368428826 4291547348
-0.2823705077 -0.1024260446 0.5378027558 4291481555
-0.2828744054 -0.1020102203 0.5387624502 4291547348
-0.2838367522 -0.1017566174 0.5405952930 4291547348
-0.2838819027 -0.1011720672 0.5406813025 4291613141
-0.2843855023 -0.1007497460 0.5416404605 4291678934
-0.2848889828 -0.1003252491 0.5425993800 4291678934
-0.2853923738 -0.0998985916 0.5435581803 4292006871
-0.2858956456 -0.0994697586 0.5445166826 4292006871
-0.2868578136 -0.0991974771 0.5463492274 4292072664
-0.2878199816 -0.0989211425 0.5481817722 4292138457
-0.2883230746 -0.0984839201 0.5491399765 4292073434
-0.2888260782 -0.0980445221 0.5500979424 4292139227
-0.2897881866 -0.0977578908 0.5519304276 4292270558
-0.2907503247 -0.0974671990 0.5537629128 4292270558
-0.2917124927 -0.0971724316 0.5555954576 4292205280
-0.2926746905 -0.0968736038 0.5574280620 4292205280
-0.2940964103 -0.0967218354 0.5601358414 4292402659
-0.2955182791 -0.0965640992 0.5628439784 4292665831
-0.2973999381 -0.0965496153 0.5664277673 4292666345
-0.2988221645 -0.0963789821 0.5691365600 4293061103
-0.3002445102 -0.0962023661 0.5718455315 4293521656
-0.3433161676 -0.2172592431 0.6552659273 4291612891
-0.3438528180 -0.2168696672 0.6562901735 4290955213
-0.3430528939 -0.2156376541 0.6547634006 4290626248
-0.3422522545 -0.2144086063 0.6532353163 4290231490
-0.3414509296 -0.2131825089 0.6517058611 4289902525
-0.3308396041 -0.2058558166 0.6314527392 4290164667
-0.3402921259 -0.2110157460 0.6494941115 4290164667
-0.3377043605 -0.2086949348 0.6445550323 4289967288
-0.3302065134 -0.2033611387 0.6302443147 4289835702
-0.2986020446 -0.1832639873 0.5699229240 4289835702
-0.2928754389 -0.1791282594 0.5589928627 4289704116
-0.2898250520 -0.1766479611 0.5531708002 4289638321
-0.2876662314 -0.1747221351 0.5490503907 4289638321
-0.2863996327 -0.1733454913 0.5466329455 4289572528
-0.2851321995 -0.1719736904 0.5442138314 4289506735
-0.2829697728 -0.1700693816 0.5400865674 4289572271
-0.2821474671 -0.1689768285 0.5385170579 4289506478
-0.2817717493 -0.1681542844 0.5377999544 4289506476
-0.2809482515 -0.1670670509 0.5362281799 4289440683
-0.2805715799 -0.1662480682 0.5355092883 4289440683
-0.2801944613 -0.1654304415 0.5347895026 4289374890
-0.2793692350 -0.1643507630 0.5332144499 4289374888
-0.2789911926 -0.1635367274 0.5324928761 4289374888
-0.2786127031 -0.1627240330 0.5317704678 4289309097
-0.2782337964 -0.1619126946 0.5310472846 4289309097
-0.2774063051 -0.1608428955 0.5294679403 4289309097
-0.2770264447 -0.1600351781 0.5287429094 4289309097
-0.2766461670 -0.1592288315 0.5280171037 4289309097
-0.2762654722 -0.1584238559 0.5272905231 4289309097
-0.2763329446 -0.1578765363 0.5274192691 4289243304
-0.2755028307 -0.1568180174 0.5258348584 4289243304
-0.2760184705 -0.1565262079 0.5268190503 4289243304
-0.2756363153 -0.1557249725 0.5260896683 4289243304
-0.2752537429 -0.1549251229 0.5253594518 4289177513
-0.2753199041 -0.1543784887 0.5254856944 4289111720
-0.2749365866 -0.1535805166 0.5247541070 4289111718
-0.2750022113 -0.1530340016 0.5248793960 4289111718
-0.2746181786 -0.1522379369 0.5241464376 4289045927
-0.2746832967 -0.1516915262 0.5242707133 4289111720
-0.2742985487 -0.1508973688 0.5235363245 4289111720
-0.2739133835 -0.1501045972 0.5228011608 4289111720
-0.2739776671 -0.1495588273 0.5229238868 4289111720
-0.2735917568 -0.1487679929 0.5221873522 4289045927
-0.2736555338 -0.1482223421 0.5223090649 4289045927
-0.2737191319 -0.1476763189 0.5224304199 4289045927
-0.2733321786 -0.1468879282 0.5216919184 4289111720
-0.2733952403 -0.1463420540 0.5218122602 4289111720
-0.2730076015 -0.1455556005 0.5210723877 4289046438
-0.2730701268 -0.1450098604 0.5211917758 4289046438
-0.2726817727 -0.1442253590 0.5204504728 4288980645
-0.2727437913 -0.1436797827 0.5205688477 4288980645
-0.2728056014 -0.1431338191 0.5206868649 4288980645
-0.2724162042 -0.1423518211 0.5199436545 4288980645
-0.2724775076 -0.1418060362 0.5200606585 4288980645
-0.2725386024 -0.1412598640 0.5201772451 4288980645
-0.2725994885 -0.1407133490 0.5202934742 4289046184
-0.2726601660 -0.1401664615 0.5204092860 4289046184
-0.2727206349 -0.1396192014 0.5205246806 4289111977
-0.2727808952 -0.1390715837 0.5206396580 4289111977
-0.2728409469 -0.1385235935 0.5207542777 4289112231
-0.2724489570 -0.1377468258 0.5200061202 4289112231
-0.2725084722 -0.1371990293 0.5201197267 4289046184
-0.2725678086 -0.1366508752 0.5202329755 4289111977
-0.2726269066 -0.1361023635 0.5203457475 4289177770
-0.2731380165 -0.1357782930 0.5213212967 4289177770
-0.2727444768 -0.1350042820 0.5205701590 4289243563
-0.2728029191 -0.1344546974 0.5206817389 4289309356
-0.2728611827 -0.1339047700 0.5207929611 4289309356
-0.2729192078 -0.1333544999 0.5209037066 4289309356
-0.2729770541 -0.1328038573 0.5210140944 4289309356
-0.2730346620 -0.1322528869 0.5211240053 4289375149
-0.2730920315 -0.1317015588 0.5212335587 4289440942
-0.2726962268 -0.1309323907 0.5204781294 4289506735
-0.2727531195 -0.1303812861 0.5205866694 4289572528
-0.2728097439 -0.1298298240 0.5206947923 4289572528
-0.2728661895 -0.1292780340 0.5208024979 4289572528
-0.2729223967 -0.1287259012 0.5209097862 4289638321
-0.2725249529 -0.1279605180 0.5201511979 4289638321
-0.2725806236 -0.1274086237 0.5202574730 4289704114
-0.2726361156 -0.1268563867 0.5203633308 4289835700
-0.2726913691 -0.1263038218 0.5204687715 4289901493
-0.2732002139 -0.1259601414 0.5214400291 4289902263
-0.2732551098 -0.1254059821 0.5215448141 4289902263
-0.2733097970 -0.1248514950 0.5216491818 4289902263
-0.2733642459 -0.1242966652 0.5217531323 4289836470
-0.2734184861 -0.1237415075 0.5218566656 4290098361
-0.2734725177 -0.1231860220 0.5219597816 4290098361
-0.2735263109 -0.1226302087 0.5220624208 4290098872
-0.2735798955 -0.1220740676 0.5221647024 4290164665
-0.2736332417 -0.1215175986 0.5222665071 4290230458
-0.2736863792 -0.1209608018 0.5223679543 4290296251
-0.2737392783 -0.1204036847 0.5224689245 4290427839
-0.2742467523 -0.1200453267 0.5234375000 4290362046
-0.2742993236 -0.1194866374 0.5235378146 4290427839
-0.2743516266 -0.1189276278 0.5236376524 4290427839
-0.2744037211 -0.1183683053 0.5237370729 4290493630
-0.2744556069 -0.1178086549 0.5238360763 4290559423
-0.2745072246 -0.1172486991 0.5239346623 4290559425
-0.2745586634 -0.1166884154 0.5240327716 4290625218
-0.2750652432 -0.1163204089 0.5249996781 4290691011
-0.2751162946 -0.1157585755 0.5250971317 4290691011
-0.2751671076 -0.1151964292 0.5251941085 4290756804
-0.2752176821 -0.1146339700 0.5252906680 4290756804
-0.2757237852 -0.1142600626 0.5262566209 4290756804
-0.2757740021 -0.1136960536 0.5263524652 4290822597
-0.2758239806 -0.1131317392 0.5264478326 4290888390
-0.2758737206 -0.1125671193 0.5265427828 4290954183
-0.2759232521 -0.1120021939 0.5266373158 4291019976
-0.2764286995 -0.1116211563 0.5276020169 4291019976
-0.2764778435 -0.1110546887 0.5276958346 4291085769
-0.2765267491 -0.1104879230 0.5277891755 4291085769
-0.2765754163 -0.1099208593 0.5278820395 4291151562
-0.2775367796 -0.1097143888 0.5297169685 4291217355
-0.2775851488 -0.1091448516 0.5298092961 4291217355
-0.2780899107 -0.1087535992 0.5307726860 4291283148
-0.2781378925 -0.1081825271 0.5308642387 4291283148
-0.2781856358 -0.1076111645 0.5309553742 4291348941
-0.2786899805 -0.1072152704 0.5319179893 4291218382
-0.2787373364 -0.1066423878 0.5320083499 4291152589
-0.2792414427 -0.1062430888 0.5329705477 4291152589
-0.2792883813 -0.1056686789 0.5330601335 4291218382
-0.2797922790 -0.1052659899 0.5340218544 4291284175
-0.2802960575 -0.1048611253 0.5349833965 4291349968
-0.2803424299 -0.1042839661 0.5350719094 4291415761
-0.2808459699 -0.1038757041 0.5360329747 4291481554
-0.2813494205 -0.1034652740 0.5369939208 4291481297
-0.2818527818 -0.1030526757 0.5379546285 4291547090
-0.2818984091 -0.1024715528 0.5380417109 4291612883
-0.2828591764 -0.1022209674 0.5398755074 4291678676
-0.2833622396 -0.1018018574 0.5408356786 4291678676
-0.2838652134 -0.1013805866 0.5417956114 4291678676
-0.2839101553 -0.1007945687 0.5418814421 4291744469
-0.2844128609 -0.1003698930 0.5428408980 4291744469
-0.2849154472 -0.0999430567 0.5438001156 4291941078
-0.2854179144 -0.0995140523 0.5447591543 4292006871
-0.2863785028 -0.0992416665 0.5465925932 4292072664
-0.2873391211 -0.0989652202 0.5484260321 4292138457
-0.2878414094 -0.0985278115 0.5493847132 4292073434
-0.2888019979 -0.0982441828 0.5512181520 4292205020
-0.2893041372 -0.0978014916 0.5521765947 4292204765
-0.2907232642 -0.0976647213 0.5548852086 4292204765
-0.2916839421 -0.0973688960 0.5567187667 4292205280
-0.2926446199 -0.0970689952 0.5585523248 4292271073
-0.2940640748 -0.0969162211 0.5612615943 4292468452
-0.2954836786 -0.0967574716 0.5639711022 4292731624
-0.2969034314 -0.0965927467 0.5666808486 4292797931
-0.2983233035 -0.0964220539 0.5693908930 4293126896
-0.3002023399 -0.0963927656 0.5729773045 4293587449
-0.3418432474 -0.2167867124 0.6538407207 4291810270
-0.3414895236 -0.2158366740 0.6531641483 4290955213
-0.3411353528 -0.2148878574 0.6524866819 4290692041
-0.3407806754 -0.2139402330 0.6518083215 4290231490
-0.3399805427 -0.2127154171 0.6502779126 4289968318
-0.3382894695 -0.2109384537 0.6470434070 4290033851
-0.3361519873 -0.2088912725 0.6429551244 4290099644
-0.3304503262 -0.2046458870 0.6320495605 4290098874
-0.2993537784 -0.1847518235 0.5725714564 4289901495
-0.2931934297 -0.1803267747 0.5607886314 4289901495
-0.2897038162 -0.1775648445 0.5541141033 4289769909
-0.2875496149 -0.1756334156 0.5499937534 4289638321
-0.2836103439 -0.1726246178 0.5424591303 4289704114
-0.2859134078 -0.1734188199 0.5468642116 4289572528
-0.2846481502 -0.1720464677 0.5444441438 4289572528
-0.2824894786 -0.1701413989 0.5403152704 4289638064
-0.2816686332 -0.1690484285 0.5387452245 4289572271
-0.2808471322 -0.1679585427 0.5371739268 4289572269
-0.2804715633 -0.1671379060 0.5364556313 4289506476
-0.2800955772 -0.1663186103 0.5357365012 4289506476
-0.2792723477 -0.1652362794 0.5341618657 4289440683
-0.2788954079 -0.1644205749 0.5334409475 4289374890
-0.2785180509 -0.1636062115 0.5327191353 4289374890
-0.2781402767 -0.1627932191 0.5319965482 4289374890
-0.2777620852 -0.1619815677 0.5312731862 4289309097
-0.2773834467 -0.1611712873 0.5305489898 4289309097
-0.2765569091 -0.1601033062 0.5289680362 4289309097
-0.2766249478 -0.1595548391 0.5290982127 4289374890
-0.2762450576 -0.1587486565 0.5283715725 4289374890
-0.2758647501 -0.1579438597 0.5276441574 4289309097
-0.2750360668 -0.1568849236 0.5260592103 4289374890
-0.2755509317 -0.1565930247 0.5270439386 4289309099
-0.2751694620 -0.1557914764 0.5263143182 4289243306
-0.2747876048 -0.1549912989 0.5255839229 4289243306
-0.2753020525 -0.1546964347 0.5265679359 4289177513
-0.2749195695 -0.1538972557 0.5258363485 4289111718
-0.2745366693 -0.1530994773 0.5251039863 4289177511
-0.2746020257 -0.1525523663 0.5252289772 4289177770
-0.2742184103 -0.1517564952 0.5244952440 4289111977
-0.2742832601 -0.1512095034 0.5246192813 4289111977
-0.2738988996 -0.1504155248 0.5238841176 4289177770
-0.2735141218 -0.1496229768 0.5231481791 4289111977
-0.2735781670 -0.1490766108 0.5232706070 4289111977
-0.2731926441 -0.1482859701 0.5225332975 4289111977
-0.2732561827 -0.1477397531 0.5226547718 4289046184
-0.2728699446 -0.1469510496 0.5219160914 4289243563
-0.2729329467 -0.1464049518 0.5220365524 4289177770
-0.2725460231 -0.1456182003 0.5212965012 4289243306
-0.2726085186 -0.1450722516 0.5214160085 4289177513
-0.2726708055 -0.1445259303 0.5215351582 4289177511
-0.2722828090 -0.1437416524 0.5207930803 4289111718
-0.2723445892 -0.1431954950 0.5209112167 4289177511
-0.2719558775 -0.1424131840 0.5201677680 4289177511
-0.2720171511 -0.1418671757 0.5202848911 4289178024
-0.2720781863 -0.1413208097 0.5204016566 4289178024
-0.2721390128 -0.1407740861 0.5205180049 4289177770
-0.2721996605 -0.1402269751 0.5206339955 4289177770
