VERSION 0.7
FIELDS x y z rgba
SIZE 4 4 4 4
TYPE F F F U
COUNT 1 1 1 1
WIDTH 920
HEIGHT 1
VIEWPOINT 0.0 0.0 0.0 1.0 0.0 0.0 0.0
POINTS 920
DATA ascii
-0.3340345323 -0.1264990121 0.5006435513 4281884077
-0.3340965509 -0.1259661466 0.5007364750 4282213042
-0.3319849372 -0.1246171594 0.4975716472 4282607541
-0.3347633183 -0.1251026094 0.5017358661 4281883818
-0.3348247409 -0.1245680004 0.5018278956 4282278058
-0.3348858953 -0.1240330860 0.5019195676 4284646606
-0.3354905546 -0.1236983612 0.5028257966 4285764309
-0.3328321278 -0.1221639290 0.4988414049 4285895895
-0.3356118798 -0.1226253361 0.5030076504 4286093014
-0.3356721699 -0.1220883951 0.5030980110 4284382396
-0.3357322514 -0.1215511560 0.5031880140 4283394733
-0.3357920349 -0.1210136339 0.5032776594 4283526319
-0.3353072703 -0.1202805638 0.5025510788 4283789241
-0.3353665173 -0.1197433397 0.5026398897 4283657655
-0.3354254961 -0.1192058325 0.5027282834 4283393969
-0.3360288441 -0.1188606843 0.5036325455 4283262383
-0.3360874355 -0.1183217391 0.5037203431 4282670761
-0.3361457586 -0.1177825108 0.5038077831 4282604968
-0.3367487490 -0.1174330190 0.5047115684 4282671020
-0.3368067145 -0.1168923602 0.5047984123 4282736813
-0.3374094665 -0.1165396869 0.5057018399 4282605740
-0.3374670148 -0.1159975976 0.5057880878 4282276775
-0.3375242949 -0.1154552251 0.5058739185 4281488029
-0.3375813365 -0.1149125770 0.5059593916 4282145959
-0.3376381397 -0.1143696606 0.5060445070 4282343851
-0.3382402360 -0.1140103564 0.5069469213 4282343851
-0.3377509713 -0.1132830009 0.5062136650 4281093269
-0.3383527398 -0.1129213944 0.5071155429 4281488027
-0.3384086192 -0.1123765036 0.5071992874 4282079649
-0.3384642303 -0.1118313521 0.5072826743 4281553305
-0.3390656114 -0.1114654168 0.5081840158 4282275486
-0.3396669030 -0.1110974625 0.5090851784 4284512448
-0.3397219479 -0.1105497479 0.5091677308 4286091472
-0.3392304778 -0.1098249108 0.5084310770 4285762507
-0.3392849267 -0.1092775390 0.5085126758 4285630917
-0.3393391073 -0.1087299138 0.5085939169 4286157261
-0.3388465345 -0.1080078110 0.5078556538 4285763018
-0.3394467235 -0.1076338664 0.5087552071 4284973502
-0.3362199664 -0.1060508117 0.5039190054 4285499594
-0.3390065432 -0.1063652262 0.5080954432 4285104836
-0.3390593529 -0.1058171839 0.5081746578 4285630151
-0.3396588862 -0.1054386720 0.5090731978 4285959116
-0.3397112787 -0.1048892364 0.5091517568 4286156745
-0.3403105438 -0.1045075655 0.5100498796 4285893573
-0.3403625190 -0.1039567366 0.5101277828 4285302718
-0.3398669362 -0.1032394022 0.5093849897 4284776374
-0.3399183154 -0.1026889607 0.5094619989 4285038782
-0.3399693966 -0.1021382660 0.5095385909 4285565126
-0.3400202394 -0.1015873179 0.5096148252 4284775092
-0.3400708437 -0.1010361314 0.5096906424 4285630401
-0.3395734727 -0.1003228873 0.5089451671 4285696194
-0.3396234512 -0.0997720957 0.5090200901 4285104057
-0.3402210474 -0.0993810967 0.5099157095 4284446904
-0.3402705789 -0.0988289341 0.5099899769 4284973248
-0.3408678770 -0.0984347835 0.5108851790 4284579522
-0.3409169614 -0.0978812501 0.5109587908 4283921592
-0.3409658074 -0.0973274782 0.5110319853 4283723962
-0.3410143852 -0.0967734680 0.5111047626 4283592376
-0.3416110277 -0.0963739157 0.5119990110 4283592124
-0.3416591287 -0.0958185419 0.5120711327 4283789503
-0.3389645517 -0.0944983885 0.5080325603 4283855809
-0.3384632170 -0.0937949941 0.5072811246 4284250567
-0.3418019116 -0.0941510275 0.5122851133 4283923147
-0.3418489695 -0.0935947299 0.5123556256 4282936252
-0.3418957591 -0.0930382013 0.5124257803 4281883564
-0.3413934410 -0.0923329964 0.5116729140 4281620392
-0.3430864215 -0.0922195613 0.5142103434 4282015153
-0.3414855301 -0.0912205875 0.5118109584 4282146739
-0.3409821093 -0.0905182883 0.5110564232 4282080954
-0.3404782712 -0.0898175538 0.5103012323 4282278333
-0.3399739861 -0.0891183913 0.5095455050 4282081213
-0.3405679464 -0.0887069479 0.5104356408 4281949627
-0.3411617577 -0.0882935002 0.5113256574 4281226158
-0.3412059844 -0.0877367556 0.5113919377 4281226158
-0.3412499726 -0.0871797949 0.5114578605 4281489330
-0.3418432474 -0.0867621079 0.5123471022 4281818295
-0.3418867588 -0.0862038285 0.5124122500 4281753018
-0.3424797356 -0.0857830197 0.5133010149 4281292467
-0.3430725634 -0.0853602141 0.5141895413 4280698788
-0.3431153893 -0.0847994983 0.5142537355 4278659205
-0.3434228003 -0.1440193206 0.5155727267 4281156730
-0.3414016366 -0.1420327872 0.5125383735 4279710842
-0.3382288516 -0.1401486397 0.5077751279 4279513463
-0.3366757333 -0.1389435083 0.5054435134 4279382653
-0.3351217508 -0.1377432048 0.5031105280 4279316860
-0.3346481323 -0.1369903386 0.5023995042 4279712645
-0.3336333334 -0.1360184103 0.5008760095 4280304782
-0.3336995542 -0.1354887933 0.5009754300 4280436118
-0.3343065083 -0.1351775825 0.5018866062 4280238739
-0.3332902491 -0.1342107356 0.5003609657 4280238740
-0.3333556652 -0.1336810291 0.5004591942 4280304533
-0.3328796029 -0.1329348534 0.4997444451 4280436119
-0.3324030638 -0.1321900934 0.4990290403 4280370326
-0.3319261074 -0.1314467639 0.4983129799 4280107153
-0.3319902718 -0.1309183985 0.4984093010 4280238739
-0.3315125108 -0.1301770359 0.4976920784 4280304786
-0.3310343325 -0.1294370741 0.4969741702 4280436372
-0.3310975730 -0.1289095432 0.4970691502 4280633749
-0.3311606050 -0.1283816844 0.4971637428 4281094300
-0.3312233984 -0.1278535426 0.4972580075 4282081193
-0.3312859535 -0.1273251027 0.4973519444 4282607537
-0.3313482702 -0.1267963499 0.4974454939 4282279348
-0.3314103484 -0.1262672991 0.4975386858 4281818797
-0.3314721882 -0.1257379651 0.4976315498 4280897182
-0.3315337896 -0.1252083331 0.4977240264 4280634010
-0.3321378827 -0.1248824522 0.4986309111 4281423014
-0.3321991265 -0.1243513599 0.4987228513 4281686186
-0.3322601020 -0.1238199770 0.4988144338 4282014636
-0.3301488459 -0.1224824861 0.4956448078 4282869945
-0.3302089572 -0.1219539940 0.4957350791 4284777677
-0.3329848647 -0.1224237755 0.4999024868 4285896158
-0.3325017095 -0.1216915175 0.4991771281 4285829848
-0.3325614929 -0.1211586818 0.4992668927 4284645574
-0.3326210678 -0.1206255555 0.4993562996 4284250559
-0.3326803744 -0.1200921461 0.4994453490 4284118973
-0.3321957588 -0.1193630993 0.4987177849 4284513477
-0.3322544694 -0.1188299954 0.4988059700 4285105614
-0.3323129714 -0.1182966083 0.4988937676 4284975060
-0.3323712051 -0.1177629381 0.4989812374 4284843474
-0.3324292302 -0.1172289848 0.4990683198 4284843474
-0.3324869871 -0.1166947633 0.4991550148 4284580302
-0.3330887556 -0.1163503677 0.5000584722 4284316358
-0.3331461251 -0.1158147082 0.5001446009 4284250565
-0.3337477148 -0.1154671386 0.5010477304 4284381892
-0.3343492150 -0.1151175424 0.5019507408 4284250306
-0.3344060183 -0.1145793051 0.5020360351 4283987133
-0.3344626129 -0.1140407994 0.5021209717 4283987133
-0.3345189095 -0.1135020182 0.5022054911 4283263923
-0.3345749974 -0.1129629612 0.5022897124 4283198130
-0.3351758122 -0.1126067340 0.5031917095 4282671784
-0.3352314830 -0.1120662615 0.5032752752 4283066542
-0.3352869153 -0.1115255207 0.5033584833 4283132078
-0.3353420794 -0.1109845117 0.5034412742 4282934699
-0.3359423578 -0.1106228158 0.5043424964 4282671014
-0.3359971046 -0.1100803986 0.5044246912 4284118460
-0.3360516131 -0.1095377132 0.5045065284 4285170629
-0.3361058533 -0.1089947596 0.5045879483 4284907457
-0.3356141448 -0.1082754880 0.5038497448 4284578744
-0.3356677890 -0.1077328995 0.5039303303 4284315572
-0.3357211947 -0.1071900502 0.5040104985 4283789744
-0.3363203406 -0.1068203524 0.5049099326 4283658158
-0.3330969512 -0.1052409410 0.5000707507 4283394733
-0.3358798921 -0.1055599526 0.5042487383 4283526319
-0.3359322846 -0.1050160751 0.5043274164 4283262120
-0.3365307450 -0.1046418101 0.5052258372 4282538397
-0.3365827203 -0.1040965393 0.5053038597 4283064994
-0.3371809125 -0.1037191227 0.5062019229 4283525545
-0.3366858959 -0.1030052453 0.5054587126 4283591849
-0.3367370963 -0.1024592295 0.5055356026 4283328677
-0.3367880285 -0.1019129530 0.5056120753 4283854767
-0.3362919092 -0.1012018844 0.5048672557 4284446904
-0.3363422453 -0.1006560028 0.5049428344 4283722922
-0.3363923430 -0.1001098827 0.5050180554 4284578231
-0.3364421725 -0.0995635167 0.5050928593 4284644283
-0.3359445930 -0.0988559052 0.5043458343 4284315318
-0.3359938264 -0.0983099490 0.5044197440 4283132074
-0.3360427916 -0.0977637544 0.5044932961 4282605730
-0.3371862769 -0.0975339860 0.5062099695 4282080417
-0.3372348845 -0.0969855264 0.5062829256 4281619866
-0.3372832537 -0.0964368358 0.5063555241 4281817504
-0.3373313546 -0.0958879143 0.5064277649 4282080676
-0.3379268646 -0.0954935253 0.5073217750 4281949861
-0.3418089151 -0.0960203931 0.5131498575 4282476205
-0.3418568373 -0.0954636261 0.5132218003 4282739634
-0.3386169672 -0.0939940661 0.5083578229 4282213290
-0.3381159008 -0.0932909921 0.5076056123 4281949357
-0.3370663524 -0.0924391747 0.5060299039 4282607287
-0.3382088244 -0.0921883583 0.5077450871 4282804666
-0.3404478133 -0.0922307745 0.5111064315 4282475701
-0.3388490081 -0.0912324339 0.5087062120 4282541243
-0.3388946354 -0.0906794295 0.5087746978 4282870208
-0.3383915424 -0.0899803713 0.5080193877 4282739397
-0.3384365439 -0.0894278213 0.5080869794 4282410432
-0.3384813070 -0.0888750479 0.5081541538 4282015422
-0.3385257721 -0.0883220583 0.5082209110 4281818043
-0.3391187191 -0.0879110992 0.5091111064 4281620662
-0.3391627669 -0.0873567834 0.5091772079 4281357490
-0.3403042555 -0.0870831609 0.5108909011 4280700330
-0.3403478861 -0.0865266100 0.5109564066 4281029295
-0.3409402668 -0.0861085132 0.5118457079 4281424312
-0.3409834206 -0.0855506435 0.5119105577 4281161140
-0.3432229459 -0.0855400264 0.5152726769 4280304030
-0.3432658315 -0.0849781334 0.5153370500 4278790791
-0.3418682516 -0.1441780478 0.5140960813 4285299100
-0.3419381678 -0.1436362267 0.5142012239 4282010748
-0.3393106461 -0.1419655681 0.5102500319 4280431716
-0.3404586613 -0.1418770552 0.5119763613 4279906412
-0.3378292322 -0.1402168572 0.5080223083 4279709033
-0.3362780213 -0.1390111744 0.5056896210 4279578739
-0.3352658153 -0.1380325705 0.5041674972 4279447153
-0.3347929418 -0.1372785121 0.5034563541 4279580030
-0.3343195915 -0.1365258396 0.5027445555 4280106374
-0.3338458240 -0.1357745677 0.5020321012 4280237962
-0.3328312933 -0.1348058581 0.5005064607 4280172169
-0.3318160772 -0.1338402778 0.4989798367 4280172171
-0.3324218094 -0.1335291713 0.4998906851 4280237964
-0.3324868679 -0.1329997927 0.4999885261 4280237962
-0.3320109546 -0.1322546899 0.4992728829 4280172169
-0.3315346241 -0.1315110177 0.4985565543 4280041094
-0.3305168748 -0.1305550784 0.4970261157 4280106887
-0.3305805922 -0.1300279051 0.4971219301 4280106887
-0.3301029205 -0.1292884797 0.4964036047 4280238473
-0.3301660717 -0.1287615597 0.4964985549 4280435854
-0.3296876252 -0.1280241311 0.4957790673 4280699026
-0.3297502100 -0.1274974793 0.4958731830 4281290652
-0.3298125267 -0.1269705296 0.4959669113 4281751203
-0.3298746347 -0.1264432669 0.4960603118 4281686696
-0.3299365044 -0.1259157211 0.4961533248 4281489317
-0.3294562697 -0.1251819879 0.4954311550 4281028769
-0.3295175731 -0.1246547177 0.4955233335 4281028769
-0.3295786083 -0.1241271496 0.4956151545 4281817520
-0.3296394348 -0.1235992908 0.4957066178 4282672829
-0.3297000229 -0.1230711415 0.4957977235 4283264450
-0.3292180002 -0.1223411486 0.4950728714 4283396036
-0.3298204839 -0.1220139712 0.4959788620 4283725252
-0.3293377757 -0.1212851405 0.4952529967 4283988424
-0.3293973207 -0.1207567081 0.4953425229 4283067059
-0.3294566274 -0.1202279851 0.4954316914 4283067059
-0.3295156658 -0.1196989790 0.4955205023 4283724475
-0.3290315270 -0.1189733595 0.4947924614 4283724475
-0.3285469711 -0.1182492077 0.4940637648 4283592635
-0.3291482627 -0.1179156750 0.4949679971 4283197877
-0.3292062581 -0.1173864156 0.4950552285 4283592637
-0.3298073709 -0.1170497015 0.4959591329 4284382153
-0.3298649788 -0.1165190116 0.4960457683 4285632218
-0.3299223483 -0.1159880385 0.4961320460 4286158562
-0.3299794793 -0.1154567897 0.4962179661 4286552801
-0.3305800855 -0.1151145995 0.4971211553 4286552801
-0.3306368291 -0.1145819202 0.4972064793 4286420184
-0.3312372267 -0.1142365560 0.4981093407 4286749149
-0.3307495713 -0.1135157496 0.4973760247 4287603941
-0.3308055699 -0.1129822582 0.4974602461 4287472355
-0.3308613300 -0.1124484986 0.4975440800 4287077597
-0.3314611316 -0.1120985374 0.4984460175 4285695944
-0.3320608437 -0.1117465496 0.4993478954 4284907198
-0.3321160376 -0.1112102196 0.4994308949 4286486230
-0.3327155411 -0.1108550578 0.5003324151 4286683609
-0.3327703476 -0.1103173196 0.5004147887 4286683609
-0.3328248858 -0.1097793132 0.5004968643 4286946527
-0.3328791857 -0.1092410460 0.5005785227 4286814941
-0.3329332471 -0.1087025180 0.5006597638 4286223056
-0.3329870403 -0.1081637219 0.5007407069 4286025677
-0.3330405951 -0.1076246724 0.5008212328 4286814677
-0.3330938816 -0.1070853546 0.5009014010 4286814677
-0.3331469297 -0.1065457836 0.5009811521 4286157265
-0.3331997395 -0.1060059592 0.5010605454 4286354644
-0.3332522810 -0.1054658741 0.5011395812 4285893325
-0.3333045840 -0.1049255356 0.5012181997 4286288083
-0.3306286633 -0.1035307273 0.4971942008 4286155984
-0.3334084153 -0.1038440987 0.5013743639 4285432261
-0.3340057135 -0.1034720689 0.5022725463 4285498052
-0.3335112333 -0.1027616486 0.5015289783 4285958603
-0.3335622549 -0.1022200510 0.5016056895 4286156493
-0.3336130381 -0.1016782075 0.5016820431 4285301184
-0.3331174552 -0.1009705961 0.5009368062 4285630654
-0.3337138295 -0.1005937830 0.5018336177 4286156998
-0.3337638378 -0.1000512019 0.5019088387 4285367999
-0.3338135779 -0.0995083749 0.5019836426 4285960136
-0.3338630795 -0.0989653096 0.5020580888 4286025679
-0.3333658278 -0.0982609168 0.5013102889 4285630921
-0.3334147334 -0.0977182537 0.5013838410 4283788723
-0.3340100348 -0.0973346680 0.5022790432 4282078105
-0.3340585232 -0.0967906415 0.5023519397 4282341795
-0.3341067135 -0.0962463766 0.5024244785 4282802346
-0.3341546655 -0.0957018882 0.5024965405 4282341796
-0.3374842405 -0.0960915983 0.5075035095 4282276003
-0.3353439271 -0.0949218869 0.5042849183 4282539434
-0.3353912532 -0.0943749100 0.5043560863 4282539434
-0.3359855413 -0.0939807668 0.5052497983 4282934707
-0.3360324204 -0.0934324339 0.5053203106 4283790016
-0.3360790610 -0.0928838775 0.5053904057 4285173727
-0.3361254036 -0.0923350900 0.5054601431 4286358001
-0.3383615613 -0.0923840255 0.5088227987 4286884346
-0.3367649317 -0.0913854241 0.5064218640 4286226416
-0.3368105888 -0.0908350646 0.5064904690 4285634029
-0.3368559778 -0.0902844816 0.5065587163 4285370857
-0.3369010985 -0.0897336826 0.5066266060 4284515554
-0.3369459808 -0.0891826525 0.5066940784 4283462866
-0.3369905651 -0.0886314139 0.5067611337 4281950144
-0.3375829160 -0.0882231668 0.5076518655 4281621179
-0.3381751478 -0.0878129154 0.5085424781 4281029297
-0.3398635983 -0.0876834989 0.5110815167 4279976609
-0.3399074674 -0.0871269032 0.5111475587 4279581851
-0.3388544917 -0.0862908289 0.5095640421 4279516058
-0.3405428231 -0.0861517936 0.5121029615 4279516316
-0.3411344290 -0.0857314840 0.5129926205 4279713695
-0.3411773741 -0.0851722360 0.5130571723 4279777940
-0.3417686522 -0.0847488120 0.5139463544 4278659459
-0.3389085233 -0.1420345604 0.5104979873 4280694626
-0.3400552571 -0.1419460326 0.5122252703 4280037995
-0.3374290168 -0.1402850598 0.5082693696 4279972202
-0.3358797133 -0.1390788108 0.5059356689 4279841913
-0.3348687887 -0.1380997598 0.5044128895 4279710327
-0.3343965113 -0.1373453587 0.5037015080 4279842685
-0.3339238167 -0.1365923434 0.5029894710 4280237443
-0.3329111040 -0.1356209219 0.5014640093 4280105600
-0.3318977058 -0.1346526295 0.4999375641 4280039807
-0.3325030208 -0.1343417317 0.5008493066 4279974014
-0.3314886391 -0.1333771050 0.4993213713 4280105600
-0.3315535784 -0.1328483522 0.4994192123 4279908478
-0.3299980164 -0.1316727698 0.4970760345 4279842685
-0.3306023777 -0.1313606203 0.4979864061 4279776892
-0.3306664228 -0.1308326572 0.4980828762 4279645306
-0.3301897943 -0.1300914735 0.4973649681 4279646078
-0.3297127485 -0.1293517053 0.4966463745 4279777664
-0.3292352855 -0.1286133677 0.4959271550 4280105859
-0.3287573457 -0.1278764606 0.4952072501 4280171652
-0.3288198113 -0.1273504496 0.4953013361 4280237446
-0.3288820386 -0.1268241256 0.4953950346 4280500618
-0.3289440274 -0.1262975037 0.4954884350 4280369807
-0.3290057778 -0.1257705837 0.4955814481 4280501393
-0.3285260499 -0.1250373870 0.4948588610 4280567190
-0.3285872340 -0.1245107427 0.4949510098 4280764569
-0.3286481798 -0.1239838079 0.4950428009 4280764314
-0.3287088871 -0.1234565824 0.4951342642 4280830107
-0.3287693560 -0.1229290664 0.4952253401 4281159072
-0.3288296163 -0.1224012524 0.4953160882 4281159072
-0.3278059363 -0.1214715987 0.4937741458 4281093273
-0.3289493620 -0.1213447675 0.4954964817 4281356445
-0.3284668624 -0.1206170544 0.4947696924 4280303753
-0.3285260499 -0.1200889647 0.4948588312 4280961683
-0.3280427754 -0.1193633005 0.4941308796 4282080166
-0.3275590837 -0.1186390892 0.4934022725 4282211752
-0.3276173472 -0.1181118935 0.4934900701 4281816996
-0.3276754022 -0.1175844148 0.4935774803 4281882789
-0.3282757998 -0.1172504649 0.4944818914 4281686699
-0.3283334374 -0.1167215556 0.4945687354 4282344629
-0.3283908665 -0.1161923707 0.4946551919 4282739386
-0.3284480274 -0.1156629026 0.4947413206 4282607800
-0.3285049796 -0.1151331663 0.4948270917 4283133885
-0.3285616636 -0.1146031469 0.4949124753 4282870713
-0.3291612864 -0.1142614111 0.4958156645 4282278058
-0.3286743164 -0.1135423034 0.4950821698 4283199160
-0.3287302852 -0.1130114645 0.4951664507 4283856061
-0.3287859857 -0.1124803647 0.4952503741 4283000752
-0.3288414776 -0.1119489893 0.4953339398 4285237713
-0.3294403255 -0.1116015092 0.4962359965 4283592888
-0.3294954002 -0.1110687181 0.4963189662 4282408614
-0.3295502365 -0.1105356663 0.4964015484 4284842955
-0.3301487267 -0.1101838648 0.4973030686 4283922623
-0.3302031457 -0.1096494049 0.4973850548 4284383174
-0.3302573264 -0.1091146767 0.4974666536 4284775620
-0.3303112686 -0.1085796803 0.4975478947 4283657139
-0.3303649426 -0.1080444306 0.4976287782 4283525551
-0.3304183781 -0.1075089127 0.4977092743 4283986102
-0.3304715753 -0.1069731414 0.4977893829 4284315321
-0.3305245340 -0.1064371094 0.4978691339 4284775872
-0.3305772245 -0.1059008241 0.4979484975 4284315321
-0.3306296468 -0.1053642780 0.4980275035 4283065254
-0.3301370740 -0.1046547815 0.4972855151 4283130534
-0.3290992081 -0.1037749872 0.4957221746 4283788464
-0.3307854831 -0.1037531272 0.4982622266 4284116659
-0.3308369219 -0.1032155678 0.4983397126 4283590315
-0.3308881223 -0.1026777625 0.4984168112 4283327398
-0.3303938508 -0.1019714326 0.4976723194 4283393191
-0.3304444551 -0.1014340222 0.4977485240 4283985328
-0.3304948211 -0.1008963585 0.4978243709 4283787949
-0.3305449188 -0.1003584489 0.4978998303 4283986356
-0.3311402798 -0.0999850184 0.4987966716 4284578493
-0.3311899602 -0.0994457304 0.4988714755 4283855286
-0.3312393725 -0.0989062041 0.4989459217 4283921079
-0.3307427764 -0.0982043892 0.4981978834 4283920827
-0.3313374519 -0.0978264362 0.4990936518 4284183999
-0.3313861191 -0.0972861871 0.4991669357 4283723448
-0.3314345181 -0.0967457071 0.4992398620 4283394483
-0.3314826488 -0.0962049887 0.4993123710 4285433548
-0.3309843540 -0.0955064371 0.4985617995 4286552029
-0.3321244419 -0.0952795595 0.5002790689 4286749149
-0.3354499042 -0.0956721529 0.5052882433 4287143907
-0.3322190940 -0.0941947028 0.5004216433 4287670251
-0.3333590031 -0.0939599946 0.5021387339 4287472872
-0.3339523971 -0.0935683474 0.5030325651 4286749408
-0.3339990675 -0.0930224359 0.5031028390 4285499341
-0.3334987164 -0.0923249424 0.5023491979 4285502950
-0.3340915740 -0.0919299275 0.5032421947 4285568743
-0.3346843123 -0.0915328935 0.5041350126 4284845024
-0.3347299993 -0.0909851864 0.5042038560 4283463371
-0.3347754180 -0.0904372483 0.5042722821 4282607809
-0.3353676796 -0.0900359675 0.5051643848 4282476223
-0.3354126513 -0.0894866884 0.5052320957 4282542536
-0.3360045850 -0.0890822783 0.5061237812 4282739915
-0.3360491097 -0.0885316655 0.5061908364 4281490106
-0.3371881247 -0.0882674158 0.5079064965 4280569004
-0.3377797008 -0.0878569707 0.5087976456 4279976867
-0.3383711576 -0.0874445066 0.5096885562 4279055765
-0.3384149075 -0.0868894383 0.5097544193 4278989972
-0.3384583890 -0.0863341540 0.5098199248 4279384730
-0.3395970464 -0.0860562548 0.5115351081 4279451293
-0.3401879370 -0.0856366530 0.5124251246 4279517086
-0.3407786787 -0.0852150321 0.5133150220 4279514767
-0.3413693011 -0.0847914070 0.5142046213 4278725251
-0.3416650891 -0.1440025419 0.5155125856 4283918996
-0.3390440345 -0.1423294544 0.5115578771 4280892518
-0.3401895463 -0.1422400475 0.5132862926 4279841644
-0.3370282352 -0.1403532326 0.5085164309 4279973230
-0.3354808390 -0.1391464323 0.5061816573 4279776894
-0.3344711661 -0.1381669343 0.5046582222 4279711101
-0.3339995146 -0.1374121904 0.5039466619 4279842687
-0.3335274458 -0.1366588473 0.5032343268 4280171652
-0.3325159848 -0.1356869787 0.5017082691 4279974012
-0.3320429027 -0.1349372864 0.5009944439 4279710840
-0.3315693736 -0.1341890097 0.5002799630 4279710840
-0.3316346407 -0.1336594671 0.5003784895 4279776633
-0.3311603367 -0.1329131424 0.4996628165 4279776635
-0.3312250376 -0.1323838383 0.4997604191 4279776635
-0.3296708465 -0.1312099993 0.4974153936 4279250551
-0.3297347426 -0.1306826621 0.4975118339 4279184758
-0.3292586803 -0.1299419999 0.4967935085 4279185272
-0.3287821412 -0.1292027682 0.4960745275 4279316858
-0.3283051848 -0.1284649670 0.4953548908 4279513722
-0.3283678591 -0.1279390156 0.4954494536 4279579515
-0.3278901279 -0.1272031963 0.4947286248 4279579513
-0.3279522359 -0.1266774982 0.4948223233 4279711099
-0.3280141056 -0.1261515170 0.4949156940 4279908481
-0.3280757368 -0.1256252378 0.4950087070 4279842688
-0.3281371593 -0.1250986457 0.4951013327 4279842436
-0.3276576400 -0.1243665516 0.4943778217 4280039815
-0.3277184665 -0.1238402501 0.4944696128 4280039815
-0.3277790546 -0.1233136579 0.4945610464 4279974022
-0.3278394341 -0.1227867678 0.4946521223 4280171399
-0.3273584545 -0.1220578477 0.4939264357 4280039813
-0.3274182379 -0.1215312555 0.4940166473 4280040836
-0.3274778128 -0.1210043728 0.4941065013 4280106629
-0.3275371194 -0.1204771996 0.4941959977 4279711869
-0.3275961876 -0.1199497432 0.4942851365 4279975041
-0.3271134496 -0.1192246079 0.4935567677 4280172167
-0.3266302943 -0.1185009405 0.4928277433 4280237960
-0.3266884387 -0.1179743782 0.4929155111 4280106378
-0.3267463744 -0.1174475402 0.4930029213 4280632722
-0.3268040717 -0.1169204190 0.4930899739 4280500364
-0.3268615305 -0.1163930148 0.4931766391 4280829329
-0.3269187510 -0.1158653423 0.4932629764 4281093271
-0.3269757032 -0.1153373867 0.4933489263 4281027478
-0.3270324469 -0.1148091555 0.4934345186 4281488542
-0.3270889223 -0.1142806485 0.4935197532 4281488542
-0.3271451890 -0.1137518734 0.4936046302 4280896151
-0.3272011876 -0.1132228225 0.4936891496 4281685667
-0.3272569478 -0.1126935035 0.4937732816 4281816996
-0.3273124695 -0.1121639162 0.4938570559 4280435343
-0.3273677528 -0.1116340533 0.4939404726 4282868912
-0.3274227977 -0.1111039296 0.4940235019 4283526842
-0.3274776042 -0.1105735302 0.4941061735 4282605740
-0.3275321424 -0.1100428700 0.4941884875 4282737326
-0.3275864422 -0.1095119491 0.4942704141 4281882271
-0.3276405036 -0.1089807600 0.4943519831 4282211236
-0.3276943266 -0.1084493101 0.4944331944 4282211502
-0.3277478814 -0.1079175994 0.4945140183 4281290400
-0.3278012276 -0.1073856279 0.4945944846 4281356193
-0.3278542757 -0.1068533957 0.4946745634 4281750951
-0.3284509182 -0.1064972281 0.4955747426 4281816744
-0.3285035789 -0.1059635952 0.4956542253 4282211502
-0.3290999830 -0.1056042612 0.4965540767 4282145191
-0.3291522264 -0.1050692350 0.4966329336 4281092503
-0.3292042315 -0.1045339555 0.4967114031 4281816478
-0.3287117779 -0.1038265303 0.4959683716 4283132338
-0.3287632167 -0.1032916307 0.4960459471 4283395509
-0.3293587863 -0.1029266044 0.4969445765 4283329716
-0.3283208311 -0.1020518392 0.4953784943 4284184512
-0.3294605613 -0.1018537879 0.4970981181 4284447684
-0.3289664090 -0.1011495441 0.4963525534 4285237200
-0.3290165961 -0.1006134003 0.4964282811 4286092509
-0.3296113312 -0.1002427042 0.4973256290 4286751722
-0.3296610713 -0.0997051895 0.4974007010 4287146480
-0.3297105730 -0.0991674289 0.4974753857 4286620394
-0.3297598362 -0.0986294299 0.4975496829 4286620394
-0.3298088312 -0.0980911925 0.4976236224 4286489324
-0.3298575580 -0.0975527093 0.4976971447 4286555117
-0.3304513693 -0.0971743464 0.4985930622 4286489324
-0.3304996789 -0.0966344997 0.4986659586 4287015668
-0.3305477202 -0.0960944146 0.4987384677 4287805438
-0.3305955231 -0.0955540985 0.4988105893 4287608059
-0.3322799206 -0.0954839066 0.5013520718 4287344887
-0.3312360644 -0.0946286544 0.4997770488 4287344887
-0.3312831521 -0.0940867513 0.4998481274 4286818550
-0.3318758607 -0.0936987177 0.5007424355 4286423792
-0.3324684501 -0.0933086723 0.5016365051 4284911068
-0.3325149417 -0.0927642882 0.5017066598 4281753004
-0.3325611949 -0.0922196731 0.5017764568 4279253135
-0.3331533074 -0.0918253735 0.5026698709 4278989963
-0.3337453306 -0.0914290473 0.5035631061 4278529672
-0.3337909281 -0.0908819735 0.5036318898 4278463879
-0.3349290192 -0.0906303674 0.5053490996 4278792592
-0.3338813484 -0.0897871479 0.5037683249 4279055764
-0.3350192010 -0.0895315111 0.5054851770 4279516316
-0.3356105089 -0.0891269073 0.5063773394 4280174246
-0.3362016678 -0.0887202919 0.5072693229 4279647904
-0.3362459838 -0.0881683007 0.5073361397 4279384732
-0.3368368447 -0.0877585560 0.5082276464 4279450525
-0.3374275863 -0.0873467922 0.5091189742 4279055767
-0.3380182087 -0.0869330242 0.5100101233 4279055765
-0.3380616903 -0.0863774717 0.5100756884 4279384730
-0.3386519849 -0.0859605744 0.5109663606 4279318936
-0.3392421305 -0.0855416730 0.5118567944 4279450522
-0.3403793871 -0.0852578208 0.5135727525 4279580810
-0.3409693837 -0.0848339945 0.5144628882 4278659708
-0.3411879838 -0.1446157694 0.5156568885 4284707212
-0.3412579894 -0.1440723985 0.5157626867 4284248731
-0.3386401236 -0.1423985213 0.5118061304 4280827495
-0.3392467201 -0.1420839280 0.5127229691 4279842414
-0.3371645808 -0.1406457275 0.5095761418 4280171379
-0.3350813687 -0.1392140388 0.5064275861 4279909248
-0.3340729475 -0.1382340938 0.5049035549 4279843455
-0.3336019516 -0.1374790072 0.5041916966 4279842688
-0.3331305087 -0.1367253214 0.5034791827 4280171653
-0.3321202993 -0.1357530057 0.5019524097 4280105857
-0.3316478431 -0.1350029856 0.5012383461 4279645306
-0.3311749697 -0.1342543662 0.5005236268 4279777146
-0.3312402070 -0.1337246001 0.5006222725 4279513974
-0.3307665288 -0.1329779327 0.4999063611 4279382134
-0.3302924037 -0.1322326809 0.4991897941 4279184755
-0.3298178315 -0.1314888448 0.4984725416 4279382136
-0.3293428123 -0.1307464391 0.4977546334 4279447929
-0.3294064999 -0.1302185655 0.4978508651 4279447930
-0.3289307058 -0.1294781268 0.4971317649 4279382137
-0.3279151320 -0.1285277307 0.4955968857 4279316341
-0.3279778063 -0.1280015409 0.4956915975 4279382134
-0.3275007010 -0.1272653937 0.4949705303 4279645560
-0.3275627792 -0.1267394722 0.4950643778 4279842939
-0.3276246488 -0.1262132376 0.4951578677 4279579002
-0.3276862800 -0.1256867200 0.4952509999 4279579002
-0.3272077143 -0.1249537170 0.4945277274 4279513210
-0.3272687793 -0.1244274750 0.4946199954 4279447417
-0.3273296058 -0.1239009351 0.4947119355 4279513210
-0.3273901939 -0.1233741045 0.4948034883 4279644796
-0.3274505436 -0.1228469834 0.4948947132 4279711101
-0.3269701898 -0.1221177280 0.4941687584 4279513722
-0.3270299733 -0.1215908974 0.4942590892 4279842939
-0.3270895183 -0.1210637763 0.4943490922 4279185009
-0.3266080916 -0.1203371361 0.4936214387 4279250802
-0.3266670406 -0.1198103130 0.4937105775 4279382388
-0.3261848390 -0.1190857217 0.4929817915 4278987893
-0.3262432218 -0.1185592040 0.4930700362 4279251065
-0.3257602751 -0.1178366616 0.4923400879 4279316862
-0.3258180916 -0.1173104569 0.4924274981 4279316862
-0.3258756697 -0.1167839691 0.4925145209 4278857340
-0.3259330094 -0.1162572056 0.4926011860 4278857340
-0.3259901106 -0.1157301664 0.4926874936 4279515527
-0.3260469735 -0.1152028441 0.4927734435 4279844492
-0.3261036277 -0.1146752536 0.4928590357 4279844752
-0.3261600137 -0.1141473800 0.4929442406 4280042131
-0.3262161314 -0.1136192381 0.4930290878 4279714197
-0.3262720406 -0.1130908281 0.4931135774 4279845783
-0.3263277113 -0.1125621423 0.4931977093 4280108957
-0.3258409798 -0.1118470877 0.4924620688 4279582613
-0.3258960545 -0.1113187447 0.4925453365 4280503202
-0.3259508908 -0.1107901335 0.4926282167 4282213820
-0.3265479505 -0.1104447171 0.4935305417 4281686960
-0.3266023695 -0.1099146903 0.4936128557 4279910549
-0.3266565800 -0.1093844026 0.4936947823 4279318926
-0.3261678517 -0.1086730286 0.4929561019 4279450512
-0.3262214661 -0.1081430987 0.4930371344 4280237194
-0.3262748420 -0.1076129079 0.4931178093 4280500366
-0.3263279796 -0.1070824564 0.4931981266 4280565907
-0.3263808787 -0.1065517440 0.4932780564 4280302735
-0.3264335096 -0.1060207710 0.4933576286 4280236942
-0.3270291686 -0.1056650728 0.4942578375 4280631700
-0.3270813823 -0.1051327065 0.4943368137 4282078885
-0.3276768029 -0.1047738418 0.4952366650 4283921089
-0.3277286291 -0.1042400822 0.4953150153 4285105614
-0.3277802169 -0.1037060693 0.4953929484 4285829337
-0.3278315365 -0.1031718105 0.4954705536 4285961177
-0.3278826177 -0.1026372984 0.4955477417 4285895384
-0.3279334605 -0.1021025330 0.4956245720 4286421728
-0.3279840350 -0.1015675291 0.4957010150 4285895384
-0.3280343711 -0.1010322720 0.4957771003 4284710597
-0.3280844688 -0.1004967690 0.4958527982 4283394737
-0.3286784589 -0.1001267880 0.4967505336 4283461043
-0.3287281096 -0.0995899141 0.4968256056 4283724215
-0.3287775218 -0.0990527868 0.4969002604 4283329716
-0.3288266957 -0.0985154212 0.4969745576 4282869165
-0.3288756013 -0.0979778171 0.4970484674 4282014886
-0.3289242387 -0.0974399745 0.4971220195 4281356956
-0.3295173049 -0.0970623270 0.4980183244 4280962973
-0.3295655251 -0.0965231210 0.4980912209 4281884075
-0.3296135068 -0.0959836692 0.4981637001 4282279611
-0.3296612203 -0.0954439864 0.4982358217 4281292716
-0.3297086656 -0.0949040726 0.4983075559 4280109220
-0.3303009272 -0.0945198983 0.4992026687 4280175013
-0.3303479552 -0.0939786285 0.4992737174 4280702134
-0.3309399188 -0.0935913101 0.5001683831 4281425857
-0.3309864998 -0.0930486843 0.5002388358 4280899776
-0.3310328424 -0.0925058350 0.5003088117 4279254951
-0.3310789168 -0.0919627473 0.5003784895 4278595467
-0.3327612579 -0.0918712690 0.5029211044 4278858639
-0.3338981867 -0.0916244760 0.5046394467 4278858385
-0.3339438736 -0.0910762399 0.5047084689 4278792592
-0.3339892626 -0.0905277804 0.5047770739 4278792593
-0.3340344131 -0.0899790972 0.5048453212 4278595214
-0.3346251845 -0.0895763189 0.5057381392 4278857873
-0.3346698582 -0.0890262946 0.5058056712 4279515803
-0.3352603316 -0.0886203870 0.5066980720 4279252631
-0.3358506560 -0.0882124603 0.5075902939 4279778975
-0.3364408612 -0.0878025219 0.5084823370 4279581851
-0.3370309472 -0.0873905718 0.5093741417 4279252886
-0.3376209140 -0.0869766027 0.5102657676 4279252368
-0.3376643956 -0.0864207819 0.5103314519 4279647126
-0.3382540345 -0.0860036910 0.5112226605 4279976088
-0.3388435245 -0.0855845809 0.5121135712 4280962983
-0.3399794996 -0.0853006020 0.5138304830 4281093530
-0.3405688405 -0.0848765746 0.5147211552 4279185533
-0.3382356167 -0.1424675882 0.5120543242 4280827495
-0.3393785655 -0.1423781514 0.5137846470 4280368243
-0.3367619812 -0.1407139897 0.5098234415 4280631415
-0.3352185190 -0.1395052075 0.5074867606 4280369021
-0.3342114985 -0.1385239512 0.5059622526 4280369021
-0.3332037926 -0.1375458241 0.5044366717 4280368257
-0.3327329755 -0.1367917806 0.5037239194 4280368257
-0.3311864138 -0.1355988979 0.5013825893 4280368255
-0.3323277235 -0.1355071962 0.5031104088 4279973497
-0.3307799697 -0.1343197078 0.5007672310 4280829059
-0.3308452070 -0.1337897032 0.5008659959 4280697473
-0.3303721547 -0.1330427080 0.5001498461 4280566141
-0.3298986554 -0.1322971135 0.4994330406 4279974004
-0.3294247091 -0.1315529495 0.4987155497 4279776625
-0.3289503157 -0.1308102012 0.4979973733 4279974004
-0.3290139735 -0.1302820891 0.4980937541 4279710832
-0.3285388350 -0.1295413226 0.4973743856 4279579246
-0.3280632198 -0.1288019717 0.4966543913 4279513199
-0.3275871873 -0.1280640513 0.4959337115 4279578992
-0.3276495934 -0.1275373399 0.4960281849 4279776118
-0.3271727860 -0.1268014163 0.4953063428 4279710325
-0.3272346258 -0.1262749583 0.4953999817 4279513461
-0.3267570436 -0.1255410463 0.4946769476 4279579254
-0.3268183172 -0.1250148565 0.4947697222 4279644796
-0.3268793523 -0.1244883835 0.4948621392 4279447417
-0.3269401491 -0.1239616126 0.4949541986 4279184504
-0.3270007372 -0.1234345436 0.4950459003 4279316090
-0.3259816468 -0.1225015521 0.4935031235 4279250551
-0.3260415494 -0.1219756454 0.4935938120 4279184758
-0.3261012435 -0.1214494482 0.4936841428 4279185525
-0.3261606693 -0.1209229678 0.4937740862 4279053939
-0.3262198567 -0.1203961968 0.4938637018 4278988146
-0.3257386088 -0.1196706742 0.4931351542 4278856560
-0.3257972300 -0.1191442087 0.4932239056 4278922100
-0.3253152370 -0.1184207425 0.4924941957 4278856307
-0.3253732622 -0.1178945750 0.4925820827 4278922102
-0.3254310787 -0.1173681319 0.4926695824 4278987895
-0.3254886568 -0.1168414056 0.4927567542 4279119992
-0.3255459964 -0.1163144037 0.4928435385 4279054199
-0.3256030977 -0.1157871261 0.4929299951 4279317371
-0.3256599307 -0.1152595654 0.4930160642 4279448957
-0.3257165551 -0.1147317290 0.4931017756 4279317373
-0.3257729411 -0.1142036244 0.4931871295 4279448959
-0.3258290589 -0.1136752367 0.4932720959 4279449477
-0.3258849680 -0.1131465882 0.4933567047 4279252098
-0.3253991902 -0.1124305874 0.4926213026 4279712395
-0.3254545033 -0.1119022667 0.4927050471 4279449223
-0.3255095780 -0.1113736853 0.4927884042 4280370325
-0.3255644143 -0.1108448282 0.4928714335 4280436118
-0.3256189823 -0.1103157103 0.4929540753 4280106639
-0.3256733418 -0.1097863242 0.4930363595 4279646088
-0.3257274330 -0.1092566699 0.4931182563 4278988673
-0.3257813156 -0.1087267548 0.4931997955 4279646603
-0.3258349299 -0.1081965789 0.4932809472 4279578489
-0.3258882761 -0.1076661423 0.4933617711 4279710075
-0.3259414136 -0.1071354449 0.4934421778 4279841923
-0.3259942830 -0.1066044867 0.4935222566 4279644544
-0.3260469437 -0.1060732678 0.4936019182 4279315581
-0.3260993063 -0.1055418029 0.4936812222 4279578753
-0.3261514604 -0.1050100699 0.4937601686 4280960145
-0.3267461360 -0.1046519279 0.4946604371 4282604970
-0.3267978430 -0.1041188091 0.4947387576 4283460530
-0.3268493414 -0.1035854369 0.4948166907 4282999979
-0.3274435997 -0.1032229960 0.4957163632 4283000490
-0.3274946809 -0.1026882306 0.4957936704 4283000490
-0.3275454938 -0.1021532193 0.4958706200 4283197617
-0.3275960684 -0.1016179621 0.4959471822 4283131824
-0.3276464045 -0.1010824516 0.4960233569 4282275488
-0.3276964724 -0.1005467027 0.4960991740 4280170112
-0.3277463019 -0.1000107005 0.4961746037 4278723191
-0.3283394873 -0.0996394232 0.4970726073 4278788984
-0.3283888698 -0.0991020501 0.4971473813 4278657657
-0.3284380138 -0.0985644311 0.4972217977 4278657657
-0.3284869194 -0.0980265737 0.4972958267 4278592634
-0.3285355568 -0.0974884778 0.4973694682 4278790013
-0.3296719790 -0.0972711667 0.4990898669 4278725249
-0.3291761875 -0.0965711921 0.4983392954 4279448972
-0.3297683001 -0.0961902216 0.4992357194 4279844505
-0.3298161030 -0.0956493914 0.4993080497 4279778712
-0.3293192983 -0.0949513838 0.4985559583 4279450522
-0.3299109042 -0.0945670307 0.4994515777 4279121557
-0.3305023909 -0.0941806585 0.5003470778 4278990742
-0.3305492401 -0.0936380103 0.5004179478 4279582879
-0.3305958211 -0.0930951238 0.5004884601 4279517086
-0.3306421340 -0.0925520137 0.5005586147 4278793363
-0.3317777812 -0.0923118293 0.5022778511 4278989710
-0.3318237364 -0.0917664692 0.5023474097 4279121296
-0.3324143589 -0.0913706720 0.5032415986 4279121300
-0.3330048919 -0.0909728631 0.5041355491 4279055507
-0.3330502212 -0.0904250368 0.5042042136 4279187093
-0.3336404562 -0.0900240839 0.5050977468 4279121300
-0.3336853087 -0.0894749165 0.5051656365 4279251855
-0.3342752457 -0.0890708342 0.5060587525 4279580820
-0.3348650336 -0.0886647329 0.5069516301 4279909525
-0.3354547322 -0.0882566199 0.5078443885 4279909525
-0.3360442817 -0.0878464878 0.5087369084 4279514765
-0.3366337121 -0.0874343365 0.5096292496 4280172695
-0.3372230232 -0.0870201737 0.5105214119 4280698521
-0.3372664750 -0.0864640847 0.5105872154 4282211760
-0.3378554881 -0.0860468000 0.5114788413 4283330235
-0.3384443223 -0.0856274888 0.5123703480 4283922372
-0.3390330672 -0.0852061734 0.5132616162 4282606763
-0.3396216631 -0.0847828388 0.5141527057 4279514492
-0.3398360312 -0.1445279419 0.5153437257 4285956509
-0.3420503736 -0.1448933780 0.5187016726 4284774306
-0.3383667767 -0.1427628696 0.5131157041 4280958312
-0.3368952572 -0.1410067677 0.5108842254 4280565107
-0.3353538215 -0.1397965699 0.5085467100 4280565622
-0.3343481719 -0.1388140023 0.5070216656 4280499829
-0.3333418369 -0.1378345639 0.5054956675 4280630653
-0.3328717649 -0.1370793283 0.5047827959 4280301688
-0.3313272297 -0.1358850300 0.5024405718 4280235891
-0.3319302201 -0.1355730742 0.5033550262 4280301684
-0.3309215903 -0.1346035451 0.5018254519 4282275985
-0.3304496109 -0.1338548064 0.5011097193 4282933915
-0.3299771845 -0.1331074685 0.5003933311 4283328667
-0.3295043111 -0.1323615313 0.4996762276 4282670737
-0.3290309906 -0.1316170245 0.4989584684 4283196564
-0.3285572529 -0.1308739483 0.4982400537 4282867599
-0.3286208808 -0.1303456128 0.4983365536 4281683325
-0.3276084065 -0.1293920279 0.4968011975 4280893809
-0.3282094300 -0.1290764213 0.4977126122 4280630132
-0.3271959722 -0.1281265616 0.4961757660 4280498546
-0.3272583783 -0.1275996119 0.4962703884 4280433274
-0.3267821968 -0.1268633455 0.4955482781 4280170102
-0.3263055682 -0.1261285245 0.4948254824 4279645558
-0.3263670802 -0.1256024092 0.4949187636 4279250800
-0.3264283240 -0.1250759959 0.4950116575 4279184758
-0.3264893591 -0.1245492771 0.4951041937 4279250551
-0.3265501559 -0.1240222752 0.4951964021 4279381885
-0.3266107142 -0.1234949753 0.4952882230 4279447678
-0.3261319697 -0.1227644607 0.4945622385 4279185276
-0.3261919618 -0.1222374514 0.4946532249 4279185276
-0.3257124424 -0.1215089709 0.4939260781 4279316858
-0.3257718682 -0.1209822521 0.4940161705 4279119479
-0.3252916038 -0.1202558130 0.4932878613 4278922612
-0.3253504336 -0.1197293848 0.4933770895 4278725233
-0.3248693943 -0.1190049946 0.4926476181 4278856820
-0.3249276876 -0.1184788793 0.4927359819 4278791027
-0.3249857128 -0.1179524809 0.4928240180 4279185787
-0.3250434995 -0.1174257994 0.4929116666 4278725236
-0.3245610297 -0.1167046502 0.4921800196 4278464120
-0.3246182501 -0.1161782816 0.4922667742 4278727292
-0.3246752620 -0.1156516373 0.4923532009 4278726263
-0.3247320056 -0.1151247174 0.4924392700 4278726263
-0.3247885108 -0.1145975217 0.4925249517 4279185785
-0.3248447776 -0.1140700504 0.4926102757 4279054199
-0.3249008060 -0.1135423034 0.4926952422 4278988408
-0.3249565959 -0.1130142882 0.4927798510 4278988408
-0.3250121474 -0.1124859974 0.4928640723 4278988154
-0.3245265782 -0.1117711514 0.4921277463 4279185533
-0.3251225054 -0.1114286110 0.4930314422 4279448707
-0.3251773417 -0.1108995155 0.4931145906 4279711879
-0.3252319098 -0.1103701517 0.4931973517 4279514502
-0.3252862394 -0.1098405197 0.4932797551 4279382916
-0.3253403306 -0.1093106270 0.4933617711 4279580812
-0.3253941834 -0.1087804660 0.4934434295 4279186054
-0.3254477978 -0.1082500443 0.4935247302 4279120508
-0.3255011439 -0.1077193618 0.4936056435 4279120508
-0.3255542815 -0.1071884185 0.4936861992 4279054979
-0.3256071508 -0.1066572219 0.4937663674 4278989186
-0.3256597519 -0.1061257571 0.4938461781 4278988934
-0.3257121444 -0.1055940390 0.4939256012 4279054727
-0.3257642686 -0.1050620675 0.4940046668 4279449224
-0.3258161545 -0.1045298353 0.4940833449 4279975568
-0.3258678019 -0.1039973572 0.4941616356 4279515268
-0.3264614940 -0.1036367789 0.4950619340 4279317889
-0.3270550966 -0.1032741666 0.4959621131 4279515527
-0.3254787624 -0.1022280157 0.4935716987 4279383941
-0.3271569610 -0.1022038981 0.4961166084 4279318151
-0.3272075355 -0.1016683877 0.4961932898 4279581323
-0.3272578418 -0.1011326313 0.4962695837 4279843984
-0.3273079097 -0.1005966216 0.4963454902 4279317640
-0.3279006183 -0.1002263129 0.4972442985 4278924420
-0.3279502392 -0.0996889323 0.4973195791 4279121799
-0.3279996514 -0.0991513059 0.4973944724 4279319180
-0.3285919130 -0.0987766981 0.4982925951 4279121801
-0.3286408782 -0.0982377008 0.4983668625 4278924422
-0.3286895752 -0.0976984575 0.4984407425 4279056008
-0.3287380338 -0.0971589759 0.4985142350 4279054986
-0.3287862539 -0.0966192558 0.4985873103 4279120779
-0.3293777406 -0.0962381139 0.4994842708 4279384470
-0.3288818896 -0.0955391079 0.4987323582 4278989712
-0.3289293349 -0.0949986875 0.4988043010 4278924178
-0.3289765120 -0.0944580287 0.4988758564 4278924178
-0.3295672834 -0.0940723717 0.4997717440 4279055505
-0.3301579654 -0.0936846957 0.5006674528 4279187091
-0.3302045465 -0.0931415483 0.5007380843 4279318159
-0.3302508295 -0.0925981849 0.5008082986 4279581331
-0.3302969038 -0.0920545831 0.5008781552 4279383952
-0.3308869302 -0.0916615129 0.5017728806 4279318159
-0.3314768374 -0.0912664309 0.5026674271 4279121296
-0.3326109946 -0.0910182968 0.5043873191 4279187089
-0.3326562941 -0.0904702097 0.5044560432 4279449747
-0.3327013552 -0.0899218991 0.5045244098 4279252368
-0.3338353336 -0.0896659121 0.5062440038 4279317386
-0.3344246745 -0.0892607421 0.5071377158 4279580558
-0.3350138962 -0.0888535529 0.5080312490 4280829849
-0.3356029987 -0.0884443447 0.5089246035 4281421986
-0.3356471062 -0.0878904387 0.5089914203 4281619617
-0.3356909454 -0.0873363167 0.5090579391 4283988165
-0.3362795115 -0.0869228616 0.5099504590 4285961436
-0.3368679881 -0.0865073875 0.5108428597 4287408882
-0.3374563158 -0.0860898942 0.5117350221 4286882275
-0.3380445242 -0.0856703892 0.5126270056 4286158552
-0.3386326134 -0.0852488726 0.5135188103 4282146208
-0.3386752009 -0.0846889615 0.5135833621 4278461800
-0.3404985368 -0.1450540274 0.5172195435 4285362570
-0.3432460129 -0.1456451565 0.5213930011 4283457668
-0.3401028216 -0.1437374353 0.5166184306 4281220706
-0.3391008973 -0.1427416801 0.5150964856 4280235879
-0.3375624716 -0.1415243894 0.5127596259 4280762223
-0.3360231519 -0.1403119117 0.5104213953 4280434551
-0.3344829679 -0.1391042620 0.5080818534 4280237172
-0.3334780335 -0.1381235123 0.5065553188 4279975544
-0.3330086768 -0.1373670846 0.5058423877 4279843958
-0.3320025206 -0.1363917142 0.5043140054 4279579503
-0.3315321505 -0.1356389523 0.5035995245 4279645296
-0.3305248022 -0.1346689612 0.5020693541 4281025661
-0.3300534487 -0.1339198798 0.5013533831 4282802072
-0.3295816481 -0.1331721991 0.5006366968 4284444836
-0.3296462893 -0.1326419711 0.5007348657 4284708008
-0.3286367059 -0.1316810995 0.4992013574 4285760173
-0.3281635940 -0.1309376806 0.4984826744 4285431208
-0.3276900351 -0.1301956773 0.4977633357 4285430945
-0.3277533352 -0.1296676546 0.4978594780 4284509843
-0.3278163970 -0.1291393489 0.4979552627 4282996863
-0.3273417056 -0.1283998936 0.4972342253 4283983758
-0.3268665969 -0.1276618689 0.4965125322 4283325577
-0.3274664581 -0.1273434758 0.4974237084 4282009717
-0.3259150386 -0.1261901110 0.4950671196 4281880191
-0.3259765208 -0.1256637573 0.4951604903 4281156468
-0.3265757859 -0.1253436059 0.4960708022 4280762235
-0.3260987997 -0.1246101633 0.4953462183 4280959614
-0.3261595666 -0.1240829229 0.4954385459 4280237186
-0.3262201250 -0.1235553846 0.4955305159 4280171393
-0.3257420063 -0.1228245422 0.4948042631 4279908997
-0.3258019984 -0.1222972944 0.4948953688 4279580032
-0.3258617222 -0.1217697486 0.4949861169 4279383680
-0.3253825307 -0.1210415214 0.4942581952 4279383680
-0.3249028623 -0.1203147471 0.4935296178 4279317887
-0.3249616921 -0.1197880879 0.4936189950 4279449473
-0.3250203133 -0.1192611456 0.4937079847 4279448705
-0.3245395720 -0.1185370088 0.4929777384 4279317119
-0.3245975673 -0.1180103719 0.4930658937 4278987897
-0.3246553540 -0.1174834520 0.4931536615 4278922104
-0.3247129023 -0.1169562489 0.4932410717 4278988924
-0.3242307305 -0.1162353605 0.4925086498 4278988924
-0.3242877126 -0.1157084778 0.4925951958 4279119740
-0.3243444562 -0.1151813194 0.4926813841 4279053947
-0.3244009614 -0.1146538854 0.4927671850 4279053949
-0.3244571984 -0.1141261756 0.4928526580 4279053949
-0.3245132267 -0.1135981902 0.4929377437 4278791294
-0.3245690167 -0.1130699292 0.4930224717 4278659708
-0.3240844011 -0.1123541445 0.4922863543 4278528122
-0.3241395950 -0.1118262187 0.4923701882 4278791294
-0.3241945505 -0.1112980321 0.4924536943 4279251328
-0.3247897029 -0.1109541878 0.4933576882 4279580293
-0.3248442709 -0.1104245856 0.4934405982 4279580545
-0.3248986006 -0.1098947078 0.4935231209 4279777924
-0.3249526620 -0.1093645692 0.4936052561 4279646854
-0.3250065148 -0.1088341698 0.4936870337 4279778440
-0.3250600994 -0.1083035022 0.4937684536 4279581320
-0.3251134455 -0.1077725738 0.4938494861 4279252355
-0.3251665533 -0.1072413921 0.4939301610 4279055491
-0.3252194226 -0.1067099422 0.4940104485 4278923905
-0.3247308135 -0.1060015634 0.4932682514 4278922879
-0.3253243864 -0.1056462750 0.4941699207 4278791293
-0.3253765106 -0.1051140502 0.4942490757 4279514241
-0.3254283965 -0.1045815721 0.4943278730 4280040585
-0.3249384463 -0.1038757190 0.4935836792 4280105860
-0.3249897361 -0.1033436209 0.4936615825 4280171653
-0.3255825341 -0.1029826328 0.4945620298 4280106376
-0.3256334066 -0.1024491414 0.4946393073 4279974790
-0.3256840408 -0.1019154117 0.4947162271 4280172177
-0.3262764215 -0.1015501171 0.4956160486 4280106384
-0.3268687129 -0.1011827961 0.4965157509 4279448974
-0.3269187808 -0.1006465405 0.4965917766 4279712146
-0.3269685805 -0.1001100391 0.4966674149 4279056269
-0.3270181119 -0.0995732918 0.4967426956 4279451027
-0.3270674348 -0.0990363061 0.4968175888 4279582613
-0.3276589513 -0.0986624211 0.4977161288 4279253648
-0.3277078271 -0.0981240571 0.4977903664 4279318158
-0.3277564645 -0.0975854546 0.4978642166 4278923400
-0.3283475339 -0.0972072855 0.4987621009 4279316618
-0.3283957541 -0.0966673121 0.4988353252 4279119239
-0.3284436762 -0.0961271003 0.4989081323 4279448974
-0.3284913599 -0.0955866575 0.4989805818 4279383181
-0.3285388052 -0.0950459763 0.4990526140 4279055756
-0.3285859823 -0.0945050642 0.4991242886 4279055756
-0.3291760981 -0.0941192284 0.5000206828 4278859920
-0.3297660947 -0.0937313735 0.5009168983 4278794127
-0.3298126757 -0.0931879729 0.5009876490 4278990999
-0.3298589587 -0.0926443413 0.5010579824 4279319964
-0.3299050033 -0.0921004862 0.5011278987 4279255956
-0.3310379684 -0.0918580741 0.5028488636 4279321749
-0.3321709335 -0.0916118398 0.5045698285 4279583391
-0.3327602148 -0.0912127644 0.5054649711 4279649184
-0.3328056037 -0.0906635150 0.5055339336 4280831649
-0.3328507245 -0.0901140496 0.5056024790 4282147509
-0.3328955770 -0.0895643532 0.5056706071 4283986630
-0.3334842026 -0.0891598910 0.5065647364 4283855044
-0.3340726793 -0.0887534022 0.5074586272 4285959108
-0.3346610665 -0.0883449018 0.5083523989 4286419659
-0.3347050846 -0.0877916366 0.5084192753 4286352824
-0.3352931440 -0.0873799995 0.5093125105 4288787165
-0.3358810842 -0.0869663432 0.5102056265 4289378778
-0.3364689052 -0.0865506753 0.5110985041 4289707743
-0.3376010954 -0.0862721354 0.5128183365 4288983015
-0.3387762308 -0.0854289085 0.5146033168 4280498798
-0.3393635750 -0.0850042701 0.5154955387 4278788180
-0.3465052247 -0.1478623450 0.5272332430 4283389291
-0.3417629898 -0.1452609599 0.5200176239 4281944427
-0.3382264972 -0.1420424283 0.5146365762 4280235879
-0.3366893232 -0.1408276707 0.5122976303 4279842669
-0.3346158862 -0.1393947154 0.5091427565 4279974255
-0.3336123228 -0.1384126544 0.5076157451 4279777133
-0.3331437111 -0.1376550198 0.5069026947 4279513961
-0.3310675323 -0.1362374425 0.5037436485 4279776876
-0.3322051466 -0.1361439675 0.5054745674 4279579497
