VERSION 0.7
FIELDS x y z rgba
SIZE 4 4 4 4
TYPE F F F U
COUNT 1 1 1 1
WIDTH 920
HEIGHT 1
VIEWPOINT 0.0 0.0 0.0 1.0 0.0 0.0 0.0
POINTS 920
DATA ascii
-0.3339137733 -0.1222232357 0.5488889217 4282070303
-0.3344825208 -0.1218205094 0.5498238206 4281938974
-0.3350511491 -0.1214156821 0.5507585406 4282004767
-0.3351088464 -0.1208245605 0.5508534312 4282004767
-0.3356772363 -0.1204164103 0.5517877340 4281938974
-0.3362455368 -0.1200061589 0.5527218580 4281873951
-0.3368137181 -0.1195937991 0.5536558628 4281676572
-0.3373818398 -0.1191793308 0.5545897484 4281413400
-0.3379498422 -0.1187627539 0.5555234551 4281281814
-0.3380064368 -0.1181653067 0.5556164384 4281150228
-0.3385741711 -0.1177454144 0.5565496683 4280689677
-0.3391418159 -0.1173234209 0.5574827790 4280755470
-0.3397093415 -0.1168993190 0.5584157109 4280755470
-0.3402768075 -0.1164731085 0.5593484640 4280689677
-0.3408441246 -0.1160447896 0.5602810979 4280623884
-0.3408994973 -0.1154410318 0.5603721142 4280689677
-0.3414665461 -0.1150094047 0.5613042116 4280623884
-0.3415214717 -0.1144041568 0.5613945127 4280623886
-0.3415761292 -0.1137986109 0.5614843369 4280821265
-0.3416304886 -0.1131927744 0.5615736842 4280755722
-0.3411723077 -0.1124178544 0.5608205199 4280821515
-0.3402013481 -0.1114765778 0.5592244864 4281018894
-0.3392297924 -0.1105386615 0.5576274395 4281282066
-0.3387701511 -0.1097701639 0.5568718910 4281545236
-0.3377974927 -0.1088380516 0.5552729964 4281939994
-0.3368242681 -0.1079092994 0.5536732078 4282203419
-0.3363631666 -0.1071472540 0.5529152751 4282203419
-0.3359016478 -0.1063867509 0.5521566272 4282202647
-0.3354397118 -0.1056278050 0.5513972640 4282465819
-0.3349773586 -0.1048704088 0.5506372452 4282860830
-0.3350276351 -0.1042742580 0.5507198572 4282466072
-0.3345644772 -0.1035190672 0.5499585271 4282202898
-0.3346141279 -0.1029232964 0.5500401855 4282268691
-0.3346635103 -0.1023272574 0.5501213074 4282268691
-0.3352259696 -0.1018869877 0.5510458946 4282466070
-0.3352748752 -0.1012895107 0.5511263013 4282795038
-0.3358370066 -0.1008459702 0.5520503521 4281479178
-0.3358854353 -0.1002470553 0.5521299839 4281939726
-0.3364472687 -0.0998002514 0.5530534983 4282729242
-0.3364952207 -0.0991999060 0.5531322956 4281611278
-0.3370566964 -0.0987498388 0.5540552735 4282203415
-0.3376180530 -0.0982976854 0.5549780130 4282927669
-0.3386932313 -0.0979921371 0.5567454100 4284046150
-0.3387403488 -0.0973871052 0.5568228960 4284046168
-0.3387872279 -0.0967818201 0.5568999052 4285625200
-0.3368541598 -0.1623551100 0.5547351241 4283517998
-0.3379366398 -0.1622584909 0.5565177798 4283386412
-0.3375080824 -0.1614351869 0.5558120012 4283255078
-0.3395983279 -0.1618136168 0.5592542887 4283320871
-0.3391694129 -0.1609886438 0.5585479140 4283386662
-0.3387400210 -0.1601650417 0.5578408241 4283386662
-0.3383101821 -0.1593427807 0.5571328998 4283189283
-0.3378798664 -0.1585218906 0.5564243197 4282991904
-0.3369446993 -0.1574666202 0.5548842549 4282794527
-0.3365133703 -0.1566493213 0.5541739464 4282794527
-0.3355769515 -0.1555993855 0.5526317954 4282925600
-0.3361540735 -0.1552519202 0.5535822511 4283057186
-0.3352166414 -0.1542056054 0.5520384312 4283188770
-0.3352884352 -0.1536251456 0.5521566868 4283188770
-0.3348549306 -0.1528138220 0.5514427423 4283122977
-0.3344209492 -0.1520038843 0.5507280827 4282991391
-0.3339865506 -0.1511953324 0.5500127077 4282859807
-0.3335516751 -0.1503881514 0.5492965579 4282794014
-0.3336218297 -0.1498093456 0.5494120717 4282794273
-0.3331861496 -0.1490040720 0.5486946106 4282531101
-0.3322443366 -0.1479749680 0.5471435785 4282399518
-0.3318076432 -0.1471733600 0.5464244485 4282333725
-0.3313705027 -0.1463731527 0.5457046032 4282070301
-0.3309329152 -0.1455743462 0.5449839830 4281807129
-0.3304948807 -0.1447769403 0.5442625880 4281807131
-0.3300563991 -0.1439809501 0.5435404778 4281807131
-0.3296174705 -0.1431863606 0.5428176522 4281741084
-0.3291780651 -0.1423931867 0.5420940518 4281741084
-0.3292447627 -0.1418196112 0.5422039032 4281675805
-0.3288046122 -0.1410283893 0.5414790511 4281610012
-0.3288707137 -0.1404549927 0.5415878892 4281544218
-0.3289365768 -0.1398812681 0.5416963696 4281412632
-0.3284952641 -0.1390925497 0.5409696102 4281346580
-0.3285605609 -0.1385190040 0.5410771370 4281280787
-0.3286255896 -0.1379451305 0.5411842465 4281281046
-0.3286903799 -0.1373709142 0.5412909389 4281215253
-0.3282475770 -0.1365852654 0.5405617356 4281215253
-0.3283118010 -0.1360112578 0.5406674743 4281281046
-0.3283757567 -0.1354369074 0.5407727957 4281215253
-0.3279318213 -0.1346537918 0.5400417447 4281215253
-0.3279951811 -0.1340796649 0.5401461124 4281084182
-0.3275504708 -0.1332985461 0.5394137502 4281018389
-0.3276132643 -0.1327246577 0.5395171046 4280689426
-0.3266597390 -0.1317406595 0.5379468203 4280557840
-0.3262137175 -0.1309639066 0.5372123122 4280492047
-0.3257672489 -0.1301885992 0.5364770889 4280492047
-0.3237953782 -0.1288081110 0.5332298279 4280492047
-0.3218225241 -0.1274344474 0.5299808979 4280426254
-0.3213741779 -0.1266688854 0.5292425156 4280294668
-0.3214339912 -0.1261043251 0.5293409824 4280228875
-0.3240370154 -0.1265326291 0.5336276889 4280360972
-0.3215528429 -0.1249742508 0.5295367837 4280887316
-0.3221208155 -0.1246055961 0.5304720998 4281282073
-0.3237066567 -0.1246267483 0.5330836773 4281347866
-0.3252927959 -0.1246422157 0.5356957316 4281610781
-0.3253517747 -0.1240695119 0.5357928276 4281742367
-0.3284659982 -0.1246560887 0.5409213901 4281611039
-0.3295436800 -0.1244621128 0.5426961780 4281413660
-0.3301120698 -0.1240727678 0.5436322093 4281676319
-0.3301708698 -0.1234907433 0.5437290072 4281676319
-0.3312486112 -0.1232877523 0.5455038548 4281873183
-0.3323265016 -0.1230808571 0.5472789407 4281938976
-0.3328946531 -0.1226821765 0.5482145548 4282004769
-0.3334627450 -0.1222813949 0.5491501093 4282004769
-0.3340307474 -0.1218784973 0.5500855446 4281808160
-0.3340886235 -0.1212883219 0.5501807928 4281873953
-0.3346563876 -0.1208821088 0.5511158109 4282005021
-0.3352240324 -0.1204737946 0.5520506501 4281939228
-0.3357916176 -0.1200633645 0.5529853106 4282005021
-0.3358486891 -0.1194692627 0.5530793071 4281807642
-0.3364160061 -0.1190555170 0.5540136099 4281412630
-0.3369832337 -0.1186396629 0.5549476743 4281281044
-0.3375503421 -0.1182217076 0.5558816195 4281083665
-0.3381173909 -0.1178016365 0.5568154454 4280688907
-0.3381734788 -0.1172024161 0.5569077730 4280623884
-0.3387402296 -0.1167790368 0.5578411222 4280689677
-0.3393068612 -0.1163535491 0.5587742925 4280623886
-0.3398734033 -0.1159259453 0.5597072840 4280623886
-0.3404398561 -0.1154962406 0.5606400967 4280623886
-0.3410061896 -0.1150644273 0.5615727305 4280623886
-0.3410610855 -0.1144589037 0.5616631508 4280623886
-0.3411157131 -0.1138530821 0.5617530942 4280689679
-0.3406585753 -0.1130771935 0.5610002875 4280754954
-0.3402009904 -0.1123028323 0.5602467060 4280820747
-0.3397429585 -0.1115299985 0.5594924092 4281018124
-0.3387727737 -0.1105916426 0.5578947067 4281281296
-0.3378019631 -0.1096566468 0.5562959909 4281610259
-0.3373425007 -0.1088902503 0.5555393100 4282070810
-0.3363706172 -0.1079610735 0.5539388061 4282531614
-0.3359102011 -0.1071986705 0.5531806350 4282728993
-0.3349372149 -0.1062753275 0.5515782833 4282729244
-0.3344758749 -0.1055169404 0.5508185625 4282860830
-0.3345263898 -0.1049207821 0.5509017110 4282861082
-0.3340642750 -0.1041646004 0.5501407385 4282334738
-0.3341141641 -0.1035688221 0.5502228737 4281874185
-0.3341637850 -0.1029727757 0.5503045917 4281874185
-0.3342131376 -0.1023764685 0.5503858924 4282137355
-0.3347749114 -0.1019359976 0.5513110161 4282532113
-0.3348237872 -0.1013382524 0.5513914824 4282926623
-0.3353852332 -0.1008945107 0.5523160696 4282137107
-0.3354336321 -0.1002953276 0.5523958206 4282597910
-0.3359947503 -0.0998483151 0.5533198118 4282926875
-0.3360426724 -0.0992477015 0.5533987880 4282071829
-0.3366034627 -0.0987974256 0.5543222427 4283124517
-0.3371641040 -0.0983450636 0.5552455187 4282993462
-0.3382378817 -0.0980393812 0.5570138693 4281414430
-0.3387983143 -0.0975819230 0.5579367876 4280756520
-0.3388452232 -0.0969754457 0.5580140352 4285493616
-0.3280528784 -0.1608082205 0.5412310362 4284243024
-0.3341570497 -0.1631879061 0.5513018966 4283782473
-0.3322220445 -0.1616339386 0.5481094718 4283584571
-0.3353882730 -0.1619447917 0.5533331633 4283517999
-0.3359661400 -0.1616079807 0.5542865992 4283254827
-0.3350348473 -0.1605458558 0.5527501106 4283122977
-0.3376250565 -0.1611681581 0.5570234656 4283122977
-0.3371964395 -0.1603454500 0.5563163757 4283123232
-0.3367674053 -0.1595241129 0.5556084514 4283123232
-0.3368413746 -0.1589417011 0.5557305217 4283057184
-0.3364115059 -0.1581221819 0.5550213456 4282991391
-0.3354774714 -0.1570682079 0.5534803271 4282925600
-0.3355503976 -0.1564872563 0.5536006689 4282859807
-0.3341112733 -0.1552036703 0.5512263179 4282794016
-0.3351914883 -0.1550910324 0.5530085564 4282925602
-0.3342553079 -0.1540451348 0.5514639616 4282728480
-0.3343269527 -0.1534653157 0.5515821576 4282662687
-0.3333896101 -0.1524239182 0.5500357151 4282728480
-0.3339650631 -0.1520748287 0.5509850979 4282728480
-0.3325221241 -0.1508082300 0.5486044884 4282596896
-0.3325923979 -0.1502304226 0.5487204194 4282596896
-0.3321576118 -0.1494251639 0.5480031371 4282662430
-0.3317223787 -0.1486213058 0.5472850800 4282530844
-0.3312866986 -0.1478188336 0.5465663075 4282333725
-0.3308505714 -0.1470177621 0.5458467603 4282202139
-0.3309192061 -0.1464416534 0.5459600091 4282004508
-0.3304822743 -0.1456425041 0.5452391505 4281807129
-0.3300449252 -0.1448447555 0.5445175171 4281741084
-0.3301126063 -0.1442693472 0.5446292162 4281741084
-0.3296744525 -0.1434735358 0.5439063311 4281675292
-0.3292358220 -0.1426791400 0.5431826711 4281675292
-0.3287967741 -0.1418861449 0.5424582958 4281610012
-0.3288631737 -0.1413119882 0.5425679088 4281544219
-0.3284233212 -0.1405209452 0.5418422222 4281412632
-0.3284891844 -0.1399469823 0.5419508219 4281412632
-0.3285547793 -0.1393726617 0.5420590639 4281346580
-0.3281137645 -0.1385841370 0.5413314700 4281214994
-0.3281787932 -0.1380100101 0.5414387584 4280886803
-0.3282435536 -0.1374355555 0.5415456295 4280886803
-0.3283080757 -0.1368607581 0.5416520238 4280952851
-0.3278656006 -0.1360753030 0.5409220457 4280952851
-0.3279295266 -0.1355007142 0.5410275459 4280952851
-0.3279932141 -0.1349257827 0.5411325693 4280887058
-0.3275496066 -0.1341428757 0.5404007435 4280821010
-0.3276126981 -0.1335681826 0.5405048132 4280755217
-0.3271683156 -0.1327872723 0.5397716761 4280492047
-0.3272308111 -0.1322128028 0.5398747921 4280360461
-0.3267856538 -0.1314339191 0.5391402841 4280228877
-0.3263400197 -0.1306564808 0.5384051204 4280163084
-0.3264015913 -0.1300828159 0.5385066867 4280228877
-0.3244320452 -0.1287031621 0.5352572799 4280228877
-0.3239849210 -0.1279318929 0.5345196128 4280228875
-0.3235373497 -0.1271620989 0.5337812304 4280360461
-0.3235973716 -0.1265925169 0.5338802338 4280624144
-0.3256895244 -0.1268139482 0.5373318791 4281150488
-0.3252412081 -0.1260432005 0.5365922451 4281610526
-0.3268256187 -0.1260581166 0.5392062664 4281676319
-0.3279019296 -0.1258721948 0.5409820080 4281807905
-0.3259275556 -0.1245168373 0.5377246141 4282005284
-0.3270035684 -0.1243284941 0.5394998789 4281873698
-0.3285883367 -0.1243287027 0.5421144366 4281544733
-0.3296646476 -0.1241316497 0.5438901782 4281676319
-0.3302322626 -0.1237400323 0.5448266268 4281610526
-0.3307997882 -0.1233463064 0.5457629561 4281741597
-0.3318762481 -0.1231393293 0.5475389361 4281807390
-0.3324436843 -0.1227404848 0.5484751463 4281873183
-0.3325018883 -0.1221524626 0.5485711098 4281938976
-0.3330690861 -0.1217503026 0.5495069027 4281873698
-0.3336362243 -0.1213460267 0.5504425764 4281873698
-0.3342032433 -0.1209396422 0.5513780713 4282005021
-0.3347702026 -0.1205311492 0.5523134470 4281939228
-0.3353370726 -0.1201205403 0.5532487035 4282005021
-0.3353941143 -0.1195261776 0.5533428192 4281807642
-0.3359607160 -0.1191122532 0.5542775989 4281412630
-0.3365272284 -0.1186962277 0.5552122593 4281215251
-0.3370936215 -0.1182780862 0.5561467409 4281083665
-0.3376599550 -0.1178578362 0.5570810437 4280688907
-0.3377160132 -0.1172583476 0.5571735501 4280688909
-0.3382820487 -0.1168347821 0.5581074357 4280820495
-0.3388479948 -0.1164091080 0.5590410829 4280820495
-0.3394138217 -0.1159813255 0.5599746108 4280754702
-0.3399795592 -0.1155514270 0.5609080195 4280754702
-0.3400346041 -0.1149468347 0.5609988570 4280886288
-0.3400894105 -0.1143419445 0.5610892177 4280755472
-0.3401439190 -0.1137367636 0.5611791611 4280689679
-0.3396873474 -0.1129614264 0.5604259372 4280886288
-0.3392303586 -0.1121876165 0.5596719384 4280886288
-0.3382619619 -0.1112473011 0.5580742359 4281083919
-0.3383150697 -0.1106446087 0.5581618547 4281347091
-0.3373456299 -0.1097091809 0.5565624833 4281610259
-0.3368868232 -0.1089424267 0.5558055639 4282005017
-0.3359163105 -0.1080128178 0.5542043447 4282597405
-0.3349452019 -0.1070865840 0.5526021719 4282926370
-0.3344849646 -0.1063262969 0.5518428683 4283123743
-0.3340242803 -0.1055675671 0.5510827899 4283321122
-0.3335631788 -0.1048103869 0.5503220558 4283058200
-0.3336133361 -0.1042146087 0.5504048467 4282334477
-0.3336631954 -0.1036185548 0.5504871011 4281676544
-0.3337128162 -0.1030222401 0.5505689383 4281676544
-0.3337621391 -0.1024256647 0.5506503582 4282071556
-0.3343231976 -0.1019849926 0.5515759587 4282532107
-0.3348841071 -0.1015422344 0.5525013804 4283058207
-0.3349327743 -0.1009430364 0.5525816679 4283058207
-0.3354933858 -0.1004969999 0.5535066128 4283058459
-0.3355415761 -0.0998963639 0.5535861254 4283190045
-0.3361018300 -0.0994470641 0.5545104146 4282466842
-0.3361495733 -0.0988449976 0.5545891523 4281677326
-0.3367094994 -0.0983924270 0.5555129647 4280822293
-0.3382944167 -0.0982354581 0.5581278205 4280164363
-0.3388542235 -0.0977768674 0.5590513945 4280427555
-0.3389011919 -0.0971691906 0.5591288805 4285362030
-0.3245930076 -0.1594043374 0.5365059376 4284965201
-0.3302609921 -0.1609748155 0.5458742976 4283979325
-0.3328455091 -0.1616232991 0.5501461625 4283518774
-0.3324180543 -0.1608052701 0.5494396091 4282927653
-0.3334968984 -0.1607147008 0.5512228012 4282730274
-0.3345759809 -0.1606202871 0.5530063510 4282531353
-0.3301280141 -0.1578786820 0.5456544757 4282465560
-0.3342218101 -0.1592226923 0.5524209738 4282465047
-0.3342955410 -0.1586439162 0.5525428653 4282465047
-0.3343690634 -0.1580647528 0.5526643395 4282333463
-0.3339394033 -0.1572483778 0.5519542098 4282399256
-0.3340123296 -0.1566693187 0.5520747304 4282596894
-0.3335818648 -0.1558548063 0.5513632298 4282531101
-0.3331509531 -0.1550416648 0.5506510139 4282465308
-0.3332229555 -0.1544632316 0.5507699847 4282531101
-0.3327912390 -0.1536519527 0.5500563979 4282465051
-0.3328626454 -0.1530736387 0.5501744747 4282267672
-0.3324301243 -0.1522642523 0.5494595766 4282267672
-0.3319971561 -0.1514562517 0.5487439036 4282267672
-0.3320676386 -0.1508785784 0.5488604307 4282267672
-0.3316338658 -0.1500724554 0.5481434464 4282333465
-0.3306955397 -0.1490405351 0.5465925336 4282333214
-0.3317734003 -0.1489170343 0.5483740568 4282267421
-0.3303298354 -0.1476624608 0.5459880829 4282135833
-0.3303986788 -0.1470864862 0.5461018682 4281938454
-0.3299627602 -0.1462864578 0.5453813672 4281872663
-0.3300310373 -0.1457106471 0.5454941988 4281806870
-0.3295943141 -0.1449125409 0.5447723866 4281675541
-0.3291571438 -0.1441158652 0.5440497994 4281675541
-0.3292244673 -0.1435407400 0.5441610813 4281741849
-0.3287865222 -0.1427459866 0.5434372425 4281610263
-0.3288532794 -0.1421710551 0.5435475111 4281347609
-0.3284145296 -0.1413782537 0.5428223610 4281347609
-0.3284806609 -0.1408035010 0.5429316759 4281347356
-0.3280411363 -0.1400126666 0.5422052145 4281281563
-0.3281067014 -0.1394380927 0.5423135757 4281084186
-0.3281720281 -0.1388631910 0.5424215198 4280952600
-0.3277313411 -0.1380748600 0.5416931510 4280755219
-0.3277961016 -0.1375001520 0.5418002009 4280623633
-0.3278605938 -0.1369251162 0.5419067740 4280755221
-0.3279248476 -0.1363497227 0.5420129895 4280821014
-0.3279888332 -0.1357740164 0.5421187282 4280886807
-0.3275463283 -0.1349893063 0.5413873792 4280952600
-0.3271034062 -0.1342060566 0.5406552553 4280821012
-0.3271664679 -0.1336311102 0.5407595038 4280755219
-0.3272292912 -0.1330558360 0.5408633351 4280492047
-0.3272918463 -0.1324802190 0.5409667492 4280294668
-0.3273541927 -0.1319042891 0.5410697460 4280228877
-0.3269094229 -0.1311247200 0.5403346419 4280228877
-0.3269711733 -0.1305490285 0.5404366851 4280163084
-0.3265256286 -0.1297714859 0.5397002697 4280228877
-0.3260796368 -0.1289954185 0.5389631391 4280557838
-0.3251259923 -0.1280210912 0.5373868942 4280821010
-0.3251863718 -0.1274476647 0.5374866724 4281149460
-0.3272761106 -0.1276656538 0.5409407020 4281544218
-0.3258138299 -0.1264969110 0.5385237932 4282004769
-0.3263811469 -0.1261177808 0.5394614339 4282070562
-0.3279637396 -0.1261270344 0.5420772433 4282004769
-0.3264999688 -0.1249645054 0.5396578908 4282004769
-0.3275747597 -0.1247742996 0.5414343476 4281873183
-0.3281416893 -0.1243876293 0.5423713923 4281544218
-0.3297246695 -0.1243821606 0.5449877977 4281544219
-0.3302916288 -0.1239894778 0.5459249616 4281610012
-0.3308585286 -0.1235946864 0.5468619466 4281741598
-0.3314253390 -0.1231977791 0.5477988124 4281873184
-0.3319920897 -0.1227987632 0.5487355590 4281938977
-0.3320502639 -0.1222104877 0.5488317013 4281938977
-0.3326167464 -0.1218081489 0.5497680306 4281873184
-0.3331831396 -0.1214037016 0.5507042408 4281873184
-0.3327319324 -0.1206282526 0.5499584079 4281939228
-0.3343157172 -0.1205884814 0.5525761843 4281939228
-0.3348818719 -0.1201777011 0.5535119176 4281873951
-0.3349388838 -0.1195830703 0.5536062121 4281808158
-0.3355047703 -0.1191689745 0.5545415282 4281544988
-0.3360705674 -0.1187527627 0.5554766655 4281281816
-0.3366362453 -0.1183344424 0.5564116836 4281149461
-0.3366924822 -0.1177358925 0.5565046668 4280952082
-0.3372579217 -0.1173142493 0.5574392080 4280886035
-0.3378232419 -0.1168905050 0.5583735704 4280951828
-0.3383884430 -0.1164646447 0.5593078136 4280821010
-0.3384438455 -0.1158621833 0.5593994260 4280755217
-0.3390087783 -0.1154330149 0.5603331923 4280886288
-0.3395736217 -0.1150017306 0.5612667203 4281017874
-0.3396283984 -0.1143965721 0.5613572598 4281017872
-0.3396828771 -0.1137911156 0.5614473224 4280952079
-0.3392269909 -0.1130154282 0.5606938004 4280754703
-0.3387706578 -0.1122412682 0.5599395633 4281083668
-0.3378036320 -0.1113005131 0.5583412051 4281280785
-0.3373463452 -0.1105303317 0.5575854182 4281346578
-0.3363782167 -0.1095953807 0.5559852123 4281807632
-0.3359200060 -0.1088291928 0.5552278161 4282333976
-0.3354613483 -0.1080645472 0.5544697642 4282663703
-0.3344916105 -0.1071378887 0.5528669357 4282926875
-0.3335212767 -0.1062145978 0.5512630939 4282992407
-0.3335720301 -0.1056181714 0.5513469577 4283321372
-0.3331116140 -0.1048606485 0.5505859852 4283518491
-0.3331617415 -0.1042645946 0.5506688356 4282860561
-0.3332116008 -0.1036682725 0.5507512093 4282136584
-0.3332611918 -0.1030716896 0.5508332253 4282070791
-0.3333105147 -0.1024748310 0.5509147048 4282071051
-0.3338708282 -0.1020339727 0.5518408418 4282005258
-0.3344310522 -0.1015910134 0.5527667999 4282795037
-0.3344796896 -0.1009915397 0.5528472066 4283255588
-0.3350395858 -0.1005453095 0.5537726283 4282860830
-0.3350877464 -0.0999443978 0.5538522601 4282202900
-0.3356473148 -0.0994948894 0.5547771454 4281808407
-0.3362067342 -0.0990432948 0.5557017922 4280953098
-0.3367660344 -0.0985896066 0.5566262007 4280033038
-0.3373251855 -0.0981338248 0.5575504303 4280625175
-0.3383961618 -0.0978239477 0.5593205690 4281348653
-0.3384431005 -0.0972159877 0.5593981743 4285559405
-0.3282292485 -0.1608826220 0.5435138941 4284307525
-0.3262985647 -0.1593359560 0.5403168797 4283781178
-0.3298814595 -0.1604786068 0.5462498069 4283452213
-0.3309584558 -0.1603936404 0.5480331779 4282795302
-0.3315341175 -0.1600626558 0.5489864349 4282532130
-0.3316080868 -0.1594882607 0.5491088629 4282268958
-0.3311800361 -0.1586730778 0.5484001040 4282137372
-0.3317553103 -0.1583383381 0.5493527055 4282136858
-0.3313265741 -0.1575241238 0.5486427546 4282268444
-0.3313995004 -0.1569490880 0.5487635136 4282070810
-0.3309699595 -0.1561367214 0.5480521917 4281807638
-0.3305399418 -0.1553257406 0.5473401546 4281873431
-0.3301094770 -0.1545161158 0.5466274023 4282005017
-0.3301811516 -0.1539421827 0.5467460155 4282267932
-0.3297498822 -0.1531344354 0.5460318923 4282333725
-0.3303237259 -0.1527931988 0.5469821692 4282267419
-0.3303946853 -0.1522181481 0.5470995903 4282135833
-0.3304653764 -0.1516427249 0.5472167134 4282135833
-0.3305358589 -0.1510669291 0.5473333597 4282135833
-0.3301028609 -0.1502617151 0.5466164351 4282070040
-0.3301727474 -0.1496860683 0.5467321277 4282070040
-0.3297389746 -0.1488827467 0.5460138321 4282136094
-0.3303118050 -0.1485336721 0.5469623804 4282136094
-0.3293737173 -0.1475058496 0.5454090238 4282005021
-0.3294424415 -0.1469305009 0.5455228090 4281873435
-0.3295108974 -0.1463548094 0.5456361771 4281741597
-0.3290751874 -0.1455558389 0.5449146628 4281675804
-0.3291430771 -0.1449803114 0.5450270772 4281610012
-0.3287065625 -0.1441832781 0.5443043113 4281610012
-0.3287738860 -0.1436079144 0.5444157720 4281347356
-0.3283365965 -0.1428128183 0.5436916351 4281281563
-0.3284032941 -0.1422376335 0.5438020825 4281281563
-0.3279651999 -0.1414444894 0.5430766940 4281281563
-0.3280313313 -0.1408694983 0.5431861877 4281281822
-0.3280972242 -0.1402941495 0.5432952642 4281216029
-0.3281628788 -0.1397184581 0.5434039831 4281018650
-0.3277232945 -0.1389283538 0.5426760912 4280887064
-0.3277883530 -0.1383528560 0.5427837968 4280623633
-0.3278531730 -0.1377770305 0.5428911448 4280557840
-0.3279177248 -0.1372008473 0.5429980755 4280755221
-0.3279820681 -0.1366243362 0.5431045890 4280821014
-0.3280461133 -0.1360474825 0.5432106853 4280886807
-0.3276043832 -0.1352615505 0.5424792171 4280886807
-0.3271622062 -0.1344770640 0.5417469740 4280689426
-0.3272253573 -0.1339009851 0.5418515205 4280623633
-0.3272882402 -0.1333245635 0.5419557095 4280623633
-0.3273508847 -0.1327478141 0.5420594215 4280492047
-0.3274132907 -0.1321707368 0.5421627164 4280492049
-0.3274754286 -0.1315933317 0.5422656536 4280623635
-0.3275373280 -0.1310155988 0.5423681736 4280623635
-0.3275989890 -0.1304375231 0.5424702168 4280689428
-0.3271539509 -0.1296584308 0.5417333245 4280952598
-0.3267084956 -0.1288807988 0.5409956574 4281149977
-0.3267692029 -0.1283035427 0.5410962105 4281412632
-0.3268296719 -0.1277259886 0.5411962867 4281741597
-0.3279636204 -0.1269623488 0.5430740714 4282136355
-0.3275165260 -0.1261866987 0.5423337221 4282070563
-0.3280831575 -0.1258013994 0.5432719588 4282136356
-0.3281425536 -0.1252204478 0.5433703065 4282070563
-0.3287089467 -0.1248318180 0.5443082452 4281807391
-0.3292752802 -0.1244410872 0.5452460051 4281807391
-0.3299001753 -0.1234633327 0.5462807417 4282004770
-0.3299585581 -0.1228781193 0.5463774204 4282070563
-0.3305244148 -0.1224807352 0.5473144054 4282202149
-0.3310901821 -0.1220812425 0.5482512712 4282136356
-0.3316558599 -0.1216796413 0.5491880178 4282004770
-0.3317134678 -0.1210904866 0.5492833853 4282004770
-0.3317708373 -0.1205010265 0.5493783951 4281808156
-0.3333524168 -0.1204621568 0.5519973040 4281873949
-0.3339177668 -0.1200521067 0.5529334545 4281939744
-0.3339746892 -0.1194581166 0.5530277491 4281939744
-0.3345397711 -0.1190447435 0.5539634228 4281742367
-0.3351047337 -0.1186292619 0.5548990369 4281544988
-0.3356696367 -0.1182116643 0.5558344126 4281478426
-0.3362344503 -0.1177919582 0.5567696691 4281346840
-0.3367991447 -0.1173701361 0.5577047467 4281281047
-0.3373637497 -0.1169462055 0.5586397052 4281346840
-0.3379282355 -0.1165201589 0.5595744252 4281281816
-0.3379836380 -0.1159174293 0.5596661568 4281216023
-0.3385478556 -0.1154880747 0.5606004596 4281150228
-0.3391119540 -0.1150566041 0.5615345240 4281150228
-0.3391667008 -0.1144511700 0.5616251826 4281281298
-0.3392211795 -0.1138454452 0.5617154241 4281215505
-0.3387659788 -0.1130694002 0.5609616041 4281083665
-0.3383103013 -0.1122948900 0.5602070689 4281412630
-0.3373446465 -0.1113537028 0.5586080551 4281675795
-0.3368880451 -0.1105831712 0.5578519702 4281873174
-0.3359212577 -0.1096477956 0.5562511086 4282202388
-0.3349539042 -0.1087157801 0.5546492338 4282662939
-0.3344958425 -0.1079517007 0.5538907647 4282926360
-0.3340373635 -0.1071891636 0.5531315804 4283123739
-0.3330684006 -0.1062654480 0.5515270233 4282926613
-0.3331191540 -0.1056687534 0.5516110659 4283255578
-0.3331696093 -0.1050717905 0.5516946316 4283584284
-0.3327094913 -0.1043145582 0.5509327054 4283452698
-0.3327593505 -0.1037179679 0.5510152578 4282991893
-0.3328089118 -0.1031211093 0.5510973334 4282531342
-0.3333687186 -0.1026812345 0.5520243049 4282071051
-0.3334178329 -0.1020829305 0.5521056056 4281742086
-0.3339773118 -0.1016397700 0.5530321002 4282005521
-0.3340259492 -0.1010400206 0.5531126261 4282202900
-0.3345851302 -0.1005935892 0.5540385842 4281808143
-0.3346332610 -0.0999924019 0.5541182756 4281413385
-0.3351921141 -0.0995426998 0.5550436974 4281347857
-0.3357508183 -0.0990909040 0.5559688807 4280821513
-0.3363094032 -0.0986370072 0.5568938255 4280295695
-0.3368678689 -0.0981810167 0.5578185320 4281085211
-0.3374261856 -0.0977229401 0.5587430596 4282138169
-0.3374730349 -0.0971156210 0.5588206649 4285822577
-0.3231996596 -0.1593049616 0.5361714959 4288189312
-0.3247743249 -0.1594824940 0.5387837887 4286610280
-0.3268499672 -0.1598992944 0.5422272086 4285097040
-0.3279249966 -0.1598207802 0.5440105796 4283912766
-0.3290002346 -0.1597384065 0.5457943678 4283255086
-0.3290739655 -0.1591676325 0.5459166765 4282860328
-0.3286464512 -0.1583551019 0.5452074409 4282334754
-0.3287195861 -0.1577844471 0.5453287959 4281874203
-0.3267876804 -0.1562547833 0.5421238542 4281939226
-0.3283638656 -0.1564032137 0.5447386503 4282005019
-0.3279347718 -0.1555943787 0.5440267920 4281807640
-0.3275052309 -0.1547868997 0.5433142185 4281478675
-0.3270752132 -0.1539808065 0.5426008701 4281544468
-0.3271465302 -0.1534113735 0.5427191854 4282005019
-0.3272176087 -0.1528415829 0.5428370833 4281938713
-0.3272884488 -0.1522714049 0.5429546237 4282004506
-0.3273590505 -0.1517008692 0.5430717468 4282070042
-0.3274294138 -0.1511299461 0.5431884527 4282070042
-0.3274995685 -0.1505586654 0.5433048010 4282069788
-0.3280718625 -0.1502170712 0.5442542434 4282003995
-0.3281416297 -0.1496441811 0.5443699956 4281938202
-0.3282111585 -0.1490709335 0.5444853306 4282003995
-0.3282804489 -0.1484973133 0.5446003079 4282005021
-0.3283495307 -0.1479233354 0.5447148681 4281873435
-0.3284183443 -0.1473489851 0.5448290110 4281807388
-0.3284869194 -0.1467742920 0.5449427962 4281675802
-0.3280521035 -0.1459753364 0.5442214608 4281544219
-0.3281201124 -0.1454008073 0.5443342924 4281610012
-0.3281878531 -0.1448259056 0.5444467068 4281675551
-0.3282553852 -0.1442506611 0.5445587039 4281609758
-0.3278190792 -0.1434546858 0.5438349247 4281544737
-0.3278860152 -0.1428796202 0.5439459085 4281478944
-0.3274489343 -0.1420855969 0.5432208180 4281478944
-0.3275152743 -0.1415107101 0.5433309078 4281413151
-0.3270774186 -0.1407186389 0.5426045060 4281347356
-0.3276472390 -0.1403598785 0.5435498357 4281281563
-0.3277128637 -0.1397839487 0.5436586738 4281149975
-0.3277782202 -0.1392076612 0.5437670946 4280952596
-0.3273389637 -0.1384177506 0.5430384278 4280623633
-0.3274037540 -0.1378416717 0.5431458950 4280492047
-0.3279728591 -0.1374767572 0.5440900326 4280689428
-0.3280372620 -0.1368991137 0.5441968441 4280821014
-0.3281013966 -0.1363211125 0.5443032384 4280821014
-0.3276604414 -0.1355339587 0.5435717106 4280886807
-0.3272190094 -0.1347482353 0.5428394079 4280821012
-0.3272822201 -0.1341710091 0.5429442525 4280689426
-0.3273451924 -0.1335934550 0.5430487394 4280821012
-0.3274078965 -0.1330155730 0.5431527495 4280821012
-0.3274703622 -0.1324373484 0.5432564020 4281083416
-0.3270271420 -0.1316553205 0.5425211191 4281280795
-0.3270890117 -0.1310773343 0.5426237583 4281280795
-0.3271506429 -0.1304990202 0.5427259803 4281280795
-0.3272120059 -0.1299203783 0.5428277850 4281478172
-0.3272731304 -0.1293414235 0.5429291725 4281675551
-0.3268280625 -0.1285631210 0.5421908498 4281873181
-0.3268885911 -0.1279844046 0.5422912836 4282004767
-0.3269488811 -0.1274053603 0.5423913002 4282202146
-0.3270089030 -0.1268260181 0.5424908400 4282202146
-0.3275749981 -0.1264417619 0.5434299707 4282202148
-0.3266218305 -0.1254718155 0.5418487191 4282267941
-0.3276939690 -0.1252796799 0.5436273217 4282267941
-0.3272464871 -0.1245054230 0.5428850055 4282202148
-0.3278119266 -0.1241163164 0.5438230038 4282202148
-0.3288840353 -0.1239160374 0.5456016064 4282333734
-0.3289425671 -0.1233317778 0.5456987023 4282333734
-0.3295077682 -0.1229363456 0.5466363430 4282333734
-0.3295658827 -0.1223505586 0.5467327237 4282399527
-0.3301308453 -0.1219518036 0.5476699471 4282333734
-0.3306957185 -0.1215509251 0.5486070514 4282202148
-0.3312605023 -0.1211479455 0.5495440364 4282202148
-0.3308104575 -0.1203735992 0.5487974286 4282071582
-0.3323898613 -0.1203356311 0.5514175296 4282071582
-0.3329543769 -0.1199263111 0.5523540974 4282137121
-0.3335188329 -0.1195148751 0.5532904863 4282137121
-0.3340831995 -0.1191013232 0.5542267561 4282071330
-0.3346474767 -0.1186856627 0.5551628470 4281873951
-0.3347037435 -0.1180886924 0.5552561879 4281742367
-0.3352677524 -0.1176697090 0.5561918616 4281544988
-0.3358316422 -0.1172486171 0.5571273565 4281675804
-0.3369036019 -0.1170018837 0.5589056611 4281610011
-0.3369591534 -0.1164000928 0.5589978099 4281544986
-0.3370144367 -0.1157979965 0.5590895414 4281676572
-0.3375778496 -0.1153693646 0.5600242019 4281676570
-0.3381411731 -0.1149386093 0.5609586835 4281808156
-0.3381958008 -0.1143338159 0.5610493422 4282136605
-0.3382501900 -0.1137287319 0.5611395240 4282202398
-0.3377955556 -0.1129532456 0.5603853464 4282268191
-0.3373405039 -0.1121792942 0.5596303940 4282399777
-0.3363761008 -0.1112385839 0.5580305457 4282662687
-0.3359200954 -0.1104686111 0.5572740436 4282662687
-0.3349546194 -0.1095337123 0.5556723475 4282728985
-0.3339885473 -0.1086021885 0.5540696979 4282992157
-0.3330218792 -0.1076740324 0.5524660349 4283255579
-0.3330731988 -0.1070767045 0.5525512099 4283387165
-0.3326148987 -0.1063162833 0.5517908931 4283452957
-0.3321561515 -0.1055574268 0.5510298610 4283387164
-0.3322065175 -0.1049611047 0.5511134267 4283584284
-0.3322566152 -0.1043645069 0.5511965156 4283715870
-0.3323064148 -0.1037676483 0.5512791872 4283518238
-0.3323559761 -0.1031705141 0.5513613820 4282728722
-0.3324052393 -0.1025731191 0.5514431000 4281873161
-0.3329641521 -0.1021318659 0.5523703098 4281478403
-0.3335229456 -0.1016885117 0.5532972813 4281939218
-0.3340815902 -0.1012430564 0.5542240739 4281807632
-0.3341300189 -0.1006418541 0.5543043613 4281347081
-0.3341781497 -0.1000403911 0.5543842316 4281215495
-0.3347362578 -0.0995904878 0.5553101301 4281282064
-0.3352942765 -0.0991384834 0.5562358499 4281084685
-0.3358521461 -0.0986843854 0.5571613312 4280887832
-0.3364098668 -0.0982281938 0.5580865741 4281808934
-0.3369674683 -0.0977699086 0.5590115786 4283059014
-0.3370143175 -0.0971623063 0.5590893030 4286151285
-0.3217536807 -0.1588849872 0.5347580314 4288978574
-0.3233259916 -0.1590643525 0.5373712182 4288649609
-0.3253986239 -0.1594831198 0.5408159494 4288123006
-0.3259720504 -0.1591622233 0.5417689681 4287136111
-0.3265454471 -0.1588392109 0.5427219868 4285952601
-0.3266187012 -0.1582716852 0.5428436995 4284768327
-0.3266916871 -0.1577037871 0.5429650545 4283583792
-0.3247628510 -0.1561729759 0.5397592783 4282531104
-0.3258359730 -0.1560873240 0.5415428281 4281741588
-0.3259080648 -0.1555200368 0.5416626930 4281544209
-0.3249784708 -0.1544763297 0.5401176214 4281675795
-0.3245490193 -0.1536728740 0.5394039154 4281610002
-0.3241191208 -0.1528708041 0.5386894345 4281346830
-0.3241898715 -0.1523055136 0.5388069749 4281478416
-0.3242603540 -0.1517398506 0.5389241576 4281873174
-0.3243306279 -0.1511738151 0.5390409231 4281873174
-0.3244006634 -0.1506074220 0.5391573310 4281872922
-0.3244704604 -0.1500406563 0.5392733216 4281807129
-0.3245400190 -0.1494735181 0.5393889546 4281741338
-0.3251110613 -0.1491361707 0.5403380394 4281675545
-0.3251802623 -0.1485674381 0.5404530764 4281741084
-0.3252492547 -0.1479983330 0.5405676961 4281806877
-0.3253179789 -0.1474288851 0.5406818986 4281807129
-0.3258886039 -0.1470856965 0.5416303277 4281807129
-0.3259569705 -0.1465146393 0.5417439342 4281741338
-0.3260250986 -0.1459432095 0.5418571830 4281675545
-0.3265954554 -0.1455954313 0.5428050756 4281610011
-0.3266632259 -0.1450224221 0.5429177284 4281741597
-0.3262280822 -0.1442268193 0.5421944857 4281741598
-0.3262952268 -0.1436539739 0.5423061252 4281675805
-0.3263621628 -0.1430807710 0.5424174070 4281873184
-0.3264288604 -0.1425072253 0.5425282121 4281938977
-0.3264953196 -0.1419333220 0.5426386595 4281938977
-0.3265615404 -0.1413590759 0.5427487493 4281807391
-0.3266274929 -0.1407844871 0.5428583622 4281741597
-0.3266932368 -0.1402095407 0.5429676175 4281741597
-0.3272621930 -0.1398493946 0.5439132452 4281675804
-0.3273275495 -0.1392728686 0.5440218449 4281544218
-0.3268889487 -0.1384826303 0.5432928801 4281610528
-0.3269537091 -0.1379062980 0.5434005260 4281544735
-0.3275220990 -0.1375412345 0.5443452001 4281610528
-0.3275864720 -0.1369633377 0.5444521904 4281544735
-0.3276505768 -0.1363850981 0.5445587039 4281544735
-0.3277144432 -0.1358065307 0.5446648598 4281610528
-0.3267695308 -0.1348115206 0.5430943966 4281478942
-0.3273370862 -0.1344412118 0.5440376997 4281413149
-0.3268956244 -0.1336562634 0.5433040261 4281346586
-0.3269583285 -0.1330781281 0.5434082150 4281412379
-0.3270207644 -0.1324996501 0.5435119867 4281609758
-0.3270829618 -0.1319208592 0.5436153412 4281807137
-0.3266400397 -0.1311390400 0.5428792238 4281807137
-0.3267016411 -0.1305604875 0.5429815650 4281741344
-0.3267629743 -0.1299815923 0.5430835485 4281873184
-0.3268240988 -0.1294023842 0.5431851149 4282070563
-0.3268849254 -0.1288228482 0.5432862043 4282333986
-0.3264402151 -0.1280447692 0.5425470471 4282465572
-0.3265004456 -0.1274654865 0.5426472425 4282597158
-0.3265604675 -0.1268858761 0.5427469611 4282531365
-0.3266202211 -0.1263059527 0.5428462625 4282531365
-0.3266797066 -0.1257257164 0.5429451466 4282597158
-0.3267389536 -0.1251451522 0.5430436134 4282597156
-0.3267979324 -0.1245642751 0.5431416631 4282597156
-0.3268566728 -0.1239830852 0.5432392955 4282333984
-0.3274212182 -0.1235926151 0.5441775322 4282465570
-0.3279857039 -0.1232000217 0.5451157093 4282531363
-0.3285501003 -0.1228053197 0.5460537672 4282662949
-0.3291144073 -0.1224085018 0.5469916463 4282728742
-0.3291722536 -0.1218221560 0.5470877290 4282728742
-0.3297363222 -0.1214220151 0.5480252504 4282728742
-0.3308069110 -0.1212053746 0.5498045683 4282794535
-0.3313708901 -0.1208001077 0.5507419109 4282729510
-0.3319348097 -0.1203927174 0.5516791344 4282663717
-0.3324986100 -0.1199832261 0.5526162386 4282597926
-0.3330623507 -0.1195716113 0.5535531640 4282597926
-0.3336260021 -0.1191578880 0.5544899106 4282466086
-0.3342458010 -0.1181448102 0.5555200577 4282267939
-0.3343017995 -0.1175472736 0.5556131005 4282070560
-0.3353722692 -0.1173043698 0.5573922396 4282070560
-0.3359353542 -0.1168809831 0.5583280921 4282004767
-0.3364983499 -0.1164554805 0.5592637658 4282070814
-0.3365536034 -0.1158531159 0.5593556166 4282268193
-0.3366085887 -0.1152504608 0.5594470501 4282399775
-0.3371711075 -0.1148204356 0.5603819489 4282662947
-0.3372256458 -0.1142162830 0.5604725480 4282860581
-0.3367719650 -0.1134407297 0.5597185493 4282926374
-0.3368258774 -0.1128369048 0.5598081350 4282597154
-0.3363713920 -0.1120635122 0.5590528250 4282662947
-0.3359164894 -0.1112916544 0.5582967401 4282728734
-0.3349528909 -0.1103538722 0.5566952229 4282597148
-0.3339886963 -0.1094194576 0.5550927520 4282597399
-0.3335323334 -0.1086540446 0.5543342829 4282860571
-0.3325670362 -0.1077254638 0.5527299643 4283255579
-0.3321097493 -0.1069640592 0.5519699454 4283452958
-0.3321607113 -0.1063670963 0.5520546436 4283255578
-0.3317026496 -0.1056078896 0.5512933135 4282795027
-0.3317529857 -0.1050112993 0.5513769984 4282728721
-0.3318030536 -0.1044144332 0.5514602065 4283057686
-0.3313438892 -0.1036580727 0.5506970286 4283189275
-0.3319023848 -0.1032199040 0.5516253114 4282597138
-0.3319516480 -0.1026222333 0.5517071486 4281938956
-0.3325098455 -0.1021807790 0.5526348948 4281675784
-0.3330678940 -0.1017372310 0.5535624027 4282004759
-0.3336258531 -0.1012915745 0.5544896722 4281610001
-0.3336742222 -0.1006901041 0.5545701385 4281215243
-0.3337223530 -0.1000883654 0.5546500683 4281149450
-0.3342797756 -0.0996382535 0.5555765033 4281216273
-0.3348370492 -0.0991860479 0.5565026999 4281084687
-0.3353942037 -0.0987317488 0.5574287176 4281150490
-0.3359512091 -0.0982753485 0.5583544970 4281940006
-0.3365080953 -0.0978168547 0.5592800379 4283322186
-0.3365549147 -0.0972089767 0.5593578219 4286348664
-0.3197379410 -0.1587731242 0.5323905945 4287334527
-0.3203098476 -0.1584645212 0.5333428383 4288386441
-0.3223788440 -0.1588917077 0.5367879272 4288583820
-0.3239493966 -0.1590664685 0.5394030213 4288649098
-0.3245218694 -0.1587471962 0.5403562784 4288583305
-0.3245949745 -0.1581824422 0.5404779315 4288386688
-0.3246678412 -0.1576173007 0.5405992866 4287728758
-0.3237412572 -0.1565685570 0.5390564799 4287990640
-0.3238134384 -0.1560043991 0.5391766429 4287003745
-0.3233855963 -0.1551999897 0.5384642482 4285951312
-0.3224573433 -0.1541579515 0.5369186401 4284767038
-0.3220284581 -0.1533571482 0.5362045169 4283649325
-0.3215991259 -0.1525577307 0.5354896188 4282794016
-0.3216696084 -0.1519960612 0.5356069803 4281807121
-0.3202387393 -0.1507274956 0.5332245231 4281412363
-0.3218098879 -0.1508716345 0.5358405709 4281215243
-0.3213790953 -0.1500751227 0.5351232886 4281083657
-0.3214485645 -0.1495128572 0.5352389216 4281018126
-0.3215177953 -0.1489502490 0.5353541970 4281215505
-0.3220877051 -0.1486184001 0.5363031626 4281216023
-0.3221565783 -0.1480541825 0.5364178419 4281347609
-0.3222252131 -0.1474895924 0.5365321040 4281347356
-0.3222936392 -0.1469246596 0.5366460085 4281347356
-0.3228631318 -0.1465869695 0.5375943184 4281215254
-0.3229311705 -0.1460204422 0.5377076268 4281346840
-0.3235005438 -0.1456793994 0.5386556387 4281412632
-0.3240698874 -0.1453362405 0.5396036506 4281478425
-0.3241374195 -0.1447668821 0.5397161245 4281478425
-0.3242047429 -0.1441971511 0.5398281813 4281478425
-0.3242717981 -0.1436270773 0.5399398804 4281412632
-0.3248407245 -0.1432780921 0.5408871174 4281412632
-0.3249074221 -0.1427064240 0.5409982204 4281346839
-0.3249738812 -0.1421343982 0.5411088467 4281412632
-0.3245376945 -0.1413432360 0.5403826237 4281412633
-0.3246035874 -0.1407713890 0.5404922962 4281346840
-0.3251717985 -0.1404162347 0.5414384604 4281346586
-0.3252373040 -0.1398428231 0.5415474772 4281280793
-0.3253025413 -0.1392690539 0.5416561365 4281215000
-0.3253675699 -0.1386949569 0.5417643785 4281149207
-0.3259353042 -0.1383339763 0.5427097678 4281478944
-0.3259999454 -0.1377582997 0.5428173542 4281478944
-0.3260643184 -0.1371822804 0.5429245830 4281544735
-0.3261284530 -0.1366059184 0.5430313349 4281544735
-0.3266957402 -0.1362391412 0.5439758897 4281742114
-0.3262560070 -0.1354521811 0.5432437062 4281873700
-0.3258158267 -0.1346666515 0.5425108075 4281676321
-0.3258788884 -0.1340898275 0.5426157713 4281610528
-0.3259416819 -0.1335126758 0.5427203774 4281807391
-0.3260042369 -0.1329351813 0.5428245068 4281807391
-0.3260665536 -0.1323573589 0.5429282784 4282004769
-0.3256245553 -0.1315755397 0.5421923399 4282136355
-0.3256862760 -0.1309979409 0.5422950983 4282136355
-0.3257477582 -0.1304200292 0.5423974395 4282070562
-0.3258090019 -0.1298417896 0.5424994230 4282136355
-0.3258699775 -0.1292632222 0.5426009297 4282333734
-0.3259306848 -0.1286843270 0.5427020788 4282597156
-0.3254865408 -0.1279068142 0.5419625044 4282728742
-0.3255466819 -0.1273281723 0.5420626402 4282860328
-0.3256065547 -0.1267492026 0.5421623588 4282860328
-0.3256661892 -0.1261699349 0.5422616601 4282860328
-0.3257255554 -0.1255903393 0.5423604846 4282926121
-0.3257847130 -0.1250104159 0.5424589515 4282926121
-0.3258435726 -0.1244301945 0.5425570011 4282926121
-0.3259021938 -0.1238496527 0.5426546335 4282926121
-0.3269712925 -0.1236510277 0.5444347262 4282991914
-0.3275350630 -0.1232582703 0.5453734398 4283189293
-0.3275931776 -0.1226740927 0.5454702377 4283320879
-0.3281566799 -0.1222780123 0.5464085340 4283255086
-0.3287201226 -0.1218798161 0.5473467112 4283255086
-0.3287776709 -0.1212929040 0.5474424958 4283255086
-0.3298467398 -0.1210770831 0.5492225885 4283189293
-0.3304669559 -0.1200819984 0.5502552986 4283189291
-0.3310298920 -0.1196741313 0.5511926413 4283057707
-0.3315927088 -0.1192641556 0.5521298051 4282926121
-0.3321554661 -0.1188520640 0.5530668497 4282794537
-0.3327181339 -0.1184378564 0.5540037155 4282531365
-0.3332807124 -0.1180215403 0.5549404621 4282267939
-0.3338431716 -0.1176031008 0.5558770299 4282136353
-0.3344055414 -0.1171825528 0.5568134189 4281873181
-0.3349678218 -0.1167598888 0.5577496290 4281938974
-0.3350231647 -0.1161593720 0.5578417778 4282070301
-0.3350782394 -0.1155585647 0.5579335093 4282201887
-0.3356400430 -0.1151313782 0.5588689446 4282333725
-0.3356946707 -0.1145290658 0.5589599013 4282267932
-0.3357490301 -0.1139264628 0.5590503812 4282202138
-0.3358030915 -0.1133235693 0.5591404438 4282267931
-0.3353495896 -0.1125501096 0.5583853126 4282004759
-0.3343881965 -0.1116088256 0.5567845106 4282070552
-0.3339337409 -0.1108393520 0.5560277700 4282136597
-0.3334788382 -0.1100714132 0.5552703142 4282202390
-0.3325158358 -0.1091383994 0.5536668897 4282400020
-0.3320600092 -0.1083744615 0.5529078841 4282860571
-0.3316037357 -0.1076120734 0.5521481633 4283255579
-0.3306391537 -0.1066873595 0.5505420566 4283518751
-0.3301819563 -0.1059289873 0.5497807860 4282991893
-0.3307404518 -0.1054962799 0.5507107377 4282202377
-0.3312988281 -0.1050614715 0.5516404510 4281807622
-0.3308406770 -0.1043041199 0.5508775711 4282268173
-0.3308903575 -0.1037076339 0.5509603620 4282596886
-0.3309397995 -0.1031108797 0.5510426164 4282399507
-0.3314974010 -0.1026713252 0.5519710779 4282004751
-0.3320548534 -0.1022296771 0.5528993011 4281938958
-0.3326122165 -0.1017859280 0.5538273454 4281873174
-0.3326607943 -0.1011853591 0.5539082289 4281478416
-0.3332177997 -0.1007383242 0.5548357368 4281215501
-0.3332659006 -0.1001363173 0.5549157858 4281215501
-0.3338226080 -0.0996860042 0.5558427572 4281084687
-0.3343791664 -0.0992335975 0.5567694902 4281018894
-0.3349356055 -0.0987790897 0.5576959848 4281084697
-0.3354919255 -0.0983224884 0.5586223006 4281545248
-0.3355389237 -0.0977155045 0.5587005615 4283124806
-0.3355856538 -0.0971082672 0.5587783456 4286480249
-0.3187953234 -0.1585983485 0.5318045616 4286939512
-0.3208610713 -0.1590313464 0.5352506042 4287595899
-0.3224291801 -0.1592109501 0.5378664136 4287727485
-0.3230738640 -0.1583316773 0.5389418602 4287990657
-0.3236453831 -0.1580118984 0.5398952961 4287859833
-0.3227204978 -0.1569622159 0.5383524299 4287333489
-0.3232916892 -0.1566408128 0.5393052697 4288187510
-0.3218667805 -0.1553538442 0.5369282365 4287990131
-0.3214392364 -0.1545517147 0.5362150669 4287727468
-0.3215104938 -0.1539900750 0.5363339186 4287332710
-0.3205828071 -0.1529515684 0.5347864032 4286872412
-0.3201539218 -0.1521535516 0.5340709090 4286280275
-0.3192250133 -0.1511204243 0.5325213671 4285228355
-0.3192948103 -0.1505616605 0.5326377749 4284570425
-0.3188645840 -0.1497677863 0.5319200754 4283912495
-0.3189338148 -0.1492091715 0.5320355892 4283188772
-0.3190028071 -0.1486501843 0.5321506858 4282202651
-0.3195716739 -0.1483229697 0.5330996513 4281676307
-0.3196403086 -0.1477623880 0.5332141519 4281412884
-0.3197087348 -0.1472014487 0.5333282948 4281347091
-0.3197769225 -0.1466401517 0.5334420204 4281281046
-0.3203454018 -0.1463070959 0.5343903303 4281149460
-0.3184106350 -0.1448332965 0.5311628580 4281609758
-0.3209815621 -0.1454077959 0.5354515910 4281675551
-0.3215498924 -0.1450692713 0.5363996625 4281413147
-0.3216172159 -0.1445035338 0.5365119576 4281281561
-0.3216843307 -0.1439374536 0.5366238952 4281215768
-0.3217511773 -0.1433710307 0.5367354155 4281149975
-0.3218178153 -0.1428042352 0.5368465781 4281216023
-0.3223855793 -0.1424586475 0.5377936959 4281413402
-0.3224518299 -0.1418902874 0.5379042625 4281149975
-0.3225178421 -0.1413215548 0.5380143523 4281149975
-0.3225836158 -0.1407524943 0.5381240845 4280953111
-0.3226491809 -0.1401830763 0.5382333994 4280821525
-0.3227144778 -0.1396133006 0.5383423567 4280821273
-0.3232815266 -0.1392594278 0.5392882824 4280755480
-0.3233464360 -0.1386880875 0.5393965840 4280689688
-0.3234111369 -0.1381164044 0.5395044684 4280689688
-0.3234755695 -0.1375443786 0.5396119952 4280426256
-0.3240421414 -0.1371846944 0.5405571461 4280557842
-0.3241062164 -0.1366111040 0.5406640172 4280689426
-0.3241700232 -0.1360371560 0.5407704711 4280886805
-0.3247362673 -0.1356729120 0.5417150855 4281281561
-0.3242969215 -0.1348882765 0.5409821272 4281544733
-0.3243599832 -0.1343133152 0.5410873890 4281544219
-0.3244228065 -0.1337380409 0.5411921740 4281610012
-0.3244854212 -0.1331624240 0.5412966013 4281873183
-0.3240445852 -0.1323809028 0.5405611992 4281873183
-0.3241065741 -0.1318055242 0.5406646132 4281939228
-0.3241683245 -0.1312298030 0.5407676101 4282070814
-0.3237263560 -0.1304508746 0.5400303602 4282136605
-0.3237875402 -0.1298753917 0.5401324034 4282070812
-0.3238484561 -0.1292995960 0.5402340293 4282070814
-0.3239091039 -0.1287234575 0.5403352380 4282268193
-0.3239695430 -0.1281470060 0.5404360294 4282399779
-0.3240297139 -0.1275702417 0.5405364037 4282662951
-0.3240896165 -0.1269931346 0.5406363606 4282860330
-0.3241492808 -0.1264157295 0.5407359004 4282860330
-0.3242087066 -0.1258379966 0.5408350229 4282860330
-0.3242678940 -0.1252599359 0.5409337282 4282860330
-0.3243268132 -0.1246815771 0.5410320163 4282860330
-0.3243854642 -0.1241028979 0.5411298871 4282926123
-0.3244438767 -0.1235239059 0.5412273407 4282860330
-0.3250067234 -0.1231358051 0.5421662331 4282794537
-0.3250647187 -0.1225552857 0.5422629714 4282794537
-0.3256273270 -0.1221638545 0.5432015061 4282794537
-0.3256849051 -0.1215818152 0.5432975292 4282597158
-0.3267522752 -0.1213746592 0.5450780988 4282531365
-0.3273146451 -0.1209768951 0.5460162163 4282531365
-0.3278769255 -0.1205770075 0.5469542146 4282333986
-0.3284391165 -0.1201750115 0.5478920341 4282399777
-0.3290012479 -0.1197708994 0.5488297939 4282399777
-0.3295632899 -0.1193646789 0.5497673154 4282333473
-0.3301252127 -0.1189563349 0.5507047772 4282070301
-0.3306870759 -0.1185458824 0.5516420007 4281807131
-0.3317545652 -0.1183136627 0.5534228086 4281543959
-0.3323163390 -0.1178980693 0.5543599129 4281281046
-0.3328779936 -0.1174803674 0.5552968383 4281215253
-0.3334395885 -0.1170605421 0.5562336445 4281280533
-0.3340010643 -0.1166386008 0.5571702719 4281412119
-0.3340562880 -0.1160387322 0.5572624207 4281543959
-0.3341112435 -0.1154385656 0.5573540926 4281609752
-0.3341659606 -0.1148381010 0.5574453473 4281675543
-0.3347267807 -0.1144104302 0.5583809018 4281543957
-0.3342745304 -0.1136362925 0.5576264858 4281412369
-0.3338218629 -0.1128636897 0.5568714142 4281478162
-0.3338754177 -0.1122629642 0.5569607019 4281675795
-0.3329152465 -0.1113230735 0.5553590059 4281807381
-0.3319545090 -0.1103865430 0.5537562966 4281938964
-0.3320069015 -0.1097886190 0.5538437366 4282136343
-0.3315520883 -0.1090236977 0.5530850291 4282465559
-0.3305898309 -0.1080945432 0.5514797568 4282926110
-0.3301340640 -0.1073336378 0.5507194996 4283255068
-0.3296779096 -0.1065742821 0.5499585271 4283320861
-0.3292213082 -0.1058164835 0.5491968989 4283320859
-0.3297789991 -0.1053844988 0.5501272082 4282399757
-0.3298291266 -0.1047892049 0.5502108335 4281807368
-0.3298790157 -0.1041936278 0.5502940416 4281938954
-0.3299286067 -0.1035977900 0.5503767729 4282136337
-0.3299779594 -0.1030016840 0.5504590869 4282004751
-0.3305347562 -0.1025628522 0.5513879061 4281807117
