VERSION 0.7
FIELDS x y z rgba
SIZE 4 4 4 4
TYPE F F F U
COUNT 1 1 1 1
WIDTH 920
HEIGHT 1
VIEWPOINT 0.0 0.0 0.0 1.0 0.0 0.0 0.0
POINTS 920
DATA ascii
-0.3189520836 -0.1161833555 0.5961266756 4293449406
-0.3190040886 -0.1155398563 0.5962238908 4293317820
-0.3190558553 -0.1148960441 0.5963206291 4293316278
-0.3191073239 -0.1142519191 0.5964168310 4293053106
-0.3191585243 -0.1136074886 0.5965124965 4292921520
-0.3192094564 -0.1129627377 0.5966076851 4292987313
-0.3187947273 -0.1121539623 0.5958325267 4292594352
-0.3188450336 -0.1115095392 0.5959265828 4292462766
-0.3184295297 -0.1107029691 0.5951499939 4292069806
-0.3184792101 -0.1100588888 0.5952428579 4292004013
-0.3185286224 -0.1094145030 0.5953351855 4292002985
-0.3190435171 -0.1089288369 0.5962975621 4291871399
-0.3190924227 -0.1082829162 0.5963889956 4291805094
-0.3191410899 -0.1076366901 0.5964799523 4291541922
-0.3196554482 -0.1071463674 0.5974412560 4291345056
-0.3197036088 -0.1064986140 0.5975313187 4291410849
-0.3197515011 -0.1058505699 0.5976207852 4291411363
-0.3193329573 -0.1050488800 0.5968385339 4291477156
-0.3193802238 -0.1044012010 0.5969268680 4291674021
-0.3198935091 -0.1039047018 0.5978862047 4291213470
-0.3199402988 -0.1032555029 0.5979736447 4291015831
-0.3195203543 -0.1024564505 0.5971887708 4290950038
-0.3195664883 -0.1018076316 0.5972750187 4291080595
-0.3196123838 -0.1011585370 0.5973607898 4291080595
-0.3196579814 -0.1005091593 0.5974459648 4290949007
-0.3197032809 -0.0998595133 0.5975306630 4290620042
-0.3202151060 -0.0993544161 0.5984872580 4290226301
-0.3202598989 -0.0987032652 0.5985710025 4290226301
-0.3189036846 -0.0976230428 0.5960361958 4290488446
-0.3198817074 -0.0972581655 0.5978641510 4290225274
-0.3199256063 -0.0966071486 0.5979462266 4289634429
-0.3195021152 -0.0958157852 0.5971546769 4289831808
-0.3190782070 -0.0950260609 0.5963624120 4288849551
-0.3195883930 -0.0945143327 0.5973159075 4288257414
-0.3196310997 -0.0938632190 0.5973957181 4287143318
-0.3196735084 -0.0932118371 0.5974749923 4286616974
-0.3192482293 -0.0924248770 0.5966801643 4285763726
-0.3192900121 -0.0917739347 0.5967582464 4286026898
-0.3193727434 -0.0904712901 0.5969128609 4290563790
-0.3603238761 -0.2162551433 0.6748521328 4289375666
-0.3590561450 -0.2147471160 0.6724777818 4289572528
-0.3559735715 -0.2121627182 0.6667044163 4289506735
-0.3420031071 -0.2031245232 0.6405390501 4289835443
-0.3253030479 -0.1925289929 0.6092614532 4290032822
-0.3213010728 -0.1894918382 0.6017661095 4290493373
-0.3182046413 -0.1870035231 0.5959668756 4291875026
-0.3160144985 -0.1850588024 0.5918648839 4293190373
-0.3147312999 -0.1836524308 0.5894616246 4293453545
-0.3134472072 -0.1822508723 0.5870566368 4293518570
-0.3126165867 -0.1811173856 0.5855009556 4293452777
-0.3117853105 -0.1799869686 0.5839440227 4293058536
-0.3104987442 -0.1785981208 0.5815343857 4293650673
-0.3092112541 -0.1772141308 0.5791230798 4293841106
-0.3088325560 -0.1763544381 0.5784138441 4290814628
-0.3084534407 -0.1754960567 0.5777037144 4290672762
-0.3076187968 -0.1743810624 0.5761405230 4291067520
-0.3081489801 -0.1740403771 0.5771335363 4292839048
-0.3073133528 -0.1729289144 0.5755684972 4293168013
-0.3078432381 -0.1725864857 0.5765609145 4293829282
-0.3079175949 -0.1719874144 0.5767001510 4294289833
-0.3079917431 -0.1713879257 0.5768390298 4294945199
-0.3080656528 -0.1707879901 0.5769774914 4294747563
-0.3081393540 -0.1701876372 0.5771155357 4294486187
-0.3082128167 -0.1695868373 0.5772531033 4294157222
-0.3078300357 -0.1687356532 0.5765361786 4294413462
-0.3079029322 -0.1681348830 0.5766727328 4293887118
-0.3079756200 -0.1675337106 0.5768088698 4293885572
-0.3080480993 -0.1669320911 0.5769445896 4293227642
-0.3076638579 -0.1660836488 0.5762249231 4293288039
-0.3077357411 -0.1654820889 0.5763595700 4292498523
-0.3078074157 -0.1648800969 0.5764938593 4292561489
-0.3083356619 -0.1645214260 0.5774831772 4292298317
-0.3084069788 -0.1639177203 0.5776167512 4291708236
-0.3089350760 -0.1635555178 0.5786058307 4291642443
-0.3090060353 -0.1629500687 0.5787387490 4291052876
-0.3090767860 -0.1623442024 0.5788712502 4291381841
-0.3091472983 -0.1617379338 0.5790032744 4291186006
-0.3087601364 -0.1608928740 0.5782781839 4291514971
-0.3088300824 -0.1602866650 0.5784091949 4291452005
-0.3088997900 -0.1596800387 0.5785397291 4291780970
-0.3089692593 -0.1590730101 0.5786698461 4291522420
-0.3085806668 -0.1582308114 0.5779420137 4291917178
-0.3091075122 -0.1578577161 0.5789287686 4292708743
-0.3087182343 -0.1570165008 0.5781996846 4293169294
-0.3087866604 -0.1564087421 0.5783278346 4293369760
-0.3088548481 -0.1558005810 0.5784555674 4293698725
-0.3089228272 -0.1551920176 0.5785828829 4294683826
-0.3089905381 -0.1545830518 0.5787097216 4294947769
-0.3090580404 -0.1539736837 0.5788360834 4294426819
-0.3095839322 -0.1535914689 0.5798210502 4294229440
-0.3096510470 -0.1529804021 0.5799467564 4293509059
-0.3097179234 -0.1523689479 0.5800719857 4293706438
-0.3097845614 -0.1517570764 0.5801967978 4292989907
-0.3098509312 -0.1511448324 0.5803211331 4294371560
-0.3099170923 -0.1505321860 0.5804450512 4294637051
-0.3099830151 -0.1499191523 0.5805684924 4294834430
-0.3100486696 -0.1493057162 0.5806915164 4293589500
-0.3105735481 -0.1489121914 0.5816745162 4293128949
-0.3106388152 -0.1482970715 0.5817967653 4288667116
-0.3107038736 -0.1476815641 0.5819185972 4286364361
-0.3103089631 -0.1468481272 0.5811789632 4282499022
-0.3103734255 -0.1462327689 0.5812996626 4282367436
-0.3108975291 -0.1458327472 0.5822812915 4280858835
-0.3109616041 -0.1452157050 0.5824012756 4280398284
-0.3110254109 -0.1445982903 0.5825208426 4280331721
-0.3110890090 -0.1439804882 0.5826398730 4279936963
-0.3111523092 -0.1433623135 0.5827584863 4279939011
-0.3112154007 -0.1427437663 0.5828766227 4279675839
-0.3112782240 -0.1421248317 0.5829943419 4280002746
-0.3099591434 -0.1408775449 0.5805237889 4279805367
-0.3114031553 -0.1408858597 0.5832282901 4279935926
-0.3114652336 -0.1402658075 0.5833445787 4280067512
-0.3115270734 -0.1396453977 0.5834603906 4280132794
-0.3115886748 -0.1390246004 0.5835757256 4280001208
-0.3116500080 -0.1384034455 0.5836906433 4279738044
-0.3117111027 -0.1377819330 0.5838050246 4279409079
-0.3117719293 -0.1371600479 0.5839189887 4281701027
-0.3109099269 -0.1361338347 0.5823045373 4282687922
-0.3118928671 -0.1359151900 0.5841454268 4285179810
-0.3119529188 -0.1352922171 0.5842579603 4285706154
-0.3120127618 -0.1346688867 0.5843700171 4287673247
-0.3111490309 -0.1336486191 0.5827523470 4288396970
-0.3121316433 -0.1334211528 0.5845927000 4290887851
-0.3121907115 -0.1327967495 0.5847033262 4291085230
-0.3122495413 -0.1321720034 0.5848134756 4292067239
-0.3127700686 -0.1317414939 0.5857884288 4291869860
-0.3114422262 -0.1305340976 0.5833014846 4291935391
-0.3128865957 -0.1304883808 0.5860066414 4292132770
-0.3134067059 -0.1300531179 0.5869807601 4292198561
-0.3134644032 -0.1294247508 0.5870888233 4292001182
-0.3139842749 -0.1289860159 0.5880624652 4292198822
-0.3140415251 -0.1283560544 0.5881697536 4292396201
-0.3145611286 -0.1279138327 0.5891428590 4292659375
-0.3132299483 -0.1267207116 0.5866497159 4292922547
-0.3142117858 -0.1264640689 0.5884885788 4293185719
-0.3142679930 -0.1258327216 0.5885939002 4293448891
-0.3143239617 -0.1252010465 0.5886986852 4293514425
-0.3134536445 -0.1242021173 0.5870686769 4293448632
-0.3148981929 -0.1241192073 0.5897741318 4293646011
-0.3144902885 -0.1233039945 0.5890101790 4293646011
-0.3145451844 -0.1226709783 0.5891129971 4293711550
-0.3141365051 -0.1218579039 0.5883476138 4293645757
-0.3151176274 -0.1215827540 0.5901851654 4293579964
-0.3151718378 -0.1209478155 0.5902866721 4293579964
-0.3152257502 -0.1203125492 0.5903877020 4293711804
-0.3157430887 -0.1198529527 0.5913565755 4293974976
-0.3148691058 -0.1188659817 0.5897197127 4294172102
-0.3158497810 -0.1185789332 0.5915563703 4294106309
-0.3159027100 -0.1179414392 0.5916555524 4294106822
-0.3164193630 -0.1174758747 0.5926231742 4294106822
-0.3164718449 -0.1168368086 0.5927214622 4294106309
-0.3169881701 -0.1163677946 0.5936884880 4294172102
-0.3170402050 -0.1157271564 0.5937859416 4294237894
-0.3175562024 -0.1152547002 0.5947523713 4294303687
-0.3176077604 -0.1146124974 0.5948489308 4294237380
-0.3176590502 -0.1139699742 0.5949450135 4294040001
-0.3177100718 -0.1133271456 0.5950405598 4293777343
-0.3177608252 -0.1126840115 0.5951355696 4293645757
-0.3178112805 -0.1120405644 0.5952301025 4293514425
-0.3173967898 -0.1112339497 0.5944537520 4293580218
-0.3169818521 -0.1104289219 0.5936766267 4293645241
-0.3170313537 -0.1097864434 0.5937693715 4293513655
-0.3170805871 -0.1091436744 0.5938615799 4293252280
-0.3175945282 -0.1086596921 0.5948241353 4293120694
-0.3181083500 -0.1081735268 0.5957865119 4293120178
-0.3181568980 -0.1075279713 0.5958774090 4292988592
-0.3182051778 -0.1068821251 0.5959678292 4292988590
-0.3177878857 -0.1060806662 0.5951862931 4292791211
-0.3178355396 -0.1054351777 0.5952755809 4292462762
-0.3183483481 -0.1049428284 0.5962359905 4292462762
-0.3183955252 -0.1042958200 0.5963243246 4292265637
-0.3179768324 -0.1034969836 0.5955401659 4292002465
-0.3180233836 -0.1028503478 0.5956273675 4292001694
-0.3180696368 -0.1022034287 0.5957139730 4292001694
-0.3181156218 -0.1015562341 0.5958001018 4291936155
-0.3181613386 -0.1009087488 0.5958856940 4291804569
-0.3177408576 -0.1001141965 0.5950981975 4291541913
-0.3177859485 -0.0994671062 0.5951826572 4291476120
-0.3178307414 -0.0988197476 0.5952665806 4292000909
-0.3183856606 -0.0976672098 0.5963058472 4291541393
-0.3184296787 -0.0970180780 0.5963883400 4291278221
-0.3184734285 -0.0963686854 0.5964702368 4291146378
-0.3185600638 -0.0950691029 0.5966324806 4290949260
-0.3186029494 -0.0944189131 0.5967128277 4290817674
-0.3186455667 -0.0937684625 0.5967926383 4290227089
-0.3182213008 -0.0929814130 0.5959980488 4290029710
-0.3182632923 -0.0923313946 0.5960766673 4289768084
-0.3583704829 -0.2155311108 0.6725926995 4289770424
-0.3566519618 -0.2137538493 0.6693673730 4289704114
-0.3535740972 -0.2111718804 0.6635908484 4288914598
-0.3391734958 -0.2018638700 0.6365636587 4289374892
-0.3252182603 -0.1928800344 0.6103723049 4289835443
-0.3207699955 -0.1895729899 0.6020238400 4290032822
-0.3181319535 -0.1873505265 0.5970727205 4290493373
-0.3159456253 -0.1854041368 0.5929693580 4291611854
-0.3142113090 -0.1837311983 0.5897144079 4292730335
-0.3133829236 -0.1825933158 0.5881596804 4293387754
-0.3121002316 -0.1811951399 0.5857523084 4293585133
-0.3112703860 -0.1800642759 0.5841948390 4293059308
-0.3104398549 -0.1789364815 0.5826361179 4292993515
-0.3082467318 -0.1770295948 0.5785200596 4293845732
-0.3092308939 -0.1769499779 0.5803670883 4293582560
-0.3079442680 -0.1755715907 0.5779523849 4294231234
-0.3071110845 -0.1744561493 0.5763885975 4292981167
-0.3071860373 -0.1738581657 0.5765293241 4292844440
-0.3068062663 -0.1730034500 0.5758165717 4292515475
-0.3068806827 -0.1724054813 0.5759562254 4292575619
-0.3065001369 -0.1715525538 0.5752420425 4291786103
-0.3065740168 -0.1709546149 0.5753806829 4291387493
-0.3066476583 -0.1703562438 0.5755188465 4290795356
-0.3067210615 -0.1697574258 0.5756566525 4290598489
-0.3067942560 -0.1691581905 0.5757940412 4290401110
-0.3068672419 -0.1685585231 0.5759310126 4290333775
-0.3064845800 -0.1677092463 0.5752128363 4290202189
-0.3070125282 -0.1673579216 0.5762036443 4290662740
-0.3066291809 -0.1665095687 0.5754842162 4290991705
-0.3067011535 -0.1659090817 0.5756192803 4290862429
-0.3067728877 -0.1653081924 0.5757539272 4291191394
-0.3068444133 -0.1647068709 0.5758881569 4291389033
-0.3069157004 -0.1641051322 0.5760219097 4291783791
-0.3069867492 -0.1635029763 0.5761553049 4292769407
-0.3070575595 -0.1629004031 0.5762882233 4293493130
-0.3075845242 -0.1625385582 0.5772771835 4293824153
-0.3076550066 -0.1619342566 0.5774094462 4294482083
-0.3077252507 -0.1613295376 0.5775412917 4294158508
-0.3073385954 -0.1604859531 0.5768156052 4294619059
-0.3074082732 -0.1598813087 0.5769463778 4294622397
-0.3074777126 -0.1592762470 0.5770767331 4294952133
-0.3075469136 -0.1586707830 0.5772066116 4294952906
-0.3071587980 -0.1578300446 0.5764782429 4294952392
-0.3076846302 -0.1574586332 0.5774651170 4294954441
-0.3072958589 -0.1566188782 0.5767354369 4294888391
-0.3073640466 -0.1560126841 0.5768634081 4294952388
-0.3074319959 -0.1554061025 0.5769909024 4294491066
-0.3074997067 -0.1547991037 0.5771179795 4294944172
-0.3075671792 -0.1541917026 0.5772446394 4294481822
-0.3076344132 -0.1535839140 0.5773708224 4293625482
-0.3081592917 -0.1532033682 0.5783559084 4292507001
-0.3077681661 -0.1523671299 0.5776218772 4291190373
-0.3082927763 -0.1519839913 0.5786064863 4290927201
-0.3088173568 -0.1515986174 0.5795909762 4290605689
-0.3088836074 -0.1509870440 0.5797153115 4293961132
-0.3089495897 -0.1503750533 0.5798391700 4294302944
-0.3090153635 -0.1497626901 0.5799626112 4294962159
-0.3090808988 -0.1491499245 0.5800855756 4294373879
-0.3091461658 -0.1485367864 0.5802081227 4294308086
-0.3096700013 -0.1481427103 0.5811912417 4291359738
-0.3092760146 -0.1473093182 0.5804517865 4289583327
-0.3093405664 -0.1466950178 0.5805729628 4285516508
-0.3094048798 -0.1460803151 0.5806936622 4284595406
-0.3094689548 -0.1454652399 0.5808139443 4282826716
-0.3099920452 -0.1450646967 0.5817956328 4282431958
-0.3100557029 -0.1444479525 0.5819151402 4281120977
-0.3101191521 -0.1438308209 0.5820342302 4280923598
-0.3101823330 -0.1432133019 0.5821527839 4280464328
-0.3097856343 -0.1423841715 0.5814082623 4280266949
-0.3098482490 -0.1417668313 0.5815258026 4280266949
-0.3089909852 -0.1407302618 0.5799168348 4280201156
-0.3095127940 -0.1403225064 0.5808961987 4280069570
-0.3100345731 -0.1399125606 0.5818754435 4279740605
-0.3100961745 -0.1392937303 0.5819910765 4280262067
-0.3101575375 -0.1386745274 0.5821062326 4280262067
-0.3102186322 -0.1380549520 0.5822209120 4281636511
-0.3102795184 -0.1374350339 0.5823351741 4282754992
-0.3103401065 -0.1368147284 0.5824488997 4286295727
-0.3094794154 -0.1357899308 0.5808335543 4287151036
-0.3104605973 -0.1355730593 0.5826750398 4289444782
-0.3105204403 -0.1349516809 0.5827873349 4289773747
-0.3105800450 -0.1343299299 0.5828992128 4290691242
-0.3101785183 -0.1335094571 0.5821456313 4290822828
-0.3106985092 -0.1330853850 0.5831215382 4291082402
-0.3107573390 -0.1324625760 0.5832319856 4291279781
-0.3108159304 -0.1318394244 0.5833419561 4291409823
-0.3113355041 -0.1314105988 0.5843170881 4291212444
-0.3113936782 -0.1307858080 0.5844262838 4291212695
-0.3114515841 -0.1301606745 0.5845349431 4291410074
-0.3119707406 -0.1297270954 0.5855093002 4291672472
-0.3120282292 -0.1291003376 0.5856171846 4291738265
-0.3120854497 -0.1284732223 0.5857245922 4292132770
-0.3121424317 -0.1278457791 0.5858315229 4292330149
-0.3126609623 -0.1274061799 0.5868047476 4292527530
-0.3127174973 -0.1267771125 0.5869108438 4292659116
-0.3109257817 -0.1254023761 0.5835481286 4292724909
-0.3128297925 -0.1255179793 0.5871216059 4292790702
-0.3128855526 -0.1248878911 0.5872262120 4292790700
-0.3129410446 -0.1242574826 0.5873304009 4292790700
-0.3111469746 -0.1228962913 0.5839632154 4292922286
-0.3135136664 -0.1231773272 0.5884050727 4292988079
-0.3135684729 -0.1225449741 0.5885078907 4293184690
-0.3136229813 -0.1219123006 0.5886102319 4293184690
-0.3127519488 -0.1209215373 0.5869754553 4293118897
-0.3137312531 -0.1206459552 0.5888134241 4293053104
-0.3137849867 -0.1200122908 0.5889142752 4293053102
-0.3143013418 -0.1195543781 0.5898833871 4293118895
-0.3125027716 -0.1182185784 0.5865077972 4293316276
-0.3144076467 -0.1182835698 0.5900828838 4293250483
-0.3144603968 -0.1176476777 0.5901818871 4293185460
-0.3145128787 -0.1170114726 0.5902804136 4293185460
-0.3150283694 -0.1165463403 0.5912479162 4293185460
-0.3150804043 -0.1159085557 0.5913455486 4293251253
-0.3155955970 -0.1154399812 0.5923124552 4293513653
-0.3156471550 -0.1148006320 0.5924091935 4293513653
-0.3156984448 -0.1141609699 0.5925055146 4293645239
-0.3157494664 -0.1135210022 0.5926012397 4293645239
-0.3158002198 -0.1128807217 0.5926964879 4293579446
-0.3158507049 -0.1122401282 0.5927912593 4293513653
-0.3159009218 -0.1115992367 0.5928854942 4293513653
-0.3159508705 -0.1109580323 0.5929792523 4293579446
-0.3160005510 -0.1103165299 0.5930724144 4293710519
-0.3155858219 -0.1095136777 0.5922941566 4293776312
-0.3151707053 -0.1087124124 0.5915150046 4293712315
-0.3161478937 -0.1083902195 0.5933490396 4293712315
-0.3161964715 -0.1077475175 0.5934401751 4293843386
-0.3162447810 -0.1071045250 0.5935308337 4293843386
-0.3162927926 -0.1064612344 0.5936209559 4293777848
-0.3163405657 -0.1058176532 0.5937106013 4293646262
-0.3163880408 -0.1051737741 0.5937997103 4293514934
-0.3164352477 -0.1045296118 0.5938882828 4293449141
-0.3164821565 -0.1038851663 0.5939763784 4293449140
-0.3169935942 -0.1033920348 0.5949362516 4293317554
-0.3170400560 -0.1027460620 0.5950233936 4293251502
-0.3166212738 -0.1019501090 0.5942374468 4293185709
-0.3166670799 -0.1013045236 0.5943234563 4293185709
-0.3167126179 -0.1006586626 0.5944089293 4293054123
-0.3162927628 -0.0998656601 0.5936208963 4292857257
-0.3163376749 -0.0992201939 0.5937051773 4292725671
-0.3163822889 -0.0985744521 0.5937889218 4292790181
-0.3164266646 -0.0979284346 0.5938721895 4292921767
-0.3169361353 -0.0974252149 0.5948283672 4292725417
-0.3169800043 -0.0967777073 0.5949106812 4292396452
-0.3170235753 -0.0961299390 0.5949925184 4292263063
-0.3170668781 -0.0954818949 0.5950737596 4291999891
-0.3171099126 -0.0948335901 0.5951545238 4292130703
-0.3171526492 -0.0941850245 0.5952347517 4292130703
-0.3176608682 -0.0936735496 0.5961886048 4291408782
-0.3167714477 -0.0927507132 0.5945192575 4291342989
-0.3177450597 -0.0923732072 0.5963466167 4291082133
-0.3177867234 -0.0917226523 0.5964248180 4291016340
-0.3178281188 -0.0910718367 0.5965024829 4289967003
-0.3160049021 -0.0898904502 0.5930806398 4289572245
-0.3179100454 -0.0897694603 0.5966562033 4288458665
-0.3188829720 -0.0893792361 0.5984822512 4288919216
-0.3198558688 -0.0889849365 0.6003081799 4291351760
-0.3564208150 -0.2148063034 0.6703308821 4289967803
-0.3547048569 -0.2130309492 0.6671036482 4289506735
-0.3511798680 -0.2101800591 0.6604741216 4287796117
-0.3381590247 -0.2016804963 0.6359854341 4288848805
-0.3246790767 -0.1929624975 0.6106332541 4289769907
-0.3202382624 -0.1896540672 0.6022813320 4290033079
-0.3176046610 -0.1874306947 0.5973282456 4289704114
-0.3154219985 -0.1854835153 0.5932232738 4290295994
-0.3141433001 -0.1840751320 0.5908183455 4291611854
-0.3128637075 -0.1826715767 0.5884117484 4292795874
-0.3115831912 -0.1812728345 0.5860034823 4293519597
-0.3107547760 -0.1801415235 0.5844454765 4293191664
-0.3099257052 -0.1790132821 0.5828861594 4293191664
-0.3077363074 -0.1771056205 0.5787684917 4293648355
-0.3087188601 -0.1770260036 0.5806164742 4293779941
-0.3069809973 -0.1753879935 0.5773479939 4294954454
-0.3061491549 -0.1742729843 0.5757834911 4292847279
-0.3057702780 -0.1734183729 0.5750709772 4290343031
-0.3053909838 -0.1725651026 0.5743575692 4288961378
-0.3054651022 -0.1719686836 0.5744970441 4290597216
-0.3055390418 -0.1713718474 0.5746360421 4290663009
-0.3056127429 -0.1707745641 0.5747746825 4291318627
-0.3052319884 -0.1699239910 0.5740585923 4291713385
-0.3053051531 -0.1693267375 0.5741961598 4292108395
-0.3053780496 -0.1687290519 0.5743333101 4292568946
-0.3054507673 -0.1681309491 0.5744700432 4293096830
-0.3055232465 -0.1675324142 0.5746063590 4293754760
-0.3051407337 -0.1666850299 0.5738869309 4294807448
-0.3052126467 -0.1660865396 0.5740222335 4294940576
-0.3052843511 -0.1654876322 0.5741570592 4294225071
-0.3053558171 -0.1648882926 0.5742914677 4294817208
-0.3054270446 -0.1642885357 0.5744254589 4294298058
-0.3054980636 -0.1636883467 0.5745590329 4294824402
-0.3055688739 -0.1630877554 0.5746921301 4294629080
-0.3060949147 -0.1627289057 0.5756815076 4294760666
-0.3061653674 -0.1621265709 0.5758140087 4294564568
-0.3062355518 -0.1615238339 0.5759460330 4294696154
-0.3058497310 -0.1606812179 0.5752204061 4294566105
-0.3059193790 -0.1600785553 0.5753513575 4294302933
-0.3059887886 -0.1594754755 0.5754818916 4294366157
-0.3060579598 -0.1588719785 0.5756120086 4294037192
-0.3061269224 -0.1582680941 0.5757417083 4294033085
-0.3061956465 -0.1576637775 0.5758709311 4293375155
-0.3058077097 -0.1568250060 0.5751413703 4293435553
-0.3058758676 -0.1562207937 0.5752695203 4291790728
-0.3059437871 -0.1556161642 0.5753972530 4291063920
-0.3060114682 -0.1550111473 0.5755245686 4290011232
-0.3060789108 -0.1544057280 0.5756514072 4291511119
-0.3061461449 -0.1537999064 0.5757778287 4291050568
-0.3052990437 -0.1527363956 0.5741847157 4292163911
-0.3062798679 -0.1525870711 0.5760293603 4292163911
-0.3068036139 -0.1522068977 0.5770143867 4291313740
-0.3068699837 -0.1515985876 0.5771391988 4292037463
-0.3073935509 -0.1512148976 0.5781239271 4291519088
-0.3074595630 -0.1506048888 0.5782480240 4293756050
-0.3079829514 -0.1502176970 0.5792323947 4292985543
-0.3080485761 -0.1496059895 0.5793557763 4294959847
-0.3081139326 -0.1489938945 0.5794787407 4294374647
-0.3081790805 -0.1483814120 0.5796012282 4294045682
-0.3082439601 -0.1477685571 0.5797232985 4293260535
-0.3083086312 -0.1471552998 0.5798448920 4292931570
-0.3083730340 -0.1465416551 0.5799660683 4289455090
-0.3084371984 -0.1459276378 0.5800867081 4287612886
-0.3085011244 -0.1453132331 0.5802069306 4284597212
-0.3085648119 -0.1446984410 0.5803267360 4284334040
-0.3086282611 -0.1440832764 0.5804460645 4282828764
-0.3086914420 -0.1434677243 0.5805649161 4282499799
-0.3087544143 -0.1428517997 0.5806832910 4281712083
-0.3083582520 -0.1420241594 0.5799382329 4281251532
-0.3079616427 -0.1411979645 0.5791923404 4280531152
-0.3080236912 -0.1405827552 0.5793089867 4280399566
-0.3080854714 -0.1399671733 0.5794251561 4280135872
-0.3086062372 -0.1395588815 0.5804046392 4279741114
-0.3086676002 -0.1389416456 0.5805200338 4281965997
-0.3087287545 -0.1383240372 0.5806350112 4282492341
-0.3087896109 -0.1377060562 0.5807495117 4287279267
-0.3088502586 -0.1370877177 0.5808635354 4288529334
-0.3079912663 -0.1360628605 0.5792480111 4291152055
-0.3089707792 -0.1358499527 0.5810902119 4291217848
-0.3094905317 -0.1354317516 0.5820677280 4292198824
-0.3095502555 -0.1348110437 0.5821800828 4292067238
-0.3082295954 -0.1335918009 0.5796962380 4291935393
-0.3096689582 -0.1335685551 0.5824033022 4291738014
-0.3097279072 -0.1329467744 0.5825141668 4292066726
-0.3097866178 -0.1323246360 0.5826246142 4292198312
-0.3098450899 -0.1317021549 0.5827345848 4292066985
-0.3089823425 -0.1306897700 0.5811119676 4291935399
-0.3104218245 -0.1306499690 0.5838192105 4292002213
-0.3104795814 -0.1300254911 0.5839278698 4292133799
-0.3105371296 -0.1294006854 0.5840361118 4292461733
-0.3105943799 -0.1287755221 0.5841438174 4292527526
-0.3106514215 -0.1281500161 0.5842510462 4292855210
-0.3111691475 -0.1277133673 0.5852248073 4292921003
-0.3112257421 -0.1270862520 0.5853312016 4293052591
-0.3103597462 -0.1260841042 0.5837025046 4293052591
-0.3113381267 -0.1258309931 0.5855426192 4292986796
-0.3113939464 -0.1252028495 0.5856475234 4292855210
-0.3114494979 -0.1245743707 0.5857520103 4292855210
-0.3110432923 -0.1237619370 0.5849880576 4292789417
-0.3115598261 -0.1233164072 0.5859594941 4292789930
-0.3116145730 -0.1226869300 0.5860624909 4292789930
-0.3116690814 -0.1220571175 0.5861650109 4292855723
-0.3117233515 -0.1214269772 0.5862670541 4292789930
-0.3122392297 -0.1209754646 0.5872372389 4292789930
-0.3122930229 -0.1203437373 0.5873384476 4292724137
-0.3128086030 -0.1198887676 0.5883081555 4292658598
-0.3119376898 -0.1189031452 0.5866702199 4292658598
-0.3129150569 -0.1186218113 0.5885083079 4292658085
-0.3129678667 -0.1179878563 0.5886076689 4292592292
-0.3130204380 -0.1173535734 0.5887064934 4292527012
-0.3130727112 -0.1167189702 0.5888048410 4292527012
-0.3131247461 -0.1160840541 0.5889027119 4292592292
-0.3136391044 -0.1156193540 0.5898700356 4292592292
-0.3136906624 -0.1149828658 0.5899670124 4292658084
-0.3142046928 -0.1145147160 0.5909337997 4292658084
-0.3142558038 -0.1138766706 0.5910299420 4292723877
-0.3138437569 -0.1130715385 0.5902549624 4292789670
-0.3138942420 -0.1124338061 0.5903499126 4292789670
-0.3144075274 -0.1119606569 0.5913152695 4292789670
-0.3144575357 -0.1113213748 0.5914093256 4292855463
-0.3145073056 -0.1106817871 0.5915029049 4292855463
-0.3140935302 -0.1098798364 0.5907247066 4292921256
-0.3141426742 -0.1092405841 0.5908171535 4293118635
-0.3137281239 -0.1084408611 0.5900375247 4292987562
-0.3142401278 -0.1079611927 0.5910004377 4293053355
-0.3147520125 -0.1074793413 0.5919631720 4293250732
-0.3148001432 -0.1068379581 0.5920536518 4293316525
-0.3148479760 -0.1061962843 0.5921436548 4293316525
-0.3148955703 -0.1055543199 0.5922331214 4293382318
-0.3149428666 -0.1049120650 0.5923221111 4293448111
-0.3149898946 -0.1042695194 0.5924105048 4293382318
-0.3150366247 -0.1036266834 0.5924984813 4293250732
-0.3150831163 -0.1029835641 0.5925858617 4293250732
-0.3151293099 -0.1023401693 0.5926727653 4293250986
-0.3151752353 -0.1016964838 0.5927591324 4293250986
-0.3152208924 -0.1010525152 0.5928449631 4293382572
-0.3152662516 -0.1004082784 0.5929303169 4293382572
-0.3148469925 -0.0996168256 0.5921417475 4293316779
-0.3148917258 -0.0989729837 0.5922259092 4293316779
-0.3149361908 -0.0983288586 0.5923095942 4293579436
-0.3154449761 -0.0978285447 0.5932664275 4293711022
-0.3154889643 -0.0971829295 0.5933491588 4293515187
-0.3155326545 -0.0965370536 0.5934313536 4293120429
-0.3155760765 -0.0958909020 0.5935130119 4292461984
-0.3156192303 -0.0952444822 0.5935941339 4292001433
-0.3156620860 -0.0945978016 0.5936747193 4292066710
-0.3161696196 -0.0940892249 0.5946292877 4292066710
-0.3162119687 -0.0934410691 0.5947089791 4291738263
-0.3162540495 -0.0927926525 0.5947881341 4291606677
-0.3162958622 -0.0921439752 0.5948666930 4291672470
-0.3163373768 -0.0914950445 0.5949447751 4291804056
-0.3159133494 -0.0907122642 0.5941473246 4291280030
-0.3164195716 -0.0901964232 0.5950993896 4291016858
-0.3173910081 -0.0898101032 0.5969263911 4289704866
-0.3178969324 -0.0892889798 0.5978779197 4289244315
-0.3184027374 -0.0887657031 0.5988291502 4289243813
-0.3189083338 -0.0882402584 0.5997800827 4290559673
-0.3198793828 -0.0878405198 0.6016063690 4292010217
-0.3553768694 -0.2146254629 0.6697665453 4290427840
-0.3545659482 -0.2133932561 0.6682382226 4289901493
-0.3528518677 -0.2116227895 0.6650077701 4287861910
-0.3484286368 -0.2082403600 0.6566714644 4288585376
-0.3367797136 -0.2005730867 0.6347171664 4289835443
-0.3246730268 -0.1926829517 0.6119000912 4290624959
-0.3202384412 -0.1893805712 0.6035423279 4290230201
-0.3176084757 -0.1871602237 0.5985857844 4290032822
-0.3154288530 -0.1852152944 0.5944778919 4290559166
-0.3141518831 -0.1838076562 0.5920712352 4291545807
-0.3128740191 -0.1824048311 0.5896629095 4292730081
-0.3115952611 -0.1810068339 0.5872528553 4293322472
-0.3103156090 -0.1796136796 0.5848411322 4293585644
-0.3094875216 -0.1784863025 0.5832805037 4293649895
-0.3082062006 -0.1771019548 0.5808656216 4293518309
-0.3064712882 -0.1754632890 0.5775958896 4294435813
-0.3056408763 -0.1743478477 0.5760307908 4293646297
-0.3052626848 -0.1734929085 0.5753180981 4291541947
-0.3048840761 -0.1726392955 0.5746045113 4290291880
-0.3045050204 -0.1717870235 0.5738901496 4291538351
-0.3045787811 -0.1711908430 0.5740291476 4292196281
-0.3046523035 -0.1705942303 0.5741677284 4292918975
-0.3042721748 -0.1697442234 0.5734512806 4293313733
-0.3043451309 -0.1691476256 0.5735887885 4293773001
-0.3044179082 -0.1685506105 0.5737259388 4294101966
-0.3044904172 -0.1679531783 0.5738626122 4294235349
-0.3041088581 -0.1671058983 0.5731434822 4294301142
-0.3041808307 -0.1665084958 0.5732791424 4294433751
-0.3037984669 -0.1656630337 0.5725585222 4294762716
-0.3043241203 -0.1653124243 0.5735491514 4294631901
-0.3043954074 -0.1647137552 0.5736835599 4294302936
-0.3044664860 -0.1641146541 0.5738174915 4294302936
-0.3045373559 -0.1635151505 0.5739510655 4294434522
-0.3041533232 -0.1626720577 0.5732272863 4294629078
-0.3042236269 -0.1620726138 0.5733597875 4294234320
-0.3047485352 -0.1617141217 0.5743491054 4294558405
-0.3048184812 -0.1611129493 0.5744808912 4293703096
-0.3048881888 -0.1605113596 0.5746123195 4293959589
-0.3049576879 -0.1599093527 0.5747432709 4292841108
-0.3045716882 -0.1590691805 0.5740157366 4292835200
-0.3046405911 -0.1584672630 0.5741456747 4291848305
-0.3047092855 -0.1578649282 0.5742751360 4291450465
-0.3047777712 -0.1572621912 0.5744041204 4291055707
-0.3048459888 -0.1566590518 0.5745327473 4291578190
-0.3049139977 -0.1560555100 0.5746608973 4291183432
-0.3049817681 -0.1554515660 0.5747886300 4290527809
-0.3050493002 -0.1548472047 0.5749158859 4291054153
-0.3046604991 -0.1540119052 0.5741831660 4292365137
-0.3047274649 -0.1534076482 0.5743093491 4291773000
-0.3047941923 -0.1528030038 0.5744351149 4292562267
-0.3053170741 -0.1524258107 0.5754205585 4294930815
-0.3058399260 -0.1520463973 0.5764059424 4292779679
-0.3059061468 -0.1514387578 0.5765307546 4293963953
-0.3064946532 -0.1504465044 0.5776399374 4294233300
-0.3065602779 -0.1498367786 0.5777635574 4293386982
-0.3066256344 -0.1492266506 0.5778867602 4294176498
-0.3066907823 -0.1486161351 0.5780095458 4293785592
-0.3067556620 -0.1480052322 0.5781318545 4293654006
-0.3068203032 -0.1473939568 0.5782536864 4294111986
-0.3064273596 -0.1465635300 0.5775130987 4294243572
-0.3064914346 -0.1459523737 0.5776338577 4291752702
-0.3065552711 -0.1453408599 0.5777541995 4290436842
-0.3066188693 -0.1447289437 0.5778740048 4287157476
-0.3066822290 -0.1441166550 0.5779934525 4286367960
-0.3067453206 -0.1435039788 0.5781123638 4284796636
-0.3068082035 -0.1428909451 0.5782308578 4284401878
-0.3068708181 -0.1422775239 0.5783488750 4283550431
-0.3069331944 -0.1416637152 0.5784664154 4282958294
-0.3069953322 -0.1410495490 0.5785835385 4281778648
-0.3070572019 -0.1404350102 0.5787001848 4281449683
-0.3071188629 -0.1398200989 0.5788163543 4282037693
-0.3071802557 -0.1392048150 0.5789320469 4282300865
-0.3072414100 -0.1385891587 0.5790472627 4286559671
-0.3073022962 -0.1379731447 0.5791620612 4287612359
-0.3073629737 -0.1373567581 0.5792763829 4291937711
-0.3074233830 -0.1367399991 0.5793902278 4292069297
-0.3074835241 -0.1361228973 0.5795035958 4292789932
-0.3075434268 -0.1355054229 0.5796165466 4292724139
-0.3081217110 -0.1344697922 0.5807063580 4292658084
-0.3081809580 -0.1338503212 0.5808180571 4292396453
-0.3082399666 -0.1332304925 0.5809292197 4292462246
-0.3082987070 -0.1326103061 0.5810399652 4292198824
-0.3083572090 -0.1319897771 0.5811501741 4292264617
-0.3079558015 -0.1311731040 0.5803936720 4292592302
-0.3089331388 -0.1309424937 0.5822356939 4292789681
-0.3089909852 -0.1303199679 0.5823446512 4293118899
-0.3090485334 -0.1296970993 0.5824531317 4293316278
-0.3091058433 -0.1290738881 0.5825611353 4293185969
-0.3091629148 -0.1284503341 0.5826687217 4293185969
-0.3096798658 -0.1280166507 0.5836429596 4293578933
-0.3097364902 -0.1273914725 0.5837497115 4293578933
-0.3088722229 -0.1263892204 0.5821208954 4293578933
-0.3099048436 -0.1255138814 0.5840669870 4293513140
-0.3099604547 -0.1248873472 0.5841717720 4293381554
-0.3100157976 -0.1242604777 0.5842760801 4293316015
-0.3091494143 -0.1232658550 0.5826432705 4293184429
-0.3101257086 -0.1230057254 0.5844832063 4292987563
-0.3101802766 -0.1223778501 0.5845860839 4293053356
-0.3102345765 -0.1217496470 0.5846884251 4293119149
-0.3107496798 -0.1213010773 0.5856592059 4293053356
-0.3108035326 -0.1206712872 0.5857607126 4293053356
-0.3113183379 -0.1202192605 0.5867309570 4293053356
-0.3099878728 -0.1190563738 0.5842235088 4292987562
-0.3114778101 -0.1183241382 0.5870314837 4292855463
-0.3115304410 -0.1176917851 0.5871306658 4292789670
-0.3115828037 -0.1170591190 0.5872293711 4292789670
-0.3116348982 -0.1164261252 0.5873275399 4292789670
-0.3121484816 -0.1159643605 0.5882955194 4292855463
-0.3122001290 -0.1153298020 0.5883928537 4292855463
-0.3122515082 -0.1146949306 0.5884896517 4292921256
-0.3123026192 -0.1140597388 0.5885859728 4292921256
-0.3123534620 -0.1134242415 0.5886818171 4292723877
-0.3124040365 -0.1127884313 0.5887771249 4292658084
-0.3124543428 -0.1121523157 0.5888719559 4292658338
-0.3125043809 -0.1115158945 0.5889662504 4292592545
-0.3125541508 -0.1108791679 0.5890600085 4292592545
-0.3130660653 -0.1104052141 0.5900248289 4292460959
-0.3126528859 -0.1096047983 0.5892460942 4292460959
-0.3122392595 -0.1088059694 0.5884665847 4292592545
-0.3127505183 -0.1083292365 0.5894301534 4292460957
-0.3132616580 -0.1078503132 0.5903934836 4292526750
-0.3133098781 -0.1072108448 0.5904843211 4292526750
-0.3133578300 -0.1065710783 0.5905746818 4292526750
-0.3134055138 -0.1059310213 0.5906645656 4292526750
-0.3134528995 -0.1052906737 0.5907539129 4292526750
-0.3135000169 -0.1046500355 0.5908427238 4292526750
-0.3130837381 -0.1038554758 0.5900581479 4292460957
-0.3131302595 -0.1032152101 0.5901458263 4292395162
-0.3131764829 -0.1025746614 0.5902329683 4292460955
-0.3132224381 -0.1019338295 0.5903195739 4292395162
-0.3132681251 -0.1012927145 0.5904057026 4292395162
-0.3133135438 -0.1006513163 0.5904912353 4292460955
-0.3133586943 -0.1000096425 0.5905763507 4292592541
-0.3134035468 -0.0993676931 0.5906608701 4292658334
-0.3134481311 -0.0987254754 0.5907449126 4292724127
-0.3139562011 -0.0982280672 0.5917024016 4293184672
-0.3140002787 -0.0975843519 0.5917855501 4293184672
-0.3140441179 -0.0969403610 0.5918681026 4292725921
-0.3140876591 -0.0962961018 0.5919501781 4292462749
-0.3141309023 -0.0956515744 0.5920317173 4291936151
-0.3141739070 -0.0950067863 0.5921127200 4291672979
-0.3146807253 -0.0945011154 0.5930679440 4291542424
-0.3147232234 -0.0938548446 0.5931479931 4291674010
-0.3147654235 -0.0932083130 0.5932275653 4291608225
-0.3148073554 -0.0925615206 0.5933066010 4291674018
-0.3153133690 -0.0920500383 0.5942602754 4291804316
-0.3144259155 -0.0911325514 0.5925877094 4291672730
-0.3144669533 -0.0904859528 0.5926650167 4291410074
-0.3159013689 -0.0902372003 0.5953684449 4291344281
-0.3164066374 -0.0897189751 0.5963206887 4290690213
-0.3169117272 -0.0891985819 0.5972726345 4290624420
-0.3174166381 -0.0886760280 0.5982242227 4289374880
-0.3183861971 -0.0882801935 0.6000515223 4287861641
-0.3193557262 -0.0878802836 0.6018787026 4287012522
-0.3170707822 -0.0865875632 0.5975723863 4289973207
-0.3217595220 -0.0871942341 0.6064090729 4292994293
-0.3525327146 -0.2133543938 0.6657999754 4290756805
-0.3503715992 -0.2113112509 0.6617184281 4290362044
-0.3450558484 -0.2073812187 0.6516789794 4288585633
-0.3334289491 -0.1996937096 0.6297202110 4288387997
-0.3245000243 -0.1936651617 0.6128568649 4289901236
-0.3200743794 -0.1903522462 0.6044985056 4290953924
-0.3174498975 -0.1881252974 0.5995418429 4290690752
-0.3152748644 -0.1861747801 0.5954340696 4290361274
-0.3140007854 -0.1847635061 0.5930277705 4290295481
-0.3127257824 -0.1833570600 0.5906198025 4290624448
-0.3114498854 -0.1819554418 0.5882101655 4291545550
-0.3101730943 -0.1805586517 0.5857988000 4293515999
-0.3088954091 -0.1791667044 0.5833857059 4294042343
-0.3080685735 -0.1780406535 0.5818241239 4294305002
-0.3072410226 -0.1769176871 0.5802612305 4294041830
-0.3059608936 -0.1755385250 0.5778435469 4293649895
-0.3046798706 -0.1741642356 0.5754241943 4293649895
-0.3043023050 -0.1733098477 0.5747110844 4293582821
-0.3039242625 -0.1724568009 0.5739971399 4293714407
-0.3035458028 -0.1716050953 0.5732823610 4293911273
-0.3036193848 -0.1710095704 0.5734212995 4294240238
-0.3036927581 -0.1704136282 0.5735598803 4294828779
-0.3033131957 -0.1695641726 0.5728430152 4294631400
-0.3029331863 -0.1687160581 0.5721253157 4294565605
-0.3030056655 -0.1681206077 0.5722622275 4294565605
-0.3030779064 -0.1675247252 0.5723986626 4294303713
-0.3031499386 -0.1669284105 0.5725347400 4293908955
-0.3023152649 -0.1658344269 0.5709583163 4294629078
-0.3028399944 -0.1654867828 0.5719493628 4294300113
-0.3029112518 -0.1648900956 0.5720839500 4294754244
-0.3029823005 -0.1642929912 0.5722180605 4293964728
-0.3030531108 -0.1636954695 0.5723518133 4293959589
-0.3031236827 -0.1630975157 0.5724851489 4293104280
-0.3031940460 -0.1624991596 0.5726180077 4292313476
-0.3032642007 -0.1619003862 0.5727504492 4291458167
-0.3033340871 -0.1613011807 0.5728824735 4290797925
-0.3034037650 -0.1607015729 0.5730140805 4290337374
-0.3034732342 -0.1601015627 0.5731452703 4290792535
-0.3035424352 -0.1595011353 0.5732759833 4290463570
-0.3036114275 -0.1589002907 0.5734062791 4290986834
-0.3036802113 -0.1582990438 0.5735361576 4291250006
-0.3032940328 -0.1574613005 0.5728068352 4291513176
-0.3033622205 -0.1568601429 0.5729356408 4291907934
-0.3034301996 -0.1562585682 0.5730640292 4292105047
-0.3034979403 -0.1556566060 0.5731919408 4291512910
-0.3035654426 -0.1550542265 0.5733194351 4291773252
-0.3036327362 -0.1544514447 0.5734465122 4292233803
-0.3036997914 -0.1538482755 0.5735731721 4292429899
-0.3033111691 -0.1530149430 0.5728392005 4292495692
-0.3033776581 -0.1524118781 0.5729647875 4294338680
-0.3038995266 -0.1520363539 0.5739503503 4294940840
-0.3039656281 -0.1514315903 0.5740752220 4294759124
-0.3044873178 -0.1510525644 0.5750604868 4294958559
-0.3045530617 -0.1504461020 0.5751846433 4294175217
-0.3050745726 -0.1500635594 0.5761696100 4294569975
-0.3051399589 -0.1494554132 0.5762930512 4294308087
-0.3052050769 -0.1488468647 0.5764160752 4294242294
-0.3052699566 -0.1482379436 0.5765386224 4294045684
-0.3053345978 -0.1476286203 0.5766606927 4294177270
-0.3053990304 -0.1470189095 0.5767823458 4294505717
-0.3050065935 -0.1461899728 0.5760412216 4294374131
-0.3050704300 -0.1455804110 0.5761617422 4292802303
-0.3051340282 -0.1449704766 0.5762818456 4292604925
-0.3051973581 -0.1443601549 0.5764015317 4290242549
-0.3052604795 -0.1437494457 0.5765207410 4288334552
-0.3053233624 -0.1431383640 0.5766394734 4286237395
-0.3053859770 -0.1425269097 0.5767577291 4286434774
-0.3054483533 -0.1419150680 0.5768755674 4284928222
-0.3055105209 -0.1413028687 0.5769929290 4284401878
-0.3055724204 -0.1406902820 0.5771098137 4284270042
-0.3056340516 -0.1400773376 0.5772262812 4284072663
-0.3056954741 -0.1394640058 0.5773422718 4285774526
-0.3057566285 -0.1388503164 0.5774577856 4286629835
-0.3058175445 -0.1382362545 0.5775728226 4290824632
-0.3058782220 -0.1376218349 0.5776873827 4291679941
-0.3059386611 -0.1370070428 0.5778015256 4293249968
-0.3059988320 -0.1363918781 0.5779151917 4292921003
-0.3060587645 -0.1357763708 0.5780283809 4292658344
-0.3061184585 -0.1351604909 0.5781410933 4292855723
-0.3061778843 -0.1345442533 0.5782533288 4292856495
-0.3062370718 -0.1339276582 0.5783651471 4292856495
-0.3067545593 -0.1335102618 0.5793424249 4292660143
-0.3068133295 -0.1328920424 0.5794534683 4292660143
-0.3068718612 -0.1322734505 0.5795639753 4292462766
-0.3069301248 -0.1316545159 0.5796740651 4292594352
-0.3069881499 -0.1310352236 0.5797836185 4293315252
-0.3061279953 -0.1300256848 0.5781590939 4293644217
-0.3075625002 -0.1299895942 0.5808683038 4294038457
-0.3076198399 -0.1293683350 0.5809766650 4294235836
-0.3076769412 -0.1287467182 0.5810844898 4294040250
-0.3077337742 -0.1281247586 0.5811918378 4293974457
-0.3077903688 -0.1275024563 0.5812987089 4293973691
-0.3083061874 -0.1270691752 0.5822728872 4293842105
-0.3083623648 -0.1264452636 0.5823789835 4293776312
-0.3061200678 -0.1248834431 0.5781441331 4293842105
-0.3084739149 -0.1251964122 0.5825896263 4293842105
-0.3085293174 -0.1245714799 0.5826942921 4293776312
-0.3085844517 -0.1239462122 0.5827984214 4293710773
-0.3063394725 -0.1224016771 0.5785585046 4293579187
-0.3086939454 -0.1226946712 0.5830051899 4293382321
-0.3087483048 -0.1220684052 0.5831078887 4293448114
-0.3088023961 -0.1214418039 0.5832100511 4293513907
-0.3088562489 -0.1208148748 0.5833117366 4293513907
-0.3093701899 -0.1203667447 0.5842823982 4293448113
-0.3094235957 -0.1197382286 0.5843832493 4293448113
-0.3085556924 -0.1187548935 0.5827440619 4293448113
-0.3095296323 -0.1184802279 0.5845834613 4293382320
-0.3095822334 -0.1178507432 0.5846828818 4293381807
-0.3096345961 -0.1172209382 0.5847817063 4293316014
-0.3096866906 -0.1165908128 0.5848801136 4293250221
-0.3097385168 -0.1159603745 0.5849779844 4293184428
-0.3102510571 -0.1155012399 0.5859460235 4293184428
-0.3103024364 -0.1148692295 0.5860430598 4293184428
-0.3103535473 -0.1142369062 0.5861395597 4293184428
-0.3104043901 -0.1136042699 0.5862355828 4293250221
-0.3104549646 -0.1129713282 0.5863311291 4293184428
-0.3105052710 -0.1123380736 0.5864261389 4293052842
-0.3105553389 -0.1117045134 0.5865206718 4292987049
-0.3106051087 -0.1110706478 0.5866146684 4292987049
-0.3106546104 -0.1104364768 0.5867081881 4292855463
-0.3107038736 -0.1098020002 0.5868011713 4292723877
-0.3112145662 -0.1093294397 0.5877657533 4292658084
-0.3112633526 -0.1086934209 0.5878578424 4292592291
-0.3108499944 -0.1078967825 0.5870771408 4292592032
-0.3113601208 -0.1074204966 0.5880405903 4292657825
-0.3114080727 -0.1067835912 0.5881311893 4292592545
-0.3119178712 -0.1063038781 0.5890939832 4292526752
-0.3119653761 -0.1056654379 0.5891836882 4292460959
-0.3124748468 -0.1051823050 0.5901458859 4292460959
-0.3125218451 -0.1045423448 0.5902346969 4292394651
-0.3121062219 -0.1037483886 0.5894497037 4292328858
-0.3121526241 -0.1031087935 0.5895373821 4292460444
-0.3121987581 -0.1024689227 0.5896245241 4292394651
-0.3122446239 -0.1018287614 0.5897111297 4292263578
-0.3122902215 -0.1011883169 0.5897971988 4292197785
-0.3123355210 -0.1005475968 0.5898827910 4292197785
-0.3119177818 -0.0997585952 0.5890938044 4292263578
-0.3119624853 -0.0991182700 0.5891782045 4292394651
-0.3120068908 -0.0984776691 0.5892621279 4292263065
-0.3120510280 -0.0978367999 0.5893455148 4291934102
-0.3125579655 -0.0973398611 0.5903028846 4291670930
-0.3126016259 -0.0966974944 0.5903853178 4291276681
-0.3131081760 -0.0961971655 0.5913420320 4291013509
-0.3131513298 -0.0955533162 0.5914235115 4290947969
-0.3127309382 -0.0947687998 0.5906295180 4290947969
-0.3127734661 -0.0941253752 0.5907098651 4291014022
-0.3132791817 -0.0936201736 0.5916649699 4291211401
-0.3133212328 -0.0929752737 0.5917443633 4290686351
-0.3133629858 -0.0923301056 0.5918232799 4291015316
-0.3134045005 -0.0916846916 0.5919016600 4291212179
-0.3129820228 -0.0909043401 0.5911037326 4291146386
-0.3139503598 -0.0905268043 0.5929325819 4290687377
-0.3135272861 -0.0897469074 0.5921335220 4290621584
-0.3149592280 -0.0894958898 0.5948379636 4289902496
-0.3131438196 -0.0883229449 0.5914093256 4290099875
-0.3150394857 -0.0881965384 0.5949894786 4289312169
-0.3155432045 -0.0876754299 0.5959408283 4287338379
-0.3174390495 -0.0875360891 0.5995213985 4282417032
-0.3179426193 -0.0870077834 0.6004724503 4283667099
-0.3161249757 -0.0858470127 0.5970395803 4286493122
-0.3143065870 -0.0846936777 0.5936053991 4289519600
-0.3148090839 -0.0841684863 0.5945543647 4291820543
-0.3208838999 -0.0851193368 0.6060274243 4292083711
-0.3505943120 -0.2126272768 0.6635308862 4290822085
-0.3484365642 -0.2105859518 0.6594471335 4290361787
-0.3426797092 -0.2063860595 0.6485517621 4288453790
-0.3324213624 -0.1995087415 0.6291369796 4288519583
-0.3239572644 -0.1937476397 0.6131178737 4290164408
-0.3199891150 -0.1907015741 0.6056078672 4291150790
-0.3173692226 -0.1884728372 0.6006494761 4290887618
-0.3151980042 -0.1865206510 0.5965402722 4290887618
-0.3139262497 -0.1851079315 0.5941333175 4290821825
-0.3126535714 -0.1837000549 0.5917246342 4290624448
-0.3113799691 -0.1822969913 0.5893142819 4290756034
-0.3101055026 -0.1808987558 0.5869022012 4291480527
-0.3088301420 -0.1795053631 0.5844884515 4292927973
-0.3071029186 -0.1778556556 0.5812195539 4294371826
-0.3076299429 -0.1775139868 0.5822169781 4294240240
-0.3054498732 -0.1756137013 0.5780910254 4293781229
-0.3046223521 -0.1744973809 0.5765248537 4293583850
-0.3042455614 -0.1736417711 0.5758117437 4294041062
-0.3034168184 -0.1725307703 0.5742433071 4294567406
-0.3030390441 -0.1716787219 0.5735283494 4294110448
-0.3026608527 -0.1708280295 0.5728125572 4294044655
-0.3022821844 -0.1699786633 0.5720959306 4294238691
-0.3019030988 -0.1691306531 0.5713784695 4293646554
-0.3019756377 -0.1685362905 0.5715157390 4293577930
-0.3020479679 -0.1679415107 0.5716525912 4292985793
-0.3016677797 -0.1670957804 0.5709330440 4292785583
-0.3017395437 -0.1665010303 0.5710688829 4292127653
-0.3013585806 -0.1656571180 0.5703479052 4292578447
-0.3009772003 -0.1648145765 0.5696260929 4291328380
-0.3010480702 -0.1642203480 0.5697602630 4291387495
-0.3015715480 -0.1638717502 0.5707509518 4290795358
-0.3016420901 -0.1632757932 0.5708844662 4291380560
-0.3017124236 -0.1626794189 0.5710175633 4290920009
-0.3017824888 -0.1620826125 0.5711501837 4291050566
-0.3018523753 -0.1614854038 0.5712824464 4291116359
-0.3019220233 -0.1608877778 0.5714142323 4291118930
-0.3019914329 -0.1602897346 0.5715456009 4291842653
-0.3020606041 -0.1596912891 0.5716765523 4292240240
-0.3021295667 -0.1590924263 0.5718070865 4292898170
-0.3021983206 -0.1584931612 0.5719371438 4293558414
-0.3022668064 -0.1578934789 0.5720667839 4294676895
-0.3023350835 -0.1572933942 0.5721960068 4294941866
-0.3024031222 -0.1566929072 0.5723248124 4294942894
-0.3024709523 -0.1560920030 0.5724531412 4294942890
-0.3025385439 -0.1554907113 0.5725810528 4293953168
-0.3026058972 -0.1548890024 0.5727085471 4292429650
-0.3022185564 -0.1540552378 0.5719754696 4291771720
-0.3022853434 -0.1534536332 0.5721018910 4292300623
-0.3023518920 -0.1528516412 0.5722278357 4291247935
-0.3024182320 -0.1522492468 0.5723533630 4291643214
-0.3024843335 -0.1516464502 0.5724784732 4294936205
-0.3030051589 -0.1512704045 0.5734641552 4294822599
-0.3030708730 -0.1506659240 0.5735885501 4294958297
-0.3035915196 -0.1502863616 0.5745739341 4294372074
-0.3036568761 -0.1496801823 0.5746976137 4294240488
-0.3037219942 -0.1490736157 0.5748208761 4294240492
-0.3037868738 -0.1484666467 0.5749436617 4294569457
-0.3038515151 -0.1478593051 0.5750659704 4294962157
-0.3039159179 -0.1472515613 0.5751878619 4294764778
-0.3039800823 -0.1466434449 0.5753093362 4294831857
-0.3035881817 -0.1458159983 0.5745676160 4294964214
-0.3036517799 -0.1452080309 0.5746879578 4293784828
-0.3037151098 -0.1445996612 0.5748078227 4293521656
-0.3037782311 -0.1439909339 0.5749272704 4292867070
-0.3038411140 -0.1433818191 0.5750463009 4291551210
-0.3039037287 -0.1427723169 0.5751648545 4288073940
-0.3039661348 -0.1421624571 0.5752829313 4287416010
-0.3040282726 -0.1415522099 0.5754005313 4286698716
-0.3040902019 -0.1409415901 0.5755177140 4286303958
-0.3041518629 -0.1403305978 0.5756344199 4287285210
-0.3042132854 -0.1397192329 0.5757506490 4287482589
-0.3042744696 -0.1391075104 0.5758664608 4289512644
-0.3043353856 -0.1384954154 0.5759817362 4290302160
-0.3043960929 -0.1378829479 0.5760965943 4292858292
-0.3044565320 -0.1372701079 0.5762110353 4292924085
-0.3045167327 -0.1366569102 0.5763249397 4292594859
-0.3045766652 -0.1360433549 0.5764384270 4292529066
-0.3050937951 -0.1356327832 0.5774171352 4292594352
-0.3046958447 -0.1348151565 0.5766639709 4292725938
-0.3052126467 -0.1344020218 0.5776420236 4293118644
-0.3052717149 -0.1337860972 0.5777538419 4293316023
-0.3053305149 -0.1331698149 0.5778651237 4293447351
-0.3053890467 -0.1325531900 0.5779759288 4293249972
-0.3054473698 -0.1319361925 0.5780862570 4292922288
-0.3055054247 -0.1313188523 0.5781961679 4293251253
-0.3055632412 -0.1307011694 0.5783055425 4293973432
-0.3060790002 -0.1302781552 0.5792816877 4294236604
-0.3061363697 -0.1296588331 0.5793902874 4294563771
-0.3061935008 -0.1290391684 0.5794984102 4294629564
-0.3062503934 -0.1284191608 0.5796060562 4294499259
-0.3063070178 -0.1277987957 0.5797132850 4294301880
-0.3063634038 -0.1271781027 0.5798199773 4294105531
-0.3064195216 -0.1265570670 0.5799261928 4294039738
-0.3064754009 -0.1259356737 0.5800319314 4294039738
-0.3065310121 -0.1253139526 0.5801371932 4294039738
-0.3065863848 -0.1246919036 0.5802419782 4294039738
-0.3066414893 -0.1240695044 0.5803462267 4293973945
-0.3066963255 -0.1234467775 0.5804500580 4293973945
-0.3067509234 -0.1228237152 0.5805533528 4293973945
-0.3068052530 -0.1222003177 0.5806561708 4293842359
