VERSION 0.7
FIELDS x y z rgba
SIZE 4 4 4 4
TYPE F F F U
COUNT 1 1 1 1
WIDTH 920
HEIGHT 1
VIEWPOINT 0.0 0.0 0.0 1.0 0.0 0.0 0.0
POINTS 920
DATA ascii
-0.3052875698 -0.0889297575 0.6044666767 4292797931
-0.3062205911 -0.0885278881 0.6063140631 4292205794
-0.3071535528 -0.0881218985 0.6081613302 4291613657
-0.3076393306 -0.0875844806 0.6091231704 4292140001
-0.3081248999 -0.0870448798 0.6100845933 4292337380
-0.3090575933 -0.0866284594 0.6119313240 4292008415
-0.3099901974 -0.0862079188 0.6137778759 4291942622
-0.3109227419 -0.0857832581 0.6156243086 4291482584
-0.3114078045 -0.0852320120 0.6165847182 4291943135
-0.3123401403 -0.0848000795 0.6184307337 4292403688
-0.3128248751 -0.0842434987 0.6193905473 4292732653
-0.3133094311 -0.0836847350 0.6203499436 4291877344
-0.3137938082 -0.0831237882 0.6213089824 4291877344
-0.3151733875 -0.0827958807 0.6240405440 4292666860
-0.3161052167 -0.0823452771 0.6258855462 4291877344
-0.3170369864 -0.0818905383 0.6277304292 4291877855
-0.3179686368 -0.0814316869 0.6295751333 4292667371
-0.3193480968 -0.0810824260 0.6323064566 4293259508
-0.3211755157 -0.0808398500 0.6359246969 4292535785
-0.3096861839 -0.2344772816 0.6145273447 4289644494
-0.3089276850 -0.2332218736 0.6130222082 4284183675
-0.3085947335 -0.2322901338 0.6123614907 4280255902
-0.3082613051 -0.2313595116 0.6116998792 4279663765
-0.3062214851 -0.2291534245 0.6076521277 4279203730
-0.2930880487 -0.2186791599 0.5815907717 4279137937
-0.2872012556 -0.2136536688 0.5699092746 4278875792
-0.2842988074 -0.2108677030 0.5641497970 4278875792
-0.2826754451 -0.2090403885 0.5609284639 4278613646
-0.2814779878 -0.2075342834 0.5585522652 4278613646
-0.2807068825 -0.2063468397 0.5570220947 4278482576
-0.2799350917 -0.2051623017 0.5554905534 4278350990
-0.2795901000 -0.2042930424 0.5548060536 4278285197
-0.2800999582 -0.2040480375 0.5558177829 4278285197
-0.2788988650 -0.2025581598 0.5534343719 4278284428
-0.2785526216 -0.2016925365 0.5527473092 4278218635
-0.2782059312 -0.2008281350 0.5520593524 4278218635
-0.2782869637 -0.2002730668 0.5522201061 4278218635
-0.2775112987 -0.1991029978 0.5506809354 4278218373
-0.2780200839 -0.1988550723 0.5516905785 4278218373
-0.2772434354 -0.1976883262 0.5501494408 4278218116
-0.2768947482 -0.1968291998 0.5494574904 4278218116
-0.2769744098 -0.1962751597 0.5496155620 4278218116
-0.2761961222 -0.1951146871 0.5480711460 4278218116
-0.2762751579 -0.1945613921 0.5482279658 4278218118
-0.2763540149 -0.1940076351 0.5483844280 4278218118
-0.2760034204 -0.1931530088 0.5476887822 4278218375
-0.2756524384 -0.1922996193 0.5469923019 4278218118
-0.2753010392 -0.1914474964 0.5462949872 4278217863
-0.2753787935 -0.1908944398 0.5464493036 4278217863
-0.2750266492 -0.1900439560 0.5457504988 4278217863
-0.2751039267 -0.1894908249 0.5459038615 4278217606
-0.2747510672 -0.1886420101 0.5452036858 4278217606
-0.2748278677 -0.1880888194 0.5453560948 4278217863
-0.2749044895 -0.1875351518 0.5455080867 4278217091
-0.2745505869 -0.1866884083 0.5448058248 4278217091
-0.2741962671 -0.1858429462 0.5441027284 4278217348
-0.2738415301 -0.1849987507 0.5433987975 4278217348
-0.2734863758 -0.1841558516 0.5426940322 4278218118
-0.2731307745 -0.1833142191 0.5419884324 4278218118
-0.2727747858 -0.1824738830 0.5412819982 4278218374
-0.2728493810 -0.1819222271 0.5414300561 4278218117
-0.2724926472 -0.1810835898 0.5407221913 4278218374
-0.2721355259 -0.1802462637 0.5400134921 4278350474
-0.2726407349 -0.1799797714 0.5410159826 4278613646
-0.2722829580 -0.1791432947 0.5403060913 4278745232
-0.2719247937 -0.1783081144 0.5395953059 4278679439
-0.2715662122 -0.1774742305 0.5388837457 4278416267
-0.2716390491 -0.1769229323 0.5390282869 4278218118
-0.2712797225 -0.1760907918 0.5383152962 4278217347
-0.2713520825 -0.1755394936 0.5384588838 4278216834
-0.2705598176 -0.1744304597 0.5368867517 4278217348
-0.2710638940 -0.1741578132 0.5378869772 4278613135
-0.2707031369 -0.1733291745 0.5371711254 4278547342
-0.2707744837 -0.1727778912 0.5373127460 4279334263
-0.2708456814 -0.1722261459 0.5374539495 4281110674
-0.2704838812 -0.1713997424 0.5367360711 4286292050
-0.2696887851 -0.1703013182 0.5351583362 4288068461
-0.2693260610 -0.1694784611 0.5344384909 4290693708
-0.2698291242 -0.1692001075 0.5354368091 4291285845
-0.2694658041 -0.1683781743 0.5347157717 4291484503
-0.2695353627 -0.1678273827 0.5348538756 4291418710
-0.2691712976 -0.1670072377 0.5341314077 4290827863
-0.2692403793 -0.1664564908 0.5342684984 4290367312
-0.2688755989 -0.1656381637 0.5335446596 4289840709
-0.2685104012 -0.1648211926 0.5328199863 4289380158
-0.2685786784 -0.1642709523 0.5329554677 4289310780
-0.2686467767 -0.1637202948 0.5330905914 4289376573
-0.2682805657 -0.1629056185 0.5323638916 4290366794
-0.2679139376 -0.1620922983 0.5316363573 4291287896
-0.2679812014 -0.1615421772 0.5317698717 4291418452
-0.2680483162 -0.1609916389 0.5319030285 4290957901
-0.2676806450 -0.1601806432 0.5311734676 4282758582
-0.2677472532 -0.1596301794 0.5313056111 4280718999
-0.2678136230 -0.1590792984 0.5314373374 4281503896
-0.2678798437 -0.1585280001 0.5315687060 4281372310
-0.2675108612 -0.1577198505 0.5308365226 4280455840
-0.2675765455 -0.1571686417 0.5309668779 4280916391
-0.2676420510 -0.1566170305 0.5310968161 4283279549
-0.2677073479 -0.1560650021 0.5312263966 4285253339
-0.2677724361 -0.1555125862 0.5313555598 4289059310
-0.2678373456 -0.1549597532 0.5314843655 4290638335
-0.2679020464 -0.1544065326 0.5316127539 4292343034
-0.2679665387 -0.1538528949 0.5317407250 4292079862
-0.2680308223 -0.1532988697 0.5318683386 4292864752
-0.2676590085 -0.1524960846 0.5311304927 4293062131
-0.2677227855 -0.1519421637 0.5312570930 4293193194
-0.2677863836 -0.1513878405 0.5313832760 4293127401
-0.2678497732 -0.1508331448 0.5315090418 4292658372
-0.2674766183 -0.1500332803 0.5307685733 4288908171
-0.2675395012 -0.1494786888 0.5308933258 4292493902
-0.2676021755 -0.1489237100 0.5310177207 4292099144
-0.2663547099 -0.1476422250 0.5285422802 4291377215
-0.2672901452 -0.1475714445 0.5303985476 4291903559
-0.2669152617 -0.1467759907 0.5296546221 4292231243
-0.2669769228 -0.1462212652 0.5297769904 4293283931
-0.2670383751 -0.1456661671 0.5298989415 4294147970
-0.2670996189 -0.1451106817 0.5300204754 4294942626
-0.2667233944 -0.1443182379 0.5292739272 4294487476
-0.2667841315 -0.1437629014 0.5293944478 4293961132
-0.2668446600 -0.1432071924 0.5295145512 4293365143
-0.2673425078 -0.1428849548 0.5305024981 4291786111
-0.2674027383 -0.1423275620 0.5306219459 4290861410
-0.2674627304 -0.1417698115 0.5307409763 4289874515
-0.2675225139 -0.1412116885 0.5308596492 4290137426
-0.2675820887 -0.1406531781 0.5309779048 4290663770
-0.2680795193 -0.1403235793 0.5319648981 4291981172
-0.2681387663 -0.1397634298 0.5320824981 4293560204
-0.2681978047 -0.1392028928 0.5321996808 4294681256
-0.2682566345 -0.1386419833 0.5323164463 4294946484
-0.2683152556 -0.1380807161 0.5324327350 4294947003
-0.2683736682 -0.1375190765 0.5325486660 4294945204
-0.2684318721 -0.1369570643 0.5326641202 4293498276
-0.2684898674 -0.1363946944 0.5327792168 4291524486
-0.2685476243 -0.1358319521 0.5328938365 4290208361
-0.2686052024 -0.1352688521 0.5330080390 4289616224
-0.2686625421 -0.1347053945 0.5331218243 4290532963
-0.2687196434 -0.1341415793 0.5332351923 4291322479
-0.2687765658 -0.1335774064 0.5333481431 4292443528
-0.2692725360 -0.1332302094 0.5343323350 4294088353
-0.2693291008 -0.1326643974 0.5344445705 4294553785
-0.2693854570 -0.1320982128 0.5345563889 4294952398
-0.2694416046 -0.1315316856 0.5346677899 4294889429
-0.2699371576 -0.1311784536 0.5356511474 4294955736
-0.2704326808 -0.1308230162 0.5366344452 4294367196
-0.2704883218 -0.1302535832 0.5367448926 4294104024
-0.2709836960 -0.1298946738 0.5377278328 4294559950
-0.2710389793 -0.1293236017 0.5378375649 4293967813
-0.2710940838 -0.1287521869 0.5379468799 4293177522
-0.2715891302 -0.1283885241 0.5389292240 4291993248
-0.2716438472 -0.1278154850 0.5390378833 4292117134
-0.2716983855 -0.1272421032 0.5391460061 4291261825
-0.2713122070 -0.1264630854 0.5383797884 4290930032
-0.2713662088 -0.1258899420 0.5384868979 4290995825
-0.2718605697 -0.1255199015 0.5394678712 4292177018
-0.2719141841 -0.1249451488 0.5395742655 4293098120
-0.2719675601 -0.1243700534 0.5396801829 4293621123
-0.2724616230 -0.1239952669 0.5406605601 4292107884
-0.2725146413 -0.1234185696 0.5407657623 4291054418
-0.2725674212 -0.1228415295 0.5408705473 4291054418
-0.2730611265 -0.1224620044 0.5418502092 4291249228
-0.2731135488 -0.1218833625 0.5419542789 4291117642
-0.2731657624 -0.1213043928 0.5420578718 4291516006
-0.2732177377 -0.1207250953 0.5421609879 4293358210
-0.2732694745 -0.1201454625 0.5422636271 4291798700
-0.2737625241 -0.1197586581 0.5432420373 4293114560
-0.2738139033 -0.1191774383 0.5433439612 4292464853
-0.2738650441 -0.1185958833 0.5434454679 4293385955
-0.2739159465 -0.1180140078 0.5435464382 4293978092
-0.2739666104 -0.1174318120 0.5436469913 4293978092
-0.2744590044 -0.1170377508 0.5446240902 4293714920
-0.2749513388 -0.1166414991 0.5456010699 4293714920
-0.2754435837 -0.1162430421 0.5465778708 4293847022
-0.2754935622 -0.1156567335 0.5466770530 4293649643
-0.2759855986 -0.1152548119 0.5476534367 4293584363
-0.2760351896 -0.1146669313 0.5477518439 4293584363
-0.2760845423 -0.1140787303 0.5478497744 4293584363
-0.2765761912 -0.1136720926 0.5488253236 4293650156
-0.2770677507 -0.1132632568 0.5498007536 4293848305
-0.2775592208 -0.1128522158 0.5507760644 4294243063
-0.2780506313 -0.1124389768 0.5517511368 4294505980
-0.2780990899 -0.1118454412 0.5518473387 4294703359
-0.2785902321 -0.1114287451 0.5528219342 4294572285
-0.2790813148 -0.1110098436 0.5537964106 4294243320
-0.2791292071 -0.1104134917 0.5538914800 4293782770
-0.2796200216 -0.1099911407 0.5548653603 4293322219
-0.2801107168 -0.1095665917 0.5558391213 4293058534
-0.2806013525 -0.1091398373 0.5568127036 4292861155
-0.2815352380 -0.1088823527 0.5586658716 4292795875
-0.2820257246 -0.1084502563 0.5596392155 4292861668
-0.2820726335 -0.1078463867 0.5597322583 4292664289
-0.2825628519 -0.1074108332 0.5607050657 4292730082
-0.2826093435 -0.1068054140 0.5607972741 4292796388
-0.2830992937 -0.1063664183 0.5617694855 4292927974
-0.2835891545 -0.1059252173 0.5627415180 4292993254
-0.2840788960 -0.1054818183 0.5637133718 4292861668
-0.2845685184 -0.1050362214 0.5646849871 4292795875
-0.2846140563 -0.1044255197 0.5647752881 4292795875
-0.2851034105 -0.1039764807 0.5657463670 4292665316
-0.2855926454 -0.1035252362 0.5667172074 4292796902
-0.2860817611 -0.1030718014 0.5676878095 4292796902
-0.2865707874 -0.1026161686 0.5686581731 4292731109
-0.2875040472 -0.1023164764 0.5705100894 4292731109
-0.2879928946 -0.1018554941 0.5714801550 4291810007
-0.2884816229 -0.1013923138 0.5724499822 4290824141
-0.2894147933 -0.1010822058 0.5743017197 4291679450
-0.2899033427 -0.1006136686 0.5752711892 4291285718
-0.2908364832 -0.1002962962 0.5771228671 4291088339
-0.2917696238 -0.0999748185 0.5789745450 4291023575
-0.2922579348 -0.0994977802 0.5799435377 4290826196
-0.2927461267 -0.0990185440 0.5809122324 4291549919
-0.2932341695 -0.0985371098 0.5818806887 4292273642
-0.2941671312 -0.0982020423 0.5837320089 4290957782
-0.2946549654 -0.0977152586 0.5847000480 4290694610
-0.2955878377 -0.0973729193 0.5865512490 4291220695
-0.2960754931 -0.0968807861 0.5875188708 4291549660
-0.2965629697 -0.0963864550 0.5884862542 4290758861
-0.2970503271 -0.0958899260 0.5894533396 4292403686
-0.2979829609 -0.0955340043 0.5913040042 4292665831
-0.2984700799 -0.0950321183 0.5922706127 4292665831
-0.2994026244 -0.0946689248 0.5941210985 4292797931
-0.2998895049 -0.0941616893 0.5950872898 4292929517
-0.3003762662 -0.0936522707 0.5960531235 4291548377
-0.3008628488 -0.0931406468 0.5970187187 4291877342
-0.3013493121 -0.0926268399 0.5979840159 4292733164
-0.3022814393 -0.0922468975 0.5998336673 4292075234
-0.3027676344 -0.0917277336 0.6007984877 4292205794
-0.3032536507 -0.0912063867 0.6017629504 4292929517
-0.3037395179 -0.0906828418 0.6027270555 4293060076
-0.3042252362 -0.0901571065 0.6036909223 4293125869
-0.3047108054 -0.0896291882 0.6046543717 4292798957
-0.3051961660 -0.0890990794 0.6056175828 4292667371
-0.3056814075 -0.0885667801 0.6065804362 4292206307
-0.3066127598 -0.0881606191 0.6084285975 4291548377
-0.3075440526 -0.0877503380 0.6102765799 4292140514
-0.3080288768 -0.0872095376 0.6112386584 4292140514
-0.3085135221 -0.0866665542 0.6122003794 4291943135
-0.3094445467 -0.0862458348 0.6140478253 4291745756
-0.3103754818 -0.0858209953 0.6158951521 4291351513
-0.3108597100 -0.0852695182 0.6168560386 4291943650
-0.3117904365 -0.0848373994 0.6187029481 4292273129
-0.3122743666 -0.0842805877 0.6196632385 4292207336
-0.3132049143 -0.0838411897 0.6215097308 4291352027
-0.3141353726 -0.0833976641 0.6233561039 4291746785
-0.3146188259 -0.0828323588 0.6243154407 4292601580
-0.3155490756 -0.0823815614 0.6261613965 4291943650
-0.3164792061 -0.0819266364 0.6280071139 4291877855
-0.3174092770 -0.0814675912 0.6298526525 4292667371
-0.3187863231 -0.0811181813 0.6325852871 4293193715
-0.3206105530 -0.0808755085 0.6362051964 4292338406
-0.3074263334 -0.2332803905 0.6113904715 4289644494
-0.3070940971 -0.2323497236 0.6107297540 4284315261
-0.3067614138 -0.2314201891 0.6100681424 4280650147
-0.3047259152 -0.2292112708 0.6060200334 4279992217
-0.2988574505 -0.2241367102 0.5943492055 4279729558
-0.2912817895 -0.2178115100 0.5792832375 4279729558
-0.2862572670 -0.2134217918 0.5692906976 4279401620
-0.2837861180 -0.2109523416 0.5643762350 4279335827
-0.2821657360 -0.2091243416 0.5611537099 4279073684
-0.2809705138 -0.2076176852 0.5587767363 4278942098
-0.2806273401 -0.2067440152 0.5580942631 4278811025
-0.2798570991 -0.2055581957 0.5565624833 4278745232
-0.2790862024 -0.2043752819 0.5550293922 4278679439
-0.2795952260 -0.2041302323 0.5560416579 4278613646
-0.2783963680 -0.2026398033 0.5536574721 4278613135
-0.2780507803 -0.2017738819 0.5529702306 4278415756
-0.2777048051 -0.2009091824 0.5522821546 4278349963
-0.2777857482 -0.2003539354 0.5524430871 4278349963
-0.2774390280 -0.1994908303 0.5517535806 4278284420
-0.2770918906 -0.1986289471 0.5510631800 4278284420
-0.2767443061 -0.1977682859 0.5503719449 4278218884
-0.2763963044 -0.1969088614 0.5496798754 4278218884
-0.2764758766 -0.1963546425 0.5498381257 4278284679
-0.2756990492 -0.1951937377 0.5482932329 4278284679
-0.2757779956 -0.1946402788 0.5484502316 4278218886
-0.2758567929 -0.1940863281 0.5486068726 4278218629
-0.2755069137 -0.1932314038 0.5479111075 4278284681
-0.2755852044 -0.1926773787 0.5480667949 4278218631
-0.2752346098 -0.1918240786 0.5473695397 4278218374
-0.2748835981 -0.1909720451 0.5466714501 4278218374
-0.2749610841 -0.1904183328 0.5468255877 4278218374
-0.2746093571 -0.1895679533 0.5461260676 4278218117
-0.2746863663 -0.1890141666 0.5462792516 4278218120
-0.2743338943 -0.1881654561 0.5455783010 4278218377
-0.2739810050 -0.1873180121 0.5448764563 4278218631
-0.2736276984 -0.1864718348 0.5441738367 4278218374
-0.2741332948 -0.1862106621 0.5451793671 4278218118
-0.2737793922 -0.1853653044 0.5444754958 4278218118
-0.2729951143 -0.1842310876 0.5429158211 4278218118
-0.2726402283 -0.1833891720 0.5422100425 4278218118
-0.2731452286 -0.1831253022 0.5432143211 4278217863
-0.2723594606 -0.1819966882 0.5416516662 4278217863
-0.2724338174 -0.1814443916 0.5417995453 4278217863
-0.2720775008 -0.1806058884 0.5410909057 4278217863
-0.2721513510 -0.1800535619 0.5412377715 4278218120
-0.2717943192 -0.1792167723 0.5405277014 4278218377
-0.2718676925 -0.1786644310 0.5406736135 4278284170
-0.2710789442 -0.1775470972 0.5391050577 4278481549
-0.2715828121 -0.1772770137 0.5401070714 4278613392
-0.2712242901 -0.1764436960 0.5393940806 4278744978
-0.2708653808 -0.1756116897 0.5386803150 4278612872
-0.2705060542 -0.1747809947 0.5379657149 4278217086
-0.2701462805 -0.1739516258 0.5372502208 4278216062
-0.2702177763 -0.1734005809 0.5373923779 4278217090
-0.2698573172 -0.1725729853 0.5366755128 4278217342
-0.2699283063 -0.1720219404 0.5368167162 4278218370
-0.2699990869 -0.1714704633 0.5369575024 4280511315
-0.2692054808 -0.1703716069 0.5353792310 4281235038
-0.2688434720 -0.1695484519 0.5346592665 4283531851
-0.2689133584 -0.1689983308 0.5347982645 4284518746
-0.2689830661 -0.1684477776 0.5349368453 4287276635
-0.2686200142 -0.1676268727 0.5342148542 4288789874
-0.2686892152 -0.1670763642 0.5343524814 4290366576
-0.2683254480 -0.1662572622 0.5336290598 4290892920
-0.2679612637 -0.1654395163 0.5329048038 4291483242
-0.2675966620 -0.1646231264 0.5321797132 4291285863
-0.2680979073 -0.1643390805 0.5331764817 4291480154
-0.2677326798 -0.1635236144 0.5324501991 4291545947
-0.2678004205 -0.1629732400 0.5325849056 4291155556
-0.2674344778 -0.1621596217 0.5318571925 4291023970
-0.2675017118 -0.1616093069 0.5319908261 4289316444
-0.2671350837 -0.1607975364 0.5312616825 4287276861
-0.2672018111 -0.1602472812 0.5313944221 4280323240
-0.2672683299 -0.1596966088 0.5315266848 4280849584
-0.2673346400 -0.1591455340 0.5316585898 4281961115
-0.2669667006 -0.1583365947 0.5309268236 4282290080
-0.2670325339 -0.1577855945 0.5310577750 4284457902
-0.2670981586 -0.1572341770 0.5311883092 4286826450
-0.2667291760 -0.1564275920 0.5304544568 4289586157
-0.2667942941 -0.1558762789 0.5305839777 4290770431
-0.2668592334 -0.1553245485 0.5307131410 4292669438
-0.2669239640 -0.1547724307 0.5308418870 4292735231
-0.2665536702 -0.1539687216 0.5301054120 4292931572
-0.2666178942 -0.1534167081 0.5302331448 4292865779
-0.2666819096 -0.1528642774 0.5303605199 4292996852
-0.2663106024 -0.1520629823 0.5296220183 4292865266
-0.2663741112 -0.1515106708 0.5297483802 4293389551
-0.2664374411 -0.1509579569 0.5298743248 4292665828
-0.2665005624 -0.1504048556 0.5299998522 4290748581
-0.2665634751 -0.1498513520 0.5301249623 4286406243
-0.2670618594 -0.1495414078 0.5311161280 4292951884
-0.2662529349 -0.1485001445 0.5295073986 4293215056
-0.2663151622 -0.1479463726 0.5296310782 4292558920
-0.2663771510 -0.1473922282 0.5297544003 4292295748
-0.2660028934 -0.1465973705 0.5290101171 4291574854
-0.2660643756 -0.1460433602 0.5291323662 4294403953
-0.2661256790 -0.1454889625 0.5292542577 4294949042
-0.2657503784 -0.1446965784 0.5285079479 4294953668
-0.2658111751 -0.1441423297 0.5286288261 4294957286
-0.2658717334 -0.1435876936 0.5287492871 4294957543
-0.2659321129 -0.1430326849 0.5288693309 4294956511
-0.2659922838 -0.1424773037 0.5289889574 4294692311
-0.2660522163 -0.1419215351 0.5291082263 4294162620
-0.2661119699 -0.1413654089 0.5292270184 4292649381
-0.2666085660 -0.1410401016 0.5302146077 4291789701
-0.2666679919 -0.1404823065 0.5303328037 4290539634
-0.2667272091 -0.1399241388 0.5304505825 4290008411
-0.2667862177 -0.1393655837 0.5305679440 4289416274
-0.2672824860 -0.1390342265 0.5315548778 4290204509
-0.2673411667 -0.1384740323 0.5316715837 4291651955
-0.2669619918 -0.1376877427 0.5309174657 4293233044
-0.2670201659 -0.1371277273 0.5310331583 4294877869
-0.2670781016 -0.1365673393 0.5311484337 4294946747
-0.2671358585 -0.1360065937 0.5312632322 4294947518
-0.2671933770 -0.1354454905 0.5313776731 4294944692
-0.2672506869 -0.1348840147 0.5314916372 4293890976
-0.2673077881 -0.1343221813 0.5316051841 4292311682
-0.2673646808 -0.1337599903 0.5317183137 4290666857
-0.2674213648 -0.1331974417 0.5318310261 4290401629
-0.2674778104 -0.1326345354 0.5319433212 4290533215
-0.2679726481 -0.1322877854 0.5329273939 4290471531
-0.2680287659 -0.1317232400 0.5330389738 4291918977
-0.2680846453 -0.1311583519 0.5331501961 4293040544
-0.2681403458 -0.1305931062 0.5332609415 4294619576
-0.2686347365 -0.1302403063 0.5342441797 4294951372
-0.2686900795 -0.1296734363 0.5343542099 4294952914
-0.2691843212 -0.1293171644 0.5353371501 4294957017
-0.2696785331 -0.1289587021 0.5363199711 4294957788
-0.2697333992 -0.1283889264 0.5364291072 4294564825
-0.2702274323 -0.1280269623 0.5374116302 4294433239
-0.2702819407 -0.1274555773 0.5375199914 4294955223
-0.2703362107 -0.1268838197 0.5376279354 4294625230
-0.2699506283 -0.1261063516 0.5368611217 4294031551
-0.2700043917 -0.1255348474 0.5369679928 4292913070
-0.2704977393 -0.1251665354 0.5379491448 4291661462
-0.2709910572 -0.1247960106 0.5389302373 4290674567
-0.2710443139 -0.1242216304 0.5390361547 4291456635
-0.2710973322 -0.1236469075 0.5391415954 4290272361
-0.2711501420 -0.1230718493 0.5392466187 4289746007
-0.2712027133 -0.1224964559 0.5393511653 4289219663
-0.2716954052 -0.1221186519 0.5403310657 4289807433
-0.2717476189 -0.1215416566 0.5404348969 4290004812
-0.2717996240 -0.1209643334 0.5405382514 4291118681
-0.2718513608 -0.1203866750 0.5406411886 4291776611
-0.2719028890 -0.1198086888 0.5407436490 4289626502
-0.2719541788 -0.1192303747 0.5408456922 4291468706
-0.2724460959 -0.1188440323 0.5418239832 4291477704
-0.2724970281 -0.1182641312 0.5419252515 4292859357
-0.2729887366 -0.1178743243 0.5429031253 4293714666
-0.2730392814 -0.1172928363 0.5430036187 4293846252
-0.2735307813 -0.1168995649 0.5439810753 4293583850
-0.2740221918 -0.1165041029 0.5449583530 4293583850
-0.2740722001 -0.1159197614 0.5450578332 4293715949
-0.2745634019 -0.1155208349 0.5460346937 4293584363
-0.2746130228 -0.1149349138 0.5461333990 4293584363
-0.2751039863 -0.1145325229 0.5471097827 4293781742
-0.2751532197 -0.1139450297 0.5472076535 4293913843
-0.2756439447 -0.1135391816 0.5481836200 4294111222
-0.2761345804 -0.1131311283 0.5491594076 4294177528
-0.2766251564 -0.1127208695 0.5501350164 4294177528
-0.2771156430 -0.1123084128 0.5511104465 4293914356
-0.2776060402 -0.1118937582 0.5520857573 4293651184
-0.2776542604 -0.1112996712 0.5521816015 4293256939
-0.2781443894 -0.1108815521 0.5531563759 4292993767
-0.2786344588 -0.1104612425 0.5541309714 4292795875
-0.2791244388 -0.1100387201 0.5551054478 4292532703
-0.2800567448 -0.1097874418 0.5569595695 4292466910
-0.2805466056 -0.1093595773 0.5579337478 4292466910
-0.2810363770 -0.1089295074 0.5589078069 4292664289
-0.2810834050 -0.1083266437 0.5590013266 4292795875
-0.2815729082 -0.1078931168 0.5599747896 4292730595
-0.2820623219 -0.1074573919 0.5609480739 4292730595
-0.2825516164 -0.1070194691 0.5619211793 4292730595
-0.2830408216 -0.1065793410 0.5628940463 4292730595
-0.2835299075 -0.1061370149 0.5638667345 4292730341
-0.2840189040 -0.1056924909 0.5648392439 4292664548
-0.2845077813 -0.1052457616 0.5658115149 4292795877
-0.2845533490 -0.1046338528 0.5659020543 4292861670
-0.2850419283 -0.1041836813 0.5668737292 4292599523
-0.2855304182 -0.1037313044 0.5678452253 4292731109
-0.2860187888 -0.1032767296 0.5688164830 4292731109
-0.2865070403 -0.1028199568 0.5697875023 4292731109
-0.2869951725 -0.1023609862 0.5707582831 4292796904
-0.2879268527 -0.1020570695 0.5726110935 4291941595
-0.2884148359 -0.1015927419 0.5735815763 4290889934
-0.2893464565 -0.1012815535 0.5754343271 4291482071
-0.2902781069 -0.1009662598 0.5772871375 4290890960
-0.2907658517 -0.1004934236 0.5782571435 4290890960
-0.2912534475 -0.1000183821 0.5792268515 4290826196
-0.2917409539 -0.0995411500 0.5801963210 4290760403
-0.2922282815 -0.0990617201 0.5811655521 4291484126
-0.2931596935 -0.0987296775 0.5830178857 4292207849
-0.2936468422 -0.0982448906 0.5839866996 4290957782
-0.2945781946 -0.0979055762 0.5858388543 4290891989
-0.2950651348 -0.0974154323 0.5868073106 4291286488
-0.2955519557 -0.0969230905 0.5877754092 4291681246
-0.2960386276 -0.0964285582 0.5887432694 4290824654
-0.2969697118 -0.0960756466 0.5905950069 4292403686
-0.2974561751 -0.0955757573 0.5915624499 4292600038
-0.2979424894 -0.0950736701 0.5925295353 4292797417
-0.2988733947 -0.0947103202 0.5943809152 4292863724
-0.2993594706 -0.0942028835 0.5953475833 4292863724
-0.2998453975 -0.0936932415 0.5963139534 4291285205
-0.3003311455 -0.0931814164 0.5972800255 4291811549
-0.3008167744 -0.0926673934 0.5982457995 4292535785
-0.3017472923 -0.0922872871 0.6000963449 4291548890
-0.3022326529 -0.0917679146 0.6010616422 4292008415
-0.3027178645 -0.0912463441 0.6020265818 4292995310
-0.3032029271 -0.0907225832 0.6029912233 4293125869
-0.3036878109 -0.0901966318 0.6039555073 4293191662
-0.3041725457 -0.0896684900 0.6049195528 4292798957
-0.3046571016 -0.0891381577 0.6058831811 4292601578
-0.3055869639 -0.0887349844 0.6077324152 4292206307
-0.3060712516 -0.0881993026 0.6086955667 4291548377
-0.3070009351 -0.0877888501 0.6105444431 4292140514
-0.3074849248 -0.0872478262 0.6115069985 4291811549
-0.3084144592 -0.0868300870 0.6133555770 4291812064
-0.3088981509 -0.0862837210 0.6143175364 4291746271
-0.3098274767 -0.0858587027 0.6161657572 4291154648
-0.3103109002 -0.0853069946 0.6171271205 4291680992
-0.3112400174 -0.0848746896 0.6189749241 4291878371
-0.3117231131 -0.0843176395 0.6199356914 4291878371
-0.3126520514 -0.0838780627 0.6217830777 4291352029
-0.3135809004 -0.0834343508 0.6236302853 4291878373
-0.3145096600 -0.0829865187 0.6254773736 4292273131
-0.3154383302 -0.0825345516 0.6273242235 4291812580
-0.3163669109 -0.0820784643 0.6291709542 4292008928
-0.3168491423 -0.0815034583 0.6301299930 4292666858
-0.3182238340 -0.0811539069 0.6328638196 4293193456
-0.3200448453 -0.0809111297 0.6364853978 4292338147
-0.3060208559 -0.2327279299 0.6099425554 4289578701
-0.3056890368 -0.2317986339 0.6092812419 4284381054
-0.3049320877 -0.2305493653 0.6077725291 4280650147
-0.3028999567 -0.2283421606 0.6037222147 4280123803
-0.3021412194 -0.2271010876 0.6022099257 4279926935
-0.2971309721 -0.2226772010 0.5922238231 4279861142
-0.2899914682 -0.2166844755 0.5779937506 4279467413
-0.2858247757 -0.2129381299 0.5696889758 4279401620
-0.2833572328 -0.2104723155 0.5647708178 4279139475
-0.2817391753 -0.2086465359 0.5615457892 4279007889
-0.2805456221 -0.2071413696 0.5591669083 4278876818
-0.2802028358 -0.2062677443 0.5584836602 4278942611
-0.2794336379 -0.2050827146 0.5569505692 4278876305
-0.2790898681 -0.2042123526 0.5562653542 4278810512
-0.2778932452 -0.2027213722 0.5538803339 4278875792
-0.2775483727 -0.2018551379 0.5531929135 4278678413
-0.2772030532 -0.2009901404 0.5525046587 4278612620
-0.2772839367 -0.2004347146 0.5526658297 4278612620
-0.2769379020 -0.1995713115 0.5519761443 4278416263
-0.2765914500 -0.1987091303 0.5512856245 4278416263
-0.2762445509 -0.1978481710 0.5505942702 4278416263
-0.2758972645 -0.1969884485 0.5499020219 4278350470
-0.2759767473 -0.1964340359 0.5500604510 4278350472
-0.2752013803 -0.1952727139 0.5485150814 4278284679
-0.2752802670 -0.1947190762 0.5486722589 4278284679
-0.2753589451 -0.1941649467 0.5488291383 4278284679
-0.2750097811 -0.1933097243 0.5481331944 4278218886
-0.2750880122 -0.1927555054 0.5482890606 4278218629
-0.2747381032 -0.1919019222 0.5475916862 4278218629
-0.2748158276 -0.1913476288 0.5477465987 4278218372
-0.2744652033 -0.1904956847 0.5470477343 4278218117
-0.2741141617 -0.1896450073 0.5463480353 4278218117
-0.2746195197 -0.1893865019 0.5473553538 4278218374
-0.2742678821 -0.1885366142 0.5466544628 4278218888
-0.2739157975 -0.1876879930 0.5459526777 4278218116
-0.2735632956 -0.1868406534 0.5452501178 4278218116
-0.2736392617 -0.1862865686 0.5454015732 4278218117
-0.2732860446 -0.1854408979 0.5446975231 4278218374
-0.2733615339 -0.1848867685 0.5448480248 4278218118
-0.2725783288 -0.1837534159 0.5432869792 4278217861
-0.2722238600 -0.1829116046 0.5425804257 4278217605
-0.2722984552 -0.1823586971 0.5427290797 4278217348
-0.2719432414 -0.1815185994 0.5420210958 4278283657
-0.2720173299 -0.1809656620 0.5421687961 4278217864
-0.2716614008 -0.1801272780 0.5414593816 4278218375
-0.2713050544 -0.1792901754 0.5407491326 4278284168
-0.2713783383 -0.1787376553 0.5408952236 4278284427
-0.2710212767 -0.1779022962 0.5401835442 4278284427
-0.2710940838 -0.1773497462 0.5403286815 4278219404
-0.2707363069 -0.1765161306 0.5396155119 4278219147
-0.2703780830 -0.1756838113 0.5389015675 4278415228
-0.2700194716 -0.1748528183 0.5381867290 4279007365
-0.2696604133 -0.1740231514 0.5374711156 4278613385
-0.2697318196 -0.1734719127 0.5376134515 4278481799
-0.2693720460 -0.1726440042 0.5368964076 4278218893
-0.2694429755 -0.1720927805 0.5370377302 4278217094
-0.2695137262 -0.1715411097 0.5371787548 4278215539
-0.2691529393 -0.1707154214 0.5364596248 4278217081
-0.2679288387 -0.1693456769 0.5340198278 4279134825
-0.2684301138 -0.1690680683 0.5350189209 4279069032
-0.2680680752 -0.1682464033 0.5342973471 4281165896
-0.2681373954 -0.1676961184 0.5344355702 4281889619
-0.2682065368 -0.1671454161 0.5345733762 4284121927
-0.2678434849 -0.1663260162 0.5338497162 4285766752
-0.2674800158 -0.1655079573 0.5331252813 4288066917
-0.2671161294 -0.1646912694 0.5324000120 4289053812
-0.2676165104 -0.1644071341 0.5333973169 4290369128
-0.2672519982 -0.1635913849 0.5326708555 4290763886
-0.2668870986 -0.1627769917 0.5319435596 4289647227
-0.2669544518 -0.1622268856 0.5320777893 4287476058
-0.2665888369 -0.1614143401 0.5313490629 4283338332
-0.2666556835 -0.1608642936 0.5314822793 4282811988
-0.2667223513 -0.1603138447 0.5316151381 4281567909
-0.2663556933 -0.1595036238 0.5308843851 4281041565
-0.2664218545 -0.1589532495 0.5310162306 4283473579
-0.2660545111 -0.1581448913 0.5302840471 4286302678
-0.2661201656 -0.1575945914 0.5304149389 4290699238
-0.2661856413 -0.1570438892 0.5305454135 4291686133
-0.2662509084 -0.1564927697 0.5306754708 4293194233
-0.2658822238 -0.1556872725 0.5299406648 4293588991
-0.2659469843 -0.1551362574 0.5300697684 4293719035
-0.2660115659 -0.1545848250 0.5301984549 4293390070
-0.2656418681 -0.1537817270 0.5294616222 4293847535
-0.2657059133 -0.1532303989 0.5295892954 4293650156
-0.2657697797 -0.1526786685 0.5297165513 4293258995
-0.2653990984 -0.1518779844 0.5289776921 4293061616
-0.2654624283 -0.1513263732 0.5291039944 4293324529
-0.2655256093 -0.1507743597 0.5292298794 4293061357
-0.2655885518 -0.1502219588 0.5293553472 4291012781
-0.2656513155 -0.1496691555 0.5294803977 4286538857
-0.2657138705 -0.1491159797 0.5296050906 4292622919
-0.2653412223 -0.1483192444 0.5288624167 4292557126
-0.2649681866 -0.1475239545 0.5281188488 4292164160
-0.2650299370 -0.1469714195 0.5282419324 4292558918
-0.2646561861 -0.1461780667 0.5274969935 4291641416
-0.2647174299 -0.1456256658 0.5276190639 4292957276
-0.2647784352 -0.1450728774 0.5277406573 4294418848
-0.2648392618 -0.1445197165 0.5278618932 4294953159
-0.2644641995 -0.1437293887 0.5271143317 4294633449
-0.2645245194 -0.1431763768 0.5272345543 4294896621
-0.2645846307 -0.1426229775 0.5273544192 4294700525
-0.2646445334 -0.1420692056 0.5274738073 4294634732
-0.2651403248 -0.1417482048 0.5284619927 4294895850
-0.2651999295 -0.1411927640 0.5285807252 4294698471
-0.2652592957 -0.1406369656 0.5286991000 4294955479
-0.2653184831 -0.1400807798 0.5288170576 4294099399
-0.2653774619 -0.1395242363 0.5289345980 4293565095
-0.2654362023 -0.1389673203 0.5290517211 4291459719
-0.2654947639 -0.1384100169 0.5291684270 4290928749
-0.2655531168 -0.1378523707 0.5292846560 4290007647
-0.2656112313 -0.1372943372 0.5294005275 4289677652
-0.2656691670 -0.1367359459 0.5295159817 4290138203
-0.2657268643 -0.1361771971 0.5296310186 4291389551
-0.2657843530 -0.1356180757 0.5297456384 4293297548
-0.2658416331 -0.1350585967 0.5298597813 4294353320
-0.2658987343 -0.1344987452 0.5299735665 4294947513
-0.2659555674 -0.1339385509 0.5300868750 4294948026
-0.2660122216 -0.1333779842 0.5301997662 4294880691
-0.2660686672 -0.1328170598 0.5303122401 4293958047
-0.2661248744 -0.1322557926 0.5304242969 4291918464
-0.2666186690 -0.1319107562 0.5314085484 4290731623
-0.2657987773 -0.1309164912 0.5297743678 4289942107
-0.2667302191 -0.1307845861 0.5316308737 4290204248
-0.2667856812 -0.1302209795 0.5317413807 4290927971
-0.2672790885 -0.1298699081 0.5327247977 4291654776
-0.2673341930 -0.1293046772 0.5328346491 4293496980
-0.2678274214 -0.1289501339 0.5338177085 4294095285
-0.2678821683 -0.1283832639 0.5339268446 4294952907
-0.2679367065 -0.1278160512 0.5340355635 4294956509
-0.2684296370 -0.1274567544 0.5350180268 4294957280
-0.2684838474 -0.1268879175 0.5351260304 4294305253
-0.2685378194 -0.1263187379 0.5352336168 4294502632
-0.2685915530 -0.1257492304 0.5353407264 4294503146
-0.2686450779 -0.1251793653 0.5354474187 4294371560
-0.2691374421 -0.1248127744 0.5364287496 4294042082
-0.2696297467 -0.1244439781 0.5374100208 4293515738
-0.2696827650 -0.1238712370 0.5375156999 4294492363
-0.2697355747 -0.1232981607 0.5376209617 4293308089
-0.2697881758 -0.1227247417 0.5377257466 4292844709
-0.2698405087 -0.1221509948 0.5378301144 4291660435
-0.2703322172 -0.1217749193 0.5388101339 4291391871
-0.2703842223 -0.1211995631 0.5389137864 4291128699
-0.2704359889 -0.1206238866 0.5390169621 4293162125
-0.2704875171 -0.1200478747 0.5391196609 4294872743
-0.2705388367 -0.1194715276 0.5392219424 4293508038
-0.2710298896 -0.1190881878 0.5402007103 4294758105
-0.2710808218 -0.1185102537 0.5403022170 4293715436
-0.2715716958 -0.1181234494 0.5412805676 4293978608
-0.2716222703 -0.1175439283 0.5413813591 4293912815
-0.2716725767 -0.1169640794 0.5414816737 4293781229
-0.2721630931 -0.1165725440 0.5424593091 4293715949
-0.2726535201 -0.1161788031 0.5434367657 4293650156
-0.2731438577 -0.1157828644 0.5444141626 4293847535
-0.2736341357 -0.1153847203 0.5453913212 4294176500
-0.2741243541 -0.1149843782 0.5463684201 4294571773
-0.2741737068 -0.1143979132 0.5464667678 4294440187
-0.2746636868 -0.1139941067 0.5474433303 4294177015
-0.2751535773 -0.1135880947 0.5484197736 4293782257
-0.2756434083 -0.1131798849 0.5493960381 4293322219
-0.2761331499 -0.1127694696 0.5503721833 4293124840
-0.2766228020 -0.1123568490 0.5513481498 4292927461
-0.2771123648 -0.1119420305 0.5523239374 4292795875
-0.2771605253 -0.1113477051 0.5524199009 4292599009
-0.2776498497 -0.1109294221 0.5533952117 4292599009
-0.2781390846 -0.1105089411 0.5543702841 4292599009
-0.2786282301 -0.1100862622 0.5553452373 4292664802
-0.2795589268 -0.1098348871 0.5572002530 4292730082
-0.2800479531 -0.1094068512 0.5581749678 4292664289
-0.2805368900 -0.1089766100 0.5591495037 4292532962
-0.2810257375 -0.1085441709 0.5601238012 4292532962
-0.2810725570 -0.1079398096 0.5602171421 4292664548
-0.2820031345 -0.1076726764 0.5620719194 4292598755
-0.2824916840 -0.1072336286 0.5630456209 4292402146
-0.2825379670 -0.1066255122 0.5631378889 4292402146
-0.2830262482 -0.1061830074 0.5641111135 4292664548
-0.2835144103 -0.1057383046 0.5650840402 4292730341
-0.2840024531 -0.1052913964 0.5660568476 4292730341
-0.2844904065 -0.1048422903 0.5670293570 4292796134
-0.2845357358 -0.1042288840 0.5671197176 4292731109
-0.2854659557 -0.1039374694 0.5689737797 4292796902
-0.2859535813 -0.1034817547 0.5699456930 4292665829
-0.2864410579 -0.1030238420 0.5709173083 4292665829
-0.2869284451 -0.1025637314 0.5718887448 4292731624
-0.2874157131 -0.1021014154 0.5728599429 4291942108
-0.2883457839 -0.1017932668 0.5747137070 4291021520
-0.2888328731 -0.1013255939 0.5756845474 4291350485
-0.2897629142 -0.1010101736 0.5775382519 4291219925
-0.2902498245 -0.1005371436 0.5785087347 4291285718
-0.2911798060 -0.1002144441 0.5803623199 4291023575
-0.2916665375 -0.0997360572 0.5813323855 4290957782
-0.2921531200 -0.0992554724 0.5823022723 4291615712
-0.2930829823 -0.0989223421 0.5841555595 4292273642
-0.2935693562 -0.0984363928 0.5851250291 4290826196
-0.2940556109 -0.0979482457 0.5860942006 4290891989
-0.2945417464 -0.0974579006 0.5870631337 4291220695
-0.2950277328 -0.0969653577 0.5880317688 4291615453
-0.2959572971 -0.0966154709 0.5898845196 4291087828
-0.2964430749 -0.0961175710 0.5908527374 4292403688
-0.2969286740 -0.0956174731 0.5918206573 4292337382
-0.2974141538 -0.0951151773 0.5927882791 4292666347
-0.2983434498 -0.0947516859 0.5946404934 4292995310
-0.2992727458 -0.0943840668 0.5964926481 4292797931
-0.2997578979 -0.0938732550 0.5974596143 4291087826
-0.3002429008 -0.0933602452 0.5984263420 4291745756
-0.3007277548 -0.0928450450 0.5993927121 4292075234
-0.3012124598 -0.0923276469 0.6003587842 4291219925
-0.3016969860 -0.0918080583 0.6013245583 4291942622
-0.3026257753 -0.0914205164 0.6031756997 4292995310
-0.3031100631 -0.0908955708 0.6041409373 4293191662
-0.3035941720 -0.0903684273 0.6051058769 4293257455
-0.3040781319 -0.0898390934 0.6060704589 4292995825
-0.3045619130 -0.0893075764 0.6070347428 4292732653
-0.3054902256 -0.0889032707 0.6088849902 4292206309
-0.3059737384 -0.0883663967 0.6098487377 4291482586
-0.3064571023 -0.0878273323 0.6108120680 4292008930
-0.3073851168 -0.0874125808 0.6126617789 4291351000
-0.3078681827 -0.0868681669 0.6136245728 4292008930
-0.3083510697 -0.0863215700 0.6145870090 4292074723
-0.3092787862 -0.0858963728 0.6164360642 4291351513
-0.3097613454 -0.0853444338 0.6173979640 4291548892
-0.3102437556 -0.0847903043 0.6183594465 4291483099
-0.3111711442 -0.0843546614 0.6202078462 4291614685
-0.3120984733 -0.0839148983 0.6220561266 4291548638
-0.3130257130 -0.0834710002 0.6239042282 4292338154
-0.3139528632 -0.0830229819 0.6257522106 4292272361
-0.3148799241 -0.0825708285 0.6275999546 4291877603
-0.3153614700 -0.0819987282 0.6285597682 4292140768
-0.3162882924 -0.0815392956 0.6304070354 4292667112
-0.3176605701 -0.0811895952 0.6331421733 4293127663
-0.3190328181 -0.0808338299 0.6358773112 4292206561
-0.3054651022 -0.2328207046 0.6101856828 4289512908
-0.3047101796 -0.2315690070 0.6086776853 4284315261
-0.3043784499 -0.2306413800 0.6080150604 4280452768
-0.3036222458 -0.2293944955 0.6065044999 4280123803
-0.2952300906 -0.2223987579 0.5897406340 4279992730
-0.2851354182 -0.2141615152 0.5695758462 4279861144
-0.2894652486 -0.2167711705 0.5782249570 4279335827
-0.2827588320 -0.2111213803 0.5648284554 4279270034
-0.2811444402 -0.2092920095 0.5616036654 4279073684
-0.2799536884 -0.2077842504 0.5592250228 4279007891
-0.2796118855 -0.2069099694 0.5585422516 4279008404
-0.2792696655 -0.2060369104 0.5578586459 4279008404
-0.2785018086 -0.2048522830 0.5563247800 4279007889
-0.2777332664 -0.2036705911 0.5547896028 4278876303
-0.2773895264 -0.2028028518 0.5541029572 4278875792
-0.2770453393 -0.2019363195 0.5534154177 4278875792
-0.2767007053 -0.2010710239 0.5527270436 4278809999
-0.2763556838 -0.2002069354 0.5520377755 4278809999
-0.2760102153 -0.1993440837 0.5513477325 4278613644
-0.2765164673 -0.1990959942 0.5523589849 4278613644
-0.2757441998 -0.1979279667 0.5508163571 4278547851
-0.2753975987 -0.1970679462 0.5501239896 4278482058
-0.2754769921 -0.1965133697 0.5502825975 4278416265
-0.2751296759 -0.1956549585 0.5495887399 4278416265
-0.2752085924 -0.1951002777 0.5497463942 4278416265
-0.2748605311 -0.1942434907 0.5490511656 4278416265
-0.2745120525 -0.1933879554 0.5483550429 4278218886
-0.2745901942 -0.1928335726 0.5485110879 4278218886
-0.2742409706 -0.1919796765 0.5478135347 4278284166
-0.2743186355 -0.1914252043 0.5479686856 4278218373
-0.2739686966 -0.1905729622 0.5472696424 4278218116
-0.2740458846 -0.1900184155 0.5474238396 4278218116
-0.2741228938 -0.1894634068 0.5475776196 4278218373
-0.2737719119 -0.1886132210 0.5468765497 4278218373
-0.2734205425 -0.1877643019 0.5461746454 4278219142
-0.2734967470 -0.1872096360 0.5463268757 4278218885
-0.2731446624 -0.1863623857 0.5456235409 4278218370
-0.2732203603 -0.1858076602 0.5457748175 4278218370
-0.2728675306 -0.1849620938 0.5450699925 4278217602
-0.2720858157 -0.1838283241 0.5435084701 4278217602
-0.2717320323 -0.1829862148 0.5428017378 4278217861
-0.2718065381 -0.1824331284 0.5429506302 4278218118
-0.2714520395 -0.1815927178 0.5422424674 4278218118
-0.2715260684 -0.1810396016 0.5423903465 4278217861
-0.2715998888 -0.1804860383 0.5425378084 4278217348
-0.2712443769 -0.1796477735 0.5418276191 4278217348
-0.2708884180 -0.1788108051 0.5411165953 4278217605
-0.2705320418 -0.1779751331 0.5404047370 4278217862
-0.2706047893 -0.1774224043 0.5405500531 4278218120
-0.2702476978 -0.1765884757 0.5398367047 4278218120
-0.2698901892 -0.1757558733 0.5391225815 4278216829
-0.2699621320 -0.1752035618 0.5392662883 4278216572
-0.2696039081 -0.1743727028 0.5385507345 4278217087
-0.2692452669 -0.1735431701 0.5378342867 4278480259
-0.2688862085 -0.1727149636 0.5371170640 4278546059
-0.2689570785 -0.1721635461 0.5372586250 4279138196
-0.2690277398 -0.1716116965 0.5373997688 4279202439
-0.2686676681 -0.1707857102 0.5366804600 4278478716
-0.2683071494 -0.1699610502 0.5359603763 4278214002
-0.2688077986 -0.1696815938 0.5369604230 4278214002
-0.2675849199 -0.1683157682 0.5345176458 4278672997
-0.2676541805 -0.1677653044 0.5346559882 4278870376
-0.2677232623 -0.1672143936 0.5347939730 4278871400
-0.2673608959 -0.1663946956 0.5340701938 4279331951
-0.2669981420 -0.1655763388 0.5333455205 4280121718
-0.2670664191 -0.1650259495 0.5334818959 4280713855
-0.2667029500 -0.1642094254 0.5327558517 4283341214
-0.2663390636 -0.1633942574 0.5320289731 4283933351
-0.2664065361 -0.1628443748 0.5321637392 4283011737
-0.2660419345 -0.1620310396 0.5314354300 4281301119
-0.2661089301 -0.1614812315 0.5315692425 4280648840
-0.2657436132 -0.1606697440 0.5308395028 4281043598
-0.2658100724 -0.1601199955 0.5309723020 4281636004
-0.2658763826 -0.1595698297 0.5311047435 4284004552
-0.2655100524 -0.1587606817 0.5303729177 4287225838
-0.2655758262 -0.1582105905 0.5305043459 4289002239
-0.2652087808 -0.1574033201 0.5297711492 4292146943
-0.2652740777 -0.1568533182 0.5299016237 4292146943
-0.2653391659 -0.1563028991 0.5300316215 4293390842
-0.2649711072 -0.1554979980 0.5292963982 4293325049
-0.2650357187 -0.1549476832 0.5294254422 4293129202
-0.2646669447 -0.1541446745 0.5286887884 4293392374
-0.2647310197 -0.1535944492 0.5288168192 4293717489
-0.2647949159 -0.1530438215 0.5289444327 4293520110
-0.2644251287 -0.1522432268 0.5282057524 4293128692
-0.2640549541 -0.1514440328 0.5274662971 4293062899
-0.2645517290 -0.1511417925 0.5284586549 4293257968
-0.2641809285 -0.1503436267 0.5277179480 4293389554
-0.2642436028 -0.1497928351 0.5278431773 4292987602
-0.2643060982 -0.1492416412 0.5279679894 4289829538
-0.2643683851 -0.1486900598 0.5280924439 4292233300
-0.2644304931 -0.1481381059 0.5282164812 4291312198
-0.2644923627 -0.1475857496 0.5283401012 4291376961
-0.2641196549 -0.1467915624 0.5275955200 4292100684
-0.2641810179 -0.1462393552 0.5277181268 4291511371
-0.2642422020 -0.1456867456 0.5278403759 4290590269
-0.2638684511 -0.1448950469 0.5270937681 4291124061
-0.2639291286 -0.1443425864 0.5272150040 4294545297
-0.2635546923 -0.1435528696 0.5264670253 4294625483
-0.2636148334 -0.1430005580 0.5265871882 4294957275
-0.2636747956 -0.1424478740 0.5267069340 4294960871
-0.2637345493 -0.1418948174 0.5268263221 4294961128
-0.2637940943 -0.1413413733 0.5269452333 4294896364
-0.2638534307 -0.1407875568 0.5270637870 4294896364
-0.2639125586 -0.1402333826 0.5271819234 4294896110
-0.2639715075 -0.1396788210 0.5272995830 4294698731
-0.2640302181 -0.1391239017 0.5274168849 4294958308
-0.2640887201 -0.1385685951 0.5275337696 4294168278
-0.2641470134 -0.1380129308 0.5276502371 4294162110
-0.2642051280 -0.1374568939 0.5277662873 4292583078
-0.2642630041 -0.1369004995 0.5278819203 4291852674
-0.2643206716 -0.1363437325 0.5279971361 4290273642
-0.2643781304 -0.1357866079 0.5281119347 4290202967
-0.2644354105 -0.1352291107 0.5282262564 4289808209
-0.2649289072 -0.1348934919 0.5292120576 4290333528
-0.2649858296 -0.1343343556 0.5293257833 4292044146
-0.2650425434 -0.1337748617 0.5294390917 4293560722
-0.2650990486 -0.1332150102 0.5295519233 4294943660
-0.2647185028 -0.1324362606 0.5287917852 4294620855
-0.2647744715 -0.1318766177 0.5289036036 4294884027
-0.2648302317 -0.1313166171 0.5290150046 4294881974
-0.2653228939 -0.1309720427 0.5299991369 4293171356
-0.2645039558 -0.1299807280 0.5283632278 4292049023
-0.2654335499 -0.1298484355 0.5302201509 4290469991
-0.2659259439 -0.1294990927 0.5312036872 4289878106
-0.2664182782 -0.1291475594 0.5321872234 4290338657
-0.2660354674 -0.1283715367 0.5314224958 4290666857
-0.2665275633 -0.1280174553 0.5324054956 4292048510
-0.2665818632 -0.1274518669 0.5325139761 4292908190
-0.2666359544 -0.1268859506 0.5326220393 4294289843
-0.2675656676 -0.1267345399 0.5344791412 4294888912
-0.2676194906 -0.1261660606 0.5345866680 4294956504
-0.2676731050 -0.1255972534 0.5346937776 4294829030
-0.2677264810 -0.1250281036 0.5348004103 4294961130
-0.2677796483 -0.1244586185 0.5349066257 4294634480
-0.2678326070 -0.1238887906 0.5350124240 4294502894
-0.2683237493 -0.1235204563 0.5359935164 4294698218
-0.2683763504 -0.1229490191 0.5360985994 4294764011
-0.2684287131 -0.1223772466 0.5362031460 4294303460
-0.2689195275 -0.1220041662 0.5371836424 4293908702
-0.2689715326 -0.1214307919 0.5372875333 4293841114
-0.2690233290 -0.1208570898 0.5373909473 4293709528
-0.2690748572 -0.1202830523 0.5374938846 4294039009
-0.2695652246 -0.1199039742 0.5384734273 4294828525
-0.2696163952 -0.1193283424 0.5385756493 4293718255
-0.2696673572 -0.1187523827 0.5386774540 4293849841
-0.2701573670 -0.1183685660 0.5396562815 4294242293
-0.2702079415 -0.1177910194 0.5397573113 4294176500
-0.2706977427 -0.1174037382 0.5407357216 4294110707
-0.2707479298 -0.1168246046 0.5408359766 4294044914
-0.2716771364 -0.1166225746 0.5426921248 4294242293
-0.2721667290 -0.1162286848 0.5436701179 4294373879
-0.2722164690 -0.1156457663 0.5437694788 4294308601
-0.2727058530 -0.1152484119 0.5447470546 4294505980
-0.2731951475 -0.1148488522 0.5457244515 4293913843
-0.2736843824 -0.1144470945 0.5467016697 4293650671
-0.2741735280 -0.1140431315 0.5476787686 4293322219
-0.2746625841 -0.1136369631 0.5486557484 4292927461
-0.2751515806 -0.1132285967 0.5496324897 4292664289
-0.2756404877 -0.1128180176 0.5506091118 4292598496
-0.2761293054 -0.1124052405 0.5515856147 4292730084
-0.2766180336 -0.1119902581 0.5525618792 4292795877
-0.2766661644 -0.1113956943 0.5526579618 4292927463
-0.2771546543 -0.1109772474 0.5536337495 4292861670
-0.2776430547 -0.1105566025 0.5546094179 4292730341
-0.2785721421 -0.1103082970 0.5564653277 4292664548
-0.2790604532 -0.1098822951 0.5574406981 4292730341
-0.2795486450 -0.1094540879 0.5584159493 4292796134
-0.2800367475 -0.1090236753 0.5593909621 4292861927
-0.2805247605 -0.1085910648 0.5603657961 4292861927
-0.2810126841 -0.1081562489 0.5613404512 4292796134
-0.2815004885 -0.1077192277 0.5623148680 4292796134
-0.2819882035 -0.1072800010 0.5632891059 4292533732
-0.2824758291 -0.1068385690 0.5642631650 4292467939
-0.2825219035 -0.1062289551 0.5643551946 4292533732
-0.2830092311 -0.1057840735 0.5653286576 4292533732
-0.2839380503 -0.1055010632 0.5671840310 4292533732
-0.2839835584 -0.1048877016 0.5672749877 4292533732
-0.2844705880 -0.1044362113 0.5682477951 4292862695
-0.2849574685 -0.1039825156 0.5692204237 4292862695
-0.2858861089 -0.1036868766 0.5710754395 4292665829
-0.2863728702 -0.1032278240 0.5720477104 4292731622
-0.2868594825 -0.1027665734 0.5730198026 4292666345
-0.2873459756 -0.1023031101 0.5739915967 4291811036
-0.2882744968 -0.1019938886 0.5758463740 4291153106
-0.2892030478 -0.1016805395 0.5777012110 4291547864
-0.2896893024 -0.1012085676 0.5786725283 4291877344
-0.2901754677 -0.1007343829 0.5796436667 4291877344
-0.2906614840 -0.1002580002 0.5806145072 4291483613
-0.2911473811 -0.0997794196 0.5815851092 4291352027
-0.2920756936 -0.0994493142 0.5834394693 4291878884
-0.2925613821 -0.0989653692 0.5844097137 4292339435
-0.2934896052 -0.0986279845 0.5862638950 4290760403
-0.2939751148 -0.0981386825 0.5872337222 4290957782
-0.2944604754 -0.0976471752 0.5882032514 4291023062
-0.2949456871 -0.0971534699 0.5891724825 4291286234
-0.2954307795 -0.0966575593 0.5901414752 4291285466
-0.2963587046 -0.0963034034 0.5919950604 4292535533
-0.2968435585 -0.0958021358 0.5929636359 4292205796
-0.2977713943 -0.0954407007 0.5948169827 4292666347
-0.2982560098 -0.0949340686 0.5957850814 4292995312
-0.2987405062 -0.0944252461 0.5967528820 4292732140
-0.2992248237 -0.0939142182 0.5977203250 4290956753
-0.2997090220 -0.0934009999 0.5986875296 4291417304
-0.3001930416 -0.0928855836 0.5996544361 4291352027
-0.3006769121 -0.0923679695 0.6006209850 4290957269
-0.3011606336 -0.0918481573 0.6015872359 4292074723
-0.3020877838 -0.0914604589 0.6034392715 4292864239
-0.3025712371 -0.0909352973 0.6044049859 4293191662
-0.3030545413 -0.0904079378 0.6053704023 4293060076
-0.3039814234 -0.0900097862 0.6072219610 4292930032
