VERSION 0.7
FIELDS x y z rgba
SIZE 4 4 4 4
TYPE F F F U
COUNT 1 1 1 1
WIDTH 920
HEIGHT 1
VIEWPOINT 0.0 0.0 0.0 1.0 0.0 0.0 0.0
POINTS 920
DATA ascii
-0.2397689521 -0.1803674549 0.5010333657 4285210401
-0.2398393899 -0.1798641235 0.5011805892 4285078815
-0.2399096787 -0.1793603450 0.5013274550 4283900191
-0.2391579598 -0.1782435924 0.4997566342 4283637019
-0.2396387458 -0.1780460477 0.5007612705 4282197023
-0.2397084534 -0.1775418073 0.5009069443 4282262816
-0.2393667102 -0.1767334640 0.5001928210 4281213986
-0.2390245795 -0.1759264171 0.4994778931 4281148193
-0.2390935570 -0.1754225940 0.4996220469 4281147685
-0.2387507558 -0.1746172607 0.4989056885 4281081892
-0.2388193011 -0.1741134375 0.4990489483 4280950567
-0.2388876975 -0.1736091822 0.4991918802 4280884774
-0.2385439426 -0.1728060246 0.4984735250 4280491557
-0.2377876788 -0.1717066020 0.4968931973 4280425764
-0.2386797071 -0.1717970818 0.4987572134 4280229154
-0.2379226536 -0.1707002968 0.4971752465 4280163361
-0.2379898876 -0.1701964885 0.4973157644 4280097568
-0.2380569726 -0.1696922779 0.4974559247 4280031775
-0.2372985035 -0.1686011851 0.4958710074 4279965982
-0.2377778441 -0.1683901995 0.4968726635 4279834396
-0.2374314070 -0.1675941050 0.4961487055 4279768603
-0.2379106432 -0.1673805267 0.4971501529 4279768603
-0.2375636399 -0.1665853560 0.4964250624 4279900189
-0.2376295179 -0.1660803407 0.4965627193 4279637017
-0.2376952320 -0.1655749083 0.4967000186 4279637017
-0.2377607822 -0.1650690585 0.4968370199 4279900189
-0.2378261685 -0.1645627916 0.4969736338 4279900446
-0.2378913909 -0.1640561074 0.4971099198 4279966239
-0.2379564494 -0.1635490060 0.4972458780 4279966239
-0.2384352833 -0.1633250415 0.4982464612 4279768860
-0.2380860597 -0.1625335664 0.4975166917 4279703581
-0.2377364337 -0.1617434323 0.4967861176 4279703581
-0.2365578413 -0.1603928655 0.4943232834 4279769373
-0.2366216183 -0.1598872393 0.4944565594 4279769373
-0.2362707108 -0.1591020823 0.4937232733 4279703580
-0.2359194160 -0.1583182812 0.4929892123 4279637787
-0.2363972068 -0.1580905616 0.4939875901 4279637787
-0.2352156639 -0.1567547917 0.4915185869 4279637787
-0.2365230173 -0.1570774168 0.4942505062 4279637787
-0.2357555330 -0.1560208648 0.4926467538 4279637787
-0.2354026288 -0.1552412808 0.4919092953 4279637787
-0.2362951785 -0.1552817822 0.4937744141 4279637787
-0.2359418273 -0.1545022726 0.4930360019 4279571994
-0.2360035777 -0.1539952755 0.4931650460 4279571994
-0.2356495559 -0.1532176584 0.4924252629 4279506201
-0.2357108593 -0.1527107656 0.4925533533 4279571994
-0.2350010872 -0.1511607021 0.4910701811 4279505691
-0.2339335233 -0.1488461196 0.4888393879 4279439896
-0.2344096303 -0.1486053169 0.4898342490 4279505689
-0.2344692945 -0.1480992585 0.4899589419 4279571482
-0.2327381819 -0.1437666714 0.4863415360 4279176723
-0.2323789150 -0.1430057287 0.4855907857 4279110930
-0.2311846614 -0.1417345256 0.4830951989 4279110930
-0.2320766300 -0.1417430490 0.4849591255 4279110930
-0.2312988192 -0.1407314688 0.4833337367 4279110930
-0.2309380174 -0.1399762630 0.4825798273 4279110930
-0.2309945524 -0.1394747198 0.4826979637 4279045137
-0.2310509235 -0.1389728040 0.4828157425 4279045137
-0.2311071008 -0.1384705156 0.4829331338 4279045137
-0.2307451069 -0.1377183795 0.4821766615 4279045137
-0.2312189490 -0.1374648660 0.4831668437 4279045137
-0.2304381728 -0.1364661455 0.4815352857 4279045137
-0.2304934412 -0.1359642297 0.4816507995 4278979344
-0.2305485457 -0.1354619563 0.4817659557 4279045137
-0.2306034714 -0.1349593103 0.4818807244 4279045137
-0.2306582183 -0.1344563216 0.4819951057 4279045137
-0.2311314940 -0.1341960728 0.4829840958 4279176723
-0.2311859876 -0.1336914450 0.4830979705 4279242516
-0.2320781201 -0.1336690336 0.4849621952 4279242516
-0.2321324348 -0.1331618577 0.4850757122 4279308309
-0.2321865708 -0.1326543391 0.4851888418 4279242768
-0.2326597422 -0.1323849857 0.4861775935 4279242768
-0.2322943062 -0.1316382289 0.4854139686 4279308561
-0.2336061001 -0.1318397373 0.4881551862 4279308561
-0.2349182963 -0.1320353746 0.4908972085 4279308561
-0.2366504669 -0.1324600130 0.4945168495 4279374354
-0.2444798350 -0.1340068430 0.5108774304 4279505940
-0.2487916946 -0.1352161169 0.5198877454 4279571733
-0.2513690889 -0.1360338330 0.5252736211 4279571733
-0.2514247596 -0.1354807466 0.5253899097 4279637526
-0.2556855679 -0.1371836066 0.5342935324 4279637526
-0.2574242353 -0.1375193447 0.5379267335 4279702808
-0.2613239884 -0.1383903027 0.5460758805 4279440147
-0.2626434565 -0.1384798288 0.5488330722 4279505940
-0.2639632225 -0.1385633945 0.5515909791 4279637013
-0.2644411623 -0.1382008940 0.5525897145 4279768599
-0.2649190724 -0.1378361434 0.5535883904 4280097050
-0.2611843050 -0.1352871060 0.5457839966 4280228636
-0.2654534280 -0.1368826777 0.5547049642 4280491295
-0.2650882602 -0.1360794604 0.5539418459 4280557088
-0.2617719471 -0.1337698847 0.5470119715 4280754467
-0.2647783160 -0.1346920133 0.5532942414 4280820260
-0.2623035014 -0.1328246295 0.5481227040 4280820258
-0.2640453577 -0.1330941916 0.5517625809 4280886051
-0.2615688741 -0.1312391609 0.5465875864 4281148453
-0.2603570223 -0.1300272197 0.5440552831 4281214246
-0.2591444552 -0.1288205087 0.5415214300 4281345060
-0.2575089931 -0.1274102032 0.5381038785 4281213474
-0.2584060133 -0.1272546351 0.5399783254 4281212960
-0.2555023134 -0.1252320111 0.5339105725 4281212960
-0.2568212152 -0.1252827495 0.5366666317 4281146653
-0.2572954595 -0.1249172613 0.5376576185 4281409825
-0.2577696443 -0.1245495602 0.5386484861 4281409825
-0.2586664259 -0.1243828684 0.5405225158 4281672997
-0.2582951188 -0.1236051843 0.5397465825 4282132008
-0.2570777833 -0.1224263087 0.5372027755 4282197801
-0.2600888014 -0.1232569292 0.5434947610 4282853160
-0.2609857917 -0.1230766401 0.5453692079 4283050539
-0.2618829310 -0.1228922457 0.5472438335 4283640879
-0.2615106702 -0.1221109629 0.5464659929 4283772465
-0.2624077499 -0.1219211668 0.5483405590 4283837745
-0.2641516030 -0.1221186668 0.5519845486 4283903538
-0.2650490403 -0.1219187528 0.5538599491 4283774516
-0.2672170401 -0.1222961619 0.5583902597 4284103481
-0.2659971118 -0.1211208403 0.5558410287 4284103229
-0.2690635026 -0.1212688759 0.5622487664 4284301380
-0.2708091140 -0.1214274615 0.5658964515 4284498759
-0.2721312344 -0.1213890389 0.5686591864 4284303948
-0.2738775313 -0.1215327308 0.5723083615 4285554015
-0.2745907903 -0.2510933876 0.5751321316 4285625216
-0.2746845186 -0.2505404651 0.5753284693 4284440942
-0.2735747099 -0.2488921583 0.5730040073 4283783012
-0.2732664943 -0.2479763925 0.5723583698 4283387476
-0.2729578316 -0.2470616847 0.5717119575 4283058511
-0.2726487815 -0.2461480498 0.5710645914 4282532428
-0.2723393142 -0.2452354580 0.5704163909 4282137670
-0.2688148916 -0.2414368093 0.5630344748 4281940807
-0.2689054310 -0.2408929467 0.5632241368 4281217084
-0.2609541416 -0.2331632227 0.5465700626 4281743682
-0.2566172779 -0.2286915928 0.5374864936 4281546303
-0.2575079203 -0.2288866192 0.5393519998 4281414717
-0.2551790774 -0.2262233198 0.5344741940 4281348924
-0.2544589639 -0.2249933034 0.5329658985 4281545533
-0.2517243624 -0.2219901234 0.5272383094 4281282361
-0.2510022521 -0.2207697183 0.5257257819 4281479481
-0.2502794266 -0.2195520699 0.5242118835 4281282102
-0.2499591261 -0.2186899334 0.5235409737 4281610807
-0.2492351085 -0.2174770236 0.5220245123 4281347635
-0.2485104203 -0.2162669003 0.5205066800 4281674547
-0.2498028725 -0.2168108523 0.5232136846 4281674547
-0.2482701242 -0.2149033248 0.5200033784 4281477938
-0.2487553060 -0.2147449404 0.5210195780 4281412145
-0.2488366663 -0.2142366320 0.5211899877 4281805615
-0.2473015189 -0.2123399675 0.5179746151 4282002994
-0.2473820597 -0.2118339688 0.5181432962 4283312686
-0.2470581084 -0.2109821588 0.5174648166 4283510065
-0.2463292778 -0.2097870409 0.5159382820 4285015591
-0.2460044026 -0.2089383900 0.5152577758 4285147177
-0.2452743649 -0.2077481002 0.5137287378 4286260001
-0.2457582951 -0.2075866014 0.5147423148 4286325794
-0.2454323471 -0.2067406476 0.5140596032 4286784544
-0.2451059818 -0.2058958709 0.5133760571 4286784544
-0.2451844811 -0.2053917497 0.5135404468 4286719010
-0.2448574454 -0.2045485079 0.5128554702 4286719010
-0.2441244870 -0.2033686191 0.5113202929 4286456355
-0.2446078211 -0.2032025605 0.5123326182 4286456355
-0.2446854860 -0.2026981860 0.5124953389 4286456608
-0.2439512014 -0.2015227079 0.5109573603 4286390815
-0.2436222881 -0.2006845921 0.5102684498 4286259740
-0.2432929724 -0.1998476684 0.5095787048 4286325533
-0.2437758446 -0.1996775270 0.5105900764 4286063903
-0.2430395633 -0.1985093802 0.5090479255 4285932317
-0.2431157380 -0.1980063468 0.5092074275 4285668379
-0.2435984313 -0.1978331059 0.5102184415 4285865758
-0.2428608239 -0.1966694295 0.5086735487 4286260771
-0.2421225607 -0.1955086440 0.5071272254 4286458150
-0.2421977520 -0.1950062662 0.5072847605 4286784803
-0.2414584458 -0.1938496083 0.5057362318 4286719010
-0.2415330857 -0.1933479905 0.5058925748 4286719262
-0.2416075915 -0.1928458959 0.5060486197 4286521883
-0.2412743866 -0.1920189708 0.5053507686 4286456608
-0.2413484752 -0.1915168017 0.5055059195 4286719780
-0.2410145998 -0.1906915009 0.5048066378 4286851366
-0.2410882562 -0.1901892573 0.5049608946 4286851366
-0.2411617637 -0.1896865517 0.5051148534 4286786086
-0.2412351221 -0.1891833693 0.5052685142 4286720293
-0.2413083315 -0.1886797547 0.5054218173 4286522914
-0.2413813919 -0.1881756634 0.5055748820 4286457121
-0.2402286381 -0.1867184788 0.5031604171 4286457121
-0.2403010279 -0.1862160414 0.5033120513 4286391328
-0.2407820523 -0.1860289872 0.5043195486 4286391328
-0.2400364280 -0.1848948300 0.5027577877 4286325535
-0.2396991849 -0.1840777546 0.5020514727 4286259742
-0.2397707105 -0.1835752279 0.5022013187 4286193949
-0.2394328117 -0.1827598363 0.5014935136 4286193949
-0.2390944958 -0.1819457114 0.5007849336 4286062363
-0.2395748645 -0.1817542464 0.5017910600 4285931034
-0.2392360121 -0.1809409559 0.5010813475 4285865241
-0.2393065244 -0.1804379076 0.5012290478 4285930775
-0.2393768877 -0.1799344122 0.5013763905 4285930775
-0.2394471020 -0.1794304699 0.5015234947 4285799448
-0.2386968881 -0.1783133298 0.4999521375 4285733655
-0.2387665510 -0.1778102368 0.5000980496 4285536795
-0.2388360500 -0.1773066968 0.5002436042 4285405209
-0.2384949028 -0.1764989495 0.4995290935 4285078045
-0.2389745712 -0.1762983203 0.5005337596 4284749080
-0.2390436083 -0.1757934690 0.5006783605 4283831831
-0.2382907867 -0.1746858209 0.4991015494 4283700245
-0.2379482985 -0.1738815159 0.4983842075 4282456345
-0.2380164862 -0.1733779758 0.4985270500 4282390552
-0.2376733273 -0.1725754142 0.4978083074 4281343514
-0.2377410978 -0.1720718741 0.4979502261 4281211928
-0.2373972684 -0.1712710708 0.4972300828 4280556836
-0.2374645919 -0.1707675457 0.4973711073 4280425250
-0.2375317663 -0.1702635884 0.4975117743 4280425764
-0.2371869832 -0.1694649905 0.4967896342 4280425764
-0.2376656085 -0.1692543924 0.4977921247 4280097313
-0.2373202741 -0.1684566885 0.4970688224 4279899934
-0.2369745523 -0.1676603258 0.4963447154 4279834907
-0.2370406836 -0.1671559960 0.4964832366 4279900700
-0.2371066511 -0.1666512340 0.4966214001 4279769625
-0.2379973978 -0.1667239666 0.4984870553 4279769625
-0.2376506776 -0.1659285426 0.4977608621 4279506971
-0.2377162725 -0.1654216498 0.4978982508 4279572764
-0.2377816886 -0.1649143249 0.4980352819 4279966239
-0.2378469557 -0.1644065976 0.4981719553 4279966239
-0.2374989986 -0.1636139005 0.4974431694 4280030746
-0.2379769683 -0.1633898914 0.4984442890 4280030746
-0.2380417287 -0.1628809124 0.4985799193 4280095515
-0.2372795641 -0.1618077159 0.4969835579 4280095515
-0.2373437732 -0.1612996757 0.4971180558 4280095769
-0.2369942069 -0.1605111063 0.4963858724 4280029976
-0.2366442531 -0.1597238928 0.4956528842 4279833624
-0.2362938970 -0.1589380354 0.4949190915 4279767831
-0.2363570929 -0.1584310234 0.4950514436 4279440408
-0.2364201248 -0.1579235941 0.4951834679 4279440408
-0.2352405190 -0.1565887034 0.4927127659 4279375130
-0.2365456820 -0.1569075286 0.4954464436 4279440923
-0.2361938208 -0.1561249793 0.4947094619 4279703070
-0.2362560630 -0.1556168348 0.4948398471 4279703070
-0.2363181412 -0.1551082879 0.4949698448 4279703068
-0.2351973504 -0.1532789767 0.4926223457 4279309339
-0.2356735021 -0.1530413479 0.4936196506 4279309339
-0.2353196442 -0.1522644460 0.4928784966 4279571224
-0.2341351360 -0.1509536505 0.4903975427 4279571224
-0.2341955304 -0.1504480839 0.4905240238 4279505688
-0.2338404059 -0.1496762782 0.4897802174 4279505688
-0.2334849089 -0.1489058733 0.4890356362 4279505688
-0.2335445732 -0.1484009475 0.4891605973 4279505688
-0.2331884056 -0.1476324648 0.4884146154 4279505688
-0.2336633950 -0.1473899186 0.4894094765 4279505688
-0.2333066761 -0.1466224641 0.4886623025 4279308822
-0.2329495549 -0.1458564252 0.4879143536 4279308822
-0.2334242463 -0.1456109285 0.4889085591 4279243029
-0.2330665737 -0.1448459476 0.4881594181 4279243029
-0.2327085286 -0.1440823823 0.4874095023 4279046420
-0.2319336981 -0.1430633962 0.4857866168 4278980627
-0.2303822786 -0.1410351545 0.4825371504 4278914834
-0.2304957509 -0.1400328279 0.4827748239 4279045650
-0.2302475274 -0.1382760555 0.4822549224 4278979857
-0.2303590477 -0.1372718662 0.4824884832 4279045650
-0.2304145396 -0.1367692202 0.4826047122 4278979857
-0.2304698527 -0.1362662166 0.4827205837 4278979857
-0.2305250019 -0.1357628405 0.4828360677 4278979857
-0.2305799574 -0.1352591217 0.4829511940 4278979857
-0.2306347340 -0.1347550303 0.4830659330 4278979857
-0.2302714288 -0.1340073794 0.4823049903 4279111443
-0.2307437658 -0.1337457746 0.4832943082 4279177236
-0.2307980210 -0.1332406253 0.4834079146 4279177236
-0.2312702984 -0.1329755634 0.4843971133 4279243029
-0.2321608961 -0.1329478770 0.4862624705 4279242516
-0.2326332927 -0.1326775253 0.4872519076 4279242516
-0.2331057042 -0.1324049830 0.4882413745 4279308309
-0.2348339260 -0.1328406334 0.4918611646 4279308309
-0.2340505570 -0.1318533421 0.4902203977 4279374102
-0.2353605777 -0.1320441365 0.4929642379 4279374102
-0.2366710007 -0.1322290450 0.4957089126 4279440149
-0.2392387390 -0.1331074387 0.5010870695 4279440149
-0.2422265112 -0.1342065930 0.5073449612 4279440149
-0.2406045198 -0.1327485293 0.5039477348 4279505942
-0.2457449138 -0.1344419122 0.5147143006 4279637528
-0.2462192476 -0.1341289580 0.5157077909 4279637526
-0.2483717501 -0.1347240806 0.5202162266 4279703319
-0.2534624636 -0.1368961334 0.5308787227 4279637526
-0.2518394887 -0.1354340315 0.5274794102 4279571733
-0.2518948615 -0.1348781586 0.5275953412 4279441428
-0.2561491728 -0.1365606040 0.5365061164 4279441428
-0.2574650943 -0.1366635561 0.5392622948 4279572244
-0.2587813437 -0.1367605627 0.5420191884 4279638037
-0.2596777380 -0.1366305351 0.5438966751 4279769112
-0.2605742812 -0.1364964247 0.5457744598 4279900698
-0.2610505819 -0.1361389905 0.5467721224 4280031773
-0.2611064315 -0.1355610341 0.5468890667 4280097566
-0.2603209317 -0.1345479786 0.5452438593 4280622111
-0.2574316561 -0.1324561238 0.5391922593 4280753697
-0.2595897019 -0.1329629570 0.5437122583 4280885024
-0.2579610348 -0.1315289885 0.5403010249 4280950817
-0.2592778206 -0.1315975636 0.5430589914 4281213735
-0.2568059564 -0.1297458857 0.5378816724 4281279528
-0.2564382255 -0.1289638877 0.5371114612 4280951594
-0.2556489408 -0.1279725730 0.5354583263 4280820008
-0.2552803755 -0.1271945536 0.5346863270 4280753184
-0.2549113929 -0.1264180392 0.5339135528 4280687391
-0.2524349093 -0.1246029660 0.5287265182 4280883743
-0.2550153136 -0.1252837628 0.5341312289 4281015329
-0.2546453774 -0.1245099679 0.5333563685 4281408545
-0.2534316778 -0.1233273000 0.5308142304 4281474338
-0.2539043128 -0.1229669750 0.5318042040 4281999395
-0.2573298812 -0.1240277067 0.5389791131 4282394153
-0.2569591701 -0.1232515946 0.5382025838 4282721574
-0.2582761347 -0.1232827976 0.5409609675 4282984746
-0.2574828565 -0.1223054975 0.5392994881 4283247402
-0.2596443594 -0.1227285489 0.5438267589 4283378988
-0.2601173520 -0.1223473623 0.5448174477 4283641902
-0.2597456276 -0.1215686053 0.5440388918 4283641902
-0.2631753981 -0.1225619540 0.5512225032 4283642413
-0.2640711665 -0.1223651543 0.5530987382 4283839792
-0.2649670243 -0.1221642345 0.5549750924 4284167221
-0.2662856579 -0.1221530885 0.5577369928 4284364600
-0.2671817839 -0.1219429746 0.5596139431 4284103227
-0.2663866878 -0.1209607348 0.5579485893 4284169020
-0.2698201835 -0.1218924895 0.5651400685 4284040006
-0.2711397409 -0.1218582019 0.5679038763 4284500557
-0.2728826106 -0.1220070496 0.5715543628 4284372314
-0.2746258676 -0.1221479699 0.5752056241 4286675069
-0.2724546492 -0.2497203201 0.5719870925 4286019974
-0.2721475065 -0.2488045841 0.5713422894 4284769907
-0.2722403109 -0.2482549995 0.5715371370 4284111977
-0.2715319991 -0.2469763011 0.5700500607 4283388507
-0.2712236047 -0.2460637540 0.5694026351 4282862163
-0.2709147930 -0.2451522499 0.5687543750 4282400844
-0.2698037922 -0.2435181439 0.5664219260 4282071879
-0.2642804682 -0.2379170507 0.5548263788 4281940291
-0.2679800987 -0.2406231016 0.5625932813 4281742912
-0.2640572488 -0.2364853621 0.5543577075 4281742653
-0.2565186024 -0.2291360945 0.5385311842 4281676860
-0.2537935674 -0.2261105180 0.5328103304 4281808444
-0.2526733577 -0.2245236635 0.5304585695 4281545272
-0.2527577281 -0.2240096033 0.5306357145 4281479481
-0.2520380020 -0.2227843851 0.5291247368 4281545274
-0.2517197132 -0.2219164371 0.5284565091 4281545274
-0.2509987950 -0.2206959277 0.5269429684 4281282102
-0.2502771914 -0.2194781899 0.5254280567 4281479479
-0.2487498969 -0.2175591588 0.5222216845 4281545272
-0.2480266839 -0.2163486332 0.5207033753 4281676349
-0.2505249977 -0.2179440260 0.5259482861 4281676349
-0.2489956915 -0.2160333544 0.5227377415 4281545274
-0.2498834282 -0.2162212431 0.5246013999 4281413688
-0.2471430153 -0.2132740617 0.5188482404 4281610037
-0.2476270348 -0.2131146789 0.5198643804 4281478451
-0.2469008863 -0.2119143456 0.5183399320 4281870125
-0.2465776205 -0.2110622674 0.5176612735 4281935918
-0.2454465777 -0.2095221430 0.5152867436 4282589992
-0.2455260754 -0.2090178281 0.5154536963 4282655785
-0.2447975278 -0.2078271359 0.5139241815 4283310627
-0.2460887581 -0.2083498687 0.5166349411 4283442213
-0.2453595251 -0.2071606815 0.5151039958 4283835940
-0.2450339943 -0.2063148022 0.5144205689 4284099112
-0.2451125383 -0.2058097124 0.5145854950 4284099882
-0.2447863221 -0.2049653530 0.5139006376 4284231468
-0.2436502427 -0.2034462839 0.5115155578 4285801511
-0.2445375621 -0.2036173195 0.5133783817 4285867304
-0.2434002906 -0.2021031380 0.5109907985 4286196008
-0.2434774637 -0.2015998214 0.5111528635 4286327594
-0.2427439988 -0.2004268169 0.5096130371 4286523943
-0.2432260215 -0.2002579868 0.5106249452 4286523943
-0.2433026284 -0.1997540742 0.5107858181 4286392357
-0.2429734766 -0.1989176124 0.5100947618 4286194978
-0.2430496812 -0.1984135807 0.5102547407 4285799448
-0.2423139513 -0.1972482949 0.5087102056 4285996827
-0.2419835925 -0.1964154541 0.5080166459 4286391839
-0.2420589775 -0.1959125400 0.5081748962 4286589218
-0.2417279482 -0.1950812936 0.5074799061 4286785057
-0.2413965166 -0.1942512691 0.5067841411 4286850850
-0.2410646975 -0.1934224814 0.5060874820 4286916130
-0.2411391139 -0.1929202378 0.5062437057 4286718751
-0.2408066094 -0.1920930445 0.5055456758 4286588707
-0.2404737175 -0.1912670881 0.5048468113 4286786086
-0.2405474335 -0.1907651573 0.5050015450 4286917672
-0.2410281450 -0.1905846894 0.5060107708 4286917672
-0.2406944335 -0.1897598952 0.5053101778 4286983465
-0.2403603047 -0.1889363378 0.5046087503 4286917672
-0.2408408225 -0.1887528002 0.5056174994 4286786086
-0.2405061573 -0.1879300326 0.5049149394 4286786086
-0.2405788600 -0.1874261945 0.5050675273 4286786086
-0.2394277602 -0.1859714538 0.5026509166 4286654500
-0.2399077863 -0.1857852191 0.5036587119 4286654500
-0.2399797887 -0.1852817237 0.5038098693 4286588707
-0.2388268858 -0.1838350445 0.5013894439 4286522660
-0.2393065840 -0.1836466044 0.5023965240 4286456867
-0.2389693856 -0.1828309298 0.5016886592 4286391074
-0.2390404046 -0.1823282093 0.5018377304 4286325281
-0.2387025356 -0.1815142334 0.5011284351 4286063901
-0.2387731224 -0.1810114682 0.5012766123 4285998108
-0.2388435602 -0.1805082709 0.5014244914 4286194460
-0.2389138490 -0.1800046116 0.5015720129 4286128667
-0.2389839739 -0.1795005202 0.5017192960 4286127643
-0.2386445999 -0.1786894798 0.5010067821 4286061850
-0.2387143075 -0.1781853735 0.5011531115 4285930524
-0.2383742630 -0.1773760468 0.5004392266 4285864731
-0.2384435236 -0.1768719107 0.5005846620 4285602590
-0.2385126352 -0.1763673425 0.5007297397 4285602590
-0.2381716520 -0.1755601764 0.5000138879 4285340958
-0.2378302664 -0.1747542918 0.4992972016 4285275165
-0.2374884933 -0.1739497185 0.4985796809 4284751390
-0.2375566214 -0.1734460145 0.4987227023 4284554011
-0.2376245856 -0.1729418635 0.4988653958 4283898650
-0.2372818589 -0.1721394807 0.4981458783 4283701271
-0.2369387448 -0.1713383943 0.4974255562 4282588442
-0.2370059937 -0.1708347052 0.4975667298 4282456856
-0.2366622090 -0.1700353920 0.4968450069 4281736734
-0.2371400148 -0.1698260456 0.4978480935 4281605148
-0.2367956787 -0.1690276265 0.4971252084 4280884513
-0.2368621677 -0.1685231030 0.4972648025 4280818720
-0.2365832180 -0.1672219634 0.4966791570 4280424480
-0.2366491109 -0.1667170376 0.4968174994 4280621347
-0.2372577041 -0.1654870808 0.4980951846 4280359458
-0.2373230606 -0.1649795920 0.4982323647 4280098336
-0.2373882383 -0.1644717008 0.4983692169 4279900957
-0.2362810373 -0.1626033336 0.4960447848 4279245330
-0.2363453954 -0.1620968282 0.4961798787 4279572764
-0.2355844080 -0.1610259116 0.4945822954 4279572764
-0.2356482148 -0.1605203599 0.4947162271 4279637785
-0.2352990359 -0.1597341597 0.4939831495 4279571992
-0.2353623807 -0.1592286825 0.4941161573 4279637528
-0.2354255617 -0.1587227881 0.4942488074 4279571735
-0.2350754440 -0.1579389125 0.4935137630 4279506201
-0.2351381779 -0.1574330926 0.4936454892 4279571994
-0.2352007478 -0.1569268852 0.4937768281 4279571995
-0.2352631539 -0.1564202607 0.4939078391 4279506202
-0.2353253812 -0.1559132338 0.4940384924 4279637017
-0.2353874445 -0.1554058045 0.4941687882 4279637017
-0.2354493439 -0.1548979729 0.4942987263 4279833114
-0.2355110645 -0.1543897390 0.4944283068 4279767321
-0.2355726212 -0.1538811177 0.4945575297 4279767321
-0.2356339991 -0.1533720791 0.4946863949 4279767321
-0.2348667532 -0.1523253620 0.4930756390 4279571735
-0.2345132381 -0.1515495777 0.4923335016 4279571735
-0.2345737815 -0.1510420442 0.4924606085 4279571735
-0.2350487113 -0.1508000940 0.4934576452 4279571735
-0.2346943617 -0.1500258148 0.4927137196 4279571735
-0.2347543836 -0.1495171189 0.4928397536 4279571735
-0.2343993783 -0.1487447619 0.4920944273 4279571735
-0.2344589531 -0.1482361853 0.4922195077 4279571735
-0.2341032624 -0.1474657506 0.4914728105 4279374613
-0.2337472141 -0.1466967314 0.4907252789 4279308820
-0.2329754829 -0.1456694752 0.4891051352 4279243027
-0.2314302474 -0.1436246634 0.4858610928 4279111441
-0.2319035381 -0.1433779448 0.4868547022 4279045648
-0.2319611609 -0.1428730190 0.4869756997 4279111441
-0.2303553969 -0.1413471401 0.4836045802 4279177234
-0.2299963534 -0.1405908465 0.4828507900 4279110930
-0.2304689437 -0.1403426528 0.4838429689 4279110930
-0.2305254638 -0.1398398429 0.4839616120 4279110930
-0.2305818051 -0.1393366754 0.4840798676 4279045137
-0.2302216440 -0.1385825276 0.4833237827 4279045137
-0.2306939512 -0.1383292228 0.4843153059 4279045137
-0.2307497561 -0.1378249377 0.4844324887 4279045391
-0.2303887755 -0.1370724291 0.4836746454 4279045391
-0.2304441333 -0.1365683377 0.4837908447 4279045391
-0.2304993123 -0.1360638887 0.4839066863 4279045391
-0.2305543125 -0.1355590671 0.4840221703 4279045391
-0.2306091338 -0.1350538880 0.4841372371 4279045391
-0.2306637764 -0.1345483512 0.4842519760 4279111184
-0.2303010225 -0.1338000596 0.4834904075 4279176977
-0.2311898321 -0.1337776631 0.4853563607 4279176977
-0.2308266163 -0.1330295801 0.4845938385 4279308563
-0.2308805436 -0.1325226128 0.4847070575 4279177236
-0.2321870923 -0.1327314675 0.4874500036 4279177236
-0.2326586396 -0.1324588358 0.4884399772 4279243027
-0.2348013967 -0.1331315786 0.4929384291 4279243027
-0.2340196669 -0.1321429908 0.4912972748 4279308820
-0.2361632884 -0.1328030676 0.4957975745 4279308820
-0.2374715209 -0.1329853237 0.4985440671 4279374613
-0.2371074259 -0.1322288662 0.4977796674 4279374613
-0.2405074090 -0.1335644722 0.5049175620 4279308820
-0.2413984984 -0.1334967762 0.5067883134 4279440406
-0.2431267053 -0.1338859200 0.5104164481 4279571733
-0.2465296984 -0.1351853758 0.5175606608 4279637526
-0.2474220842 -0.1350981295 0.5194340944 4279637526
-0.2487334013 -0.1352344900 0.5221870542 4279703319
-0.2479508817 -0.1342312098 0.5205442905 4279703319
-0.2513570786 -0.1354894340 0.5276951790 4279703319
-0.2530884743 -0.1358329207 0.5313300490 4279703319
-0.2518866360 -0.1346008778 0.5288069248 4279769112
-0.2548760474 -0.1356043816 0.5350828767 4279900439
-0.2566086650 -0.1359281987 0.5387202501 4279966232
-0.2566642463 -0.1353595108 0.5388369560 4280032025
-0.2571390867 -0.1350106895 0.5398338437 4280097818
-0.2567747831 -0.1342210174 0.5390690565 4280163611
-0.2522135377 -0.1312490106 0.5294932127 4280229404
-0.2564647496 -0.1328636259 0.5384181142 4280426013
-0.2556795180 -0.1318610013 0.5367696285 4280557599
-0.2540538907 -0.1304305643 0.5333567858 4280885281
-0.2545273900 -0.1300805062 0.5343508720 4280885281
-0.2533204556 -0.1288733482 0.5318170786 4281016095
-0.2521128058 -0.1276714355 0.5292817354 4280950302
-0.2521652281 -0.1271103472 0.5293917656 4281015327
-0.2522174418 -0.1265488863 0.5295013785 4280883741
-0.2522694468 -0.1259870976 0.5296105742 4281014298
-0.2523212433 -0.1254249513 0.5297193527 4281080091
-0.2511109710 -0.1242381558 0.5271784663 4281474079
-0.2532656193 -0.1247139648 0.5317019224 4281671458
-0.2524753809 -0.1237364560 0.5300428867 4281999395
-0.2542098165 -0.1239940897 0.5336841941 4282130981
-0.2542608976 -0.1234264746 0.5337914228 4282655781
-0.2547328174 -0.1230619252 0.5347821712 4282853160
-0.2556258142 -0.1228976175 0.5366569161 4283181096
-0.2552552819 -0.1221246347 0.5358790159 4283510061
-0.2582547367 -0.1229578629 0.5421760082 4283838256
-0.2599910200 -0.1231786311 0.5458211303 4283838256
-0.2600418627 -0.1225967258 0.5459278822 4283904304
-0.2609356046 -0.1224099845 0.5478041768 4284035890
-0.2605645359 -0.1216287017 0.5470252037 4284035888
-0.2618799508 -0.1216324270 0.5497867465 4284035888
-0.2631956041 -0.1216301396 0.5525488257 4284233014
-0.2640896440 -0.1214278713 0.5544257760 4284233014
-0.2649838030 -0.1212214828 0.5563029051 4284103229
-0.2663000822 -0.1212030426 0.5590662956 4284432194
-0.2676165998 -0.1211785823 0.5618301630 4284303691
-0.2689333558 -0.1211481020 0.5645945072 4284369484
-0.2702503502 -0.1211115867 0.5673594475 4283845970
-0.2719899416 -0.1212573275 0.5710114837 4287464585
-0.2711227536 -0.2490796894 0.5705197453 4286612111
-0.2700171471 -0.2474332452 0.5681931973 4285230458
-0.2701092958 -0.2468867451 0.5683870912 4284967286
-0.2698015869 -0.2459752858 0.5677396059 4283980904
-0.2702931464 -0.2457920760 0.5687739849 4282796630
-0.2695849240 -0.2445183247 0.5672836900 4282532945
-0.2684758902 -0.2428852916 0.5649499297 4282072394
-0.2677661479 -0.2416177392 0.5634564161 4281873985
-0.2622511089 -0.2360287011 0.5518512726 4281808192
-0.2591352761 -0.2326191217 0.5452946424 4281676345
-0.2580204308 -0.2310156375 0.5429486632 4282005310
-0.2528967261 -0.2258374840 0.5321669579 4282136382
-0.2541841567 -0.2263934314 0.5348761082 4281873210
-0.2514617145 -0.2233812511 0.5291472673 4281741624
-0.2519467473 -0.2232236266 0.5301679373 4281939003
-0.2512279749 -0.2219999582 0.5286554098 4281610554
-0.2513114214 -0.2214866728 0.5288310051 4281544761
-0.2505915463 -0.2202668935 0.5273162127 4281544761
-0.2502727509 -0.2194020599 0.5266453028 4281807933
-0.2511590719 -0.2195924073 0.5285104513 4281348671
-0.2488299310 -0.2169747502 0.5236092210 4281348671
-0.2485096306 -0.2161149830 0.5229352713 4281479738
-0.2477866858 -0.2149074972 0.5214139819 4281545531
-0.2470630854 -0.2137027979 0.5198912621 4281611064
-0.2467413247 -0.2128481418 0.5192142129 4281545271
-0.2464191616 -0.2119946331 0.5185362697 4281479221
-0.2460965961 -0.2111422867 0.5178574920 4281479221
-0.2449678034 -0.2096016258 0.5154822469 4281544245
-0.2466593683 -0.2104728073 0.5190417767 4281412659
-0.2455296516 -0.2089353055 0.5166645050 4281412659
-0.2452056110 -0.2080868036 0.5159826279 4281346866
-0.2444777489 -0.2068980485 0.5144509673 4281346606
-0.2441527694 -0.2060527354 0.5137671828 4281412399
-0.2442310899 -0.2055483460 0.5139319301 4281609004
-0.2439054400 -0.2047045529 0.5132467151 4281543211
-0.2439833432 -0.2042000145 0.5134106278 4284292646
-0.2436570227 -0.2033577710 0.5127239823 4284358439
-0.2441387177 -0.2031895220 0.5137375593 4284818215
-0.2438118607 -0.2023479789 0.5130497813 4285015594
-0.2434846014 -0.2015076280 0.5123611093 4285539625
-0.2435615212 -0.2010023743 0.5125229955 4285605418
-0.2428288758 -0.1998305321 0.5109813213 4285866791
-0.2425004095 -0.1989937872 0.5102901459 4285800998
-0.2429814935 -0.1988209933 0.5113024712 4285602586
-0.2430575788 -0.1983155161 0.5114625692 4285931551
-0.2423230857 -0.1971501857 0.5099169612 4286457630
-0.2411825806 -0.1956589222 0.5075170398 4286523423
-0.2408521324 -0.1948282570 0.5068216920 4286522910
-0.2413324714 -0.1946530938 0.5078324676 4286654496
-0.2405957580 -0.1934968829 0.5062821507 4286982182
-0.2402642220 -0.1926690340 0.5055845380 4286916389
-0.2403382808 -0.1921670288 0.5057404041 4286852136
-0.2404121906 -0.1916645616 0.5058959126 4286852136
-0.2400797307 -0.1908387095 0.5051963329 4286917929
-0.2401532084 -0.1903361678 0.5053509474 4286917929
-0.2402265519 -0.1898331642 0.5055052638 4287049515
-0.2402997315 -0.1893296838 0.5056592822 4286983722
-0.2399660498 -0.1885062605 0.5049571395 4286983724
-0.2400388122 -0.1880027205 0.5051102042 4286917931
-0.2401114255 -0.1874987334 0.5052630305 4286852138
-0.2397768050 -0.1866773516 0.5045588613 4286786345
-0.2394417822 -0.1858572215 0.5038538575 4286786345
-0.2386990190 -0.1847231090 0.5022909045 4286720552
-0.2387705296 -0.1842207313 0.5024414062 4286588966
-0.2388418913 -0.1837178916 0.5025915504 4286523173
-0.2385054082 -0.1829019487 0.5018835068 4286523173
-0.2385763526 -0.1823990792 0.5020327568 4286457380
-0.2386471331 -0.1818957478 0.5021817088 4286130466
-0.2383096963 -0.1810819060 0.5014716387 4286064673
-0.2383800596 -0.1805785447 0.5016196966 4286391585
-0.2380419523 -0.1797663867 0.5009082556 4286259999
-0.2381118834 -0.1792630106 0.5010554194 4286390047
-0.2381816506 -0.1787591726 0.5012022257 4286324254
-0.2378426045 -0.1779491603 0.5004887581 4286193185
-0.2379119396 -0.1774453074 0.5006346703 4286127392
-0.2379811257 -0.1769410223 0.5007802248 4286062112
-0.2380501479 -0.1764362901 0.5009254813 4286193698
-0.2373007387 -0.1753265560 0.4993485212 4286193695
-0.2369599640 -0.1745212674 0.4986314178 4286193695
-0.2370281518 -0.1740178317 0.4987749457 4286325022
-0.2370962054 -0.1735139787 0.4989181161 4286193436
-0.2367544770 -0.1727108657 0.4981990457 4286061080
-0.2368220836 -0.1722069979 0.4983412921 4285929494
-0.2368895262 -0.1717027128 0.4984832406 4285798680
-0.2361368984 -0.1706056148 0.4968994856 4285601301
-0.2362037897 -0.1701022089 0.4970402420 4284160795
-0.2362705320 -0.1695983708 0.4971806705 4284029209
-0.2363371104 -0.1690941155 0.4973207712 4282392863
-0.2359931022 -0.1682967395 0.4965968728 4282327070
-0.2364697754 -0.1680843234 0.4975999594 4281409826
-0.2361252159 -0.1672878563 0.4968748987 4281146654
-0.2361910343 -0.1667827815 0.4970133901 4280818466
-0.2362566888 -0.1662772745 0.4971515238 4280818466
-0.2363221645 -0.1657713503 0.4972893298 4280752675
-0.2363874912 -0.1652650088 0.4974268079 4280686882
-0.2364526540 -0.1647582501 0.4975639284 4280490012
-0.2361063212 -0.1639654189 0.4968351424 4280292633
-0.2361710370 -0.1634587049 0.4969713092 4279965203
-0.2358240336 -0.1626676917 0.4962411225 4280096789
-0.2358883172 -0.1621610224 0.4963763654 4279900189
-0.2355406433 -0.1613718271 0.4956447780 4279900189
-0.2351925671 -0.1605840027 0.4949123561 4280031003
-0.2352561355 -0.1600778699 0.4950460792 4279965210
-0.2349074036 -0.1592918783 0.4943122566 4279965212
-0.2345582843 -0.1585072428 0.4935776293 4279833626
-0.2350334525 -0.1582793444 0.4945775270 4279637274
-0.2346837819 -0.1574956775 0.4938417077 4279703067
-0.2347462773 -0.1569892913 0.4939732254 4279769373
-0.2348086089 -0.1564825028 0.4941043854 4279637787
-0.2348707765 -0.1559753120 0.4942351878 4279703321
-0.2353456616 -0.1557409316 0.4952344596 4279703321
-0.2354075909 -0.1552320421 0.4953647852 4279768601
-0.2350562364 -0.1544513106 0.4946254790 4279702808
-0.2351177335 -0.1539425105 0.4947548509 4279833626
-0.2351790369 -0.1534333080 0.4948838651 4279833626
-0.2348267585 -0.1526549608 0.4941425622 4279637528
-0.2344740778 -0.1518779993 0.4934004247 4279637528
-0.2341210246 -0.1511024386 0.4926574826 4279637528
-0.2341813296 -0.1505943388 0.4927843809 4279637528
-0.2342414558 -0.1500858665 0.4929109216 4279571735
-0.2343014181 -0.1495769918 0.4930371046 4279571735
-0.2343612015 -0.1490677297 0.4931629002 4279571735
-0.2344208062 -0.1485580653 0.4932883382 4279571735
-0.2328819931 -0.1464949250 0.4900502264 4279374613
-0.2337696254 -0.1465072483 0.4919180572 4279308820
-0.2334137410 -0.1457389891 0.4911691844 4279177234
-0.2318134010 -0.1441982836 0.4878016114 4279111441
-0.2314564437 -0.1434355974 0.4870504439 4279111441
-0.2315139920 -0.1429304928 0.4871715903 4279111441
-0.2307413816 -0.1419145167 0.4855457544 4279111441
-0.2303832769 -0.1411561221 0.4847922027 4279110930
-0.2300247997 -0.1403991878 0.4840378761 4279176723
-0.2304965556 -0.1401487291 0.4850305915 4279110930
-0.2305529416 -0.1396444738 0.4851492345 4279045137
-0.2306091338 -0.1391398460 0.4852674901 4279110930
-0.2306651622 -0.1386348456 0.4853853881 4279110930
-0.2311367244 -0.1383783668 0.4863776863 4279045391
-0.2303608656 -0.1373757869 0.4847450554 4279045391
-0.2300003469 -0.1366235465 0.4839864075 4279045391
-0.2300554663 -0.1361189038 0.4841023982 4279045391
-0.2296942919 -0.1353686750 0.4833423793 4279045391
-0.2301651537 -0.1351085603 0.4843332171 4278979598
-0.2302197367 -0.1346028298 0.4844480753 4279111184
-0.2302741408 -0.1340967566 0.4845625758 4279176977
-0.2303283662 -0.1335903257 0.4846766591 4279242770
-0.2307990193 -0.1333241910 0.4856670499 4279308563
-0.2312696725 -0.1330558658 0.4866574407 4279177234
-0.2325739563 -0.1332629919 0.4894020259 4279177234
-0.2317941487 -0.1322747320 0.4877610803 4279243027
-0.2326817364 -0.1322377324 0.4896288216 4279243027
-0.2344037145 -0.1326688379 0.4932523370 4279308820
-0.2357090861 -0.1328570694 0.4959992170 4279374613
-0.2382666767 -0.1337421089 0.5013811588 4279440147
-0.2370688468 -0.1325159967 0.4988605678 4279440147
-0.2383750826 -0.1326893419 0.5016092658 4279505940
-0.2421870828 -0.1342455447 0.5096307993 4279505940
-0.2426593155 -0.1339404881 0.5106245279 4279571733
-0.2439670563 -0.1340924501 0.5133763552 4279703319
-0.2444394678 -0.1337811351 0.5143704414 4279703319
-0.2440759838 -0.1330120713 0.5136055946 4279769112
-0.2499825954 -0.1356470287 0.5260347724 4279834905
-0.2492016107 -0.1346411556 0.5243913531 4279834905
-0.2480018586 -0.1334136426 0.5218667388 4280227355
-0.2518210113 -0.1348799616 0.5299033523 4280293148
-0.2527128458 -0.1347673535 0.5317800045 4280293144
-0.2485829592 -0.1319842935 0.5230895281 4280358937
-0.2532412410 -0.1338660568 0.5328918695 4280359961
-0.2524585724 -0.1328626275 0.5312449336 4280425754
-0.2495815456 -0.1307655424 0.5251908302 4280360988
-0.2517292500 -0.1313028038 0.5297102332 4280360988
-0.2509450912 -0.1303076148 0.5280601382 4280557597
-0.2505793571 -0.1295323968 0.5272905827 4280491804
-0.2502132654 -0.1287586838 0.5265201926 4280753436
-0.2502660155 -0.1282012463 0.5266311765 4280687643
-0.2482220531 -0.1265743971 0.5223301053 4281014038
-0.2499514520 -0.1268724203 0.5259692669 4281014038
-0.2495840043 -0.1261029094 0.5251960158 4281538326
-0.2500552833 -0.1257569343 0.5261877179 4281604119
-0.2501069009 -0.1251986772 0.5262963176 4281538840
-0.2501582801 -0.1246400774 0.5264045000 4281670426
-0.2493698448 -0.1236647516 0.5247454047 4282129950
-0.2511002421 -0.1239363402 0.5283866525 4282393122
-0.2524111569 -0.1239937693 0.5311451554 4282721060
-0.2512019277 -0.1228129864 0.5286005735 4282918439
-0.2525129020 -0.1228640899 0.5313592553 4283311912
-0.2546646595 -0.1233161986 0.5358871222 4283377705
-0.2559763789 -0.1233534589 0.5386474133 4283640619
-0.2568679750 -0.1231831163 0.5405235887 4283837998
-0.2581802011 -0.1232093275 0.5432848930 4283969584
-0.2573898137 -0.1222309247 0.5416216850 4283903791
-0.2570195794 -0.1214547381 0.5408425927 4283838511
-0.2587526143 -0.1216692775 0.5444893837 4284101683
-0.2609068751 -0.1220728159 0.5490226150 4284167474
-0.2630617619 -0.1224665642 0.5535570979 4284035888
-0.2622703612 -0.1214855090 0.5518917441 4283904821
-0.2631626725 -0.1212841272 0.5537694097 4284233786
-0.2636339366 -0.1208855063 0.5547610521 4284103999
-0.2666324377 -0.1216376126 0.5610707998 4284301378
-0.2692105174 -0.1221849099 0.5664958358 4284501329
-0.2679969370 -0.1210080981 0.5639420748 4284238157
-0.2709971964 -0.1217297986 0.5702555180 4282925384
-0.2727337480 -0.1218727753 0.5739096999 4287794066
-0.2697934210 -0.2484384030 0.5690508485 4287204248
-0.2702843845 -0.2482576817 0.5700863600 4285098872
-0.2691803277 -0.2466133535 0.5677577257 4285888388
-0.2692720592 -0.2460669726 0.5679512024 4284506994
-0.2681665123 -0.2444288284 0.5656193495 4282796376
-0.2686567605 -0.2442466766 0.5666534305 4283256668
-0.2683484852 -0.2433381230 0.5660032034 4282664531
-0.2660425007 -0.2406241596 0.5611394048 4282071879
-0.2645339370 -0.2386403680 0.5579574704 4281545535
-0.2606257498 -0.2345045358 0.5497143269 4281807935
-0.2535158098 -0.2275136113 0.5347179770 4282071107
-0.2544009089 -0.2277123034 0.5365848541 4282004542
-0.2520853281 -0.2250494510 0.5317007899 4281872956
-0.2509688139 -0.2234650850 0.5293458104 4282004542
-0.2502517700 -0.2222407013 0.5278334022 4282070335
-0.2507356703 -0.2220833749 0.5288540721 4281675577
-0.2508189976 -0.2215699553 0.5290298462 4281938749
-0.2509022355 -0.2210560143 0.5292053819 4281741624
-0.2505843639 -0.2201892734 0.5285349488 4281741624
-0.2498650253 -0.2189721763 0.5270177126 4281348922
-0.2499474287 -0.2184591889 0.5271915197 4281283129
-0.2492270172 -0.2172460258 0.5256720185 4281413686
-0.2481044829 -0.2156866342 0.5233043432 4281479479
-0.2477842122 -0.2148280740 0.5226288438 4281610807
-0.2470618039 -0.2136233002 0.5211051106 4281610807
-0.2463387400 -0.2124213427 0.5195800066 4281676345
-0.2476249486 -0.2129506916 0.5222929120 4281742138
-0.2456948608 -0.2107156068 0.5182219148 4281413945
-0.2453723103 -0.2098644972 0.5175415874 4281348152
-0.2450493574 -0.2090145499 0.5168604255 4281348154
-0.2447260171 -0.2081657648 0.5161784291 4281216568
-0.2444022745 -0.2073181719 0.5154955983 4281216309
-0.2440781146 -0.2064717412 0.5148118734 4281150516
-0.2445593625 -0.2063062489 0.5158269405 4281346865
-0.2446377128 -0.2057995647 0.5159921646 4281281072
-0.2443127483 -0.2049541771 0.5153067708 4281345832
-0.2435840964 -0.2037726045 0.5137699246 4281280039
-0.2436616123 -0.2032669783 0.5139334202 4281345572
-0.2425283790 -0.2017537653 0.5115431547 4281345572
-0.2422015518 -0.2009148151 0.5108538270 4281868836
-0.2434895337 -0.2014131546 0.5135704279 4281868836
-0.2427584976 -0.2002400756 0.5120285153 4283047202
-0.2420268059 -0.1990698874 0.5104852915 4283178788
-0.2429111898 -0.1992285699 0.5123506188 4284228129
-0.2425830066 -0.1983914375 0.5116584301 4284622887
-0.2422544360 -0.1975555271 0.5109653473 4286195489
-0.2411163449 -0.1960628927 0.5085648894 4286195489
-0.2407867163 -0.1952311099 0.5078696609 4286129694
-0.2404566854 -0.1944005340 0.5071735382 4286261280
-0.2409361452 -0.1942240447 0.5081847906 4286916391
-0.2402005047 -0.1930686533 0.5066332221 4286982184
-0.2398694158 -0.1922409236 0.5059348941 4286917929
-0.2403485477 -0.1920621842 0.5069454312 4286852136
-0.2400169075 -0.1912352145 0.5062459707 4286786343
-0.2400904298 -0.1907316744 0.5064010620 4286852136
-0.2401638031 -0.1902276725 0.5065557957 4286983722
-0.2398312241 -0.1894027144 0.5058543086 4286983722
-0.2399041802 -0.1888986379 0.5060082078 4286917931
-0.2399769872 -0.1883940995 0.5061617494 4286852138
-0.2392372787 -0.1872532666 0.5046015382 4286786345
-0.2393095344 -0.1867495328 0.5047539473 4286786345
-0.2397880554 -0.1865615249 0.5057632923 4286786345
-0.2390470505 -0.1854253262 0.5042003393 4286786345
-0.2387120575 -0.1846065819 0.5034937859 4286785832
-0.2383766770 -0.1837890893 0.5027863383 4286720039
-0.2384478003 -0.1832856536 0.5029363632 4286720039
-0.2381117493 -0.1824698448 0.5022276044 4286720039
-0.2377753109 -0.1816553175 0.5015179515 4286458150
-0.2378457338 -0.1811522543 0.5016664863 4286458150
-0.2375086099 -0.1803394109 0.5009554625 4286588453
-0.2375786155 -0.1798363179 0.5011031032 4286456867
-0.2380560935 -0.1796403825 0.5021101832 4286456355
-0.2373103946 -0.1785220504 0.5005373359 4286390562
-0.2377876788 -0.1783243716 0.5015440583 4286325282
-0.2378570586 -0.1778194904 0.5016903877 4286325282
-0.2371100634 -0.1767059118 0.5001147985 4286063137
-0.2371788919 -0.1762018949 0.5002599955 4286128930
-0.2368392199 -0.1753950268 0.4995435476 4286063392
-0.2373160869 -0.1751925498 0.5005493760 4285997599
-0.2365672737 -0.1740858853 0.4989699721 4286325535
-0.2366352379 -0.1735818535 0.4991133213 4286391328
-0.2367030531 -0.1730774045 0.4992563426 4286521631
-0.2363617569 -0.1722744554 0.4985364974 4286390045
-0.2360200882 -0.1714728177 0.4978158176 4285866526
-0.2356780171 -0.1706725061 0.4970943332 4285669147
-0.2357448339 -0.1701689512 0.4972352684 4285538076
-0.2358115017 -0.1696649492 0.4973758459 4285603869
-0.2354684770 -0.1688668579 0.4966523647 4285341471
-0.2359443307 -0.1686556935 0.4976560473 4285341471
-0.2356007695 -0.1678584963 0.4969313741 4285014309
-0.2356666625 -0.1673536748 0.4970703721 4285014309
-0.2357324064 -0.1668484360 0.4972090423 4283702049
-0.2357979864 -0.1663427800 0.4973473549 4283175705
-0.2358634025 -0.1658366919 0.4974853396 4281865240
-0.2359286398 -0.1653301865 0.4976229668 4281931033
-0.2359937280 -0.1648232639 0.4977602363 4281278242
-0.2360586524 -0.1643159091 0.4978971779 4281278242
-0.2361234128 -0.1638081521 0.4980337620 4280491808
-0.2357772440 -0.1630159765 0.4973036051 4280360222
-0.2350198179 -0.1619420350 0.4957060218 4280555807
-0.2346727550 -0.1611534506 0.4949740171 4280555807
-0.2343886793 -0.1598608196 0.4943748415 4280490527
-0.2340405583 -0.1590754241 0.4936405718 4280228384
-0.2341034859 -0.1585700810 0.4937733114 4280031005
-0.2341662496 -0.1580643505 0.4939056933 4279637787
-0.2342288494 -0.1575581878 0.4940377176 4279637787
-0.2342912704 -0.1570516378 0.4941693842 4279506969
-0.2343535274 -0.1565446705 0.4943006933 4279506969
-0.2348275930 -0.1563115418 0.4953006208 4279506967
-0.2344775498 -0.1555295438 0.4945622683 4279506967
-0.2345393002 -0.1550213695 0.4946925342 4279637785
-0.2346008718 -0.1545128077 0.4948224127 4279571992
-0.2342498749 -0.1537331790 0.4940820932 4279637274
-0.2334859818 -0.1526851803 0.4924708605 4279768860
-0.2339593470 -0.1524469703 0.4934692979 4279637528
-0.2331945747 -0.1514026523 0.4918562174 4279637528
-0.2332548648 -0.1508956850 0.4919833839 4279637528
-0.2329020500 -0.1501221508 0.4912392199 4279637528
-0.2329618931 -0.1496152878 0.4913654625 4279637528
-0.2334347367 -0.1493724138 0.4923627675 4279637528
-0.2339076102 -0.1491273493 0.4933601618 4279571992
-0.2335537821 -0.1483549476 0.4926138818 4279571992
-0.2336130589 -0.1478456408 0.4927388728 4279506199
-0.2332585603 -0.1470751613 0.4919911921 4279440406
-0.2329037040 -0.1463061124 0.4912427068 4279308820
-0.2325484455 -0.1455384791 0.4904933870 4279177234
-0.2321928144 -0.1447722614 0.4897432923 4279177234
-0.2314227968 -0.1437503397 0.4881191850 4279111441
-0.2323085964 -0.1437566429 0.4899874926 4279111441
-0.2302952111 -0.1419715434 0.4857408702 4279045648
-0.2315950692 -0.1422306299 0.4884825349 4279176723
-0.2308233231 -0.1412162483 0.4868547618 4279176723
-0.2308800220 -0.1407103688 0.4869743288 4279110930
-0.2305219322 -0.1399524063 0.4862190485 4279045137
-0.2301634550 -0.1391958892 0.4854629636 4279045137
-0.2314638495 -0.1394404024 0.4882057607 4279045137
-0.2302751988 -0.1381851882 0.4856986701 4278979598
-0.2299157977 -0.1374312043 0.4849405885 4278979598
-0.2299711257 -0.1369258463 0.4850572944 4278979598
-0.2300262898 -0.1364201158 0.4851736426 4278979598
-0.2296659499 -0.1356686950 0.4844136238 4278979598
-0.2297206521 -0.1351631582 0.4845289886 4279045391
-0.2297751755 -0.1346572638 0.4846439958 4279111184
-0.2298295051 -0.1341510117 0.4847586155 4279176977
-0.2307150811 -0.1341277361 0.4866264462 4279308563
-0.2325410545 -0.1335559189 0.4904778004 4279308563
-0.2321789861 -0.1328043789 0.4897141159 4279308563
-0.2343136668 -0.1334767938 0.4942166209 4279374356
-0.2335351259 -0.1324865222 0.4925745130 4279440149
-0.2352543026 -0.1329110265 0.4962006211 4279440149
-0.2361411154 -0.1328591555 0.4980711043 4279571220
-0.2382778227 -0.1335034519 0.5025778413 4279571220
-0.2408319563 -0.1343706250 0.5079650879 4279702806
-0.2392194420 -0.1329108477 0.5045639277 4279637013
-0.2396902442 -0.1326112449 0.5055569410 4279702806
-0.2430796772 -0.1339173466 0.5127059817 4279834392
-0.2443851978 -0.1340644062 0.5154595971 4280097050
-0.2456910908 -0.1342055500 0.5182139874 4280097050
-0.2444939911 -0.1329792142 0.5156890750 4280097050
-0.2478866279 -0.1342440844 0.5228448510 4280097050
-0.2450194061 -0.1321176440 0.5167972445 4280358428
-0.2484132051 -0.1333660185 0.5239555240 4280358428
-0.2488851249 -0.1330366582 0.5249508619 4280490012
-0.2451801896 -0.1304822266 0.5171363950 4280621598
-0.2481578141 -0.1314858645 0.5234168172 4280688156
-0.2482114434 -0.1309331357 0.5235299468 4280688156
-0.2457571328 -0.1290630847 0.5183532834 4280688155
-0.2479000390 -0.1296080500 0.5228731632 4280622362
-0.2479529679 -0.1290551871 0.5229848027 4280753176
-0.2475874722 -0.1282852739 0.5222138762 4280687383
-0.2476399094 -0.1277326345 0.5223244429 4281145365
-0.2464369386 -0.1265351623 0.5197871327 4281145365
-0.2477441579 -0.1266263276 0.5225443840 4281669139
-0.2477959841 -0.1260726452 0.5226536393 4281734932
-0.2482662648 -0.1257306337 0.5236455798 4282324757
-0.2487365007 -0.1253864169 0.5246374011 4282456343
-0.2496255487 -0.1252501160 0.5265125632 4282260506
-0.2488390356 -0.1242728829 0.5248537064 4282392092
-0.2501470149 -0.1243404299 0.5276125073 4282720800
-0.2497789264 -0.1235726550 0.5268360972 4282918179
-0.2515063584 -0.1238384023 0.5304796100 4283180581
-0.2523957193 -0.1236853749 0.5323554277 4283312167
-0.2528658509 -0.1233237311 0.5333470702 4283509033
-0.2533359528 -0.1229598597 0.5343385935 4283509033
-0.2550645471 -0.1232016683 0.5379846096 4283640619
-0.2559544146 -0.1230322197 0.5398615003 4283772205
-0.2564246953 -0.1226579100 0.5408534408 4283903791
-0.2573146820 -0.1224811748 0.5427306294 4283837998
-0.2586246431 -0.1224991903 0.5454936028 4283707695
-0.2578352392 -0.1215216070 0.5438285470 4283905074
-0.2595653236 -0.1217293069 0.5474776626 4284036658
-0.2604556680 -0.1215370446 0.5493556261 4283970865
-0.2613461316 -0.1213406622 0.5512337685 4283642676
-0.2634974122 -0.1217225641 0.5557712913 4283905848
-0.2639679909 -0.1213219017 0.5567637682 4284038976
-0.2644384503 -0.1209190115 0.5577561259 4284696906
-0.2657498419 -0.1208964661 0.5605221391 4283778376
-0.2670615017 -0.1208678856 0.5632886291 4282923067
-0.2687940300 -0.1210226789 0.5669429302 4282399553
-0.2705269456 -0.1211695224 0.5705980062 4288386716
-0.2676711679 -0.2470622510 0.5658987761 4287796385
-0.2669670880 -0.2457858473 0.5644102097 4284769907
-0.2682523131 -0.2463395894 0.5671274066 4286217353
-0.2663531303 -0.2439704686 0.5631122589 4284901495
-0.2664438188 -0.2434282452 0.5633040071 4283388256
