VERSION 0.7
FIELDS x y z rgba
SIZE 4 4 4 4
TYPE F F F U
COUNT 1 1 1 1
WIDTH 920
HEIGHT 1
VIEWPOINT 0.0 0.0 0.0 1.0 0.0 0.0 0.0
POINTS 920
DATA ascii
-0.3041167855 -0.1412758529 0.4927170873 4281282353
-0.3052035868 -0.1412318200 0.4944778383 4281742904
-0.3062905967 -0.1411839873 0.4962390065 4282071869
-0.3078884482 -0.1413667947 0.4988277555 4283914073
-0.2937306762 -0.1658032387 0.4767468572 4281678140
-0.2998432815 -0.1687134206 0.4866680503 4281546552
-0.2953911126 -0.1656761169 0.4794418812 4281678138
-0.2929498553 -0.1637790799 0.4754795432 4281808956
-0.2895001769 -0.1613288820 0.4698804319 4281743163
-0.2880629599 -0.1600089669 0.4675477147 4281677370
-0.2886397243 -0.1598093063 0.4684838355 4281479991
-0.2872011065 -0.1584953517 0.4661488533 4281414198
-0.2867695093 -0.1577405035 0.4654483497 4281348405
-0.2868416011 -0.1572633684 0.4655653834 4281348405
-0.2859050333 -0.1562347710 0.4640452564 4281348405
-0.2849677801 -0.1552091837 0.4625240266 4281151026
-0.2845343351 -0.1544604599 0.4618205130 4281151026
-0.2846050858 -0.1539860964 0.4619353116 4281019440
-0.2841708958 -0.1532391906 0.4612306058 4280953647
-0.2837362587 -0.1524936259 0.4605251551 4280953647
-0.2838062048 -0.1520198733 0.4606386721 4280887854
-0.2833708525 -0.1512761414 0.4599320590 4280887854
-0.2834402919 -0.1508025378 0.4600447714 4280887854
-0.2835095525 -0.1503285915 0.4601571858 4280690475
-0.2830731571 -0.1495871842 0.4594488740 4280756268
-0.2826363146 -0.1488471180 0.4587398469 4280756268
-0.2827047706 -0.1483738422 0.4588509798 4280624682
-0.2827730477 -0.1479002088 0.4589617848 4280558889
-0.2828411460 -0.1474262327 0.4590723217 4280493096
-0.2824029624 -0.1466890275 0.4583611190 4280427303
-0.2824705541 -0.1462152302 0.4584708214 4280493096
-0.2825379670 -0.1457410753 0.4585802555 4280229922
-0.2831116617 -0.1455269158 0.4595113695 4280295715
-0.2836853862 -0.1453107297 0.4604426026 4280427301
-0.2837524712 -0.1448338628 0.4605515003 4280229922
-0.2833125591 -0.1440988779 0.4598374665 4280295715
-0.2838861048 -0.1438791156 0.4607683718 4280361508
-0.2844596803 -0.1436573118 0.4616993368 4280493094
-0.2845261395 -0.1431782544 0.4618071914 4280098336
-0.2850996852 -0.1429532170 0.4627380967 4280098338
-0.2856732905 -0.1427261233 0.4636690915 4280361510
-0.2857393920 -0.1422443539 0.4637764096 4280295717
-0.2858053148 -0.1417622268 0.4638834000 4280295717
-0.2863788009 -0.1415307224 0.4648141861 4280427303
-0.2874602079 -0.1415472478 0.4665693939 4280361510
-0.2875258923 -0.1410615593 0.4666759968 4280361510
-0.2880994976 -0.1408239156 0.4676069915 4280361510
-0.2886731327 -0.1405842155 0.4685380459 4280361510
-0.2897551358 -0.1405891031 0.4702942371 4280427303
-0.2908374071 -0.1405902207 0.4720508456 4280427303
-0.2924284935 -0.1408324987 0.4746333063 4280493096
-0.2935113907 -0.1408251971 0.4763909280 4280493096
-0.2951033413 -0.1410573274 0.4789747894 4280558889
-0.2961868644 -0.1410416067 0.4807334244 4280624682
-0.2977796495 -0.1412635744 0.4833186269 4280624682
-0.2988637686 -0.1412394047 0.4850782156 4280624423
-0.2999481261 -0.1412114501 0.4868382215 4280756009
-0.3010327220 -0.1411796957 0.4885986149 4280821802
-0.3021175563 -0.1411441565 0.4903593659 4281084974
-0.3037121892 -0.1413419545 0.4929476082 4281282353
-0.3053072989 -0.1415342242 0.4955365956 4281742904
-0.3063930571 -0.1414855272 0.4972988367 4282006076
-0.3095186949 -0.1423712224 0.5023719668 4283716694
-0.2988604605 -0.1690031737 0.4859478772 4281678140
-0.2989373207 -0.1685070843 0.4860728681 4281612347
-0.2914758325 -0.1637750417 0.4739404619 4281743933
-0.2900423706 -0.1624461114 0.4716096818 4281809726
-0.2886079848 -0.1611218154 0.4692773223 4281743933
-0.2881784737 -0.1603618860 0.4685789645 4281546554
-0.2872454822 -0.1593242437 0.4670619071 4281349175
-0.2868149877 -0.1585677862 0.4663619101 4281217589
-0.2858807147 -0.1575352848 0.4648428261 4281217589
-0.2844423652 -0.1562292725 0.4625039995 4281217589
-0.2850173116 -0.1560306102 0.4634388685 4281151796
-0.2840812504 -0.1550054252 0.4619168341 4281086003
-0.2836483121 -0.1542572379 0.4612129033 4281020210
-0.2842228413 -0.1540566832 0.4621470869 4280954417
-0.2832852304 -0.1530371606 0.4606225193 4280888624
-0.2828511298 -0.1522921324 0.4599166811 4280822831
-0.2834252417 -0.1520896703 0.4608501494 4280757038
-0.2834949493 -0.1516153961 0.4609635472 4280757038
-0.2830599248 -0.1508718431 0.4602561891 4280757038
-0.2831291556 -0.1503977180 0.4603687525 4280690475
-0.2831982076 -0.1499232352 0.4604810476 4280690475
-0.2827621400 -0.1491820216 0.4597719908 4280756268
-0.2823256552 -0.1484421492 0.4590622485 4280756268
-0.2823939025 -0.1479683369 0.4591732323 4280624682
-0.2824619710 -0.1474941820 0.4592838883 4280558889
-0.2825298607 -0.1470196694 0.4593942761 4280493096
-0.2825975418 -0.1465448290 0.4595043361 4280427303
-0.2821593881 -0.1458083391 0.4587919116 4280295717
-0.2822265923 -0.1453336626 0.4589011669 4280229924
-0.2827995121 -0.1451182514 0.4598327279 4280427303
-0.2833724618 -0.1449008137 0.4607643783 4280295717
-0.2829332054 -0.1441655159 0.4600501060 4280295717
-0.2829997540 -0.1436886340 0.4601583481 4280361510
-0.2835725248 -0.1434676200 0.4610896409 4280493096
-0.2841453254 -0.1432445496 0.4620210230 4280032545
-0.2847181559 -0.1430194378 0.4629524946 4280032543
-0.2847843170 -0.1425386518 0.4630600512 4280295715
-0.2853571475 -0.1423103064 0.4639914632 4280229924
-0.2864369750 -0.1423318237 0.4657472670 4280229924
-0.2859958112 -0.1415964216 0.4650299549 4280427303
-0.2860614359 -0.1411125809 0.4651366472 4280361510
-0.2876487970 -0.1413764358 0.4677177072 4280361508
-0.2882218063 -0.1411378533 0.4686494470 4280361508
-0.2893024087 -0.1411448270 0.4704064727 4280361508
-0.2903832495 -0.1411480308 0.4721639454 4280427301
-0.2929877043 -0.1418851614 0.4763987958 4280493096
-0.2920378447 -0.1408980638 0.4748543203 4280493096
-0.2931193709 -0.1408908069 0.4766128659 4280493096
-0.2947092652 -0.1411230713 0.4791980088 4280558889
-0.2973160744 -0.1418347210 0.4834367335 4280624680
-0.2983987927 -0.1418126374 0.4851972163 4280624680
-0.2994817495 -0.1417867690 0.4869581163 4280624423
-0.3020906448 -0.1424766779 0.4912002087 4280821802
-0.3006310165 -0.1412456483 0.4888268113 4280887595
-0.3006968796 -0.1407338530 0.4889339209 4281019181
-0.3033070564 -0.1414080262 0.4931780696 4281216560
-0.3049000800 -0.1416004151 0.4957683384 4281742904
-0.3064935803 -0.1417872608 0.4983593524 4281874490
-0.3075782955 -0.1417338848 0.5001230836 4283519315
-0.2929393947 -0.1659542322 0.4771809876 4281743933
-0.2905061245 -0.1640504450 0.4732173383 4281743933
-0.2986105680 -0.1680871397 0.4864189923 4281743933
-0.2891491055 -0.1622384638 0.4710068703 4281809726
-0.2892229557 -0.1617569327 0.4711271524 4281743933
-0.2882921100 -0.1607150286 0.4696108401 4281612347
-0.2863557935 -0.1591178179 0.4664567113 4281414968
-0.2859258354 -0.1583618820 0.4657562971 4281283382
-0.2859980464 -0.1578847319 0.4658739567 4281217589
-0.2855673134 -0.1571305990 0.4651723206 4281217589
-0.2851361632 -0.1563777775 0.4644699991 4281151796
-0.2842015624 -0.1553513110 0.4629475772 4281151796
-0.2842725217 -0.1548760980 0.4630632102 4281020210
-0.2838400602 -0.1541272402 0.4623587430 4280954417
-0.2834071815 -0.1533797234 0.4616535902 4280888624
-0.2834773660 -0.1529051214 0.4617679119 4280757038
-0.2830437422 -0.1521594375 0.4610615373 4280757038
-0.2831134200 -0.1516849697 0.4611750841 4280757038
-0.2826790512 -0.1509411186 0.4604675174 4280757038
-0.2827482522 -0.1504667997 0.4605802596 4280625197
-0.2833214104 -0.1502595097 0.4615138769 4280559404
-0.2823818624 -0.1492506266 0.4599834085 4280559404
-0.2819460034 -0.1485104412 0.4592734277 4280559404
-0.2820142508 -0.1480364352 0.4593845606 4280493866
-0.2820822597 -0.1475621015 0.4594953954 4280493866
-0.2821501195 -0.1470874101 0.4596059322 4280362280
-0.2822178006 -0.1466123760 0.4597161412 4280230694
-0.2817802727 -0.1458755881 0.4590034783 4280229924
-0.2818474472 -0.1454007179 0.4591128826 4280229924
-0.2814092040 -0.1446657926 0.4583990276 4280361510
-0.2819812298 -0.1444499791 0.4593307972 4280295717
-0.2825533152 -0.1442321241 0.4602626562 4280295717
-0.2826198339 -0.1437550634 0.4603710473 4280361510
-0.2831918895 -0.1435339600 0.4613028765 4280493096
-0.2837639749 -0.1433108300 0.4622347951 4279966752
-0.2838301957 -0.1428310424 0.4623426497 4279966750
-0.2844022512 -0.1426046640 0.4632745087 4280295715
-0.2849743664 -0.1423762441 0.4642064273 4280229924
-0.2850402296 -0.1418937445 0.4643137157 4280229924
-0.2861187160 -0.1419132501 0.4660705030 4280361510
-0.2866909206 -0.1416786909 0.4670026302 4280295717
-0.2882764637 -0.1419409811 0.4695853889 4280295715
-0.2878355086 -0.1412033886 0.4688670635 4280361508
-0.2899284363 -0.1417058706 0.4722763300 4280427301
-0.2889802158 -0.1407198906 0.4707317352 4280427301
-0.2890455127 -0.1402290314 0.4708380997 4280427303
-0.2916466594 -0.1409636140 0.4750752449 4280493096
-0.2937414348 -0.1414449662 0.4784874916 4280493096
-0.2953294814 -0.1416756362 0.4810743332 4280558889
-0.2964104414 -0.1416582316 0.4828351438 4280558887
-0.2990146577 -0.1423621327 0.4870772660 4280558887
-0.2980653346 -0.1413712054 0.4855308831 4280690216
-0.3016863763 -0.1425431371 0.4914293289 4280756009
-0.2997207642 -0.1410724521 0.4882274270 4280821802
-0.3028351665 -0.1419907510 0.4933006167 4281019181
-0.3059506714 -0.1428983063 0.4983756244 4281150767
-0.3044922948 -0.1416665763 0.4960000217 4281611318
-0.3060837388 -0.1418535411 0.4985923469 4281808697
-0.3076756001 -0.1420349479 0.5011854172 4283453522
-0.2920420170 -0.1657453775 0.4765804708 4281809726
-0.2926183045 -0.1655423790 0.4775209427 4281809726
-0.2901875675 -0.1636415720 0.4735542238 4281809726
-0.2867527306 -0.1611851752 0.4679489434 4281809726
-0.2878288925 -0.1612686962 0.4697051346 4281678140
-0.2858959734 -0.1596678048 0.4665508270 4281612347
-0.2859686613 -0.1591903716 0.4666694403 4281480761
-0.2855393291 -0.1584341228 0.4659687877 4281349175
-0.2851095498 -0.1576792002 0.4652674496 4281217589
-0.2856835127 -0.1574791223 0.4662041068 4281151796
-0.2847509086 -0.1564492285 0.4646822214 4281151796
-0.2843199670 -0.1556974202 0.4639789462 4281086003
-0.2838886082 -0.1549469233 0.4632749856 4281020210
-0.2834567726 -0.1541977674 0.4625703096 4280954417
-0.2835272551 -0.1537225097 0.4626853168 4280822831
-0.2830947042 -0.1529751718 0.4619794190 4280757038
-0.2831646800 -0.1525000334 0.4620936215 4280757038
-0.2827313840 -0.1517545283 0.4613865316 4280691245
-0.2828008533 -0.1512795389 0.4614999294 4280691245
-0.2823668420 -0.1505358666 0.4607916474 4280691245
-0.2819323540 -0.1497935355 0.4600826502 4280625452
-0.2814974785 -0.1490525454 0.4593729377 4280559659
-0.2815658450 -0.1485787034 0.4594845474 4280493866
-0.2816340327 -0.1481045187 0.4595958292 4280493866
-0.2811981142 -0.1473658830 0.4588844180 4280428073
-0.2812658250 -0.1468918622 0.4589948952 4280493096
-0.2813333273 -0.1464174986 0.4591050744 4280427303
-0.2814006507 -0.1459427923 0.4592149556 4280229924
-0.2809633911 -0.1452070475 0.4585013688 4280361510
-0.2815347612 -0.1449923515 0.4594337940 4280295717
-0.2821061909 -0.1447756141 0.4603662789 4280229924
-0.2821728885 -0.1442987025 0.4604751468 4280295717
-0.2827442884 -0.1440787315 0.4614076018 4280295717
-0.2828107178 -0.1436002851 0.4615160227 4280558376
-0.2833821177 -0.1433770806 0.4624484777 4280032032
-0.2834482789 -0.1428970993 0.4625564516 4279966750
-0.2845250368 -0.1429245174 0.4643135667 4280295715
-0.2840855718 -0.1421891451 0.4635964334 4280295717
-0.2856681049 -0.1424637586 0.4661789536 4280229924
-0.2852282524 -0.1417277157 0.4654611647 4280229924
-0.2852938175 -0.1412435025 0.4655681551 4280295717
-0.2863711119 -0.1412580907 0.4673261642 4280361508
-0.2869425714 -0.1410201937 0.4682587683 4280295715
-0.2875140905 -0.1407802403 0.4691914022 4280427301
-0.2896045446 -0.1412792206 0.4726027846 4280427301
-0.2906828821 -0.1412786990 0.4743625224 4280427303
-0.2917614579 -0.1412744075 0.4761226475 4280493096
-0.2943602502 -0.1419995427 0.4803635776 4280493096
-0.2934126556 -0.1410109252 0.4788172245 4280558889
-0.2955056429 -0.1414814889 0.4822327197 4280558887
-0.2970923185 -0.1417029798 0.4848220348 4280558887
-0.2981723845 -0.1416780055 0.4865845740 4280690216
-0.3007743359 -0.1423694938 0.4908306599 4280624423
-0.2998259366 -0.1413774490 0.4892829657 4280756009
-0.3029363155 -0.1422953308 0.4943588078 4281019181
-0.3024950624 -0.1415400952 0.4936386645 4281084974
-0.3040839434 -0.1417327225 0.4962315857 4281611318
-0.3071965873 -0.1426270306 0.5013110638 4281808697
-0.3087867200 -0.1428059489 0.5039059520 4283387729
-0.2911454439 -0.1655362248 0.4759790897 4281875519
-0.2962243259 -0.1678863466 0.4842822850 4281809726
-0.2892934084 -0.1634332240 0.4729512930 4281809726
-0.2878656983 -0.1621042490 0.4706172049 4281678140
-0.2879393399 -0.1616231799 0.4707376063 4281612347
-0.2855083346 -0.1597405076 0.4667632878 4281546554
-0.2850799561 -0.1589834839 0.4660629332 4281546554
-0.2846511602 -0.1582277715 0.4653618932 4281414968
-0.2852244377 -0.1580288410 0.4662991464 4281283382
-0.2847950161 -0.1572740823 0.4655970931 4281151796
-0.2843651474 -0.1565206498 0.4648943245 4281151796
-0.2839348614 -0.1557685286 0.4641908705 4281020210
-0.2835041285 -0.1550177336 0.4634867013 4281020210
-0.2830729783 -0.1542682648 0.4627818167 4280888624
-0.2841474414 -0.1543381810 0.4645384252 4280822831
-0.2832136452 -0.1533170193 0.4630118012 4280757038
-0.2827814519 -0.1525698602 0.4623051882 4280691245
-0.2823487818 -0.1518240422 0.4615978897 4280691245
-0.2824182510 -0.1513488740 0.4617114365 4280691245
-0.2819848657 -0.1506048888 0.4610029161 4280559659
-0.2820538282 -0.1501298696 0.4611156583 4280625452
-0.2811168134 -0.1491209567 0.4595837891 4280625452
-0.2811851799 -0.1486469358 0.4596955478 4280559659
-0.2812533379 -0.1481725574 0.4598069787 4280493866
-0.2808180451 -0.1474336237 0.4590953588 4280428073
-0.2808857262 -0.1469594240 0.4592059851 4280427303
-0.2809531987 -0.1464848667 0.4593163133 4280427303
-0.2805168927 -0.1457483023 0.4586029947 4280229924
-0.2805838883 -0.1452739239 0.4587125182 4280427303
-0.2801468074 -0.1445392370 0.4579980075 4280295204
-0.2807173133 -0.1443241388 0.4589306414 4280229411
-0.2812878191 -0.1441069990 0.4598633945 4280360997
-0.2818584144 -0.1438878030 0.4607962072 4280295204
-0.2824290395 -0.1436665803 0.4617290795 4280558630
-0.2829997241 -0.1434432864 0.4626620710 4280032286
-0.2830658555 -0.1429631263 0.4627701938 4279900957
-0.2831318378 -0.1424826235 0.4628780186 4280229922
-0.2837024033 -0.1422549039 0.4638108313 4280295717
-0.2842730284 -0.1420251429 0.4647437036 4280229924
-0.2853487134 -0.1420447379 0.4665023088 4280229924
-0.2859195173 -0.1418100148 0.4674355090 4280295717
-0.2864903808 -0.1415732205 0.4683687389 4280427301
-0.2870612442 -0.1413343996 0.4693020582 4280361508
-0.2881376743 -0.1413414627 0.4710618556 4280427301
-0.2892143726 -0.1413447708 0.4728220701 4280427301
-0.2913027704 -0.1418367773 0.4762363136 4280493096
-0.2903568149 -0.1408492625 0.4746898115 4280493096
-0.2939638495 -0.1420655251 0.4805867672 4280493096
-0.2930175960 -0.1410764605 0.4790397882 4280558889
-0.2956140041 -0.1417900771 0.4832845330 4280558887
-0.2966924310 -0.1417689174 0.4850476086 4280624680
-0.2977711260 -0.1417439580 0.4868110716 4280690216
-0.3008761406 -0.1426759809 0.4918873012 4280558630
-0.2994225323 -0.1414433122 0.4895109236 4280690216
-0.3010085821 -0.1416462660 0.4921038151 4281084974
-0.3036087751 -0.1423188746 0.4963547587 4281150767
-0.3051959276 -0.1425090134 0.4989495277 4281611318
-0.3083047569 -0.1434011757 0.5040320158 4281808697
-0.3068500161 -0.1421676576 0.5016536713 4283387729
-0.2952453792 -0.1681723446 0.4835589230 4281941312
-0.2948218882 -0.1673951149 0.4828653336 4281743933
-0.2884000540 -0.1632245779 0.4723474979 4281678140
-0.2869742215 -0.1618958712 0.4700122476 4281743678
-0.2850473821 -0.1602906138 0.4668564200 4281677885
-0.2861205935 -0.1603739262 0.4686141312 4281612092
-0.2846924365 -0.1590558589 0.4662750959 4281546299
-0.2842642665 -0.1582998335 0.4655738175 4281414713
-0.2843362689 -0.1578229815 0.4656917453 4281283127
-0.2844080925 -0.1573457718 0.4658093452 4281217334
-0.2839788496 -0.1565920264 0.4651063681 4281151541
-0.2835492194 -0.1558396071 0.4644026756 4280954162
-0.2831191421 -0.1550885141 0.4636982977 4280954162
-0.2846935093 -0.1554333419 0.4662768245 4280888369
-0.2827590108 -0.1538631022 0.4631085098 4280888369
-0.2828292549 -0.1533871144 0.4632234871 4280822576
-0.2823976874 -0.1526396573 0.4625166953 4280690990
-0.2819657028 -0.1518935263 0.4618091583 4280625197
-0.2815332711 -0.1511487514 0.4611009359 4280559404
-0.2811004221 -0.1504053026 0.4603919983 4280625197
-0.2806671262 -0.1496632099 0.4596823752 4280625197
-0.2802334428 -0.1489224583 0.4589720368 4280625452
-0.2803016305 -0.1484490931 0.4590837359 4280559659
-0.2803696394 -0.1479753852 0.4591951072 4280559659
-0.2804374695 -0.1475013345 0.4593062103 4280428073
-0.2794997096 -0.1464999616 0.4577703178 4280427303
-0.2795669138 -0.1460269243 0.4578804076 4280427303
-0.2796339393 -0.1455535442 0.4579901993 4280361510
-0.2797007859 -0.1450798362 0.4580996633 4280295717
-0.2802706361 -0.1448658556 0.4590329528 4280361251
-0.2803372145 -0.1443906128 0.4591420293 4280295458
-0.2809070349 -0.1441733986 0.4600752890 4280098079
-0.2814769149 -0.1439541429 0.4610086381 4280295458
-0.2820468247 -0.1437328309 0.4619420469 4280427044
-0.2826167941 -0.1435094774 0.4628755450 4280098079
-0.2826829255 -0.1430291235 0.4629838467 4279966750
-0.2827488482 -0.1425484270 0.4630918205 4280229922
-0.2833186984 -0.1423206478 0.4640251696 4280098338
-0.2838886082 -0.1420907974 0.4649585485 4280164131
-0.2844585478 -0.1418589056 0.4658920169 4280164131
-0.2850285470 -0.1416249573 0.4668255448 4280295717
-0.2855985761 -0.1413889676 0.4677591622 4280295715
-0.2861686051 -0.1411509067 0.4686928093 4280361508
-0.2867387235 -0.1409108043 0.4696265161 4280361508
-0.2878137827 -0.1409158558 0.4713872671 4280427301
-0.2888890803 -0.1409171224 0.4731484652 4280493096
-0.2899646759 -0.1409146041 0.4749100506 4280558889
-0.2910405099 -0.1409083009 0.4766720831 4280558889
-0.2926220000 -0.1411419809 0.4792622626 4280558889
-0.2936984301 -0.1411272436 0.4810252786 4280558887
-0.2952807546 -0.1413507313 0.4836168289 4280558887
-0.2963578105 -0.1413275301 0.4853808582 4280493348
-0.2979409397 -0.1415408254 0.4879737496 4280624934
-0.2985126376 -0.1412696987 0.4889100790 4280559141
-0.3021207452 -0.1424279511 0.4948194921 4280822313
-0.3037054837 -0.1426228881 0.4974150062 4281282864
-0.3047843874 -0.1425754279 0.4991820753 4281480243
-0.3048506975 -0.1420522332 0.4992907047 4281677622
-0.3064363599 -0.1422339827 0.5018876791 4283322447
-0.2908514440 -0.1659711152 0.4772295356 4281941312
-0.2909265757 -0.1654841006 0.4773528278 4281809726
-0.2885058224 -0.1635816693 0.4733808637 4281612347
-0.2885799706 -0.1630980968 0.4735024869 4281809471
-0.2871557176 -0.1617701352 0.4711655974 4281677885
-0.2847314775 -0.1598858237 0.4671878815 4281612092
-0.2843043804 -0.1591281891 0.4664871395 4281480506
-0.2838768661 -0.1583718508 0.4657856524 4281348920
-0.2844487429 -0.1581728160 0.4667239785 4281217334
-0.2845206559 -0.1576945782 0.4668419659 4281151541
-0.2840922177 -0.1569396853 0.4661389887 4281151541
-0.2836633325 -0.1561861187 0.4654352963 4280954162
-0.2842348516 -0.1559831053 0.4663730562 4280954162
-0.2838053703 -0.1552304924 0.4656683505 4280954162
-0.2828747928 -0.1542062908 0.4641414285 4280888369
-0.2834458947 -0.1540013552 0.4650785029 4280756783
-0.2825143039 -0.1529806554 0.4635499716 4280690990
-0.2830851674 -0.1527741849 0.4644866288 4280625197
-0.2816514671 -0.1514874548 0.4621341825 4280625197
-0.2812193632 -0.1507428586 0.4614252448 4280559659
-0.2812882662 -0.1502674669 0.4615382850 4280559659
-0.2803539336 -0.1492577046 0.4600052238 4280559659
-0.2794189155 -0.1482509822 0.4584710598 4280559659
-0.2794867754 -0.1477779448 0.4585824013 4280624682
-0.2790525556 -0.1470400989 0.4578699470 4280558889
-0.2791199386 -0.1465672106 0.4579804838 4280493096
-0.2791871130 -0.1460939944 0.4580907226 4280493096
-0.2792541087 -0.1456204355 0.4582006335 4280295717
-0.2798233032 -0.1454075873 0.4591345787 4280295717
-0.2803925574 -0.1451926976 0.4600685835 4280361251
-0.2804592252 -0.1447163969 0.4601779878 4280295458
-0.2815311849 -0.1447567642 0.4619368613 4280163872
-0.2810948789 -0.1440204531 0.4612209797 4280361251
-0.2826700211 -0.1443126351 0.4638054669 4280427044
-0.2822333276 -0.1435756534 0.4630889595 4280098079
-0.2828026414 -0.1433501691 0.4640230536 4279900957
-0.2838753164 -0.1433768570 0.4657830894 4280229922
-0.2834379077 -0.1426397115 0.4650654197 4280098338
-0.2845107913 -0.1426614374 0.4668258131 4280229924
-0.2840729058 -0.1419244707 0.4661073089 4280229924
-0.2846421897 -0.1416904330 0.4670413733 4280361510
-0.2852114737 -0.1414543539 0.4679754972 4280295715
-0.2857808471 -0.1412162185 0.4689096808 4280427301
-0.2863502204 -0.1409760267 0.4698439240 4280361508
-0.2869196236 -0.1407337785 0.4707782269 4280427301
-0.2884978056 -0.1409824193 0.4733676910 4280493096
-0.2895720005 -0.1409799308 0.4751302302 4280493096
-0.2906464338 -0.1409736574 0.4768931568 4280558889
-0.2922258377 -0.1412074715 0.4794846475 4280558889
-0.2933008671 -0.1411927491 0.4812485874 4280558887
-0.2943761647 -0.1411742270 0.4830129445 4280558887
-0.2959567606 -0.1413931847 0.4856063724 4280427555
-0.2970326543 -0.1413661987 0.4873717129 4280559141
-0.3001298904 -0.1422936022 0.4924536347 4280559141
-0.3032282293 -0.1432102621 0.4975374043 4280888106
-0.3017782569 -0.1419758201 0.4951583147 4281282864
-0.3013386428 -0.1412201375 0.4944369495 4281480243
-0.3074728251 -0.1435348690 0.5045019388 4281677622
-0.3070337474 -0.1427706778 0.5037814975 4283190861
-0.2949373424 -0.1686096042 0.4848162234 4282007105
-0.2950136065 -0.1681149006 0.4849416018 4281875519
-0.2881112397 -0.1636558324 0.4735955000 4281612347
-0.2866895497 -0.1623251736 0.4712585509 4281677885
-0.2862643898 -0.1615620852 0.4705596566 4281677885
-0.2858387828 -0.1608003229 0.4698600471 4281612092
-0.2854127288 -0.1600398570 0.4691596925 4281480506
-0.2839880288 -0.1587228030 0.4668178260 4281348920
-0.2840600908 -0.1582447588 0.4669362605 4281217334
-0.2841319740 -0.1577663422 0.4670543969 4281151541
-0.2842036486 -0.1572875679 0.4671722353 4281151541
-0.2837755680 -0.1565328389 0.4664685428 4281019955
-0.2848462164 -0.1566036791 0.4682284892 4281019955
-0.2839177847 -0.1555751711 0.4667023122 4280954162
-0.2829886675 -0.1545496881 0.4651750326 4280888369
-0.2825589478 -0.1537994444 0.4644686878 4280756783
-0.2826290429 -0.1533218920 0.4645839334 4280690990
-0.2816982567 -0.1523029357 0.4630538821 4280690990
-0.2807667851 -0.1512870193 0.4615227580 4280690990
-0.2813364267 -0.1510806233 0.4624591470 4280690475
-0.2814054191 -0.1506041884 0.4625725448 4280690475
-0.2799717188 -0.1493260264 0.4602158070 4280690475
-0.2795389891 -0.1485851705 0.4595045149 4280756268
-0.2791058719 -0.1478456557 0.4587925375 4280624682
-0.2786723077 -0.1471074969 0.4580798447 4280558889
-0.2787396312 -0.1466344446 0.4581905305 4280558889
-0.2788067758 -0.1461610347 0.4583009183 4280427303
-0.2788737714 -0.1456872821 0.4584110081 4280427303
-0.2789405286 -0.1452132016 0.4585207701 4280295717
-0.2795089483 -0.1449990869 0.4594551325 4280229924
-0.2800774276 -0.1447829306 0.4603895545 4280164131
-0.2806459367 -0.1445647329 0.4613240659 4280098338
-0.2807123065 -0.1440867186 0.4614332020 4280295717
-0.2812808156 -0.1438652724 0.4623676836 4280492583
-0.2818493545 -0.1436417848 0.4633022547 4280163618
-0.2819154263 -0.1431610435 0.4634108543 4279900700
-0.2824839354 -0.1429342926 0.4643453658 4280295458
-0.2830524743 -0.1427055001 0.4652799666 4280229411
-0.2836210728 -0.1424746513 0.4662145972 4280295204
-0.2841897011 -0.1422417462 0.4671493173 4280360997
-0.2847583890 -0.1420067847 0.4680840969 4280426790
-0.2853271067 -0.1417697668 0.4690189660 4280361251
-0.2858958542 -0.1415306926 0.4699538648 4280492837
-0.2879749835 -0.1420344859 0.4733715355 4280492837
-0.2870334387 -0.1410463601 0.4718238413 4280492837
-0.2906243801 -0.1422806233 0.4777265787 4280492583
-0.2891787589 -0.1410452276 0.4753502905 4280492583
-0.2917635143 -0.1417735666 0.4795991182 4280558376
-0.2928371429 -0.1417609304 0.4813639522 4280558376
-0.2939110398 -0.1417444944 0.4831291735 4280624423
-0.2954894006 -0.1419665217 0.4857237041 4280624423
-0.2965638936 -0.1419416219 0.4874899387 4280493094
-0.2991520464 -0.1426344961 0.4917443097 4280558887
-0.2977043986 -0.1414010674 0.4893647134 4280624680
-0.2982746959 -0.1411276758 0.4903021455 4280887852
-0.3023786247 -0.1425177008 0.4970481694 4281282610
-0.3039595485 -0.1427081823 0.4996468425 4281479989
-0.3065509498 -0.1433654875 0.5039066076 4281743161
-0.3056072891 -0.1423665285 0.5023553967 4283124814
-0.2945327163 -0.1686859131 0.4850355983 4282072898
-0.2901301086 -0.1656340659 0.4777854085 4281875519
-0.2916983366 -0.1659961343 0.4803679585 4281612347
-0.2862964571 -0.1623987406 0.4714721441 4281546299
-0.2863699496 -0.1619169414 0.4715932012 4281546299
-0.2844506204 -0.1603117585 0.4684324563 4281546299
-0.2855198383 -0.1603924185 0.4701932371 4281480506
-0.2840973139 -0.1590739638 0.4678506255 4281348920
-0.2841694653 -0.1585948914 0.4679694176 4281283127
-0.2842414081 -0.1581154615 0.4680879414 4281217334
-0.2838144004 -0.1573591083 0.4673847258 4281217334
-0.2833869755 -0.1566040814 0.4666808248 4281151541
-0.2839571834 -0.1564001143 0.4676198661 4281085748
-0.2840282917 -0.1559200734 0.4677369595 4280954162
-0.2835999131 -0.1551664919 0.4670315385 4280888369
-0.2826716900 -0.1541419029 0.4655029476 4280822576
-0.2817428112 -0.1531203389 0.4639732242 4280822576
-0.2813128829 -0.1523724496 0.4632652402 4280756783
-0.2803827524 -0.1513561010 0.4617335200 4280756783
-0.2804517746 -0.1508806944 0.4618471861 4280756268
-0.2800205946 -0.1501368284 0.4611370862 4280756268
-0.2790887952 -0.1491270661 0.4596026242 4280756268
-0.2786566317 -0.1483867466 0.4588909149 4280756268
-0.2782240212 -0.1476477832 0.4581784904 4280624682
-0.2787920237 -0.1474395841 0.4591138959 4280558889
-0.2783588171 -0.1467016339 0.4584004879 4280493096
-0.2784259319 -0.1462280452 0.4585110247 4280427303
-0.2789937556 -0.1460162550 0.4594461024 4280493096
-0.2790606320 -0.1455411315 0.4595562518 4280361510
-0.2796284556 -0.1453261077 0.4604913294 4280229924
-0.2801963091 -0.1451090276 0.4614264667 4280164131
-0.2807642221 -0.1448899060 0.4623617232 4280098338
-0.2808307111 -0.1444108486 0.4624712169 4280295717
-0.2813986242 -0.1441884786 0.4634064138 4280427303
-0.2814648449 -0.1437078863 0.4635154605 4280098338
-0.2820326984 -0.1434822679 0.4644506276 4279769371
-0.2831025720 -0.1435090303 0.4662124813 4280229922
-0.2826665044 -0.1427712739 0.4654943645 4280164129
-0.2842387557 -0.1430457979 0.4680835605 4280295715
-0.2838023007 -0.1423073560 0.4673648179 4280295715
-0.2843702734 -0.1420723200 0.4683001339 4280361508
-0.2849382758 -0.1418352127 0.4692355096 4280295715
-0.2855063081 -0.1415960640 0.4701709449 4280361508
-0.2860743701 -0.1413548440 0.4711064398 4280427301
-0.2866424620 -0.1411115676 0.4720419645 4280361508
-0.2877135873 -0.1411129236 0.4738059044 4280361508
-0.2892880738 -0.1413563341 0.4763987660 4280361508
-0.2903598249 -0.1413492560 0.4781637192 4280427301
-0.2919351757 -0.1415824741 0.4807580113 4280493094
-0.2930075526 -0.1415669322 0.4825239778 4280493094
-0.2940801680 -0.1415475905 0.4842903614 4280493094
-0.2951530218 -0.1415244341 0.4860571325 4280493094
-0.2967298925 -0.1417381167 0.4886539280 4280624680
-0.2993150353 -0.1424258053 0.4929111302 4280690473
-0.3008930683 -0.1426266432 0.4955098331 4280887852
-0.3034797907 -0.1432980150 0.4997696280 4281282610
-0.3020335734 -0.1420630217 0.4973880053 4281479989
-0.3036125004 -0.1422506720 0.4999881983 4281743161
-0.3051919043 -0.1424327642 0.5025891066 4283124814
-0.2902280092 -0.1659932286 0.4788214266 4281875519
-0.2873204350 -0.1638040692 0.4740244746 4281480761
-0.2883889079 -0.1638850868 0.4757872522 4281480506
-0.2874683142 -0.1628354639 0.4742684662 4281480506
-0.2855520844 -0.1612270772 0.4711070359 4281480506
-0.2851274610 -0.1604651511 0.4704064727 4281348920
-0.2842046618 -0.1594253480 0.4688840508 4281283127
-0.2842769027 -0.1589452624 0.4690032303 4281283127
-0.2843489647 -0.1584648043 0.4691221118 4281283127
-0.2849189639 -0.1582606584 0.4700624943 4281283127
-0.2834960818 -0.1569511145 0.4677149951 4281151541
-0.2835673392 -0.1564712524 0.4678325653 4281085748
-0.2831399143 -0.1557168812 0.4671274424 4280954162
-0.2827120721 -0.1549638361 0.4664215744 4280888369
-0.2817850709 -0.1539396644 0.4648921788 4280888369
-0.2813562453 -0.1531901360 0.4641847014 4280822576
-0.2819249630 -0.1529834718 0.4651229680 4280822576
-0.2809964120 -0.1519650072 0.4635910392 4280822576
-0.2805664241 -0.1512186378 0.4628816247 4280756268
-0.2806353569 -0.1507418454 0.4629953504 4280756268
-0.2797051370 -0.1497299522 0.4614606798 4280756268
-0.2787742615 -0.1487211138 0.4599249363 4280690475
-0.2783424556 -0.1479809880 0.4592124820 4280690475
-0.2779102027 -0.1472422332 0.4584993422 4280558889
-0.2784774303 -0.1470327675 0.4594351947 4280493096
-0.2785446346 -0.1465581357 0.4595460892 4280427303
-0.2781114578 -0.1458209008 0.4588314295 4280427303
-0.2786785066 -0.1456078589 0.4597669244 4280361510
-0.2787451744 -0.1451321989 0.4598769248 4280295717
-0.2793121934 -0.1449159086 0.4608123899 4280295717
-0.2798792720 -0.1446975768 0.4617479742 4280229924
-0.2804464102 -0.1444771886 0.4626836479 4280295717
-0.2805126905 -0.1439975947 0.4627929628 4280361510
-0.2810797989 -0.1437739581 0.4637285769 4280032545
-0.2811457813 -0.1432928443 0.4638374746 4279769371
-0.2817128599 -0.1430659443 0.4647730589 4280295715
-0.2822799981 -0.1428370029 0.4657087028 4280295715
-0.2828471661 -0.1426060051 0.4666444063 4280361508
-0.2834143639 -0.1423729360 0.4675801992 4280229922
-0.2844833434 -0.1423889548 0.4693438113 4280295715
-0.2850507498 -0.1421509087 0.4702799022 4280295715
-0.2856181860 -0.1419108063 0.4712160528 4280361508
-0.2861856520 -0.1416686475 0.4721522927 4280427301
-0.2872553170 -0.1416721046 0.4739170671 4280361508
-0.2898322046 -0.1424122155 0.4781684279 4280361508
-0.2888930738 -0.1414216906 0.4766190350 4280295715
-0.2924760878 -0.1426400691 0.4825303555 4280361508
-0.2915366590 -0.1416479945 0.4809804857 4280427301
-0.2936131656 -0.1421191841 0.4844062924 4280493094
-0.2946845889 -0.1420981139 0.4861739576 4280558887
-0.2957562804 -0.1420732588 0.4879420102 4280558887
-0.2973313034 -0.1422853321 0.4905405045 4280756266
-0.2989067733 -0.1424918622 0.4931397438 4280756266
-0.2984694242 -0.1417367607 0.4924181998 4280887852
-0.3000453711 -0.1419356614 0.4950182140 4281216817
-0.3016217649 -0.1421289891 0.4976189733 4281479989
-0.3052132428 -0.1432623863 0.5035442114 4281743161
-0.3052796721 -0.1427344978 0.5036538243 4283124814
-0.2937217951 -0.1688383967 0.4854740798 4282270277
-0.2942942381 -0.1686275154 0.4864202440 4281809726
-0.2903990746 -0.1658628285 0.4799821675 4281480761
-0.2860051394 -0.1628284603 0.4727197289 4281480506
-0.2855820656 -0.1620636284 0.4720204175 4281480506
-0.2856553197 -0.1615810990 0.4721415043 4281611578
-0.2852314711 -0.1608180404 0.4714409411 4281479992
-0.2853042185 -0.1603356153 0.4715612233 4281414199
-0.2848796546 -0.1595743299 0.4708594382 4281414199
-0.2844546139 -0.1588143557 0.4701569676 4281217334
-0.2845265865 -0.1583325118 0.4702759087 4281217334
-0.2841008306 -0.1575743407 0.4695721865 4281019955
-0.2836746275 -0.1568174958 0.4688677490 4281019955
-0.2827501893 -0.1557876915 0.4673398435 4281151027
-0.2823230028 -0.1550343335 0.4666337669 4281085234
-0.2818953991 -0.1542823166 0.4659269750 4281019441
-0.2819655240 -0.1538033634 0.4660428762 4281019441
-0.2805405855 -0.1525113881 0.4636876881 4280888369
-0.2796131372 -0.1514941901 0.4621547461 4280888369
-0.2792522013 -0.1502739340 0.4615581930 4280756268
-0.2778242826 -0.1489958167 0.4591981173 4280756268
-0.2783911228 -0.1487890333 0.4601349831 4280690475
-0.2779599428 -0.1480486095 0.4594223201 4280690475
-0.2780275047 -0.1475744843 0.4595339894 4280558889
-0.2780948579 -0.1471000165 0.4596453309 4280493096
-0.2781620622 -0.1466252059 0.4597563744 4280493096
-0.2782290578 -0.1461500525 0.4598671198 4280427303
-0.2782958746 -0.1456745565 0.4599775374 4280427303
-0.2783624828 -0.1451987177 0.4600876570 4280361510
-0.2789288163 -0.1449823529 0.4610236883 4280295717
-0.2789951861 -0.1445049793 0.4611333907 4280229924
-0.2795614600 -0.1442853808 0.4620693922 4280295717
-0.2801278234 -0.1440637112 0.4630054533 4280426790
-0.2806942165 -0.1438400000 0.4639416039 4280163618
-0.2807601690 -0.1433586925 0.4640506506 4279638555
-0.2813265324 -0.1431317329 0.4649867415 4280164899
-0.2818929553 -0.1429027170 0.4659229219 4280230692
-0.2824594080 -0.1426716298 0.4668591917 4280230692
-0.2830258906 -0.1424385011 0.4677954912 4280099106
-0.2835924029 -0.1422033012 0.4687318802 4280164899
-0.2841589749 -0.1419660449 0.4696682990 4280164899
-0.2842243016 -0.1414772123 0.4697762728 4280230692
-0.2852922082 -0.1414853483 0.4715413451 4280296485
-0.2858588696 -0.1412419081 0.4724779725 4280230692
-0.2869271934 -0.1412433237 0.4742437303 4280164899
-0.2884975076 -0.1414870173 0.4768391848 4280164899
-0.2895664573 -0.1414799839 0.4786059856 4280230692
-0.2906356454 -0.1414691508 0.4803731740 4280296485
-0.2917051017 -0.1414545178 0.4821408093 4280428071
-0.2927747965 -0.1414360702 0.4839088321 4280493864
-0.2938447297 -0.1414138228 0.4856772721 4280624680
-0.2954173088 -0.1416286379 0.4882765114 4280822059
-0.2964878380 -0.1415978968 0.4900459051 4280756266
-0.2965533435 -0.1410850883 0.4901541770 4280887852
-0.2991323471 -0.1417632252 0.4944168627 4281216817
-0.3007065654 -0.1419575512 0.4970187247 4281479989
-0.3022812009 -0.1421463042 0.4996213615 4281743161
-0.3038562834 -0.1423294842 0.5022247434 4283124814
-0.2924004495 -0.1678501666 0.4841779470 4281678397
-0.2904932499 -0.1662214100 0.4810198545 4281481018
-0.2880890071 -0.1643161476 0.4770387113 4281480506
-0.2856832743 -0.1624188870 0.4730551541 4281480506
-0.2852605283 -0.1616542041 0.4723551273 4281611578
-0.2858297825 -0.1614514291 0.4732977450 4281545785
-0.2844136953 -0.1601287723 0.4709528983 4281414199
-0.2839896381 -0.1593680233 0.4702506959 4281348406
-0.2845583558 -0.1591641307 0.4711924493 4281151541
-0.2841337025 -0.1584043354 0.4704892337 4281085748
-0.2837085724 -0.1576458514 0.4697853029 4280954162
-0.2832830250 -0.1568886936 0.4690806568 4281019955
-0.2828570604 -0.1561328620 0.4683752954 4281151027
-0.2824306488 -0.1553783566 0.4676692188 4281085234
-0.2820038199 -0.1546251774 0.4669624269 4281019441
-0.2810790539 -0.1536014825 0.4654311538 4280953648
-0.2801536322 -0.1525808126 0.4638987482 4280822576
-0.2807207108 -0.1523736715 0.4648377597 4280756783
-0.2797943056 -0.1513565332 0.4633037448 4280625452
-0.2788672149 -0.1503424346 0.4617685974 4280625452
-0.2784375548 -0.1495990157 0.4610571265 4280559659
-0.2780074477 -0.1488569230 0.4603449404 4280559659
-0.2780752778 -0.1483821124 0.4604572654 4280624682
-0.2781429291 -0.1479069591 0.4605692625 4280558889
-0.2777117789 -0.1471672356 0.4598553777 4280427303
-0.2782776356 -0.1469556093 0.4607923627 4280427303
-0.2788435519 -0.1467419267 0.4617294371 4280427303
-0.2784116268 -0.1460028738 0.4610142410 4280361510
-0.2789774239 -0.1457867920 0.4619511068 4280295458
-0.2790440619 -0.1453087181 0.4620614648 4280295458
-0.2796098292 -0.1450893879 0.4629983008 4280229665
-0.2801756561 -0.1448679864 0.4639351964 4280295458
-0.2807415128 -0.1446445435 0.4648722112 4280427044
-0.2803080976 -0.1439060122 0.4641545415 4280229665
-0.2808738053 -0.1436801851 0.4650912881 4279637785
-0.2819394767 -0.1437070817 0.4668558836 4280229922
-0.2815053761 -0.1429683864 0.4661370814 4280361508
-0.2830713689 -0.1432433873 0.4687301219 4280427301
-0.2826368809 -0.1425040215 0.4680106938 4280229922
-0.2832026780 -0.1422687471 0.4689475894 4280229922
-0.2837685347 -0.1420314163 0.4698845744 4280229922
-0.2838338315 -0.1415423751 0.4699926674 4280361508
-0.2849003375 -0.1415505558 0.4717586637 4280361508
-0.2854662836 -0.1413070261 0.4726958275 4280361508
-0.2865331769 -0.1413084716 0.4744624794 4280295715
-0.2881014049 -0.1415523142 0.4770592451 4280229922
-0.2891689241 -0.1415453106 0.4788269401 4280295715
-0.2907379866 -0.1417789459 0.4814251065 4280427301
-0.2918061614 -0.1417634636 0.4831938446 4280558887
-0.2923730612 -0.1415014714 0.4841325581 4280690473
-0.2939431965 -0.1417210847 0.4867325127 4280624680
-0.2950120866 -0.1416941732 0.4885024428 4280756266
-0.2975866795 -0.1423837692 0.4927656949 4280756266
-0.2986563742 -0.1423466206 0.4945369661 4280887852
-0.3017345369 -0.1432591230 0.4996339679 4281151024
-0.3002943099 -0.1420233548 0.4972491264 4281479989
-0.3043782115 -0.1433953494 0.5040115714 4281743161
-0.3029374480 -0.1421597749 0.5016258359 4282993228
-0.2890255451 -0.1662181616 0.4794702828 4281678397
-0.2876152992 -0.1648775190 0.4771308303 4281546811
-0.2881847918 -0.1646732837 0.4780755639 4281546299
-0.2867731750 -0.1633385867 0.4757338166 4281480506
-0.2858560383 -0.1622898132 0.4742123485 4281545785
-0.2849382162 -0.1612440199 0.4726897478 4281479992
-0.2850110233 -0.1607603878 0.4728105366 4281414199
-0.2831004858 -0.1591614187 0.4696410894 4281348406
-0.2836683691 -0.1589583308 0.4705831707 4281151541
-0.2827481627 -0.1579219997 0.4690566361 4281085748
-0.2828196287 -0.1574411094 0.4691751897 4281019955
-0.2823946178 -0.1566844881 0.4684701264 4281019955
-0.2819691598 -0.1559291929 0.4677643478 4281085234
-0.2815432847 -0.1551752388 0.4670578539 4281085234
-0.2811169624 -0.1544225961 0.4663506150 4281019441
-0.2806902230 -0.1536713094 0.4656426907 4280953648
-0.2802630663 -0.1529213339 0.4649340510 4280690990
-0.2803325057 -0.1524430066 0.4650492668 4280625197
-0.2794074416 -0.1514254361 0.4635146260 4280625197
-0.2784816921 -0.1504109055 0.4619789124 4280625197
-0.2790475190 -0.1502026618 0.4629175365 4280625452
-0.2781207860 -0.1491916776 0.4613801837 4280559659
-0.2781887054 -0.1487158388 0.4614928365 4280428073
-0.2782564163 -0.1482396424 0.4616052210 4280362280
-0.2778260708 -0.1474987715 0.4608913064 4280427303
-0.2778933346 -0.1470227391 0.4610028267 4280295717
-0.2779603899 -0.1465463489 0.4611140788 4280361510
-0.2790237665 -0.1465931833 0.4628781378 4280295717
-0.2785923183 -0.1458534747 0.4621624053 4280295458
-0.2791574299 -0.1456352770 0.4630998969 4280229665
-0.2797225714 -0.1454150230 0.4640374482 4280229665
-0.2797890604 -0.1449343562 0.4641477168 4280361251
-0.2803542018 -0.1447108388 0.4650852382 4280427044
-0.2804204226 -0.1442286372 0.4651951194 4280229665
-0.2804864645 -0.1437460929 0.4653046429 4279440406
-0.2810514867 -0.1435181201 0.4662420154 4280164129
-0.2816165686 -0.1432880908 0.4671794474 4280361508
-0.2821817100 -0.1430560052 0.4681169391 4280361508
-0.2832464278 -0.1430741847 0.4698832333 4280229922
-0.2833120823 -0.1425856352 0.4699921310 4280229922
-0.2838773131 -0.1423473656 0.4709298313 4280164129
-0.2844426036 -0.1421070248 0.4718675613 4280361508
-0.2855079174 -0.1421134919 0.4736348689 4280361508
-0.2865734994 -0.1421161890 0.4754025936 4280295715
-0.2886398435 -0.1426093876 0.4788304567 4280295715
-0.2877047360 -0.1416175812 0.4772792161 4280229922
-0.2912732065 -0.1428377330 0.4831990302 4280295715
-0.2903378308 -0.1418443769 0.4816472828 4280427301
-0.2924059629 -0.1423162967 0.4850781560 4280558887
-0.2934731841 -0.1422953010 0.4868485928 4280690473
-0.2945406437 -0.1422704905 0.4886194170 4280558887
-0.2961093485 -0.1424829364 0.4912217855 4280690473
-0.2971774042 -0.1424496323 0.4929935932 4280756266
-0.2972431779 -0.1419337839 0.4931027293 4280887852
-0.2983114719 -0.1418945640 0.4948749244 4281085231
-0.2993800044 -0.1418515146 0.4966475368 4281479989
-0.3009503186 -0.1420413852 0.4992525876 4281677368
-0.3040261865 -0.1429332644 0.5043551922 4282861642
-0.2939835787 -0.1699236333 0.4885945320 4282138691
-0.2910947204 -0.1677168161 0.4837932885 4281744444
-0.2882041037 -0.1655196697 0.4789891541 4281612858
-0.2858062685 -0.1636152864 0.4750040174 4281743163
-0.2853854001 -0.1628478467 0.4743044972 4281677370
-0.2849640548 -0.1620817035 0.4736042619 4281545784
-0.2845422924 -0.1613168716 0.4729033113 4281414198
-0.2841201127 -0.1605533510 0.4722016454 4281348405
-0.2841925919 -0.1600700170 0.4723221064 4281282612
-0.2832744122 -0.1590302587 0.4707961082 4281086003
-0.2833462954 -0.1585478634 0.4709155560 4281020210
-0.2829224765 -0.1577887684 0.4702112079 4280954162
-0.2824982405 -0.1570309997 0.4695061445 4280954162
-0.2820735872 -0.1562745571 0.4688003361 4280954162
-0.2816484869 -0.1555194408 0.4680938423 4280954162
-0.2817189395 -0.1550386101 0.4682109356 4280888371
-0.2812930942 -0.1542852968 0.4675031900 4280756785
-0.2803705931 -0.1532620788 0.4659700096 4280690992
-0.2804401219 -0.1527827084 0.4660855830 4280756785
-0.2805094719 -0.1523029953 0.4662008584 4280690990
-0.2795854509 -0.1512854844 0.4646651149 4280559404
-0.2786607444 -0.1502710283 0.4631282687 4280690475
-0.2782322168 -0.1495266408 0.4624160826 4280690475
-0.2783002257 -0.1490497589 0.4625290930 4280493096
-0.2778709531 -0.1483072191 0.4618156552 4280361510
-0.2779384553 -0.1478305012 0.4619278610 4280361510
-0.2780057788 -0.1473534256 0.4620397687 4280229924
-0.2780729234 -0.1468760073 0.4621513486 4280361510
-0.2781398892 -0.1463982463 0.4622626305 4280229924
-0.2787043452 -0.1461811811 0.4632007480 4280361251
-0.2792688608 -0.1459620446 0.4641389549 4280361251
-0.2793354988 -0.1454815418 0.4642497301 4280295456
-0.2794019580 -0.1450006813 0.4643601477 4280295456
-0.2799663842 -0.1447771043 0.4652982056 4280361251
-0.2800325751 -0.1442947090 0.4654082060 4280295458
-0.2805969417 -0.1440678686 0.4663462341 4279440408
-0.2806628942 -0.1435839236 0.4664557874 4280295717
-0.2812272310 -0.1433538198 0.4673937559 4280295717
-0.2817916572 -0.1431216598 0.4683317840 4280229924
-0.2823560834 -0.1428874284 0.4692698717 4280164129
-0.2824215889 -0.1423995495 0.4693787396 4280229922
-0.2829860151 -0.1421620548 0.4703167677 4280229922
-0.2830512524 -0.1416726261 0.4704251885 4280295715
-0.2841149271 -0.1416808665 0.4721930027 4280295715
-0.2851788700 -0.1416853219 0.4739612639 4280229922
-0.2862430811 -0.1416859627 0.4757299423 4280295715
-0.2873075306 -0.1416828185 0.4774990678 4280361508
-0.2883722484 -0.1416758597 0.4792686105 4280295715
-0.2894372344 -0.1416651011 0.4810385704 4280427301
-0.2905024290 -0.1416505277 0.4828089178 4280558887
-0.2915678918 -0.1416321546 0.4845797122 4280558887
-0.2931338251 -0.1418520361 0.4871822596 4280690216
-0.2941999137 -0.1418251544 0.4889540374 4280690216
-0.2957666516 -0.1420347989 0.4915579259 4280690216
-0.2983349860 -0.1427177787 0.4958264530 4280887595
-0.2994022071 -0.1426759660 0.4976001382 4281150767
-0.3009704053 -0.1428680271 0.5002064705 4281479732
-0.3010364175 -0.1423439831 0.5003161430 4281874490
-0.3036071956 -0.1429994553 0.5045887828 4282992971
-0.2900440991 -0.1684923470 0.4829376340 4282467656
-0.2881461680 -0.1668572426 0.4797774851 4282072898
-0.2906888127 -0.1677923352 0.4840111136 4281810237
-0.2863213420 -0.1647421271 0.4767390490 4281678651
-0.2854079008 -0.1636890322 0.4752180874 4281678140
-0.2849876583 -0.1629212797 0.4745183885 4281612347
-0.2845669687 -0.1621548384 0.4738179445 4281480761
-0.2846400440 -0.1616703719 0.4739395976 4281283382
-0.2832300365 -0.1603460312 0.4715918601 4281151796
-0.2833023667 -0.1598633528 0.4717122912 4281151796
-0.2843635976 -0.1599366069 0.4734792709 4281086003
-0.2824571133 -0.1583422720 0.4703049064 4281020210
-0.2820338309 -0.1575837135 0.4696001410 4280954162
-0.2816101313 -0.1568264812 0.4688946605 4280954162
-0.2821760774 -0.1566201150 0.4698369801 4280954162
-0.2817517519 -0.1558638513 0.4691304862 4280954162
-0.2813270092 -0.1551089138 0.4684232473 4280888369
-0.2809018195 -0.1543553025 0.4677152932 4280822576
-0.2804762125 -0.1536030322 0.4670066237 4280690990
-0.2800501883 -0.1528521031 0.4662972689 4280690990
-0.2796237171 -0.1521025151 0.4655871689 4280625197
-0.2791967988 -0.1513542682 0.4648763537 4280559404
-0.2787694931 -0.1506073624 0.4641648233 4280624682
-0.2783417404 -0.1498618126 0.4634526074 4280624682
-0.2779135406 -0.1491176188 0.4627396464 4280493096
-0.2779813409 -0.1486402005 0.4628525376 4280427303
-0.2780489326 -0.1481624395 0.4629651010 4280361510
-0.2781163454 -0.1476843357 0.4630773365 4280361510
-0.2781835794 -0.1472058743 0.4631893039 4280361510
-0.2782506347 -0.1467270702 0.4633009136 4280295717
-0.2783175111 -0.1462479234 0.4634122550 4280361251
-0.2783841789 -0.1457684189 0.4635232687 4280295458
-0.2789478898 -0.1455480307 0.4644618928 4280229665
-0.2795116603 -0.1453255713 0.4654005766 4280295458
-0.2795780003 -0.1448433250 0.4655110538 4280295717
-0.2796441615 -0.1443607509 0.4656212032 4280295717
-0.2797101438 -0.1438778192 0.4657310545 4279506199
-0.2802737355 -0.1436496973 0.4666694701 4280361508
-0.2803394198 -0.1431652308 0.4667788744 4280295715
-0.2809030116 -0.1429338604 0.4677172303 4280229922
-0.2809684277 -0.1424478441 0.4678261876 4280164129
-0.2810336947 -0.1419615000 0.4679348171 4280229922
-0.2820955217 -0.1419764906 0.4697028697 4280229922
-0.2826591432 -0.1417377144 0.4706412852 4280295715
-0.2837214172 -0.1417459846 0.4724100232 4280295715
-0.2847839296 -0.1417504698 0.4741792083 4280229922
-0.2858467400 -0.1417511404 0.4759488106 4280295715
-0.2864108086 -0.1415015012 0.4768880010 4280361508
-0.2879730761 -0.1417410970 0.4794892669 4280361508
-0.2890366316 -0.1417303532 0.4812601507 4280427301
-0.2901004553 -0.1417158097 0.4830314219 4280558887
-0.2911644876 -0.1416974515 0.4848031104 4280558887
-0.2917292416 -0.1414331049 0.4857434630 4280558630
-0.2937929630 -0.1418906003 0.4891796708 4280624423
-0.2953576148 -0.1421003640 0.4917848706 4280756009
-0.2964228392 -0.1420649886 0.4935585558 4281019181
-0.2974883020 -0.1420257986 0.4953325987 4281150767
-0.2990540862 -0.1422205865 0.4979397058 4281479732
-0.3011205196 -0.1426467746 0.5013804436 4281874490
-0.3021869957 -0.1425934583 0.5031561852 4282992971
-0.2916087508 -0.1697147787 0.4864414036 4282401863
-0.2873253226 -0.1661577821 0.4792960882 4281876030
-0.2859210670 -0.1648162603 0.4769535959 4281678651
-0.2859951556 -0.1643293947 0.4770771861 4281678397
-0.2850826085 -0.1632771641 0.4755549133 4281612604
-0.2846626937 -0.1625095755 0.4748544991 4281480761
-0.2852293253 -0.1623048931 0.4757997096 4281217589
-0.2843152285 -0.1612582654 0.4742748439 4281086003
-0.2834004164 -0.1602146327 0.4727488458 4281086003
-0.2824849486 -0.1591740102 0.4712216854 4281086003
-0.2820627689 -0.1584138274 0.4705174267 4281151796
-0.2811460495 -0.1573783755 0.4689882100 4281085748
-0.2812170982 -0.1568974257 0.4691067636 4281019955
-0.2812879682 -0.1564161032 0.4692249894 4280954162
-0.2808641791 -0.1556603760 0.4685180485 4280888369
-0.2804399729 -0.1549059749 0.4678103924 4280822576
-0.2800153196 -0.1541529149 0.4671020210 4280822576
-0.2795902193 -0.1534011811 0.4663929343 4280756783
-0.2791647315 -0.1526507884 0.4656831324 4280756783
-0.2787387967 -0.1519017518 0.4649726152 4280756268
-0.2783124149 -0.1511540413 0.4642614126 4280756268
-0.2778856456 -0.1504076868 0.4635494649 4280624682
-0.2779538929 -0.1499299407 0.4636633098 4280558889
-0.2775263488 -0.1491854489 0.4629501402 4280493096
-0.2775941193 -0.1487078518 0.4630631506 4280493096
-0.2781575024 -0.1484946012 0.4640029669 4280427303
-0.2777290642 -0.1477515996 0.4632882774 4280427303
-0.2777962685 -0.1472729594 0.4634003639 4280361510
-0.2778632939 -0.1467939615 0.4635121524 4280295717
-0.2779301107 -0.1463146359 0.4636236429 4280295204
-0.2784931660 -0.1460953653 0.4645628929 4280163618
-0.2790562809 -0.1458740532 0.4655022621 4280163618
-0.2791227996 -0.1453919560 0.4656131864 4280295204
-0.2791891098 -0.1449095309 0.4657238126 4280361510
