VERSION 0.7
FIELDS x y z rgba
SIZE 4 4 4 4
TYPE F F F U
COUNT 1 1 1 1
WIDTH 920
HEIGHT 1
VIEWPOINT 0.0 0.0 0.0 1.0 0.0 0.0 0.0
POINTS 920
DATA ascii
-0.2660979331 -0.1275575906 0.3489555120 4280492583
-0.2655784190 -0.1269219518 0.3482742012 4280558376
-0.2668060958 -0.1271202862 0.3498841822 4280689962
-0.2668688297 -0.1267616898 0.3499664366 4280887595
-0.2657657564 -0.1258508712 0.3485198915 4280953388
-0.2652449608 -0.1252181381 0.3478369415 4280887595
-0.2653068304 -0.1248611435 0.3479180634 4280821802
-0.2653685510 -0.1245038956 0.3479990065 4280887595
-0.2654301226 -0.1241464019 0.3480797708 4280953388
-0.2654915452 -0.1237886623 0.3481603265 4280953388
-0.2655528188 -0.1234306693 0.3482406735 4280953388
-0.2673652470 -0.1238839030 0.3506174684 4280887595
-0.2668427229 -0.1232533529 0.3499322236 4280953388
-0.2674878538 -0.1231619567 0.3507782519 4280953388
-0.2681331038 -0.1230687350 0.3516243994 4280953388
-0.2687784731 -0.1229736879 0.3524707258 4280953388
-0.2688395083 -0.1226102635 0.3525507748 4281019181
-0.2712386549 -0.1233096123 0.3556969464 4281084974
-0.2724693120 -0.1234724596 0.3573108315 4281150767
-0.2742851675 -0.1238960624 0.3596920967 4280887593
-0.2737618089 -0.1232611537 0.3590057790 4280821800
-0.2744082212 -0.1231527403 0.3598534763 4280887595
-0.2750547528 -0.1230425015 0.3607012928 4281019181
-0.2721892595 -0.1213644296 0.3569435477 4280953386
-0.2745916247 -0.1220358908 0.3600939810 4280624421
-0.2734812200 -0.1211442947 0.3586378098 4280295456
-0.2741273642 -0.1210314706 0.3594851494 4280163870
-0.2724301219 -0.1198855415 0.3572594225 4280492833
-0.2730759382 -0.1197722256 0.3581063449 4281084970
-0.2725495994 -0.1191446260 0.3574160933 4281874488
-0.2720228434 -0.1185183749 0.3567253351 4282532418
-0.2720820606 -0.1181481108 0.3568030000 4282992969
-0.2727866471 -0.1176598892 0.3577269614 4283519311
-0.2740190625 -0.1177925617 0.3593431115 4283519311
-0.2752517760 -0.1179217994 0.3609597087 4283650637
-0.2747238278 -0.1172956973 0.3602673113 4283650637
-0.2771311402 -0.1179201081 0.3634242415 4284044881
-0.2783647776 -0.1180398092 0.3650420010 4284176467
-0.2813608944 -0.1189007387 0.3689710796 4284175955
-0.2802455127 -0.1180214286 0.3675083518 4284241748
-0.2814800143 -0.1181315780 0.3691272736 4284307798
-0.2844781280 -0.1189757213 0.3730589449 4284307798
-0.2833620906 -0.1180964783 0.3715954125 4284307798
-0.2863614857 -0.1189296767 0.3755287230 4284176212
-0.2881856561 -0.1192677766 0.3779209256 4284438357
-0.2864808738 -0.1181452051 0.3756852746 4284438357
-0.2906589508 -0.1194451377 0.3811643124 4284306258
-0.2895420492 -0.1185646728 0.3796996474 4284372051
-0.2931334674 -0.1196086109 0.3844093680 4284241748
-0.2937824428 -0.1194457635 0.3852604032 4283846990
-0.2950203419 -0.1195196137 0.3868837953 4283648589
-0.2956695557 -0.1193522289 0.3877351582 4283648589
-0.2951406538 -0.1187090874 0.3870415390 4284371540
-0.2963789701 -0.1187757179 0.3886654675 4284634712
-0.2964389026 -0.1183682159 0.3887440562 4283186237
-0.2970881164 -0.1181949824 0.3895954192 4281278240
-0.2977373898 -0.1180198789 0.3904468715 4281016350
-0.2989764214 -0.1180757955 0.3920716941 4281476901
-0.2990360856 -0.1176640615 0.3921499550 4282794302
-0.3026351631 -0.1186396778 0.3968697190 4284110162
-0.3038752973 -0.1186834797 0.3984959722 4283781458
-0.3057058454 -0.1189534217 0.4008965194 4283847251
-0.3081271648 -0.1194470599 0.4040718377 4283386446
-0.3117300570 -0.1203899458 0.4087965786 4283518032
-0.3100194931 -0.1192780435 0.4065533876 4283123274
-0.3142143488 -0.1204345897 0.4120544195 4283057481
-0.3160476387 -0.1206771955 0.4144585729 4282927176
-0.3155179918 -0.1200156659 0.4137639999 4282598211
-0.3185337484 -0.1206991002 0.4177187979 4282795590
-0.3197771609 -0.1207047701 0.4193494022 4282729797
-0.3227944672 -0.1213738024 0.4233061969 4282795588
-0.3246300519 -0.1215914413 0.4257133603 4282729795
-0.2995667458 -0.1542915851 0.3934181929 4280822059
-0.2979065180 -0.1530022025 0.3912378252 4280690473
-0.2997168601 -0.1534950584 0.3936153650 4280690473
-0.2968979776 -0.1516185850 0.3899133205 4280624682
-0.2934985757 -0.1494547278 0.3854489326 4280493096
-0.2918343842 -0.1481818557 0.3832633793 4280295717
-0.2907483876 -0.1472065747 0.3818371296 4280164131
-0.2896616459 -0.1462340802 0.3804099262 4280098339
-0.2879947126 -0.1449727118 0.3782207668 4280032546
-0.2886452079 -0.1448793709 0.3790750802 4279900960
-0.2875565886 -0.1439137608 0.3776453733 4279769374
-0.2864672542 -0.1429509521 0.3762147427 4279966493
-0.2847971320 -0.1417023689 0.3740214109 4280032286
-0.2860269248 -0.1418972760 0.3756364882 4280098079
-0.2860964835 -0.1415147036 0.3757278323 4280163872
-0.2844244838 -0.1402730495 0.3735320270 4280229665
-0.2769455314 -0.1361808330 0.3637099862 4280163872
-0.2822390199 -0.1383723170 0.3706618845 4280032286
-0.2794025838 -0.1365743876 0.3669368029 4279966493
-0.2765645981 -0.1347839832 0.3632097244 4280163872
-0.2696569860 -0.1310244352 0.3541379869 4280163872
-0.2685588300 -0.1300993413 0.3526957929 4280295458
-0.2657156587 -0.1283346564 0.3489618897 4280492837
-0.2675235569 -0.1288178265 0.3513361812 4280624423
-0.2664235830 -0.1278997660 0.3498916030 4280756009
-0.2659047544 -0.1272630543 0.3492102325 4280821802
-0.2659674883 -0.1269053519 0.3492926061 4280887595
-0.2660300732 -0.1265473962 0.3493748009 4280953386
-0.2660925090 -0.1261891872 0.3494568169 4280953386
-0.2644076049 -0.1250047088 0.3472440541 4280887593
-0.2656344175 -0.1251974553 0.3488551974 4280887593
-0.2645309567 -0.1242917404 0.3474060297 4280887593
-0.2645923793 -0.1239348873 0.3474867046 4280887593
-0.2646536827 -0.1235777810 0.3475672007 4280887593
-0.2658809721 -0.1237632483 0.3491789997 4280887593
-0.2659422457 -0.1234040782 0.3492594361 4280756007
-0.2660033405 -0.1230446547 0.3493397236 4280821800
-0.2660643160 -0.1226849779 0.3494197726 4281019179
-0.2672923505 -0.1228615791 0.3510325253 4281019179
-0.2679370046 -0.1227672994 0.3518791795 4280953386
-0.2703334093 -0.1234712228 0.3550263345 4281084972
-0.2698106766 -0.1228391454 0.3543398678 4281150765
-0.2716240883 -0.1232687756 0.3567214012 4280953386
-0.2716853321 -0.1229005083 0.3568018079 4280689701
-0.2723308206 -0.1227954924 0.3576495349 4280887080
-0.2729764283 -0.1226886436 0.3584973812 4280690473
-0.2724528015 -0.1220561191 0.3578096926 4280756266
-0.2719287276 -0.1214249283 0.3571214676 4280559657
-0.2714042664 -0.1207950860 0.3564327061 4280362278
-0.2702943385 -0.1199070439 0.3549750149 4280493348
-0.2715244591 -0.1200569123 0.3565905392 4280493348
-0.2709990144 -0.1194295138 0.3559004664 4281019692
-0.2722294331 -0.1195749119 0.3575163782 4281546036
-0.2722891271 -0.1192041785 0.3575947583 4282269759
-0.2729343176 -0.1190887541 0.3584420979 4282730310
-0.2729938030 -0.1187167317 0.3585201800 4283189835
-0.2753969133 -0.1193602979 0.3616761863 4283453007
-0.2742844224 -0.1184782758 0.3602151573 4283780943
-0.2749298513 -0.1183562875 0.3610628247 4283780943
-0.2761617303 -0.1184840128 0.3626806140 4283847251
-0.2768074870 -0.1183575317 0.3635286987 4283847251
-0.2774533331 -0.1182292104 0.3643768728 4283847765
-0.2798593938 -0.1188464984 0.3675367236 4283979351
-0.2787452638 -0.1179670170 0.3660735786 4284176214
-0.2823261619 -0.1190708950 0.3707762957 4284307800
-0.2817987800 -0.1184376702 0.3700837195 4284373334
-0.2842070460 -0.1190355197 0.3732464314 4284307541
-0.2872034311 -0.1198718175 0.3771815598 4284569689
-0.2872636318 -0.1194781661 0.3772606254 4284503896
-0.2896739244 -0.1200583726 0.3804260790 4284438103
-0.2885588706 -0.1191755608 0.3789616823 4284438103
-0.2909700871 -0.1197472140 0.3821282685 4284240724
-0.2904423773 -0.1191066280 0.3814352453 4284372310
-0.2935029566 -0.1195060015 0.3854547143 4283779913
-0.2941514552 -0.1193412244 0.3863063455 4283450436
-0.2953884304 -0.1194124669 0.3879308403 4283779401
-0.2966257036 -0.1194802150 0.3895557523 4284240207
-0.2960972786 -0.1188357174 0.3888617754 4283845449
-0.2961572111 -0.1184280291 0.3889404833 4281608232
-0.2968058586 -0.1182547286 0.3897923827 4280621337
-0.2974545956 -0.1180795655 0.3906443119 4281411368
-0.3010490239 -0.1190675721 0.3953648806 4282595642
-0.2999306917 -0.1181880087 0.3938961625 4283714380
-0.3047053814 -0.1196252853 0.4001667500 4283911759
-0.3029974103 -0.1185130328 0.3979236484 4283780173
-0.3065949678 -0.1194732115 0.4026483297 4283714380
-0.3090143204 -0.1199654937 0.4058256149 4283648589
-0.3126140833 -0.1209072545 0.4105531275 4283517003
-0.3109054267 -0.1197931841 0.4083091915 4283320396
-0.3145065308 -0.1207222044 0.4130384922 4283123017
-0.3169284463 -0.1211898252 0.4162191749 4282926149
-0.3205316663 -0.1221003905 0.4209512472 4283057735
-0.3223648369 -0.1223287508 0.4233587086 4283253831
-0.3247889876 -0.1227751747 0.4265423417 4283517003
-0.3230793774 -0.1216579303 0.4242971241 4283253829
-0.3260949254 -0.1223180667 0.4282574058 4283253829
-0.3000042140 -0.1538663954 0.3945676088 4280690473
-0.2983446419 -0.1525796652 0.3923849165 4280624680
-0.2984190285 -0.1521820426 0.3924827576 4280624680
-0.2961793542 -0.1506074965 0.3895371258 4280427303
-0.2933597565 -0.1487454325 0.3858287632 4280295717
-0.2916961014 -0.1474760324 0.3836407065 4280361510
-0.2894525230 -0.1459191442 0.3806899488 4280229924
-0.2883657515 -0.1449502856 0.3792605996 4280032545
-0.2866990566 -0.1436939389 0.3770685792 4279900959
-0.2873486876 -0.1436000168 0.3779229522 4280032286
-0.2862600088 -0.1426380575 0.3764911592 4280098079
-0.2828521729 -0.1405270398 0.3720091283 4280163872
-0.2863995731 -0.1418713331 0.3766746819 4280163872
-0.2858892083 -0.1412011385 0.3760034442 4280163872
-0.2847983837 -0.1402465999 0.3745687902 4280163872
-0.2842870057 -0.1395797431 0.3738962412 4280098079
-0.2814539373 -0.1377778500 0.3701701462 4280032286
-0.2786193192 -0.1359834671 0.3664420545 4280229665
-0.2757831514 -0.1341966242 0.3627119064 4280295458
-0.2723647058 -0.1321355700 0.3582159281 4280427044
-0.2701061964 -0.1306455284 0.3552455306 4280558630
-0.2684274614 -0.1294416636 0.3530376256 4280756009
-0.2673288584 -0.1285216212 0.3515927494 4280821802
-0.2708798945 -0.1298333406 0.3562631011 4280887595
-0.2674553096 -0.1278014779 0.3517590761 4280887595
-0.2646104991 -0.1260557920 0.3480175436 4280953388
-0.2646726668 -0.1256989986 0.3480993211 4280953388
-0.2641528547 -0.1250664890 0.3474156559 4280953388
-0.2642146051 -0.1247099787 0.3474968672 4280953388
-0.2642761767 -0.1243532225 0.3475778699 4280953386
-0.2637553811 -0.1237230971 0.3468928933 4280887593
-0.2643989325 -0.1236389652 0.3477392793 4280887593
-0.2650425732 -0.1235530078 0.3485858440 4280887593
-0.2662689984 -0.1237359866 0.3501988351 4280821800
-0.2651647031 -0.1228356883 0.3487464488 4280821800
-0.2652255297 -0.1224766523 0.3488264382 4280887593
-0.2676183879 -0.1231909394 0.3519735634 4280953386
-0.2670962811 -0.1225606501 0.3512868583 4280953386
-0.2694903016 -0.1232657433 0.3544355035 4280953386
-0.2683845758 -0.1223681495 0.3529812396 4281019179
-0.2701960504 -0.1227996126 0.3553636968 4280953386
-0.2702570260 -0.1224327683 0.3554438949 4280887082
-0.2703178525 -0.1220656708 0.3555238843 4280821289
-0.2703785002 -0.1216983348 0.3556036651 4280558887
-0.2704390287 -0.1213307455 0.3556832671 4280493094
-0.2699151337 -0.1207016557 0.3549942672 4280164899
-0.2699752152 -0.1203343719 0.3550732732 4279967520
-0.2700351179 -0.1199668422 0.3551520705 4280493348
-0.2700949013 -0.1195990667 0.3552306592 4281085485
-0.2713239789 -0.1197471991 0.3568471670 4281743415
-0.2725534439 -0.1198919043 0.3584641516 4282203966
-0.2743682563 -0.1202896535 0.3608510196 4282729797
-0.2738431394 -0.1196596399 0.3601603806 4282992969
-0.2744881511 -0.1195407435 0.3610086739 4283387214
-0.2739624381 -0.1189118326 0.3603172898 4283584593
-0.2763639390 -0.1195507124 0.3634757400 4283977552
-0.2781805992 -0.1199304536 0.3658650517 4284043345
-0.2776547968 -0.1192984134 0.3651735187 4283978322
-0.2783003747 -0.1191694885 0.3660225868 4283978322
-0.2789460421 -0.1190387234 0.3668717444 4284044628
-0.2801779509 -0.1191553846 0.3684919477 4284110421
-0.2808238864 -0.1190201119 0.3693415225 4284175701
-0.2820563316 -0.1191306636 0.3709624112 4284175701
-0.2832890749 -0.1192377582 0.3725837469 4284438357
-0.2856954634 -0.1198335141 0.3757486343 4284372564
-0.2857555747 -0.1194415465 0.3758276999 4284372564
-0.2887499928 -0.1202716082 0.3797659576 4284438357
-0.2899844050 -0.1203624159 0.3813894689 4284372310
-0.2912191451 -0.1204497516 0.3830133975 4284306517
-0.2918669283 -0.1202915683 0.3838653862 4284372564
-0.2919273973 -0.1198903024 0.3839449286 4284372564
-0.2925752103 -0.1197291985 0.3847969174 4284043085
-0.2950464785 -0.1198790148 0.3880471587 4283056191
-0.2956947088 -0.1197106987 0.3888997138 4283319363
-0.2951670289 -0.1190661490 0.3882057071 4283713863
-0.2969913483 -0.1193684563 0.3906050622 4282661175
-0.2976397574 -0.1191945374 0.3914578557 4281016095
-0.2976998687 -0.1187839881 0.3915369213 4281213474
-0.2983482480 -0.1186071336 0.3923896849 4281740590
-0.3019395769 -0.1195940375 0.3971130252 4283056450
-0.3008225858 -0.1187124252 0.3956439495 4283845966
-0.3055930436 -0.1201488301 0.4019180834 4284043345
-0.3038869798 -0.1190344095 0.3996742666 4283845966
-0.3098376095 -0.1209129617 0.4075005651 4283582794
-0.3075421154 -0.1195681617 0.4044815004 4283517003
-0.3134953976 -0.1214250326 0.4123112857 4283451210
-0.3123780787 -0.1205362082 0.4108417928 4283320394
-0.3159761429 -0.1214632839 0.4155739844 4283386187
-0.3160376847 -0.1210255399 0.4156549275 4282795077
-0.3184579611 -0.1214874461 0.4188380837 4282597698
-0.3196992278 -0.1214942411 0.4204706252 4282860356
-0.3250705302 -0.1230608970 0.4275349975 4282794563
-0.3239527941 -0.1221648082 0.4260649383 4283123013
-0.2991350591 -0.1536448002 0.3939993680 4280756266
-0.2997875214 -0.1535416096 0.3948587477 4280690473
-0.2929291129 -0.1496006697 0.3858253360 4280624680
-0.2958916128 -0.1506810337 0.3897273242 4280427301
-0.2919186950 -0.1482310444 0.3844945133 4280295715
-0.2902564406 -0.1469626129 0.3823050857 4280295715
-0.2903282046 -0.1465744674 0.3823996186 4280229922
-0.2892428339 -0.1456036121 0.3809700310 4280098336
-0.2869994938 -0.1440547109 0.3780152500 4280098336
-0.2882274687 -0.1442496628 0.3796326518 4280163618
-0.2865613103 -0.1429968178 0.3774380982 4280229411
-0.2866312861 -0.1426126659 0.3775303066 4280229411
-0.2861219347 -0.1419409066 0.3768593967 4280229411
-0.2850328088 -0.1409838796 0.3754248917 4280163618
-0.2851019204 -0.1406012177 0.3755159080 4280163618
-0.2851708531 -0.1402182877 0.3756067157 4280163872
-0.2840801477 -0.1392666399 0.3741701245 4280098079
-0.2829887271 -0.1383178234 0.3727325499 4280295458
-0.2813165486 -0.1370892078 0.3705300987 4280361251
-0.2784830332 -0.1353012323 0.3667979836 4280558630
-0.2750676870 -0.1332397163 0.3622995317 4280690216
-0.2728114128 -0.1317479312 0.3593277335 4280756009
-0.2757791579 -0.1327779442 0.3632366657 4280887595
-0.2688758373 -0.1290611029 0.3541440666 4280887595
-0.2648733556 -0.1267526448 0.3488723040 4280887595
-0.2643547952 -0.1261179894 0.3481892943 4280887595
-0.2655792534 -0.1263138503 0.3498020470 4280887595
-0.2638977170 -0.1251282543 0.3475872576 4280953388
-0.2633780539 -0.1244967803 0.3469027877 4280953388
-0.2634395063 -0.1241406649 0.3469837308 4280887595
-0.2629191577 -0.1235110462 0.3462983370 4280887595
-0.2635619938 -0.1234276816 0.3471450508 4280887595
-0.2642049491 -0.1233424991 0.3479919136 4280821802
-0.2636838555 -0.1227137148 0.3473055661 4280887595
-0.2643268108 -0.1226264611 0.3481523991 4280821802
-0.2661345601 -0.1230760068 0.3505334556 4280821800
-0.2656130195 -0.1224464700 0.3498465121 4280953386
-0.2656736672 -0.1220860034 0.3499264121 4280953386
-0.2680651844 -0.1227930561 0.3530763686 4280887593
-0.2669603229 -0.1218966320 0.3516210914 4280887593
-0.2687698305 -0.1223299131 0.3540044725 4280953386
-0.2688305676 -0.1219644994 0.3540844321 4281150767
-0.2688911259 -0.1215988398 0.3541642129 4280953388
-0.2689515352 -0.1212329343 0.3542437851 4280887852
-0.2690117955 -0.1208667830 0.3543231189 4280822059
-0.2690718770 -0.1205003783 0.3544023037 4280362278
-0.2697156072 -0.1203943267 0.3552501798 4280230692
-0.2691915929 -0.1197668463 0.3545599878 4280888106
-0.2710034251 -0.1201767176 0.3569463789 4281875001
-0.2716474533 -0.1200651526 0.3577946723 4282467138
-0.2722916007 -0.1199517474 0.3586430848 4282730310
-0.2752736211 -0.1208629385 0.3625707924 4282927174
-0.2724110484 -0.1192077994 0.3588004112 4283124553
-0.2765634358 -0.1206205338 0.3642696142 4283584077
-0.2754539847 -0.1197339296 0.3628083467 4283715663
-0.2801934183 -0.1213843971 0.3690507710 4283911759
-0.2796689868 -0.1207483038 0.3683600426 4284043345
-0.2785589099 -0.1198617592 0.3668979406 4284175185
-0.2803748548 -0.1202332154 0.3692897558 4284175185
-0.2816058993 -0.1203494072 0.3709112108 4284240724
-0.2857652307 -0.1217091605 0.3763895929 4284240724
-0.2834833264 -0.1203228086 0.3733840287 4284240724
-0.2841294110 -0.1201816276 0.3742350042 4284240724
-0.2865334749 -0.1207795665 0.3774014711 4284372564
-0.2848357856 -0.1196475029 0.3751653731 4284372564
-0.2884130180 -0.1207284629 0.3798770607 4284438357
-0.2908188999 -0.1213103607 0.3830459118 4284504150
-0.2902933359 -0.1206667051 0.3823536634 4284372564
-0.2921136320 -0.1209962666 0.3847512603 4284306771
-0.2933478057 -0.1210785732 0.3863768280 4284438357
-0.2939954698 -0.1209160537 0.3872298598 4284306771
-0.2934693098 -0.1202705801 0.3865368664 4283714634
-0.2964650989 -0.1210648715 0.3904826939 4283319876
-0.2959388494 -0.1204172820 0.3897895217 4283450949
-0.2965867519 -0.1202472895 0.3906429112 4283187777
-0.2960598767 -0.1196008176 0.3899489641 4282661433
-0.2978827357 -0.1199016869 0.3923498988 4281477159
-0.2985308468 -0.1197260767 0.3932035267 4280687643
-0.2985911965 -0.1193137169 0.3932830095 4281477159
-0.2998271585 -0.1193692312 0.3949109614 4282464313
-0.3010634184 -0.1194212437 0.3965392709 4283714380
-0.3028880954 -0.1197021827 0.3989425898 4284043345
-0.3047132790 -0.1199779958 0.4013465941 4284043345
-0.3065389991 -0.1202486679 0.4037512839 4283911759
-0.3107191324 -0.1214341596 0.4092570841 4283582794
-0.3084261417 -0.1200870723 0.4062368870 4283451208
-0.3120191395 -0.1210298389 0.4109693766 4283451208
-0.3144357204 -0.1215074733 0.4141522944 4283320394
-0.3174419403 -0.1222050488 0.4181118906 4283583566
-0.3216272295 -0.1233460158 0.4236244559 4282466625
-0.3205113709 -0.1224494651 0.4221546948 4280756007
-0.3223412633 -0.1226772815 0.4245649278 4280360990
-0.3229928613 -0.1224530265 0.4254231751 4280360990
-0.3230549693 -0.1220042408 0.4255049527 4281676850
-0.3005742729 -0.1546099335 0.3964743018 4280822059
-0.3000724614 -0.1539124548 0.3958124220 4280624680
-0.2995702326 -0.1532162130 0.3951499462 4280624680
-0.2950260937 -0.1504601240 0.3891559541 4280493094
-0.2979869246 -0.1515337974 0.3930614591 4280361508
-0.2928620875 -0.1484988928 0.3863015473 4280295715
-0.2912012339 -0.1472303420 0.3841107488 4280229922
-0.2883834839 -0.1453834623 0.3803940117 4280098336
-0.2890325785 -0.1452874839 0.3812502027 4280164129
-0.2873689830 -0.1440304667 0.3790557981 4280229411
-0.2868610620 -0.1433558762 0.3783858120 4280229411
-0.2869311869 -0.1429708004 0.3784783185 4280229411
-0.2864225209 -0.1422979683 0.3778073788 4280229411
-0.2853346765 -0.1413397044 0.3763724267 4280229411
-0.2854039073 -0.1409561187 0.3764637709 4280229411
-0.2854730189 -0.1405722499 0.3765549064 4280229411
-0.2855419517 -0.1401881129 0.3766458333 4280163618
-0.2850313783 -0.1395201087 0.3759723902 4280361251
-0.2822025120 -0.1377221942 0.3722409606 4280427044
-0.2840089798 -0.1381879449 0.3746238053 4280558630
-0.2800186574 -0.1358363926 0.3693602979 4280624423
-0.2777658701 -0.1343368739 0.3663887680 4280690216
-0.2807320654 -0.1353603750 0.3703013361 4280821802
-0.2732565403 -0.1313558072 0.3604407310 4280821802
-0.2709999979 -0.1298742741 0.3574642241 4280821802
-0.2681617737 -0.1281214356 0.3537204564 4280821802
-0.2659026086 -0.1266527176 0.3507404923 4280821802
-0.2630614936 -0.1249142885 0.3469928801 4280887595
-0.2642847896 -0.1251081973 0.3486064970 4280887595
-0.2631845772 -0.1242020130 0.3471552134 4280887595
-0.2632458806 -0.1238454953 0.3472360969 4280821802
-0.2644695342 -0.1240339428 0.3488501608 4280821802
-0.2645308375 -0.1236753538 0.3489310145 4280821802
-0.2640104294 -0.1230454966 0.3482445776 4280756009
-0.2646529377 -0.1229574308 0.3490920961 4280821802
-0.2658773661 -0.1231369972 0.3507071435 4280821800
-0.2647744715 -0.1222385243 0.3492523730 4280821800
-0.2665811777 -0.1226822883 0.3516355157 4280887593
-0.2672241330 -0.1225869209 0.3524836302 4280821800
-0.2672849000 -0.1222234294 0.3525637686 4280821800
-0.2679279447 -0.1221251860 0.3534120023 4280953386
-0.2679885328 -0.1217604131 0.3534919322 4280953388
-0.2686316967 -0.1216592938 0.3543402851 4280821802
-0.2686921060 -0.1212932318 0.3544199467 4280953645
-0.2693353295 -0.1211892366 0.3552684188 4280953645
-0.2693955600 -0.1208218858 0.3553478718 4280691243
-0.2700388730 -0.1207150146 0.3561964333 4280757036
-0.2700989246 -0.1203463748 0.3562756181 4281283378
-0.2707422972 -0.1202366203 0.3571242988 4282204480
-0.2748875320 -0.1216750294 0.3625921011 4282796101
-0.2731968760 -0.1205266640 0.3603620231 4282861894
-0.2761763632 -0.1214367449 0.3642921150 4283190089
-0.2762368917 -0.1210588887 0.3643719554 4283321675
-0.2762972713 -0.1206807941 0.3644515872 4283715150
-0.2781102657 -0.1210654676 0.3668430448 4283780943
-0.2793394923 -0.1211915538 0.3684644699 4284043599
-0.2805690467 -0.1213141829 0.3700863123 4284175185
-0.2817989290 -0.1214333624 0.3717086315 4284240977
-0.2847834826 -0.1223024875 0.3756453991 4284175184
-0.2825050652 -0.1209103465 0.3726400137 4284175185
-0.2819805145 -0.1202729717 0.3719481230 4284175185
-0.2849664390 -0.1211293042 0.3758867085 4284240724
-0.2861976027 -0.1212335825 0.3775107265 4284306517
-0.2868437469 -0.1210872754 0.3783629835 4284372564
-0.2880754471 -0.1211854294 0.3799876869 4284372564
-0.2887218297 -0.1210345924 0.3808403015 4284569943
-0.2887825370 -0.1206372008 0.3809203506 4284504150
-0.2917724848 -0.1214590296 0.3848643005 4284438357
-0.2930054665 -0.1215432733 0.3864906430 4284306771
-0.2936526239 -0.1213817522 0.3873443007 4284240978
-0.2942998409 -0.1212183684 0.3881980181 4283912013
-0.2943607569 -0.1208124533 0.3882783651 4283582794
-0.2950080037 -0.1206461340 0.3891321123 4283845966
-0.2950686812 -0.1202389076 0.3892121315 4284306258
-0.2963026464 -0.1203078926 0.3908398151 4283187777
-0.2969500422 -0.1201359704 0.3916937709 4281542952
-0.2981844842 -0.1201987788 0.3933220804 4281082401
-0.2976579368 -0.1195506901 0.3926275373 4281082401
-0.2994798422 -0.1198439300 0.3950307071 4281608745
-0.3001275957 -0.1196636930 0.3958851397 4283056450
-0.3025377393 -0.1201816648 0.3990642726 4283911759
-0.3037735224 -0.1202277839 0.4006943107 4284043345
-0.3055972457 -0.1205021292 0.4030999243 4283911759
-0.3074215055 -0.1207713336 0.4055062234 4283845966
-0.3074825108 -0.1203450859 0.4055866897 4283517001
-0.3093074262 -0.1206064448 0.4079938531 4283385415
-0.3128973246 -0.1215480790 0.4127291143 4283451208
-0.3164883852 -0.1224796697 0.4174659550 4283451208
-0.3183155060 -0.1227206737 0.4198760092 4283714380
-0.3177891076 -0.1220524237 0.4191816747 4282861381
-0.3213825822 -0.1229619831 0.4239216745 4279900696
-0.3244511485 -0.1231858954 0.4279692769 4278782215
-0.3245135844 -0.1227344424 0.4280516207 4280887591
-0.3015088439 -0.1548758447 0.3982899487 4280690475
-0.3004309833 -0.1538816392 0.3968660533 4280624682
-0.2999291420 -0.1531847864 0.3962031603 4280558889
-0.2971191406 -0.1513139307 0.3924911618 4280558889
-0.2948846221 -0.1497435570 0.3895393908 4280493096
-0.2926487923 -0.1481790692 0.3865858912 4280361510
-0.2898343205 -0.1463290006 0.3828679919 4280295717
-0.2887507677 -0.1453585327 0.3814366162 4280164131
-0.2876664698 -0.1443908811 0.3800043166 4280229411
-0.2865814865 -0.1434260458 0.3785710335 4280229411
-0.2866516113 -0.1430408061 0.3786636889 4280229411
-0.2867215872 -0.1426552981 0.3787561059 4280229411
-0.2862131894 -0.1419826597 0.3780845404 4280229411
-0.2857043743 -0.1413113028 0.3774124086 4280229411
-0.2857736051 -0.1409265101 0.3775038719 4280229411
-0.2858426869 -0.1405414194 0.3775950968 4280229411
-0.2864903808 -0.1404397786 0.3784506917 4280361251
-0.2865592837 -0.1400533617 0.3785417080 4280492837
-0.2848908901 -0.1388202012 0.3763377964 4280558630
-0.2832215130 -0.1375914514 0.3741325438 4280624423
-0.2780751884 -0.1346835643 0.3673343360 4280690216
-0.2816181779 -0.1359866261 0.3720145822 4280756009
-0.2758890688 -0.1328156292 0.3644464612 4280821802
-0.2730557323 -0.1310512424 0.3607036769 4280821802
-0.2696410120 -0.1290169656 0.3561928570 4280821802
-0.2668044865 -0.1272685379 0.3524458408 4280821802
-0.2720885277 -0.1293900907 0.3594259918 4280821802
-0.2651889026 -0.1257201731 0.3503116965 4280821802
-0.2635096610 -0.1245376766 0.3480934203 4280821802
-0.2635711133 -0.1241802275 0.3481746018 4280887595
-0.2659551501 -0.1249134764 0.3513239026 4280887595
-0.2660168409 -0.1245523766 0.3514053822 4280887595
-0.2654974163 -0.1239198595 0.3507192433 4280821800
-0.2661397755 -0.1238294169 0.3515677750 4280821800
-0.2656197846 -0.1231979877 0.3508808613 4280821800
-0.2650993764 -0.1225678846 0.3501934111 4280690214
-0.2680675089 -0.1235471070 0.3541142941 4280690214
-0.2675470710 -0.1229149252 0.3534267843 4280887593
-0.2687714696 -0.1230833232 0.3550442159 4280953386
-0.2688324749 -0.1227170601 0.3551248014 4280887593
-0.2688933313 -0.1223505437 0.3552051783 4280953388
-0.2701183259 -0.1225118488 0.3568233848 4280821802
-0.2707614303 -0.1224064901 0.3576729000 4280953388
-0.2708221972 -0.1220368445 0.3577531874 4280953388
-0.2732129991 -0.1227135509 0.3609113991 4281151278
-0.2715259492 -0.1215576604 0.3586828411 4281743415
-0.2727519870 -0.1217065901 0.3603024483 4282138687
-0.2716466784 -0.1208150461 0.3588423133 4282665031
-0.2740390301 -0.1214772165 0.3620026112 4282993480
-0.2740995288 -0.1211020947 0.3620825112 4282993480
-0.2776597440 -0.1222679242 0.3667855263 4283387468
-0.2788875699 -0.1223996431 0.3684074581 4283650640
-0.2795321643 -0.1222726554 0.3692589402 4283912783
-0.2807605267 -0.1223982796 0.3708816469 4283978576
-0.2802377641 -0.1217594519 0.3701910675 4284240978
-0.2820504010 -0.1221334338 0.3725855350 4284372564
-0.2826954722 -0.1219982281 0.3734376729 4284306771
-0.2833406329 -0.1218611673 0.3742899299 4284240978
-0.2857388556 -0.1224736199 0.3774579465 4284240978
-0.2881379426 -0.1230794042 0.3806270957 4284240978
-0.2870303392 -0.1221853942 0.3791639805 4284306517
-0.2859220505 -0.1212943569 0.3776999414 4284372310
-0.2877372801 -0.1216424853 0.3800978363 4284372310
-0.2889681160 -0.1217390969 0.3817237616 4284438103
-0.2914307415 -0.1219218895 0.3849768639 4284372564
-0.2897358835 -0.1207879931 0.3827379942 4284504150
-0.2927237153 -0.1216043532 0.3866848946 4284306771
-0.2927847505 -0.1212003753 0.3867655098 4283780427
-0.2940169871 -0.1212793365 0.3883932829 4283385669
-0.2946637273 -0.1211140230 0.3892475963 4283582794
-0.2953104973 -0.1209468395 0.3901019990 4284306517
-0.2953712940 -0.1205386221 0.3901823163 4284503637
-0.2971904576 -0.1208452135 0.3925853670 4282464054
-0.2960786521 -0.1199589744 0.3911167085 4280687643
-0.2984846830 -0.1204961166 0.3942950368 4280885022
-0.2985453606 -0.1200828329 0.3943751752 4281543211
-0.3015390933 -0.1208448336 0.3983298838 4282332727
-0.2992528975 -0.1194898114 0.3953098655 4283582794
-0.3016606867 -0.1200088784 0.3984905183 4283845966
-0.3052432537 -0.1209865287 0.4032230377 4284043345
-0.3047171533 -0.1203311831 0.4025280774 4283780173
-0.3088885844 -0.1215255111 0.4080384672 4283714380
-0.3107120097 -0.1217872873 0.4104472101 4283517001
-0.3148858249 -0.1229615360 0.4159607887 4283253829
-0.3149479628 -0.1225239709 0.4160428643 4283385415
-0.3167729974 -0.1227694675 0.4184537232 4283451208
-0.3191863596 -0.1232367530 0.4216417372 4283714380
-0.3192487061 -0.1227926910 0.4217241108 4283848276
-0.3228391409 -0.1237002835 0.4264670312 4281479728
-0.3229017556 -0.1232507899 0.4265497625 4278848008
-0.3253172934 -0.1236957610 0.4297406375 4279900696
-0.3007880449 -0.1538489312 0.3979209065 4280690475
-0.2991338968 -0.1525635719 0.3957325816 4280690475
-0.2969021797 -0.1509893686 0.3927802145 4280690475
-0.2946692109 -0.1494210511 0.3898261189 4280624682
-0.2912813127 -0.1472753733 0.3853442073 4280427303
-0.2901993096 -0.1463021487 0.3839128017 4280229924
-0.2914249003 -0.1464920640 0.3855341673 4280295204
-0.2886103690 -0.1446534395 0.3818107247 4280295204
-0.2875263393 -0.1436878890 0.3803766370 4280295204
-0.2870191038 -0.1430129111 0.3797056079 4280295204
-0.2865114212 -0.1423391998 0.3790339828 4280295204
-0.2865810990 -0.1419529617 0.3791261315 4280295204
-0.2860726714 -0.1412810385 0.3784535527 4280295204
-0.2861419022 -0.1408950239 0.3785451055 4280295204
-0.2873673737 -0.1410764307 0.3801663220 4280360997
-0.2862798572 -0.1401221454 0.3787276447 4280426790
-0.2875055671 -0.1402998716 0.3803491592 4280492837
-0.2858385742 -0.1390666366 0.3781438470 4280558630
-0.2847493589 -0.1381185502 0.3767028749 4280690216
-0.2825016379 -0.1366134286 0.3737293184 4280756009
-0.2837268412 -0.1367892772 0.3753501773 4280821802
-0.2803190947 -0.1347346902 0.3708419800 4280821802
-0.2780681551 -0.1332444400 0.3678641319 4280821802
-0.2752365172 -0.1314833909 0.3641180694 4280887595
-0.2689258754 -0.1280738115 0.3557695448 4280821802
-0.2689889669 -0.1277088523 0.3558530211 4280821802
-0.2667325139 -0.1262458414 0.3528679013 4280887595
-0.2662147880 -0.1256098598 0.3521829844 4280953388
-0.2685972452 -0.1263395548 0.3553348184 4280887593
-0.2709806561 -0.1270626932 0.3584878743 4280953386
-0.2658198774 -0.1242524534 0.3516605198 4280821800
-0.2687838972 -0.1252432168 0.3555817306 4280821800
-0.2705877721 -0.1256864071 0.3579681218 4280756007
-0.2694883347 -0.1247799769 0.3565136492 4280624421
-0.2672263682 -0.1233401969 0.3535212278 4280690214
-0.2690306008 -0.1237778813 0.3559080958 4280887593
-0.2702542841 -0.1239440143 0.3575269282 4280953386
-0.2720596492 -0.1243724748 0.3599153161 4280821800
-0.2709583938 -0.1234711185 0.3584584296 4280953388
-0.2710196078 -0.1231010258 0.3585394025 4280887595
-0.2728258371 -0.1235207915 0.3609289229 4281084972
-0.2723052800 -0.1228852347 0.3602402806 4281348144
-0.2741122246 -0.1232981384 0.3626307249 4281874488
-0.2747555971 -0.1231840402 0.3634818494 4282598211
-0.2783102393 -0.1243690401 0.3681843877 4282993482
-0.2754602432 -0.1226909310 0.3644140363 4283125068
-0.2749387622 -0.1220549196 0.3637241721 4282993482
-0.2773300111 -0.1227092147 0.3668875992 4283059275
-0.2785565853 -0.1228428781 0.3685103059 4283649870
-0.2821150720 -0.1239978746 0.3732179105 4283913042
-0.2810108364 -0.1230998635 0.3717570901 4284175185
-0.2822384834 -0.1232231706 0.3733811677 4284175185
-0.2828831971 -0.1230892316 0.3742340803 4284372310
-0.2811944187 -0.1219414771 0.3719999492 4284372310
-0.2841728628 -0.1228157878 0.3759402335 4284306517
-0.2842341959 -0.1224248931 0.3760213554 4284372310
-0.2848791182 -0.1222843230 0.3768745661 4284372564
-0.2878597081 -0.1231410131 0.3808176517 4284306771
-0.2873372436 -0.1224955618 0.3801264763 4284372310
-0.2891509533 -0.1228441447 0.3825258613 4284306517
-0.2903809547 -0.1229402795 0.3841530681 4284372310
-0.2910268903 -0.1227863804 0.3850076199 4284438103
-0.2905038595 -0.1221391037 0.3843156695 4284438357
-0.2923189700 -0.1224729717 0.3867169321 4284372564
-0.2935498655 -0.1225576103 0.3883453310 4284504150
-0.2930264473 -0.1219087616 0.3876528740 4284109392
-0.2936725914 -0.1217463315 0.3885076940 4283253570
-0.2943188250 -0.1215820238 0.3893626034 4283056191
-0.2937946320 -0.1209340319 0.3886691034 4283582794
-0.2950260937 -0.1210076958 0.3902982771 4284240724
-0.2956723869 -0.1208385825 0.3911532760 4283319363
-0.2969043553 -0.1209060624 0.3927830756 4281213987
-0.2963794172 -0.1202570647 0.3920886219 4280424471
-0.2987833023 -0.1207936928 0.3952687979 4280753436
-0.2994300723 -0.1206154525 0.3961244226 4282069809
-0.3024212420 -0.1213762313 0.4000815153 4283385669
-0.3059996068 -0.1223630458 0.4048154354 4283780427
-0.3037159443 -0.1210038513 0.4017943442 4283714634
-0.3084684908 -0.1224443242 0.4080815911 4283780173
-0.3061839938 -0.1210878789 0.4050593674 4283582794
-0.3103518188 -0.1222803891 0.4105730951 4283583564
-0.3127606809 -0.1227702126 0.4137598574 4283451978
-0.3122357726 -0.1221056432 0.4130654335 4283188808
-0.3187547028 -0.1241869032 0.4216895103 4283188808
-0.3205788732 -0.1244268268 0.4241027534 4283386185
-0.3206417561 -0.1239803731 0.4241859615 4283517771
-0.3242286742 -0.1248911694 0.4289311767 4283584847
-0.3237043619 -0.1242138445 0.4282375574 4282926917
-0.3249424100 -0.1242117360 0.4298754036 4280229661
-0.3244175911 -0.1235347018 0.4291810989 4280953384
-0.3256557882 -0.1235279739 0.4308191538 4282663743
-0.3009933829 -0.1546228975 0.3987778127 4281019440
-0.3010686040 -0.1542187780 0.3988775015 4281019440
-0.3011436760 -0.1538143605 0.3989769816 4281085233
-0.3006426692 -0.1531163007 0.3983131647 4281019440
-0.2984129190 -0.1515418440 0.3953590691 4280887854
-0.2898433805 -0.1467637420 0.3840054870 4280624682
-0.2933731973 -0.1481196284 0.3886820674 4280427303
-0.2882568538 -0.1451125443 0.3819035590 4280492583
-0.2871744037 -0.1441452801 0.3804694414 4280426790
-0.2860912383 -0.1431808472 0.3790343702 4280360997
-0.2861612141 -0.1427950114 0.3791270852 4280295204
-0.2868081033 -0.1426960230 0.3799841404 4280295204
-0.2863006890 -0.1420225203 0.3793118894 4280295204
-0.2863702178 -0.1416358501 0.3794039786 4280360997
-0.2858620584 -0.1409641206 0.3787307739 4280426790
-0.2859311402 -0.1405776590 0.3788222671 4280426790
-0.2865778208 -0.1404741406 0.3796790242 4280426790
-0.2872246206 -0.1403687894 0.3805359602 4280558376
-0.2867154181 -0.1396982819 0.3798613548 4280624169
-0.2862057984 -0.1390290558 0.3791861832 4280689962
-0.2856957614 -0.1383611262 0.3785104156 4280689962
-0.2851852477 -0.1376944929 0.3778340816 4280755755
-0.2840957344 -0.1367506236 0.3763906062 4280755755
-0.2870566845 -0.1377537400 0.3803135157 4280756009
-0.2819145620 -0.1348715127 0.3735008240 4280821802
-0.2790858746 -0.1331077814 0.3697531521 4280821802
-0.2762556374 -0.1313516498 0.3660034835 4280821802
-0.2728446424 -0.1293285489 0.3614843488 4280887595
-0.2700112760 -0.1275884360 0.3577304780 4280887595
-0.2712333202 -0.1277669966 0.3593495190 4280953388
-0.2678181827 -0.1257643998 0.3548249304 4280953388
-0.2678802609 -0.1253995895 0.3549071848 4280821802
-0.2679421902 -0.1250345260 0.3549892306 4280756009
-0.2674238682 -0.1243993640 0.3543025255 4280624423
-0.2703865170 -0.1253798604 0.3582276106 4280624423
-0.2710288763 -0.1252791435 0.3590786755 4280690214
-0.2705103457 -0.1246416345 0.3583917022 4280690214
-0.2723139226 -0.1250721663 0.3607811928 4280690214
-0.2712143362 -0.1241682693 0.3593243957 4280821800
-0.2730185091 -0.1245927513 0.3617147207 4280952875
-0.2742423117 -0.1247479171 0.3633360863 4281216047
-0.2743041813 -0.1243726462 0.3634180427 4281610803
-0.2749471664 -0.1242598221 0.3642699122 4282137147
-0.2761716545 -0.1244070679 0.3658922017 4282532418
-0.2762334049 -0.1240286455 0.3659740388 4282927176
-0.2762950361 -0.1236499697 0.3660556674 4283125068
-0.2786836922 -0.1243091151 0.3692203164 4283125068
-0.2793274224 -0.1241854578 0.3700731993 4283125068
-0.2811353803 -0.1245757937 0.3724685013 4283256654
-0.2800329626 -0.1236754730 0.3710079789 4283781456
-0.2795122266 -0.1230344176 0.3703180254 4283978835
-0.2824857235 -0.1239278316 0.3742575347 4284175185
-0.2825474739 -0.1235393882 0.3743393421 4284240978
-0.2843571305 -0.1239124462 0.3767369390 4284372310
-0.2844189405 -0.1235210896 0.3768188059 4284372310
-0.2885612249 -0.1248956770 0.3823068142 4284241494
-0.2880404890 -0.1242466792 0.3816168904 4284307287
-0.2857697010 -0.1228469014 0.3786084056 4284438357
-0.2904976904 -0.1244521514 0.3848723769 4284372564
-0.2888095379 -0.1233041808 0.3826357722 4284372564
-0.2906219065 -0.1236505508 0.3850369453 4284306771
-0.2912674546 -0.1234968528 0.3858922124 4284306771
-0.2919130623 -0.1233412921 0.3867475688 4284306771
-0.2913908660 -0.1226921007 0.3860557079 4284438357
-0.2932045162 -0.1230245531 0.3884585798 4284240978
-0.2938503623 -0.1228633747 0.3893142343 4284240465
-0.2939119339 -0.1224568784 0.3893958032 4283582535
-0.2945577800 -0.1222927719 0.3902514577 4282726968
-0.2946191132 -0.1218849495 0.3903327286 4282858554
-0.2946802676 -0.1214768812 0.3904137611 4283319363
-0.2959108651 -0.1215489805 0.3920441270 4283056191
-0.2953869700 -0.1208993793 0.3913500607 4281740330
-0.2966178060 -0.1209669188 0.3929807544 4280556056
-0.2978489399 -0.1210309640 0.3946118355 4280753436
-0.3002509475 -0.1215654463 0.3977941871 4281279780
-0.3008974791 -0.1213847026 0.3986507952 4282661946
-0.3021296263 -0.1214374304 0.4002832174 4283648841
-0.3016051054 -0.1207830459 0.3995882869 4283779914
-0.3051804900 -0.1217660531 0.4043252170 4283779914
-0.3093429804 -0.1229719371 0.4098399878 4283517001
-0.3070609868 -0.1216131970 0.4068166316 4283517001
-0.3135695457 -0.1237297878 0.4154396355 4283451980
-0.3136319518 -0.1232931688 0.4155223072 4283517773
-0.3160395324 -0.1237748340 0.4187120795 4283320394
-0.3161020279 -0.1233344302 0.4187948406 4283254601
-0.3202703297 -0.1244897842 0.4243173301 4283386187
-0.3220933080 -0.1247246787 0.4267325401 4283386187
-0.3221563399 -0.1242753044 0.4268160462 4283715663
-0.3251537681 -0.1249534115 0.4307872653 4283584077
-0.3258039951 -0.1247241348 0.4316487312 4281874229
-0.3258671165 -0.1242690533 0.4317323565 4281940022
-0.3001223505 -0.1544023901 0.3982090950 4281545782
-0.3007725179 -0.1542938948 0.3990717828 4281545784
-0.2962457240 -0.1515353620 0.3930655122 4281545784
-0.3003471494 -0.1531909555 0.3985073864 4281414198
-0.2986952066 -0.1519084573 0.3963155448 4281151026
-0.2958908975 -0.1500464827 0.3925947249 4280887854
-0.2930850387 -0.1481919587 0.3888718486 4280690475
-0.2914294600 -0.1469256282 0.3866752088 4280689962
-0.2897728980 -0.1456636786 0.3844772577 4280624169
-0.2881153524 -0.1444061100 0.3822779357 4280492583
-0.2870331407 -0.1434409469 0.3808420599 4280360997
-0.2859502137 -0.1424786150 0.3794052005 4280360997
-0.2860198915 -0.1420920640 0.3794976473 4280360997
-0.2860893905 -0.1417052448 0.3795898855 4280426790
-0.2861587703 -0.1413181275 0.3796819150 4280492583
-0.2862279713 -0.1409307420 0.3797737360 4280492583
-0.2862969935 -0.1405430734 0.3798653483 4280492583
-0.2869432271 -0.1404376924 0.3807227910 4280558376
-0.2870121002 -0.1400486827 0.3808141649 4280624169
-0.2870808244 -0.1396593750 0.3809053302 4280689962
-0.2871493697 -0.1392698139 0.3809962869 4280624169
-0.2866398692 -0.1386005133 0.3803202510 4280624169
-0.2849738300 -0.1373752207 0.3781097233 4280558376
-0.2856195271 -0.1372658163 0.3789664507 4280690216
-0.2827954590 -0.1354921013 0.3752194345 4280690216
-0.2799698710 -0.1337259561 0.3714703619 4280821802
-0.2771427631 -0.1319674253 0.3677192926 4280821802
-0.2737354338 -0.1299417764 0.3631983697 4280821802
-0.2714840174 -0.1284731925 0.3602111340 4280887595
-0.2744423151 -0.1294689178 0.3641362488 4280887595
-0.2797183096 -0.1315459013 0.3711365759 4280887595
-0.2699357569 -0.1265477985 0.3581568599 4280887595
-0.2763715684 -0.1291579157 0.3666960597 4280690216
-0.2712195814 -0.1263507605 0.3598602712 4280558630
-0.2759193182 -0.1281337887 0.3660959899 4280558630
-0.2730836570 -0.1264147460 0.3623335660 4280558630
-0.2719863355 -0.1255061775 0.3608776033 4280361251
-0.2743686438 -0.1262013912 0.3640385270 4280427044
-0.2755914927 -0.1263579577 0.3656610250 4280887595
-0.2750737369 -0.1257154346 0.3649740517 4281347631
-0.2762969434 -0.1258675307 0.3665970266 4281742389
-0.2769398987 -0.1257525384 0.3674501181 4282400319
-0.2781636715 -0.1258985549 0.3690738678 4283058249
-0.2782261372 -0.1255170405 0.3691567183 4283255882
-0.2777074575 -0.1248740256 0.3684685230 4283255882
-0.2795127630 -0.1252741367 0.3708638549 4283322447
-0.2784125209 -0.1243709624 0.3694040179 4283388240
-0.2802184224 -0.1247649714 0.3718001246 4283322447
-0.2802804410 -0.1243797764 0.3718824387 4283454033
-0.2826687992 -0.1250233352 0.3750513494 4283978835
-0.2838945091 -0.1251473278 0.3766776621 4284110421
-0.2839567959 -0.1247565746 0.3767603040 4284306517
-0.2857649624 -0.1251301020 0.3791593909 4284372310
-0.2840808928 -0.1239742860 0.3769249618 4284307287
-0.2870539725 -0.1248489767 0.3808697164 4284373080
-0.2865338624 -0.1242007390 0.3801795840 4284241494
-0.2889258564 -0.1248120368 0.3833533525 4284307287
-0.2895707786 -0.1246641502 0.3842090666 4284372564
-0.2931295931 -0.1257645488 0.3889309764 4284372564
-0.2914437652 -0.1246119961 0.3866941631 4284438356
-0.2915060222 -0.1242092848 0.3867768049 4284372563
-0.2921512723 -0.1240539253 0.3876329064 4284240978
-0.2922132909 -0.1236498877 0.3877152205 4284240978
-0.2928585410 -0.1234915927 0.3885713518 4284240465
-0.2929203808 -0.1230862364 0.3886533678 4284108879
-0.2929820120 -0.1226806268 0.3887351453 4283779401
-0.2942109704 -0.1227619052 0.3903657496 4282989885
-0.2942724824 -0.1223541647 0.3904473782 4282397233
-0.2949178219 -0.1221881285 0.3913036287 4282791991
-0.2949791253 -0.1217790619 0.3913849592 4282792761
-0.2956244648 -0.1216100827 0.3922412097 4281542694
-0.2968542278 -0.1216787547 0.3938728869 4280818971
-0.2974998057 -0.1215052083 0.3947294652 4280687385
-0.2987300456 -0.1215676814 0.3963617682 4281148194
-0.2993758619 -0.1213895679 0.3972186744 4282069296
-0.3000217378 -0.1212095767 0.3980756104 4283122497
-0.3030074835 -0.1219695434 0.4020371735 4283188290
-0.3071643710 -0.1231904179 0.4075526595 4283516742
-0.3083967865 -0.1232304648 0.4091878235 4283779914
-0.3113853931 -0.1239660531 0.4131531715 4283517001
-0.3085207045 -0.1223711893 0.4093522429 4283517001
-0.3115101159 -0.1230980977 0.4133186638 4283320394
-0.3150861561 -0.1240471601 0.4180634320 4283386187
-0.3174918294 -0.1245266497 0.4212553203 4283255114
-0.3175546527 -0.1240835860 0.4213387072 4283189321
-0.3217193484 -0.1252370924 0.4268645346 4283451980
-0.3235409856 -0.1254696846 0.4292814732 4283320394
-0.3236043751 -0.1250176579 0.4293655753 4283584079
-0.3242538869 -0.1247910112 0.4302273989 4283123528
-0.3249034584 -0.1245624721 0.4310892522 4282663745
-0.3010505140 -0.1546641737 0.4000294805 4281874747
-0.3005510867 -0.1539642662 0.3993658125 4281743161
-0.3012008071 -0.1538528353 0.4002291560 4281545782
-0.3012757003 -0.1534467041 0.4003286958 4281151024
-0.3002002537 -0.1524561644 0.3988996446 4280756268
-0.2979736030 -0.1508858502 0.3959408998 4280756268
-0.2951702476 -0.1490309238 0.3922158778 4280821548
-0.2929408550 -0.1474732310 0.3892535269 4280755755
-0.2912858427 -0.1462104023 0.3870543540 4280360997
-0.2896298170 -0.1449519545 0.3848538697 4280295204
-0.2885487378 -0.1439853013 0.3834173679 4280426790
-0.2863147557 -0.1424482316 0.3804489076 4280360997
-0.2858081758 -0.1417746395 0.3797757626 4280426790
-0.2858775258 -0.1413873732 0.3798679411 4280558376
-0.2859467268 -0.1409998238 0.3799598813 4280492583
-0.2860157788 -0.1406119913 0.3800516427 4280492583
-0.2860846519 -0.1402238905 0.3801431656 4280492837
-0.2861534059 -0.1398354918 0.3802344799 4280492837
-0.2867990136 -0.1397279799 0.3810923994 4280492837
-0.2868675888 -0.1393382400 0.3811834753 4280492837
-0.2875133157 -0.1392278075 0.3820415139 4280558630
-0.2870042026 -0.1385579407 0.3813650310 4280624423
-0.2870722711 -0.1381673664 0.3814554811 4280558889
-0.2871401906 -0.1377765238 0.3815457225 4280493096
-0.2837406397 -0.1357268244 0.3770284653 4280493096
-0.2809173167 -0.1339619458 0.3732769191 4280558889
-0.2780925035 -0.1322046667 0.3695233166 4280558889
-0.2758444250 -0.1307290792 0.3665361702 4280690475
-0.2782225311 -0.1314457357 0.3696961403 4280756268
-0.2730802894 -0.1286135018 0.3628632426 4280624682
-0.2731437087 -0.1282404810 0.3629474938 4280492583
-0.2726281583 -0.1275963038 0.3622624278 4280558376
-0.2726911306 -0.1272235662 0.3623461127 4280492837
-0.2733330429 -0.1271198839 0.3631990850 4280427044
-0.2728166282 -0.1264773011 0.3625128865 4280558630
-0.2746172249 -0.1269069910 0.3649054766 4280756009
-0.2752594650 -0.1267977804 0.3657588661 4281084974
-0.2764814496 -0.1269528717 0.3673826158 4281545525
-0.2759645283 -0.1263084710 0.3666957319 4281940022
-0.2771868408 -0.1264590621 0.3683199286 4282400573
-0.2784095109 -0.1266062260 0.3699446023 4282927174
-0.2790524065 -0.1264869869 0.3707988560 4283190346
-0.2808559835 -0.1268902272 0.3731953800 4283321932
-0.2809188962 -0.1265043020 0.3732790053 4283387725
-0.2804011405 -0.1258575469 0.3725910187 4283387468
-0.2822056413 -0.1262512356 0.3749887943 4283387468
-0.2816875577 -0.1256039739 0.3743003607 4283780943
-0.2852355242 -0.1267652810 0.3790148497 4283978322
-0.2823932767 -0.1250855923 0.3752381206 4284044115
-0.2853614092 -0.1259794086 0.3791821003 4284109908
-0.2848427594 -0.1253302991 0.3784929514 4284241494
-0.2872309089 -0.1259574145 0.3816662729 4284241494
-0.2878752053 -0.1258153319 0.3825223744 4284175701
-0.2908463478 -0.1266848743 0.3864703774 4284175701
-0.2880003750 -0.1250204444 0.3826887310 4284045909
-0.2892266214 -0.1251261383 0.3843181133 4284177495
-0.2904531658 -0.1252283603 0.3859479427 4284308053
-0.2910978496 -0.1250769496 0.3868045807 4284176467
-0.2923249602 -0.1251730174 0.3884351254 4284438356
-0.2929699123 -0.1250170618 0.3892921209 4284306770
-0.2930323780 -0.1246114969 0.3893751502 4284174671
-0.2936773598 -0.1244525984 0.3902321756 4284240464
-0.2931568027 -0.1237995848 0.3895404339 4284371793
-0.2938016653 -0.1236385554 0.3903973401 4283779656
-0.2938635349 -0.1232311502 0.3904795647 4283186747
-0.2945084274 -0.1230671853 0.3913365006 4282660403
-0.2945700884 -0.1226584539 0.3914183974 4282988341
-0.2946315408 -0.1222494692 0.3915000856 4282922548
-0.2952764034 -0.1220814958 0.3923569322 4281935140
-0.2959212959 -0.1219116449 0.3932138681 4281145624
-0.2965662479 -0.1217399165 0.3940708637 4280883994
-0.2977951765 -0.1218051389 0.3957038522 4281212959
-0.2978563607 -0.1213908195 0.3957851231 4281740073
-0.3008380830 -0.1221622825 0.3997471929 4282398003
-0.3026522994 -0.1224525720 0.4021578729 4282662716
-0.3044670224 -0.1227377206 0.4045692384 4282925888
-0.3062822819 -0.1230177283 0.4069813192 4282991940
-0.3063441813 -0.1225907356 0.4070635736 4283255112
-0.3099143505 -0.1235622987 0.4118075371 4283058249
-0.3123160303 -0.1240591705 0.4149988294 4283124042
-0.3123785257 -0.1236232370 0.4150818586 4283255114
-0.3171215653 -0.1250325441 0.4213843346 4283320907
-0.3189402521 -0.1252791584 0.4238009453 4283517005
-0.3190034330 -0.1248334423 0.4238849282 4283582798
-0.3225790858 -0.1257568747 0.4286361635 4283779664
-0.3243992329 -0.1259879619 0.4310547113 4283648078
-0.3250485063 -0.1257606894 0.4319174886 4283386439
-0.3256978393 -0.1255314946 0.4327802658 4283452232
-0.3257612586 -0.1250754446 0.4328645766 4282860352
-0.2996050715 -0.1541488171 0.3986965418 4281809208
-0.3014775217 -0.1542215198 0.4011882544 4281479989
-0.3015525639 -0.1538144648 0.4012881219 4281479989
-0.2999038696 -0.1525304914 0.3990941346 4281216819
-0.2976794541 -0.1509594470 0.3961340487 4280887854
-0.2954537868 -0.1493943185 0.3931722343 4281085231
-0.2932268083 -0.1478351057 0.3902086914 4281019438
-0.2909985185 -0.1462818235 0.3872434497 4280624680
-0.2893441916 -0.1450228095 0.3850419819 4280493094
-0.2876888812 -0.1437681764 0.3828391731 4280624680
-0.2860325575 -0.1425179243 0.3806350231 4280558887
-0.2861022055 -0.1421300024 0.3807277083 4280558887
-0.2855958939 -0.1414566040 0.3800539672 4280624680
-0.2856650949 -0.1410689056 0.3801460564 4280493096
-0.2857341468 -0.1406809241 0.3802379370 4280427303
-0.2858030200 -0.1402926594 0.3803295791 4280427303
-0.2858717442 -0.1399041116 0.3804210424 4280427303
-0.2859403193 -0.1395152807 0.3805122972 4280427303
-0.2860087454 -0.1391261816 0.3806033432 4280427303
-0.2872305214 -0.1392962188 0.3822292387 4280427303
