VERSION 0.7
FIELDS x y z rgba
SIZE 4 4 4 4
TYPE F F F U
COUNT 1 1 1 1
WIDTH 920
HEIGHT 1
VIEWPOINT 0.0 0.0 0.0 1.0 0.0 0.0 0.0
POINTS 920
DATA ascii
-0.3346312046 -0.0792861730 0.5644968152 4285019703
-0.3341628313 -0.0785488784 0.5637067556 4285019703
-0.3336940706 -0.0778132528 0.5629159212 4284888117
-0.3337313235 -0.0771964267 0.5629788041 4284887604
-0.3327553272 -0.0763469860 0.5613323450 4284953397
-0.3312723041 -0.0753858238 0.5588306189 4285149747
-0.3308018148 -0.0746587366 0.5580369234 4285149747
-0.3303309381 -0.0739333332 0.5572426319 4285346356
-0.3298596740 -0.0732095987 0.5564476252 4285543735
-0.3298947513 -0.0725990683 0.5565068126 4285871932
-0.3284091353 -0.0716565996 0.5540006757 4286069311
-0.3274297714 -0.0708292127 0.5523486137 4286004290
-0.3279706538 -0.0703314990 0.5532609820 4286464841
-0.3269904554 -0.0695084259 0.5516074896 4287125855
-0.3280378282 -0.0691162273 0.5533742905 4288770680
-0.3265497983 -0.0681906566 0.5508641005 4289433235
-0.3250611722 -0.0672705397 0.5483528972 4290354337
-0.3036521077 -0.1804193258 0.5131990314 4287989903
-0.3066577017 -0.1816292852 0.5182787180 4287062633
-0.3057633340 -0.1805254221 0.5167672038 4285483601
-0.3092584014 -0.1820081919 0.5226741433 4286529094
-0.3078758717 -0.1806163937 0.5203375816 4287187024
-0.3113728166 -0.1820832044 0.5262477398 4288563024
-0.3104778230 -0.1809768081 0.5247350931 4288365645
-0.3139767945 -0.1824267805 0.5306487083 4288300364
-0.3160939813 -0.1824697703 0.5342268944 4287708742
-0.3166643381 -0.1822043806 0.5351908803 4287511363
-0.3177235425 -0.1822172105 0.5369810462 4287248706
-0.3178052008 -0.1816672683 0.5371190310 4287248706
-0.3183757067 -0.1813955307 0.5380832553 4287183170
-0.3199246228 -0.1816772670 0.5407010317 4287051584
-0.3195168376 -0.1808457077 0.5400118828 4286788666
-0.3205769062 -0.1808437258 0.5418034792 4286854459
-0.3211477101 -0.1805626750 0.5427681804 4287115835
-0.3207391798 -0.1797306985 0.5420777202 4287115835
-0.3213098049 -0.1794470847 0.5430421233 4287181628
-0.3223703802 -0.1794340611 0.5448346138 4287247421
-0.3219611049 -0.1786016673 0.5441429019 4287117631
-0.3230218887 -0.1785835475 0.5459356904 4287117631
-0.3235926330 -0.1782914400 0.5469003320 4287248193
-0.3231826127 -0.1774586439 0.5462073088 4287248193
-0.3242437243 -0.1774324328 0.5480006933 4289685873
-0.3248144388 -0.1771347970 0.5489652753 4292778144
-0.3248943985 -0.1765683144 0.5491003990 4293437873
-0.3254650533 -0.1762672812 0.5500648618 4294293182
-0.3265267313 -0.1762291193 0.5518592000 4294225333
-0.3261152804 -0.1753946692 0.5511637926 4290672511
-0.3271771371 -0.1753513962 0.5529584289 4287314499
-0.3272565007 -0.1747794002 0.5530925393 4286985534
-0.3278271258 -0.1744685620 0.5540569425 4286853433
-0.3283977509 -0.1741555929 0.5550214052 4286656054
-0.3284766972 -0.1735806316 0.5551548004 4286590776
-0.3290472329 -0.1732642353 0.5561190844 4286590776
-0.3296177983 -0.1729457229 0.5570833683 4286459449
-0.3301883638 -0.1726250648 0.5580477118 4286656828
-0.3302667439 -0.1720458567 0.5581801534 4286589746
-0.3308372200 -0.1717217863 0.5591443181 4286918711
-0.3309152722 -0.1711408943 0.5592762232 4286853183
-0.3314856291 -0.1708134115 0.5602401495 4288169043
-0.3315633535 -0.1702308357 0.5603715181 4292123304
-0.3321335912 -0.1698999256 0.5613352656 4294886610
-0.3322109580 -0.1693156809 0.5614660382 4293711325
-0.3327810764 -0.1689813584 0.5624296069 4293842911
-0.3328580856 -0.1683954149 0.5625597239 4293646045
-0.3329348862 -0.1678090692 0.5626894832 4292790736
-0.3335047662 -0.1674700528 0.5636526942 4293769669
-0.3335811794 -0.1668820232 0.5637818575 4290282640
-0.3331637979 -0.1660476029 0.5630764365 4287315274
-0.3337333500 -0.1657047719 0.5640389919 4286657344
-0.3343028724 -0.1653597951 0.5650015473 4286195503
-0.3348723650 -0.1650126576 0.5659640431 4286063917
-0.3349478543 -0.1644208878 0.5660915971 4285933356
-0.3355172276 -0.1640703380 0.5670539141 4285867563
-0.3355923295 -0.1634768993 0.5671808124 4285735977
-0.3361615539 -0.1631229371 0.5681428909 4285670184
-0.3362362981 -0.1625278145 0.5682691932 4285735977
-0.3363107741 -0.1619322896 0.5683950782 4285735977
-0.3363850415 -0.1613363773 0.5685206056 4285801257
-0.3369538486 -0.1609764546 0.5694819689 4285735464
-0.3370277286 -0.1603788882 0.5696068406 4285735464
-0.3371013701 -0.1597809196 0.5697312951 4285735464
-0.3376698792 -0.1594163030 0.5706921220 4285669671
-0.3377431631 -0.1588166654 0.5708159208 4285669671
-0.3383114934 -0.1584486365 0.5717765093 4285603878
-0.3383843899 -0.1578473449 0.5718996525 4285603878
-0.3384570181 -0.1572456807 0.5720224380 4285604132
-0.3385294080 -0.1566436142 0.5721447468 4285604132
-0.3386015296 -0.1560411602 0.5722666979 4285538339
-0.3391692936 -0.1556659043 0.5732262135 4285472546
-0.3392410278 -0.1550618112 0.5733475089 4285340960
-0.3398086131 -0.1546831429 0.5743067265 4285340960
-0.3398799598 -0.1540773958 0.5744273663 4285275167
-0.3399510682 -0.1534712613 0.5745475292 4285209374
-0.3400219381 -0.1528647542 0.5746672750 4285143838
-0.3405890167 -0.1524801403 0.5756256580 4285143838
-0.3406594694 -0.1518719941 0.5757447481 4285078045
-0.3407296538 -0.1512634605 0.5758634210 4285143838
-0.3407995999 -0.1506545544 0.5759816170 4285078815
-0.3408693075 -0.1500452757 0.5760993958 4285078815
-0.3409387469 -0.1494356245 0.5762167573 4285210401
-0.3410079181 -0.1488256007 0.5763337016 4285144608
-0.3410768509 -0.1482152045 0.5764501691 4285144608
-0.3411455452 -0.1476044357 0.5765662789 4285144608
-0.3412139416 -0.1469933093 0.5766819119 4285210401
-0.3412820995 -0.1463818103 0.5767970681 4285210401
-0.3413500190 -0.1457699388 0.5769118667 4285210401
-0.3414176702 -0.1451577097 0.5770261884 4285276194
-0.3414850533 -0.1445451230 0.5771400928 4285341987
-0.3415521681 -0.1439321637 0.5772535205 4285276194
-0.3416190445 -0.1433188468 0.5773665309 4285210401
-0.3416856527 -0.1427051723 0.5774791241 4285144608
-0.3417520225 -0.1420911402 0.5775912404 4285144608
-0.3423163891 -0.1416829824 0.5785450935 4285144608
-0.3423823118 -0.1410673410 0.5786564946 4285145121
-0.3424479663 -0.1404513419 0.5787674785 4285079328
-0.3425133824 -0.1398350000 0.5788780451 4285079328
-0.3425785005 -0.1392182857 0.5789881349 4285013535
-0.3426433802 -0.1386012286 0.5790977478 4285013535
-0.3427079916 -0.1379838288 0.5792069435 4284947742
-0.3427723348 -0.1373660713 0.5793157220 4284947742
-0.3428364098 -0.1367479712 0.5794240236 4284947742
-0.3429002464 -0.1361295283 0.5795318484 4284750877
-0.3429637849 -0.1355107427 0.5796392560 4284750877
-0.3430270851 -0.1348915994 0.5797462463 4284685084
-0.3425906897 -0.1340766847 0.5790086985 4284685084
-0.3426533341 -0.1334577650 0.5791146159 4284619291
-0.3427157402 -0.1328385025 0.5792200565 4284619291
-0.3427778482 -0.1322189122 0.5793250203 4284619291
-0.3428397179 -0.1315989941 0.5794295669 4284619291
-0.3429012895 -0.1309787184 0.5795336366 4284554011
-0.3429626226 -0.1303581297 0.5796372890 4284554011
-0.3430236578 -0.1297371984 0.5797404647 4284554011
-0.3430844545 -0.1291159391 0.5798432231 4284554011
-0.3431449533 -0.1284943521 0.5799454451 4284488218
-0.3437055051 -0.1280588359 0.5808928013 4284488218
-0.3437655568 -0.1274356842 0.5809943080 4284554009
-0.3438253403 -0.1268122047 0.5810953379 4284488216
-0.3433842659 -0.1260047257 0.5803499222 4284488216
-0.3439440727 -0.1255642772 0.5812960267 4284554009
-0.3440030217 -0.1249398366 0.5813956857 4284488731
-0.3440617323 -0.1243150681 0.5814948678 4284488731
-0.3441201448 -0.1236899793 0.5815936327 4284488731
-0.3441782892 -0.1230645776 0.5816918612 4284422938
-0.3442361355 -0.1224388555 0.5817896724 4284554526
-0.3442937434 -0.1218128204 0.5818870068 4284620319
-0.3443510532 -0.1211864725 0.5819838643 4284686112
-0.3444080651 -0.1205598116 0.5820802450 4284686112
-0.3444648385 -0.1199328378 0.5821761489 4284686626
-0.3445213139 -0.1193055585 0.5822716355 4284752419
-0.3435743749 -0.1183324754 0.5806712508 4284752419
-0.3436301351 -0.1177064106 0.5807654858 4284686626
-0.3431839049 -0.1169091165 0.5800112486 4284686880
-0.3432390094 -0.1162833571 0.5801044106 4284752673
-0.3432938755 -0.1156572998 0.5801971555 4284752673
-0.3428464532 -0.1148627698 0.5794409513 4284752673
-0.3429006636 -0.1142370254 0.5795326233 4284818212
-0.3424524665 -0.1134446487 0.5787751079 4284818212
-0.3430082500 -0.1129846573 0.5797144175 4284752932
-0.3425593376 -0.1121935248 0.5789557099 4284752932
-0.3426123559 -0.1115675271 0.5790452957 4284752933
-0.3421626389 -0.1107785702 0.5782852769 4284752933
-0.3427175283 -0.1103146672 0.5792230964 4284687140
-0.3432722986 -0.1098486334 0.5801606774 4284687140
-0.3428215981 -0.1090606526 0.5793989301 4284490275
-0.3428731859 -0.1084332168 0.5794861317 4284490275
-0.3429245055 -0.1078055054 0.5795729160 4284556068
-0.3429755569 -0.1071775034 0.5796591640 4284556068
-0.3430263102 -0.1065492257 0.5797449350 4284620834
-0.3425737321 -0.1057653651 0.5789800882 4284686627
-0.3421207368 -0.1049830690 0.5782144666 4284752420
-0.3416673243 -0.1042023450 0.5774481297 4284752420
-0.3417167068 -0.1035757288 0.5775315762 4284687140
-0.3412624896 -0.1027972251 0.5767639279 4284752933
-0.3413112462 -0.1021709964 0.5768463612 4284818726
-0.3408562541 -0.1013947353 0.5760773420 4284818726
-0.3409043849 -0.1007688940 0.5761587024 4284753447
-0.3409522176 -0.1001427919 0.5762395263 4284885033
-0.3409997821 -0.0995164290 0.5763199329 4284951339
-0.3410470486 -0.0988897979 0.5763998032 4284951339
-0.3405901790 -0.0981177688 0.5756276846 4285082925
-0.3411407173 -0.0976357684 0.5765581131 4285148718
-0.3411871195 -0.0970083624 0.5766365528 4285083438
-0.3407292068 -0.0962383449 0.5758626461 4284951852
-0.3402708769 -0.0954699218 0.5750880241 4284820266
-0.3403162956 -0.0948436186 0.5751647949 4284754473
-0.3398571908 -0.0940774754 0.5743888021 4284688680
-0.3393976390 -0.0933129489 0.5736121535 4284557094
-0.3394420743 -0.0926877558 0.5736872554 4284622887
-0.3389817774 -0.0919255242 0.5729092956 4284622887
-0.3390255570 -0.0913007706 0.5729832649 4284753960
-0.3385644853 -0.0905408412 0.5722040534 4284753960
-0.3381029665 -0.0897825286 0.5714240670 4284819753
-0.3376410604 -0.0890258476 0.5706434250 4284819753
-0.3376834989 -0.0884029344 0.5707151294 4284819753
-0.3377256691 -0.0877797827 0.5707863569 4284819753
-0.3372626305 -0.0870261192 0.5700038075 4284885546
-0.3378091156 -0.0865327865 0.5709273815 4284885546
-0.3373453915 -0.0857805312 0.5701436400 4284885546
-0.3363761902 -0.0849024281 0.5685056448 4284951339
-0.3364166915 -0.0842809305 0.5685741305 4285213232
-0.3359517455 -0.0835336000 0.5677883029 4285213232
-0.3354863822 -0.0827879086 0.5670018196 4285214002
-0.3355259299 -0.0821676105 0.5670686364 4285411381
-0.3350598216 -0.0814242810 0.5662808418 4285411638
-0.3345932961 -0.0806826055 0.5654923916 4285345845
-0.3341263533 -0.0799425915 0.5647032261 4285148979
-0.3341645896 -0.0793242380 0.5647678375 4285148979
-0.3336969018 -0.0785866007 0.5639774203 4285083956
-0.3332288265 -0.0778506249 0.5631863475 4284952370
-0.3332660496 -0.0772335157 0.5632492304 4285083188
-0.3317857087 -0.0762674138 0.5607473254 4285148981
-0.3308105469 -0.0754220560 0.5590991974 4285214774
-0.3313525021 -0.0749234036 0.5600152016 4285346360
-0.3298705518 -0.0739688799 0.5575105548 4285609017
-0.3299059868 -0.0733573213 0.5575703979 4285806396
-0.3284229636 -0.0724108443 0.5550639629 4285739578
-0.3279515505 -0.0716910735 0.5542672276 4285673785
-0.3284920454 -0.0711923838 0.5551807284 4285543739
-0.3260619640 -0.0688288733 0.5510736704 4286136903
-0.3241020143 -0.0671979487 0.5477612019 4287848038
-0.3246406913 -0.0667000189 0.5486716032 4288839558
-0.3221401274 -0.0655813441 0.5444454551 4290287004
-0.3045964241 -0.1818938255 0.5157631636 4287983987
-0.3032172322 -0.1804997623 0.5134278536 4285286474
-0.3062185943 -0.1817103028 0.5185099244 4285410609
-0.3072734475 -0.1817581654 0.5202960968 4286463297
-0.3119019568 -0.1827356368 0.5281333923 4288364874
-0.3129584491 -0.1827658415 0.5299223065 4288430667
-0.3130400479 -0.1822245568 0.5300604701 4288168263
-0.3140969276 -0.1822488606 0.5318500400 4288036677
-0.3161298037 -0.1828336418 0.5352922678 4287643462
-0.3152356148 -0.1817234159 0.5337781310 4287314497
-0.3167812228 -0.1820184588 0.5363953114 4286985534
-0.3173509538 -0.1817487627 0.5373600125 4286985534
-0.3179207146 -0.1814769506 0.5383247733 4287050814
-0.3194674850 -0.1817588508 0.5409438610 4286853435
-0.3190603554 -0.1809269637 0.5402544737 4286919739
-0.3201189935 -0.1809250265 0.5420470238 4286985532
-0.3206890523 -0.1806438714 0.5430122614 4287181371
-0.3207701445 -0.1800860912 0.5431495905 4286983992
-0.3213401735 -0.1798015535 0.5441147685 4287180600
-0.3219102025 -0.1795148849 0.5450800061 4287377979
-0.3215015829 -0.1786821634 0.5443881154 4287051578
-0.3225609064 -0.1786640584 0.5461818576 4286919992
-0.3226413429 -0.1781016141 0.5463180542 4286721595
-0.3232112527 -0.1778081506 0.5472830534 4287182146
-0.3242710531 -0.1777811050 0.5490775704 4287446083
-0.3243511915 -0.1772148311 0.5492132902 4288761943
-0.3249211907 -0.1769149750 0.5501784086 4289354593
-0.3250010312 -0.1763470024 0.5503135920 4289617765
-0.3255709410 -0.1760437340 0.5512786508 4290144625
-0.3261409104 -0.1757383347 0.5522437096 4288368214
-0.3267108798 -0.1754308045 0.5532088280 4287182913
-0.3267901838 -0.1748585999 0.5533431768 4286985534
-0.3273600936 -0.1745476574 0.5543081164 4286984249
-0.3279299736 -0.1742345691 0.5552731156 4286786870
-0.3280088603 -0.1736593992 0.5554066896 4286590261
-0.3285786808 -0.1733428985 0.5563715100 4286458675
-0.3291485012 -0.1730242670 0.5573363900 4286131250
-0.3297183216 -0.1727035046 0.5583012700 4286394422
-0.3302881718 -0.1723805964 0.5592661500 4286523698
-0.3298747838 -0.1715442389 0.5585662127 4286786870
-0.3304443955 -0.1712187827 0.5595307350 4286723391
-0.3310140371 -0.1708911806 0.5604952574 4290342006
-0.3310917020 -0.1703083813 0.5606267452 4293505468
-0.3316611946 -0.1699773520 0.5615910888 4294953685
-0.3317385316 -0.1693928689 0.5617219806 4293840853
-0.3318156004 -0.1688079685 0.5618525147 4293972439
-0.3323848844 -0.1684722602 0.5628165007 4293841366
-0.3324616253 -0.1678856760 0.5629464388 4293315022
-0.3325381279 -0.1672987044 0.5630759597 4292387755
-0.3331071734 -0.1669582874 0.5640394688 4287913831
-0.3326904476 -0.1661235243 0.5633338690 4285802546
-0.3332592547 -0.1657805592 0.5642969608 4285999925
-0.3338280320 -0.1654354632 0.5652600527 4286195758
-0.3343967795 -0.1650882065 0.5662231445 4285735207
-0.3344722390 -0.1644961983 0.5663508773 4285867563
-0.3345474303 -0.1639037728 0.5664781928 4285801770
-0.3351159394 -0.1635518372 0.5674408674 4285735977
-0.3356844187 -0.1631977409 0.5684034228 4285670184
-0.3357591033 -0.1626023799 0.5685299039 4285867050
-0.3358335793 -0.1620066315 0.5686560273 4285867050
-0.3359077871 -0.1614104807 0.5687816739 4285801257
-0.3364758790 -0.1610504240 0.5697435737 4285801257
-0.3365496993 -0.1604526043 0.5698686242 4285735464
-0.3366233110 -0.1598543823 0.5699932575 4285735464
-0.3371911049 -0.1594896466 0.5709546804 4285669671
-0.3372643292 -0.1588897705 0.5710786581 4285603878
-0.3373372853 -0.1582895070 0.5712022185 4285538339
-0.3379047811 -0.1579200625 0.5721631050 4285538339
-0.3379773796 -0.1573181450 0.5722860098 4285538339
-0.3380497098 -0.1567158252 0.5724085569 4285538339
-0.3381218314 -0.1561131328 0.5725306273 4285538339
-0.3386888504 -0.1557377428 0.5734907389 4285406753
-0.3387605548 -0.1551333964 0.5736121535 4285340960
-0.3388320208 -0.1545286626 0.5737331510 4285275167
-0.3393987119 -0.1541485786 0.5746927261 4285209374
-0.3394697607 -0.1535422057 0.5748130679 4285209374
-0.3395406008 -0.1529354453 0.5749329925 4285078045
-0.3401069343 -0.1525506824 0.5758919716 4285078045
-0.3401773572 -0.1519422680 0.5760111809 4284947229
-0.3402475119 -0.1513334960 0.5761300325 4285013022
-0.3403174281 -0.1507243365 0.5762484074 4285144092
-0.3403871059 -0.1501148045 0.5763663650 4285209885
-0.3404565156 -0.1495049000 0.5764838457 4285144606
-0.3405256569 -0.1488946229 0.5766009688 4285144606
-0.3405945599 -0.1482839733 0.5767176151 4285144606
-0.3406631947 -0.1476729512 0.5768338442 4285144606
-0.3407315910 -0.1470615566 0.5769496560 4285144608
-0.3407997191 -0.1464498043 0.5770649910 4285210401
-0.3408675790 -0.1458376795 0.5771799088 4285276194
-0.3409352005 -0.1452251971 0.5772944093 4285341987
-0.3410025537 -0.1446123421 0.5774084926 4285341987
-0.3410696387 -0.1439991295 0.5775220990 4285341987
-0.3411364853 -0.1433855593 0.5776352286 4285276707
-0.3412030637 -0.1427716166 0.5777480006 4285276707
-0.3417668641 -0.1423645467 0.5787026286 4285276707
-0.3418329954 -0.1417489946 0.5788146853 4285276707
-0.3418988883 -0.1411330998 0.5789262652 4285276707
-0.3419645429 -0.1405168325 0.5790373683 4285210914
-0.3420298994 -0.1399002224 0.5791480541 4285013535
-0.3420950174 -0.1392832547 0.5792583227 4284947742
-0.3421598673 -0.1386659443 0.5793681145 4284947742
-0.3422244191 -0.1380482763 0.5794774294 4284947742
-0.3422887623 -0.1374302506 0.5795863271 4284816670
-0.3423528075 -0.1368118823 0.5796948075 4284750877
-0.3424165845 -0.1361931711 0.5798028111 4284750877
-0.3424800932 -0.1355741173 0.5799103975 4284750877
-0.3420447409 -0.1347582787 0.5791732073 4284685084
-0.3421076536 -0.1341394335 0.5792797208 4284619291
-0.3421702683 -0.1335202456 0.5793857574 4284619291
-0.3422326446 -0.1329007298 0.5794913173 4284619291
-0.3422947228 -0.1322808713 0.5795964599 4284554011
-0.3423565626 -0.1316606700 0.5797011852 4284619804
-0.3424181342 -0.1310401410 0.5798054338 4284554011
-0.3424794078 -0.1304192692 0.5799092054 4284554011
-0.3425404429 -0.1297980696 0.5800125003 4284554011
-0.3426011801 -0.1291765422 0.5801153779 4284488218
-0.3426616490 -0.1285546869 0.5802177787 4284488218
-0.3432214558 -0.1281189919 0.5811656713 4284488218
-0.3432814777 -0.1274955720 0.5812672973 4284422936
-0.3428414762 -0.1266871393 0.5805222392 4284422936
-0.3434007168 -0.1262477487 0.5814692378 4284422938
-0.3434599340 -0.1256233454 0.5815694928 4284488731
-0.3435188532 -0.1249986216 0.5816692710 4284488731
-0.3435775340 -0.1243735850 0.5817685723 4284488731
-0.3436359167 -0.1237482205 0.5818674564 4284292122
-0.3436940312 -0.1231225431 0.5819658637 4284292122
-0.3437518477 -0.1224965453 0.5820637941 4284423708
-0.3438094258 -0.1218702346 0.5821612477 4284489501
-0.3438667059 -0.1212436110 0.5822582841 4284620833
-0.3439237177 -0.1206166744 0.5823547840 4284620833
-0.3434797525 -0.1198147684 0.5816030502 4284686626
-0.3430353403 -0.1190143824 0.5808505416 4284686626
-0.3430913389 -0.1183883399 0.5809453726 4284752419
-0.3421452045 -0.1174181700 0.5793432593 4284752419
-0.3427015245 -0.1169643477 0.5802853107 4284687139
-0.3427566290 -0.1163383126 0.5803785920 4284687139
-0.3423102498 -0.1155428067 0.5796227455 4284752932
-0.3423647285 -0.1149170846 0.5797150135 4284752932
-0.3424189091 -0.1142910644 0.5798067451 4284752932
-0.3424728215 -0.1136647463 0.5798979998 4284687139
-0.3420249224 -0.1128726378 0.5791396499 4284556323
-0.3415766060 -0.1120820642 0.5783805251 4284556323
-0.3416295350 -0.1114567071 0.5784701109 4284556068
-0.3416821659 -0.1108310521 0.5785592198 4284556068
-0.3417344987 -0.1102051139 0.5786478519 4284556068
-0.3417865634 -0.1095788926 0.5787360668 4284556068
-0.3418383598 -0.1089523807 0.5788237453 4284556068
-0.3423919082 -0.1084846556 0.5797610283 4284490275
-0.3424432278 -0.1078566536 0.5798478723 4284490788
-0.3424942195 -0.1072283760 0.5799342990 4284490788
-0.3420427144 -0.1064435095 0.5791697502 4284424482
-0.3420930803 -0.1058155969 0.5792550445 4284424482
-0.3416407704 -0.1050329432 0.5784891248 4284490275
-0.3411880136 -0.1042518541 0.5777224898 4284490275
-0.3412373960 -0.1036249623 0.5778061152 4284556068
-0.3407838643 -0.1028461009 0.5770381689 4284621861
-0.3403298855 -0.1020688266 0.5762695074 4284556581
-0.3403782845 -0.1014429703 0.5763514042 4284622374
-0.3404263854 -0.1008168459 0.5764328837 4284491301
-0.3404741883 -0.1001904607 0.5765138268 4284622887
-0.3400187492 -0.0994167402 0.5757426023 4284688680
-0.3400659263 -0.0987907574 0.5758225322 4284622887
-0.3401128054 -0.0981645137 0.5759019256 4284623401
-0.3406625986 -0.0976822898 0.5768328905 4284754987
-0.3402057290 -0.0969112441 0.5760592818 4284754987
-0.3402517736 -0.0962842256 0.5761371851 4284689194
-0.3397941291 -0.0955154523 0.5753622651 4284688680
-0.3393360376 -0.0947482809 0.5745866299 4284688680
-0.3393810987 -0.0941223726 0.5746629238 4284426022
-0.3394258320 -0.0934962034 0.5747386813 4284360229
-0.3394702971 -0.0928697959 0.5748139620 4284426022
-0.3385070264 -0.0919694155 0.5731828809 4284491815
-0.3385507762 -0.0913443789 0.5732569695 4284557094
-0.3385942578 -0.0907190964 0.5733305812 4284622887
-0.3381335139 -0.0899595097 0.5725504160 4284688680
-0.3376723826 -0.0892015398 0.5717695951 4284754473
-0.3372108042 -0.0884452015 0.5709879994 4284688426
-0.3367488086 -0.0876904950 0.5702057481 4284688426
-0.3367905915 -0.0870677531 0.5702764988 4284820012
-0.3368321061 -0.0864447877 0.5703467727 4284754219
-0.3358646929 -0.0855646357 0.5687087178 4284754219
-0.3359054923 -0.0849430785 0.5687777996 4284820012
-0.3354415894 -0.0841946825 0.5679922700 4284689709
-0.3349772394 -0.0834479332 0.5672060251 4284689709
-0.3350170553 -0.0828275681 0.5672734380 4284689709
-0.3345519900 -0.0820831805 0.5664859414 4284755502
-0.3340865076 -0.0813404396 0.5656977296 4284952368
-0.3336206079 -0.0805993527 0.5649088621 4284886575
-0.3341638744 -0.0801019222 0.5658287406 4285082927
-0.3331924379 -0.0792422220 0.5641838908 4285148720
-0.3332303166 -0.0786243007 0.5642479658 4284950828
-0.3327629268 -0.0778879821 0.5634565949 4285148207
-0.3328001201 -0.0772705823 0.5635195971 4285279795
-0.3318269253 -0.0764203444 0.5618717074 4285148209
-0.3313583434 -0.0756890252 0.5610782504 4285148209
-0.3308893740 -0.0749593899 0.5602841377 4285411381
-0.3304199874 -0.0742314234 0.5594893694 4285607990
-0.3299502134 -0.0735051334 0.5586938858 4285410611
-0.3294800222 -0.0727805272 0.5578977466 4285082933
-0.3295148611 -0.0721682832 0.5579566956 4285280312
-0.3285385072 -0.0713363588 0.5563035011 4284887606
-0.3270561397 -0.0703991875 0.5537934899 4284887606
-0.3275954127 -0.0698989481 0.5547065735 4285347387
-0.3276288509 -0.0692897066 0.5547632575 4285610559
-0.3261450827 -0.0683623105 0.5522508025 4285872192
-0.3241550326 -0.0673353374 0.5488811135 4285872192
-0.3212469220 -0.0643137470 0.5439569354 4289697434
-0.3016491234 -0.1810417771 0.5117349625 4286406757
-0.3081278503 -0.1837685704 0.5227258801 4285871930
-0.3082910776 -0.1827037334 0.5230028033 4288301130
-0.3093452156 -0.1827453673 0.5247910619 4288694861
-0.3099131286 -0.1824966967 0.5257545114 4288431689
-0.3109677434 -0.1825315952 0.5275436044 4288168778
-0.3120226562 -0.1825626791 0.5293332934 4288168778
-0.3130778968 -0.1825899929 0.5311234593 4288166977
-0.3136464357 -0.1823303699 0.5320879221 4288101184
-0.3156764805 -0.1829154640 0.5355318189 4287511875
-0.3147836328 -0.1818047762 0.5340171456 4287314496
-0.3163271248 -0.1820999831 0.5366355777 4287116605
-0.3173836172 -0.1821099520 0.5384278893 4286985019
-0.3174650967 -0.1815583259 0.5385661125 4287181630
-0.3185219467 -0.1815623492 0.5403590202 4287115837
-0.3190911710 -0.1812853813 0.5413246751 4287182400
-0.3196604550 -0.1810062677 0.5422904491 4287116607
-0.3202297688 -0.1807250381 0.5432562828 4287312189
-0.3207991123 -0.1804416925 0.5442221165 4287180603
-0.3208800852 -0.1798824221 0.5443595052 4287377210
-0.3214493990 -0.1795956641 0.5453252792 4287443003
-0.3215300739 -0.1790346950 0.5454621911 4287051063
-0.3220992982 -0.1787445396 0.5464278460 4286985270
-0.3221796751 -0.1781818718 0.5465642214 4286853181
-0.3227488697 -0.1778883189 0.5475298166 4286787388
-0.3233180642 -0.1775926352 0.5484954715 4287050812
-0.3243765831 -0.1775626242 0.5502911806 4287050812
-0.3239671886 -0.1767278910 0.5495966673 4286853688
-0.3250258565 -0.1766927689 0.5513926744 4286787895
-0.3255951703 -0.1763885617 0.5523584485 4287248706
-0.3251850307 -0.1755534261 0.5516626835 4287314499
-0.3262439966 -0.1755101830 0.5534591675 4286919228
-0.3263232708 -0.1749377400 0.5535936356 4286853435
-0.3268924057 -0.1746267080 0.5545591712 4286787640
-0.3269713521 -0.1740525812 0.5546931028 4286656054
-0.3275404274 -0.1737381220 0.5556584597 4286524723
-0.3281094730 -0.1734215170 0.5566238761 4286261551
-0.3286785483 -0.1731027812 0.5575892925 4286064943
-0.3292476535 -0.1727819145 0.5585547090 4286393908
-0.3298167586 -0.1724588871 0.5595201850 4286327089
-0.3294040263 -0.1716221869 0.5588200092 4286721847
-0.3299728930 -0.1712966263 0.5597850680 4286395451
-0.3305417895 -0.1709689051 0.5607501864 4289290343
-0.3306193948 -0.1703858823 0.5608818531 4291727768
-0.3311881721 -0.1700547487 0.5618467331 4293043628
-0.3312654495 -0.1694700271 0.5619778633 4292519339
-0.3313424885 -0.1688849032 0.5621085763 4293111476
-0.3319110274 -0.1685490608 0.5630730391 4292321960
-0.3314959109 -0.1677134186 0.5623688102 4290216584
-0.3320642114 -0.1673750430 0.5633329153 4287451223
-0.3326325119 -0.1670345068 0.5642969608 4285477433
-0.3322164416 -0.1661993861 0.5635911822 4285737005
-0.3327845037 -0.1658563167 0.5645548105 4285737005
-0.3333525360 -0.1655110866 0.5655184984 4286129965
-0.3334280550 -0.1649201065 0.5656465888 4285801000
-0.3339959681 -0.1645714641 0.5666100383 4285801770
-0.3340711296 -0.1639788151 0.5667375326 4285735977
-0.3346388638 -0.1636267453 0.5677007437 4285735464
-0.3352066278 -0.1632725149 0.5686638951 4285735464
-0.3352812827 -0.1626769155 0.5687905550 4285801511
-0.3353556991 -0.1620809287 0.5689167976 4285801511
-0.3354299068 -0.1614845246 0.5690426230 4285801511
-0.3355038464 -0.1608877480 0.5691680908 4285735718
-0.3360710442 -0.1605262756 0.5701302886 4285735718
-0.3361445963 -0.1599278301 0.5702551007 4285669925
-0.3367116451 -0.1595629454 0.5712170601 4285604132
-0.3367848098 -0.1589628309 0.5713412166 4285472546
-0.3368577659 -0.1583623141 0.5714649558 4285406753
-0.3369304538 -0.1577614099 0.5715883374 4285406753
-0.3374970555 -0.1573905647 0.5725495219 4285472546
-0.3375693858 -0.1567880064 0.5726721883 4285472546
-0.3376414478 -0.1561850756 0.5727944374 4285407010
-0.3377132714 -0.1555817425 0.5729162693 4285341217
-0.3382793963 -0.1552049369 0.5738767385 4285275424
-0.3383508325 -0.1545999497 0.5739979148 4285209631
-0.3384220004 -0.1539945900 0.5741186142 4285143838
-0.3389877975 -0.1536131054 0.5750784874 4285143838
-0.3390585780 -0.1530060917 0.5751985908 4285143838
-0.3396241963 -0.1526211798 0.5761581063 4285078045
-0.3396945894 -0.1520125270 0.5762774944 4284947227
-0.3397647142 -0.1514034867 0.5763965249 4285013020
-0.3398346007 -0.1507940739 0.5765150189 4285209885
-0.3399042189 -0.1501842886 0.5766331553 4285275678
-0.3399735987 -0.1495741308 0.5767508149 4285341471
-0.3400427103 -0.1489636004 0.5768681169 4285341471
-0.3401115835 -0.1483526975 0.5769849420 4285210399
-0.3401801884 -0.1477414221 0.5771012902 4285276192
-0.3402485251 -0.1471297741 0.5772172809 4285276194
-0.3403166234 -0.1465177536 0.5773327947 4285276194
-0.3403844535 -0.1459053755 0.5774478912 4285407780
-0.3404520452 -0.1452926397 0.5775625110 4285407780
-0.3405193686 -0.1446795315 0.5776767135 4285473573
-0.3405864239 -0.1440660506 0.5777904987 4285473573
-0.3406532407 -0.1434522271 0.5779038072 4285474086
-0.3407197893 -0.1428380311 0.5780166984 4285474086
-0.3407860696 -0.1422234774 0.5781291723 4285408293
-0.3408520818 -0.1416085660 0.5782411695 4285408293
-0.3414148092 -0.1411988139 0.5791958570 4285408293
-0.3414804339 -0.1405822933 0.5793071389 4285276707
-0.3415457606 -0.1399654299 0.5794179440 4285013535
-0.3416108489 -0.1393481940 0.5795283318 4284881949
-0.3416756392 -0.1387306154 0.5796383023 4284947742
-0.3417401910 -0.1381126791 0.5797477961 4284947742
-0.3418044746 -0.1374944001 0.5798568726 4284750877
-0.3418684900 -0.1368757635 0.5799654722 4284750877
-0.3419322670 -0.1362567842 0.5800736547 4284750877
-0.3414979279 -0.1354400367 0.5793368220 4284685084
-0.3415610790 -0.1348212659 0.5794439316 4284685084
-0.3416239321 -0.1342021525 0.5795505643 4284619291
-0.3416865170 -0.1335827112 0.5796567798 4284554011
-0.3417488635 -0.1329629272 0.5797625184 4284554011
-0.3418109417 -0.1323427856 0.5798677802 4284554011
-0.3418727219 -0.1317223310 0.5799726248 4284619804
-0.3419342637 -0.1311015338 0.5800770521 4284554011
-0.3419955075 -0.1304803938 0.5801809430 4284488218
-0.3420565128 -0.1298589259 0.5802844167 4284554011
-0.3421172202 -0.1292371303 0.5803874135 4284488218
-0.3421776891 -0.1286149919 0.5804899931 4284357145
-0.3427367508 -0.1281791180 0.5814384222 4284422938
-0.3422977626 -0.1273697466 0.5806937218 4284226329
-0.3423573971 -0.1267466396 0.5807948709 4284226329
-0.3424167633 -0.1261232048 0.5808956027 4284357145
-0.3429751098 -0.1256823838 0.5818427801 4284422938
-0.3435333371 -0.1252394170 0.5827897787 4284422938
-0.3435920477 -0.1246131957 0.5828893781 4284422938
-0.3431510031 -0.1238064393 0.5821411610 4284292122
-0.3432090878 -0.1231804863 0.5822397470 4284357915
-0.3432669044 -0.1225542128 0.5823377967 4284489501
-0.3433244228 -0.1219276264 0.5824353695 4284555294
-0.3433816731 -0.1213007271 0.5825325251 4284620833
-0.3429387510 -0.1204978600 0.5817811489 4284686626
-0.3429953754 -0.1198712438 0.5818771720 4284686626
-0.3425516486 -0.1190705001 0.5811244249 4284686626
-0.3426076472 -0.1184441820 0.5812193751 4284621346
-0.3416628838 -0.1174735725 0.5796166062 4284621346
-0.3422184587 -0.1170195565 0.5805591941 4284621346
-0.3417731225 -0.1162230745 0.5798037052 4284687139
-0.3418278396 -0.1155973747 0.5798965096 4284687139
-0.3413817286 -0.1148030460 0.5791397095 4284687139
-0.3414358199 -0.1141776592 0.5792314410 4284687139
-0.3414896131 -0.1135519817 0.5793226957 4284687139
-0.3410423398 -0.1127604321 0.5785639286 4284556323
-0.3410955071 -0.1121350825 0.5786541104 4284556323
-0.3416493237 -0.1116731837 0.5795936584 4284490275
-0.3412010074 -0.1108835116 0.5788331032 4284424482
-0.3412533104 -0.1102572978 0.5789218545 4284424482
-0.3413053751 -0.1096307859 0.5790101290 4284358689
-0.3413571417 -0.1090039983 0.5790979266 4284358689
-0.3419099450 -0.1085360646 0.5800358057 4284292896
-0.3414598107 -0.1077495590 0.5792721510 4284227616
-0.3415107429 -0.1071219221 0.5793585181 4284293409
-0.3410598040 -0.1063376218 0.5785935521 4284293408
-0.3411100805 -0.1057103425 0.5786788464 4284227615
-0.3406583965 -0.1049282551 0.5779125690 4284293408
-0.3412097991 -0.1044549569 0.5788480043 4284359201
-0.3407573700 -0.1036741734 0.5780805349 4284424995
-0.3403045237 -0.1028949618 0.5773122907 4284490788
-0.3403532505 -0.1022681594 0.5773949027 4284491301
-0.3404016793 -0.1016410962 0.5774770975 4284425508
-0.3399477005 -0.1008647755 0.5767068863 4284491301
-0.3399955034 -0.1002381071 0.5767880082 4284491301
-0.3395407200 -0.0994640365 0.5760164857 4284360229
-0.3395878673 -0.0988377631 0.5760964751 4284360229
-0.3396347463 -0.0982112288 0.5761759877 4284426022
-0.3391788602 -0.0974400863 0.5754026175 4284491815
-0.3392250836 -0.0968139693 0.5754809976 4284557608
-0.3392710090 -0.0961875916 0.5755589604 4284557608
-0.3393166959 -0.0955609679 0.5756364465 4284622887
-0.3388592899 -0.0947934389 0.5748605132 4284622887
-0.3389043212 -0.0941672400 0.5749368668 4284426022
-0.3389490545 -0.0935407877 0.5750127435 4284360229
-0.3384905457 -0.0927762389 0.5742349029 4284360229
-0.3380316198 -0.0920132995 0.5734563470 4284426022
-0.3380753398 -0.0913879722 0.5735305548 4284491817
-0.3376156390 -0.0906273350 0.5727506876 4284491817
-0.3371555209 -0.0898683295 0.5719701052 4284491817
-0.3371982872 -0.0892441422 0.5720426440 4284557610
-0.3367373943 -0.0884874538 0.5712608099 4284491817
-0.3362761140 -0.0877323896 0.5704782009 4284491817
-0.3363178670 -0.0871093646 0.5705490708 4284623403
-0.3363593519 -0.0864861086 0.5706194639 4284557610
-0.3358969390 -0.0857340917 0.5698350072 4284557610
-0.3354341388 -0.0849837065 0.5690498352 4284623403
-0.3354746103 -0.0843616277 0.5691184998 4284165934
-0.3350110352 -0.0836135969 0.5683320761 4284165934
-0.3345470726 -0.0828672126 0.5675449371 4284165934
-0.3345865607 -0.0822463408 0.5676119924 4284165934
-0.3341218233 -0.0815023184 0.5668236017 4284428079
-0.3331526816 -0.0806379616 0.5651794672 4284428079
-0.3326870799 -0.0798981860 0.5643895864 4284755502
-0.3322210610 -0.0791600719 0.5635989904 4284821295
-0.3322588503 -0.0785427988 0.5636631250 4284952368
-0.3322963417 -0.0779253244 0.5637267232 4284754989
-0.3313249350 -0.0770730153 0.5620787740 4284754989
-0.3308573961 -0.0763406232 0.5612855554 4284952368
-0.3303894401 -0.0756099075 0.5604917407 4284952368
-0.3299210966 -0.0748808607 0.5596972108 4284886575
-0.3289478123 -0.0740399286 0.5580461025 4285083438
-0.3294877708 -0.0735404193 0.5589621067 4285149231
-0.3290182948 -0.0728154704 0.5581656098 4284820530
-0.3280437291 -0.0719814673 0.5565123558 4284754737
-0.3285828829 -0.0714804232 0.5574269891 4284755250
-0.3271026909 -0.0705418736 0.5549159050 4285084215
-0.3276412785 -0.0700404570 0.5558295846 4285216571
-0.3266649842 -0.0692160279 0.5541733503 4285282364
-0.3256882131 -0.0683951750 0.5525163412 4285413695
-0.3247109652 -0.0675779060 0.5508584380 4285545281
-0.3252483606 -0.0670766905 0.5517700911 4285413697
-0.3217447996 -0.0657476932 0.5458264351 4286005834
-0.3232916892 -0.0654544309 0.5484507084 4286073680
-0.3223126531 -0.0646486878 0.5467898250 4286600024
-0.3031547666 -0.1822888851 0.5152601004 4284888895
-0.3042060137 -0.1823465377 0.5170468688 4286590516
-0.3071987927 -0.1835603416 0.5221335888 4287445825
-0.3058240414 -0.1821613461 0.5197969675 4288430660
-0.3088183999 -0.1833617240 0.5248863697 4288233281
-0.3084142506 -0.1825393289 0.5241994262 4287708223
-0.3109245598 -0.1834379435 0.5284661055 4287774016
-0.3100343347 -0.1823272407 0.5269530416 4287511616
-0.3125458956 -0.1832140386 0.5312218666 4287248444
-0.3135999441 -0.1832397133 0.5330134034 4288429118
-0.3127090037 -0.1821285784 0.5314990878 4288231739
-0.3142496049 -0.1824324280 0.5341175795 4287511616
-0.3153041899 -0.1824492067 0.5359100103 4287445823
-0.3158723712 -0.1821814775 0.5368757248 4287117118
-0.3174142540 -0.1824713498 0.5394964218 4286919739
-0.3180642724 -0.1816437244 0.5406011939 4287181628
-0.3186327517 -0.1813666672 0.5415674448 4286920000
-0.3192012906 -0.1810874790 0.5425337553 4286788414
-0.3202573061 -0.1810817868 0.5443286300 4286918206
-0.3193632960 -0.1799732000 0.5428091288 4286918206
-0.3204194009 -0.1799632460 0.5446041226 4287180090
-0.3209879398 -0.1796764135 0.5455704331 4287180090
-0.3210685849 -0.1791152209 0.5457075238 4286853686
-0.3211490214 -0.1785536259 0.5458441973 4286985272
-0.3222056031 -0.1785326004 0.5476400852 4286524216
-0.3217975497 -0.1776988059 0.5469465256 4286787388
-0.3228543103 -0.1776726693 0.5487426519 4286853948
-0.3239113688 -0.1776426882 0.5505392551 4286853948
-0.3235026598 -0.1768076271 0.5498446226 4287117118
-0.3245598674 -0.1767725199 0.5516415238 4286919739
-0.3256173432 -0.1767335683 0.5534389019 4287247423
-0.3252079785 -0.1758972406 0.5527430773 4287247423
-0.3257764578 -0.1755895168 0.5537093282 4286852154
-0.3263449669 -0.1752796471 0.5546755791 4286852154
-0.3264240921 -0.1747057140 0.5548100471 4286852663
-0.3269925117 -0.1743924320 0.5557761788 4286721077
-0.3270713091 -0.1738168001 0.5559101105 4286392882
-0.3276396394 -0.1735001057 0.5568760633 4286129710
-0.3282079697 -0.1731812507 0.5578420758 4285998639
-0.3287763298 -0.1728602797 0.5588080883 4286459190
-0.3288545907 -0.1722804010 0.5589410663 4286327089
-0.3289326131 -0.1717001051 0.5590736866 4286261296
-0.3295007646 -0.1713744253 0.5600393414 4286198072
-0.3295784593 -0.1707924455 0.5601713657 4285934900
-0.3301464617 -0.1704633385 0.5611368418 4286002489
-0.3307144940 -0.1701320857 0.5621023178 4286528833
-0.3307917416 -0.1695471406 0.5622335672 4287185482
-0.3308687508 -0.1689617783 0.5623644590 4287251275
-0.3314365447 -0.1686258316 0.5633295178 4287053381
-0.3310220540 -0.1677898467 0.5626250505 4286395451
-0.3315896392 -0.1674513370 0.5635896921 4286395962
-0.3316658139 -0.1668634862 0.5637192130 4285935411
-0.3317417800 -0.1662752330 0.5638483167 4286065969
-0.3323090971 -0.1659320295 0.5648125410 4285737004
-0.3328763843 -0.1655866802 0.5657767653 4285735205
-0.3329518735 -0.1649954617 0.5659050941 4285537826
-0.3335190415 -0.1646467000 0.5668690801 4285867304
-0.3335941434 -0.1640537977 0.5669967532 4285735718
-0.3336690366 -0.1634605080 0.5671240091 4285735718
-0.3342359364 -0.1631070375 0.5680875182 4285735718
-0.3348028064 -0.1627514213 0.5690510273 4285735718
-0.3348771930 -0.1621551812 0.5691774487 4285735718
-0.3349513412 -0.1615585536 0.5693034530 4285735718
-0.3350252211 -0.1609615237 0.5694290996 4285604132
-0.3350988925 -0.1603640914 0.5695542693 4285604132
-0.3356652260 -0.1600012183 0.5705168247 4285604132
-0.3357385099 -0.1594021320 0.5706413984 4285538339
-0.3363046646 -0.1590358466 0.5716036558 4285472546
-0.3363775611 -0.1584350914 0.5717275739 4285406753
-0.3364502490 -0.1578339487 0.5718510747 4285406753
-0.3370160758 -0.1574629694 0.5728128552 4285406751
-0.3370883763 -0.1568601578 0.5729357004 4285406751
-0.3371604085 -0.1562569737 0.5730581284 4285341217
-0.3372321725 -0.1556533873 0.5731801391 4285407010
-0.3377975821 -0.1552764475 0.5741411448 4285341217
-0.3378689587 -0.1546712220 0.5742624402 4285209631
-0.3379400969 -0.1540656090 0.5743833780 4285143838
-0.3385051787 -0.1536839604 0.5753437877 4285143838
-0.3385759294 -0.1530767083 0.5754640698 4285013020
-0.3386464119 -0.1524690688 0.5755838752 4285013020
-0.3392111361 -0.1520827413 0.5765436888 4284881434
-0.3392812312 -0.1514734477 0.5766628385 4285013020
-0.3393510878 -0.1508637816 0.5767815709 4285209885
-0.3394206762 -0.1502537429 0.5768998265 4285341471
-0.3394899964 -0.1496433318 0.5770176649 4285473057
-0.3395590782 -0.1490325481 0.5771350861 4285473057
-0.3396279216 -0.1484213918 0.5772520900 4285341985
-0.3396964967 -0.1478098482 0.5773686171 4285407778
-0.3397648036 -0.1471979618 0.5774847269 4285341987
-0.3398328722 -0.1465856880 0.5776004195 4285407780
-0.3399006724 -0.1459730417 0.5777156949 4285473573
-0.3399682343 -0.1453600526 0.5778304935 4285539366
-0.3400354981 -0.1447466761 0.5779448748 4285539879
-0.3401025534 -0.1441329420 0.5780587792 4285539879
-0.3401693106 -0.1435188502 0.5781722665 4285539879
-0.3402358294 -0.1429044008 0.5782853365 4285474086
-0.3403020799 -0.1422895938 0.5783979297 4285474086
-0.3403680623 -0.1416744143 0.5785101056 4285474086
-0.3404338062 -0.1410588920 0.5786218047 4285474086
-0.3409956396 -0.1406477243 0.5795767307 4285342500
-0.3410609365 -0.1400305927 0.5796877146 4285079328
-0.3411259949 -0.1394131035 0.5797982812 4284947742
-0.3411907554 -0.1387952566 0.5799083710 4284816670
-0.3412552774 -0.1381770521 0.5800180435 4284816670
-0.3413195312 -0.1375585049 0.5801272392 4284750877
-0.3413835168 -0.1369396150 0.5802360177 4284750877
-0.3414472342 -0.1363203675 0.5803443193 4284750877
-0.3410136104 -0.1355032623 0.5796072483 4284685084
-0.3410767019 -0.1348842233 0.5797145367 4284619804
-0.3411395252 -0.1342648566 0.5798213482 4284554011
-0.3412021101 -0.1336451322 0.5799276829 4284554011
-0.3407669365 -0.1328311712 0.5791880488 4284554011
-0.3413264453 -0.1324046850 0.5801389813 4284554011
-0.3413882256 -0.1317839473 0.5802440047 4284619804
-0.3414497077 -0.1311628819 0.5803484917 4284554011
-0.3415109515 -0.1305414885 0.5804525614 4284488218
-0.3415718973 -0.1299197376 0.5805562139 4284422938
-0.3416326046 -0.1292976737 0.5806593299 4284422938
-0.3416930139 -0.1286752820 0.5807620287 4284357145
-0.3417531550 -0.1280525476 0.5808643103 4284422938
-0.3423113227 -0.1276152432 0.5818129778 4284292122
-0.3418726623 -0.1268061101 0.5810673833 4284226329
-0.3419319987 -0.1261823922 0.5811682343 4284292122
-0.3419910669 -0.1255583614 0.5812686086 4284292122
-0.3420498669 -0.1249340028 0.5813685656 4284292122
-0.3421083689 -0.1243093237 0.5814679861 4284292122
-0.3426654041 -0.1238646209 0.5824148059 4284292379
-0.3427234590 -0.1232383922 0.5825134516 4284358172
-0.3427812457 -0.1226118505 0.5826116800 4284489758
-0.3428387642 -0.1219849885 0.5827094316 4284489758
-0.3428959846 -0.1213578135 0.5828067064 4284555551
-0.3429529369 -0.1207303181 0.5829035044 4284621344
-0.3425103426 -0.1199276969 0.5821511745 4284621344
-0.3425666392 -0.1193004996 0.5822468996 4284621344
-0.3421232402 -0.1185000017 0.5814932585 4284490530
-0.3416793942 -0.1177010238 0.5807389021 4284424737
-0.3417347074 -0.1170747355 0.5808328986 4284555553
-0.3417897522 -0.1164481416 0.5809264779 4284555553
-0.3413447738 -0.1156519204 0.5801701546 4284620833
-0.3413991630 -0.1150256395 0.5802626014 4284620833
-0.3414533138 -0.1143990681 0.5803546309 4284621346
-0.3410071433 -0.1136056110 0.5795963407 4284687139
-0.3410606384 -0.1129793599 0.5796872377 4284621861
-0.3411138654 -0.1123528183 0.5797777176 4284621861
-0.3411667943 -0.1117259786 0.5798676610 4284424482
-0.3407191336 -0.1109359488 0.5791068077 4284358689
-0.3407714367 -0.1103094518 0.5791956782 4284227103
-0.3413239419 -0.1098437235 0.5801347494 4284161310
-0.3403746486 -0.1088954508 0.5785213113 4284095517
-0.3414272964 -0.1085874513 0.5803104043 4284029724
-0.3409778476 -0.1078005880 0.5795465112 4283964444
-0.3410287499 -0.1071726680 0.5796329975 4283964444
-0.3405784965 -0.1063880101 0.5788677335 4284096029
-0.3401777446 -0.1049780101 0.5781865716 4284293408
-0.3402273655 -0.1043508202 0.5782709122 4284424994
-0.3402766883 -0.1037233546 0.5783547759 4284424994
-0.3398245275 -0.1029437929 0.5775862336 4284490787
-0.3398732245 -0.1023167074 0.5776690245 4284491301
-0.3394202590 -0.1015393734 0.5768991709 4284359715
-0.3394683301 -0.1009126827 0.5769808292 4284359715
-0.3395161033 -0.1002857313 0.5770620108 4284425508
-0.3390620053 -0.0995113030 0.5762902498 4284491301
-0.3391091526 -0.0988847464 0.5763703585 4284491301
-0.3386542797 -0.0981125832 0.5755972266 4284360231
-0.3387008011 -0.0974864364 0.5756762624 4284360231
-0.3387469947 -0.0968600288 0.5757548213 4284360231
-0.3387929201 -0.0962333679 0.5758328438 4284294438
-0.3383365870 -0.0954648182 0.5750572681 4284557094
-0.3388839066 -0.0949792862 0.5759875178 4284557094
-0.3379247487 -0.0940723121 0.5743572712 4284426022
-0.3374671936 -0.0933076516 0.5735796094 4284294436
-0.3375115097 -0.0926825255 0.5736548901 4284228643
-0.3370532095 -0.0919201672 0.5728759170 4284294436
-0.3370968401 -0.0912954807 0.5729501247 4284491817
-0.3371402323 -0.0906705558 0.5730238557 4284557610
-0.3366807997 -0.0899112001 0.5722429752 4284491817
-0.3367235363 -0.0892867222 0.5723155737 4284491817
-0.3362633288 -0.0885296836 0.5715334415 4284426537
-0.3358027339 -0.0877742767 0.5707505345 4284426537
-0.3358444870 -0.0871509612 0.5708215237 4284426537
-0.3358859420 -0.0865274221 0.5708919764 4284492330
-0.3359270990 -0.0859036446 0.5709619522 4284557610
-0.3349620998 -0.0850243121 0.5693217516 4284557610
-0.3344995677 -0.0842752233 0.5685356259 4284231216
-0.3345396817 -0.0836535767 0.5686038136 4284165423
-0.3340763748 -0.0829068422 0.5678163767 4284231217
-0.3341158628 -0.0822856799 0.5678834915 4284297010
-0.3331485987 -0.0814183280 0.5662394166 4284427568
-0.3331873715 -0.0807986036 0.5663053393 4284493361
-0.3327225149 -0.0800575465 0.5655152798 4284755248
-0.3322572708 -0.0793181509 0.5647245049 4284755248
-0.3317916095 -0.0785804093 0.5639330149 4284558123
-0.3313255608 -0.0778443441 0.5631408691 4284623916
-0.3318662643 -0.0773446709 0.5640599132 4284755502
-0.3308958709 -0.0764936358 0.5624105930 4284755502
-0.3304286599 -0.0757616311 0.5616164804 4284558891
-0.3299610615 -0.0750313103 0.5608217120 4284756270
-0.3294930756 -0.0743026584 0.5600262880 4284953134
-0.3290246725 -0.0735756904 0.5592301488 4284821548
-0.3285558820 -0.0728503987 0.5584334135 4284820012
-0.3280867040 -0.0721267983 0.5576359630 4284820012
-0.3281211555 -0.0715147331 0.5576944947 4284951087
-0.3276512325 -0.0707935616 0.5568957925 4285016880
-0.3271809518 -0.0700740814 0.5560964346 4284821558
-0.3267102540 -0.0693562999 0.5552964211 4285150523
-0.3262391686 -0.0686402097 0.5544957519 4284890176
-0.3252634108 -0.0678206682 0.5528373122 4284824383
-0.3247914910 -0.0671089217 0.5520352125 4285348930
-0.3243192136 -0.0663988739 0.5512324572 4285414723
-0.3228376508 -0.0654858947 0.5487143397 4286003777
-0.3198421001 -0.0642742515 0.5436229110 4286135363
-0.3208819032 -0.0638772473 0.5453902483 4285875271
-0.3173804283 -0.0625808537 0.5394389033 4286927959
-0.3189242482 -0.0622829944 0.5420628786 4288118651
-0.3199633956 -0.0618817024 0.5438290834 4290355613
-0.2995693982 -0.1821740419 0.5101292133 4288117375
-0.2986818552 -0.1810692102 0.5086178184 4284893518
-0.3011831343 -0.1820157021 0.5128771663 4285869361
-0.3027168214 -0.1823698282 0.5154888630 4286329912
-0.3042511046 -0.1827184856 0.5181015730 4287313467
-0.3033629358 -0.1816111356 0.5165891051 4287116088
-0.3058671951 -0.1825316399 0.5208535790 4287181630
-0.3078877032 -0.1831548810 0.5242942572 4287247423
-0.3089390695 -0.1831957847 0.5260845423 4287115837
-0.3099907339 -0.1832329035 0.5278754234 4286984251
-0.3110426962 -0.1832662225 0.5296667814 4286854195
-0.3125803769 -0.1835808009 0.5322852731 4286854195
-0.3141185939 -0.1838898957 0.5349046588 4287575359
-0.3132292628 -0.1827766299 0.5333902240 4287970117
-0.3142822087 -0.1827964336 0.5351833105 4287641668
-0.3148495853 -0.1825307310 0.5361495018 4287510082
-0.3154170215 -0.1822629273 0.5371157527 4287641922
-0.3159845173 -0.1819929928 0.5380820632 4287444543
-0.3170382977 -0.1820000857 0.5398765802 4287247163
-0.3180923760 -0.1820033491 0.5416715145 4287378749
-0.3176872134 -0.1811704785 0.5409815907 4287378749
-0.3187415004 -0.1811686456 0.5427768826 4287312956
-0.3193093240 -0.1808872521 0.5437438488 4287181628
-0.3189034462 -0.1800539345 0.5430526733 4287115835
-0.3199580908 -0.1800440252 0.5448485613 4286984504
-0.3205258846 -0.1797571033 0.5458154678 4286918711
-0.3206064701 -0.1791957021 0.5459527373 4286852916
-0.3206868768 -0.1786338985 0.5460895896 4286721330
-0.3217420280 -0.1786129028 0.5478863716 4286787640
-0.3213346004 -0.1777787656 0.5471926332 4286787640
-0.3223899305 -0.1777526587 0.5489897132 4286788155
-0.3234455287 -0.1777227074 0.5507872701 4286788155
-0.3230374753 -0.1768873036 0.5500923991 4286722362
-0.3240932524 -0.1768522263 0.5518902540 4286919741
-0.3246610761 -0.1765478104 0.5528571606 4287248191
-0.3252288997 -0.1762412637 0.5538241267 4287445570
-0.3257967532 -0.1759325713 0.5547911525 4287379777
-0.3258760571 -0.1753588319 0.5549261570 4286853433
-0.3264438510 -0.1750467271 0.5558930039 4286524981
-0.3265228271 -0.1744712889 0.5560275316 4286459188
-0.3270905018 -0.1741557717 0.5569941998 4286327602
-0.3271691799 -0.1735786349 0.5571281910 4286261809
-0.3277367651 -0.1732596904 0.5580946803 4286261809
-0.3278150856 -0.1726808548 0.5582280755 4286261809
-0.3283825815 -0.1723584980 0.5591944456 4286262068
-0.3284605742 -0.1717779785 0.5593272448 4286722619
-0.3285383284 -0.1711970419 0.5594596863 4286789182
-0.3291056156 -0.1708699763 0.5604256988 4286394424
-0.3291830420 -0.1702873558 0.5605575442 4286262838
-0.3297502100 -0.1699568629 0.5615233183 4286394424
-0.3298272789 -0.1693725437 0.5616546273 4286328115
-0.3299041390 -0.1687878221 0.5617854595 4286393908
-0.3299807608 -0.1682026982 0.5619159341 4286525494
-0.3305475712 -0.1678662300 0.5628811717 4286591287
-0.3311144114 -0.1675276011 0.5638464093 4286328629
-0.3311905563 -0.1669395119 0.5639760494 4285999664
-0.3312664628 -0.1663510203 0.5641053319 4285737005
-0.3318330348 -0.1660076976 0.5650701523 4285671212
-0.3323996067 -0.1656622291 0.5660349131 4285801770
-0.3324750364 -0.1650707871 0.5661634207 4285735977
-0.3325502574 -0.1644789279 0.5662914515 4285801257
-0.3331165314 -0.1641287506 0.5672557950 4285735464
-0.3331913650 -0.1635352373 0.5673832297 4285603878
-0.3337575197 -0.1631816328 0.5683473349 4285603878
-0.3338319957 -0.1625864208 0.5684741139 4285669671
