VERSION 0.7
FIELDS x y z rgba
SIZE 4 4 4 4
TYPE F F F U
COUNT 1 1 1 1
WIDTH 920
HEIGHT 1
VIEWPOINT 0.0 0.0 0.0 1.0 0.0 0.0 0.0
POINTS 920
DATA ascii
-0.3423090279 -0.1457847953 0.5952942967 4285209372
-0.3428635895 -0.1453584880 0.5962586999 4285209372
-0.3429302573 -0.1447241455 0.5963746905 4285209372
-0.3434845805 -0.1442943811 0.5973386765 4285209372
-0.3435508013 -0.1436583996 0.5974538326 4285209372
-0.3441048861 -0.1432251930 0.5984174013 4285144092
-0.3441706598 -0.1425875723 0.5985318422 4285144092
-0.3442361951 -0.1419495791 0.5986457467 4285144092
-0.3447898328 -0.1415116638 0.5996085405 4285275678
-0.3453433514 -0.1410715729 0.6005712152 4285275678
-0.3454082608 -0.1404306889 0.6006840467 4285012506
-0.3454729021 -0.1397894323 0.6007964611 4284815641
-0.3455372453 -0.1391478181 0.6009083986 4285013020
-0.3460901678 -0.1387017667 0.6018699408 4285210401
-0.3461540639 -0.1380585283 0.6019810438 4285210401
-0.3462176919 -0.1374149323 0.6020917296 4285210914
-0.3462810516 -0.1367709935 0.6022018790 4285276707
-0.3468333185 -0.1363189667 0.6031623483 4285276707
-0.3468962312 -0.1356734037 0.6032717228 4285276707
-0.3474482000 -0.1352179497 0.6042315960 4285276707
-0.3475106359 -0.1345707774 0.6043401957 4285276707
-0.3475727737 -0.1339232624 0.6044482589 4285210914
-0.3476346433 -0.1332754046 0.6045559049 4285210914
-0.3481859565 -0.1328139901 0.6055146456 4285014049
-0.3482473791 -0.1321645230 0.6056213975 4285079842
-0.3483085036 -0.1315147132 0.6057277322 4285079842
-0.3483693302 -0.1308645606 0.6058335304 4285079842
-0.3484298885 -0.1302140653 0.6059388518 4285014049
-0.3484901786 -0.1295632422 0.6060436964 4284948256
-0.3485501707 -0.1289120764 0.6061480641 4284882978
-0.3491002023 -0.1284409761 0.6071045399 4284882978
-0.3491597474 -0.1277882159 0.6072080731 4284817185
-0.3492189646 -0.1271351278 0.6073110700 4284751392
-0.3497684896 -0.1266593486 0.6082667112 4284751392
-0.3498272300 -0.1260046959 0.6083688736 4284685599
-0.3503764272 -0.1255255044 0.6093239784 4284620319
-0.3504346907 -0.1248692572 0.6094253063 4284554526
-0.3509835601 -0.1243866608 0.6103798151 4284554271
-0.3510413170 -0.1237288415 0.6104802489 4284554271
-0.3510988057 -0.1230707094 0.6105802655 4284423714
-0.3511559963 -0.1224122494 0.6106796861 4284292128
-0.3507217169 -0.1215831786 0.6099244356 4284095003
-0.3507782519 -0.1209250018 0.6100227833 4283897624
-0.3513258696 -0.1204349473 0.6109750867 4283831831
-0.3518733382 -0.1199427322 0.6119272113 4283766038
-0.3519291580 -0.1192817613 0.6120243073 4283634966
-0.3519847095 -0.1186204702 0.6121208668 4283700759
-0.3520399630 -0.1179588735 0.6122169495 4283634966
-0.3520949185 -0.1172969639 0.6123124957 4283700759
-0.3521495759 -0.1166347414 0.6124075651 4283832345
-0.3526958525 -0.1161341891 0.6133575439 4283898138
-0.3527500033 -0.1154704317 0.6134517193 4283963931
-0.3528038561 -0.1148063689 0.6135454178 4283963931
-0.3528574109 -0.1141420007 0.6136385202 4283898651
-0.3529106677 -0.1134773344 0.6137311459 4283898651
-0.3534559309 -0.1129697040 0.6146793962 4283964703
-0.3535086811 -0.1123035103 0.6147711277 4283964703
-0.3530687094 -0.1114815325 0.6140059829 4283964703
-0.3526282907 -0.1106611192 0.6132400632 4283964703
-0.3512023091 -0.1095350161 0.6107602119 4283964703
-0.3517461419 -0.1090249866 0.6117059588 4283964703
-0.3513044119 -0.1082092747 0.6109377742 4283964703
-0.3513550162 -0.1075459644 0.6110258102 4283964703
-0.3514053226 -0.1068823785 0.6111133099 4283767324
-0.3509624302 -0.1060695276 0.6103430390 4283833117
-0.3510120809 -0.1054063067 0.6104294062 4283767324
-0.3510614336 -0.1047427952 0.6105152369 4283767324
-0.3511104584 -0.1040790081 0.6106005311 4283767324
-0.3511592150 -0.1034149453 0.6106852889 4283898910
-0.3512076735 -0.1027506068 0.6107695699 4283964703
-0.3507625163 -0.1019426212 0.6099953651 4283964703
-0.3513036966 -0.1014211103 0.6109365225 4283833887
-0.3513512611 -0.1007559597 0.6110192537 4283833887
-0.3513985276 -0.1000905335 0.6111014485 4283899680
-0.3514454663 -0.0994248390 0.6111831069 4283899680
-0.3509984612 -0.0986201689 0.6104057431 4283833887
-0.3510447443 -0.0979548842 0.6104862094 4283768094
-0.3505969346 -0.0971525013 0.6097074747 4283702560
-0.3501487076 -0.0963517278 0.6089279652 4283636767
-0.3501939476 -0.0956875309 0.6090066433 4283702560
-0.3497449160 -0.0948890522 0.6082257628 4283636767
-0.3497895002 -0.0942252800 0.6083033085 4283505951
-0.3498337865 -0.0935612619 0.6083803177 4283440158
-0.3498777747 -0.0928969830 0.6084567904 4283440158
-0.3499214649 -0.0922324583 0.6085327864 4283440158
-0.3499648571 -0.0915676877 0.6086082458 4283505951
-0.3495135605 -0.0907742754 0.6078234315 4283571744
-0.3495562673 -0.0901099518 0.6078976989 4283505953
-0.3491041958 -0.0893188640 0.6071115136 4283505953
-0.3491462469 -0.0886550024 0.6071846485 4283505953
-0.3486934006 -0.0878662616 0.6063970923 4283571746
-0.3482401073 -0.0870791674 0.6056088209 4283506466
-0.3482811451 -0.0864164680 0.6056801677 4283572259
-0.3478270769 -0.0856317282 0.6048905253 4283638052
-0.3478674293 -0.0849695057 0.6049606800 4283638052
-0.3474125862 -0.0841871351 0.6041696668 4283638052
-0.3469573259 -0.0834064186 0.6033779979 4283638052
-0.3474916518 -0.0828634351 0.6043071747 4283703845
-0.3475307524 -0.0822012499 0.6043751836 4283769638
-0.3475695252 -0.0815388411 0.6044425964 4283704102
-0.3471128047 -0.0807610080 0.6036483645 4283704102
-0.3471509218 -0.0800991058 0.6037146449 4283704102
-0.3466934562 -0.0793236643 0.6029191017 4283704102
-0.3462355733 -0.0785498992 0.6021227837 4283638052
-0.3462726474 -0.0778892413 0.6021872759 4283703845
-0.3463094234 -0.0772283673 0.6022512317 4283703845
-0.3458504081 -0.0764577463 0.6014530063 4283769638
-0.3453910053 -0.0756888166 0.6006540060 4283769638
-0.3459223509 -0.0751368552 0.6015780568 4283835431
-0.3459578454 -0.0744761005 0.6016398072 4283769895
-0.3459930420 -0.0738151446 0.6017010212 4283835688
-0.3455322087 -0.0730491877 0.6008995771 4283835688
-0.3450709283 -0.0722849220 0.6000974178 4283901481
-0.3446092904 -0.0715223551 0.5992946029 4283835688
-0.3441472054 -0.0707614869 0.5984910131 4283835688
-0.3441806734 -0.0701033399 0.5985492468 4283835688
-0.3437178731 -0.0693449304 0.5977443457 4283835688
-0.3432546258 -0.0685882345 0.5969387889 4283704872
-0.3437831700 -0.0680295825 0.5978579521 4283704872
-0.3428231180 -0.0671771914 0.5961883664 4283769895
-0.3423587382 -0.0664246902 0.5953807831 4283835688
-0.3423901796 -0.0657692179 0.5954354405 4283835688
-0.3419250548 -0.0650191978 0.5946265459 4283835688
-0.3414595425 -0.0642709062 0.5938169956 4283704102
-0.3404972553 -0.0634318665 0.5921435952 4283572516
-0.3400309086 -0.0626879781 0.5913325548 4283375907
-0.3395641744 -0.0619458184 0.5905208588 4283375907
-0.3395935297 -0.0612950027 0.5905718803 4283310114
-0.3391260207 -0.0605553612 0.5897589326 4283310114
-0.3391547203 -0.0599051639 0.5898088217 4283310114
-0.3381898999 -0.0590812899 0.5881309509 4283310114
-0.3377212584 -0.0583468676 0.5873159170 4283178528
-0.3377489150 -0.0576990433 0.5873640180 4283178528
-0.3372795284 -0.0569671616 0.5865477324 4283179041
-0.3363130093 -0.0561540835 0.5848668814 4283244834
-0.3358428180 -0.0554266572 0.5840492249 4283375908
-0.3353722394 -0.0547009856 0.5832308531 4283441701
-0.3344044089 -0.0538969859 0.5815477371 4283573286
-0.3344299793 -0.0532549135 0.5815922022 4283704872
-0.3334613144 -0.0524563454 0.5799076557 4283901735
-0.3314982057 -0.0515070036 0.5764936805 4283967528
-0.3325167000 -0.0510227606 0.5782649517 4284164907
-0.3300555348 -0.0500073731 0.5739848614 4284230700
-0.3265995085 -0.0488526821 0.5679746270 4284099630
-0.3286112547 -0.0485186540 0.5714731812 4283968044
-0.3266455829 -0.0475972742 0.5680547357 4284427568
-0.3236849010 -0.0465404280 0.5629059076 4284493361
-0.3212207556 -0.0455654562 0.5586206317 4284886323
-0.3187559843 -0.0445999205 0.5543342829 4285083702
-0.3128094077 -0.0431634709 0.5439928174 4285411381
-0.3148192465 -0.0428325050 0.5474880934 4285542967
-0.3133474588 -0.0420268066 0.5449285507 4286067765
-0.3123725951 -0.0412924811 0.5432332158 4287054660
-0.3123921752 -0.0406914651 0.5432672501 4287843659
-0.3114165664 -0.0399626568 0.5415706038 4287777866
-0.3109380305 -0.0393004492 0.5407384038 4287646284
-0.3081678450 -0.1661012471 0.5369580388 4286267207
-0.3058376908 -0.1642532051 0.5328979492 4286395964
-0.3116829991 -0.1667890996 0.5430829525 4286461757
-0.3107953966 -0.1657124311 0.5415363312 4286658109
-0.3113507628 -0.1654057801 0.5425040126 4286723902
-0.3109434843 -0.1645874381 0.5417943597 4286920252
-0.3081284761 -0.1625008881 0.5368894935 4287775561
-0.3096459806 -0.1627017409 0.5395336151 4288828249
-0.3063471913 -0.1603753269 0.5337857008 4288630870
-0.3049737215 -0.1590659022 0.5313925743 4287249986
-0.3035993874 -0.1577613205 0.5289978981 4286723642
-0.3027061820 -0.1567111611 0.5274415612 4286788663
-0.3022944331 -0.1559127718 0.5267241001 4287051835
-0.3018822372 -0.1551157385 0.5260059237 4286721330
-0.3014696240 -0.1543200910 0.5252869725 4286523951
-0.3015390337 -0.1537718624 0.5254078507 4286653997
-0.3016082048 -0.1532232314 0.5255284309 4286785583
-0.3016771972 -0.1526742429 0.5256485939 4286588202
-0.3017459512 -0.1521248668 0.5257683992 4286588202
-0.3022973835 -0.1518176496 0.5267292261 4286522409
-0.3023658097 -0.1512666494 0.5268484950 4286456616
-0.3034002781 -0.1511967927 0.5286509395 4286390823
-0.3039517105 -0.1508831680 0.5296117663 4286259237
-0.3030531406 -0.1498504132 0.5280460715 4286259491
-0.2997366786 -0.1476302445 0.5222674012 4286193698
-0.3003534973 -0.1467711031 0.5233421922 4286258978
-0.3076763749 -0.1497538686 0.5361016989 4286193185
-0.3180447221 -0.1529532373 0.5541677475 4286061597
-0.3195665777 -0.1530664563 0.5568194389 4285995804
-0.3215731084 -0.1534050107 0.5603156686 4285930011
-0.3230958581 -0.1535059214 0.5629689097 4285667613
-0.3241344690 -0.1533718705 0.5647786260 4285667613
-0.3251732588 -0.1532338858 0.5665886402 4285733406
-0.3267665803 -0.1527194977 0.5693648458 4285667613
-0.3278057873 -0.1525705755 0.5711756349 4285667613
-0.3288451731 -0.1524177045 0.5729866624 4285667613
-0.3309244215 -0.1521001160 0.5766095519 4285471004
-0.3314789534 -0.1517132521 0.5775758028 4285471004
-0.3325188458 -0.1515454650 0.5793877840 4285339675
-0.3335589170 -0.1513737291 0.5812000036 4285339675
-0.3341135085 -0.1509785801 0.5821663141 4285339675
-0.3346680403 -0.1505812556 0.5831325650 4285339675
-0.3352225423 -0.1501817703 0.5840986967 4285405211
-0.3357769549 -0.1497801095 0.5850647688 4285405211
-0.3368173540 -0.1495921314 0.5868775845 4285339675
-0.3373717666 -0.1491852254 0.5878435969 4285339675
-0.3379261196 -0.1487761587 0.5888094902 4285208859
-0.3384803832 -0.1483649015 0.5897752643 4285208859
-0.3390346169 -0.1479514688 0.5907409787 4285208859
-0.3391022682 -0.1473245025 0.5908588171 4285208859
-0.3396562636 -0.1469076276 0.5918241143 4285208859
-0.3402101696 -0.1464885771 0.5927892923 4285143066
-0.3407640159 -0.1460673660 0.5937543511 4285077786
-0.3408309221 -0.1454361975 0.5938708782 4285143579
-0.3413845301 -0.1450115293 0.5948355198 4285143579
-0.3414509594 -0.1443787217 0.5949512720 4285143579
-0.3420043290 -0.1439505965 0.5959154963 4285143579
-0.3425576389 -0.1435203105 0.5968795419 4285143579
-0.3426234722 -0.1428845823 0.5969942808 4285078299
-0.3431765139 -0.1424508393 0.5979579091 4285144092
-0.3432419002 -0.1418134868 0.5980718136 4285078299
-0.3437947035 -0.1413763016 0.5990350246 4285209885
-0.3438596427 -0.1407373250 0.5991482139 4285209885
-0.3444121480 -0.1402966976 0.6001108885 4285012506
-0.3444766700 -0.1396560818 0.6002233028 4284815641
-0.3445408940 -0.1390150934 0.6003352404 4285013020
-0.3450929523 -0.1385697573 0.6012971401 4285210401
-0.3451567292 -0.1379271597 0.6014083028 4285210401
-0.3457085490 -0.1374783963 0.6023697257 4285276194
-0.3457718492 -0.1368341744 0.6024800539 4285341987
-0.3458349109 -0.1361896098 0.6025899053 4285276707
-0.3463862240 -0.1357361227 0.6035505533 4285276707
-0.3464488089 -0.1350899488 0.6036596298 4285276707
-0.3465111256 -0.1344434023 0.6037681699 4285210914
-0.3465731442 -0.1337965280 0.6038762331 4285144867
-0.3471238017 -0.1333370954 0.6048357487 4285144867
-0.3471853733 -0.1326886117 0.6049430370 4284948256
-0.3472466469 -0.1320397705 0.6050497890 4284948256
-0.3473076522 -0.1313906014 0.6051560640 4285014051
-0.3473683894 -0.1307410896 0.6052619219 4285079844
-0.3479181826 -0.1302744597 0.6062198281 4285079844
-0.3479784131 -0.1296233535 0.6063248515 4285014051
-0.3480384052 -0.1289719045 0.6064293385 4284948258
-0.3480980694 -0.1283201128 0.6065333486 4284882465
-0.3486471474 -0.1278475523 0.6074900627 4284751392
-0.3487063646 -0.1271941960 0.6075932384 4284751392
-0.3487652838 -0.1265404820 0.6076958776 4284751137
-0.3488239348 -0.1258864552 0.6077980399 4284685344
-0.3493722677 -0.1254079789 0.6087535024 4284620064
-0.3499205112 -0.1249273419 0.6097087860 4284554271
-0.3499784470 -0.1242704913 0.6098097563 4284554271
-0.3500361145 -0.1236133054 0.6099101901 4284488478
-0.3500934839 -0.1229558066 0.6100102067 4284423968
-0.3501505852 -0.1222979799 0.6101096272 4284226589
-0.3502073884 -0.1216398329 0.6102086306 4284095003
-0.3502638936 -0.1209813654 0.6103070974 4283897624
-0.3503201008 -0.1203225777 0.6104050279 4283831831
-0.3508667648 -0.1198310703 0.6113575101 4283831831
-0.3509224653 -0.1191707328 0.6114546061 4283897624
-0.3509778976 -0.1185100749 0.6115512252 4283897624
-0.3510330319 -0.1178491116 0.6116472483 4283766552
-0.3510878980 -0.1171878353 0.6117428541 4283766552
-0.3511424363 -0.1165262461 0.6118379235 4283832345
-0.3517419398 -0.1153632775 0.6128824949 4283963931
-0.3523938060 -0.1135304198 0.6140182614 4283964186
-0.3524467349 -0.1128651574 0.6141105294 4283833371
-0.3524993956 -0.1121995896 0.6142022610 4283833371
-0.3520600498 -0.1113781780 0.6134367585 4283833371
-0.3516202569 -0.1105583236 0.6126704216 4283833371
-0.3511800170 -0.1097400337 0.6119033694 4283833371
-0.3507393301 -0.1089233086 0.6111355424 4283833371
-0.3507902324 -0.1082599983 0.6112241745 4283898910
-0.3508408070 -0.1075963974 0.6113123298 4283898910
-0.3503989577 -0.1067825332 0.6105424166 4283833117
-0.3504488766 -0.1061192974 0.6106294394 4283833117
-0.3504984975 -0.1054557711 0.6107158661 4283833117
-0.3505478203 -0.1047919691 0.6108018160 4283767324
-0.3505968451 -0.1041278839 0.6108872294 4283833117
-0.3501531184 -0.1033182070 0.6101140380 4283898910
-0.3502014577 -0.1026545092 0.6101983190 4283964703
-0.3502495289 -0.1019905284 0.6102820635 4283898910
-0.3502973020 -0.1013262793 0.6103652716 4283702303
-0.3503447771 -0.1006617546 0.6104480028 4283768096
-0.3503919244 -0.0999969691 0.6105301976 4283768353
-0.3504388034 -0.0993319079 0.6106118560 4283768353
-0.3499924242 -0.0985278115 0.6098340750 4283768353
-0.3500386178 -0.0978631601 0.6099145412 4283702560
-0.3495914340 -0.0970613435 0.6091353893 4283636767
-0.3496369720 -0.0963971093 0.6092147231 4283702560
-0.3491890132 -0.0955975801 0.6084342003 4283505951
-0.3487406075 -0.0947996825 0.6076529026 4283571744
-0.3487851024 -0.0941365436 0.6077303886 4283505951
-0.3488292992 -0.0934731588 0.6078074574 4283505951
-0.3493666649 -0.0929407924 0.6087437272 4283505951
-0.3489167988 -0.0921456292 0.6079599261 4283505951
-0.3489601016 -0.0914814919 0.6080353260 4283506464
-0.3490031064 -0.0908171088 0.6081102490 4283572257
-0.3485521078 -0.0900249705 0.6073244214 4283440673
-0.3481006622 -0.0892344639 0.6065378189 4283440673
-0.3481426239 -0.0885712355 0.6066109538 4283506466
-0.3476904035 -0.0877830759 0.6058229804 4283572259
-0.3477317095 -0.0871203095 0.6058949828 4283572259
-0.3472787142 -0.0863344967 0.6051056385 4283572259
-0.3473193645 -0.0856722072 0.6051764488 4283572259
-0.3468655646 -0.0848887563 0.6043857932 4283572259
-0.3464113772 -0.0841069669 0.6035943627 4283572516
-0.3464509845 -0.0834458694 0.6036633849 4283572516
-0.3469845653 -0.0829026476 0.6045931578 4283572516
-0.3470236361 -0.0822401568 0.6046611667 4283572516
-0.3465679884 -0.0814612359 0.6038672924 4283572516
-0.3466064036 -0.0807992443 0.6039341688 4283638309
-0.3461499810 -0.0800227150 0.6031389236 4283704102
-0.3456931412 -0.0792478621 0.6023429632 4283704102
-0.3457305133 -0.0785871148 0.6024080515 4283769636
-0.3457675874 -0.0779261515 0.6024726629 4283769636
-0.3458043635 -0.0772649720 0.6025366783 4283770149
-0.3453460336 -0.0764939934 0.6017381549 4283770149
-0.3448873162 -0.0757247061 0.6009388566 4283704356
-0.3454179466 -0.0751724914 0.6018633842 4283704356
-0.3449585140 -0.0744046867 0.6010628939 4283704356
-0.3449936211 -0.0737443715 0.6011241078 4283770149
-0.3445334435 -0.0729789957 0.6003222466 4283704102
-0.3440728486 -0.0722153261 0.5995196700 4283638309
-0.3431167006 -0.0713503882 0.5978537202 4283507493
-0.3436456025 -0.0707950890 0.5987752080 4283441700
-0.3431838155 -0.0700355694 0.5979706049 4283375907
-0.3427216709 -0.0692777634 0.5971653461 4283310114
-0.3427543938 -0.0686208233 0.5972223878 4283310114
-0.3427868485 -0.0679636970 0.5972789526 4283244321
-0.3423235714 -0.0672091246 0.5964717269 4283309344
-0.3418599069 -0.0664562657 0.5956637859 4283309344
-0.3413958251 -0.0657051280 0.5948551893 4283243551
-0.3409313858 -0.0649557039 0.5940459371 4283177758
-0.3409621119 -0.0643014759 0.5940994620 4283111965
-0.3404968977 -0.0635545552 0.5932888985 4283046172
-0.3400312960 -0.0628093630 0.5924776196 4283111965
-0.3395653069 -0.0620659068 0.5916656256 4283177758
-0.3386031687 -0.0612345263 0.5899891853 4283178528
-0.3386321366 -0.0605841912 0.5900396705 4283244321
-0.3381649852 -0.0598459393 0.5892257094 4283310114
-0.3376974165 -0.0591094270 0.5884110332 4283244321
-0.3372294903 -0.0583746620 0.5875956416 4283178528
-0.3367611766 -0.0576416403 0.5867796540 4283178528
-0.3362924457 -0.0569103658 0.5859629512 4283310114
-0.3353273273 -0.0560978577 0.5842812657 4283441700
-0.3348577917 -0.0553710423 0.5834631920 4283441958
-0.3343878984 -0.0546459816 0.5826444626 4283441958
-0.3334214687 -0.0538425595 0.5809605122 4283769895
-0.3324545920 -0.0530428030 0.5792757869 4283835688
-0.3319834769 -0.0523249321 0.5784549117 4283967528
-0.3310157061 -0.0515315719 0.5767686367 4284033321
-0.3295511901 -0.0506655835 0.5742168427 4284099114
-0.3280861676 -0.0498051867 0.5716641545 4284164907
-0.3241387010 -0.0485784225 0.5647860169 4284164907
-0.3211832047 -0.0475136898 0.5596362948 4283967528
-0.3182270229 -0.0464602970 0.5544853806 4284295467
-0.3162630796 -0.0455612987 0.5510633588 4284492846
-0.3142986000 -0.0446698219 0.5476403832 4285214513
-0.3133266568 -0.0439250991 0.5459468961 4285477685
-0.3123542964 -0.0431840830 0.5442526340 4285937207
-0.3113815486 -0.0424467735 0.5425576568 4286397758
-0.3114016652 -0.0418466590 0.5425927043 4287185731
-0.3114215136 -0.0412464254 0.5426272750 4287909454
-0.3109443486 -0.0405812562 0.5417959094 4288697939
-0.3081890345 -0.1664347649 0.5380362272 4285349446
-0.3111442924 -0.1674271971 0.5431954861 4286200129
-0.3127347827 -0.1670698076 0.5459721684 4286527298
-0.3123289645 -0.1662471890 0.5452637076 4286527298
-0.3114420772 -0.1651709974 0.5437153578 4286592062
-0.3095930219 -0.1635898501 0.5404872894 4286855234
-0.3082236946 -0.1622684300 0.5380967259 4287316039
-0.3058915734 -0.1604473144 0.5340253115 4287316039
-0.3083688319 -0.1611485481 0.5383501053 4286987842
-0.3041103780 -0.1583332568 0.5309156775 4286724670
-0.3022561669 -0.1567815989 0.5276786089 4286723899
-0.3032893240 -0.1567292064 0.5294823050 4286789692
-0.3014335930 -0.1551855356 0.5262425542 4286918709
-0.3010216355 -0.1543895602 0.5255233645 4286721330
-0.3006092608 -0.1535949558 0.5248034596 4286850863
-0.3001964390 -0.1528017372 0.5240827203 4286719277
-0.2997831702 -0.1520098895 0.5233612657 4286588456
-0.2998515666 -0.1514629424 0.5234806538 4286588456
-0.2999197245 -0.1509156227 0.5235996842 4286588202
-0.2999877036 -0.1503679305 0.5237182975 4286522409
-0.3000554144 -0.1498198658 0.5238365531 4286325284
-0.3010879755 -0.1497513950 0.5256391764 4286193698
-0.3001902401 -0.1487226188 0.5240719318 4286193185
-0.3017055094 -0.1488880962 0.5267173052 4286193185
-0.2988756895 -0.1469118893 0.5217769742 4286258976
-0.3042543828 -0.1489656121 0.5311671495 4286258976
-0.3052877784 -0.1488793939 0.5329712033 4286193183
-0.2985908389 -0.1450343281 0.5212796926 4286127390
-0.3011386096 -0.1451036036 0.5257275701 4286061597
-0.3224782348 -0.1503819972 0.5629822612 4285667611
-0.3235151172 -0.1502380073 0.5647924542 4285667613
-0.3260053694 -0.1507621109 0.5691399574 4285601820
-0.3251048326 -0.1497150511 0.5675678253 4285471004
-0.3275959492 -0.1502267867 0.5719167590 4285405211
-0.3286336660 -0.1500652134 0.5737284422 4285339675
-0.3296715617 -0.1498996764 0.5755404234 4285339675
-0.3307096064 -0.1497301906 0.5773525834 4285339675
-0.3312627673 -0.1493380964 0.5783183575 4285339675
-0.3323010206 -0.1491615772 0.5801308751 4285339675
-0.3328541815 -0.1487642378 0.5810966492 4285339675
-0.3338926136 -0.1485807002 0.5829095244 4285208089
-0.3344457746 -0.1481781304 0.5838752389 4285273882
-0.3354843855 -0.1479875445 0.5856884122 4285077273
-0.3360375166 -0.1475797296 0.5866540670 4285077273
-0.3365905881 -0.1471697390 0.5876196623 4285077273
-0.3371436000 -0.1467575729 0.5885850787 4285077273
-0.3376965523 -0.1463432312 0.5895504355 4285077273
-0.3382494152 -0.1459267288 0.5905156136 4285143066
-0.3388022482 -0.1455080360 0.5914807320 4285011993
-0.3393549919 -0.1450871825 0.5924456716 4285011993
-0.3394213617 -0.1444571912 0.5925616026 4285011993
-0.3399738669 -0.1440328807 0.5935261846 4285011993
-0.3405262828 -0.1436063945 0.5944905877 4285011993
-0.3405920863 -0.1429734975 0.5946054459 4285077786
-0.3411442637 -0.1425435692 0.5955694318 4285077786
-0.3416963518 -0.1421114653 0.5965332389 4285077786
-0.3417615294 -0.1414756477 0.5966470242 4284946713
-0.3423133790 -0.1410401016 0.5976104736 4285078299
-0.3423781097 -0.1404026598 0.5977234840 4285144092
-0.3429296613 -0.1399636716 0.5986863971 4284946713
-0.3434811532 -0.1395224929 0.5996491909 4284749850
-0.3435452580 -0.1388821602 0.5997611284 4284947229
-0.3440964818 -0.1384375542 0.6007234454 4285210401
-0.3441601396 -0.1377955824 0.6008345485 4285276194
-0.3447110951 -0.1373475343 0.6017963886 4285276194
-0.3447743058 -0.1367039531 0.6019067168 4285276194
-0.3448372185 -0.1360600293 0.6020165682 4285210914
-0.3453876972 -0.1356072724 0.6029776335 4285210914
-0.3454501629 -0.1349617243 0.6030866504 4285144867
-0.3455123305 -0.1343158334 0.6031952500 4285079074
-0.3455742598 -0.1336695850 0.6033033133 4285079074
-0.3461240828 -0.1332108676 0.6042631865 4285013281
-0.3461855054 -0.1325630248 0.6043704748 4285013535
-0.3467350304 -0.1321008801 0.6053298116 4285013535
-0.3467960060 -0.1314514279 0.6054362655 4284948258
-0.3468567133 -0.1308016330 0.6055421829 4285014051
-0.3469171226 -0.1301514953 0.6056476831 4285014051
-0.3474659622 -0.1296834201 0.6066058278 4284948258
-0.3475258946 -0.1290316880 0.6067104340 4284882465
-0.3475855291 -0.1283796281 0.6068146229 4284816672
-0.3476449251 -0.1277272254 0.6069182754 4284685599
-0.3481930494 -0.1272532195 0.6078751683 4284685599
-0.3482519388 -0.1265992373 0.6079779863 4284685344
-0.3483105302 -0.1259449124 0.6080803275 4284619551
-0.3488581479 -0.1254662424 0.6090363264 4284554271
-0.3489162624 -0.1248103455 0.6091377735 4284488478
-0.3489740789 -0.1241541281 0.6092387438 4284553758
-0.3495211601 -0.1236707866 0.6101937890 4284553758
-0.3495784998 -0.1230129972 0.6102939248 4284357662
-0.3496355712 -0.1223548800 0.6103935242 4284226076
-0.3496923149 -0.1216964498 0.6104926467 4284029210
-0.3497487903 -0.1210376918 0.6105912328 4283897624
-0.3498049974 -0.1203786209 0.6106893420 4283831831
-0.3498609066 -0.1197192296 0.6107869148 4283831831
-0.3499165177 -0.1190595180 0.6108840108 4283897624
-0.3504619896 -0.1185653284 0.6118363142 4283897624
-0.3505170941 -0.1179040670 0.6119325161 4283897624
-0.3505719006 -0.1172425002 0.6120282412 4283897624
-0.3511711359 -0.1160805598 0.6130743623 4283898138
-0.3512251377 -0.1154171452 0.6131686568 4283963931
-0.3512788713 -0.1147534177 0.6132624149 4283963931
-0.3513323069 -0.1140893921 0.6133556962 4283964186
-0.3514382839 -0.1127604321 0.6135407090 4283767578
-0.3514908254 -0.1120955050 0.6136324406 4283767578
-0.3515430689 -0.1114302725 0.6137236953 4283833371
-0.3511039913 -0.1106100529 0.6129571199 4283833371
-0.3506644368 -0.1097913980 0.6121897697 4283899164
-0.3502244651 -0.1089743078 0.6114216447 4283899164
-0.3502753079 -0.1083106995 0.6115103960 4283899164
-0.3498345315 -0.1074958220 0.6107409000 4283899164
-0.3498847187 -0.1068325713 0.6108285189 4283833371
-0.3494431376 -0.1060199216 0.6100575924 4283833371
-0.3494926691 -0.1053570360 0.6101440787 4283833371
-0.3495419025 -0.1046938673 0.6102300286 4283833371
-0.3495908380 -0.1040304154 0.6103154421 4283833117
-0.3496394455 -0.1033666953 0.6104003191 4283833117
-0.3496877849 -0.1027026922 0.6104847193 4283768094
-0.3497358263 -0.1020384133 0.6105685830 4283702301
-0.3497835696 -0.1013738662 0.6106519103 4283636767
-0.3498310149 -0.1007090434 0.6107347608 4283702560
-0.3498781621 -0.1000439525 0.6108170748 4283702560
-0.3494328558 -0.0992388204 0.6100396514 4283702560
-0.3494793177 -0.0985741317 0.6101207733 4283768353
-0.3490332067 -0.0977712795 0.6093419194 4283702560
-0.3485866487 -0.0969700366 0.6085623503 4283505951
-0.3486320972 -0.0963064358 0.6086416841 4283440158
-0.3481847644 -0.0955074877 0.6078607440 4283505951
-0.3482295573 -0.0948443040 0.6079389453 4283571744
-0.3477814198 -0.0940476581 0.6071565747 4283505951
-0.3478255570 -0.0933849066 0.6072335839 4283505951
-0.3483620882 -0.0928532407 0.6081703305 4283440671
-0.3479128778 -0.0920586586 0.6073860526 4283506464
-0.3474632204 -0.0912657008 0.6066010594 4283506464
-0.3475060761 -0.0906028971 0.6066758633 4283572257
-0.3475486338 -0.0899398476 0.6067501903 4283506466
-0.3470978439 -0.0891499221 0.6059631705 4283440673
-0.3471397161 -0.0884873345 0.6060363054 4283506466
-0.3466881514 -0.0876997486 0.6052479744 4283506466
-0.3462361693 -0.0869138166 0.6044588685 4283440673
-0.3462770283 -0.0862523988 0.6045302153 4283440673
-0.3458242416 -0.0854688212 0.6037397385 4283375137
-0.3458644450 -0.0848078728 0.6038098931 4283375137
-0.3454108834 -0.0840266645 0.6030181050 4283440930
-0.3459439278 -0.0834853053 0.6039486527 4283440930
-0.3459832072 -0.0828236789 0.6040172577 4283440930
-0.3455285728 -0.0820446238 0.6032235622 4283375137
-0.3455671966 -0.0813834965 0.6032909751 4283440930
-0.3451118171 -0.0806068256 0.6024959683 4283440930
-0.3451497555 -0.0799462050 0.6025622487 4283506723
-0.3446936011 -0.0791719407 0.6017658710 4283506723
-0.3447308838 -0.0785118267 0.6018309593 4283572770
-0.3447678983 -0.0778515041 0.6018955708 4283506977
-0.3443105817 -0.0770803839 0.6010971665 4283506977
-0.3438528776 -0.0763109401 0.6002981067 4283441184
-0.3433947563 -0.0755431876 0.5994983315 4283441184
-0.3444186747 -0.0751003623 0.6012858748 4283441184
-0.3444540799 -0.0744399428 0.6013477445 4283375391
-0.3439949453 -0.0736734718 0.6005461812 4283309598
-0.3435354233 -0.0729086921 0.5997439027 4283375391
-0.3430754542 -0.0721456110 0.5989409089 4283243805
-0.3421207368 -0.0712812245 0.5972741246 4283112733
-0.3426488042 -0.0707266107 0.5981960893 4283112733
-0.3421877027 -0.0699676946 0.5973910689 4282915354
-0.3412316740 -0.0691103190 0.5957220197 4282849561
-0.3417588770 -0.0685541853 0.5966424346 4282849561
-0.3412966132 -0.0677994415 0.5958354473 4282783768
-0.3403392732 -0.0669491068 0.5941641331 4282980379
-0.3408656418 -0.0663914680 0.5950829983 4282980379
-0.3394126892 -0.0654501095 0.5925464630 4282914586
-0.3399384320 -0.0648921132 0.5934643149 4282848793
-0.3394742310 -0.0641450211 0.5926539302 4282783770
-0.3380198479 -0.0632145479 0.5901148319 4282783770
-0.3390396237 -0.0627476200 0.5918951631 4282914586
-0.3370893300 -0.0617328137 0.5884903073 4283046172
-0.3376135528 -0.0611739457 0.5894054770 4283046942
-0.3361572325 -0.0602580234 0.5868631005 4283178528
-0.3366808593 -0.0596988201 0.5877771974 4283178528
-0.3357187808 -0.0588770323 0.5860975981 4283112735
-0.3347562253 -0.0580588952 0.5844171643 4283244321
-0.3342884481 -0.0573293418 0.5836005211 4283244321
-0.3333249986 -0.0565175638 0.5819185376 4283244321
-0.3313704431 -0.0555433929 0.5785062909 4283375907
-0.3318921030 -0.0549870543 0.5794169903 4283441447
-0.3299365044 -0.0540230796 0.5760029554 4283507240
-0.3284757733 -0.0531467535 0.5734527707 4283638310
-0.3275099695 -0.0523552150 0.5717666745 4283769896
-0.3260482252 -0.0514891036 0.5692147613 4284032810
-0.3245859444 -0.0506285802 0.5666618943 4284098603
-0.3221319616 -0.0496209711 0.5623777509 4284098601
-0.3201729655 -0.0486981645 0.5589577556 4284164394
-0.3182133734 -0.0477828719 0.5555366874 4284295467
-0.3152618408 -0.0467281528 0.5503839254 4284163881
-0.3147882521 -0.0460473597 0.5495570898 4284622887
-0.3118354678 -0.0450105555 0.5444021225 4284886059
-0.3133441806 -0.0446205288 0.5470360518 4285608241
-0.3118778169 -0.0438067652 0.5444760919 4286068792
-0.3114027083 -0.0431360006 0.5436466336 4286791488
-0.3104313314 -0.0423992984 0.5419508219 4287449418
-0.3104514182 -0.0417998545 0.5419858694 4288105806
-0.3104712069 -0.0412002988 0.5420204401 4288105806
-0.3104907274 -0.0406006277 0.5420545340 4288302924
-0.3145909607 -0.1689993292 0.5502796769 4285480003
-0.3137070537 -0.1679148078 0.5487335324 4286069317
-0.3137820363 -0.1673451066 0.5488647223 4286069317
-0.3138567805 -0.1667750031 0.5489954948 4286461506
-0.3129712939 -0.1656962186 0.5474465489 4286461506
-0.3116049767 -0.1643672585 0.5450566411 4286461759
-0.3097575307 -0.1627907604 0.5418251157 4286264380
-0.3055071831 -0.1599632651 0.5343903899 4286660419
-0.3055787981 -0.1594068855 0.5345156789 4286594626
-0.3037278950 -0.1578510553 0.5312780738 4286396475
-0.3028372526 -0.1567996144 0.5297201872 4286067510
-0.3019459546 -0.1557513028 0.5281611085 4286393907
-0.3010539711 -0.1547061205 0.5266008973 4286196528
-0.3001613617 -0.1536640525 0.5250395536 4286785583
-0.2992680669 -0.1526251286 0.5234770179 4286522411
-0.2988553643 -0.1518338472 0.5227551460 4286587943
-0.2984422445 -0.1510439366 0.5220324993 4286653736
-0.2980287075 -0.1502554268 0.5213091373 4286653995
-0.2976146936 -0.1494683027 0.5205850005 4286522409
-0.2976819575 -0.1489235312 0.5207026005 4286325030
-0.2977490127 -0.1483784169 0.5208199024 4286127651
-0.2978158295 -0.1478329152 0.5209367871 4286127392
-0.2978824675 -0.1472870559 0.5210533142 4286127392
-0.2965025008 -0.1460284889 0.5186395049 4286258978
-0.2965683639 -0.1454845518 0.5187547207 4286258978
-0.2971163392 -0.1451759338 0.5197132230 4286127905
-0.2976643145 -0.1448651701 0.5206717253 4286062112
-0.2987602055 -0.1442372650 0.5225886703 4285995806
-0.2997909188 -0.1441522390 0.5243915915 4285995804
-0.3161301911 -0.1483225077 0.5529720783 4285601818
-0.3152304590 -0.1472877264 0.5513982773 4285601818
-0.3177151680 -0.1478312016 0.5557445288 4285601818
-0.3197169900 -0.1481412798 0.5592461228 4285601818
-0.3207518160 -0.1479973793 0.5610561967 4285536025
-0.3222706914 -0.1480718851 0.5637129545 4285536025
-0.3237899244 -0.1481406391 0.5663704276 4285471002
-0.3257935941 -0.1484241933 0.5698752403 4285471002
-0.3248926997 -0.1473823339 0.5682993531 4285405211
-0.3268968761 -0.1476561874 0.5718051195 4285405211
-0.3279328346 -0.1474867910 0.5736172199 4285339675
-0.3294534385 -0.1475303918 0.5762770176 4285208089
-0.3304898143 -0.1473521739 0.5780898333 4285142550
-0.3310416043 -0.1469548345 0.5790550113 4285208343
-0.3320781589 -0.1467695832 0.5808681250 4285208089
-0.3331148326 -0.1465803683 0.5826814771 4285142296
-0.3336666524 -0.1461747140 0.5836467147 4285142296
-0.3347035050 -0.1459784657 0.5854603648 4285142296
-0.3352552950 -0.1455675662 0.5864256024 4285077273
-0.3358070552 -0.1451544911 0.5873906612 4285077273
-0.3363587260 -0.1447392553 0.5883556604 4285077273
-0.3369103074 -0.1443218291 0.5893204808 4285011480
-0.3374618292 -0.1439022422 0.5902852416 4284946200
-0.3380132914 -0.1434804797 0.5912498236 4284880407
-0.3385646939 -0.1430565417 0.5922142863 4284880407
-0.3391159773 -0.1426304132 0.5931786299 4284946200
-0.3396672308 -0.1422021240 0.5941428542 4284946202
-0.3397323489 -0.1415691376 0.5942567587 4284946202
-0.3402833343 -0.1411373913 0.5952205658 4284880920
-0.3408342302 -0.1407034844 0.5961841941 4284946713
-0.3413850367 -0.1402674019 0.5971476436 4284946713
-0.3414493799 -0.1396302283 0.5972601771 4284815127
-0.3419999182 -0.1391907036 0.5982232094 4284618264
-0.3420638144 -0.1385519207 0.5983349681 4284815643
-0.3426140845 -0.1381089389 0.5992975235 4285209631
-0.3426775336 -0.1374685317 0.5994084477 4285209631
-0.3432275355 -0.1370221227 0.6003705263 4285078815
-0.3437774777 -0.1365735233 0.6013324857 4285078815
-0.3438402712 -0.1359302402 0.6014422774 4285013535
-0.3443899155 -0.1354782134 0.6024037004 4285013535
-0.3444522321 -0.1348332912 0.6025127769 4285013281
-0.3445143104 -0.1341880411 0.6026213169 4284947488
-0.3445760906 -0.1335424185 0.6027293801 4284881695
-0.3451250792 -0.1330844462 0.6036896706 4284815902
-0.3451863825 -0.1324372292 0.6037969589 4284881949
-0.3457350731 -0.1319758147 0.6047567129 4284816156
-0.3457959294 -0.1313269883 0.6048631072 4284750879
-0.3463442922 -0.1308621466 0.6058223248 4284816672
-0.3464046717 -0.1302117258 0.6059279442 4284750879
-0.3464647830 -0.1295609772 0.6060330868 4284685086
-0.3465245962 -0.1289098859 0.6061377525 4284685086
-0.3465841413 -0.1282584518 0.6062418818 4284619293
-0.3471316397 -0.1277864128 0.6071995497 4284619293
-0.3471906781 -0.1271333992 0.6073028445 4284553500
-0.3472494483 -0.1264800578 0.6074056625 4284487965
-0.3473079503 -0.1258263737 0.6075079441 4284487965
-0.3478547037 -0.1253484190 0.6084643602 4284356892
-0.3479127288 -0.1246931553 0.6085658073 4284356892
-0.3479704559 -0.1240375713 0.6086667776 4284356379
-0.3480278850 -0.1233816594 0.6087672710 4284356379
-0.3485739231 -0.1228977889 0.6097223759 4284160283
-0.3486308455 -0.1222403124 0.6098219752 4284094490
-0.3486874998 -0.1215825081 0.6099210978 4283897370
-0.3487438858 -0.1209243909 0.6100196838 4283831577
-0.3487999737 -0.1202659532 0.6101177931 4283765784
-0.3488557637 -0.1196071953 0.6102153659 4283765784
-0.3489112556 -0.1189481243 0.6103124619 4283831831
-0.3494558930 -0.1184546426 0.6112651229 4283831831
-0.3495109081 -0.1177940220 0.6113613248 4283897624
-0.3495656252 -0.1171330884 0.6114570498 4283831831
-0.3496200442 -0.1164718419 0.6115522385 4283832345
-0.3496741652 -0.1158102900 0.6116468906 4283898138
-0.3497280180 -0.1151484326 0.6117410660 4283898138
-0.3502714336 -0.1146466210 0.6126916409 4283898138
-0.3498347998 -0.1138238087 0.6119279265 4283898138
-0.3498877585 -0.1131610423 0.6120205522 4283898138
-0.3499404192 -0.1124979705 0.6121126413 4283767578
-0.3504829705 -0.1119912341 0.6130616665 4283767578
-0.3505351245 -0.1113266423 0.6131529212 4283832858
-0.3500966728 -0.1105069816 0.6123859286 4283832858
-0.3496577442 -0.1096888930 0.6116181612 4283832858
-0.3492183983 -0.1088723615 0.6108496785 4283832858
-0.3492691517 -0.1082093939 0.6109384298 4283833371
-0.3493196070 -0.1075461283 0.6110267043 4283833371
-0.3493697643 -0.1068825796 0.6111144423 4283570715
-0.3489288688 -0.1060695648 0.6103432775 4283570715
-0.3489783704 -0.1054063812 0.6104298234 4283635738
-0.3490275741 -0.1047429144 0.6105158925 4283635738
-0.3490764797 -0.1040791720 0.6106014252 4283504922
-0.3491250873 -0.1034151465 0.6106864810 4283570715
-0.3491733968 -0.1027508453 0.6107710004 4283570715
-0.3492214084 -0.1020862758 0.6108549833 4283636508
-0.3487778902 -0.1012787819 0.6100791693 4283637021
-0.3493165374 -0.1007563025 0.6110213995 4283637021
-0.3493636549 -0.1000909135 0.6111037731 4283637021
-0.3489190340 -0.0992854163 0.6103260517 4283637021
-0.3489654958 -0.0986204296 0.6104072928 4283768607
-0.3485200703 -0.0978172123 0.6096282005 4283702814
-0.3480742276 -0.0970156044 0.6088483334 4283637021
-0.3476279676 -0.0962156132 0.6080676913 4283637021
-0.3481647670 -0.0956875384 0.6090067029 4283637537
-0.3477177918 -0.0948889107 0.6082248092 4283637537
-0.3472703397 -0.0940918997 0.6074422002 4283571744
-0.3473144472 -0.0934288502 0.6075193286 4283505951
-0.3473582566 -0.0927655473 0.6075959206 4283571744
-0.3469096720 -0.0919715390 0.6068112850 4283571744
-0.3474449217 -0.0914381966 0.6077475548 4283505951
-0.3470381498 -0.0899822190 0.6070359945 4283374880
-0.3470803797 -0.0893186256 0.6071098447 4283243294
-0.3466299176 -0.0885290354 0.6063219309 4283243294
-0.3461790383 -0.0877410993 0.6055333018 4283243294
-0.3462202549 -0.0870786682 0.6056053638 4283177501
-0.3457686007 -0.0862930790 0.6048153043 4283177501
-0.3453165293 -0.0855091438 0.6040245891 4283177501
-0.3453567028 -0.0848478973 0.6040948629 4283177501
-0.3449038565 -0.0840663239 0.6033027172 4283111965
-0.3449433744 -0.0834055692 0.6033718586 4283177758
-0.3454754055 -0.0828627944 0.6043024659 4283177758
-0.3450214863 -0.0820833743 0.6035084724 4283177758
-0.3445671499 -0.0813056231 0.6027137637 4283111965
-0.3446053863 -0.0806449205 0.6027806401 4283111965
-0.3446433246 -0.0799839944 0.6028470397 4283111965
-0.3441878557 -0.0792093650 0.6020503044 4283046172
-0.3442251384 -0.0785489529 0.6021155119 4283111706
-0.3437688947 -0.0777767375 0.6013174653 4283111706
-0.3438055217 -0.0771168396 0.6013815403 4282980633
-0.3433485329 -0.0763470456 0.6005821824 4282980633
-0.3433844745 -0.0756876841 0.6006450653 4282980633
-0.3434201181 -0.0750281140 0.6007074118 4282914840
-0.3429619968 -0.0742614865 0.5999060869 4282980120
-0.3425034881 -0.0734965503 0.5991039872 4282914327
-0.3420445323 -0.0727333128 0.5983012319 4282980633
-0.3415852189 -0.0719717816 0.5974977612 4282849047
-0.3416191339 -0.0713149980 0.5975571275 4282914840
-0.3416527808 -0.0706580281 0.5976159573 4282914840
-0.3411923349 -0.0698997006 0.5968105793 4282652182
-0.3407314718 -0.0691430867 0.5960044265 4282652182
-0.3402702212 -0.0683881789 0.5951976180 4282783254
-0.3403024971 -0.0677332953 0.5952540636 4282717461
-0.3393465579 -0.0668835118 0.5935819149 4282849047
-0.3393781185 -0.0662301555 0.5936371684 4282849047
-0.3384212852 -0.0653857142 0.5919634700 4282849047
-0.3379580677 -0.0646394044 0.5911532044 4282914840
-0.3370003104 -0.0638012663 0.5894778967 4282914840
-0.3375245929 -0.0632445589 0.5903950334 4282914840
-0.3365660310 -0.0624108352 0.5887182951 4282914586
-0.3356069624 -0.0615807474 0.5870407224 4282914586
-0.3351417482 -0.0608440451 0.5862269402 4283177758
-0.3341817856 -0.0600202903 0.5845477581 4283309344
-0.3342101276 -0.0593758523 0.5845973492 4283178528
-0.3332493305 -0.0585574917 0.5829167366 4283178528
-0.3312990963 -0.0575709343 0.5795053840 4283178528
-0.3323153257 -0.0571016818 0.5812829733 4283178528
-0.3298695385 -0.0560403280 0.5770048499 4283309344
-0.3289068341 -0.0552375540 0.5753208995 4283309344
-0.3274490237 -0.0543563366 0.5727708936 4283572006
-0.3259907067 -0.0534806997 0.5702199936 4283637799
-0.3240371346 -0.0525304489 0.5668028593 4283703590
-0.3196092248 -0.0511914752 0.5590575933 4283769383
-0.3226021528 -0.0510438792 0.5642927885 4283769638
-0.3176780343 -0.0496473610 0.5556795597 4283901224
-0.3157220781 -0.0487280786 0.5522582531 4284163883
-0.3137655258 -0.0478163138 0.5488358736 4284229676
-0.3127982914 -0.0470609926 0.5471439362 4284754219
-0.3118306100 -0.0463093705 0.5454512835 4284951598
-0.3103674948 -0.0454888940 0.5428920388 4285541935
-0.3093989491 -0.0447456278 0.5411978364 4285936693
-0.3104102612 -0.0442886129 0.5429668427 4286659387
-0.3089458942 -0.0434792526 0.5404053926 4287185731
-0.3094615936 -0.0429503992 0.5413074493 4287777355
-0.3099771142 -0.0424195118 0.5422091484 4288040527
-0.3090067804 -0.0416861773 0.5405118465 4287776841
-0.3085312545 -0.0410224050 0.5396801233 4287842634
-0.3095411956 -0.0405551009 0.5414466858 4287842373
-0.3141200244 -0.1690748185 0.5505254865 4284364350
-0.3137164414 -0.1682467014 0.5498181581 4285282113
-0.3147496283 -0.1681879014 0.5516289473 4285347906
-0.3143455088 -0.1673598439 0.5509206653 4286199363
-0.3134616315 -0.1662788689 0.5493716002 4286594121
-0.3125770688 -0.1652009785 0.5478213429 4286790984
-0.3112123311 -0.1638736874 0.5454294682 4286527812
-0.3074484766 -0.1612930894 0.5388329625 4285806139
-0.3099193871 -0.1619858742 0.5431634784 4286135104
-0.3095120192 -0.1611702591 0.5424494743 4286266686
-0.3038244545 -0.1576169878 0.5324815512 4286200893
-0.3029348850 -0.1565656066 0.5309224725 4286724669
-0.3015644550 -0.1552700996 0.5285206437 4286132532
-0.2997128367 -0.1537331194 0.5252754688 4286524723
-0.3007426262 -0.1536757052 0.5270802975 4286129965
-0.2988894582 -0.1521467417 0.5238324404 4286522150
-0.2979964912 -0.1511119157 0.5222674608 4286653736
-0.2971028686 -0.1500802189 0.5207012892 4286653995
-0.2966894507 -0.1492936462 0.5199767351 4286588202
-0.2962755859 -0.1485084742 0.5192514062 4286390823
-0.2958613038 -0.1477247030 0.5185253024 4286127651
-0.2959277630 -0.1471816301 0.5186418295 4286127392
-0.2959940135 -0.1466382146 0.5187579393 4286061599
-0.3025627434 -0.1428223997 0.5302702785 4285732632
-0.3205413818 -0.1456914842 0.5617794991 4285471004
-0.3225418627 -0.1459726542 0.5652855635 4285405211
-0.3235755265 -0.1458103806 0.5670971870 4285273882
-0.3246093690 -0.1456441581 0.5689090490 4285142296
-0.3256433606 -0.1454739720 0.5707212090 4285273623
-0.3271614611 -0.1455150694 0.5733818412 4285207830
-0.3281958401 -0.1453360617 0.5751946568 4285142550
-0.3292303383 -0.1451530755 0.5770077705 4285142550
-0.3302649856 -0.1449661404 0.5788210630 4285076503
-0.3312997818 -0.1447752118 0.5806346536 4285142296
-0.3318502307 -0.1443695575 0.5815994143 4285142296
-0.3328852057 -0.1441715956 0.5834132433 4285076503
-0.3335012496 -0.1431395859 0.5844929218 4285011480
-0.3345362842 -0.1429323852 0.5863069296 4285011480
-0.3350864947 -0.1425149739 0.5872712731 4285011480
-0.3356366456 -0.1420953870 0.5882354379 4285011482
-0.3361867368 -0.1416736245 0.5891994834 4284945689
-0.3367367387 -0.1412497014 0.5901634693 4284814616
-0.3372866809 -0.1408235878 0.5911272168 4284814616
-0.3378365338 -0.1403952986 0.5920909047 4284880920
-0.3383862972 -0.1399648488 0.5930544138 4284815127
-0.3389359713 -0.1395322233 0.5940178037 4284749080
-0.3394855857 -0.1390974075 0.5949810743 4284683287
-0.3395493329 -0.1384623349 0.5950927734 4284486678
-0.3400986791 -0.1380240917 0.5960555673 4284684057
-0.3406479359 -0.1375836730 0.5970181823 4285012252
-0.3411971033 -0.1371410787 0.5979806781 4284946459
-0.3412600458 -0.1365018487 0.5980910063 4284881436
-0.3418089449 -0.1360558122 0.5990529656 4284881436
-0.3418714404 -0.1354149878 0.5991625190 4284815902
-0.3424200714 -0.1349655092 0.6001240015 4284815902
-0.3424820900 -0.1343230605 0.6002327204 4284815902
-0.3430304229 -0.1338701397 0.6011937261 4284750109
-0.3430919945 -0.1332260966 0.6013016701 4284684316
-0.3436400592 -0.1327697486 0.6022621393 4284618523
-0.3437011540 -0.1321240813 0.6023692489 4284684570
-0.3442489207 -0.1316643059 0.6033292413 4284684570
-0.3443095684 -0.1310170442 0.6034355164 4284553500
-0.3448570073 -0.1305538267 0.6043950319 4284553500
-0.3449172080 -0.1299049705 0.6045004725 4284421914
-0.3449770808 -0.1292557716 0.6046054363 4284421914
-0.3450367153 -0.1286062300 0.6047099233 4284421914
-0.3450960517 -0.1279563606 0.6048139334 4284356121
-0.3456426263 -0.1274859607 0.6057718396 4284421914
-0.3457014561 -0.1268344969 0.6058750153 4284421914
-0.3457600474 -0.1261827052 0.6059776545 4284290586
-0.3458183408 -0.1255305707 0.6060798168 4284290586
-0.3458763659 -0.1248781234 0.6061815023 4284225306
-0.3469099104 -0.1245757714 0.6079928875 4284159513
-0.3469675183 -0.1239208207 0.6080938578 4284224793
-0.3470248580 -0.1232655421 0.6081943512 4284224793
-0.3470818996 -0.1226099506 0.6082943082 4283831577
-0.3471386433 -0.1219540238 0.6083937883 4283831577
-0.3471951187 -0.1212977841 0.6084927320 4283831577
-0.3472512960 -0.1206412241 0.6085911989 4283765784
-0.3473071754 -0.1199843436 0.6086891294 4283569175
-0.3478513360 -0.1194949821 0.6096428633 4283569175
-0.3479067385 -0.1188365445 0.6097398996 4283766038
-0.3479618430 -0.1181777939 0.6098365188 4283831831
-0.3480166495 -0.1175187305 0.6099326015 4283897624
-0.3480711877 -0.1168593615 0.6100281477 4283831831
-0.3486143649 -0.1163628846 0.6109800935 4283766554
-0.3486683965 -0.1157019660 0.6110748053 4283832347
-0.3487221301 -0.1150407419 0.6111689806 4283767067
-0.3487755656 -0.1143792197 0.6112626195 4283767067
-0.3488287032 -0.1137173846 0.6113557816 4283832345
-0.3488815725 -0.1130552590 0.6114484072 4283766552
-0.3489341438 -0.1123928204 0.6115405560 4283635992
-0.3489863873 -0.1117300913 0.6116321683 4283635992
-0.3490383625 -0.1110670641 0.6117232442 4283635479
-0.3490900695 -0.1104037389 0.6118138433 4283635479
-0.3486517668 -0.1095862091 0.6110456586 4283635479
-0.3487027884 -0.1089232340 0.6111350656 4283569686
-0.3482636809 -0.1081079170 0.6103655100 4283504406
-0.3483140469 -0.1074452922 0.6104537845 4283504406
-0.3483641148 -0.1067823768 0.6105415225 4283439129
-0.3484138846 -0.1061191782 0.6106287837 4283373336
-0.3479732573 -0.1053073779 0.6098564863 4283307543
-0.3480223715 -0.1046445519 0.6099425554 4283307543
-0.3480711877 -0.1039814427 0.6100281477 4283307545
-0.3481196761 -0.1033180580 0.6101131439 4283373338
-0.3481678963 -0.1026543975 0.6101976633 4283373595
-0.3482158184 -0.1019904613 0.6102816463 4283439388
-0.3477729261 -0.1011835337 0.6095054150 4283505435
-0.3483107686 -0.1006617621 0.6104480624 4283571228
-0.3483577967 -0.0999970138 0.6105304360 4283637021
-0.3484045267 -0.0993319899 0.6106123328 4283637021
-0.3479601741 -0.0985277370 0.6098335981 4283702814
-0.3475154042 -0.0977250859 0.6090540886 4283702814
-0.3475610912 -0.0970611498 0.6091341376 4283637021
-0.3461335897 -0.0959884822 0.6066322923 4283702814
-0.3471605480 -0.0955972672 0.6084321737 4283834400
-0.3472052813 -0.0949334875 0.6085105538 4283900193
-0.3467585742 -0.0941361189 0.6077276468 4283834400
-0.3468026221 -0.0934727639 0.6078048944 4283768607
-0.3463551104 -0.0926777050 0.6070205569 4283768607
-0.3463985324 -0.0920147896 0.6070966721 4283637021
-0.3459502161 -0.0912220553 0.6063109636 4283374619
-0.3464844525 -0.0906882212 0.6072472334 4283308826
-0.3465269506 -0.0900245681 0.6073216796 4283111708
-0.3460775614 -0.0892339200 0.6065341234 4283045915
-0.3461194038 -0.0885707214 0.6066074371 4283045915
-0.3456692398 -0.0877824202 0.6058185101 4283045915
-0.3457103968 -0.0871196911 0.6058906317 4282980122
-0.3447676301 -0.0862107575 0.6042383313 4282914329
-0.3448081017 -0.0855494440 0.6043092608 4282914329
-0.3443562984 -0.0847667977 0.6035174727 4282848536
-0.3439041078 -0.0839858130 0.6027249098 4282914329
-0.3439435363 -0.0833256990 0.6027940512 4282914329
-0.3444747925 -0.0827836171 0.6037250757 4282848793
-0.3445136547 -0.0821221098 0.6037932634 4282848793
-0.3435678184 -0.0812276304 0.6021355391 4282783000
-0.3436059952 -0.0805675611 0.6022024751 4282783000
-0.3436438441 -0.0799072757 0.6022688150 4282783000
-0.3431890309 -0.0791332424 0.6014717221 4282717207
-0.3432262540 -0.0784734711 0.6015369296 4282782228
-0.3432631493 -0.0778134838 0.6016016006 4282782228
-0.3432997465 -0.0771532878 0.6016657352 4282782741
-0.3423508704 -0.0762733892 0.6000027061 4282782741
-0.3418940902 -0.0755058676 0.5992022157 4282716948
-0.3424223363 -0.0749557391 0.6001279950 4282716948
-0.3419648707 -0.0741897076 0.5993261933 4282782741
-0.3419997990 -0.0735313222 0.5993874073 4282782741
-0.3415415585 -0.0727677271 0.5985843539 4282651155
-0.3410829306 -0.0720058382 0.5977805853 4282651155
-0.3406238854 -0.0712456480 0.5969760418 4282651414
-0.3401644528 -0.0704871640 0.5961708426 4282717207
-0.3401976824 -0.0698315948 0.5962290764 4282717207
-0.3397374749 -0.0690755770 0.5954225659 4282717207
-0.3392769098 -0.0683212727 0.5946153402 4282848536
-0.3388159275 -0.0675686747 0.5938073993 4282848536
-0.3378613293 -0.0667204037 0.5921343565 4282783254
