VERSION 0.7
FIELDS x y z rgba
SIZE 4 4 4 4
TYPE F F F U
COUNT 1 1 1 1
WIDTH 920
HEIGHT 1
VIEWPOINT 0.0 0.0 0.0 1.0 0.0 0.0 0.0
POINTS 920
DATA ascii
-0.2693060040 -0.1376499683 0.5832458735 4293126128
-0.2689515650 -0.1368216127 0.5824782252 4293257457
-0.2694168687 -0.1364100277 0.5834859610 4293323250
-0.2694719434 -0.1357894987 0.5836052299 4293454836
-0.2695268095 -0.1351685822 0.5837240219 4293520629
-0.2699917555 -0.1347520649 0.5847309828 4293520886
-0.2700462341 -0.1341294497 0.5848490000 4293586679
-0.2701004744 -0.1335064620 0.5849664807 4293718265
-0.2701544762 -0.1328830868 0.5850834250 4293718265
-0.2697976232 -0.1320583373 0.5843105912 4293849592
-0.2698510885 -0.1314351708 0.5844263434 4293981178
-0.2699043453 -0.1308116317 0.5845416784 4294046971
-0.2699573338 -0.1301877350 0.5846564770 4294178557
-0.2704210877 -0.1297606677 0.5856608152 4294310143
-0.2700626552 -0.1289388239 0.5848845840 4294310143
-0.2701149583 -0.1283138245 0.5849978328 4294441982
-0.2701670229 -0.1276884526 0.5851106048 4294507775
-0.2702188790 -0.1270627379 0.5852228999 4294507775
-0.2702704668 -0.1264366508 0.5853346586 4294573567
-0.2707332969 -0.1260017008 0.5863369703 4294639359
-0.2707844973 -0.1253739446 0.5864478946 4294705151
-0.2708354890 -0.1247458383 0.5865582824 4294705151
-0.2708862126 -0.1241173819 0.5866681933 4294770687
-0.2705249488 -0.1233008951 0.5858857632 4294573566
-0.2705751359 -0.1226726845 0.5859944820 4294573566
-0.2706250846 -0.1220441237 0.5861026049 4294573566
-0.2706747949 -0.1214152202 0.5862103105 4294573566
-0.2707242668 -0.1207859740 0.5863174200 4294573566
-0.2711856365 -0.1203392670 0.5873166323 4294573566
-0.2712346911 -0.1197083667 0.5874229074 4294639359
-0.2712835073 -0.1190771312 0.5875286460 4294639359
-0.2713321149 -0.1184455529 0.5876338482 4294639359
-0.2713804543 -0.1178136393 0.5877385736 4294639359
-0.2718410492 -0.1173594669 0.5887361169 4294639359
-0.2718890011 -0.1167259216 0.5888398886 4294639359
-0.2719366848 -0.1160920337 0.5889431834 4294639359
-0.2723968327 -0.1156330183 0.5899397731 4294573566
-0.2724441290 -0.1149975061 0.5900421739 4294573566
-0.2724911571 -0.1143616661 0.5901440382 4294573566
-0.2725379467 -0.1137254983 0.5902453661 4294639359
-0.2725844681 -0.1130890027 0.5903461576 4294639359
-0.2726307809 -0.1124521792 0.5904464126 4294639359
-0.2726768255 -0.1118150353 0.5905461311 4294639359
-0.2731358409 -0.1113460213 0.5915402770 4294639359
-0.2731814682 -0.1107072681 0.5916390419 4294639359
-0.2732268274 -0.1100681946 0.5917373300 4294639359
-0.2728585601 -0.1092632487 0.5909397006 4294639359
-0.2729033530 -0.1086245105 0.5910367966 4294574077
-0.2729479373 -0.1079854593 0.5911332965 4294574077
-0.2729922533 -0.1073460951 0.5912292600 4294574077
-0.2730363011 -0.1067064181 0.5913246870 4294574077
-0.2730801404 -0.1060664356 0.5914196372 4294574077
-0.2731237113 -0.1054261401 0.5915139914 4294574077
-0.2731670141 -0.1047855467 0.5916078091 4294574077
-0.2732100785 -0.1041446403 0.5917010307 4294574077
-0.2732529044 -0.1035034359 0.5917937756 4294508284
-0.2737095654 -0.1030177847 0.5927827954 4294508284
-0.2737519443 -0.1023750082 0.5928745270 4294574077
-0.2737940550 -0.1017319337 0.5929657817 4294574077
-0.2738359272 -0.1010885686 0.5930565000 4294574077
-0.2738775611 -0.1004449055 0.5931466222 4294574077
-0.2739189267 -0.0998009443 0.5932362080 4294574077
-0.2735455632 -0.0990066901 0.5924276114 4294574077
-0.2735863626 -0.0983631313 0.5925160050 4294639357
-0.2740415037 -0.0978673398 0.5935016870 4294639357
-0.2740818560 -0.0972222313 0.5935890675 4294639359
-0.2741219401 -0.0965768322 0.5936759114 4294639359
-0.2741617858 -0.0959311575 0.5937621593 4294639359
-0.2742013633 -0.0952851996 0.5938479304 4294573566
-0.2742407024 -0.0946389660 0.5939331055 4294639357
-0.2742797732 -0.0939924568 0.5940176845 4294639357
-0.2747335732 -0.0934868827 0.5950005651 4294639357
-0.2747721970 -0.0928388461 0.5950841904 4294639357
-0.2748105526 -0.0921905264 0.5951672792 4294639359
-0.2748486698 -0.0915419459 0.5952497721 4294639359
-0.2748864889 -0.0908930898 0.5953317285 4294639359
-0.2749240696 -0.0902439728 0.5954130888 4294573566
-0.2749614120 -0.0895945877 0.5954939723 4294573564
-0.2749984562 -0.0889449418 0.5955742002 4294507771
-0.2746198177 -0.0881616548 0.5947541595 4294573564
-0.2750717998 -0.0876448601 0.5957330465 4294573564
-0.2751080990 -0.0869944319 0.5958116651 4294573564
-0.2747284770 -0.0862133130 0.5949895382 4294573564
-0.2747641802 -0.0855633542 0.5950668454 4294573564
-0.2747996449 -0.0849131495 0.5951436162 4294573564
-0.2752506137 -0.0843901634 0.5961202979 4294507771
-0.2748697400 -0.0836119801 0.5952954292 4294507771
-0.2749044001 -0.0829610229 0.5953705311 4294442491
-0.2749387920 -0.0823098198 0.5954449773 4294442491
-0.2749729455 -0.0816583782 0.5955189466 4294442493
-0.2750068009 -0.0810066909 0.5955922604 4294442493
-0.2750404179 -0.0803547651 0.5956650972 4294508286
-0.2750737667 -0.0797026008 0.5957372785 4294508286
-0.2751068473 -0.0790501982 0.5958089232 4294508286
-0.2755559087 -0.0785161704 0.5967814922 4294508286
-0.2755885124 -0.0778623149 0.5968521237 4294508284
-0.2764535546 -0.0774414837 0.5987254977 4294442491
-0.2760693133 -0.0766695514 0.5978934169 4294442491
-0.2761011720 -0.0760140195 0.5979623795 4294442491
-0.2761327624 -0.0753582567 0.5980308056 4294442491
-0.2761640847 -0.0747022778 0.5980986357 4294442491
-0.2761951387 -0.0740460679 0.5981658697 4294442491
-0.2762259245 -0.0733896419 0.5982325673 4294376698
-0.2762564421 -0.0727329999 0.5982986689 4294376698
-0.2758699656 -0.0719674304 0.5974617004 4294376698
-0.2758999169 -0.0713113472 0.5975264907 4294376698
-0.2759295702 -0.0706550479 0.5975907445 4294442491
-0.2763758302 -0.0701042786 0.5985572338 4294442491
-0.2764050066 -0.0694465712 0.5986204743 4294442491
-0.2764339447 -0.0687886551 0.5986830592 4294508284
-0.2764625847 -0.0681305304 0.5987451077 4294508284
-0.2764909565 -0.0674722046 0.5988065004 4294508286
-0.2765190303 -0.0668136775 0.5988674164 4294508286
-0.2765468657 -0.0661549494 0.5989276767 4294442493
-0.2765744328 -0.0654960275 0.5989873409 4294442493
-0.2766017318 -0.0648369044 0.5990464687 4294442493
-0.2762115002 -0.0640807897 0.5982013345 4294442493
-0.2766554952 -0.0635180846 0.5991629362 4294442493
-0.2766819596 -0.0628583878 0.5992202759 4294442493
-0.2767081857 -0.0621985011 0.5992770195 4294442493
-0.2767341137 -0.0615384281 0.5993331671 4294442493
-0.2602322996 -0.1954755187 0.5649535060 4293455095
-0.2599080801 -0.1946050525 0.5642496347 4293455095
-0.2603821754 -0.1943319589 0.5652788877 4293192438
-0.2604568303 -0.1937594414 0.5654410124 4293192438
-0.2605313361 -0.1931864470 0.5656027198 4293192438
-0.2602059245 -0.1923175156 0.5648962855 4293126645
-0.2606797814 -0.1920389533 0.5659250021 4293060852
-0.2607537210 -0.1914644688 0.5660855770 4292929266
-0.2608275115 -0.1908895075 0.5662457347 4292797680
-0.2609010935 -0.1903140545 0.5664054751 4292731887
-0.2609745264 -0.1897381097 0.5665648580 4292731373
-0.2610477507 -0.1891616732 0.5667238832 4292665580
-0.2611207962 -0.1885847747 0.5668824315 4292533994
-0.2615942657 -0.1882957220 0.5679103136 4292336615
-0.2612663507 -0.1874294877 0.5671984553 4292270822
-0.2617397010 -0.1871377230 0.5682260394 4292270822
-0.2618121207 -0.1865579933 0.5683832765 4292336615
-0.2622854114 -0.1862625778 0.5694107413 4292336615
-0.2623575926 -0.1856810004 0.5695674419 4292533993
-0.2624295652 -0.1850989461 0.5697237253 4292599786
-0.2625013590 -0.1845164001 0.5698795915 4292731372
-0.2625729740 -0.1839333922 0.5700350404 4292797165
-0.2626443803 -0.1833499074 0.5701900721 4292797165
-0.2631173134 -0.1830453873 0.5712168217 4292731372
-0.2631884813 -0.1824600548 0.5713713169 4292665579
-0.2628575265 -0.1815965772 0.5706527829 4292533993
-0.2633302212 -0.1812879741 0.5716789961 4292599786
-0.2629986703 -0.1804253310 0.5709592104 4292533993
-0.2630689442 -0.1798390001 0.5711117983 4292468200
-0.2631390393 -0.1792522073 0.5712639689 4292336614
-0.2632089257 -0.1786649376 0.5714157224 4292073442
-0.2632786334 -0.1780772060 0.5715669990 4291876063
-0.2637508214 -0.1777603924 0.5725921392 4291810270
-0.2638202608 -0.1771708280 0.5727428198 4291612891
-0.2638894916 -0.1765807867 0.5728931427 4291547096
-0.2639585137 -0.1759902984 0.5730430484 4291547096
-0.2640273571 -0.1753993332 0.5731924772 4291415510
-0.2640960217 -0.1748079211 0.5733414888 4291415510
-0.2641644776 -0.1742160320 0.5734900832 4291547096
-0.2642327249 -0.1736236960 0.5736382604 4291612889
-0.2643007636 -0.1730308980 0.5737860203 4291678682
-0.2643686235 -0.1724376380 0.5739333630 4291744475
-0.2644363046 -0.1718439311 0.5740802288 4292007647
-0.2649075687 -0.1715112180 0.5751033425 4292139233
-0.2649749219 -0.1709156781 0.5752496123 4292270819
-0.2650420964 -0.1703196913 0.5753954053 4292336612
-0.2647049427 -0.1694645435 0.5746634603 4292402407
-0.2647715807 -0.1688685566 0.5748081803 4292336614
-0.2648380399 -0.1682721376 0.5749524236 4292270821
-0.2649042904 -0.1676752567 0.5750962496 4292270821
-0.2645658255 -0.1668228507 0.5743614435 4292140005
-0.2646315694 -0.1662259996 0.5745041966 4292271591
-0.2646971047 -0.1656286865 0.5746464729 4292337384
-0.2643576264 -0.1647786051 0.5739094615 4292534763
-0.2644226551 -0.1641813368 0.5740506649 4292797935
-0.2644875050 -0.1635836214 0.5741913915 4292929521
-0.2645521164 -0.1629854739 0.5743317008 4293061107
-0.2646165490 -0.1623868793 0.5744715929 4293258486
-0.2646807730 -0.1617878526 0.5746110082 4293390072
-0.2647447884 -0.1611883938 0.5747499466 4293455865
-0.2648085952 -0.1605885029 0.5748884678 4293719035
-0.2648721933 -0.1599881798 0.5750265121 4293850621
-0.2641241252 -0.1588992476 0.5734025240 4293982207
-0.2641871274 -0.1582998931 0.5735392570 4294113791
-0.2642498910 -0.1577001214 0.5736755729 4294179583
-0.2643124759 -0.1570999175 0.5738114119 4294179583
-0.2643748224 -0.1564992815 0.5739467740 4294244863
-0.2644369900 -0.1558982283 0.5740817189 4294179070
-0.2644989192 -0.1552967578 0.5742161870 4294244863
-0.2645606399 -0.1546948552 0.5743502378 4294244863
-0.2646221817 -0.1540925354 0.5744837523 4294113023
-0.2646834850 -0.1534897834 0.5746168494 4293718265
-0.2647445798 -0.1528866291 0.5747495294 4293126128
-0.2652122378 -0.1525169760 0.5757647753 4292731370
-0.2652729750 -0.1519120634 0.5758966804 4292731372
-0.2657404840 -0.1515387893 0.5769115686 4293060337
-0.2653938830 -0.1507009715 0.5761591196 4293455095
-0.2654539943 -0.1500948220 0.5762895942 4293586681
-0.2655138969 -0.1494882405 0.5764196515 4293520889
-0.2659808993 -0.1491096020 0.5774335265 4293520889
-0.2660404742 -0.1485012919 0.5775628686 4293389303
-0.2660998106 -0.1478925496 0.5776916742 4293191924
-0.2661589384 -0.1472834200 0.5778200626 4293125620
-0.2662178576 -0.1466738731 0.5779479146 4293059827
-0.2662765384 -0.1460639387 0.5780753493 4292928241
-0.2663350403 -0.1454535872 0.5782023072 4292928241
-0.2668012381 -0.1450646520 0.5792144537 4292928239
-0.2668593526 -0.1444525570 0.5793406367 4292994032
-0.2669172585 -0.1438400745 0.5794663429 4292994032
-0.2669749558 -0.1432271898 0.5795915127 4293059825
-0.2670324147 -0.1426139176 0.5797162652 4293191411
-0.2670896351 -0.1420002431 0.5798405409 4293322997
-0.2671466470 -0.1413861662 0.5799643397 4293322996
-0.2672034502 -0.1407717019 0.5800876021 4293388789
-0.2672600150 -0.1401568502 0.5802104473 4293455095
-0.2673163712 -0.1395416111 0.5803327560 4293520888
-0.2673724890 -0.1389259845 0.5804545879 4293586681
-0.2674283683 -0.1383099556 0.5805759430 4293652474
-0.2674840391 -0.1376935542 0.5806968212 4293849590
-0.2675395012 -0.1370767653 0.5808171630 4293849590
-0.2680038810 -0.1366682500 0.5818253160 4293981431
-0.2680589557 -0.1360497624 0.5819448829 4294113017
-0.2681137919 -0.1354308873 0.5820639729 4294178810
-0.2681684196 -0.1348116249 0.5821825266 4294244603
-0.2686323225 -0.1343968660 0.5831896663 4294310396
-0.2686865628 -0.1337759048 0.5833073854 4294310396
-0.2687405944 -0.1331545711 0.5834246874 4294376189
-0.2687943876 -0.1325328648 0.5835414529 4294376189
-0.2684381008 -0.1317097098 0.5827680230 4294441982
-0.2684913576 -0.1310882121 0.5828835964 4294507775
-0.2685443461 -0.1304663420 0.5829986930 4294704382
-0.2690072060 -0.1300423294 0.5840035081 4294770175
-0.2690598369 -0.1294187754 0.5841177702 4294639359
-0.2691122293 -0.1287948638 0.5842315555 4294639359
-0.2691644132 -0.1281705797 0.5843448043 4294704382
-0.2692163289 -0.1275459379 0.5844575167 4294704382
-0.2692680359 -0.1269209236 0.5845697522 4294704382
-0.2693195045 -0.1262955666 0.5846815109 4294638589
-0.2693707347 -0.1256698370 0.5847926736 4294704382
-0.2694217265 -0.1250437647 0.5849034190 4294704382
-0.2694724798 -0.1244173273 0.5850136280 4294507773
-0.2695229948 -0.1237905398 0.5851233006 4294573566
-0.2695733011 -0.1231634021 0.5852324367 4294705150
-0.2696233392 -0.1225359067 0.5853410959 4294639357
-0.2692620754 -0.1217222363 0.5845567584 4294639357
-0.2693115771 -0.1210950091 0.5846642256 4294639357
-0.2693608105 -0.1204674318 0.5847712159 4294639357
-0.2698211670 -0.1200224832 0.5857705474 4294639357
-0.2698700130 -0.1193932593 0.5858766437 4294639357
-0.2699186504 -0.1187637076 0.5859822035 4294573564
-0.2699670196 -0.1181338057 0.5860872269 4294574079
-0.2700151503 -0.1175035685 0.5861917138 4294574079
-0.2700630426 -0.1168729961 0.5862957239 4294574079
-0.2705224752 -0.1164192855 0.5872930884 4294574079
-0.2705699503 -0.1157870889 0.5873961449 4294574079
-0.2710290849 -0.1153298244 0.5883929729 4294574079
-0.2710761726 -0.1146959960 0.5884951353 4294508286
-0.2711229920 -0.1140618399 0.5885968208 4294508286
-0.2711696029 -0.1134273559 0.5886979699 4294508286
-0.2712159455 -0.1127925441 0.5887985826 4294508286
-0.2716743052 -0.1123278588 0.5897936225 4294639359
-0.2717202306 -0.1116914302 0.5898933411 4294639359
-0.2717658877 -0.1110546812 0.5899925232 4294639359
-0.2718113363 -0.1104176193 0.5900911093 4294639359
-0.2714439929 -0.1096136421 0.5892936587 4294639359
-0.2714888453 -0.1089769080 0.5893910527 4294639359
-0.2715334892 -0.1083398610 0.5894879699 4294574077
-0.2715778649 -0.1077024937 0.5895842910 4294574077
-0.2716220021 -0.1070648208 0.5896800756 4294574077
-0.2716658711 -0.1064268351 0.5897753835 4294574077
-0.2717095017 -0.1057885438 0.5898700953 4294574077
-0.2717528939 -0.1051499397 0.5899642706 4294574077
-0.2717960477 -0.1045110375 0.5900579095 4294574077
-0.2718389332 -0.1038718224 0.5901510119 4294574077
-0.2718815506 -0.1032323167 0.5902435780 4294508284
-0.2723371983 -0.1027484164 0.5912327766 4294508284
-0.2723793983 -0.1021073386 0.5913243890 4294574077
-0.2724213600 -0.1014659554 0.5914154649 4294574077
-0.2724630535 -0.1008242816 0.5915060043 4294574077
-0.2725045085 -0.1001823172 0.5915960073 4294574077
-0.2725456953 -0.0995400548 0.5916854143 4294574077
-0.2721729875 -0.0987474322 0.5908762813 4294508284
-0.2722136378 -0.0981055647 0.5909644961 4294639357
-0.2722539902 -0.0974634141 0.5910521746 4294639357
-0.2727079391 -0.0969681293 0.5920376182 4294639359
-0.2727478743 -0.0963244289 0.5921243429 4294639359
-0.2727875412 -0.0956804529 0.5922104716 4294573566
-0.2728269696 -0.0950361937 0.5922960043 4294573566
-0.2728661299 -0.0943916589 0.5923810601 4294573564
-0.2729050219 -0.0937468484 0.5924655199 4294573564
-0.2733578682 -0.0932430401 0.5934485793 4294574077
-0.2733963132 -0.0925966948 0.5935320854 4294508284
-0.2734345198 -0.0919500887 0.5936149955 4294508286
-0.2734724581 -0.0913032070 0.5936973691 4294508286
-0.2735101283 -0.0906560495 0.5937791467 4294508286
-0.2735475600 -0.0900086388 0.5938603878 4294508286
-0.2735847235 -0.0893609524 0.5939410925 4294508284
-0.2732070386 -0.0885785967 0.5931211710 4294442491
-0.2732436359 -0.0879313722 0.5932006240 4294573566
-0.2732799649 -0.0872838870 0.5932794809 4294573566
-0.2737307847 -0.0867676139 0.5942582488 4294573566
-0.2733518779 -0.0859881490 0.5934355855 4294507773
-0.2733874321 -0.0853399038 0.5935127735 4294507773
-0.2738376260 -0.0848199129 0.5944901705 4294507773
-0.2738727033 -0.0841701776 0.5945663452 4294507773
-0.2734925449 -0.0833936483 0.5937409401 4294507773
-0.2735270560 -0.0827443972 0.5938159227 4294376700
-0.2735612988 -0.0820949078 0.5938902497 4294442493
-0.2735953033 -0.0814451724 0.5939640403 4294442493
-0.2736290395 -0.0807951912 0.5940372944 4294442493
-0.2736625075 -0.0801449791 0.5941099524 4294442493
-0.2736957073 -0.0794945210 0.5941820145 4294442493
-0.2737286389 -0.0788438320 0.5942535400 4294442493
-0.2741767466 -0.0783115625 0.5952263474 4294508286
-0.2742092013 -0.0776594207 0.5952968597 4294442493
-0.2750724554 -0.0772404000 0.5971708894 4294376700
-0.2746889293 -0.0764701292 0.5963382721 4294442493
-0.2747206390 -0.0758163109 0.5964071155 4294442493
-0.2747520804 -0.0751622617 0.5964754224 4294376700
-0.2747832835 -0.0745079964 0.5965431333 4294376700
-0.2748142183 -0.0738535002 0.5966102481 4294442493
-0.2748448551 -0.0731987879 0.5966768265 4294376700
-0.2748752534 -0.0725438595 0.5967428088 4294376700
-0.2744894922 -0.0717799589 0.5959053040 4294376700
-0.2745192945 -0.0711255893 0.5959700346 4294442493
-0.2749648392 -0.0705777854 0.5969372988 4294442493
-0.2754102051 -0.0700277835 0.5979041457 4294442493
-0.2754392922 -0.0693707988 0.5979673266 4294442493
-0.2754681408 -0.0687136054 0.5980299115 4294442493
-0.2754966915 -0.0680562034 0.5980919003 4294508286
-0.2755249739 -0.0673986077 0.5981533527 4294442493
-0.2751367688 -0.0666399822 0.5973105431 4294442493
-0.2751644850 -0.0659829751 0.5973706841 4294442493
-0.2751919329 -0.0653257668 0.5974302888 4294442493
-0.2748027444 -0.0645705312 0.5965853930 4294442493
-0.2752460241 -0.0640107691 0.5975477099 4294442493
-0.2752726674 -0.0633529872 0.5976055264 4294442493
-0.2752990127 -0.0626950040 0.5976627469 4294376700
-0.2753251195 -0.0620368421 0.5977194309 4294442493
-0.2753509581 -0.0613784902 0.5977755189 4294442493
-0.2585095167 -0.1946507841 0.5625699162 4292402407
-0.2585840821 -0.1940817088 0.5627322197 4292336614
-0.2590570450 -0.1938103139 0.5637614727 4292139750
-0.2591314018 -0.1932393759 0.5639232993 4292073957
-0.2592055798 -0.1926679462 0.5640847087 4291876578
-0.2588806748 -0.1918004900 0.5633776188 4291679199
-0.2589543760 -0.1912289709 0.5635380149 4291481820
-0.2590278983 -0.1906569600 0.5636980534 4291284441
-0.2591012418 -0.1900844574 0.5638576746 4291283927
-0.2595737576 -0.1898034662 0.5648859143 4291218134
-0.2596468627 -0.1892291158 0.5650449991 4291152341
-0.2597197592 -0.1886542737 0.5652036667 4291218134
-0.2597925067 -0.1880789548 0.5653619766 4291283927
-0.2598650455 -0.1875031441 0.5655198693 4291415513
-0.2603373230 -0.1872144341 0.5665476322 4291547099
-0.2604096234 -0.1866367757 0.5667049885 4291678685
-0.2604817450 -0.1860586405 0.5668619275 4291744478
-0.2605536878 -0.1854800284 0.5670184493 4291810271
-0.2610257864 -0.1851849556 0.5680458546 4292007649
-0.2610974610 -0.1846044958 0.5682018399 4291941856
-0.2611689270 -0.1840235442 0.5683574080 4291941856
-0.2612402439 -0.1834421307 0.5685125589 4291810270
-0.2613113523 -0.1828602403 0.5686672926 4291612891
-0.2617831826 -0.1825574338 0.5696941018 4291481305
-0.2618540227 -0.1819736958 0.5698482394 4291349719
-0.2615235746 -0.1811117083 0.5691291094 4291218133
-0.2619951367 -0.1808048040 0.5701553822 4291152340
-0.2620654404 -0.1802196503 0.5703083277 4291152340
-0.2621355057 -0.1796340346 0.5704608560 4291152340
-0.2622054219 -0.1790479422 0.5706129670 4291152340
-0.2618734837 -0.1781880856 0.5698906183 4291152340
-0.2623446286 -0.1778743416 0.5709159374 4291283926
-0.2620120943 -0.1770153642 0.5701922774 4291481305
-0.2624830902 -0.1766988933 0.5712172389 4291547098
-0.2625520229 -0.1761104763 0.5713672638 4292073440
-0.2626207769 -0.1755215824 0.5715168715 4292139233
-0.2626893222 -0.1749322414 0.5716660023 4292270819
-0.2627576590 -0.1743424237 0.5718147755 4292468198
-0.2628258169 -0.1737521589 0.5719630718 4292665577
-0.2628937662 -0.1731614321 0.5721110106 4292665577
-0.2629615366 -0.1725702435 0.5722584724 4292731370
-0.2630290985 -0.1719785929 0.5724055171 4292862956
-0.2634993792 -0.1716489643 0.5734289289 4292797163
-0.2635666430 -0.1710554957 0.5735753179 4292731370
-0.2636337280 -0.1704615951 0.5737212896 4292599784
-0.2637006044 -0.1698672175 0.5738667846 4292468198
-0.2637672722 -0.1692724079 0.5740119219 4292533993
-0.2638337612 -0.1686771363 0.5741565824 4292533993
-0.2639000416 -0.1680814177 0.5743008256 4292533993
-0.2639661133 -0.1674852520 0.5744445920 4292533993
-0.2636282444 -0.1666334569 0.5737093687 4292533993
-0.2636938393 -0.1660373062 0.5738520622 4292402407
-0.2637591958 -0.1654407233 0.5739942789 4292270821
-0.2638243437 -0.1648436785 0.5741360784 4292205028
-0.2634851933 -0.1639946848 0.5733980536 4292139235
-0.2635498345 -0.1633976847 0.5735387206 4292205028
-0.2636142969 -0.1628002375 0.5736789703 4292336614
-0.2636785507 -0.1622023731 0.5738188028 4292599786
-0.2637425959 -0.1616040468 0.5739581585 4292666349
-0.2638064325 -0.1610053033 0.5740970969 4292732142
-0.2638700604 -0.1604061276 0.5742355585 4292863728
-0.2639334798 -0.1598065048 0.5743736029 4292995314
-0.2639966905 -0.1592064500 0.5745111704 4293061107
-0.2636547089 -0.1583627164 0.5737668872 4293192693
-0.2637173831 -0.1577627361 0.5739033222 4293324279
-0.2637798786 -0.1571623236 0.5740393400 4293324279
-0.2638421655 -0.1565614790 0.5741748810 4293652472
-0.2639042437 -0.1559602171 0.5743100047 4293652472
-0.2639661133 -0.1553585231 0.5744445920 4293586679
-0.2640277743 -0.1547564119 0.5745787621 4293257714
-0.2636835575 -0.1539170891 0.5738297105 4292928749
-0.2637446821 -0.1533150673 0.5739627481 4292862956
-0.2638056278 -0.1527126133 0.5740953088 4293126128
-0.2642722726 -0.1523437798 0.5751109123 4293455093
-0.2643328905 -0.1517395675 0.5752427578 4293849851
-0.2643932700 -0.1511349529 0.5753741860 4293981437
-0.2644534409 -0.1505299211 0.5755050778 4294047230
-0.2645133734 -0.1499244720 0.5756355524 4293849851
-0.2645731270 -0.1493186206 0.5757656097 4293784060
-0.2646326423 -0.1487123519 0.5758951306 4293849853
-0.2646919489 -0.1481056809 0.5760241747 4293849853
-0.2647510469 -0.1474985927 0.5761528015 4293718267
-0.2644031644 -0.1466654688 0.5753957033 4293717754
-0.2644617260 -0.1460585147 0.5755231380 4293717754
-0.2649270296 -0.1456749141 0.5765357614 4293718008
-0.2649852633 -0.1450662166 0.5766624808 4293718008
-0.2650432587 -0.1444571167 0.5767887235 4293783801
-0.2651010454 -0.1438476294 0.5769144893 4293783801
-0.2655659318 -0.1434577554 0.5779261589 4293784058
-0.2656233609 -0.1428465247 0.5780511498 4293915644
-0.2656805813 -0.1422349066 0.5781756043 4293915898
-0.2657375634 -0.1416228861 0.5782996416 4294047484
-0.2657943368 -0.1410104632 0.5784232020 4294047484
-0.2658509016 -0.1403976679 0.5785462856 4294113277
-0.2659072280 -0.1397844702 0.5786688328 4294179070
-0.2659633160 -0.1391708851 0.5787909627 4294179070
-0.2660191953 -0.1385569125 0.5789125562 4294244861
-0.2660748661 -0.1379425526 0.5790336728 4294376447
-0.2661302984 -0.1373278052 0.5791543126 4294376700
-0.2665937841 -0.1369223595 0.5801629424 4294442493
-0.2666488290 -0.1363059133 0.5802827477 4294442493
-0.2667036951 -0.1356890798 0.5804021358 4294508286
-0.2667582929 -0.1350718588 0.5805209875 4294508286
-0.2668126822 -0.1344542801 0.5806393623 4294574079
-0.2668668628 -0.1338362992 0.5807572007 4294574079
-0.2669207752 -0.1332179606 0.5808745623 4294574079
-0.2669744790 -0.1325992346 0.5809914470 4294376700
-0.2670279741 -0.1319801509 0.5811078548 4294442493
-0.2670812011 -0.1313606799 0.5812237263 4294573564
-0.2667251527 -0.1305406392 0.5804488063 4294573564
-0.2671870291 -0.1301206499 0.5814539790 4294639357
-0.2672395706 -0.1295000911 0.5815683603 4294639357
-0.2672919035 -0.1288791448 0.5816822052 4294639357
-0.2673439980 -0.1282578558 0.5817955732 4294639357
-0.2673958540 -0.1276361942 0.5819084644 4294639359
-0.2674475014 -0.1270141751 0.5820208192 4294639359
-0.2674989104 -0.1263917983 0.5821326971 4294639359
-0.2675500810 -0.1257690489 0.5822440386 4294639359
-0.2676010132 -0.1251459569 0.5823548436 4294639359
-0.2676517069 -0.1245225072 0.5824652314 4294639359
-0.2677021623 -0.1238987073 0.5825750232 4294639359
-0.2677524090 -0.1232745498 0.5826843381 4294573566
-0.2678023875 -0.1226500422 0.5827931166 4294574079
-0.2678521574 -0.1220251843 0.5829014182 4294574079
-0.2679016888 -0.1213999838 0.5830091834 4294508286
-0.2675406337 -0.1205894798 0.5822234750 4294508286
-0.2680000067 -0.1201485395 0.5832232237 4294574079
-0.2680488229 -0.1195223033 0.5833294392 4294574079
-0.2680974007 -0.1188957244 0.5834351778 4294574079
-0.2681457400 -0.1182688102 0.5835403800 4294508286
-0.2681938410 -0.1176415533 0.5836450458 4294443007
-0.2686524987 -0.1171931550 0.5846431255 4294377470
-0.2687001824 -0.1165642664 0.5847469568 4294508286
-0.2691585720 -0.1161123142 0.5857445002 4294508286
-0.2692058682 -0.1154817939 0.5858473778 4294574079
-0.2692529261 -0.1148509458 0.5859497786 4294574079
-0.2692997158 -0.1142197624 0.5860516429 4294574079
-0.2697575092 -0.1137616709 0.5870478749 4294508286
-0.2698038816 -0.1131288707 0.5871487856 4294508286
-0.2698500454 -0.1124957427 0.5872492194 4294508286
-0.2698959410 -0.1118622944 0.5873491168 4294639359
-0.2699415982 -0.1112285256 0.5874484777 4294639359
-0.2699870169 -0.1105944291 0.5875473619 4294639359
-0.2700321972 -0.1099600196 0.5876456499 4294639359
-0.2700771093 -0.1093252897 0.5877434015 4294639359
-0.2697100341 -0.1085245535 0.5869445801 4294573566
-0.2697544098 -0.1078901663 0.5870411396 4294508284
-0.2697985172 -0.1072554588 0.5871371627 4294508284
-0.2698424160 -0.1066204458 0.5872326493 4294508284
-0.2698860466 -0.1059851199 0.5873275995 4294508284
-0.2699294090 -0.1053494886 0.5874220133 4294508284
-0.2699725628 -0.1047135592 0.5875158906 4294508284
-0.2704276741 -0.1042362154 0.5885063410 4294508284
-0.2704703808 -0.1035986990 0.5885992646 4294508284
-0.2705128491 -0.1029608846 0.5886916518 4294508284
-0.2705550492 -0.1023227647 0.5887835026 4294508284
-0.2705970109 -0.1016843542 0.5888748169 4294508284
-0.2706387341 -0.1010456458 0.5889655948 4294508284
-0.2706801891 -0.1004066393 0.5890558362 4294508284
-0.2707214057 -0.0997673422 0.5891454816 4294508284
-0.2707623541 -0.0991277546 0.5892345905 4294442491
-0.2708030641 -0.0984878764 0.5893232226 4294442491
-0.2708435059 -0.0978477150 0.5894112587 4294573564
-0.2708837092 -0.0972072631 0.5894987583 4294573564
-0.2709236741 -0.0965665281 0.5895856619 4294573566
-0.2709633708 -0.0959255099 0.5896720886 4294573566
-0.2710027993 -0.0952842087 0.5897579193 4294573566
-0.2710420191 -0.0946426317 0.5898432136 4294573566
-0.2710809410 -0.0940007791 0.5899279714 4294508284
-0.2715329230 -0.0935009569 0.5909115076 4294574077
-0.2715713978 -0.0928575769 0.5909953117 4294508284
-0.2716096342 -0.0922139212 0.5910785198 4294442491
-0.2716476321 -0.0915699899 0.5911611319 4294442493
-0.2716853321 -0.0909257904 0.5912432671 4294442493
-0.2717228234 -0.0902813300 0.5913248062 4294442493
-0.2717600167 -0.0896365941 0.5914057493 4294442493
-0.2717969716 -0.0889916047 0.5914861560 4294508284
-0.2718336880 -0.0883463472 0.5915660262 4294508284
-0.2714563012 -0.0875673443 0.5907447934 4294442493
-0.2714924216 -0.0869225487 0.5908234119 4294442493
-0.2719422281 -0.0864090174 0.5918022394 4294442493
-0.2723918557 -0.0858932659 0.5927807689 4294442493
-0.2720133066 -0.0851161927 0.5919569135 4294442493
-0.2720484436 -0.0844693929 0.5920334458 4294442493
-0.2720833421 -0.0838223547 0.5921093225 4294442493
-0.2721179724 -0.0831750631 0.5921847224 4294442493
-0.2717380822 -0.0824019089 0.5913580656 4294376700
-0.2717721462 -0.0817551166 0.5914321542 4294376700
-0.2722202837 -0.0812317207 0.5924074054 4294376700
-0.2722538710 -0.0805834532 0.5924804807 4294376700
-0.2722872198 -0.0799349472 0.5925530195 4294442493
-0.2723202705 -0.0792862102 0.5926249623 4294442493
-0.2723530829 -0.0786372349 0.5926963687 4294442493
-0.2728002071 -0.0781067237 0.5936694145 4294442493
-0.2732471824 -0.0775740072 0.5946421027 4294376700
-0.2732793093 -0.0769223571 0.5947120190 4294376700
-0.2733111382 -0.0762704760 0.5947813392 4294376700
-0.2733427286 -0.0756183714 0.5948500633 4294442493
-0.2733740509 -0.0749660432 0.5949182510 4294376700
-0.2734051347 -0.0743134916 0.5949858427 4294442493
-0.2734359205 -0.0736607090 0.5950528383 4294442493
-0.2734664381 -0.0730077177 0.5951192975 4294442493
-0.2730816901 -0.0722447112 0.5942819715 4294376700
-0.2731116414 -0.0715922713 0.5943471789 4294376700
-0.2731413543 -0.0709396228 0.5944117904 4294376700
-0.2735859156 -0.0703935772 0.5953792930 4294442493
-0.2740303278 -0.0698453337 0.5963463783 4294442493
-0.2740592957 -0.0691900700 0.5964094400 4294442493
-0.2740879953 -0.0685345978 0.5964719653 4294442493
-0.2741164565 -0.0678789169 0.5965338349 4294442493
-0.2741446197 -0.0672230348 0.5965951681 4294442493
-0.2737571299 -0.0664660931 0.5957518816 4294442493
-0.2737847269 -0.0658107996 0.5958119631 4294442493
-0.2738120556 -0.0651553124 0.5958713889 4294442493
-0.2738391161 -0.0644996315 0.5959302783 4294442493
-0.2738659084 -0.0638437569 0.5959886312 4294442493
-0.2738924325 -0.0631876960 0.5960463285 4294442493
-0.2739186883 -0.0625314340 0.5961034894 4294442493
-0.2739446759 -0.0618749931 0.5961600542 4294442493
-0.2739703953 -0.0612183623 0.5962160230 4294442493
-0.2575860023 -0.1944253445 0.5619183779 4291810271
-0.2576603889 -0.1938569695 0.5620806217 4291744478
-0.2577345669 -0.1932881027 0.5622424483 4291744478
-0.2578085959 -0.1927187443 0.5624039769 4291744478
-0.2574844956 -0.1918523759 0.5616968870 4291678685
-0.2575580478 -0.1912829131 0.5618573427 4291678685
-0.2576314211 -0.1907129735 0.5620174408 4291678685
-0.2577046454 -0.1901425421 0.5621771216 4291744478
-0.2581760883 -0.1898646355 0.5632055998 4291876064
-0.2582490444 -0.1892923564 0.5633647442 4291941857
-0.2583218217 -0.1887195855 0.5635235310 4292205029
-0.2587931752 -0.1884366870 0.5645517707 4292270822
-0.2584668398 -0.1875725985 0.5638398528 4292402408
-0.2589380741 -0.1872869581 0.5648678541 4292468201
-0.2594093084 -0.1869990677 0.5658958554 4292468201
-0.2594814301 -0.1864221096 0.5660531521 4292402408
-0.2595533431 -0.1858446747 0.5662100315 4292270822
-0.2596250772 -0.1852667630 0.5663665533 4292205029
-0.2596966028 -0.1846883744 0.5665225983 4292139235
-0.2597679794 -0.1841095090 0.5666782856 4292073442
-0.2598391473 -0.1835301667 0.5668335557 4291941856
-0.2599101663 -0.1829503477 0.5669884086 4291876063
-0.2599809468 -0.1823700517 0.5671429038 4291941856
-0.2600515783 -0.1817892790 0.5672969818 4292073442
-0.2601220012 -0.1812080443 0.5674505830 4292270821
-0.2605925500 -0.1809042096 0.5684770942 4292336614
-0.2606627047 -0.1803211272 0.5686301589 4292402407
-0.2607326806 -0.1797375828 0.5687828064 4292533993
-0.2608024776 -0.1791535616 0.5689350367 4292731370
-0.2608720660 -0.1785690784 0.5690868497 4292928749
-0.2605406642 -0.1777107120 0.5683638453 4293191921
-0.2610107064 -0.1773986965 0.5693892241 4293323507
-0.2610797286 -0.1768128127 0.5695398450 4293389300
-0.2611485422 -0.1762264520 0.5696899891 4293520886
-0.2612171769 -0.1756396443 0.5698397160 4293520886
-0.2612856328 -0.1750523597 0.5699890256 4293389300
-0.2613538802 -0.1744646281 0.5701379180 4293389300
-0.2614219487 -0.1738764346 0.5702863932 4293323507
-0.2614898086 -0.1732877791 0.5704343915 4293126128
-0.2615574896 -0.1726986617 0.5705820322 4292994542
-0.2616249621 -0.1721090823 0.5707291961 4292928749
-0.2616922259 -0.1715190560 0.5708760023 4292928749
-0.2621614039 -0.1711911410 0.5718994737 4292665577
-0.2622283697 -0.1705992967 0.5720455647 4292599784
-0.2622951567 -0.1700070053 0.5721912980 4292533991
-0.2623617649 -0.1694142520 0.5723365545 4292468198
-0.2624281347 -0.1688210517 0.5724813938 4292533993
-0.2624943256 -0.1682274044 0.5726257563 4292533993
-0.2625603080 -0.1676333100 0.5727697015 4292533993
-0.2626261115 -0.1670387685 0.5729132295 4292533993
-0.2626917064 -0.1664437801 0.5730563402 4292468200
-0.2627570927 -0.1658483446 0.5731989741 4292402407
-0.2624191642 -0.1649990082 0.5724617839 4292402407
-0.2624840438 -0.1644036025 0.5726033449 4292336614
-0.2625487149 -0.1638077497 0.5727444291 4292139235
-0.2626132071 -0.1632114649 0.5728850961 4291941856
-0.2626774907 -0.1626147330 0.5730252862 4291876063
-0.2627415359 -0.1620175689 0.5731650591 4291810270
-0.2628054023 -0.1614199728 0.5733043551 4291941856
-0.2628690600 -0.1608219296 0.5734432340 4292007649
-0.2629325092 -0.1602234691 0.5735816956 4292073442
-0.2629957795 -0.1596245617 0.5737196207 4292205028
-0.2630588114 -0.1590252221 0.5738571882 4292336614
-0.2627174556 -0.1581820995 0.5731124878 4292402407
-0.2627799809 -0.1575828344 0.5732489228 4292468198
-0.2628422976 -0.1569831371 0.5733848810 4292599784
-0.2629044354 -0.1563830078 0.5735203624 4292665577
-0.2629663348 -0.1557824612 0.5736554265 4292599784
-0.2630280256 -0.1551814824 0.5737900138 4292599784
-0.2630895078 -0.1545800865 0.5739241242 4292797163
-0.2631507814 -0.1539782733 0.5740578175 4293192175
-0.2632118464 -0.1533760428 0.5741910338 4293652726
-0.2628676593 -0.1525383443 0.5734401941 4294113277
-0.2629282176 -0.1519362032 0.5735722780 4294508031
-0.2629885375 -0.1513336450 0.5737038851 4294508031
-0.2630486786 -0.1507306695 0.5738350749 4294508031
-0.2631085813 -0.1501272768 0.5739657283 4294376447
-0.2631682754 -0.1495234817 0.5740959644 4294376447
-0.2632277608 -0.1489192694 0.5742257237 4294376447
-0.2632870376 -0.1483146548 0.5743550062 4294442239
-0.2633460760 -0.1477096230 0.5744838715 4294376446
-0.2634049356 -0.1471041888 0.5746122003 4294376446
-0.2630575895 -0.1462726295 0.5738545060 4294376447
-0.2631159127 -0.1456673145 0.5739817619 4294376447
-0.2631740272 -0.1450616121 0.5741084814 4294442239
-0.2636381388 -0.1446784288 0.5751209259 4294442239
-0.2636958957 -0.1440709829 0.5752469301 4294442239
-0.2637534142 -0.1434631348 0.5753724575 4294442239
-0.2638107538 -0.1428548992 0.5754975080 4294573823
-0.2642744184 -0.1424654424 0.5765089989 4294573823
-0.2643314004 -0.1418554783 0.5766332746 4294442239
-0.2643881440 -0.1412451118 0.5767570734 4294442239
-0.2644446790 -0.1406343579 0.5768803954 4294311423
-0.2645009756 -0.1400232017 0.5770032406 4294377215
-0.2645570636 -0.1394116729 0.5771256089 4294377470
-0.2646129429 -0.1387997419 0.5772474408 4294377470
-0.2646685839 -0.1381874382 0.5773688555 4294443007
-0.2647239864 -0.1375747323 0.5774897337 4294377470
-0.2647791803 -0.1369616538 0.5776101351 4294443007
-0.2652415931 -0.1365579665 0.5786188841 4294443007
-0.2652964294 -0.1359431744 0.5787385106 4294377470
-0.2653510571 -0.1353279948 0.5788576007 4294377470
-0.2654054165 -0.1347124577 0.5789762735 4294377470
-0.2654595971 -0.1340965331 0.5790944099 4294377470
-0.2655135095 -0.1334802210 0.5792120695 4294508286
-0.2655672133 -0.1328635514 0.5793291926 4294508286
-0.2656207085 -0.1322464943 0.5794458389 4294508284
-0.2656739354 -0.1316290647 0.5795620084 4294508284
-0.2657269537 -0.1310112774 0.5796777010 4294508284
-0.2653715014 -0.1301928163 0.5789022446 4294442491
-0.2654239833 -0.1295752376 0.5790167451 4294442491
-0.2658846676 -0.1291556805 0.5800216794 4294508284
-0.2659367621 -0.1285364181 0.5801353455 4294574077
-0.2659886479 -0.1279167980 0.5802485347 4294574077
-0.2660402656 -0.1272968054 0.5803611875 4294507773
-0.2660917044 -0.1266764700 0.5804733038 4294507773
-0.2661428750 -0.1260557622 0.5805850029 4294573566
-0.2661938071 -0.1254346967 0.5806961060 4294573566
-0.2662445307 -0.1248132735 0.5808067322 4294442493
-0.2662950158 -0.1241915002 0.5809168816 4294442493
-0.2663452625 -0.1235693768 0.5810264945 4294508286
-0.2663953006 -0.1229468957 0.5811356306 4294442493
-0.2664450705 -0.1223240718 0.5812442303 4294508286
-0.2664946318 -0.1217008904 0.5813522935 4294508286
-0.2665439248 -0.1210773662 0.5814598799 4294377470
-0.2661834955 -0.1202684715 0.5806736350 4294377470
-0.2666418552 -0.1198292896 0.5816735029 4294377470
-0.2666904628 -0.1192047298 0.5817795396 4294377470
-0.2667388320 -0.1185798347 0.5818850398 4294377470
-0.2667869627 -0.1179546043 0.5819900632 4294377470
-0.2668348551 -0.1173290312 0.5820945501 4294508286
-0.2672924697 -0.1168823913 0.5830928087 4294508286
-0.2677499950 -0.1164334863 0.5840908885 4294508286
-0.2677973211 -0.1158049852 0.5841941237 4294508286
-0.2678444088 -0.1151761562 0.5842968822 4294508286
-0.2678912580 -0.1145469919 0.5843990445 4294508286
-0.2679378688 -0.1139174998 0.5845007300 4294508286
-0.2683946192 -0.1134611666 0.5854971409 4294508286
-0.2684408128 -0.1128300503 0.5855979323 4294574079
-0.2684867680 -0.1121986136 0.5856981277 4294574079
-0.2685324848 -0.1115668491 0.5857978463 4294573566
-0.2685779631 -0.1109347716 0.5858970284 4294573566
-0.2686231732 -0.1103023663 0.5859957337 4294573566
-0.2686681449 -0.1096696481 0.5860938430 4294573566
-0.2687129080 -0.1090366021 0.5861914158 4294573566
-0.2683464587 -0.1082374975 0.5853920579 4294573566
-0.2683906257 -0.1076048017 0.5854884386 4294508286
-0.2684345543 -0.1069717854 0.5855842829 4294508286
-0.2684782445 -0.1063384637 0.5856795907 4294508286
-0.2685216963 -0.1057048365 0.5857743621 4294508286
-0.2681536078 -0.1049099937 0.5849713683 4294508286
-0.2681965232 -0.1042767242 0.5850649476 4294508286
-0.2682391405 -0.1036431566 0.5851579905 4294508286
-0.2686930299 -0.1031672731 0.5861480832 4294508286
-0.2687352300 -0.1025321260 0.5862401724 4294508286
-0.2687771916 -0.1018966809 0.5863317251 4294442493
-0.2688189149 -0.1012609378 0.5864227414 4294442493
-0.2688603997 -0.1006248966 0.5865131617 4294442493
-0.2689016163 -0.0999885723 0.5866031051 4294442493
-0.2689425945 -0.0993519425 0.5866925120 4294442493
-0.2689833045 -0.0987150371 0.5867813230 4294442493
-0.2690237761 -0.0980778337 0.5868695974 4294442493
-0.2690640092 -0.0974403471 0.5869573355 4294573566
-0.2695160806 -0.0969508141 0.5879435539 4294507773
-0.2695558667 -0.0963117853 0.5880303383 4294507773
-0.2695953846 -0.0956724659 0.5881165862 4294507773
-0.2696346641 -0.0950328708 0.5882022381 4294573566
-0.2692613602 -0.0942486674 0.5873878598 4294573566
-0.2697124779 -0.0937528461 0.5883719921 4294508286
-0.2701634467 -0.0932547897 0.5893557668 4294442493
-0.2702017725 -0.0926131159 0.5894393921 4294442493
-0.2702398598 -0.0919711590 0.5895224810 4294442493
-0.2702776790 -0.0913289413 0.5896049738 4294442493
-0.2703152299 -0.0906864479 0.5896869302 4294442493
-0.2703525424 -0.0900436863 0.5897682905 4294442493
-0.2703895867 -0.0894006640 0.5898491144 4294442493
-0.2704263926 -0.0887573808 0.5899294019 4294311677
-0.2704629302 -0.0881138295 0.5900090933 4294311677
-0.2700862586 -0.0873364806 0.5891873837 4294442493
-0.2701222301 -0.0866933912 0.5892658234 4294442493
-0.2701579332 -0.0860500559 0.5893437862 4294442493
-0.2701933980 -0.0854064599 0.5894211531 4294442493
-0.2706418037 -0.0848922208 0.5903992653 4294442493
-0.2706767917 -0.0842471421 0.5904756188 4294442493
-0.2707115412 -0.0836018100 0.5905514359 4294442493
-0.2703326643 -0.0828295797 0.5897249579 4294376700
-0.2703668475 -0.0821847394 0.5897994637 4294442493
-0.2704007626 -0.0815396532 0.5898734927 4294376700
-0.2708479166 -0.0810180232 0.5908489227 4294376700
-0.2708813846 -0.0803714693 0.5909219384 4294376700
-0.2709145546 -0.0797246844 0.5909942985 4294376700
-0.2705338299 -0.0789569244 0.5901637673 4294376700
-0.2709801495 -0.0784303918 0.5911374092 4294310907
-0.2710125446 -0.0777828991 0.5912081003 4294310907
-0.2718723118 -0.0773706958 0.5930836797 4294245884
-0.2719042897 -0.0767207667 0.5931534171 4294245884
-0.2719360292 -0.0760705993 0.5932226181 4294245884
-0.2719674706 -0.0754202083 0.5932912230 4294245884
-0.2719986737 -0.0747695938 0.5933592916 4294245884
-0.2720296085 -0.0741187558 0.5934267640 4294245884
-0.2720602751 -0.0734677017 0.5934936404 4294245884
-0.2720906734 -0.0728164241 0.5935599804 4294311677
-0.2717066109 -0.0720550865 0.5927221775 4294245884
-0.2717364430 -0.0714043677 0.5927872658 4294245884
-0.2721802890 -0.0708612949 0.5937554836 4294245884
-0.2722096443 -0.0702091604 0.5938194990 4294311677
-0.2722387016 -0.0695568100 0.5938829184 4294311677
-0.2722675204 -0.0689042583 0.5939458013 4294311677
-0.2722960711 -0.0682514980 0.5940080881 4294311677
-0.2723243535 -0.0675985292 0.5940697789 4294311677
-0.2723523676 -0.0669453666 0.5941308737 4294442493
-0.2723801136 -0.0662919953 0.5941914320 4294442493
-0.2724076211 -0.0656384304 0.5942513943 4294442493
-0.2724348307 -0.0649846643 0.5943107605 4294442493
-0.2728764713 -0.0644286200 0.5952742100 4294442493
-0.2724884450 -0.0636765510 0.5944277644 4294442493
-0.2725148797 -0.0630222112 0.5944853425 4294442493
-0.2725410163 -0.0623676777 0.5945423841 4294442493
-0.2725668848 -0.0617129579 0.5945988297 4294442493
-0.2721776068 -0.0609651171 0.5937496424 4294442493
-0.2562668324 -0.1938994229 0.5603983402 4292402408
-0.2563408613 -0.1933326274 0.5605602860 4292402408
-0.2564147413 -0.1927653402 0.5607218742 4292402408
-0.2564884424 -0.1921975762 0.5608830452 4292468201
-0.2565619648 -0.1916293055 0.5610437989 4292665580
-0.2566353381 -0.1910605580 0.5612041950 4292797166
-0.2567085028 -0.1904913187 0.5613642335 4292862959
-0.2567814887 -0.1899215877 0.5615238547 4292928752
-0.2572519183 -0.1896445006 0.5625525713 4292994545
-0.2573246956 -0.1890729219 0.5627116561 4293060338
-0.2569994330 -0.1882095039 0.5620003939 4292994545
-0.2570717037 -0.1876378506 0.5621584654 4292928752
-0.2571438253 -0.1870657057 0.5623161793 4292862959
-0.2576138973 -0.1867817640 0.5633441806 4292665580
-0.2576857805 -0.1862077862 0.5635012984 4292533994
-0.2581558228 -0.1859202236 0.5645292401 4292402408
-0.2582274377 -0.1853443831 0.5646858215 4292336615
-0.2582988441 -0.1847680658 0.5648419857 4292270822
-0.2583701015 -0.1841912717 0.5649977326 4292533993
-0.2584411502 -0.1836140007 0.5651531219 4292599786
-0.2585120201 -0.1830362529 0.5653080940 4292665579
-0.2585827112 -0.1824580282 0.5654627085 4292731372
-0.2586531937 -0.1818793416 0.5656168461 4292928751
-0.2587235272 -0.1813001633 0.5657706261 4293060337
-0.2587936521 -0.1807205230 0.5659239888 4293126130
-0.2592630684 -0.1804184169 0.5669505000 4293191923
-0.2589333355 -0.1795598418 0.5662294626 4293126130
-0.2594026029 -0.1792549938 0.5672556162 4293126130
-0.2594720721 -0.1786725670 0.5674075484 4293060335
-0.2595413923 -0.1780896932 0.5675591230 4292994542
-0.2596104741 -0.1775063425 0.5677102208 4292928749
-0.2600795329 -0.1771951318 0.5687358975 4292665577
-0.2601483464 -0.1766099632 0.5688863993 4292402405
-0.2598166466 -0.1757535040 0.5681610703 4292270819
-0.2598850131 -0.1751683056 0.5683104992 4292073440
-0.2599531412 -0.1745826453 0.5684595704 4291941854
-0.2600210905 -0.1739965230 0.5686081648 4291810268
-0.2600888610 -0.1734099388 0.5687563419 4291744475
-0.2601564527 -0.1728228927 0.5689041018 4291678682
-0.2602238059 -0.1722353846 0.5690514445 4291678682
-0.2606920600 -0.1719119102 0.5700753927 4291678682
-0.2607591450 -0.1713225991 0.5702220798 4291678682
-0.2608260512 -0.1707328260 0.5703683496 4291744475
-0.2608927488 -0.1701426059 0.5705142021 4291810268
-0.2609592378 -0.1695519239 0.5706596375 4291876061
-0.2610255480 -0.1689607948 0.5708045959 4291941854
-0.2610916495 -0.1683692187 0.5709491968 4291941856
-0.2611575425 -0.1677771956 0.5710933208 4292073442
-0.2612232566 -0.1671847254 0.5712369680 4292139235
-0.2612887621 -0.1665918082 0.5713801980 4292139235
-0.2613540590 -0.1659984440 0.5715230107 4292139233
-0.2614191771 -0.1654046327 0.5716654062 4292007647
-0.2614840567 -0.1648103744 0.5718073249 4291941856
-0.2615487576 -0.1642156839 0.5719488263 4291941856
-0.2616132796 -0.1636205465 0.5720898509 4291876063
-0.2616775632 -0.1630249619 0.5722304583 4291876063
-0.2617416680 -0.1624289602 0.5723706484 4291941854
-0.2618055642 -0.1618324965 0.5725103617 4291876061
-0.2618692517 -0.1612356156 0.5726495981 4291876061
-0.2619327307 -0.1606382877 0.5727884173 4291876061
-0.2619960010 -0.1600405425 0.5729268193 4291876061
-0.2616558969 -0.1591970474 0.5721830726 4291876061
-0.2617186606 -0.1585993469 0.5723203421 4292007647
-0.2613778710 -0.1577577740 0.5715751052 4292073440
-0.2618435919 -0.1574026644 0.5725935102 4292139487
-0.2615021765 -0.1565620750 0.5718469620 4292271073
-0.2615640163 -0.1559635848 0.5719822049 4292600038
-0.2616256773 -0.1553646773 0.5721169710 4292863210
-0.2616870999 -0.1547653377 0.5722513199 4293323759
-0.2617483139 -0.1541655958 0.5723851919 4293850103
-0.2618093193 -0.1535654217 0.5725185871 4294244861
-0.2618701160 -0.1529648155 0.5726515651 4294442239
-0.2619307041 -0.1523638070 0.5727840662 4294508031
-0.2623954117 -0.1519965827 0.5738002062 4294573823
-0.2624556720 -0.1513938159 0.5739319921 4294639615
-0.2621112168 -0.1505582780 0.5731787682 4294574079
-0.2621709704 -0.1499556154 0.5733094215 4294574079
-0.2622304857 -0.1493525356 0.5734395981 4294639615
-0.2622898221 -0.1487490386 0.5735693574 4294639614
-0.2623489201 -0.1481451392 0.5736985803 4294574077
-0.2624078095 -0.1475408375 0.5738273859 4294442491
-0.2620614469 -0.1467093676 0.5730699301 4294508284
-0.2621198297 -0.1461051852 0.5731976032 4294573823
-0.2625831962 -0.1457254738 0.5742108822 4294508031
-0.2626412213 -0.1451195478 0.5743377805 4294508031
-0.2626990378 -0.1445132196 0.5744642019 4294508031
-0.2627566457 -0.1439065039 0.5745901465 4294311423
-0.2628140152 -0.1432993710 0.5747156739 4294377215
-0.2628711760 -0.1426918507 0.5748406649 4294377215
-0.2629281282 -0.1420839429 0.5749651790 4294311423
-0.2629848421 -0.1414756179 0.5750892162 4294377470
-0.2630413771 -0.1408669204 0.5752127767 4294311677
-0.2630976439 -0.1402578205 0.5753358603 4294377470
-0.2631537020 -0.1396483332 0.5754584670 4294377470
-0.2632095516 -0.1390384585 0.5755805969 4294377470
-0.2632651925 -0.1384281963 0.5757022500 4294377470
-0.2633205950 -0.1378175467 0.5758234262 4294443005
-0.2633757889 -0.1372065097 0.5759440660 4294377468
-0.2634307444 -0.1365951002 0.5760642290 4294377215
-0.2634854615 -0.1359833032 0.5761839747 4294377215
-0.2639466822 -0.1355800331 0.5771925449 4294311935
-0.2640010417 -0.1349665225 0.5773113966 4294246143
-0.2640551925 -0.1343526393 0.5774298310 4294311423
-0.2641091347 -0.1337383837 0.5775477290 4294377215
-0.2641628385 -0.1331237406 0.5776652098 4294377470
-0.2642163038 -0.1325087398 0.5777820945 4294377470
-0.2642695606 -0.1318933517 0.5778985620 4294443007
-0.2643225789 -0.1312776059 0.5780144930 4294443007
-0.2639680207 -0.1304601431 0.5772391558 4294377470
-0.2640205026 -0.1298446059 0.5773539543 4294377470
-0.2640727460 -0.1292286962 0.5774682164 4294311677
-0.2641247809 -0.1286124289 0.5775820017 4294311677
-0.2641765773 -0.1279957891 0.5776952505 4294377468
-0.2642281651 -0.1273787916 0.5778080225 4294377468
-0.2642794847 -0.1267614365 0.5779203176 4294508031
-0.2643306255 -0.1261437088 0.5780320764 4294508031
-0.2643814981 -0.1255256385 0.5781433582 4294508031
-0.2648402154 -0.1250999570 0.5791465044 4294508031
-0.2648907304 -0.1244802177 0.5792568922 4294442239
-0.2649409771 -0.1238601208 0.5793668628 4294442239
-0.2649910152 -0.1232396737 0.5794762373 4294377215
-0.2654491961 -0.1228078157 0.5804781914 4294377215
-0.2650904059 -0.1219977289 0.5796935558 4294311677
-0.2651397288 -0.1213762313 0.5798014402 4294377470
-0.2651888430 -0.1207543910 0.5799088478 4294377470
-0.2652377188 -0.1201322079 0.5800157189 4294311677
-0.2652863264 -0.1195096746 0.5801220536 4294311677
-0.2653347254 -0.1188868061 0.5802279115 4294311677
-0.2653829157 -0.1182635948 0.5803332329 4294311677
-0.2662487924 -0.1180025712 0.5822267532 4294311677
-0.2662966251 -0.1173767596 0.5823313594 4294508286
-0.2663442492 -0.1167506129 0.5824354291 4294442493
-0.2663916051 -0.1161241308 0.5825390220 4294508286
-0.2668479979 -0.1156747341 0.5835370421 4294508286
-0.2668949664 -0.1150466278 0.5836397409 4294508286
-0.2669416666 -0.1144181862 0.5837419033 4294508286
-0.2669881582 -0.1137894168 0.5838435292 4294508286
-0.2670344114 -0.1131603196 0.5839446783 4294508286
-0.2670803964 -0.1125308946 0.5840452313 4294574079
