VERSION 0.7
FIELDS x y z rgba
SIZE 4 4 4 4
TYPE F F F U
COUNT 1 1 1 1
WIDTH 920
HEIGHT 1
VIEWPOINT 0.0 0.0 0.0 1.0 0.0 0.0 0.0
POINTS 920
DATA ascii
-0.2865890265 -0.1440110058 0.5699505210 4283320394
-0.2866500020 -0.1434082538 0.5700718164 4283057222
-0.2862723768 -0.1425867677 0.5693207979 4282925636
-0.2863328159 -0.1419841796 0.5694409609 4283123015
-0.2863930166 -0.1413812190 0.5695607066 4283254601
-0.2864529788 -0.1407778710 0.5696799755 4283123015
-0.2860739529 -0.1399594843 0.5689262152 4282794050
-0.2856945395 -0.1391425729 0.5681716204 4282794050
-0.2857536376 -0.1385399401 0.5682891607 4282991429
-0.2858124971 -0.1379369348 0.5684062243 4283320394
-0.2858711183 -0.1373335719 0.5685228109 4283517773
-0.2859295309 -0.1367298216 0.5686389804 4283649359
-0.2855483890 -0.1359166056 0.5678809881 4283780947
-0.2856062353 -0.1353130639 0.5679960251 4283846740
-0.2861033082 -0.1349163800 0.5689845681 4283781204
-0.2861607969 -0.1343111694 0.5690988898 4283583825
-0.2862180173 -0.1337056011 0.5692126751 4283781204
-0.2862749994 -0.1330996603 0.5693259835 4286281338
-0.2867715955 -0.1326968819 0.5703135729 4288189335
-0.2868281901 -0.1320892870 0.5704261661 4288847265
-0.2868845463 -0.1314813346 0.5705382824 4288716451
-0.2873807847 -0.1310737580 0.5715250969 4289900725
-0.2878769338 -0.1306639463 0.5725118518 4292729569
-0.2879327536 -0.1300530583 0.5726228356 4293255913
-0.2884286940 -0.1296397448 0.5736091137 4293190633
-0.2889245450 -0.1292241961 0.5745952725 4293190633
-0.2889798284 -0.1286103725 0.5747051835 4293256428
-0.2894754410 -0.1281913221 0.5756908655 4293322221
-0.2895303071 -0.1275758594 0.5757999420 4292730084
-0.2900257111 -0.1271532923 0.5767851472 4292269533
-0.2905210257 -0.1267285049 0.5777702332 4292271071
-0.2910162508 -0.1263014972 0.5787550807 4293126380
-0.3149248958 -0.1676664203 0.6276896596 4292072664
-0.3141228557 -0.1665437669 0.6260910630 4291019202
-0.3124474287 -0.1649635583 0.6227516532 4291084995
-0.3072791696 -0.1615543813 0.6124505997 4291545030
-0.2994888723 -0.1567953527 0.5969234705 4291545030
-0.2938782573 -0.1532071531 0.5857406855 4290820794
-0.2913222313 -0.1512294859 0.5806462169 4290031278
-0.2896385789 -0.1497140527 0.5772904158 4289504936
-0.2879539132 -0.1482055783 0.5739326477 4287267974
-0.2871423364 -0.1471520066 0.5723150969 4285688944
-0.2867673337 -0.1463247687 0.5715676546 4284438877
-0.2868291438 -0.1457211077 0.5716907978 4283320907
-0.2864533961 -0.1448958516 0.5709418654 4282926149
-0.2860772312 -0.1440720558 0.5701921582 4282794563
-0.2857006192 -0.1432497054 0.5694415569 4283189321
-0.2857612371 -0.1426472813 0.5695623755 4283583566
-0.2858216166 -0.1420444548 0.5696827173 4283254601
-0.2854439914 -0.1412246525 0.5689299703 4282925636
-0.2855038047 -0.1406220049 0.5690492392 4283320394
-0.2855634093 -0.1400189698 0.5691680312 4282662464
-0.2851846814 -0.1392017305 0.5684131980 4282662464
-0.2852437496 -0.1385988742 0.5685308576 4282925636
-0.2848643064 -0.1377836615 0.5677745938 4283188808
-0.2849227786 -0.1371809840 0.5678911805 4283188808
-0.2849810421 -0.1365779340 0.5680072904 4283057222
-0.2850390673 -0.1359745264 0.5681229234 4283123015
-0.2850968540 -0.1353707314 0.5682381392 4283254601
-0.2855930924 -0.1349739134 0.5692272186 4282925638
-0.2856505215 -0.1343684644 0.5693416595 4284109912
-0.2861465514 -0.1339681298 0.5703303218 4285228650
-0.2862035930 -0.1333610266 0.5704439878 4286083959
-0.2862603664 -0.1327535510 0.5705571771 4286347131
-0.2863169312 -0.1321457177 0.5706698895 4286610303
-0.2863732278 -0.1315375417 0.5707821250 4287071626
-0.2868686318 -0.1311298013 0.5717695355 4289177002
-0.2873639464 -0.1307198405 0.5727567673 4292795362
-0.2874197066 -0.1301087141 0.5728679299 4293190120
-0.2879148126 -0.1296952367 0.5738546848 4293190633
-0.2879701853 -0.1290824711 0.5739650726 4293059047
-0.2884650528 -0.1286654770 0.5749514103 4293125099
-0.2889598310 -0.1282462627 0.5759375691 4293322478
-0.2894545496 -0.1278248280 0.5769236088 4292401376
-0.2895092070 -0.1272078305 0.5770325661 4292072411
-0.2900036871 -0.1267828941 0.5780181289 4292271070
-0.2909382284 -0.1265471578 0.5798808336 4293257965
-0.3134892285 -0.1672723591 0.6262143850 4292072664
-0.3126884997 -0.1661511064 0.6246148348 4291019204
-0.3110159338 -0.1645720750 0.6212738156 4291019204
-0.3067281842 -0.1616224796 0.6127087474 4291807691
-0.2993877232 -0.1570901424 0.5980457067 4291544519
-0.2933514118 -0.1532717943 0.5859878063 4291675333
-0.2908000350 -0.1512933224 0.5808912516 4291609540
-0.2891194224 -0.1497772783 0.5775341988 4291675335
-0.2874378264 -0.1482681930 0.5741751194 4291083198
-0.2866277993 -0.1472141892 0.5725569725 4290820798
-0.2862535119 -0.1463866383 0.5718092918 4290491833
-0.2863152623 -0.1457827538 0.5719326735 4289571242
-0.2859402299 -0.1449571699 0.5711835027 4288781726
-0.2855647802 -0.1441330463 0.5704335570 4288386968
-0.2851889133 -0.1433103830 0.5696827173 4288979105
-0.2848126292 -0.1424891800 0.5689311028 4288650140
-0.2848728597 -0.1418870538 0.5690513849 4285952627
-0.2849328816 -0.1412845552 0.5691712499 4283057735
-0.2845555246 -0.1404659003 0.5684175491 4282399805
-0.2846149802 -0.1398635507 0.5685362816 4282333501
-0.2842369080 -0.1390469223 0.5677810311 4282333501
-0.2842958272 -0.1384447664 0.5678986907 4282399294
-0.2847919464 -0.1380542815 0.5688897371 4282399294
-0.2848504782 -0.1374504417 0.5690066814 4282333501
-0.2849087715 -0.1368462443 0.5691230893 4282662466
-0.2849668264 -0.1362416595 0.5692390800 4283715154
-0.2850246429 -0.1356367171 0.5693545938 4284767842
-0.2850822210 -0.1350313872 0.5694696307 4286873218
-0.2851395905 -0.1344257146 0.5695841908 4289439145
-0.2856347859 -0.1340252310 0.5705733895 4290228918
-0.2856917679 -0.1334178895 0.5706871748 4288978851
-0.2857485116 -0.1328101754 0.5708005428 4288782244
-0.2858049870 -0.1322021037 0.5709133744 4289900725
-0.2862997055 -0.1317955106 0.5719015598 4290427069
-0.2863557935 -0.1311857998 0.5720136762 4291282378
-0.2868502736 -0.1307756901 0.5730014443 4292795362
-0.2869060040 -0.1301643103 0.5731127262 4292992741
-0.2874002755 -0.1297506839 0.5741000175 4293059306
-0.2874555886 -0.1291376799 0.5742105246 4292861927
-0.2879496217 -0.1287205219 0.5751973987 4293059306
-0.2884435654 -0.1283011585 0.5761840940 4293388271
-0.2889374495 -0.1278795600 0.5771706700 4292335583
-0.2894312441 -0.1274557263 0.5781570673 4292006618
-0.2899249792 -0.1270296872 0.5791432858 4292139484
-0.2904186249 -0.1266014129 0.5801293850 4293257965
-0.3120559752 -0.1668778360 0.6247374415 4292072665
-0.3108218312 -0.1655264646 0.6222666502 4291019204
-0.3095868528 -0.1641801447 0.6197941899 4291019204
-0.3053066730 -0.1612311602 0.6112253070 4291676105
-0.2984142900 -0.1569275409 0.5974267125 4291544519
-0.2932589948 -0.1535641998 0.5871058106 4291543747
-0.2889715731 -0.1506763250 0.5785223246 4291543747
-0.2907761037 -0.1509704590 0.5821350217 4291083198
-0.2869211137 -0.1483307332 0.5744173527 4291017405
-0.2861125767 -0.1472763270 0.5727986097 4291018177
-0.2857390046 -0.1464484483 0.5720507503 4290886591
-0.2853650451 -0.1456220150 0.5713020563 4290952641
-0.2849906385 -0.1447970271 0.5705525279 4291018434
-0.2850516737 -0.1441939920 0.5706747174 4291215813
-0.2846765518 -0.1433710009 0.5699236989 4291084227
-0.2847370505 -0.1427681148 0.5700448155 4291083970
-0.2847973108 -0.1421648264 0.5701654553 4290557626
-0.2844211161 -0.1413443834 0.5694123507 4288583836
-0.2844808400 -0.1407412738 0.5695318580 4286281081
-0.2845403254 -0.1401377767 0.5696509480 4284241498
-0.2841630578 -0.1393198967 0.5688956976 4283649361
-0.2842220068 -0.1387165785 0.5690136552 4283517775
-0.2842806876 -0.1381128728 0.5691311955 4284702049
-0.2843391597 -0.1375088096 0.5692482591 4286740862
-0.2843973935 -0.1369043589 0.5693648458 4288583066
-0.2844553888 -0.1362995505 0.5694809556 4290096305
-0.2845131755 -0.1356943697 0.5695965886 4291083200
-0.2845706940 -0.1350888163 0.5697118044 4292005072
-0.2846280038 -0.1344829053 0.5698264837 4292136658
-0.2846850753 -0.1338766217 0.5699407458 4292136915
-0.2847419083 -0.1332699656 0.5700545311 4291610571
-0.2852359712 -0.1328667402 0.5710436702 4291347401
-0.2852924168 -0.1322584450 0.5711566806 4291215815
-0.2857862711 -0.1318517029 0.5721454024 4291216585
-0.2858423293 -0.1312417388 0.5722575784 4291545550
-0.2858981490 -0.1306314319 0.5723693371 4292992741
-0.2863916457 -0.1302198619 0.5733573437 4292992741
-0.2864470780 -0.1296079010 0.5734682679 4293190892
-0.2869403362 -0.1291928291 0.5744557977 4292993513
-0.2874335051 -0.1287755221 0.5754431486 4293059306
-0.2879266441 -0.1283559948 0.5764303803 4293322478
-0.2884196639 -0.1279342324 0.5774174333 4291940825
-0.2889126539 -0.1275102496 0.5784043670 4291480274
-0.2894055247 -0.1270840466 0.5793911219 4291876312
-0.2898983359 -0.1266556084 0.5803777575 4293192172
-0.3101913035 -0.1662503332 0.6223883033 4291810522
-0.3093930781 -0.1651327759 0.6207866669 4291083717
-0.3081601858 -0.1637877524 0.6183128953 4291478475
-0.3043217361 -0.1610691696 0.6106112003 4291477704
-0.2974417508 -0.1567646861 0.5968067050 4291346118
-0.2927300334 -0.1536288112 0.5873528123 4291084227
-0.2884503901 -0.1507397443 0.5787658691 4291150020
-0.2902517319 -0.1510340422 0.5823801756 4290821823
-0.2868383527 -0.1486184150 0.5755313635 4290690237
-0.2860314250 -0.1475626677 0.5739122629 4291346368
-0.2856586576 -0.1467335373 0.5731643438 4291214782
-0.2852855027 -0.1459058672 0.5724156499 4291149763
-0.2849119306 -0.1450796425 0.5716660619 4291149763
-0.2845379412 -0.1442548782 0.5709156394 4291149763
-0.2845987082 -0.1436512172 0.5710375905 4291215556
-0.2842239738 -0.1428284347 0.5702856779 4291215556
-0.2838488221 -0.1420071274 0.5695329905 4291149763
-0.2834732831 -0.1411872804 0.5687794685 4291149763
-0.2839683592 -0.1408008188 0.5697728395 4291281349
-0.2835921645 -0.1399820745 0.5690180063 4291083970
-0.2836512625 -0.1393788904 0.5691366196 4290755005
-0.2837101519 -0.1387753338 0.5692547560 4290755005
-0.2833328843 -0.1379591674 0.5684977770 4291149763
-0.2833912075 -0.1373557895 0.5686148405 4291676107
-0.2834493220 -0.1367520392 0.5687313676 4292136658
-0.2835071683 -0.1361479312 0.5688474774 4292465623
-0.2835647762 -0.1355434358 0.5689630508 4292597209
-0.2836221755 -0.1349385828 0.5690782070 4292400859
-0.2836793363 -0.1343333721 0.5691929460 4292335066
-0.2837362587 -0.1337277889 0.5693071485 4291743186
-0.2842295468 -0.1333266348 0.5702968836 4290756291
-0.2842861116 -0.1327193975 0.5704103708 4289966775
-0.2847791910 -0.1323147267 0.5713996887 4289900982
-0.2848353386 -0.1317058206 0.5715124011 4290427069
-0.2853282094 -0.1312976331 0.5725013018 4291019206
-0.2853839695 -0.1306870729 0.5726131797 4292861410
-0.2854394913 -0.1300761700 0.5727246404 4293190375
-0.2859320045 -0.1296631694 0.5737127662 4293256425
-0.2859871387 -0.1290506124 0.5738233924 4293059046
-0.2864793837 -0.1286340803 0.5748111010 4293124840
-0.2869715989 -0.1282153279 0.5757986903 4293453805
-0.2874636948 -0.1277943552 0.5767861009 4292466910
-0.2883933783 -0.1275647283 0.5786514282 4292006359
-0.2888854146 -0.1271383464 0.5796387196 4292270813
-0.2893773913 -0.1267097443 0.5806258321 4293455087
-0.3087637126 -0.1658547968 0.6209075451 4291810520
-0.3079667687 -0.1647386402 0.6193049550 4291215302
-0.3067359924 -0.1633949131 0.6168299317 4291215302
-0.3033376634 -0.1609069258 0.6099960804 4291214786
-0.2973369658 -0.1570594758 0.5979289412 4291280579
-0.2926339209 -0.1539213955 0.5884714127 4291018688
-0.2896630466 -0.1517115682 0.5824971199 4291084481
-0.2875580490 -0.1499665827 0.5782641172 4291018688
-0.2863195240 -0.1486809403 0.5757734776 4291018688
-0.2855141163 -0.1476247758 0.5741538405 4291477697
-0.2851420939 -0.1467953324 0.5734057426 4291214525
-0.2847696543 -0.1459673345 0.5726567507 4291083970
-0.2843967974 -0.1451407820 0.5719069839 4291083970
-0.2840235531 -0.1443156898 0.5711563826 4291149763
-0.2840842307 -0.1437118053 0.5712784529 4291149763
-0.2837102413 -0.1428887099 0.5705263615 4291149763
-0.2833358347 -0.1420670748 0.5697734356 4291215556
-0.2833956480 -0.1414638907 0.5698937178 4291347142
-0.2830204964 -0.1406442672 0.5691393614 4291544521
-0.2830797732 -0.1400412321 0.5692585111 4291807693
-0.2831388414 -0.1394378245 0.5693773031 4291676107
-0.2831976414 -0.1388340443 0.5694955587 4291610314
-0.2828211188 -0.1380175501 0.5687384009 4291741900
-0.2828793824 -0.1374139488 0.5688555837 4292005072
-0.2829374373 -0.1368099749 0.5689722896 4292136658
-0.2829952240 -0.1362056285 0.5690885186 4292268244
-0.2830528021 -0.1356009096 0.5692042708 4292334037
-0.2831101418 -0.1349958181 0.5693195462 4292137687
-0.2831672430 -0.1343903691 0.5694344044 4292203480
-0.2832241058 -0.1337845474 0.5695487857 4292335066
-0.2837165594 -0.1333832443 0.5705390573 4291479757
-0.2837730646 -0.1327757686 0.5706526637 4291348171
-0.2838293016 -0.1321679205 0.5707657933 4291413964
-0.2843213975 -0.1317618191 0.5717553496 4290690241
-0.2843772471 -0.1311523169 0.5718677044 4291019206
-0.2848691344 -0.1307426840 0.5728568435 4292861155
-0.2849245965 -0.1301315278 0.5729683638 4293190120
-0.2854162455 -0.1297183782 0.5739570856 4293256426
-0.2854713500 -0.1291055828 0.5740678310 4293059047
-0.2859627604 -0.1286889017 0.5750560760 4293190633
-0.2864541113 -0.1282699853 0.5760441422 4293519598
-0.2869454026 -0.1278488487 0.5770320892 4292598496
-0.2878734171 -0.1276191473 0.5788983107 4292137945
-0.2883646488 -0.1271926016 0.5798860788 4292073691
-0.2892927527 -0.1269556135 0.5817524791 4293455344
-0.3069062531 -0.1652261019 0.6185538769 4291810007
-0.3065429032 -0.1643440425 0.6178215742 4291215302
-0.3057466745 -0.1632325053 0.6162167788 4291281095
-0.3019219339 -0.1605144441 0.6085082293 4291477445
-0.2967972755 -0.1571253389 0.5981797576 4291477445
-0.2925355732 -0.1542141140 0.5895904899 4291281347
-0.2874060571 -0.1508664191 0.5792521834 4291083968
-0.2892009616 -0.1511610001 0.5828697681 4290952893
-0.2858000696 -0.1487434059 0.5760154128 4291018686
-0.2849961519 -0.1476868242 0.5743951797 4291346111
-0.2846248746 -0.1468570530 0.5736468434 4291280318
-0.2842531502 -0.1460287273 0.5728976727 4291018177
-0.2838810384 -0.1452018619 0.5721476674 4291083970
-0.2835085094 -0.1443764567 0.5713968873 4291149763
-0.2831355333 -0.1435524970 0.5706452131 4291215556
-0.2831958532 -0.1429489255 0.5707667470 4291149763
-0.2828221917 -0.1421269774 0.5700136423 4291281349
-0.2828819454 -0.1415235549 0.5701341033 4291478728
-0.2825075388 -0.1407036185 0.5693794489 4291610314
-0.2825667560 -0.1401003599 0.5694988370 4291544521
-0.2821916044 -0.1392824352 0.5687427521 4291610314
-0.2822502851 -0.1386793405 0.5688610077 4291610314
-0.2823087275 -0.1380758882 0.5689787865 4291741900
-0.2823669314 -0.1374720484 0.5690960884 4291939279
-0.2824248970 -0.1368678361 0.5692129135 4292070865
-0.2824826539 -0.1362632513 0.5693293214 4292202451
-0.2825401723 -0.1356583089 0.5694452524 4292334037
-0.2825974524 -0.1350529939 0.5695607066 4292202708
-0.2826544940 -0.1344473064 0.5696756840 4292531673
-0.2827112973 -0.1338412464 0.5697901845 4292268501
-0.2832029164 -0.1334398091 0.5707809925 4289044644
-0.2832593620 -0.1328320950 0.5708947182 4287005833
-0.2833155394 -0.1322240084 0.5710079670 4286940040
-0.2833715081 -0.1316155791 0.5711207390 4287005833
-0.2838625908 -0.1312080175 0.5721105337 4289374381
-0.2843536437 -0.1307982206 0.5731002092 4292861155
-0.2844090462 -0.1301868409 0.5732119083 4293255913
-0.2848998606 -0.1297735274 0.5742011070 4293256426
-0.2849549055 -0.1291604936 0.5743120313 4293059047
-0.2854454815 -0.1287436485 0.5753007531 4293190635
-0.2859359980 -0.1283245832 0.5762893558 4293519600
-0.2868623734 -0.1280979663 0.5781564713 4292664291
-0.2873528302 -0.1276735067 0.5791448951 4292335326
-0.2878431976 -0.1272468120 0.5801331997 4292271070
-0.3059158027 -0.1650623679 0.6179409027 4291612630
-0.3051215112 -0.1639489979 0.6163364053 4290952131
-0.3043265641 -0.1628388464 0.6147307158 4291215303
-0.3013722003 -0.1605816483 0.6087629795 4291214273
-0.2971206605 -0.1576494277 0.6001749635 4291280066
-0.2928669453 -0.1547351629 0.5915825963 4291215554
-0.2868829072 -0.1509296596 0.5794950128 4291083968
-0.2891067564 -0.1514507830 0.5839871168 4290952895
-0.2857121825 -0.1490312666 0.5771301985 4290952895
-0.2849098742 -0.1479733586 0.5755095482 4291214525
-0.2841069698 -0.1469187140 0.5738877058 4291280318
-0.2837359905 -0.1460900754 0.5731383562 4291214786
-0.2833645940 -0.1452628970 0.5723881721 4291280579
-0.2829928100 -0.1444371641 0.5716370940 4291215556
-0.2826205790 -0.1436128914 0.5708852410 4291215556
-0.2826808393 -0.1430090815 0.5710069537 4291215556
-0.2823078930 -0.1421868056 0.5702536106 4291281349
-0.2819345295 -0.1413660049 0.5694994330 4291412935
-0.2824270725 -0.1409791261 0.5704943538 4291412935
-0.2820530832 -0.1401594132 0.5697388649 4291412935
-0.2821120024 -0.1395555437 0.5698579550 4291544521
-0.2817372680 -0.1387378573 0.5691009760 4291610314
-0.2817956507 -0.1381341666 0.5692189336 4291741900
-0.2818537951 -0.1375300884 0.5693363547 4291939279
-0.2819117308 -0.1369256526 0.5694533587 4292136658
-0.2819694281 -0.1363208443 0.5695698857 4292268244
-0.2820268869 -0.1357156634 0.5696859956 4292399830
-0.2820841074 -0.1351101100 0.5698015690 4292334037
-0.2821410894 -0.1345041841 0.5699166656 4292663002
-0.2821978629 -0.1338979006 0.5700313449 4292071122
-0.2826886177 -0.1334963143 0.5710226893 4288584093
-0.2827450037 -0.1328883618 0.5711365342 4286676096
-0.2828011215 -0.1322800517 0.5712499619 4286939268
-0.2828570306 -0.1316713691 0.5713629127 4287399821
-0.2833473086 -0.1312636584 0.5723531842 4289899955
-0.2838374674 -0.1308537126 0.5733433366 4292927203
-0.2838928401 -0.1302420944 0.5734551549 4293256168
-0.2843828201 -0.1298286319 0.5744448900 4293321706
-0.2844377756 -0.1292153597 0.5745559335 4293058534
-0.2849275172 -0.1287983656 0.5755451918 4293190633
-0.2854171991 -0.1283791363 0.5765343308 4293453805
-0.2863419652 -0.1281524450 0.5784023404 4292532705
-0.2868315578 -0.1277278215 0.5793913007 4292335326
-0.2877564132 -0.1274938434 0.5812594891 4292336863
-0.3040648401 -0.1644325554 0.6155830622 4291217872
-0.3037025332 -0.1635534912 0.6148495674 4290557373
-0.3024780452 -0.1622136682 0.6123706102 4291215303
-0.3003907800 -0.1604186147 0.6081449389 4291346118
-0.2965780497 -0.1577153653 0.6004259586 4291214532
-0.2927633226 -0.1550282240 0.5927030444 4291215556
-0.2867903411 -0.1512202322 0.5806106329 4291281349
-0.2894416451 -0.1519671679 0.5859782696 4291216067
-0.2851906121 -0.1490937173 0.5773719549 4291084481
-0.2843898237 -0.1480353773 0.5757507682 4291148991
-0.2840200961 -0.1472040415 0.5750022531 4291148991
-0.2836499214 -0.1463741511 0.5742528439 4291214784
-0.2828475237 -0.1453238577 0.5726283789 4291346370
-0.2824764550 -0.1444978118 0.5718771219 4291346370
-0.2825369835 -0.1438932270 0.5719996691 4291280577
-0.2821651697 -0.1430691779 0.5712469220 4291346370
-0.2822251320 -0.1424647570 0.5713683367 4291412163
-0.2814202905 -0.1414254606 0.5697389245 4291412935
-0.2819120288 -0.1410384476 0.5707344413 4291412935
-0.2815387547 -0.1402184069 0.5699787140 4291544521
-0.2815976143 -0.1396143138 0.5700979233 4291610314
-0.2816562653 -0.1390098333 0.5702166557 4291807693
-0.2812819481 -0.1381923854 0.5694587827 4291873486
-0.2813400328 -0.1375880837 0.5695764422 4292005072
-0.2813979089 -0.1369834095 0.5696935654 4292136658
-0.2814555466 -0.1363783628 0.5698102713 4292268244
-0.2815129459 -0.1357729435 0.5699264407 4292268244
-0.2815701067 -0.1351671666 0.5700421929 4292597207
-0.2816270292 -0.1345610172 0.5701574683 4292794586
-0.2821170986 -0.1341605783 0.5711495876 4292136656
-0.2821736634 -0.1335527599 0.5712640882 4289768108
-0.2822299898 -0.1329445690 0.5713781118 4288715422
-0.2822860777 -0.1323360205 0.5714917183 4289241766
-0.2827756405 -0.1319294572 0.5724828243 4289899953
-0.2832651138 -0.1315206587 0.5734738111 4291676364
-0.2833206654 -0.1309091598 0.5735862255 4293123812
-0.2833759785 -0.1302973032 0.5736982226 4293386984
-0.2838650942 -0.1298836768 0.5746884942 4293386984
-0.2839200199 -0.1292701662 0.5747996569 4293189605
-0.2844089270 -0.1288530082 0.5757894516 4293321706
-0.2853320539 -0.1286294162 0.5776582956 4293519085
-0.2858208716 -0.1282068640 0.5786479115 4292532190
-0.2863096297 -0.1277820766 0.5796374083 4292334811
-0.2872328460 -0.1275480241 0.5815064907 4292533983
-0.3026477993 -0.1640350819 0.6140950918 4290230977
-0.3022860289 -0.1631575227 0.6133610606 4289242026
-0.3010636568 -0.1618190110 0.6108807325 4290623679
-0.2994102538 -0.1602553278 0.6075258851 4291346118
-0.2956044674 -0.1575518996 0.5998036265 4291214532
-0.2922270894 -0.1550929993 0.5929506421 4291018177
-0.2888479233 -0.1526484042 0.5860941410 4291018177
-0.2863281667 -0.1506712735 0.5809813738 4291018688
-0.2850990593 -0.1493817419 0.5784873366 4291018688
-0.2842998803 -0.1483220607 0.5768657923 4291280577
-0.2835001051 -0.1472656727 0.5752429962 4291280577
-0.2831306756 -0.1464354694 0.5744934082 4291083198
-0.2827608287 -0.1456067264 0.5737429857 4291280577
-0.2823905945 -0.1447794288 0.5729916692 4291346370
-0.2820199132 -0.1439535916 0.5722395778 4291346370
-0.2820801437 -0.1433483958 0.5723617673 4291346370
-0.2817087471 -0.1425245553 0.5716081858 4291412163
-0.2813369334 -0.1417021900 0.5708537698 4291543749
-0.2813962996 -0.1410976946 0.5709742308 4291675335
-0.2810237706 -0.1402773410 0.5702183247 4291347142
-0.2810825706 -0.1396730244 0.5703376532 4291544521
-0.2811411619 -0.1390683204 0.5704565048 4291741900
-0.2811995149 -0.1384632289 0.5705749393 4291873486
-0.2808256149 -0.1376460046 0.5698162317 4291873486
-0.2808834314 -0.1370411068 0.5699335337 4292070865
-0.2809410095 -0.1364358366 0.5700503588 4292334037
-0.2809983492 -0.1358301789 0.5701667070 4292334037
-0.2814878523 -0.1354321986 0.5711599588 4292399828
-0.2815448046 -0.1348248869 0.5712755322 4292794586
-0.2816015482 -0.1342172027 0.5713906884 4292663000
-0.2820906937 -0.1338143796 0.5723832250 4292136656
-0.2821470499 -0.1332050264 0.5724975467 4292136656
-0.2822031677 -0.1325953156 0.5726114511 4292597207
-0.2822590768 -0.1319852322 0.5727248192 4292991967
-0.2831807137 -0.1317777783 0.5745949149 4293452518
-0.2832362950 -0.1311651021 0.5747076869 4293123810
-0.2832916379 -0.1305520684 0.5748199821 4293386982
-0.2833467424 -0.1299386770 0.5749318004 4293321191
-0.2838349342 -0.1295226663 0.5759223700 4293255398
-0.2843230665 -0.1291044205 0.5769128799 4293518570
-0.2848111391 -0.1286839396 0.5779031515 4293584363
-0.2852991223 -0.1282612383 0.5788933039 4292400859
-0.2857870162 -0.1278362870 0.5798833370 4292335066
-0.2867085934 -0.1276021600 0.5817532539 4292730592
-0.3012332320 -0.1636371762 0.6126054525 4289704633
-0.2995843887 -0.1620645523 0.6092522144 4287530895
-0.3005103171 -0.1618864387 0.6111353040 4288188825
-0.2980012298 -0.1598614305 0.6060326695 4290556602
-0.2946317792 -0.1573881805 0.5991803408 4291411911
-0.2916901410 -0.1551577151 0.5931980610 4291544521
-0.2887469530 -0.1529397070 0.5872126222 4291347142
-0.2862319648 -0.1509608626 0.5820980072 4291149761
-0.2845753729 -0.1494441479 0.5787290335 4291018175
-0.2837777436 -0.1483840495 0.5771068931 4291148991
-0.2829794884 -0.1473272592 0.5754835010 4290951612
-0.2826107740 -0.1464967281 0.5747337341 4291083198
-0.2822416723 -0.1456676573 0.5739830732 4291214784
-0.2818721533 -0.1448400468 0.5732315779 4291346370
-0.2815022171 -0.1440138817 0.5724792480 4291346370
-0.2815623879 -0.1434084624 0.5726016164 4291346370
-0.2811917067 -0.1425843090 0.5718477964 4291412163
-0.2808206379 -0.1417616159 0.5710932016 4291543749
-0.2813107371 -0.1413733959 0.5720898509 4291675335
-0.2805081308 -0.1403362304 0.5704576373 4291544521
-0.2805669010 -0.1397316754 0.5705771446 4291676107
-0.2806254327 -0.1391267329 0.5706961751 4291873486
-0.2806837261 -0.1385214329 0.5708147287 4291939279
-0.2807417810 -0.1379157305 0.5709328055 4292005072
-0.2803682983 -0.1370987445 0.5701732635 4292136658
-0.2804258168 -0.1364932507 0.5702902675 4292334037
-0.2804830968 -0.1358873695 0.5704067349 4292465623
-0.2809717655 -0.1354892403 0.5714005232 4292597207
-0.2810286582 -0.1348816901 0.5715162158 4292926172
-0.2810853422 -0.1342737675 0.5716314912 4293056988
-0.2815736532 -0.1338708103 0.5726245642 4293122781
-0.2816299498 -0.1332612187 0.5727390647 4293122783
-0.2816860080 -0.1326512694 0.5728530884 4293122783
-0.2817418575 -0.1320409477 0.5729665756 4293189346
-0.2826618552 -0.1318334341 0.5748375654 4293123553
-0.2827173769 -0.1312205195 0.5749505162 4293320932
-0.2827726603 -0.1306072474 0.5750629306 4293452518
-0.2832601666 -0.1301923692 0.5760543346 4293452264
-0.2833150625 -0.1295774430 0.5761659741 4293386471
-0.2838023603 -0.1291590482 0.5771569610 4293649643
-0.2842895687 -0.1287384182 0.5781477690 4293583850
-0.2847766876 -0.1283155531 0.5791384578 4292400089
-0.2856966257 -0.1280845106 0.5810092688 4292400089
-0.2861836851 -0.1276562363 0.5819998384 4292730592
-0.2993928194 -0.1630056053 0.6102410555 4290296000
-0.2990320325 -0.1621319503 0.6095055938 4286741379
-0.2978137732 -0.1607969850 0.6070224643 4285228140
-0.2961660922 -0.1592366546 0.6036641002 4286871937
-0.2936600149 -0.1572241932 0.5985560417 4289174692
-0.2907237709 -0.1549937427 0.5925711989 4290754235
-0.2856414914 -0.1516373605 0.5822122097 4291280579
-0.2878494859 -0.1521576196 0.5867126584 4291215554
-0.2840510607 -0.1495064944 0.5789704919 4291083968
-0.2832549214 -0.1484459788 0.5773477554 4291345857
-0.2824581861 -0.1473887712 0.5757238269 4291082685
-0.2820902467 -0.1465579271 0.5749738216 4291280577
-0.2817218602 -0.1457285285 0.5742229223 4291214784
-0.2813530564 -0.1449006051 0.5734712481 4291280577
-0.2809838653 -0.1440741271 0.5727187395 4291280577
-0.2810439765 -0.1434684694 0.5728412271 4291280577
-0.2806740403 -0.1426440030 0.5720872283 4291346370
-0.2803036869 -0.1418209970 0.5713323355 4291543749
-0.2803629339 -0.1412160397 0.5714530945 4291609542
-0.2799918652 -0.1403950453 0.5706967711 4291609544
-0.2800505459 -0.1397902668 0.5708163977 4291741130
-0.2801090181 -0.1391851008 0.5709356070 4291807693
-0.2801672518 -0.1385795623 0.5710542798 4291873486
-0.2802252769 -0.1379736364 0.5711725354 4292005072
-0.2798525095 -0.1371563375 0.5704127550 4292070865
-0.2799099684 -0.1365506053 0.5705298781 4292136658
-0.2799672186 -0.1359444857 0.5706465244 4292268244
-0.2804550231 -0.1355462223 0.5716407895 4292531416
-0.2805118561 -0.1349384338 0.5717566609 4292794588
-0.2805684805 -0.1343302876 0.5718721151 4292991197
-0.2810559571 -0.1339271665 0.5728656650 4293056990
-0.2811121941 -0.1333173513 0.5729802847 4292925404
-0.2811681926 -0.1327071637 0.5730944276 4292859611
-0.2812239826 -0.1320966184 0.5732081532 4293123553
-0.2817109227 -0.1316873580 0.5742006898 4293386725
-0.2821978033 -0.1312758774 0.5751930475 4293386471
-0.2826846242 -0.1308621615 0.5761852860 4293518057
-0.2827396989 -0.1302473396 0.5762975812 4293518057
-0.2832262814 -0.1298300922 0.5772894025 4293452264
-0.2837128043 -0.1294105947 0.5782810450 4293649643
-0.2841992378 -0.1289888620 0.5792725086 4293452264
-0.2846856117 -0.1285648942 0.5802638531 4292333783
-0.2851718962 -0.1281386912 0.5812550783 4292399576
-0.2856581211 -0.1277102530 0.5822461247 4292993764
-0.2979840040 -0.1626066715 0.6087475419 4291151563
-0.2976237237 -0.1617345363 0.6080115438 4289702063
-0.2964075804 -0.1604008675 0.6055271029 4288386203
-0.2947628200 -0.1588417590 0.6021670699 4286675069
-0.2922612429 -0.1568303406 0.5970566273 4286082932
-0.2897582948 -0.1548295319 0.5919433832 4287202181
-0.2851134539 -0.1517004669 0.5824545026 4289833901
-0.2873174250 -0.1522209793 0.5869569778 4291084481
-0.2839543521 -0.1497947127 0.5800865889 4291084481
-0.2831598520 -0.1487328708 0.5784634948 4291214532
-0.2823647261 -0.1476743072 0.5768392086 4291017153
-0.2819975913 -0.1468422264 0.5760891438 4291148993
-0.2812013924 -0.1457893550 0.5744625926 4291148993
-0.2808333039 -0.1449610889 0.5737106800 4291214786
-0.2808936834 -0.1443546861 0.5738340020 4291280579
-0.2805249095 -0.1435284317 0.5730805993 4291412165
-0.2805847228 -0.1429221630 0.5732027888 4291477958
-0.2802152038 -0.1420979053 0.5724478960 4291477958
-0.2798452675 -0.1412751228 0.5716921687 4291543751
-0.2799042165 -0.1406695694 0.5718126297 4291872714
-0.2795335650 -0.1398487985 0.5710554123 4291609542
-0.2795919776 -0.1392434090 0.5711747408 4291872714
-0.2796501517 -0.1386376321 0.5712935925 4292135886
-0.2797081172 -0.1380314827 0.5714120269 4292070093
-0.2797658443 -0.1374249607 0.5715299249 4292267472
-0.2793934941 -0.1366079003 0.5707692504 4292530644
-0.2798805833 -0.1362107843 0.5717643499 4292596437
-0.2799376249 -0.1356031448 0.5718808770 4292596706
-0.2799944282 -0.1349951327 0.5719968677 4292794085
-0.2800509930 -0.1343867332 0.5721124411 4292990433
-0.2805375755 -0.1339834780 0.5731065273 4292924640
-0.2805937827 -0.1333734244 0.5732213259 4293057760
-0.2806497216 -0.1327629983 0.5733355880 4292794588
-0.2811359763 -0.1323549002 0.5743289590 4292661456
-0.2811915278 -0.1317428201 0.5744424462 4293385179
-0.2816775739 -0.1313311756 0.5754354000 4293123803
-0.2821635306 -0.1309173107 0.5764281154 4293123803
-0.2822185457 -0.1303022653 0.5765405297 4293187036
-0.2827042937 -0.1298848540 0.5775328875 4293450208
-0.2831899524 -0.1294652075 0.5785250068 4294043632
-0.2836755514 -0.1290433109 0.5795170665 4294043632
-0.2841610909 -0.1286191940 0.5805088878 4293583081
-0.2846465111 -0.1281928271 0.5815005898 4293912046
-0.2855632603 -0.1279575080 0.5833733678 4293783280
-0.2970044017 -0.1624406874 0.6081261635 4291546321
-0.2966447473 -0.1615691185 0.6073897481 4291149763
-0.2954308093 -0.1602358669 0.6049042344 4290952384
-0.2933620512 -0.1584464163 0.6006683111 4290622134
-0.2912920713 -0.1566657424 0.5964300036 4288385172
-0.2887937129 -0.1546650529 0.5913145542 4287531146
-0.2867213190 -0.1529028863 0.5870711803 4289307557
-0.2850750983 -0.1513764709 0.5837005377 4290820796
-0.2834279239 -0.1498570144 0.5803279281 4290886589
-0.2826349437 -0.1487947553 0.5787042379 4291017407
-0.2818413675 -0.1477358043 0.5770793557 4291148993
-0.2814749479 -0.1469033957 0.5763291121 4291214786
-0.2811081111 -0.1460724324 0.5755780339 4291280579
-0.2807408869 -0.1452429295 0.5748261213 4291280579
-0.2803732455 -0.1444148868 0.5740733147 4291280579
-0.2804333270 -0.1438078582 0.5741963387 4291412165
-0.2800649405 -0.1429818273 0.5734421015 4291412165
-0.2796961665 -0.1421572566 0.5726869702 4291412165
-0.2797553837 -0.1415509135 0.5728082061 4291543751
-0.2793858647 -0.1407283545 0.5720516443 4291806410
-0.2794445157 -0.1401221901 0.5721717477 4291806410
-0.2795029581 -0.1395156384 0.5722914338 4292069582
-0.2795611918 -0.1389086992 0.5724106431 4292201168
-0.2796191573 -0.1383013874 0.5725293159 4292201168
-0.2796769142 -0.1376937032 0.5726475716 4292332754
-0.2793053985 -0.1368753910 0.5718868971 4292398547
-0.2793625891 -0.1362678856 0.5720040202 4292530133
-0.2798487842 -0.1358684003 0.5729994774 4292268250
-0.2799056172 -0.1352592111 0.5731158853 4292597215
-0.2799622118 -0.1346496642 0.5732317567 4292990944
-0.2800185680 -0.1340397298 0.5733471513 4292990944
-0.2805042565 -0.1336340904 0.5743415952 4293187034
-0.2805602551 -0.1330225021 0.5744562149 4292726483
-0.2806159854 -0.1324105412 0.5745703578 4292260791
-0.2811013162 -0.1320000589 0.5755640864 4292326584
-0.2811566889 -0.1313864291 0.5756774545 4292129205
-0.2816417813 -0.1309724003 0.5766707063 4291734447
-0.2816967666 -0.1303571165 0.5767832994 4291866552
-0.2821816504 -0.1299395561 0.5777761340 4293774549
-0.2826664746 -0.1295197457 0.5787687898 4294175471
-0.2831512094 -0.1290977001 0.5797613263 4294701815
-0.2836358845 -0.1286734194 0.5807536840 4293849073
-0.2845509648 -0.1284412146 0.5826273561 4293849073
-0.2850355506 -0.1280115098 0.5836195350 4293520878
-0.2955997288 -0.1620409340 0.6066296697 4291151563
-0.2952406108 -0.1611708850 0.6058926582 4291214786
-0.2940288186 -0.1598389447 0.6034058332 4291543751
-0.2923899889 -0.1582813561 0.6000425816 4291477443
-0.2903238237 -0.1565008909 0.5958024263 4290885306
-0.2882564962 -0.1547292173 0.5915598273 4290622647
-0.2861879766 -0.1529663354 0.5873148441 4291083198
-0.2845449150 -0.1514393240 0.5839428902 4291149761
-0.2829008400 -0.1499192715 0.5805689692 4291018175
-0.2825361788 -0.1490817964 0.5798205733 4291280066
-0.2817442119 -0.1480214894 0.5781953335 4291345859
-0.2809516490 -0.1469644904 0.5765688419 4291214271
-0.2805855572 -0.1461332142 0.5758175254 4291345857
-0.2802190483 -0.1453033984 0.5750653744 4291477443
-0.2798521221 -0.1444750279 0.5743123889 4291609029
-0.2794848084 -0.1436481327 0.5735585690 4291674822
-0.2795445025 -0.1430414170 0.5736811161 4291609029
-0.2791764438 -0.1422165334 0.5729258060 4291543238
-0.2792356014 -0.1416099668 0.5730472207 4291674824
-0.2792945504 -0.1410030276 0.5731681585 4291872203
-0.2789254487 -0.1401806921 0.5724106431 4291937996
-0.2789838314 -0.1395739168 0.5725304484 4292069582
-0.2790419757 -0.1389667541 0.5726498365 4292069582
-0.2790999115 -0.1383592039 0.5727686882 4292266961
-0.2791576087 -0.1377512962 0.5728870630 4292464340
-0.2787868083 -0.1369326562 0.5721261501 4292464340
-0.2788439691 -0.1363249272 0.5722434521 4292661719
-0.2793292999 -0.1359252930 0.5732394457 4293056990
-0.2793860734 -0.1353158653 0.5733559728 4292925404
-0.2794426084 -0.1347060800 0.5734719634 4292663002
-0.2794989049 -0.1340959370 0.5735875368 4292794588
-0.2799837291 -0.1336901337 0.5745825171 4293384154
-0.2800396681 -0.1330783069 0.5746972561 4292923603
-0.2800953686 -0.1324661225 0.5748115778 4291401371
-0.2805798352 -0.1320554763 0.5758057833 4290282890
-0.2806351185 -0.1314416230 0.5759192705 4290477959
-0.2806901932 -0.1308273971 0.5760322809 4290806924
-0.2811743021 -0.1304119229 0.5770257711 4291468197
-0.2816583514 -0.1299941987 0.5780190825 4294428882
-0.2821423113 -0.1295742393 0.5790122747 4294241003
-0.2826261818 -0.1291520447 0.5800053477 4294569968
-0.2831099927 -0.1287276000 0.5809982419 4293324010
-0.2840234339 -0.1284953207 0.5828727484 4293192424
-0.2849369347 -0.1282588989 0.5847474337 4293652464
-0.2946227193 -0.1618743241 0.6060059071 4291151563
-0.2938390076 -0.1607722044 0.6043938398 4291017407
-0.2926293314 -0.1594415754 0.6019057035 4291083200
-0.2914188504 -0.1581160426 0.5994158387 4291345600
-0.2893564999 -0.1563357860 0.5951738954 4291279807
-0.2872929871 -0.1545643359 0.5909294486 4291083198
-0.2839511633 -0.1521174908 0.5840556622 4291083198
-0.2857172787 -0.1524106562 0.5876883864 4291083198
-0.2823731005 -0.1499814540 0.5808097720 4291083198
-0.2815831602 -0.1489183605 0.5791850090 4291279553
-0.2812187374 -0.1480829418 0.5784353614 4291016381
-0.2808538675 -0.1472489685 0.5776848793 4290688181
-0.2800623178 -0.1461939365 0.5760567784 4290819767
-0.2796965539 -0.1453637928 0.5753044486 4291082939
-0.2793303728 -0.1445351243 0.5745512247 4291411904
-0.2793903351 -0.1439276338 0.5746746063 4291675076
-0.2790234387 -0.1431009620 0.5739198923 4291675076
-0.2786561251 -0.1422757506 0.5731643438 4291674822
-0.2787151933 -0.1416689605 0.5732859373 4291740615
-0.2787740827 -0.1410617828 0.5734069943 4291806408
-0.2788327038 -0.1404542327 0.5735276341 4291937994
-0.2784640491 -0.1396321356 0.5727692842 4292135375
-0.2785221338 -0.1390247345 0.5728887916 4292135375
-0.2785799801 -0.1384169757 0.5730078220 4292332241
-0.2786376178 -0.1378088146 0.5731263161 4292463827
-0.2786950171 -0.1372002959 0.5732443929 4292529620
-0.2787522078 -0.1365913898 0.5733619928 4292726999
-0.2788091600 -0.1359821260 0.5734791160 4292792276
-0.2788658440 -0.1353724748 0.5735957623 4293055448
-0.2789223492 -0.1347624511 0.5737119317 4292597466
-0.2789785862 -0.1341520697 0.5738276243 4292860638
-0.2794625759 -0.1337461323 0.5748231411 4293253593
-0.2795184255 -0.1331340671 0.5749380589 4292990421
-0.2795740664 -0.1325216442 0.5750524998 4291531929
-0.2800576687 -0.1321108490 0.5760472417 4290742413
-0.2805412412 -0.1316978335 0.5770418644 4291003786
-0.2805963457 -0.1310824305 0.5771551728 4291727509
-0.2806511819 -0.1304666698 0.5772680044 4292060332
-0.2811343670 -0.1300487965 0.5782618523 4294889431
-0.2816174924 -0.1296286881 0.5792555809 4294306796
-0.2821004987 -0.1292063296 0.5802491307 4294504175
-0.2825834751 -0.1287817210 0.5812425017 4293585640
-0.2834952474 -0.1285493672 0.5831179023 4293848812
-0.2932222784 -0.1614737660 0.6045063138 4291282636
-0.2928643227 -0.1606058180 0.6037684083 4291214273
-0.2916568816 -0.1592755914 0.6012790799 4291148480
-0.2904486060 -0.1579504609 0.5987881422 4291344830
-0.2888148129 -0.1564004272 0.5954199433 4291410623
-0.2871800363 -0.1548573375 0.5920496583 4291280064
-0.2834196985 -0.1521804333 0.5842973590 4291148478
-0.2851825655 -0.1524737626 0.5879316926 4291017405
-0.2822698057 -0.1502698809 0.5819267631 4291148991
-0.2814815044 -0.1492054611 0.5803015828 4291410625
-0.2806925774 -0.1481443346 0.5786751509 4290818488
-0.2803284526 -0.1473100334 0.5779244900 4289503905
-0.2799639404 -0.1464772075 0.5771729350 4289503905
-0.2791734040 -0.1454241276 0.5755432248 4289701284
-0.2792336345 -0.1448158920 0.5756673813 4290030249
-0.2788678706 -0.1439874321 0.5749133229 4290293423
-0.2789275348 -0.1433793306 0.5750363469 4290556595
-0.2785610557 -0.1425528824 0.5742807984 4290688181
-0.2781941593 -0.1417278945 0.5735243559 4290753974
-0.2782529593 -0.1411204934 0.5736456513 4290819513
-0.2778853178 -0.1402975172 0.5728877187 4291280064
-0.2779435813 -0.1396902800 0.5730078220 4291937737
-0.2780016363 -0.1390826702 0.5731275082 4292069323
-0.2780594230 -0.1384746730 0.5732466578 4291937737
-0.2776904404 -0.1376548409 0.5724859238 4291937737
-0.2777476907 -0.1370470226 0.5726040006 4291937483
-0.2778047323 -0.1364388168 0.5727215409 4292003276
-0.2778615355 -0.1358302534 0.5728386641 4292464079
-0.2783449888 -0.1354290247 0.5738353729 4292990423
-0.2784014344 -0.1348187774 0.5739517212 4292466650
-0.2788846791 -0.1344139874 0.5749480128 4292729822
-0.2789407372 -0.1338020712 0.5750635266 4293187800
-0.2789965272 -0.1331897676 0.5751786232 4293056214
-0.2794794440 -0.1327801347 0.5761741400 4291860894
-0.2795348763 -0.1321661770 0.5762884021 4291597722
-0.2800175846 -0.1317529976 0.5772835612 4291925145
-0.2800726295 -0.1311373562 0.5773970485 4291793559
-0.2805550992 -0.1307206303 0.5783916712 4291600808
-0.2806097269 -0.1301033348 0.5785043836 4294561493
-0.2810919881 -0.1296830624 0.5794985890 4294240490
-0.2815741599 -0.1292605549 0.5804926157 4294701041
-0.2829122841 -0.1292268038 0.5832512975 4294242284
-0.2833944857 -0.1287979186 0.5842453837 4294373870
-0.2922478914 -0.1613065302 0.6038802862 4290953670
-0.2918905616 -0.1604391783 0.6031419039 4291016635
-0.2911090851 -0.1593412906 0.6015270948 4291148221
-0.2899031341 -0.1580156386 0.5990352631 4291344828
-0.2886964083 -0.1566950828 0.5965417027 4291410621
-0.2870648503 -0.1551504731 0.5931704044 4291214525
-0.2854322791 -0.1536128223 0.5897970200 4291148732
-0.2837987542 -0.1520821303 0.5864216089 4291082939
-0.2821642458 -0.1505584270 0.5830441713 4291280318
-0.2813775539 -0.1494926661 0.5814186335 4291476416
-0.2805902958 -0.1484302133 0.5797918439 4290884279
-0.2802270055 -0.1475946754 0.5790411234 4290556593
-0.2794386148 -0.1465378851 0.5774120688 4290490800
-0.2790744007 -0.1457061917 0.5766595006 4290490800
-0.2787097692 -0.1448759437 0.5759060979 4290490800
-0.2787697017 -0.1442670822 0.5760298967 4290359214
-0.2784043550 -0.1434388459 0.5752750039 4290359214
-0.2784637511 -0.1428301185 0.5753976703 4290359216
-0.2780976593 -0.1420038939 0.5746412873 4290227630
-0.2777311802 -0.1411791295 0.5738840103 4290029738
-0.2777897120 -0.1405711174 0.5740048885 4290556082
-0.2778480053 -0.1399627179 0.5741253495 4291279805
-0.2779060602 -0.1393539459 0.5742453337 4291345598
-0.2775382102 -0.1385323107 0.5734852552 4290950840
-0.2775957286 -0.1379237026 0.5736041069 4290621875
-0.2776530087 -0.1373147070 0.5737224817 4290490291
-0.2777100801 -0.1367053539 0.5738403797 4290556084
-0.2777668834 -0.1360956132 0.5739578009 4291939275
-0.2778234780 -0.1354855150 0.5740747452 4292662998
-0.2783060372 -0.1350818872 0.5750718713 4292532443
-0.2783622742 -0.1344701052 0.5751879811 4292664029
-0.2784182429 -0.1338579357 0.5753036737 4293318359
-0.2784740031 -0.1332454085 0.5754188895 4293186773
-0.2789560556 -0.1328356266 0.5764149427 4292320416
-0.2790114284 -0.1322214305 0.5765293837 4291794072
-0.2794932723 -0.1318081021 0.5775250196 4292319646
-0.2799750268 -0.1313925236 0.5785205364 4291595923
-0.2800298631 -0.1307753474 0.5786337852 4291798187
-0.2805114090 -0.1303562224 0.5796288252 4294890458
-0.2809928954 -0.1299348623 0.5806237459 4294174697
-0.2814742923 -0.1295112520 0.5816184878 4294437869
-0.2828100324 -0.1294765621 0.5843785405 4294569966
-0.2832914591 -0.1290465742 0.5853733420 4294635759
-0.2912743986 -0.1611390412 0.6032531857 4290821825
-0.2909177244 -0.1602722704 0.6025144458 4290819252
-0.2905606031 -0.1594069153 0.6017748713 4291148217
-0.2897800207 -0.1583118588 0.6001582146 4291607740
-0.2885757089 -0.1569898725 0.5976639986 4291410361
-0.2869473696 -0.1554437280 0.5942915678 4291082937
-0.2853180468 -0.1539045423 0.5909171104 4291346109
-0.2841111422 -0.1525997519 0.5884175301 4291346109
-0.2824799418 -0.1510736048 0.5850391984 4291082937
-0.2816949785 -0.1500055790 0.5834134817 4291476668
-0.2809094191 -0.1489408463 0.5817865133 4291608254
-0.2801232636 -0.1478794217 0.5801582932 4291148219
-0.2797603905 -0.1470440924 0.5794067383 4291214012
-0.2789731324 -0.1459883600 0.5777762532 4291411391
-0.2786093354 -0.1451568604 0.5770227909 4291477184
-0.2782451212 -0.1443268359 0.5762684941 4291477184
-0.2783047855 -0.1437173635 0.5763920546 4291608770
-0.2779398561 -0.1428893358 0.5756362677 4291674563
-0.2775745094 -0.1420627832 0.5748795867 4291542977
-0.2776332796 -0.1414539963 0.5750012994 4291411391
-0.2772672176 -0.1406294703 0.5742431879 4291806149
-0.2773254514 -0.1400208473 0.5743637681 4292266700
-0.2773834467 -0.1394118369 0.5744839311 4292332493
-0.2774412334 -0.1388024390 0.5746035576 4292266700
-0.2770738006 -0.1379810423 0.5738425851 4292200907
-0.2771310210 -0.1373718381 0.5739611387 4292200907
-0.2771880329 -0.1367622465 0.5740791559 4292529872
-0.2772448063 -0.1361522824 0.5741967559 4292465619
-0.2777266502 -0.1357498169 0.5751946568 4292794584
-0.2777830362 -0.1351381689 0.5753114223 4292531927
-0.2778391838 -0.1345261484 0.5754277706 4292729306
-0.2778950930 -0.1339137554 0.5755435824 4293384151
-0.2779507935 -0.1333010048 0.5756589174 4293515737
-0.2784319818 -0.1328910589 0.5766555071 4292386977
-0.2784872949 -0.1322766244 0.5767700672 4290478980
-0.2789682746 -0.1318631470 0.5777662396 4290807175
-0.2794491947 -0.1314474195 0.5787622333 4291201933
-0.2799300551 -0.1310294420 0.5797581077 4292324531
-0.2804108262 -0.1306092292 0.5807538033 4294956765
-0.2808915079 -0.1301867664 0.5817493796 4294830830
-0.2817984819 -0.1299586594 0.5836277604 4294896623
-0.2827055156 -0.1297264248 0.5855063200 4294896874
-0.2836126387 -0.1294900626 0.5873850584 4294962924
-0.2845198512 -0.1292495579 0.5892639756 4293849066
-0.2903018594 -0.1609712690 0.6026251912 4290361272
-0.2903678417 -0.1603381485 0.6027621627 4290095784
-0.2900114357 -0.1594724655 0.6020223498 4290490542
-0.2896546423 -0.1586081982 0.6012816429 4291147443
-0.2888750732 -0.1575150639 0.5996633768 4291673787
-0.2876724899 -0.1561958343 0.5971669555 4291477694
-0.2860465646 -0.1546532661 0.5937918425 4291346108
-0.2848422825 -0.1533451974 0.5912919044 4291149242
-0.2832145095 -0.1518156677 0.5879128575 4291149242
-0.2820085585 -0.1505187899 0.5854094625 4291410874
-0.2812247276 -0.1494518071 0.5837823153 4291279288
-0.2804402709 -0.1483881176 0.5821539760 4291214014
-0.2796552479 -0.1473277211 0.5805243254 4291279807
-0.2792927623 -0.1464926004 0.5797719359 4291411391
-0.2789298892 -0.1456589401 0.5790186524 4291411391
-0.2785666287 -0.1448267400 0.5782645345 4291477184
-0.2782029212 -0.1439960003 0.5775095224 4291674563
-0.2782623768 -0.1433849782 0.5776329041 4291806149
-0.2778979540 -0.1425562501 0.5768764615 4291740356
-0.2775331438 -0.1417289823 0.5761191249 4291871172
-0.2775917053 -0.1411186606 0.5762407184 4291871172
-0.2772261500 -0.1402934194 0.5754818916 4291608000
-0.2772841752 -0.1396832466 0.5756023526 4291279035
-0.2773419917 -0.1390727013 0.5757223368 4291344828
-0.2773995399 -0.1384617686 0.5758418441 4291279035
-0.2774568796 -0.1378504485 0.5759608746 4291081910
-0.2775140107 -0.1372387558 0.5760794282 4291410875
-0.2775708735 -0.1366266906 0.5761975050 4292200907
-0.2776275277 -0.1360142529 0.5763151050 4292858837
-0.2776839435 -0.1354014277 0.5764322281 4292925402
-0.2781648040 -0.1349943429 0.5774304271 4293056988
-0.2782208323 -0.1343798339 0.5775467157 4293187283
-0.2782766521 -0.1337649673 0.5776625872 4293516248
-0.2783322036 -0.1331497282 0.5777779222 4292652970
-0.2792375982 -0.1329388022 0.5796573758 4290416008
-0.2792928517 -0.1323209405 0.5797720551 4290809485
-0.2797730863 -0.1319031864 0.5807689428 4292125345
-0.2802532315 -0.1314831823 0.5817656517 4293048254
-0.2807333171 -0.1310609132 0.5827622414 4294561493
-0.2812133133 -0.1306364089 0.5837586522 4294960874
-0.2821187675 -0.1304063499 0.5856382847 4294960874
-0.2825987041 -0.1299764067 0.5866345763 4294434268
-0.2835042477 -0.1297390163 0.5885143280 4294565854
-0.2848356366 -0.1296913475 0.5912781358 4293585381
-0.2893302143 -0.1608032584 0.6019961238 4290622899
-0.2893960178 -0.1601708233 0.6021330953 4290485384
-0.2894616127 -0.1595379561 0.6022695303 4290814349
-0.2891055346 -0.1586733609 0.6015287042 4291210647
-0.2887490392 -0.1578101814 0.6007869244 4291539612
-0.2879704833 -0.1567189693 0.5991670489 4291017657
-0.2867696285 -0.1554024965 0.5966684818 4291280829
-0.2859897912 -0.1543187499 0.5950458646 4291673536
-0.2843655050 -0.1527849138 0.5916663408 4291607743
-0.2827402651 -0.1512580663 0.5882847309 4291542460
-0.2819582224 -0.1501878947 0.5866575837 4291608253
-0.2807534337 -0.1488970965 0.5841507912 4291739588
-0.2799701095 -0.1478344500 0.5825210214 4291673795
-0.2796085775 -0.1469971538 0.5817687511 4291477184
-0.2792465985 -0.1461613178 0.5810156465 4291608770
-0.2784616947 -0.1451067477 0.5793825388 4291740867
-0.2785214782 -0.1444940269 0.5795069337 4291872453
-0.2781583071 -0.1436625719 0.5787512660 4291872965
-0.2782175243 -0.1430500001 0.5788745284 4291872965
-0.2778536379 -0.1422205567 0.5781173706 4292004292
-0.2779123187 -0.1416081339 0.5782394409 4292070085
-0.2775476873 -0.1407807171 0.5774807930 4292003009
-0.2771826684 -0.1399547905 0.5767212510 4291871423
-0.2772404850 -0.1393430680 0.5768415928 4291871172
-0.2772980630 -0.1387309730 0.5769614577 4291805379
-0.2773554325 -0.1381184906 0.5770807862 4291871176
-0.2774125636 -0.1375056356 0.5771996975 4292265934
-0.2774694860 -0.1368924081 0.5773180723 4292791765
-0.2775261700 -0.1362787932 0.5774359703 4293120730
-0.2775825858 -0.1356648058 0.5775534511 4293252829
-0.2780626714 -0.1352566183 0.5785523057 4293450208
-0.2781187594 -0.1346409470 0.5786689520 4294041055
-0.2790226638 -0.1344335228 0.5805497169 4293185746
-0.2790784240 -0.1338152289 0.5806657672 4292195249
-0.2795581818 -0.1333989948 0.5816639066 4291405733
-0.2800378501 -0.1329805106 0.5826619864 4291929508
-0.2800930738 -0.1323592216 0.5827769041 4292916403
-0.2805725336 -0.1319371760 0.5837744474 4293575362
-0.2810519338 -0.1315128803 0.5847718716 4294957015
-0.2815312445 -0.1310863346 0.5857691765 4294893533
-0.2824351788 -0.1308543086 0.5876500010 4294104017
-0.2829144299 -0.1304223090 0.5886471272 4293907661
-0.2838184834 -0.1301829517 0.5905281305 4293776075
-0.2851475477 -0.1301333904 0.5932934880 4294043095
-0.2860518396 -0.1298848093 0.5951750278 4294966253
-0.2882936001 -0.1612662673 0.6012287140 4292596168
-0.2892001867 -0.1611032933 0.6031193733 4290490792
-0.2888455987 -0.1602364630 0.6023798585 4290614652
-0.2889111042 -0.1596033722 0.6025165319 4290812031
-0.2889764011 -0.1589698493 0.6026526690 4291466862
