VERSION 0.7
FIELDS x y z rgba
SIZE 4 4 4 4
TYPE F F F U
COUNT 1 1 1 1
WIDTH 920
HEIGHT 1
VIEWPOINT 0.0 0.0 0.0 1.0 0.0 0.0 0.0
POINTS 920
DATA ascii
-0.3137551844 -0.1225977838 0.5675627589 4291654716
-0.3142862320 -0.1221736073 0.5685233474 4291717679
-0.3143416047 -0.1215633601 0.5686235428 4291651886
-0.3148723841 -0.1211357713 0.5695836544 4291327309
-0.3154030442 -0.1207060143 0.5705435872 4291985239
-0.3154578209 -0.1200929508 0.5706426501 4290288280
-0.3159882128 -0.1196597740 0.5716021061 4290419866
-0.3216038048 -0.1479386240 0.5829315186 4291849514
-0.3211982548 -0.1471052170 0.5821964741 4291455785
-0.3198487759 -0.1458430290 0.5797504187 4291718957
-0.3208577335 -0.1456569135 0.5815792084 4291653423
-0.3185631931 -0.1439737231 0.5774201751 4291587630
-0.3181555867 -0.1431487799 0.5766813755 4292047154
-0.3172754347 -0.1421138048 0.5750860572 4292112947
-0.3163946569 -0.1410820931 0.5734895468 4291520810
-0.3155132532 -0.1400536597 0.5718919039 4291718189
-0.3146311939 -0.1390284896 0.5702931881 4291521840
-0.3142210543 -0.1382144392 0.5695497394 4291456047
-0.3138104677 -0.1374018639 0.5688055158 4291258925
-0.3138721585 -0.1367967576 0.5689173341 4291324718
-0.3134607971 -0.1359861940 0.5681716800 4291587890
-0.3135218918 -0.1353812963 0.5682824254 4291587890
-0.3131097555 -0.1345727593 0.5675354004 4291522599
-0.3126972020 -0.1337656975 0.5667876005 4291719978
-0.3127573431 -0.1331615746 0.5668966770 4291391783
-0.3128172755 -0.1325571090 0.5670052767 4291391783
-0.3128769398 -0.1319522858 0.5671133995 4291654437
-0.3129363358 -0.1313471198 0.5672211051 4291983402
-0.3134690225 -0.1309393942 0.5681866407 4291983140
-0.3130544126 -0.1301357448 0.5674351454 4292180519
-0.3131130934 -0.1295295507 0.5675414205 4292180773
-0.3131714761 -0.1289230287 0.5676473379 4292246566
-0.3132296503 -0.1283161491 0.5677527189 4292312109
-0.3132875562 -0.1277089417 0.5678576827 4292377902
-0.3133451939 -0.1271013916 0.5679621696 4292443183
-0.3134025931 -0.1264935136 0.5680661798 4292377390
-0.3134597242 -0.1258852929 0.5681697726 4292441900
-0.3135166168 -0.1252767444 0.5682728887 4292376107
-0.3135732412 -0.1246678755 0.5683755279 4291588408
-0.3136296272 -0.1240586638 0.5684776902 4291193650
-0.3141602874 -0.1236358956 0.5694395900 4291520812
-0.3146908879 -0.1232109442 0.5704013705 4291389226
-0.3152213991 -0.1227838323 0.5713629127 4291126830
-0.3152770102 -0.1221705526 0.5714637041 4291521588
-0.3158072233 -0.1217400134 0.5724248290 4291001436
-0.3158623874 -0.1211251616 0.5725247860 4291922538
-0.3163923621 -0.1206912100 0.5734853745 4290945950
-0.3164470792 -0.1200747862 0.5735846162 4290551192
-0.3225124478 -0.1486558765 0.5857577324 4291193124
-0.3221079111 -0.1478194147 0.5850229859 4291391016
-0.3207608759 -0.1465539634 0.5825765133 4291654188
-0.3212974966 -0.1461507678 0.5835511088 4291587882
-0.3199492097 -0.1448918134 0.5811023116 4291653675
-0.3181287944 -0.1434254497 0.5777959824 4291916334
-0.3172501624 -0.1423891336 0.5762001872 4291587369
-0.3163709044 -0.1413560808 0.5746032596 4291521576
-0.3154910207 -0.1403262913 0.5730051994 4291389990
-0.3146105111 -0.1392997801 0.5714060068 4291258919
-0.3142011464 -0.1384844780 0.5706624985 4291324712
-0.3137913644 -0.1376706511 0.5699182153 4291193383
-0.3133811355 -0.1368582696 0.5691731572 4291127590
-0.3134425282 -0.1362525672 0.5692846775 4291456296
-0.3135036826 -0.1356465071 0.5693957210 4291653675
-0.3130923212 -0.1348367184 0.5686486363 4291325993
-0.3131528795 -0.1342308670 0.5687586069 4291523372
-0.3132131994 -0.1336246580 0.5688681006 4291522089
-0.3128007352 -0.1328174770 0.5681189895 4291587882
-0.3128604591 -0.1322114915 0.5682274699 4291784234
-0.3129199147 -0.1316051632 0.5683354735 4292047406
-0.3129791319 -0.1309984773 0.5684430003 4292177964
-0.3130380809 -0.1303914636 0.5685501099 4292441136
-0.3130967915 -0.1297840923 0.5686567426 4292442161
-0.3131552637 -0.1291763932 0.5687628984 4292376368
-0.3132134676 -0.1285683513 0.5688686371 4292114738
-0.3132714033 -0.1279599667 0.5689738989 4292180531
-0.3133291006 -0.1273512542 0.5690786839 4292115766
-0.3133865595 -0.1267421991 0.5691829920 4291984180
-0.3134437501 -0.1261328012 0.5692868829 4291655217
-0.3135006726 -0.1255230755 0.5693902969 4291260459
-0.3135573566 -0.1249130294 0.5694932342 4291194668
-0.3136137724 -0.1243026406 0.5695956945 4291260461
-0.3141437769 -0.1238787770 0.5705582500 4291391280
-0.3141997457 -0.1232668087 0.5706599951 4290996522
-0.3147294819 -0.1228395179 0.5716220737 4290339632
-0.3152591288 -0.1224100590 0.5725840330 4290865976
-0.3153145015 -0.1217952669 0.5726846457 4291135079
-0.3158438802 -0.1213623807 0.5736460686 4292516732
-0.3158988357 -0.1207460240 0.5737458467 4291537571
-0.3164279163 -0.1203097180 0.5747068524 4290813848
-0.3228791356 -0.1497785896 0.5876091123 4291258406
-0.3224758208 -0.1489394456 0.5868750811 4291455785
-0.3220720589 -0.1481017321 0.5861403346 4291718957
-0.3216678798 -0.1472654343 0.5854046941 4291324199
-0.3212632239 -0.1464305669 0.5846682787 4291783980
-0.3203876913 -0.1453836560 0.5830748677 4291783980
-0.3185703754 -0.1439148486 0.5797675848 4291849516
-0.3172227144 -0.1426646113 0.5773149729 4291849516
-0.3158742487 -0.1414194405 0.5748608708 4291454758
-0.3149957955 -0.1403892189 0.5732621551 4291520551
-0.3141167164 -0.1393622756 0.5716623664 4291455787
-0.3137080669 -0.1385466307 0.5709186196 4291587373
-0.3132989705 -0.1377324611 0.5701740980 4291324458
-0.3124182224 -0.1367135495 0.5685712695 4291258665
-0.3124794960 -0.1361085027 0.5686827302 4291521837
-0.3125405014 -0.1355031133 0.5687937737 4291653423
-0.3126012683 -0.1348973513 0.5689043403 4291588392
-0.3121902049 -0.1340887100 0.5681562424 4291785771
-0.3122503757 -0.1334831715 0.5682657361 4291654187
-0.3123102784 -0.1328772753 0.5683748126 4291785773
-0.3123699725 -0.1322710365 0.5684834123 4291916336
-0.3124293983 -0.1316644549 0.5685915351 4291982129
-0.3124885559 -0.1310575306 0.5686992407 4291916338
-0.3125474751 -0.1304502636 0.5688064694 4292179510
-0.3126061559 -0.1298426390 0.5689132214 4292311604
-0.3126645684 -0.1292346865 0.5690195560 4292311604
-0.3127227426 -0.1286263913 0.5691254139 4292378415
-0.3123081625 -0.1278243661 0.5683709383 4292444208
-0.3123657405 -0.1272163242 0.5684757233 4292444204
-0.3124230504 -0.1266079247 0.5685800314 4292378411
-0.3124801219 -0.1259992123 0.5686838627 4292246316
-0.3125369251 -0.1253901422 0.5687872767 4291983144
-0.3125934899 -0.1247807592 0.5688902140 4291651620
-0.3131227791 -0.1243588999 0.5698534846 4291520034
-0.3131789267 -0.1237479299 0.5699556470 4290537005
-0.3137079477 -0.1233226359 0.5709184408 4290734384
-0.3137636483 -0.1227100939 0.5710197687 4290278995
-0.3142924309 -0.1222813725 0.5719820857 4291726441
-0.3143476844 -0.1216672510 0.5720826983 4292258974
-0.3148761988 -0.1212351173 0.5730445385 4293377455
-0.3149310350 -0.1206194237 0.5731443167 4291212213
-0.3154592812 -0.1201838702 0.5741056204 4290159525
-0.3223703206 -0.1498454511 0.5878713727 4287906821
-0.3214983642 -0.1487887353 0.5862812400 4288959509
-0.3215646446 -0.1481678784 0.5864021182 4290010911
-0.3206916153 -0.1471158415 0.5848100781 4290208290
-0.3202875555 -0.1462815404 0.5840732455 4291521840
-0.3194133639 -0.1452351063 0.5824790597 4291324461
-0.3180686831 -0.1439792365 0.5800269842 4291586603
-0.3162533045 -0.1425167024 0.5767164230 4291323431
-0.3149069250 -0.1412719190 0.5742611885 4291060000
-0.3135597110 -0.1400322318 0.5718044043 4291454758
-0.3126818836 -0.1390066594 0.5702036619 4291521576
-0.3118034601 -0.1379843801 0.5686017275 4291521576
-0.3113947809 -0.1371726096 0.5678564906 4291390502
-0.3109856844 -0.1363622844 0.5671104193 4291653674
-0.3105761409 -0.1355534494 0.5663635731 4291982639
-0.3106368184 -0.1349505335 0.5664742589 4291982639
-0.3106972873 -0.1343472898 0.5665845275 4291980583
-0.3107574880 -0.1337436736 0.5666943192 4292112169
-0.3108174205 -0.1331397146 0.5668036342 4291849767
-0.3108771443 -0.1325354129 0.5669124722 4292047146
-0.3109365702 -0.1319307536 0.5670208931 4292047406
-0.3109957874 -0.1313257515 0.5671288967 4292178992
-0.3110547364 -0.1307204068 0.5672363639 4292047406
-0.3111134470 -0.1301147193 0.5673434138 4292310578
-0.3111718893 -0.1295086890 0.5674500465 4292771378
-0.3112300932 -0.1289023161 0.5675562024 4292705585
-0.3112880588 -0.1282956153 0.5676618814 4292443693
-0.3113457561 -0.1276885569 0.5677670836 4292312107
-0.3109313846 -0.1268886328 0.5670114160 4292049713
-0.3109884858 -0.1262818277 0.5671155453 4291918127
-0.3110453486 -0.1256746948 0.5672192574 4291392312
-0.3111019433 -0.1250672191 0.5673224330 4291063347
-0.3111582994 -0.1244594306 0.5674251914 4290867518
-0.3112143874 -0.1238512993 0.5675274730 4291459655
-0.3117425442 -0.1234298572 0.5684906840 4291529316
-0.3117982149 -0.1228201538 0.5685921907 4292779383
-0.3118536472 -0.1222101226 0.5686932206 4292785571
-0.3119087815 -0.1215997636 0.5687938333 4293640880
-0.3124363720 -0.1211724058 0.5697559118 4292988364
-0.3129638433 -0.1207428649 0.5707178116 4292856778
-0.3130183816 -0.1201296896 0.5708172917 4290820545
-0.3192473352 -0.1467505246 0.5833578706 4284892731
-0.3197816014 -0.1463468671 0.5843340755 4286466359
-0.3184398413 -0.1450863034 0.5818822980 4287058496
-0.3166281879 -0.1436180621 0.5785719156 4290409303
-0.3148155212 -0.1421567053 0.5752596259 4291330405
-0.3134711385 -0.1409132034 0.5728030205 4291523403
-0.3121259212 -0.1396748126 0.5703449249 4291457610
-0.3112493455 -0.1386506408 0.5687432289 4291652661
-0.3103721738 -0.1376297474 0.5671403408 4291521075
-0.3094943762 -0.1366121471 0.5655363202 4291914792
-0.3090856969 -0.1358042359 0.5647895336 4291980585
-0.3091464043 -0.1352032721 0.5649005175 4292046115
-0.3087369502 -0.1343973875 0.5641523004 4291914529
-0.3087970912 -0.1337966174 0.5642622113 4291653162
-0.3088569641 -0.1331955045 0.5643716455 4291653162
-0.3089165986 -0.1325940490 0.5644806027 4291390245
-0.3089759946 -0.1319922507 0.5645891428 4291587624
-0.3090351522 -0.1313900948 0.5646972060 4291915819
-0.3086235821 -0.1305885315 0.5639451742 4292113198
-0.3091526926 -0.1301847547 0.5649119616 4292113196
-0.3092110753 -0.1295815706 0.5650187135 4292376368
-0.3092692196 -0.1289780438 0.5651249290 4292378162
-0.3093271255 -0.1283741742 0.5652307272 4292509748
-0.3093847632 -0.1277699769 0.5653361082 4291920960
-0.3094421625 -0.1271654367 0.5654409528 4291855167
-0.3090282381 -0.1263679266 0.5646845698 4290873177
-0.3090850413 -0.1257636249 0.5647884011 4291267935
-0.3091416061 -0.1251590103 0.5648917556 4291139202
-0.3091979027 -0.1245540529 0.5649946332 4291599753
-0.3092539608 -0.1239487678 0.5650970340 4291538842
-0.3093097806 -0.1233431548 0.5651990175 4292328358
-0.3098368943 -0.1229243204 0.5661622882 4292658615
-0.3098922968 -0.1223171279 0.5662634373 4292987580
-0.3099474013 -0.1217096150 0.5663641691 4292791236
-0.3104741275 -0.1212861016 0.5673266053 4292857029
-0.3105288148 -0.1206770167 0.5674265623 4292857807
-0.3110552728 -0.1202500835 0.5683885217 4292792014
-0.3115816116 -0.1198209822 0.5693503618 4290885306
-0.3223529756 -0.1497910321 0.5902306437 4282202422
-0.3196118474 -0.1478670686 0.5852115750 4282529071
-0.3178053796 -0.1463847756 0.5819039941 4282792243
-0.3188067973 -0.1461974680 0.5837375522 4283314986
-0.3169988990 -0.1447235048 0.5804272890 4283972916
-0.3147216439 -0.1430435777 0.5762575865 4288641388
-0.3133800626 -0.1417962909 0.5738011599 4291865245
-0.3115691245 -0.1403430402 0.5704853535 4292455062
-0.3097572029 -0.1388967186 0.5671676993 4292191890
-0.3084129989 -0.1376665384 0.5647064447 4291993474
-0.3094120026 -0.1374830008 0.5665356517 4292059267
-0.3075977564 -0.1360511035 0.5632137656 4292322174
-0.3071894944 -0.1352455765 0.5624662042 4292059002
-0.3072499037 -0.1346471161 0.5625767708 4291533425
-0.3068408668 -0.1338436306 0.5618278980 4291401839
-0.3064314127 -0.1330416352 0.5610781908 4291794275
-0.3060215414 -0.1322411150 0.5603276491 4291860068
-0.3065501451 -0.1318458915 0.5612955093 4291531365
-0.3061395884 -0.1310465187 0.5605438352 4291662951
-0.3061982393 -0.1304486990 0.5606511831 4291729264
-0.3062566519 -0.1298505366 0.5607581735 4291992436
-0.3067846298 -0.1294502765 0.5617248416 4291926901
-0.3068426251 -0.1288505197 0.5618310571 4292190073
-0.3069003820 -0.1282504201 0.5619367957 4292191355
-0.3069578707 -0.1276499778 0.5620421171 4292322941
-0.3070151508 -0.1270492077 0.5621469617 4291996294
-0.3070721626 -0.1264480948 0.5622513294 4292259466
-0.3066585660 -0.1256539375 0.5614941120 4291933857
-0.3067150116 -0.1250530779 0.5615974069 4292262822
-0.3067711890 -0.1244518906 0.5617002249 4292002234
-0.3068270981 -0.1238503754 0.5618026257 4292265406
-0.3068827689 -0.1232485324 0.5619046092 4291938759
-0.3074089587 -0.1228344664 0.5628680587 4292004552
-0.3074642122 -0.1222310513 0.5629692078 4292135625
-0.3079901338 -0.1218135655 0.5639321804 4292333004
-0.3080449700 -0.1212085709 0.5640326142 4292793555
-0.3085706532 -0.1207876578 0.5649951100 4292990934
-0.3090962470 -0.1203645840 0.5659574866 4292859607
-0.3096217513 -0.1199393272 0.5669196844 4292530642
-0.3157025874 -0.1476432383 0.5792316794 4281938741
-0.3199721277 -0.1489876807 0.5870651603 4282136120
-0.3167678118 -0.1468499303 0.5811860561 4282266934
-0.3154311180 -0.1455872357 0.5787336230 4282266934
-0.3145609796 -0.1445443928 0.5771371722 4282200371
-0.3136902452 -0.1435048133 0.5755395889 4282200371
-0.3118836880 -0.1420425773 0.5722250342 4284634196
-0.3110115230 -0.1410113424 0.5706247687 4287660674
-0.3092031479 -0.1395611167 0.5673068762 4290291880
-0.3078616560 -0.1383280456 0.5648456216 4290949810
-0.3074552715 -0.1375187039 0.5641000271 4291541172
-0.3065804243 -0.1365024298 0.5624949336 4291541172
-0.3057049513 -0.1354894489 0.5608886480 4291409586
-0.3052971363 -0.1346863359 0.5601403713 4291278000
-0.3053572178 -0.1340903640 0.5602506399 4291213234
-0.3049485981 -0.1332892925 0.5595009327 4291279027
-0.3045395911 -0.1324896961 0.5587505102 4291409322
-0.3045987487 -0.1318945140 0.5588590503 4291540908
-0.3046576679 -0.1312989742 0.5589671731 4291343280
-0.3042475581 -0.1305020005 0.5582147241 4291474866
-0.3043059111 -0.1299066991 0.5583217740 4291475128
-0.3043639958 -0.1293110400 0.5584283471 4291672507
-0.3044218421 -0.1287150532 0.5585345030 4291410362
-0.3049485981 -0.1283161193 0.5595009327 4291673534
-0.3050060570 -0.1277185380 0.5596063733 4291410875
-0.3050632775 -0.1271206141 0.5597113371 4291476668
-0.3051202297 -0.1265223473 0.5598158240 4291542461
-0.3051769435 -0.1259237528 0.5599198341 4291608254
-0.3047637939 -0.1251320243 0.5591619015 4291673533
-0.3052895963 -0.1247255653 0.5601266026 4291607740
-0.3053455651 -0.1241259724 0.5602292418 4291805371
-0.3054012954 -0.1235260516 0.5603314638 4292068543
-0.3054567575 -0.1229258031 0.5604332685 4292134338
-0.3055119514 -0.1223252341 0.5605345368 4292397510
-0.3060370386 -0.1219116002 0.5614979267 4292726735
-0.3065620065 -0.1214957982 0.5624611378 4292858321
-0.3066166341 -0.1208923981 0.5625613332 4292793557
-0.3071413636 -0.1204731762 0.5635240674 4292793557
-0.3071955740 -0.1198682114 0.5636235476 4292335066
-0.3077200353 -0.1194455624 0.5645858049 4292400859
-0.3751913905 -0.1773551852 0.6897836924 4282727487
-0.3129328787 -0.1460075527 0.5753223300 4281807416
-0.3115982115 -0.1447483301 0.5728686452 4281939000
-0.3107293248 -0.1437099725 0.5712711811 4282004793
-0.3098597825 -0.1426748782 0.5696725249 4281808182
-0.3089896142 -0.1416430324 0.5680727363 4281610803
-0.3081188500 -0.1406144798 0.5664718151 4281216299
-0.3058466017 -0.1389527619 0.5622943640 4281479471
-0.3068424463 -0.1387784034 0.5641252398 4283846989
-0.3059698939 -0.1377587765 0.5625210404 4286939260
-0.3050967455 -0.1367424279 0.5609157681 4290292645
-0.3046902716 -0.1359378695 0.5601685047 4291213747
-0.3038159907 -0.1349271983 0.5585610867 4291409584
-0.3034085631 -0.1341264993 0.5578120947 4291409584
-0.3034683466 -0.1335330158 0.5579219460 4291344304
-0.3030601740 -0.1327343583 0.5571715236 4291015339
-0.3031193614 -0.1321410984 0.5572803617 4290951093
-0.3031782806 -0.1315474957 0.5573887229 4291148472
-0.3027690351 -0.1307514608 0.5566362739 4291343799
-0.3028273880 -0.1301580817 0.5567436218 4291343799
-0.3028855324 -0.1295643598 0.5568504333 4291409332
-0.3029434085 -0.1289703101 0.5569568872 4291475125
-0.3030010462 -0.1283759028 0.5570628047 4291279280
-0.3030584157 -0.1277811676 0.5571683645 4291542452
-0.3031155765 -0.1271860898 0.5572733879 4291346101
-0.3036410511 -0.1267863363 0.5582395196 4291214515
-0.3032291234 -0.1259949356 0.5574821830 4291280058
-0.3032855392 -0.1253988445 0.5575858951 4291411644
-0.3033416867 -0.1248024404 0.5576891303 4291673785
-0.3033975959 -0.1242057011 0.5577919483 4291805371
-0.3039222956 -0.1237996742 0.5587565303 4292330935
-0.3039777875 -0.1232013553 0.5588585734 4292594107
-0.3040330410 -0.1226027012 0.5589601994 4292267977
-0.3040880561 -0.1220037267 0.5590612888 4292333770
-0.3046121597 -0.1215917766 0.5600248575 4292662481
-0.3051362038 -0.1211776584 0.5609883070 4292728274
-0.3051906228 -0.1205758601 0.5610883832 4292728274
-0.3057143986 -0.1201583222 0.5620512962 4292530895
-0.3062380850 -0.1197386011 0.5630140901 4292005581
-0.3067617118 -0.1193167120 0.5639767647 4292005581
-0.3072852194 -0.1188926473 0.5649392605 4290098361
-0.3872099221 -0.1873737723 0.7133362293 4291677907
-0.3868277073 -0.1863970309 0.7126320601 4287729556
-0.3869100511 -0.1856447458 0.7127837539 4284176734
-0.3855966628 -0.1842253059 0.7103641629 4283582796
-0.3842823803 -0.1828108281 0.7079429626 4283385417
-0.3834325671 -0.1816217154 0.7063773870 4283055678
-0.3807203472 -0.1795577258 0.7013807893 4282660920
-0.3752135038 -0.1761925370 0.6912358403 4282399544
-0.3115012646 -0.1456369758 0.5738621950 4282004786
-0.3097029030 -0.1441622674 0.5705491900 4282135601
-0.3083693385 -0.1429103166 0.5680924058 4282069808
-0.3075008690 -0.1418784261 0.5664924979 4282135601
-0.3066317737 -0.1408497989 0.5648913980 4281806636
-0.3062281609 -0.1400375962 0.5641478300 4281740331
-0.3039593399 -0.1383778900 0.5599681139 4281937710
-0.3044870794 -0.1379949003 0.5609403253 4282266162
-0.3036155999 -0.1369784772 0.5593348145 4282463541
-0.3032099903 -0.1361748576 0.5585876107 4287463294
-0.3028039634 -0.1353726983 0.5578395724 4290687151
-0.3019308150 -0.1343643516 0.5562310815 4290949810
-0.3015238345 -0.1335660517 0.5554813147 4290884017
-0.3020501435 -0.1331809312 0.5564508438 4291081396
-0.3016424775 -0.1323837638 0.5556998849 4290949810
-0.3012344241 -0.1315880865 0.5549480915 4291344818
-0.3012930453 -0.1309969872 0.5550560951 4291344818
-0.3013514280 -0.1304055452 0.5551636815 4291409843
-0.3014095724 -0.1298137605 0.5552707911 4291409843
-0.3010000885 -0.1290212870 0.5545164347 4291541431
-0.3010576665 -0.1284297407 0.5546224713 4291607224
-0.3015825450 -0.1280363649 0.5555894375 4291476154
-0.3016397357 -0.1274432242 0.5556948185 4291476154
-0.3016966581 -0.1268497407 0.5557996631 4291476154
-0.3017533422 -0.1262559295 0.5559040904 4291673533
-0.3018097878 -0.1256617755 0.5560080409 4291607740
-0.3023339808 -0.1252611876 0.5569737554 4291870912
-0.3023900092 -0.1246654540 0.5570769906 4292200388
-0.3024457991 -0.1240693927 0.5571798086 4292134595
-0.3025013506 -0.1234729961 0.5572820902 4292069572
-0.3025566339 -0.1228762716 0.5573839545 4292595916
-0.3030801415 -0.1224685088 0.5583483577 4292331717
-0.3031350076 -0.1218702048 0.5584494472 4292792268
-0.3036582470 -0.1214590222 0.5594134331 4292793042
-0.3037127256 -0.1208591461 0.5595137477 4292990421
-0.3042357266 -0.1204445362 0.5604772568 4292727762
-0.3047586381 -0.1200277507 0.5614405870 4292135625
-0.3052814603 -0.1196087897 0.5624037385 4291741126
-0.3058041930 -0.1191876605 0.5633667707 4292135884
-0.3067959547 -0.1189462245 0.5651938319 4290623930
-0.3838038743 -0.1861063689 0.7085111141 4292796902
-0.3834217489 -0.1851346493 0.7078056931 4288519329
-0.3835034370 -0.1843874902 0.7079564929 4284440163
-0.3826560378 -0.1831952184 0.7063921690 4283715152
-0.3813434541 -0.1817846596 0.7039691210 4283123015
-0.3800299764 -0.1803790778 0.7015444636 4282661433
-0.3773216009 -0.1783196479 0.6965447068 4282595640
-0.3155848384 -0.1484959871 0.5825771689 4282793532
-0.3086773753 -0.1446126103 0.5698258281 4282332981
-0.3073464334 -0.1433586925 0.5673688650 4282464567
-0.3060146868 -0.1421098560 0.5649104118 4282332981
-0.3051472902 -0.1410811692 0.5633091927 4282266674
-0.3042792678 -0.1400557458 0.5617067814 4282135088
-0.3029452562 -0.1388203651 0.5592442155 4282200369
-0.3025413454 -0.1380147487 0.5584985614 4282134576
-0.3016714752 -0.1369991750 0.5568927526 4282660406
-0.3017322719 -0.1364079118 0.5570049882 4282265648
-0.3013270795 -0.1356066912 0.5562569499 4285028953
-0.3009214699 -0.1348069459 0.5555081964 4287858052
-0.3005154133 -0.1340086609 0.5547586679 4289436571
-0.3001089692 -0.1332118660 0.5540083051 4290357673
-0.3001681864 -0.1326224953 0.5541176200 4290818224
-0.3002271652 -0.1320327669 0.5542265177 4291212982
-0.3002858758 -0.1314426810 0.5543349385 4291081650
-0.2998780012 -0.1306490749 0.5535819530 4291213236
-0.2999361753 -0.1300592273 0.5536893606 4291541431
-0.2999941111 -0.1294690371 0.5537962914 4291607224
-0.3000517786 -0.1288785040 0.5539027452 4291475638
-0.3001092076 -0.1282876432 0.5540087819 4291541431
-0.3001664281 -0.1276964247 0.5541144013 4291673787
-0.3002233803 -0.1271048784 0.5542195439 4291476408
-0.3007470965 -0.1267097443 0.5551863313 4291476667
-0.3008036315 -0.1261166185 0.5552906990 4291739839
-0.3008599579 -0.1255231351 0.5553946495 4292068804
-0.3013832867 -0.1251233220 0.5563607216 4292331976
-0.3014391959 -0.1245282590 0.5564639568 4292333004
-0.3014948666 -0.1239328757 0.5565667152 4292333004
-0.3015502691 -0.1233371496 0.5566689968 4292465103
-0.3020730615 -0.1229313985 0.5576340556 4292728275
-0.3025957346 -0.1225234717 0.5585989952 4292464077
-0.3026506007 -0.1219249293 0.5587002039 4292727249
-0.3031730354 -0.1215135753 0.5596646667 4292859096
-0.3036954105 -0.1211000457 0.5606290102 4292990682
-0.3042176962 -0.1206843406 0.5615931749 4293056988
-0.3047399223 -0.1202664599 0.5625571609 4292925402
-0.3052620292 -0.1198464036 0.5635210276 4292860638
-0.3062523305 -0.1196070611 0.5653491616 4293386982
-0.3063060045 -0.1189997643 0.5654482245 4292664288
-0.3808692992 -0.1850628257 0.7045383453 4293191662
-0.3809508085 -0.1843194813 0.7046891451 4288848294
-0.3805685043 -0.1833523214 0.7039819360 4284242784
-0.3797220290 -0.1821640730 0.7024161220 4283715152
-0.3784111440 -0.1807574630 0.6999912262 4283057222
-0.3770993948 -0.1793558151 0.6975647211 4282661433
-0.3112998903 -0.1474204808 0.5758476853 4282990398
-0.3067246675 -0.1446234286 0.5673843622 4283253572
-0.3049320281 -0.1431514621 0.5640683770 4282858814
-0.3040668666 -0.1421203613 0.5624679327 4282858299
-0.3032010496 -0.1410925090 0.5608662963 4282529334
-0.3023346066 -0.1400679499 0.5592635870 4282397748
-0.3010030389 -0.1388324052 0.5568004251 4282200369
-0.3019936979 -0.1386686414 0.5586329699 4282331441
-0.3015904129 -0.1378636062 0.5578869581 4282199855
-0.3016514778 -0.1372715533 0.5579999089 4282594613
-0.3012474179 -0.1364685297 0.5572524667 4282199855
-0.3008429408 -0.1356669813 0.5565042496 4282462513
-0.3004380465 -0.1348668933 0.5557552576 4282396720
-0.3004978597 -0.1342761517 0.5558659434 4282594099
-0.3000921905 -0.1334781051 0.5551155210 4283844166
-0.2996861041 -0.1326815486 0.5543643832 4285686370
-0.2992796004 -0.1318864673 0.5536124110 4287857539
-0.2993382215 -0.1312970668 0.5537207723 4290554283
-0.2993965745 -0.1307073236 0.5538287759 4291606971
-0.2989889681 -0.1299148798 0.5530747771 4291672506
-0.2990467846 -0.1293253601 0.5531817079 4291672506
-0.2991043329 -0.1287355125 0.5532881618 4292001469
-0.2991616428 -0.1281453073 0.5533941388 4292001469
-0.2992187142 -0.1275547743 0.5534996986 4292067775
-0.2992755175 -0.1269639134 0.5536048412 4292396740
-0.2993321121 -0.1263727099 0.5537095070 4292134338
-0.2998547852 -0.1259770840 0.5546763539 4291805373
-0.2999109626 -0.1253842860 0.5547803044 4291805633
-0.3004334271 -0.1249852404 0.5557467341 4292266184
-0.3004892170 -0.1243908554 0.5558499098 4292398799
-0.3010114431 -0.1239883751 0.5568159223 4292859350
-0.3010668159 -0.1233924031 0.5569183826 4292991195
-0.3011219501 -0.1227961108 0.5570203662 4292793816
-0.3016437590 -0.1223889515 0.5579856634 4292464338
-0.3021655083 -0.1219796091 0.5589507818 4292924889
-0.3022200763 -0.1213804856 0.5590516925 4293320162
-0.3027415872 -0.1209677160 0.5600163937 4293320162
-0.3032629788 -0.1205527708 0.5609809160 4293452264
-0.3037843406 -0.1201356500 0.5619452596 4293386471
-0.3043055832 -0.1197163537 0.5629094839 4293255398
-0.3052942753 -0.1194778457 0.5647383928 4293650156
-0.3784039915 -0.1842434853 0.7014191151 4293323248
-0.3780223727 -0.1832791269 0.7007116675 4289045673
-0.3771774471 -0.1820926666 0.6991454959 4285295472
-0.3758689463 -0.1806868464 0.6967200041 4285096805
-0.3745595515 -0.1792860031 0.6942929029 4284307289
-0.3713969290 -0.1770072877 0.6884306073 4285425252
-0.3080185354 -0.1461668611 0.5709508061 4287267456
-0.3039134443 -0.1435929239 0.5633415580 4288384913
-0.3053669333 -0.1436507553 0.5660357475 4287266432
-0.3035764396 -0.1421832591 0.5627168417 4285160286
-0.3027120829 -0.1411549896 0.5611146688 4283186496
-0.3018471003 -0.1401299834 0.5595113039 4283055164
-0.3009814918 -0.1391082704 0.5579068065 4282726199
-0.3001152873 -0.1380898356 0.5563011765 4282134062
-0.3006403148 -0.1377122253 0.5572744012 4282068269
-0.3007012606 -0.1371208429 0.5573873520 4282068269
-0.3002977967 -0.1363184005 0.5566394925 4282463027
-0.2998939157 -0.1355174333 0.5558908582 4282528819
-0.2999539673 -0.1349268109 0.5560021400 4282528819
-0.3000137508 -0.1343358159 0.5561129451 4282068268
-0.2996087968 -0.1335374415 0.5553623438 4281936682
-0.2992034256 -0.1327405572 0.5546109080 4281870889
-0.2987976074 -0.1319451481 0.5538586974 4282397233
-0.2988561690 -0.1313555092 0.5539672375 4286080614
-0.2989144921 -0.1307655275 0.5540753603 4289172885
-0.2985076010 -0.1299727410 0.5533211231 4289568157
-0.2981002927 -0.1291814595 0.5525661707 4288186504
-0.2981577218 -0.1285922825 0.5526725650 4287857539
-0.2982149124 -0.1280027628 0.5527786016 4288318090
-0.2982718349 -0.1274129152 0.5528841019 4288910740
-0.2987939417 -0.1270205826 0.5538519025 4289108119
-0.2988505065 -0.1264291257 0.5539567471 4287002743
-0.2989068031 -0.1258373410 0.5540611148 4284831574
-0.2994285226 -0.1254403144 0.5550282001 4283778887
-0.2994844317 -0.1248469427 0.5551317930 4285094747
-0.3000059426 -0.1244464740 0.5560984612 4287199869
-0.3000614345 -0.1238515154 0.5562013388 4288515729
-0.3005827069 -0.1234476194 0.5571675897 4288713108
-0.3006377816 -0.1228510812 0.5572696924 4288252557
-0.3006926477 -0.1222542152 0.5573713779 4287990157
-0.3012135029 -0.1218456328 0.5583368540 4290621877
-0.3017342985 -0.1214348748 0.5593022108 4292859096
-0.3022550046 -0.1210219413 0.5602674484 4293319647
-0.3027756512 -0.1206068322 0.5612325072 4293254369
-0.3032961786 -0.1201895475 0.5621973872 4292991197
-0.3038166463 -0.1197700799 0.5631620884 4292597468
-0.3048037887 -0.1195314825 0.5649918914 4293255398
-0.3755625188 -0.1824621558 0.6975882649 4289374381
-0.3747186363 -0.1812788397 0.6960207820 4286940040
-0.3734119534 -0.1798760593 0.6935936213 4287596939
-0.3716421127 -0.1782565266 0.6903062463 4286873216
-0.3176269233 -0.1516928673 0.5899757743 4287398531
-0.3685616851 -0.1752577722 0.6845845580 4288188047
-0.3066594601 -0.1451892704 0.5696042776 4288383886
-0.3039476573 -0.1432780772 0.5645672679 4285423201
-0.3021599352 -0.1418117732 0.5612466335 4283976012
-0.3017596602 -0.1410011500 0.5605031848 4283449668
-0.3008960187 -0.1399766356 0.5588990450 4282594359
-0.3000317812 -0.1389553994 0.5572937727 4282331187
-0.2996300459 -0.1381509751 0.5565475225 4283647301
-0.2996910810 -0.1375606209 0.5566608906 4284568403
-0.2997518778 -0.1369699091 0.5567737818 4284502610
-0.2993490398 -0.1361680627 0.5560255647 4283186750
-0.2994092703 -0.1355775446 0.5561374426 4282265648
-0.2994692326 -0.1349866688 0.5562488437 4282594613
-0.2995289862 -0.1343954504 0.5563598275 4282528819
-0.2991247475 -0.1335967481 0.5556089282 4282594612
-0.2987200618 -0.1327995211 0.5548573136 4282463026
-0.2987789214 -0.1322090775 0.5549665689 4282463026
-0.2983734906 -0.1314139068 0.5542135239 4282265647
-0.2984317839 -0.1308236867 0.5543217659 4283778886
-0.2980256081 -0.1300305724 0.5535673499 4283384898
-0.2976189852 -0.1292389631 0.5528120995 4281937452
-0.2976763844 -0.1286495477 0.5529186726 4281345060
-0.2977335155 -0.1280597895 0.5530248284 4282134576
-0.2977904081 -0.1274696887 0.5531305075 4282660922
-0.2978470623 -0.1268792599 0.5532357097 4281871406
-0.2983682454 -0.1264855117 0.5542037487 4281937199
-0.2984244823 -0.1258934885 0.5543082952 4282134578
-0.2989454269 -0.1254962981 0.5552758574 4282134578
-0.2990013063 -0.1249026805 0.5553796291 4281871406
-0.2995220125 -0.1245020553 0.5563468337 4282002222
-0.2995774746 -0.1239068508 0.5564498305 4282396980
-0.3000979424 -0.1235027984 0.5574166179 4282791481
-0.3001529872 -0.1229060069 0.5575188994 4282791481
-0.3006732464 -0.1224985197 0.5584852099 4284239956
-0.3007278740 -0.1219001487 0.5585867167 4288845466
-0.3012478948 -0.1214892343 0.5595525503 4292200909
-0.3017677963 -0.1210761368 0.5605183244 4292332495
-0.3022876382 -0.1206608564 0.5614838600 4291280579
-0.3028073907 -0.1202434003 0.5624492764 4291346372
-0.3033270538 -0.1198237613 0.5634145737 4291939538
-0.3727263510 -0.1806877702 0.6937513947 4287729301
-0.3718829453 -0.1795098484 0.6921815276 4288846236
-0.3710388243 -0.1783350706 0.6906104684 4288648857
-0.3688092828 -0.1765007675 0.6864606142 4288122254
-0.3074827194 -0.1465158761 0.5723141432 4287661703
-0.3052382767 -0.1448151469 0.5681365728 4287198842
-0.3016069829 -0.1424686164 0.5613777041 4284435536
-0.3007457554 -0.1414398551 0.5597747564 4283844169
-0.2998839319 -0.1404143721 0.5581706166 4283515204
-0.2985593081 -0.1391767263 0.5557051301 4282988860
-0.2986206710 -0.1385877728 0.5558193326 4285554787
-0.2986817956 -0.1379984617 0.5559331179 4289304986
-0.2987426817 -0.1374087781 0.5560464263 4290028709
-0.2988033295 -0.1368187517 0.5561593175 4288779155
-0.2984011173 -0.1360174716 0.5554106832 4285292126
-0.2984611988 -0.1354276389 0.5555225015 4282463541
-0.2985210717 -0.1348374486 0.5556339025 4282397748
-0.2985806763 -0.1342469007 0.5557448864 4282529334
-0.2981770337 -0.1334487796 0.5549935699 4282529334
-0.2982360721 -0.1328584403 0.5551034808 4282463796
-0.2978316844 -0.1320623755 0.5543507934 4282332210
-0.2978901565 -0.1314722598 0.5544596314 4281740073
-0.2974850237 -0.1306782514 0.5537055731 4282398003
-0.2975429296 -0.1300883591 0.5538133383 4282661175
-0.2971370518 -0.1292964220 0.5530578494 4282661175
-0.2971943915 -0.1287067533 0.5531646013 4282725945
-0.2972514927 -0.1281167567 0.5532708764 4282791738
-0.2977721691 -0.1277253777 0.5542399883 4283120192
-0.2973649502 -0.1269357502 0.5534820557 4283054399
-0.2983493209 -0.1267389506 0.5553142428 4282988606
-0.2984056175 -0.1261457652 0.5554190874 4282922813
-0.2984616756 -0.1255522370 0.5555233955 4282988606
-0.2989817560 -0.1251527071 0.5564914346 4283383364
-0.2990374267 -0.1245575994 0.5565950274 4283383618
-0.2995572686 -0.1241546348 0.5575625896 4283186239
-0.2996125221 -0.1235579327 0.5576654673 4284436306
-0.3001321554 -0.1231515333 0.5586326122 4286541682
-0.3001869917 -0.1225532442 0.5587347150 4287200641
-0.3007063568 -0.1221434176 0.5597013831 4289174431
-0.3012256622 -0.1217314079 0.5606679916 4289701032
-0.3017448783 -0.1213172153 0.5616343617 4289898411
-0.3022640049 -0.1209008396 0.5626006126 4290622649
-0.3032481670 -0.1206673607 0.5644323826 4292662232
-0.3037672043 -0.1202456951 0.5653985143 4293189605
-0.3711189032 -0.1810502857 0.6921904087 4290163642
-0.3707377613 -0.1800960600 0.6914795041 4288716196
-0.3694348335 -0.1786975563 0.6890494227 4289043617
-0.3681310713 -0.1773040295 0.6866176724 4288451480
-0.3659047186 -0.1754734814 0.6824652553 4287727242
-0.3042166233 -0.1452598721 0.5674079657 4288582551
-0.3019753098 -0.1435638815 0.5632275939 4290027428
-0.3006550372 -0.1423131526 0.5607650876 4288514189
-0.2997951806 -0.1412848830 0.5591613650 4287724673
-0.2998573482 -0.1406927854 0.5592772961 4286408813
-0.2989964485 -0.1396692395 0.5576716065 4285356638
-0.2981349230 -0.1386489719 0.5560647845 4286146154
-0.2981960177 -0.1380594224 0.5561786890 4287857540
-0.2977951765 -0.1372567117 0.5554310083 4288449677
-0.2978556752 -0.1366673559 0.5555438995 4288910741
-0.2979159653 -0.1360776424 0.5556563139 4285555298
-0.2975140214 -0.1352775097 0.5549066663 4282594359
-0.2975737154 -0.1346879900 0.5550180078 4281936429
-0.2976332009 -0.1340981275 0.5551289916 4282331955
-0.2976924479 -0.1335079074 0.5552394390 4282331955
-0.2977514565 -0.1329173297 0.5553494692 4282529334
-0.2978101969 -0.1323264092 0.5554590821 4282726713
-0.2974061966 -0.1315305680 0.5547055602 4284434763
-0.2970017791 -0.1307362318 0.5539512634 4285948002
-0.2970596254 -0.1301461011 0.5540591478 4286473576
-0.2966544628 -0.1293538362 0.5533034801 4285420888
-0.2967117429 -0.1287639290 0.5534103513 4284498247
-0.2967688143 -0.1281736940 0.5535167456 4283840317
-0.2968256176 -0.1275831163 0.5536227226 4284167742
-0.2973453403 -0.1271903217 0.5545920730 4284365121
-0.2974017560 -0.1265981495 0.5546972752 4285023310
-0.2979212701 -0.1262019128 0.5556662679 4284365380
-0.2984407246 -0.1258034855 0.5566350818 4282986037
-0.2984965742 -0.1252084523 0.5567392707 4282986037
-0.2985522151 -0.1246130988 0.5568430424 4283317055
-0.2986075878 -0.1240174025 0.5569463372 4283909192
-0.2991264760 -0.1236130223 0.5579141378 4285226079
-0.2991814315 -0.1230157465 0.5580166578 4287397248
-0.2997001112 -0.1226079315 0.5589840412 4287924621
-0.2997546792 -0.1220090687 0.5590857863 4289832618
-0.3002730906 -0.1215978265 0.5600526929 4290490548
-0.3007914126 -0.1211843938 0.5610194802 4291345857
-0.3013096750 -0.1207687855 0.5619860888 4291215556
-0.3018278480 -0.1203509942 0.5629525781 4293189346
-0.3028103709 -0.1201152429 0.5647851229 4293585133
-0.3686739206 -0.1802308708 0.6890575886 4290953158
-0.3678332865 -0.1790560633 0.6874864101 4289834677
-0.3669919670 -0.1778844297 0.6859139800 4289701547
-0.3656899929 -0.1764939427 0.6834805608 4288385687
-0.3630068898 -0.1744451672 0.6784658432 4286148210
-0.3060208857 -0.1464247108 0.5719580650 4286740347
-0.3037837744 -0.1447234601 0.5677768588 4288118918
-0.3015454412 -0.1430309266 0.5635933876 4288118918
-0.3002268672 -0.1417820305 0.5611289144 4289764256
-0.2993680537 -0.1407547742 0.5595237613 4291080116
-0.2985086143 -0.1397308111 0.5579174757 4290685358
-0.2976485491 -0.1387101263 0.5563099980 4289698463
-0.2977095842 -0.1381203383 0.5564240813 4288843665
-0.2973094285 -0.1373172998 0.5556762218 4287922563
-0.2973698974 -0.1367277056 0.5557892323 4287002231
-0.2974301577 -0.1361377537 0.5559018254 4285160027
-0.2970289290 -0.1353372931 0.5551518798 4282923324
-0.2970885932 -0.1347475350 0.5552634001 4281936429
-0.2971480191 -0.1341574341 0.5553745031 4282529336
-0.2972072065 -0.1335669756 0.5554851294 4282726715
-0.2972661555 -0.1329761595 0.5555953383 4283055678
-0.2968631983 -0.1321794391 0.5548421741 4283384643
-0.2964598238 -0.1313841939 0.5540882349 4285878872
-0.2965178788 -0.1307941675 0.5541967750 4287589490
-0.2965756953 -0.1302037984 0.5543048382 4288706942
-0.2961712182 -0.1294112056 0.5535488725 4287522668
-0.2962284684 -0.1288210601 0.5536558628 4286401364
-0.2962854803 -0.1282305866 0.5537624359 4286401364
-0.2963422537 -0.1276397705 0.5538685322 4287452253
-0.2968612015 -0.1272468269 0.5548384190 4287386460
-0.2969175577 -0.1266544014 0.5549438000 4288177005
-0.2974362671 -0.1262580156 0.5559132695 4288637556
-0.2974922657 -0.1256639957 0.5560179353 4287982708
-0.2980107367 -0.1252641529 0.5569869876 4288180087
-0.2980663180 -0.1246685535 0.5570908785 4288710539
-0.2985845804 -0.1242652759 0.5580594540 4289894813
-0.2986397743 -0.1236680821 0.5581626296 4290489262
-0.2986947000 -0.1230705529 0.5582652688 4291476157
-0.2992125452 -0.1226625815 0.5592331886 4291345857
-0.2997303307 -0.1222524270 0.5602009296 4291674822
-0.2997846901 -0.1216520593 0.5603024960 4290819767
-0.3003022373 -0.1212384626 0.5612698197 4291214525
-0.3012832105 -0.1210088581 0.5631032586 4290689210
-0.3018006682 -0.1205899715 0.5640704036 4292991965
-0.3023180366 -0.1201688945 0.5650373697 4293650926
-0.3666931093 -0.1796354204 0.6867811084 4290295740
-0.3658536375 -0.1784628630 0.6852087975 4289966775
-0.3645543456 -0.1770704538 0.6827753782 4290162866
-0.3632541597 -0.1756830364 0.6803402901 4289373350
-0.3601157963 -0.1734158248 0.6744624376 4287003773
-0.3055198193 -0.1464890540 0.5722094178 4286345843
-0.3032864332 -0.1447870731 0.5680264235 4287132789
-0.3010518253 -0.1430938244 0.5638412237 4287066996
-0.2997354567 -0.1418444067 0.5613757968 4290027681
-0.2979584634 -0.1403834522 0.5580477118 4291475127
-0.2971003056 -0.1393608898 0.5564404130 4288974994
-0.2980815470 -0.1392008662 0.5582782030 4288514443
-0.2967624068 -0.1379673034 0.5558075905 4289106837
-0.2968230844 -0.1373778433 0.5559211969 4289567388
-0.2968834937 -0.1367880106 0.5560343862 4289567390
-0.2964833081 -0.1359866560 0.5552848577 4288777874
-0.2965431809 -0.1353970319 0.5553969741 4288514702
-0.2961422205 -0.1345977187 0.5546460152 4287462014
-0.2962015271 -0.1340082884 0.5547571182 4288909460
-0.2962605953 -0.1334185153 0.5548676848 4289567390
-0.2958585620 -0.1326218098 0.5541147590 4289699746
-0.2959170640 -0.1320322454 0.5542243123 4289897125
-0.2955142856 -0.1312375963 0.5534699559 4290553772
-0.2955722213 -0.1306482553 0.5535784364 4290224807
-0.2956298888 -0.1300585568 0.5536864996 4290422186
-0.2956873477 -0.1294685304 0.5537940860 4290422186
-0.2957445681 -0.1288781613 0.5539012551 4290356393
-0.2958015203 -0.1282874346 0.5540079474 4290422186
-0.2963198125 -0.1278955936 0.5549786091 4290554287
-0.2963763773 -0.1273032725 0.5550845861 4290817459
-0.2968944609 -0.1269079894 0.5560548902 4290817459
-0.2969506383 -0.1263140738 0.5561600924 4290751666
-0.2974684834 -0.1259153336 0.5571299791 4291672768
-0.2975242734 -0.1253198236 0.5572344661 4290817459
-0.2980418801 -0.1249176413 0.5582039356 4291212217
-0.2980972826 -0.1243205369 0.5583076477 4291146424
-0.2981524169 -0.1237230971 0.5584108829 4292068040
-0.2986696362 -0.1233162135 0.5593796372 4290423215
-0.2991867959 -0.1229071543 0.5603482127 4289832107
-0.2997038662 -0.1224959046 0.5613166094 4291740104
-0.2997582555 -0.1218943670 0.5614185333 4289964206
-0.3002750874 -0.1214796752 0.5623865128 4290687929
-0.3003290892 -0.1208765581 0.5624876022 4290886848
-0.3013084829 -0.1206437498 0.5643219352 4292663259
-0.3022879958 -0.1204068959 0.5661564469 4293585903
-0.3646375239 -0.1797611415 0.6843547225 4293191662
-0.3642578423 -0.1788143963 0.6836421490 4290361276
-0.3634194136 -0.1776449829 0.6820685863 4289111209
-0.3625803292 -0.1764787436 0.6804937720 4290031280
-0.3608235717 -0.1748712659 0.6771966815 4290557624
-0.3576900661 -0.1726067513 0.6713156700 4290096042
-0.3050180972 -0.1465533525 0.5724605322 4288780182
-0.3023296595 -0.1446311772 0.5674148202 4287725439
-0.3005575538 -0.1431566775 0.5640889406 4287264888
-0.2992434204 -0.1419067532 0.5616225004 4289896095
-0.2983874977 -0.1408786476 0.5600161552 4291672506
-0.2970718443 -0.1396380067 0.5575469136 4289238423
-0.2966738641 -0.1388322860 0.5568000078 4287396219
-0.2962754667 -0.1380280405 0.5560522676 4286804852
-0.2963360846 -0.1374383420 0.5561659932 4285883750
-0.2963964641 -0.1368482709 0.5562793612 4285686371
-0.2959969640 -0.1360465884 0.5555295944 4284962648
-0.2960567772 -0.1354567260 0.5556418300 4286804854
-0.2961163521 -0.1348665059 0.5557536483 4284831064
-0.2957158089 -0.1340674162 0.5550018549 4287396991
-0.2957748175 -0.1334774047 0.5551126599 4287528577
-0.2958335876 -0.1328870356 0.5552229285 4288778901
-0.2954319417 -0.1320905685 0.5544691682 4288515729
-0.2954901755 -0.1315004230 0.5545784235 4291081656
-0.2950877845 -0.1307060122 0.5538232327 4291213242
-0.2951454222 -0.1301160902 0.5539314151 4289107609
-0.2952028215 -0.1295258254 0.5540391207 4289107609
-0.2952599823 -0.1289352030 0.5541464090 4290950070
-0.2953169048 -0.1283442527 0.5542532802 4289568417
-0.2953736186 -0.1277529448 0.5543596745 4288252559
-0.2958909273 -0.1273596883 0.5553305745 4290686900
-0.2954862714 -0.1265693456 0.5545710921 4288648087
-0.2960032821 -0.1261735559 0.5555414557 4287661192
-0.2965202332 -0.1257755905 0.5565117002 4288384145
-0.2965759039 -0.1251807511 0.5566161275 4288252559
-0.2970926464 -0.1247793511 0.5575859547 4289305247
-0.2971478999 -0.1241829172 0.5576896667 4290028970
-0.2976644039 -0.1237780675 0.5586590171 4291016635
-0.2977192402 -0.1231800467 0.5587619543 4290095533
-0.2977738380 -0.1225817055 0.5588644147 4289503655
-0.2982899547 -0.1221721470 0.5598330498 4290819515
-0.2988059819 -0.1217604131 0.5608015656 4290096305
-0.2993219197 -0.1213464886 0.5617699027 4291346372
-0.3007617891 -0.1213030443 0.5644722581 4291807952
-0.3012777269 -0.1208828911 0.5654405951 4293321191
-0.3022557795 -0.1206450239 0.5672761202 4293651696
-0.3617498875 -0.1787101030 0.6803534031 4293389041
-0.3609129786 -0.1775424927 0.6787794232 4290492862
-0.3600754142 -0.1763780415 0.6772041917 4289440174
-0.3583982587 -0.1740586758 0.6740499139 4289965487
-0.3548117578 -0.1715754420 0.6673046350 4290425007
-0.3045157194 -0.1466175914 0.5727114677 4290556593
-0.3018317521 -0.1446946114 0.5676636696 4291015604
-0.3000626266 -0.1432194859 0.5643364191 4289568158
-0.2987506986 -0.1419690400 0.5618690252 4290226088
-0.2978962660 -0.1409405023 0.5602620840 4291212983
-0.2974995971 -0.1401311755 0.5595160723 4289633951
-0.2966440320 -0.1391083002 0.5579069853 4287396989
-0.2962464392 -0.1383028179 0.5571591854 4287002231
-0.2958484292 -0.1374987811 0.5564106107 4286410094
-0.2959087491 -0.1369084865 0.5565240979 4285094747
-0.2959688604 -0.1363178343 0.5566371083 4284699989
-0.2955697477 -0.1355163753 0.5558865070 4286344301
-0.2956292927 -0.1349259168 0.5559985042 4285160027
-0.2956885695 -0.1343351007 0.5561100245 4285752423
-0.2952884138 -0.1335362643 0.5553573966 4287792006
-0.2953471243 -0.1329456568 0.5554678440 4289765796
-0.2949461937 -0.1321488619 0.5547137856 4287989385
-0.2950043678 -0.1315584630 0.5548232198 4291148732
-0.2946026921 -0.1307637393 0.5540677905 4289832872
-0.2946603000 -0.1301735640 0.5541760921 4288385426
-0.2947176695 -0.1295830607 0.5542839766 4290425009
-0.2947747707 -0.1289922148 0.5543913841 4290951353
-0.2948316634 -0.1284010112 0.5544983745 4287398531
-0.2948883176 -0.1278094798 0.5546049476 4286214003
-0.2949447036 -0.1272175908 0.5547109842 4289635239
-0.2950008810 -0.1266253889 0.5548166037 4287661449
-0.2955171168 -0.1262294501 0.5557875037 4288714137
-0.2955728769 -0.1256356388 0.5558924079 4289503653
-0.2960888743 -0.1252362430 0.5568628907 4288253586
-0.2961442471 -0.1246408373 0.5569670200 4288845723
-0.2966600358 -0.1242380142 0.5579370260 4289503653
-0.2967149913 -0.1236410066 0.5580404401 4289898413
-0.2967697084 -0.1230436713 0.5581433177 4290029999
-0.2972851098 -0.1226361468 0.5591126680 4290293171
-0.2978004217 -0.1222264245 0.5600817800 4291082687
-0.2983156443 -0.1218145266 0.5610507727 4291740876
-0.2988307774 -0.1214004382 0.5620196462 4292990943
-0.2998071015 -0.1211705804 0.5638558269 4292927203
-0.3003221750 -0.1207511872 0.5648245215 4293519340
-0.3012985587 -0.1205141693 0.5666608214 4293454317
-0.3606953025 -0.1785621196 0.6797900200 4293323248
-0.3598597646 -0.1773949414 0.6782153249 4290098361
-0.3590235412 -0.1762309223 0.6766393185 4290032568
-0.3581866622 -0.1750700921 0.6750620604 4290755003
-0.3559781909 -0.1732452512 0.6708998680 4290360245
-0.3523972929 -0.1707645953 0.6641510129 4288649109
-0.3040126860 -0.1466818005 0.5729622245 4288714902
-0.3013332188 -0.1447579861 0.5679123402 4289963943
-0.2991096973 -0.1430635005 0.5637217760 4290621873
-0.2982573509 -0.1420312673 0.5621153712 4291016631
-0.2974043787 -0.1410023272 0.5605077744 4290950838
-0.2970084250 -0.1401926577 0.5597615838 4291016631
-0.2966120541 -0.1393844634 0.5590145588 4290161322
-0.2962152660 -0.1385777295 0.5582666993 4289898150
-0.2958180606 -0.1377724558 0.5575181246 4289042841
-0.2954204082 -0.1369686574 0.5567686558 4288516497
-0.2954804599 -0.1363777667 0.5568818450 4288121739
-0.2950820625 -0.1355759799 0.5561310053 4287266432
-0.2951415479 -0.1349852830 0.5562431216 4287266432
-0.2947424352 -0.1341855526 0.5554909110 4288911257
-0.2943428755 -0.1333872974 0.5547378659 4287134846
-0.2939428985 -0.1325905174 0.5539840460 4288713878
-0.2940011621 -0.1320011616 0.5540938377 4287595397
-0.2940591872 -0.1314114630 0.5542032123 4291017146
-0.2941169739 -0.1308214068 0.5543121696 4289898665
-0.2941745520 -0.1302310079 0.5544206500 4288319633
-0.2942318618 -0.1296402663 0.5545286536 4288911770
-0.2942889333 -0.1290491670 0.5546362400 4288450965
-0.2943457663 -0.1284577399 0.5547433496 4287924621
-0.2944023609 -0.1278659552 0.5548500419 4288187793
-0.2944587469 -0.1272738427 0.5549562573 4288714137
-0.2945148647 -0.1266813874 0.5550619960 4288779930
-0.2950302958 -0.1262852997 0.5560334325 4291082685
-0.2950859964 -0.1256912351 0.5561384559 4291543236
-0.2951414883 -0.1250968426 0.5562430024 4290095790
-0.2951967418 -0.1245021150 0.5563471317 4290687929
-0.2957116365 -0.1241000593 0.5573174953 4291674824
-0.2962264419 -0.1236958131 0.5582877994 4291937996
-0.2962811291 -0.1230982319 0.5583908558 4292201168
-0.2967956960 -0.1226905435 0.5593606234 4292859357
-0.2973102033 -0.1222806647 0.5603303313 4292333013
-0.2978246510 -0.1218686029 0.5612998605 4292399576
-0.2983390093 -0.1214543507 0.5622692108 4293057506
-0.2993137538 -0.1212244108 0.5641062856 4293190375
-0.3002885878 -0.1209904179 0.5659435391 4293650926
-0.3008028269 -0.1205677390 0.5669127703 4293520880
-0.3587298393 -0.1779616326 0.6775039434 4293060589
-0.3578954339 -0.1767966896 0.6759281158 4290295740
-0.3570603728 -0.1756349355 0.6743509769 4287927192
-0.3557685316 -0.1742529422 0.6719111800 4288386968
-0.3540196419 -0.1726534665 0.6686081886 4289176484
-0.3499881327 -0.1699529141 0.6609941721 4289636004
-0.3035089970 -0.1467459351 0.5732128024 4288714902
-0.3008340001 -0.1448213309 0.5681607723 4288714391
-0.2990708351 -0.1433449686 0.5648308396 4288188047
-0.2977633476 -0.1420934647 0.5623614788 4288056461
-0.2969118357 -0.1410640776 0.5607533455 4288780184
-0.2965165973 -0.1402540952 0.5600068569 4290161837
-0.2961209416 -0.1394455731 0.5592595935 4289767079
-0.2957248688 -0.1386385113 0.5585115552 4290293423
-0.2953283489 -0.1378329098 0.5577627420 4290951353
-0.2949314415 -0.1370287836 0.5570130944 4290622388
-0.2949914336 -0.1364376545 0.5571264029 4290227630
-0.2945937514 -0.1356355399 0.5563753247 4290753974
-0.2946532071 -0.1350446194 0.5564876199 4290622388
-0.2942547798 -0.1342445463 0.5557351112 4290425009
-0.2938559353 -0.1334459633 0.5549818873 4290490802
-0.2939144671 -0.1328558028 0.5550924540 4290490802
-0.2939727902 -0.1322652847 0.5552025437 4290425009
-0.2940308750 -0.1316744238 0.5553122759 4291477954
-0.2936306298 -0.1308790445 0.5545563698 4291346368
-0.2936881185 -0.1302884072 0.5546649694 4290293682
-0.2937453985 -0.1296974123 0.5547731519 4290688440
-0.2938024402 -0.1291060895 0.5548808575 4290820026
-0.2943176627 -0.1287149042 0.5558539033 4291412163
-0.2943743169 -0.1281219572 0.5559608936 4291740615
-0.2944307327 -0.1275286824 0.5560674071 4291345857
-0.2944868803 -0.1269350648 0.5561735034 4291609029
-0.2945428193 -0.1263411045 0.5562791228 4292530131
-0.2945984900 -0.1257468015 0.5563842654 4292464853
-0.2946539223 -0.1251521707 0.5564889908 4292070095
-0.2951681912 -0.1247512102 0.5574601889 4291938509
-0.2956823707 -0.1243480667 0.5584312677 4292070095
-0.2957372367 -0.1237505749 0.5585349202 4292135375
-0.2962511778 -0.1233439818 0.5595055819 4291872203
