VERSION 0.7
FIELDS x y z rgba
SIZE 4 4 4 4
TYPE F F F U
COUNT 1 1 1 1
WIDTH 920
HEIGHT 1
VIEWPOINT 0.0 0.0 0.0 1.0 0.0 0.0 0.0
POINTS 920
DATA ascii
-0.2803882062 -0.1082437336 0.5491281748 4291811038
-0.2808833122 -0.1078236699 0.5500978231 4291876831
-0.2813783288 -0.1074014232 0.5510672927 4291942624
-0.2818732560 -0.1069769785 0.5520365834 4291942624
-0.2823680639 -0.1065503508 0.5530056953 4291942624
-0.2828628123 -0.1061215252 0.5539746284 4292008417
-0.2838057876 -0.1058577448 0.5558213592 4292140003
-0.2843003869 -0.1054235995 0.5567900538 4292140003
-0.2852433920 -0.1051525921 0.5586368442 4292205796
-0.2857378423 -0.1047131121 0.5596052408 4292337382
-0.2866808474 -0.1044348776 0.5614520907 4292534761
-0.2880726159 -0.1043150350 0.5641777515 4292666347
-0.2890157402 -0.1040276662 0.5660248399 4292666345
-0.2904077768 -0.1038967818 0.5687510967 4292863724
-0.2917999625 -0.1037598997 0.5714775920 4293390068
-0.3161782324 -0.1864499599 0.6205713153 4292140003
-0.3193267584 -0.1876102835 0.6267510056 4289705660
-0.3066817820 -0.1795123369 0.6019324064 4288324007
-0.2953469157 -0.1722335368 0.5796850920 4288060319
-0.2998087108 -0.1741816700 0.5884424448 4287994526
-0.2932958007 -0.1697582304 0.5756593943 4287665561
-0.2920495570 -0.1684000194 0.5732132792 4289047214
-0.2912417054 -0.1672990918 0.5716277361 4290494659
-0.2908726335 -0.1664527506 0.5709033012 4290099901
-0.2909426093 -0.1658583283 0.5710406303 4289770939
-0.2905727625 -0.1650138348 0.5703147650 4289770939
-0.2906421721 -0.1644194424 0.5704510212 4289705146
-0.2898317873 -0.1633289605 0.5688604116 4289705146
-0.2894606590 -0.1624885798 0.5681320429 4289639353
-0.2895291150 -0.1618956327 0.5682663918 4289639353
-0.2887171209 -0.1608119756 0.5666726828 4289639353
-0.2874642909 -0.1594872773 0.5642136931 4289573560
-0.2844493091 -0.1571942419 0.5582961440 4289507767
-0.2862773836 -0.1575801820 0.5618841052 4289507767
-0.2819386423 -0.1545771062 0.5533683300 4289507767
-0.2828852236 -0.1544791758 0.5552262068 4289441974
-0.2811875641 -0.1529389322 0.5518942475 4289441974
-0.2808114290 -0.1521219760 0.5511559248 4289376181
-0.2799939215 -0.1510685086 0.5495513678 4289376181
-0.2796168029 -0.1502552927 0.5488112569 4289310388
-0.2787981629 -0.1492073983 0.5472044945 4289376181
-0.2779788971 -0.1481627524 0.5455964804 4289376181
-0.2776003778 -0.1473556161 0.5448535085 4289376181
-0.2772214115 -0.1465499103 0.5441097617 4289376181
-0.2781666517 -0.1464429945 0.5459649563 4289310386
-0.2769038975 -0.1451743543 0.5434865355 4289244593
-0.2765238285 -0.1443720609 0.5427405238 4289244593
-0.2765851319 -0.1438009292 0.5428609252 4289244593
-0.2762043178 -0.1430006027 0.5421134830 4289310386
-0.2758230865 -0.1422017366 0.5413652062 4289310386
-0.2758835852 -0.1416312903 0.5414839387 4289310386
-0.2759438455 -0.1410604715 0.5416021943 4289310386
-0.2751192451 -0.1400389820 0.5399837494 4289244593
-0.2751789093 -0.1394692510 0.5401008129 4289310386
-0.2752383053 -0.1388991475 0.5402174592 4289376179
-0.2748549283 -0.1381062865 0.5394649506 4289376179
-0.2753565013 -0.1377578378 0.5404494405 4289245362
-0.2745296955 -0.1367455125 0.5388265848 4289245362
-0.2745880485 -0.1361757815 0.5389411449 4289311155
-0.2746461928 -0.1356056780 0.5390552878 4289311155
-0.2742610276 -0.1348174214 0.5382993221 4289376948
-0.2738754749 -0.1340306550 0.5375425816 4289376948
-0.2743760347 -0.1336772740 0.5385249853 4289442742
-0.2739898264 -0.1328916252 0.5377670527 4289442742
-0.2740466893 -0.1323215812 0.5378786325 4289639351
-0.2736597955 -0.1315379888 0.5371192098 4289639351
-0.2741597295 -0.1311804205 0.5381004810 4289770937
-0.2742159367 -0.1306093186 0.5382107496 4289836730
-0.2742718756 -0.1300378591 0.5383206010 4289770939
-0.2743276358 -0.1294660568 0.5384300351 4289836732
-0.2743831575 -0.1288938969 0.5385389924 4289968318
-0.2744384408 -0.1283214092 0.5386475325 4289968318
-0.2744935155 -0.1277485639 0.5387555957 4289968316
-0.2745483816 -0.1271753609 0.5388632417 4289968316
-0.2741586566 -0.1263969839 0.5380983353 4290099902
-0.2742129564 -0.1258240342 0.5382049680 4290165695
-0.2747115493 -0.1254537404 0.5391835570 4290165695
-0.2743209004 -0.1246771216 0.5384168029 4290297281
-0.2743745446 -0.1241031587 0.5385220647 4290363076
-0.2744279206 -0.1235288605 0.5386269093 4290297283
-0.2749259770 -0.1231535077 0.5396044254 4290363076
-0.2749790251 -0.1225776076 0.5397084951 4290428869
-0.2750318348 -0.1220013797 0.5398121476 4290494662
-0.2750844061 -0.1214248165 0.5399153233 4290560455
-0.2751367390 -0.1208479255 0.5400180817 4290625994
-0.2751888633 -0.1202707067 0.5401204228 4290691787
-0.2756861448 -0.1198868379 0.5410963893 4290757580
-0.2757378817 -0.1193080321 0.5411979556 4290823373
-0.2757893801 -0.1187288985 0.5412990451 4290823375
-0.2758406699 -0.1181494445 0.5413997173 4290823375
-0.2758917212 -0.1175696626 0.5414999127 4290954961
-0.2763883173 -0.1171785593 0.5424745679 4291086547
-0.2764389813 -0.1165971979 0.5425740480 4290955729
-0.2769353688 -0.1162026450 0.5435482860 4290955729
-0.2765396237 -0.1154335290 0.5427715182 4291021522
-0.2770356834 -0.1150364578 0.5437452197 4291021522
-0.2775316834 -0.1146371961 0.5447186828 4291087315
-0.2775813341 -0.1140523776 0.5448161364 4291153108
-0.2776307464 -0.1134672463 0.5449131727 4291218901
-0.2776799500 -0.1128818020 0.5450096726 4291284694
-0.2781753838 -0.1124765798 0.5459821224 4291351000
-0.2782241702 -0.1118895784 0.5460778475 4291351000
-0.2782727182 -0.1113022640 0.5461731553 4291416793
-0.2787677646 -0.1108923554 0.5471447706 4291482586
-0.2792627215 -0.1104802489 0.5481162667 4291547866
-0.2793107033 -0.1098901331 0.5482104421 4291547866
-0.2798054218 -0.1094745845 0.5491814017 4291613659
-0.2798529863 -0.1088829190 0.5492748022 4291679452
-0.2803474665 -0.1084639356 0.5502452850 4291811038
-0.2803946137 -0.1078707203 0.5503378510 4291876831
-0.2808888257 -0.1074483022 0.5513078570 4291942624
-0.2813829184 -0.1070236862 0.5522776246 4291942624
-0.2818769217 -0.1065968871 0.5532472134 4292008417
-0.2823708355 -0.1061678901 0.5542166233 4292074210
-0.2833122313 -0.1059040129 0.5560643077 4292140003
-0.2838059962 -0.1054696888 0.5570334792 4292205796
-0.2847473919 -0.1051985770 0.5588811636 4292271589
-0.2852410376 -0.1047589257 0.5598500967 4292403175
-0.2861824632 -0.1044805795 0.5616977811 4292600554
-0.2875718176 -0.1043606997 0.5644247532 4292666347
-0.2885133624 -0.1040732190 0.5662727356 4292732138
-0.2903510630 -0.1041029468 0.5698796511 4292995310
-0.2917409539 -0.1039650664 0.5726076365 4293587447
-0.3165749013 -0.1863998622 0.6227073073 4291547866
-0.3105213046 -0.1821568459 0.6107997894 4288981939
-0.3044644594 -0.1779383868 0.5988858938 4288586665
-0.2979661822 -0.1734894067 0.5861037374 4288191907
-0.2945325375 -0.1708464772 0.5793496966 4287862940
-0.2924121618 -0.1689774692 0.5751788616 4289113007
-0.2911675274 -0.1676218808 0.5727306604 4290494660
-0.2907992303 -0.1667743176 0.5720062256 4290363074
-0.2904305458 -0.1659281403 0.5712809563 4289770939
-0.2900614142 -0.1650833189 0.5705549121 4289770939
-0.2901307642 -0.1644887179 0.5706913471 4289705146
-0.2893218696 -0.1633977890 0.5691002011 4289639353
-0.2893905938 -0.1628041416 0.5692353845 4289639353
-0.2890198529 -0.1619639248 0.5685061216 4289573560
-0.2886486948 -0.1611250937 0.5677760243 4289573560
-0.2869587541 -0.1595546156 0.5644519329 4289507767
-0.2826305032 -0.1565303355 0.5559381843 4289573560
-0.2840154469 -0.1566766500 0.5586623549 4289507767
-0.2827622592 -0.1553673595 0.5561973453 4289507767
-0.2819480896 -0.1543038040 0.5545958877 4289507767
-0.2811333239 -0.1532434821 0.5529932380 4289376181
-0.2803179026 -0.1521863788 0.5513893366 4289376181
-0.2799420655 -0.1513705105 0.5506500006 4289376181
-0.2791255116 -0.1503189653 0.5490438342 4289310388
-0.2783083618 -0.1492706686 0.5474364758 4289376181
-0.2779310644 -0.1484608799 0.5466943383 4289376181
-0.2779938877 -0.1478868872 0.5468179584 4289376179
-0.2771752179 -0.1468455940 0.5452075601 4289310386
-0.2767966688 -0.1460401118 0.5444629192 4289310386
-0.2768585682 -0.1454676986 0.5445846915 4289244593
-0.2764792740 -0.1446641684 0.5438386798 4289244593
-0.2765406370 -0.1440919042 0.5439593792 4289244593
-0.2761606574 -0.1432903558 0.5432118773 4289376179
-0.2762214839 -0.1427182406 0.5433315635 4289244593
-0.2753994167 -0.1416916102 0.5417145491 4289244593
-0.2754596174 -0.1411205679 0.5418329835 4289310386
-0.2755196095 -0.1405491680 0.5419510007 4289244593
-0.2751377523 -0.1397530586 0.5411998630 4289310386
-0.2747555077 -0.1389584094 0.5404479504 4289441972
-0.2748146355 -0.1383877248 0.5405642986 4289376179
-0.2744316459 -0.1375950873 0.5398109555 4289311155
-0.2740482688 -0.1368039399 0.5390567780 4289245362
-0.2741065621 -0.1362339854 0.5391715169 4289311155
-0.2741646469 -0.1356636584 0.5392857194 4289376948
-0.2737802267 -0.1348750889 0.5385295749 4289376948
-0.2733953893 -0.1340880096 0.5377725959 4289376948
-0.2738951147 -0.1337345093 0.5387555361 4289507765
-0.2735096514 -0.1329485476 0.5379973650 4289573558
-0.2735664546 -0.1323782802 0.5381090641 4289573558
-0.2736230493 -0.1318076551 0.5382204056 4289639351
-0.2736794055 -0.1312366724 0.5383312106 4289770939
-0.2737355232 -0.1306653470 0.5384416580 4289836732
-0.2737914622 -0.1300936639 0.5385516286 4289770939
-0.2738471329 -0.1295216382 0.5386611819 4289836732
-0.2739026248 -0.1289492697 0.5387703180 4289968318
-0.2739578485 -0.1283765435 0.5388789773 4289902525
-0.2740128934 -0.1278034747 0.5389872193 4290034109
-0.2740676701 -0.1272300631 0.5390949845 4289968316
-0.2741222382 -0.1266562939 0.5392023325 4290034109
-0.2737329602 -0.1258781850 0.5384365916 4290099902
-0.2742307186 -0.1255077571 0.5394157171 4290165697
-0.2738407850 -0.1247308254 0.5386487246 4290297283
-0.2743383050 -0.1243578643 0.5396273136 4290363076
-0.2739477456 -0.1235821098 0.5388590693 4290363076
-0.2744449377 -0.1232066154 0.5398371220 4290363076
-0.2744979262 -0.1226304919 0.5399413109 4290494662
-0.2745507061 -0.1220540330 0.5400451422 4290494408
-0.2750475705 -0.1216738075 0.5410224795 4290494408
-0.2750999629 -0.1210957542 0.5411255360 4290691787
-0.2751521170 -0.1205173731 0.5412281156 4290691787
-0.2752040625 -0.1199386567 0.5413302779 4290691787
-0.2752557397 -0.1193596199 0.5414319634 4290823373
-0.2753072083 -0.1187802553 0.5415331721 4290889168
-0.2753584385 -0.1182005629 0.5416339636 4290823375
-0.2754094601 -0.1176205501 0.5417342782 4290954961
-0.2759052217 -0.1172292978 0.5427094698 4291086547
-0.2759558558 -0.1166477054 0.5428090692 4290955729
-0.2760062516 -0.1160657927 0.5429081917 4290955729
-0.2760563791 -0.1154835671 0.5430068374 4291021522
-0.2765516341 -0.1150863469 0.5439810157 4291021522
-0.2770468295 -0.1146869287 0.5449550152 4291087315
-0.2770964205 -0.1141018718 0.5450525880 4291218901
-0.2771458030 -0.1135165021 0.5451496840 4291218901
-0.2771949470 -0.1129308194 0.5452463627 4291284694
-0.2776895761 -0.1125254482 0.5462192893 4291285207
-0.2777383029 -0.1119382009 0.5463151932 4291351000
-0.2777868211 -0.1113506481 0.5464105606 4291416793
-0.2782810330 -0.1109405756 0.5473827124 4291482586
-0.2787751853 -0.1105283126 0.5483546853 4291547866
-0.2792692184 -0.1101138517 0.5493265390 4291613659
-0.2793169916 -0.1095222458 0.5494204760 4291679452
-0.2798108160 -0.1091043428 0.5503917933 4291745245
-0.2798581719 -0.1085111871 0.5504850149 4291811038
-0.2803517282 -0.1080898419 0.5514557958 4291811038
-0.2803986669 -0.1074951366 0.5515481830 4291942624
-0.2808919549 -0.1070703566 0.5525184870 4291942624
-0.2813851535 -0.1066433862 0.5534885526 4291942624
-0.2818782330 -0.1062142178 0.5544584990 4292074210
-0.2832648158 -0.1061176211 0.5571858883 4292205796
-0.2837578356 -0.1056821719 0.5581556559 4292271589
-0.2842507660 -0.1052445248 0.5591253042 4292337382
-0.2847436070 -0.1048046947 0.5600947142 4292403175
-0.2856833935 -0.1045262441 0.5619432926 4292600554
-0.2870703936 -0.1044063270 0.5646715164 4292666347
-0.2884575427 -0.1042804047 0.5674000978 4292732138
-0.2898448706 -0.1041484848 0.5701289773 4293061103
-0.2912323773 -0.1040105596 0.5728582144 4293653240
-0.3129559159 -0.1846724451 0.6169365048 4293061105
-0.3077867031 -0.1809480041 0.6067463756 4290626764
-0.3104861677 -0.1818549633 0.6120678782 4288915630
-0.3013765812 -0.1758592874 0.5941099524 4288455079
-0.2966374755 -0.1724442095 0.5847676396 4288060321
-0.2932086587 -0.1698087305 0.5780083537 4288652458
-0.2915288508 -0.1681973487 0.5746969581 4290165697
-0.2907236814 -0.1670960337 0.5731096268 4289902525
-0.2903557718 -0.1662486196 0.5723844171 4289836732
-0.2899874747 -0.1654025912 0.5716583133 4289770939
-0.2896187305 -0.1645579189 0.5709314346 4289639353
-0.2892495394 -0.1637146175 0.5702036619 4289573560
-0.2893182933 -0.1631198525 0.5703392029 4289639353
-0.2889483869 -0.1622784138 0.5696099997 4289573560
-0.2881394625 -0.1611929983 0.5680153966 4289507767
-0.2868912518 -0.1598663479 0.5655547380 4289573560
-0.2852034271 -0.1583011597 0.5622274876 4289573560
-0.2839534581 -0.1569854170 0.5597633719 4289507767
-0.2813856900 -0.1549495012 0.5547015071 4289507767
-0.2810119092 -0.1541281790 0.5539646149 4289441974
-0.2801985145 -0.1530683339 0.5523611903 4289376181
-0.2793844938 -0.1520117223 0.5507565141 4289376181
-0.2790092528 -0.1511964500 0.5500167608 4289376181
-0.2790730894 -0.1506197900 0.5501425862 4289376181
-0.2782575190 -0.1495701671 0.5485348701 4289310388
-0.2778810263 -0.1487591565 0.5477926731 4289376181
-0.2775041461 -0.1479495764 0.5470497012 4289376181
-0.2771268189 -0.1471414268 0.5463058949 4289310388
-0.2767491043 -0.1463347077 0.5455612540 4289310388
-0.2763709426 -0.1455294341 0.5448158383 4289310388
-0.2759923935 -0.1447255909 0.5440695882 4289310388
-0.2760536969 -0.1441531181 0.5441904664 4289244595
-0.2756744325 -0.1433512568 0.5434427857 4289113523
-0.2757351995 -0.1427789181 0.5435625911 4289113523
-0.2753552198 -0.1419790536 0.5428134799 4289179316
-0.2749747932 -0.1411806196 0.5420635343 4289179316
-0.2750347257 -0.1406089962 0.5421817303 4289179316
-0.2746535838 -0.1398125738 0.5414303541 4289245109
-0.2742720544 -0.1390176266 0.5406782031 4289245109
-0.2743311524 -0.1384467185 0.5407947302 4289245109
-0.2739488780 -0.1376537681 0.5400411487 4289310902
-0.2740074396 -0.1370830387 0.5401566029 4289310902
-0.2736244500 -0.1362921298 0.5394016504 4289310902
-0.2736825049 -0.1357215941 0.5395160317 4289310902
-0.2737403214 -0.1351507008 0.5396299958 4289310902
-0.2733562887 -0.1343623698 0.5388729572 4289376695
-0.2734135687 -0.1337916851 0.5389859080 4289573560
-0.2730288506 -0.1330054104 0.5382274985 4289573560
-0.2730855942 -0.1324349195 0.5383393168 4289705146
-0.2731421292 -0.1318640709 0.5384507775 4289639353
-0.2731984258 -0.1312928796 0.5385617614 4289639353
-0.2732545137 -0.1307213306 0.5386723280 4289705146
-0.2733103931 -0.1301494241 0.5387824774 4289770939
-0.2733660340 -0.1295771748 0.5388921499 4289836732
-0.2738638818 -0.1292133182 0.5398736000 4289902525
-0.2739191651 -0.1286394447 0.5399825573 4289968318
-0.2739742398 -0.1280652285 0.5400910974 4289968318
-0.2740290761 -0.1274906546 0.5401992202 4290034111
-0.2736409009 -0.1267107129 0.5394340158 4290034109
-0.2736952007 -0.1261363924 0.5395410657 4290099902
-0.2737492621 -0.1255617291 0.5396476388 4290231488
-0.2738031149 -0.1249867231 0.5397537947 4290297281
-0.2738567293 -0.1244113743 0.5398595333 4290363076
-0.2739101350 -0.1238356903 0.5399647951 4290428869
-0.2739633024 -0.1232596785 0.5400695801 4290362822
-0.2740162611 -0.1226833239 0.5401739478 4290428615
-0.2740689516 -0.1221066341 0.5402778387 4290494662
-0.2745650113 -0.1217262670 0.5412557125 4290560455
-0.2746173441 -0.1211479828 0.5413588881 4290626248
-0.2746694684 -0.1205693707 0.5414616466 4290626248
-0.2747213542 -0.1199904308 0.5415639281 4290691787
-0.2752168775 -0.1196040660 0.5425407887 4290757580
-0.2752684057 -0.1190235391 0.5426423550 4290889166
-0.2753196657 -0.1184426770 0.5427433848 4290889166
-0.2753707170 -0.1178615019 0.5428440571 4290954959
-0.2754215300 -0.1172799915 0.5429441929 4291020752
-0.2754721045 -0.1166981682 0.5430439115 4291020752
-0.2759668231 -0.1163033098 0.5440191627 4291086545
-0.2760170102 -0.1157199070 0.5441181064 4291152338
-0.2760669589 -0.1151361838 0.5442165732 4291152338
-0.2761166990 -0.1145521477 0.5443146229 4291218903
-0.2766108811 -0.1141513214 0.5452888012 4291218903
-0.2771050036 -0.1137482971 0.5462628603 4291284696
-0.2771541774 -0.1131614372 0.5463598371 4291350489
-0.2772031128 -0.1125742644 0.5464562774 4291416282
-0.2772518098 -0.1119867861 0.5465523005 4291482075
-0.2777453661 -0.1115778014 0.5475252271 4291547868
-0.2777936757 -0.1109887585 0.5476204753 4291547868
-0.2782869935 -0.1105763316 0.5485929251 4291613659
-0.2787802219 -0.1101617068 0.5495652556 4291613659
-0.2792733610 -0.1097448915 0.5505374074 4291679452
-0.2793209255 -0.1091517955 0.5506311655 4291745245
-0.2798138261 -0.1087315306 0.5516028404 4291811038
-0.2798609734 -0.1081368849 0.5516957641 4291876831
-0.2803536057 -0.1077131778 0.5526669025 4291942622
-0.2808461487 -0.1072872803 0.5536378622 4291942622
-0.2813385725 -0.1068591923 0.5546086431 4292008415
-0.2818309069 -0.1064289063 0.5555791855 4292008415
-0.2823231518 -0.1059964225 0.5565495491 4292074208
-0.2832613885 -0.1057282537 0.5583990812 4292271587
-0.2837534845 -0.1052904353 0.5593692064 4292337380
-0.2846917212 -0.1050150245 0.5612187386 4292468966
-0.2856299877 -0.1047355160 0.5630683899 4292534759
-0.2865682840 -0.1044519097 0.5649180412 4292534759
-0.2879530787 -0.1043259501 0.5676478744 4292930030
-0.2893379927 -0.1041939929 0.5703780651 4293061616
-0.2907231152 -0.1040560231 0.5731085539 4293587960
-0.3137876093 -0.1848807335 0.6199334264 4292271589
-0.3121186793 -0.1832122803 0.6166362166 4290033857
-0.3047723770 -0.1782310307 0.6021224856 4288520618
-0.2991691828 -0.1742975861 0.5910525918 4288323493
-0.2948735654 -0.1711476594 0.5825659037 4288652458
-0.2923234105 -0.1690258533 0.5775277615 4289837248
-0.2910829484 -0.1676696539 0.5750770569 4289837248
-0.2902788222 -0.1665692627 0.5734883547 4289836732
-0.2899113297 -0.1657219976 0.5727623105 4289770939
-0.2895433903 -0.1648761034 0.5720353723 4289639353
-0.2891750336 -0.1640315950 0.5713076591 4289573560
-0.2888062596 -0.1631884426 0.5705790520 4289639353
-0.2884370387 -0.1623466909 0.5698496699 4289639353
-0.2880674005 -0.1615063101 0.5691193938 4289573560
-0.2868215740 -0.1601782143 0.5666580200 4289507767
-0.2851368785 -0.1586114913 0.5633296967 4289507767
-0.2838892639 -0.1572943330 0.5608648658 4289441974
-0.2822026312 -0.1557403505 0.5575326085 4289507767
-0.2813915312 -0.1546750665 0.5559302568 4289507767
-0.2805798650 -0.1536129862 0.5543265939 4289441974
-0.2797675431 -0.1525541544 0.5527217984 4289376181
-0.2793932259 -0.1517367512 0.5519822240 4289376181
-0.2785797715 -0.1506834626 0.5503751636 4289376181
-0.2782045007 -0.1498697996 0.5496338010 4289310388
-0.2773899436 -0.1488220841 0.5480244756 4289310388
-0.2770137489 -0.1480121911 0.5472812653 4289310388
-0.2766371667 -0.1472037286 0.5465372205 4289310388
-0.2766993344 -0.1466294527 0.5466601253 4289310388
-0.2758827209 -0.1455911100 0.5450467467 4289310388
-0.2755048871 -0.1447869688 0.5443002582 4289310388
-0.2751266360 -0.1439842582 0.5435529947 4289244595
-0.2751875818 -0.1434120983 0.5436733961 4289113523
-0.2748086154 -0.1426113695 0.5429247022 4289113523
-0.2748690248 -0.1420393586 0.5430440307 4289113523
-0.2744893432 -0.1412406266 0.5422939062 4289179316
-0.2741092443 -0.1404433548 0.5415429473 4289179316
-0.2741688192 -0.1398720443 0.5416606665 4289245109
-0.2737880051 -0.1390767694 0.5409082770 4289245363
-0.2742873132 -0.1387283355 0.5418947339 4289245363
-0.2734654844 -0.1377123892 0.5402711630 4289245363
-0.2735240161 -0.1371414512 0.5403867364 4289245363
-0.2735823095 -0.1365701407 0.5405018926 4289245363
-0.2736403644 -0.1359984726 0.5406166315 4289245363
-0.2732574940 -0.1352083534 0.5398601890 4289311156
-0.2733150423 -0.1346368790 0.5399739146 4289376949
-0.2729314268 -0.1338488013 0.5392160416 4289442742
-0.2729884386 -0.1332775354 0.5393286943 4289508535
-0.2730452418 -0.1327058971 0.5394408703 4289705146
-0.2731018066 -0.1321339160 0.5395526290 4289705146
-0.2731581628 -0.1315615773 0.5396639705 4289705146
-0.2727729082 -0.1307772547 0.5389028192 4289705146
-0.2728286982 -0.1302051395 0.5390130877 4289770939
-0.2728843093 -0.1296326667 0.5391229391 4289836732
-0.2733813226 -0.1292686760 0.5401048660 4289902525
-0.2734365463 -0.1286945790 0.5402140021 4289968318
-0.2734915614 -0.1281201392 0.5403226614 4289968318
-0.2735463679 -0.1275453418 0.5404309034 4290034111
-0.2736009359 -0.1269702017 0.5405387282 4290099904
-0.2732131779 -0.1261905283 0.5397726297 4290165697
-0.2732671797 -0.1256156415 0.5398793817 4290231490
-0.2733210027 -0.1250404119 0.5399856567 4290297283
-0.2738169134 -0.1246662438 0.5409654379 4290362822
-0.2734279037 -0.1238889322 0.5401968956 4290428615
-0.2734810412 -0.1233126894 0.5403018594 4290428615
-0.2735339403 -0.1227361038 0.5404063463 4290428615
-0.2740292847 -0.1223568618 0.5413849950 4290428615
-0.2740818262 -0.1217786819 0.5414887667 4290560201
-0.2741340995 -0.1212001666 0.5415921211 4290625994
-0.2741861641 -0.1206213236 0.5416949391 4290691787
-0.2742380202 -0.1200421527 0.5417973995 4290757580
-0.2742896080 -0.1194626540 0.5418993235 4290757580
-0.2747841775 -0.1190748811 0.5428764224 4290823373
-0.2748354077 -0.1184937954 0.5429776311 4290889166
-0.2748863995 -0.1179123819 0.5430783629 4290889166
-0.2749371827 -0.1173306480 0.5431786776 4290954959
-0.2754312456 -0.1169368923 0.5441547632 4290955729
-0.2754816115 -0.1163535714 0.5442543030 4291021522
-0.2755317390 -0.1157699376 0.5443533659 4291021522
-0.2755816579 -0.1151859835 0.5444519520 4291087315
-0.2760751843 -0.1147862598 0.5454269648 4291153108
-0.2761247158 -0.1142007262 0.5455248356 4291153108
-0.2766180038 -0.1137975454 0.5464994311 4291218901
-0.2766671181 -0.1132104471 0.5465964675 4291350487
-0.2767160237 -0.1126230434 0.5466930270 4291351000
-0.2767646909 -0.1120353192 0.5467891693 4291416793
-0.2772574127 -0.1116261780 0.5477626324 4291482586
-0.2777500749 -0.1112148389 0.5487359762 4291548379
-0.2777981758 -0.1106243059 0.5488309860 4291613659
-0.2782905698 -0.1102095246 0.5498037934 4291613659
-0.2787829041 -0.1097925380 0.5507764220 4291679452
-0.2792751193 -0.1093733609 0.5517489314 4291745245
-0.2793224752 -0.1087787747 0.5518425107 4291811038
-0.2798144519 -0.1083561480 0.5528144240 4291876831
-0.2798613906 -0.1077600121 0.5529072285 4291942622
-0.2803530991 -0.1073339432 0.5538786650 4292008415
-0.2812898159 -0.1070751026 0.5557292104 4292008415
-0.2817814052 -0.1066436991 0.5567004085 4292008415
-0.2822728753 -0.1062100977 0.5576714277 4292140001
-0.2827642560 -0.1057742983 0.5586422682 4292271587
-0.2837009132 -0.1055019274 0.5604927540 4292337380
-0.2841921747 -0.1050607860 0.5614632964 4292468966
-0.2851288319 -0.1047811732 0.5633137822 4292600552
-0.2865111232 -0.1046602279 0.5660446882 4292600552
-0.2878935635 -0.1045332775 0.5687759519 4292798444
-0.2892762125 -0.1044003144 0.5715075135 4293127409
-0.3076421916 -0.1809817255 0.6091288328 4291350487
-0.3020514846 -0.1770282984 0.5980592370 4288850353
-0.3056131005 -0.1784433872 0.6051112413 4288192421
-0.2969661057 -0.1727412343 0.5879902840 4288324007
-0.2931126654 -0.1698549092 0.5803604722 4290034627
-0.2914384902 -0.1682436168 0.5770456791 4289903041
-0.2906360626 -0.1671410054 0.5754568577 4289902525
-0.2898329794 -0.1660415679 0.5738667250 4289836732
-0.2894658744 -0.1651944518 0.5731398463 4289639353
-0.2890983224 -0.1643487066 0.5724121332 4289573560
-0.2887303531 -0.1635043472 0.5716835856 4289639353
-0.2883619666 -0.1626613587 0.5709541440 4289639353
-0.2875561416 -0.1615741998 0.5693586469 4289573560
-0.2863125503 -0.1602455825 0.5668963790 4289441974
-0.2846309245 -0.1586782336 0.5635667443 4289441974
-0.2833855748 -0.1573605388 0.5611009598 4289441974
-0.2821393907 -0.1560478806 0.5586335063 4289507767
-0.2808924019 -0.1547402292 0.5561645031 4289507767
-0.2800821960 -0.1536777467 0.5545603037 4289441974
-0.2797091007 -0.1528577060 0.5538215637 4289376181
-0.2788977623 -0.1518007666 0.5522151589 4289376181
-0.2776478827 -0.1505096704 0.5497403741 4289310388
-0.2772732675 -0.1496966034 0.5489985943 4289376181
-0.2764600813 -0.1486493945 0.5473884940 4289310388
-0.2765227258 -0.1480747610 0.5475125909 4289310388
-0.2761468589 -0.1472659856 0.5467683673 4289244595
-0.2757705748 -0.1464586407 0.5460233092 4289244595
-0.2753938735 -0.1456527412 0.5452774763 4289310388
-0.2750167549 -0.1448482722 0.5445307493 4289310388
-0.2750779688 -0.1442753673 0.5446519256 4289244595
-0.2747001350 -0.1434728801 0.5439038277 4289113523
-0.2747607827 -0.1429001093 0.5440239310 4289113523
-0.2743822336 -0.1420996189 0.5432744026 4289113523
-0.2744423747 -0.1415270120 0.5433934927 4289179316
-0.2745023072 -0.1409540325 0.5435121655 4289179570
-0.2741227150 -0.1401560754 0.5427605510 4289179570
-0.2737427056 -0.1393595636 0.5420081615 4289245363
-0.2738018036 -0.1387873143 0.5421251655 4289245363
-0.2734210789 -0.1379928142 0.5413712859 4289245362
-0.2730399370 -0.1371998042 0.5406166911 4289245362
-0.2730981708 -0.1366282851 0.5407320261 4289245362
-0.2731561959 -0.1360563934 0.5408468843 4289245362
-0.2727740407 -0.1352659613 0.5400902033 4289311156
-0.2728315294 -0.1346942633 0.5402040482 4289376949
-0.2724486589 -0.1339058727 0.5394459367 4289442742
-0.2725056112 -0.1333343834 0.5395587087 4289508535
-0.2725623548 -0.1327625364 0.5396710634 4289770937
-0.2726188898 -0.1321903318 0.5397830009 4289770937
-0.2726751864 -0.1316177547 0.5398944616 4289770939
-0.2727312446 -0.1310448498 0.5400055051 4289770939
-0.2727870941 -0.1304715723 0.5401160717 4289770939
-0.2728427351 -0.1298979521 0.5402262211 4289836732
-0.2728981376 -0.1293239743 0.5403359532 4289902525
-0.2729533315 -0.1287496537 0.5404452085 4289968318
-0.2730082870 -0.1281749904 0.5405539870 4290034111
-0.2730630338 -0.1275999695 0.5406624079 4290034111
-0.2731175423 -0.1270246208 0.5407703519 4290099904
-0.2731718421 -0.1264489144 0.5408778191 4290231490
-0.2732259035 -0.1258728653 0.5409848690 4290231490
-0.2728382349 -0.1250940561 0.5402173400 4290363076
-0.2733333409 -0.1247197464 0.5411975980 4290428615
-0.2733867466 -0.1241426766 0.5413033366 4290428615
-0.2734398842 -0.1235652715 0.5414085984 4290494408
-0.2734928131 -0.1229875311 0.5415133834 4290428615
-0.2735455334 -0.1224094555 0.5416177511 4290494408
-0.2735980153 -0.1218310446 0.5417216420 4290625994
-0.2736502588 -0.1212523058 0.5418250561 4290691787
-0.2737022638 -0.1206732318 0.5419280529 4290757580
-0.2741962969 -0.1202878430 0.5429062843 4290823375
-0.2742479444 -0.1197071746 0.5430085063 4290823375
-0.2742993534 -0.1191261858 0.5431103110 4290692557
-0.2743505239 -0.1185448617 0.5432116389 4290758350
-0.2748440802 -0.1181534827 0.5441888571 4290824143
-0.2748948634 -0.1175705716 0.5442894101 4290889936
-0.2749454379 -0.1169873476 0.5443895459 4290955729
-0.2754386067 -0.1165912375 0.5453659892 4291021522
-0.2754887640 -0.1160064340 0.5454653502 4291087315
-0.2755387127 -0.1154213026 0.5455642343 4291153108
-0.2755884230 -0.1148358583 0.5456626415 4291153108
-0.2760810554 -0.1144337729 0.5466380715 4291153108
-0.2761303782 -0.1138467565 0.5467357039 4291153621
-0.2766227722 -0.1134412140 0.5477106571 4291285207
-0.2766716778 -0.1128526255 0.5478075147 4291351000
-0.2767203748 -0.1122637242 0.5479038954 4291416793
-0.2767688334 -0.1116745174 0.5479998589 4291482586
-0.2772606611 -0.1112630144 0.5489736795 4291548379
-0.2777523994 -0.1108493209 0.5499473214 4291613657
-0.2782440484 -0.1104334220 0.5509207845 4291679450
-0.2787356377 -0.1100153327 0.5518940687 4291745243
-0.2787831724 -0.1094208062 0.5519882441 4291811036
-0.2792744935 -0.1089992598 0.5529610515 4291876829
-0.2793216407 -0.1084031835 0.5530543923 4291942622
-0.2798126936 -0.1079781950 0.5540266633 4292008417
-0.2807478905 -0.1077214554 0.5558783412 4292008417
-0.2812388241 -0.1072911248 0.5568503737 4292008417
-0.2817296386 -0.1068585962 0.5578222275 4292008417
-0.2822203934 -0.1064238697 0.5587939024 4292140003
-0.2827110291 -0.1059869453 0.5597653389 4292271589
-0.2832015455 -0.1055478230 0.5607365966 4292403175
-0.2841366529 -0.1052712500 0.5625880361 4292534761
-0.2846270502 -0.1048267856 0.5635590553 4292666347
-0.2860069275 -0.1047058031 0.5662912130 4292666347
-0.2873869836 -0.1045788080 0.5690237284 4292929771
-0.2887672186 -0.1044458076 0.5717565417 4293324529
-0.3131834269 -0.1846476346 0.6214671135 4292732140
-0.3093445897 -0.1817022860 0.6138495207 4290232006
-0.3033276498 -0.1774992943 0.6019097567 4288324007
-0.2946957350 -0.1717983931 0.5847809315 4287929249
-0.2999922037 -0.1742246598 0.5952910781 4290100418
-0.2926612794 -0.1693218797 0.5807439089 4289837246
-0.2901183069 -0.1672109663 0.5756977201 4289968318
-0.2910595834 -0.1671117693 0.5775655508 4289902525
-0.2898219526 -0.1657622010 0.5751096606 4289705146
-0.2890194058 -0.1646659672 0.5735171437 4289573560
-0.2886522710 -0.1638203710 0.5727885962 4289573560
-0.2882846892 -0.1629761755 0.5720591545 4289639353
-0.2874804437 -0.1618876904 0.5704632998 4289507767
-0.2862392366 -0.1605576426 0.5680003166 4289441974
-0.2845607698 -0.1589887589 0.5646696091 4289441974
-0.2833178043 -0.1576696336 0.5622031093 4289441974
-0.2820740044 -0.1563555449 0.5597349405 4289441974
-0.2808293700 -0.1550464779 0.5572651625 4289441974
-0.2795839012 -0.1537424475 0.5547937155 4289441974
-0.2792115510 -0.1529220790 0.5540548563 4289376181
-0.2784017026 -0.1518647373 0.5524477959 4289376181
-0.2775912583 -0.1508106142 0.5508396029 4289310388
-0.2772174180 -0.1499963254 0.5500978231 4289179316
-0.2768431902 -0.1491834670 0.5493552089 4289179316
-0.2764685452 -0.1483720392 0.5486117601 4289179316
-0.2760935128 -0.1475620270 0.5478675365 4289179316
-0.2757180333 -0.1467534602 0.5471224785 4289113523
-0.2753421366 -0.1459463388 0.5463765860 4289113523
-0.2749658525 -0.1451406479 0.5456298590 4289179316
-0.2750270963 -0.1445666105 0.5457513928 4289179316
-0.2746500671 -0.1437628865 0.5450032949 4289113523
-0.2742726505 -0.1429606229 0.5442543030 4289113523
-0.2743330598 -0.1423872709 0.5443741679 4289113777
-0.2739548981 -0.1415869892 0.5436238050 4289179570
-0.2740147710 -0.1410138011 0.5437425971 4289179570
-0.2736358941 -0.1402155161 0.5429908037 4289179570
-0.2736952603 -0.1396424919 0.5431085229 4289179570
-0.2737543583 -0.1390690953 0.5432258844 4289245363
-0.2729356587 -0.1380514354 0.5416012406 4289311155
-0.2729941607 -0.1374791414 0.5417173505 4289311155
-0.2726134360 -0.1366863549 0.5409618616 4289311155
-0.2726714313 -0.1361142546 0.5410768986 4289311155
-0.2722899914 -0.1353235096 0.5403199792 4289311156
-0.2723474205 -0.1347516030 0.5404340029 4289376949
-0.2719652653 -0.1339628994 0.5396756530 4289442742
-0.2720221877 -0.1333911866 0.5397886038 4289442742
-0.2720788717 -0.1328191161 0.5399010777 4289640121
-0.2721353471 -0.1322466880 0.5400131345 4289640121
-0.2721915841 -0.1316739023 0.5401247144 4289770939
-0.2722476125 -0.1311007589 0.5402358770 4289770939
-0.2723034024 -0.1305272728 0.5403466225 4289836732
-0.2723589838 -0.1299534291 0.5404569507 4289836732
-0.2724143565 -0.1293792278 0.5405668020 4289968318
-0.2724694908 -0.1288046837 0.5406761765 4290034111
-0.2725243866 -0.1282297969 0.5407851338 4290034111
-0.2725790739 -0.1276545525 0.5408936739 4290034111
-0.2726335526 -0.1270789653 0.5410017371 4290165697
-0.2726877928 -0.1265030354 0.5411093831 4290231490
-0.2727417946 -0.1259267628 0.5412165523 4290297283
-0.2727955878 -0.1253501475 0.5413233042 4290363076
-0.2724083662 -0.1245716289 0.5405548811 4290428615
-0.2729024887 -0.1241959035 0.5415354371 4290428615
-0.2729555964 -0.1236182749 0.5416408181 4290494408
-0.2730084658 -0.1230403036 0.5417457223 4290494408
-0.2730611265 -0.1224620044 0.5418502092 4290625994
-0.2731135488 -0.1218833625 0.5419542789 4290691787
-0.2731657624 -0.1213043928 0.5420578718 4290691787
-0.2732177377 -0.1207250953 0.5421609879 4290757580
-0.2737109363 -0.1203395575 0.5431396961 4290823375
-0.2737625241 -0.1197586581 0.5432420373 4290889168
-0.2738139033 -0.1191774383 0.5433439612 4290758350
-0.2738650441 -0.1185958833 0.5434454679 4290758350
-0.2743577361 -0.1182043552 0.5444231629 4290824143
-0.2744084895 -0.1176212132 0.5445238352 4290889936
-0.2744590044 -0.1170377508 0.5446240902 4290955729
-0.2749513388 -0.1166414991 0.5456010699 4291021522
-0.2750014663 -0.1160564497 0.5457005501 4291087315
-0.2754935622 -0.1156567335 0.5466770530 4291153108
-0.2755433321 -0.1150701120 0.5467757583 4291153108
-0.2755928338 -0.1144831702 0.5468740463 4291218901
-0.2760845423 -0.1140787303 0.5478497744 4291219414
-0.2761336565 -0.1134902239 0.5479472280 4291285207
-0.2761825621 -0.1129013970 0.5480442047 4291351000
-0.2762311995 -0.1123122573 0.5481407642 4291416793
-0.2767223418 -0.1119018495 0.5491154194 4291482586
-0.2767705917 -0.1113111451 0.5492111444 4291548379
-0.2772615254 -0.1108972877 0.5501852632 4291613657
-0.2777523398 -0.1104812324 0.5511592627 4291679450
-0.2782430947 -0.1100629717 0.5521330833 4291745243
-0.2787337303 -0.1096425131 0.5531067252 4291811036
-0.2787810862 -0.1090464965 0.5532006621 4291876829
-0.2792714834 -0.1086225882 0.5541737676 4291942622
-0.2797617912 -0.1081964821 0.5551466942 4292008417
-0.2802519798 -0.1077681780 0.5561194420 4292074210
-0.2807421088 -0.1073376760 0.5570920110 4292074210
-0.2812321186 -0.1069049761 0.5580643415 4292074210
-0.2817220092 -0.1064700782 0.5590364933 4292205796
-0.2822118402 -0.1060329825 0.5600084662 4292337382
-0.2831453383 -0.1057594493 0.5618608594 4292468968
-0.2836350203 -0.1053170040 0.5628325939 4292534761
-0.2845685184 -0.1050362214 0.5646849871 4292666347
-0.2855020761 -0.1047513410 0.5665374994 4292732140
-0.2868797481 -0.1046243086 0.5692712665 4292995564
-0.2887017429 -0.1046522632 0.5728867650 4293456115
-0.3096601367 -0.1822893769 0.6158329248 4291942624
-0.3066951036 -0.1798662692 0.6099362373 4289574076
-0.2976451218 -0.1739010662 0.5919381976 4287995044
-0.3051061630 -0.1775860488 0.6067762375 4289903039
-0.2921382785 -0.1693926305 0.5809865594 4290166211
-0.2939482629 -0.1697925925 0.5845860839 4289902525
-0.2905395627 -0.1671816558 0.5778071284 4289836732
-0.2897392511 -0.1660809219 0.5762155056 4289705146
-0.2893734574 -0.1652318388 0.5754880309 4289639353
-0.2885719538 -0.1641365588 0.5738940835 4289573560
-0.2877698541 -0.1630444527 0.5722988844 4289573560
-0.2874025702 -0.1622013152 0.5715684295 4289573560
-0.2861637473 -0.1608698368 0.5691047311 4289441974
-0.2844884098 -0.1592994183 0.5657729506 4289507767
-0.2828120589 -0.1577358246 0.5624390841 4289507767
-0.2815705240 -0.1564212143 0.5599700212 4289441974
-0.2803281844 -0.1551116258 0.5574993491 4289441974
-0.2795210779 -0.1540473998 0.5558941960 4289376181
-0.2787133455 -0.1529864073 0.5542878509 4289376181
-0.2779050171 -0.1519286335 0.5526803136 4289376181
-0.2770960629 -0.1508741081 0.5510714650 4289376181
-0.2767229676 -0.1500595063 0.5503295064 4289179316
-0.2763494551 -0.1492463350 0.5495866537 4289179316
-0.2759755254 -0.1484345794 0.5488430262 4289245109
-0.2756011784 -0.1476242691 0.5480985641 4289245109
-0.2752264440 -0.1468153894 0.5473533273 4289179316
-0.2748512924 -0.1460079402 0.5466071963 4289179316
-0.2744757235 -0.1452019364 0.5458602905 4289179316
-0.2745368779 -0.1446276903 0.5459820032 4289179316
-0.2741605937 -0.1438236535 0.5452336669 4289179570
-0.2737838924 -0.1430210769 0.5444844961 4289179570
-0.2734067738 -0.1422199607 0.5437344909 4289179570
-0.2734668255 -0.1416469216 0.5438538790 4289179570
-0.2730889916 -0.1408477873 0.5431025028 4289179570
-0.2727107406 -0.1400501281 0.5423502922 4289179570
-0.2727699280 -0.1394777894 0.5424679518 4289179570
-0.2724496424 -0.1381099969 0.5418310165 4289311155
-0.2721281052 -0.1367443949 0.5411915183 4289311155
-0.2721860111 -0.1361720562 0.5413066745 4289311155
-0.2722437084 -0.1355993599 0.5414214134 4289311156
-0.2718626857 -0.1348088682 0.5406637192 4289376949
-0.2719198465 -0.1342363805 0.5407773852 4289442742
-0.2715381384 -0.1334479302 0.5400182605 4289508535
-0.2715947628 -0.1328756511 0.5401308537 4289574074
-0.2716511786 -0.1323029995 0.5402430296 4289574074
-0.2717073560 -0.1317299902 0.5403547883 4289574074
-0.2717633545 -0.1311566234 0.5404661298 4289639867
-0.2718190849 -0.1305829138 0.5405769944 4289705660
-0.2718746066 -0.1300088465 0.5406874418 4289837246
-0.2723692358 -0.1296435297 0.5416710973 4290033857
-0.2724243999 -0.1290678382 0.5417808294 4290033857
-0.2724793553 -0.1284917891 0.5418900847 4290034111
-0.2725340724 -0.1279153973 0.5419989228 4290099904
-0.2725885808 -0.1273386627 0.5421072841 4290165697
-0.2726428509 -0.1267615706 0.5422152281 4290231490
-0.2731367350 -0.1263876706 0.5431974530 4290297283
-0.2727507353 -0.1256063730 0.5424298048 4290363076
-0.2728043497 -0.1250282675 0.5425363779 4290428869
-0.2728576958 -0.1244498119 0.5426425338 4290428869
-0.2729108632 -0.1238710210 0.5427482128 4290560201
-0.2729637623 -0.1232918873 0.5428534746 4290625994
-0.2730164528 -0.1227124259 0.5429582596 4290691787
-0.2730689347 -0.1221326217 0.5430625677 4290691787
-0.2731211782 -0.1215524897 0.5431664586 4290757580
-0.2731731832 -0.1209720224 0.5432699323 4290757580
-0.2732249498 -0.1203912273 0.5433728695 4290823373
-0.2732765079 -0.1198100969 0.5434753895 4290889166
-0.2737686634 -0.1194209456 0.5444541574 4290954961
-0.2738198340 -0.1188382283 0.5445559621 4290954961
-0.2738707662 -0.1182551831 0.5446572304 4290889938
-0.2739214897 -0.1176718101 0.5447580814 4290955731
-0.2744131386 -0.1172766611 0.5457358360 4290955731
-0.2749046981 -0.1168793142 0.5467134714 4291021524
-0.2749548852 -0.1162930951 0.5468132496 4291087317
-0.2750048041 -0.1157065555 0.5469125509 4291087317
-0.2750545144 -0.1151196957 0.5470113754 4291218901
-0.2755455673 -0.1147163659 0.5479879379 4291284694
-0.2755948603 -0.1141279265 0.5480860472 4291285207
-0.2760856748 -0.1137211323 0.5490621328 4291285207
-0.2761345804 -0.1131311283 0.5491594076 4291351000
-0.2761832774 -0.1125408038 0.5492562056 4291416793
-0.2762317061 -0.1119501740 0.5493525267 4291482586
-0.2767219543 -0.1115374044 0.5503274798 4291482586
-0.2767699957 -0.1109452099 0.5504230261 4291613657
-0.2772600055 -0.1105289906 0.5513975024 4291679450
-0.2777499259 -0.1101105660 0.5523718596 4291745243
-0.2782397270 -0.1096899435 0.5533459783 4291811036
-0.2787294686 -0.1092671230 0.5543199182 4291876831
-0.2792191207 -0.1088421047 0.5552936792 4291942624
-0.2797086537 -0.1084148809 0.5562672615 4292008417
-0.2797554731 -0.1078148633 0.5563603640 4292074210
-0.2802447379 -0.1073841900 0.5573334098 4292140003
-0.2807339132 -0.1069513187 0.5583062768 4292205796
-0.2812229991 -0.1065162420 0.5592789054 4292271589
-0.2817119956 -0.1060789749 0.5602513552 4292337382
-0.2826438844 -0.1058053374 0.5621047020 4292468968
-0.2831327319 -0.1053627133 0.5630768538 4292600554
-0.2840646207 -0.1050818264 0.5649301410 4292666347
-0.2854397893 -0.1049598157 0.5676649809 4292732140
-0.2868151367 -0.1048317850 0.5704001784 4292930030
-0.2881906331 -0.1046977416 0.5731357336 4293522167
-0.3070124388 -0.1804509461 0.6119189858 4291350487
-0.3083886802 -0.1805769205 0.6146619916 4288916146
-0.3006545901 -0.1753824204 0.5992468596 4289376695
-0.2963880897 -0.1722372621 0.5907431245 4290495176
-0.2934214175 -0.1698634773 0.5848301053 4289836732
-0.2913213670 -0.1680026054 0.5806444287 4289770939
-0.2905228436 -0.1668987423 0.5790529251 4289639353
-0.2897237241 -0.1657980531 0.5774601102 4289639353
-0.2889239490 -0.1647005528 0.5758660436 4289573560
-0.2881235182 -0.1636062115 0.5742707253 4289573560
-0.2873224914 -0.1625150740 0.5726740956 4289573560
-0.2860860229 -0.1611821800 0.5702096820 4289507767
-0.2844138741 -0.1596102268 0.5668768287 4289507767
-0.2827406526 -0.1580450982 0.5635418892 4289507767
-0.2815015018 -0.1567290574 0.5610721111 4289441974
-0.2802615464 -0.1554180533 0.5586006641 4289441974
-0.2794560492 -0.1543525010 0.5569951534 4289441974
-0.2786499262 -0.1532901675 0.5553884506 4289376181
-0.2778431773 -0.1522310823 0.5537804961 4289376181
-0.2774714231 -0.1514129192 0.5530395508 4289376181
-0.2762278616 -0.1501226127 0.5505609512 4289179316
-0.2758550644 -0.1493091285 0.5498179197 4289245109
-0.2754818499 -0.1484970748 0.5490741134 4289245109
-0.2751082480 -0.1476864368 0.5483294129 4289245109
-0.2747342288 -0.1468772441 0.5475839376 4289245109
-0.2743597925 -0.1460694969 0.5468376279 4289179316
-0.2739849389 -0.1452631801 0.5460905433 4289179570
-0.2740460634 -0.1446887106 0.5462123752 4289179570
-0.2736704946 -0.1438843608 0.5454638004 4289245363
-0.2732945085 -0.1430814713 0.5447143912 4289245363
-0.2733547986 -0.1425076872 0.5448345542 4289245363
-0.2729780972 -0.1417067945 0.5440837741 4289179570
-0.2726010084 -0.1409073472 0.5433321595 4289179570
-0.2726604342 -0.1403342634 0.5434505939 4289179570
-0.2722826302 -0.1395368278 0.5426975489 4289179570
-0.2723415494 -0.1389639080 0.5428149700 4289179570
-0.2719630003 -0.1381684989 0.5420604944 4289311156
-0.2720213830 -0.1375957578 0.5421769023 4289311156
-0.2716421187 -0.1368023604 0.5414209962 4289311156
-0.2716999948 -0.1362298131 0.5415362716 4289311156
-0.2713200152 -0.1354384571 0.5407789350 4289376949
-0.2713773549 -0.1348661035 0.5408931971 4289442742
-0.2714344561 -0.1342933923 0.5410070419 4289508535
-0.2714913487 -0.1337203085 0.5411204100 4289574328
-0.2715480328 -0.1331468672 0.5412334204 4289574074
-0.2716044784 -0.1325730830 0.5413458943 4289574074
-0.2716607153 -0.1319989264 0.5414580107 4289574074
-0.2717167139 -0.1314244270 0.5415695906 4289639867
-0.2717725039 -0.1308495551 0.5416808128 4289705660
-0.2718280554 -0.1302743405 0.5417915583 4289837246
-0.2718833983 -0.1296987683 0.5419018865 4289903039
-0.2719385326 -0.1291228533 0.5420117378 4289903039
-0.2719934285 -0.1285465807 0.5421211720 4290034111
-0.2724868953 -0.1281763762 0.5431047082 4290165697
-0.2721025646 -0.1273930073 0.5423386693 4290165697
-0.2725957334 -0.1270202398 0.5433216691 4290165697
-0.2726498246 -0.1264416575 0.5434294343 4290297283
-0.2727037072 -0.1258627176 0.5435368419 4290363076
-0.2723180950 -0.1250817031 0.5427682996 4290363076
-0.2723714411 -0.1245030239 0.5428745747 4290428869
-0.2724245191 -0.1239240095 0.5429803729 4290625994
-0.2724773884 -0.1233446524 0.5430857539 4290691787
-0.2720904648 -0.1225669533 0.5423145890 4290625994
-0.2721427977 -0.1219878569 0.5424188972 4290691787
-0.2726346552 -0.1216045693 0.5433992147 4290823373
-0.2726866007 -0.1210238710 0.5435027480 4290823373
-0.2727383375 -0.1204428449 0.5436058640 4290823373
-0.2727898359 -0.1198614910 0.5437085032 4290823373
-0.2732811570 -0.1194721907 0.5446878076 4290954961
-0.2733322978 -0.1188892350 0.5447896719 4290954961
-0.2733831704 -0.1183059588 0.5448911190 4290889938
-0.2734338343 -0.1177223548 0.5449920893 4290889938
-0.2739246488 -0.1173270568 0.5459703803 4290955731
-0.2744154036 -0.1169295609 0.5469484925 4291021524
-0.2744655311 -0.1163431033 0.5470483899 4291087317
-0.2745154202 -0.1157563329 0.5471478105 4291087317
-0.2750057876 -0.1153541058 0.5481252074 4291284696
-0.2750552893 -0.1147657484 0.5482238531 4291284696
-0.2755454183 -0.1143600568 0.5492007732 4291285207
-0.2755945325 -0.1137701273 0.5492986441 4291351000
-0.2756434083 -0.1131798849 0.5493960381 4291351000
-0.2756920457 -0.1125893220 0.5494930148 4291416793
-0.2761816084 -0.1121776551 0.5504688025 4291482586
-0.2762298584 -0.1115855277 0.5505649447 4291482586
-0.2767191827 -0.1111703962 0.5515402555 4291613659
-0.2767670155 -0.1105767041 0.5516355634 4291679452
-0.2772561014 -0.1101581231 0.5526103973 4291745245
-0.2777450979 -0.1097373366 0.5535850525 4291811038
-0.2777923644 -0.1091408283 0.5536792278 4291942624
-0.2791645229 -0.1090617180 0.5564141273 4292008417
-0.2792115211 -0.1084617600 0.5565078259 4292074210
-0.2797001600 -0.1080321670 0.5574817061 4292074210
-0.2797467411 -0.1074306592 0.5575745702 4292205796
-0.2802350819 -0.1069976166 0.5585479140 4292271589
-0.2807233334 -0.1065623686 0.5595210791 4292337382
-0.2816536427 -0.1062917858 0.5613753200 4292403175
-0.2821417749 -0.1058511883 0.5623482466 4292534761
-0.2830720842 -0.1055733487 0.5642024875 4292600554
-0.2840024531 -0.1052913964 0.5660568476 4292666347
-0.2853752673 -0.1051683947 0.5687930584 4292732140
-0.2863057852 -0.1048772708 0.5706476569 4292798444
-0.2881214619 -0.1049043313 0.5742666125 4293587960
-0.3078340888 -0.1806520969 0.6149178743 4290363594
-0.3022792935 -0.1767213792 0.6038218141 4289507513
-0.2984541953 -0.1738227159 0.5961809754 4290362822
-0.2950602770 -0.1711912006 0.5894014239 4289902525
-0.2925312221 -0.1690746099 0.5843494534 4289705146
-0.2913011312 -0.1677171290 0.5818922520 4289639353
-0.2900702059 -0.1663646251 0.5794334412 4289639353
-0.2879710495 -0.1645215601 0.5752402544 4289573560
-0.2889072299 -0.1644151956 0.5771102905 4289573560
-0.2872401774 -0.1628289819 0.5737802982 4289507767
-0.2855721116 -0.1612495929 0.5704482198 4289441974
-0.2843371034 -0.1599211693 0.5679811835 4289507767
-0.2831012607 -0.1585977674 0.5655125380 4289507767
-0.2814303041 -0.1570370495 0.5621746778 4289507767
-0.2801927030 -0.1557246149 0.5597025156 4289441974
-0.2793888152 -0.1546577364 0.5580966473 4289441974
-0.2781496942 -0.1533544660 0.5556214452 4289441974
-0.2773444355 -0.1522949636 0.5540128946 4289376181
-0.2769733965 -0.1514764875 0.5532717109 4289441974
-0.2757321298 -0.1501856744 0.5507922173 4289245109
-0.2753600478 -0.1493718773 0.5500490069 4289245109
-0.2745524645 -0.1483244300 0.5484357476 4289245109
-0.2746146917 -0.1477485597 0.5485600829 4289245109
-0.2742413878 -0.1469390541 0.5478143692 4289245363
-0.2743030787 -0.1463633031 0.5479375720 4289245363
-0.2739290595 -0.1455557644 0.5471904278 4289179570
-0.2735546231 -0.1447496712 0.5464425087 4289245363
-0.2731797695 -0.1439450234 0.5456936955 4289245363
-0.2728045285 -0.1431418210 0.5449441075 4289245363
-0.2728647590 -0.1425678134 0.5450644493 4289245363
-0.2724887729 -0.1417666078 0.5443134308 4289245363
-0.2725484669 -0.1411927640 0.5444326401 4289245363
-0.2721717954 -0.1403935552 0.5436801910 4289245363
-0.2717947066 -0.1395958066 0.5429269075 4289180083
-0.2718535662 -0.1390226781 0.5430445075 4289180083
-0.2714757323 -0.1382269412 0.5422897935 4289376949
-0.2715340853 -0.1376539916 0.5424063206 4289311156
-0.2711555362 -0.1368602812 0.5416501760 4289376949
-0.2712133527 -0.1362875104 0.5417656898 4289376949
-0.2712709308 -0.1357143819 0.5418806672 4289442742
-0.2708913684 -0.1349232793 0.5411224961 4289508535
-0.2709484398 -0.1343503445 0.5412364602 4289574328
-0.2710052729 -0.1337770373 0.5413500071 4289574328
-0.2710618973 -0.1332033873 0.5414631367 4289574328
-0.2711182833 -0.1326293796 0.5415757895 4289574328
-0.2711744606 -0.1320549995 0.5416880250 4289574328
-0.2712304294 -0.1314802766 0.5417997837 4289640121
-0.2712861598 -0.1309051812 0.5419111252 4289705660
-0.2713416815 -0.1303297579 0.5420219898 4289771453
-0.2713969648 -0.1297539622 0.5421324372 4289903039
-0.2714520395 -0.1291778237 0.5422424674 4289903039
-0.2715068758 -0.1286013275 0.5423520207 4290099904
-0.2719995081 -0.1282309741 0.5433360934 4290099904
-0.2720539868 -0.1276528537 0.5434449315 4290165443
-0.2721082568 -0.1270743906 0.5435532928 4290231236
-0.2721622884 -0.1264955848 0.5436612368 4290297029
-0.2722161114 -0.1259164214 0.5437687635 4290362822
-0.2722696960 -0.1253369302 0.5438757539 4290362822
-0.2718845308 -0.1245561913 0.5431063771 4290428615
-0.2719375789 -0.1239769459 0.5432123542 4290625994
-0.2719903886 -0.1233973652 0.5433178544 4290625994
-0.2720429897 -0.1228174418 0.5434229374 4290691789
-0.2720953524 -0.1222371832 0.5435275435 4290691789
-0.2721475065 -0.1216565967 0.5436316729 4290757582
-0.2721994221 -0.1210756749 0.5437353849 4290823375
-0.2726902068 -0.1206887588 0.5447157621 4290889166
-0.2727417350 -0.1201062351 0.5448186994 4290823373
