VERSION 0.7
FIELDS x y z rgba
SIZE 4 4 4 4
TYPE F F F U
COUNT 1 1 1 1
WIDTH 920
HEIGHT 1
VIEWPOINT 0.0 0.0 0.0 1.0 0.0 0.0 0.0
POINTS 920
DATA ascii
-0.2890008390 -0.1118531525 0.5611135364 4290429637
-0.2890497446 -0.1112485379 0.5612085462 4290429637
-0.2895494401 -0.1108162403 0.5621786714 4290495430
-0.2895979285 -0.1102100760 0.5622728467 4290495430
-0.2900973558 -0.1097743288 0.5632424951 4290495176
-0.2901454270 -0.1091666147 0.5633358359 4290560969
-0.2906445563 -0.1087274328 0.5643049479 4290626762
-0.2906922102 -0.1081181690 0.5643974543 4290758348
-0.2911910713 -0.1076755524 0.5653660297 4291021520
-0.2916898131 -0.1072307378 0.5663343668 4291218899
-0.2930916548 -0.1071138233 0.5690561533 4291416278
-0.2935903370 -0.1066627279 0.5700243711 4291679450
-0.2940889001 -0.1062094495 0.5709923506 4292008415
-0.2950391769 -0.1059161723 0.5728373528 4292140001
-0.2964413762 -0.1057800576 0.5755597949 4292140514
-0.2973917723 -0.1054776534 0.5774050355 4292469479
-0.2992462516 -0.1054898500 0.5810056329 4292732651
-0.3006489277 -0.1053357571 0.5837290287 4292798444
-0.3029561043 -0.1054905653 0.5882085562 4293258482
-0.3222865164 -0.1073548049 0.6257398129 4292271587
-0.3241446912 -0.1072745174 0.6293476224 4290166211
-0.3250975609 -0.1068885550 0.6311976314 4289771453
-0.3251446784 -0.1062026396 0.6312891245 4290495430
-0.3238327801 -0.1050755531 0.6287419796 4290824395
-0.3175374269 -0.1023478806 0.6165191531 4291022033
-0.2971957028 -0.0951502621 0.5770244002 4291350998
-0.2972376943 -0.0945225060 0.5771059394 4291679965
-0.2959199250 -0.0934650823 0.5745473504 4291943137
-0.2964144051 -0.0929818377 0.5755074620 4292140514
-0.2964555025 -0.0923552066 0.5755872130 4292535272
-0.2955895662 -0.0914477929 0.5739060044 4293259249
-0.2960834205 -0.0909618586 0.5748648047 4293785593
-0.3308394253 -0.1848263592 0.6437340379 4291087315
-0.3304747045 -0.1839081496 0.6430243254 4290166213
-0.3287802041 -0.1822543889 0.6397272348 4289968834
-0.3257550001 -0.1798731685 0.6338409185 4289771455
-0.3187383413 -0.1753096879 0.6201881766 4289574076
-0.3037367165 -0.1664019823 0.5909986496 4289771453
-0.2971546054 -0.1621535718 0.5781914592 4289771453
-0.2941181362 -0.1598607451 0.5722832084 4289705914
-0.2919674516 -0.1580605954 0.5680984855 4289705914
-0.2911469638 -0.1569869965 0.5665020347 4289770937
-0.2898819447 -0.1556781977 0.5640405416 4289705144
-0.2895041108 -0.1548494250 0.5633054376 4289705144
-0.2886817753 -0.1537854671 0.5617053509 4289705144
-0.2883030176 -0.1529604197 0.5609683394 4289573558
-0.2879238129 -0.1521367878 0.5602305532 4289639351
-0.2875442207 -0.1513145715 0.5594919324 4289507765
-0.2867196798 -0.1502608210 0.5578875542 4289441972
-0.2867837548 -0.1496744007 0.5580122471 4289507765
-0.2864028811 -0.1488564610 0.5572711825 4289441972
-0.2864664197 -0.1482701749 0.5573948026 4289376179
-0.2860848010 -0.1474541873 0.5566522479 4289376179
-0.2857027650 -0.1466396302 0.5559089184 4289376181
-0.2857654393 -0.1460539997 0.5560308695 4289376181
-0.2853826880 -0.1452414095 0.5552861094 4289376181
-0.2849994898 -0.1444302499 0.5545405149 4289310388
-0.2846159041 -0.1436205506 0.5537941456 4289310388
-0.2842318714 -0.1428122967 0.5530469418 4289310388
-0.2842930555 -0.1422284245 0.5531659126 4289244595
-0.2839082778 -0.1414221525 0.5524172783 4289244595
-0.2839688957 -0.1408384442 0.5525352359 4289310386
-0.2835834026 -0.1400341839 0.5517851710 4289244593
-0.2836434841 -0.1394506544 0.5519020557 4289244593
-0.2832572758 -0.1386484057 0.5511505604 4289310386
-0.2833167911 -0.1380650401 0.5512663722 4289310386
-0.2833760977 -0.1374813169 0.5513817668 4289376179
-0.2834351659 -0.1368972212 0.5514967442 4289441972
-0.2834940255 -0.1363127679 0.5516112447 4289441972
-0.2831061184 -0.1355142146 0.5508564711 4289507765
-0.2831644118 -0.1349299550 0.5509698987 4289573558
-0.2832224965 -0.1343453228 0.5510829091 4289442742
-0.2828335166 -0.1335493773 0.5503260493 4289442742
-0.2828910351 -0.1329649538 0.5504379869 4289508535
-0.2829483449 -0.1323801875 0.5505494475 4289508535
-0.2830054164 -0.1317950636 0.5506604910 4289574328
-0.2826150656 -0.1310023069 0.5499010086 4289574328
-0.2831188440 -0.1306237578 0.5508812666 4289770939
-0.2831752300 -0.1300375760 0.5509909391 4289705146
-0.2832313776 -0.1294510514 0.5511001945 4289770939
-0.2828397453 -0.1286605895 0.5503382087 4289836732
-0.2828953564 -0.1280743033 0.5504463315 4289902525
-0.2829506993 -0.1274876595 0.5505540967 4289968318
-0.2830058336 -0.1269006729 0.5506613255 4290034111
-0.2835086286 -0.1265132129 0.5516396165 4290099904
-0.2835633755 -0.1259246022 0.5517461300 4290099904
-0.2836178839 -0.1253356636 0.5518522263 4290165697
-0.2836721539 -0.1247463897 0.5519578457 4290165697
-0.2837261856 -0.1241567731 0.5520629883 4290231490
-0.2837800086 -0.1235668212 0.5521676540 4290363076
-0.2842819691 -0.1231708080 0.5531443954 4290428869
-0.2843354046 -0.1225792617 0.5532483459 4290428869
-0.2843885720 -0.1219873726 0.5533518195 4290494662
-0.2844415307 -0.1213951558 0.5534548163 4290494662
-0.2844942212 -0.1208026037 0.5535573959 4290494662
-0.2849954963 -0.1203993335 0.5545327663 4290560455
-0.2854967117 -0.1199938655 0.5555079579 4290560455
-0.2855488658 -0.1193984598 0.5556094646 4290626248
-0.2856007814 -0.1188027337 0.5557104349 4290692041
-0.2861015797 -0.1183925420 0.5566849113 4290692041
-0.2861531079 -0.1177952290 0.5567851663 4290692041
-0.2862043679 -0.1171975955 0.5568848848 4290692041
-0.2862553895 -0.1165996417 0.5569841862 4290692041
-0.2867556214 -0.1161834747 0.5579575300 4290757834
-0.2868062556 -0.1155839413 0.5580559969 4290757834
-0.2873062491 -0.1151643172 0.5590288639 4290757834
-0.2873564661 -0.1145632192 0.5591266155 4290757834
-0.2878561914 -0.1141401455 0.5600989461 4290757834
-0.2879059911 -0.1135374680 0.5601958632 4290757834
-0.2884054780 -0.1131109446 0.5611677170 4290626246
-0.2884548306 -0.1125067100 0.5612637997 4290626246
-0.2885039747 -0.1119021624 0.5613594055 4290626246
-0.2885528505 -0.1112973019 0.5614544749 4290560453
-0.2890517414 -0.1108648255 0.5624251962 4290626246
-0.2891001999 -0.1102584153 0.5625194907 4290626246
-0.2895987928 -0.1098224968 0.5634896159 4290560969
-0.2896468341 -0.1092145294 0.5635830760 4290560969
-0.2901451290 -0.1087751687 0.5645527244 4290626762
-0.2906433642 -0.1083336174 0.5655221343 4290692555
-0.2906907797 -0.1077228561 0.5656144023 4291021520
-0.2911887169 -0.1072778627 0.5665832758 4291284692
-0.2925882041 -0.1071609110 0.5693063140 4291416791
-0.2930860519 -0.1067096367 0.5702750087 4291679963
-0.2940347791 -0.1064193845 0.5721210241 4292008930
-0.2949835360 -0.1061250493 0.5739670396 4292140516
-0.2959323227 -0.1058266163 0.5758131742 4292272100
-0.2973323166 -0.1056844667 0.5785372257 4292469479
-0.2987324595 -0.1055363119 0.5812615752 4292601065
-0.3001327813 -0.1053821668 0.5839862227 4292864237
-0.3176197708 -0.1067155823 0.6180117130 4292337380
-0.3199260831 -0.1067988351 0.6224992275 4290100418
-0.3204250336 -0.1062726751 0.6234700680 4289705660
-0.3213758171 -0.1058932394 0.6253200769 4290297797
-0.3182579577 -0.1041778699 0.6192534566 4290692555
-0.3024790585 -0.0983589217 0.5885515809 4291284692
-0.2980003953 -0.0962583199 0.5798371434 4291416278
-0.2980428040 -0.0956276953 0.5799196959 4291679450
-0.2971802950 -0.0947084874 0.5782414675 4292074210
-0.2954124808 -0.0935064554 0.5748016834 4292403175
-0.2959061861 -0.0930230096 0.5757623315 4292600552
-0.2954947054 -0.0922548324 0.5749616623 4292995310
-0.2973457277 -0.0921899080 0.5785633326 4293719287
-0.3290158510 -0.1834928542 0.6415722370 4290166213
-0.3277664781 -0.1820859462 0.6391360164 4290034627
-0.3243040740 -0.1794598401 0.6323844194 4289837248
-0.3177419901 -0.1751401722 0.6195885539 4289639869
-0.3036516607 -0.1667156816 0.5921127796 4289771453
-0.2970811725 -0.1624645889 0.5793004632 4289705660
-0.2936072946 -0.1599287093 0.5725264549 4289705660
-0.2919033170 -0.1583681405 0.5692037940 4289639867
-0.2906413972 -0.1570537984 0.5667430758 4289770937
-0.2898217738 -0.1559829712 0.5651448369 4289705144
-0.2890014946 -0.1549153775 0.5635453463 4289705144
-0.2881806195 -0.1538509876 0.5619446635 4289705144
-0.2878025770 -0.1530256271 0.5612074733 4289573558
-0.2874241173 -0.1522016674 0.5604694486 4289639351
-0.2870452404 -0.1513791382 0.5597306490 4289573558
-0.2866659164 -0.1505580246 0.5589910150 4289507765
-0.2862861753 -0.1497383267 0.5582505465 4289507765
-0.2863499820 -0.1491512954 0.5583749413 4289441972
-0.2859695256 -0.1483335495 0.5576330423 4289376179
-0.2855886221 -0.1475172341 0.5568903089 4289441972
-0.2852073014 -0.1467023641 0.5561467409 4289376181
-0.2852699161 -0.1461165100 0.5562688708 4289376181
-0.2848878801 -0.1453035921 0.5555238724 4289376181
-0.2845053971 -0.1444921196 0.5547780395 4289376181
-0.2841225266 -0.1436821073 0.5540314317 4289376181
-0.2837392092 -0.1428735256 0.5532840490 4289310388
-0.2838003337 -0.1422894299 0.5534031987 4289310388
-0.2834163010 -0.1414828449 0.5526543260 4289310388
-0.2834768593 -0.1408989131 0.5527724624 4289310386
-0.2835372090 -0.1403146088 0.5528901219 4289310386
-0.2831521034 -0.1395105720 0.5521391630 4289310386
-0.2832119167 -0.1389264315 0.5522558093 4289310386
-0.2832714915 -0.1383419335 0.5523719788 4289376179
-0.2828853428 -0.1375404596 0.5516189933 4289376179
-0.2829443812 -0.1369561404 0.5517340899 4289441972
-0.2830031812 -0.1363714635 0.5518487692 4289441972
-0.2830617428 -0.1357864141 0.5519629717 4289376949
-0.2826742232 -0.1349880844 0.5512073040 4289376949
-0.2827322483 -0.1344032437 0.5513204336 4289442742
-0.2823440135 -0.1336069703 0.5505633950 4289508535
-0.2824014723 -0.1330223233 0.5506754518 4289508535
-0.2824587226 -0.1324373186 0.5507870913 4289508535
-0.2820694447 -0.1316436827 0.5500279665 4289574328
-0.2821261287 -0.1310588866 0.5501385331 4289574328
-0.2826291025 -0.1306802034 0.5511193275 4289770939
-0.2826854289 -0.1300937980 0.5512291193 4289770939
-0.2827415168 -0.1295070350 0.5513384938 4289770939
-0.2827973664 -0.1289199293 0.5514474511 4289836732
-0.2824061513 -0.1281297356 0.5506845713 4289902525
-0.2824614644 -0.1275428534 0.5507924557 4289968318
-0.2825165689 -0.1269556433 0.5508998632 4290034111
-0.2830184996 -0.1265680343 0.5518786311 4290165697
-0.2830732167 -0.1259792000 0.5519853234 4290099904
-0.2831276655 -0.1253900230 0.5520915389 4290165697
-0.2831819057 -0.1248005107 0.5521972775 4290165697
-0.2832359076 -0.1242106557 0.5523025990 4290297283
-0.2832896709 -0.1236204728 0.5524073839 4290363076
-0.2837908268 -0.1232243031 0.5533846021 4290428869
-0.2838441730 -0.1226325184 0.5534887314 4290428869
-0.2838973105 -0.1220403910 0.5535923243 4290428869
-0.2848459482 -0.1218310520 0.5554421544 4290494662
-0.2848987877 -0.1212363988 0.5555451512 4290494662
-0.2845033407 -0.1204517260 0.5547740459 4290560455
-0.2845556140 -0.1198573485 0.5548759699 4290560455
-0.2850558460 -0.1194504574 0.5558513999 4290626248
-0.2851077020 -0.1188544855 0.5559525490 4290692041
-0.2856076956 -0.1184441373 0.5569275022 4290692041
-0.2861075997 -0.1180315837 0.5579023361 4290692041
-0.2861589193 -0.1174327657 0.5580023527 4290757834
-0.2862099707 -0.1168336347 0.5581018925 4290757834
-0.2862607837 -0.1162341759 0.5582010150 4290757834
-0.2867601216 -0.1158156469 0.5591747165 4290692041
-0.2868105471 -0.1152146161 0.5592730045 4290692041
-0.2868607044 -0.1146132648 0.5593708158 4290692041
-0.2869106233 -0.1140116006 0.5594682097 4290692041
-0.2874093652 -0.1135871038 0.5604407191 4290692041
-0.2879080474 -0.1131604090 0.5614131093 4290626246
-0.2879573703 -0.1125559211 0.5615093112 4290692039
-0.2880064547 -0.1119511276 0.5616050363 4290626246
-0.2880553007 -0.1113460213 0.5617002845 4290560453
-0.2885533571 -0.1109133735 0.5626714826 4290560455
-0.2886017859 -0.1103067100 0.5627658963 4290692041
-0.2890995741 -0.1098706201 0.5637365580 4290560969
-0.2891475558 -0.1092623994 0.5638301373 4290560969
-0.2896450460 -0.1088228673 0.5648002625 4290560969
-0.2901424468 -0.1083811298 0.5657701492 4290758348
-0.2906397581 -0.1079372019 0.5667398572 4290956240
-0.2911369503 -0.1074910834 0.5677093863 4291219412
-0.2920840681 -0.1072079614 0.5695562959 4291482586
-0.2925811112 -0.1067565009 0.5705254674 4291745758
-0.2935282588 -0.1064661443 0.5723723769 4292074723
-0.2944754064 -0.1061716899 0.5742192864 4292206309
-0.2954225838 -0.1058731377 0.5760663152 4292403686
-0.2968202233 -0.1057309359 0.5787916183 4292469479
-0.2982179821 -0.1055827364 0.5815172791 4292601065
-0.2996159494 -0.1054285392 0.5842431784 4292930030
-0.3129672706 -0.1060582101 0.6102779508 4292337380
-0.3143669367 -0.1058514416 0.6130072474 4290363590
-0.3153156340 -0.1054877266 0.6148571968 4289639867
-0.3153620064 -0.1048199907 0.6149476171 4290363592
-0.3122494817 -0.1031089500 0.6088783145 4290889936
-0.2996586263 -0.0983020514 0.5843264461 4291021520
-0.2974450886 -0.0969314650 0.5800101161 4291350485
-0.2952306271 -0.0955701843 0.5756919384 4291679452
-0.2953560054 -0.0936910510 0.5759364367 4292797933
-0.2963006496 -0.0933487490 0.5777784586 4293192689
-0.2976969779 -0.0931436867 0.5805013180 4293521654
-0.3280008137 -0.1833238006 0.6409811974 4290166213
-0.3263120055 -0.1816714108 0.6376809478 4289968834
-0.3228555024 -0.1790460199 0.6309261918 4289771455
-0.3163047135 -0.1747263670 0.6181246042 4289574076
-0.3035644293 -0.1670295149 0.5932274461 4289705660
-0.2970055342 -0.1627757549 0.5804100037 4289705660
-0.2935378551 -0.1602379233 0.5736334324 4289639867
-0.2913948596 -0.1584354043 0.5694455504 4289639867
-0.2905774415 -0.1573600471 0.5678482056 4289770939
-0.2893170118 -0.1560492963 0.5653851032 4289705146
-0.2884982526 -0.1549812704 0.5637850165 4289705144
-0.2881214321 -0.1541532576 0.5630486608 4289705144
-0.2873015404 -0.1530907750 0.5614463687 4289639351
-0.2864809930 -0.1520315111 0.5598428845 4289573558
-0.2865456045 -0.1514436305 0.5599691272 4289639351
-0.2861669958 -0.1506222039 0.5592293143 4289573558
-0.2857879698 -0.1498021781 0.5584886074 4289441972
-0.2858517170 -0.1492149383 0.5586131811 4289441972
-0.2854719758 -0.1483968645 0.5578710437 4289441972
-0.2850917876 -0.1475802362 0.5571281314 4289376179
-0.2847112119 -0.1467650384 0.5563843846 4289376181
-0.2847737670 -0.1461789608 0.5565066338 4289376181
-0.2843924165 -0.1453657299 0.5557613969 4289376181
-0.2840106785 -0.1445539445 0.5550153852 4289376181
-0.2836285233 -0.1437435895 0.5542685390 4289376181
-0.2832459211 -0.1429346949 0.5535209179 4289376181
-0.2833069861 -0.1423503757 0.5536402464 4289376181
-0.2829236686 -0.1415434778 0.5528911352 4289376181
-0.2829841971 -0.1409593225 0.5530094504 4289179316
-0.2830444872 -0.1403747797 0.5531272292 4289179316
-0.2826600969 -0.1395704299 0.5523760915 4289179316
-0.2827198505 -0.1389860660 0.5524928570 4289245109
-0.2827793658 -0.1384013444 0.5526091456 4289310902
-0.2828386724 -0.1378162503 0.5527250171 4289310902
-0.2824529111 -0.1370150149 0.5519711971 4289310902
-0.2825116813 -0.1364300996 0.5520860553 4289245109
-0.2825701833 -0.1358448267 0.5522003770 4289310902
-0.2821834087 -0.1350461841 0.5514445305 4289376695
-0.2822413743 -0.1344611049 0.5515578389 4289442488
-0.2818538547 -0.1336645037 0.5508005023 4289508281
-0.2819112837 -0.1330796331 0.5509127378 4289508281
-0.2819684744 -0.1324944198 0.5510244966 4289574074
-0.2820254564 -0.1319088340 0.5511358380 4289639867
-0.2816365659 -0.1311154366 0.5503758788 4289639867
-0.2821386755 -0.1307366043 0.5513571501 4289836732
-0.2821949720 -0.1301499605 0.5514671206 4289770939
-0.2822510004 -0.1295629740 0.5515766740 4289836732
-0.2823068202 -0.1289756298 0.5516857505 4289902525
-0.2819163501 -0.1281851232 0.5509226322 4289968318
-0.2824177742 -0.1277998984 0.5519025326 4289968318
-0.2824728787 -0.1272115260 0.5520102382 4290099904
-0.2825277746 -0.1266227961 0.5521174669 4290165697
-0.2825824320 -0.1260337383 0.5522242785 4290231490
-0.2826368511 -0.1254443228 0.5523306131 4290165697
-0.2826910317 -0.1248545796 0.5524365306 4290231490
-0.2827449739 -0.1242644936 0.5525419712 4290231490
-0.2832454443 -0.1238694489 0.5535199642 4290297283
-0.2832990289 -0.1232777536 0.5536246300 4290363076
-0.2833523452 -0.1226857305 0.5537288785 4290428869
-0.2834054232 -0.1220933646 0.5538325906 4290428869
-0.2843524814 -0.1218839586 0.5556833148 4290494662
-0.2844052613 -0.1212890595 0.5557864904 4290494662
-0.2844578028 -0.1206938401 0.5558891892 4290560455
-0.2845101058 -0.1200982854 0.5559913516 4290560455
-0.2845621705 -0.1195024028 0.5560930967 4290626248
-0.2846139967 -0.1189061925 0.5561943650 4290626248
-0.2851131558 -0.1184956804 0.5571698546 4290692041
-0.2856122553 -0.1180829704 0.5581451654 4290692041
-0.2856635153 -0.1174839139 0.5582453609 4290757834
-0.2861623466 -0.1170677394 0.5592201948 4290757834
-0.2862132192 -0.1164670959 0.5593196154 4290757834
-0.2862638235 -0.1158661395 0.5594184995 4290757834
-0.2867622674 -0.1154452413 0.5603925586 4290692041
-0.2868124545 -0.1148427054 0.5604906678 4290692041
-0.2868624032 -0.1142398566 0.5605883002 4290692041
-0.2869121134 -0.1136366948 0.5606853962 4290692041
-0.2874099612 -0.1132098287 0.5616583228 4290626246
-0.2874592543 -0.1126050949 0.5617546439 4290692039
-0.2879568338 -0.1121747792 0.5627269745 4290626248
-0.2880057096 -0.1115684807 0.5628225207 4290560455
-0.2880543470 -0.1109618768 0.5629175305 4290560455
-0.2881027162 -0.1103549674 0.5630120635 4290626248
-0.2885996699 -0.1099186987 0.5639832616 4290560969
-0.2886476219 -0.1093102321 0.5640769601 4290560969
-0.2891443074 -0.1088705212 0.5650475621 4290692555
-0.2896409035 -0.1084286124 0.5660179853 4290824141
-0.2905865014 -0.1081516594 0.5678659081 4290956242
-0.2910829484 -0.1077044159 0.5688360929 4291219414
-0.2915792763 -0.1072549671 0.5698060393 4291482586
-0.2920755148 -0.1068033278 0.5707757473 4291811551
-0.2930210531 -0.1065128520 0.5726234913 4292074723
-0.2939666212 -0.1062182859 0.5744713545 4292337895
-0.2949121892 -0.1059196219 0.5763192177 4292403686
-0.2963074446 -0.1057773754 0.5790458322 4292666858
-0.2972531617 -0.1054695621 0.5808939338 4292864237
-0.2986486554 -0.1053162590 0.5836210251 4292864237
-0.3087791800 -0.1055365130 0.6034181714 4292337382
-0.3092756569 -0.1050346792 0.6043883562 4290297799
-0.3111227453 -0.1049864516 0.6079979539 4289705662
-0.3098178506 -0.1038734317 0.6054479480 4290363592
-0.3035580814 -0.1011155993 0.5932150483 4290626764
-0.2990980148 -0.0989805162 0.5844991207 4290955729
-0.2959878743 -0.0973086134 0.5784212947 4291482073
-0.2955800593 -0.0965327546 0.5776243210 4291745245
-0.2951718271 -0.0957585424 0.5768265724 4291943137
-0.2952139080 -0.0951312110 0.5769088268 4292272102
-0.2952557504 -0.0945036113 0.5769905448 4292666858
-0.2957481444 -0.0940190628 0.5779528022 4293193202
-0.2957895100 -0.0933899805 0.5780336261 4293719546
-0.3261052072 -0.1826607883 0.6386629939 4290166215
-0.3248599172 -0.1812563688 0.6362241507 4289903043
-0.3214093149 -0.1786317080 0.6294662356 4289705662
-0.3153108358 -0.1745562106 0.6175226569 4289574076
-0.3043571413 -0.1678299606 0.5960703492 4289705660
-0.2964864671 -0.1628447473 0.5806559920 4289639867
-0.2930249274 -0.1603058726 0.5738766789 4289639867
-0.2908857167 -0.1585026085 0.5696871281 4289639867
-0.2900697887 -0.1574268192 0.5680891871 4289770939
-0.2888116241 -0.1561155468 0.5656251311 4289705146
-0.2879943550 -0.1550471038 0.5640245080 4289705144
-0.2876182497 -0.1542187631 0.5632879734 4289705144
-0.2867998183 -0.1531558633 0.5616850853 4289705144
-0.2864227891 -0.1523312628 0.5609467030 4289573558
-0.2860453427 -0.1515080780 0.5602074265 4289573558
-0.2856674492 -0.1506863236 0.5594673753 4289573558
-0.2852891386 -0.1498659849 0.5587264895 4289441972
-0.2853528261 -0.1492785215 0.5588512421 4289441972
-0.2849738002 -0.1484601349 0.5581088662 4289441972
-0.2845943272 -0.1476431787 0.5573657155 4289310386
-0.2842144668 -0.1468276531 0.5566217303 4289441974
-0.2838341594 -0.1460135728 0.5558769703 4289441974
-0.2838963568 -0.1454278082 0.5559987426 4289441974
-0.2835153043 -0.1446156949 0.5552525520 4289376181
-0.2831338644 -0.1438050270 0.5545054674 4289376181
-0.2827520072 -0.1429958194 0.5537576079 4289376181
-0.2828130126 -0.1424112767 0.5538771152 4289376181
-0.2824304104 -0.1416040510 0.5531277657 4289376181
-0.2824908793 -0.1410196722 0.5532462001 4289179316
-0.2825511098 -0.1404349059 0.5533641577 4289179316
-0.2821674645 -0.1396302432 0.5526127815 4289245109
-0.2822271585 -0.1390456557 0.5527297258 4289245109
-0.2822866142 -0.1384606957 0.5528461933 4289310902
-0.2819019258 -0.1376585960 0.5520927906 4289310902
-0.2819608450 -0.1370738149 0.5522081852 4289310902
-0.2820195556 -0.1364886910 0.5523231030 4289245109
-0.2820779979 -0.1359031796 0.5524376035 4289310902
-0.2816919386 -0.1351042241 0.5516815186 4289376695
-0.2817498744 -0.1345189214 0.5517949462 4289376695
-0.2813630700 -0.1337220073 0.5510374308 4289442488
-0.2814204395 -0.1331368983 0.5511497855 4289508281
-0.2814776003 -0.1325514466 0.5512617230 4289574074
-0.2815344930 -0.1319656372 0.5513731837 4289639867
-0.2815912068 -0.1313794702 0.5514842272 4289639867
-0.2816476524 -0.1307929456 0.5515947938 4289836732
-0.2817038894 -0.1302060783 0.5517048836 4289836732
-0.2817598879 -0.1296188533 0.5518145561 4289836732
-0.2818156481 -0.1290312856 0.5519238114 4289902525
-0.2814258933 -0.1282404512 0.5511604548 4289968318
-0.2819264829 -0.1278550923 0.5521408319 4290034111
-0.2819815576 -0.1272664815 0.5522487164 4290099904
-0.2820363939 -0.1266775280 0.5523561239 4290165697
-0.2820909917 -0.1260882318 0.5524630547 4290231490
-0.2821453810 -0.1254985780 0.5525695682 4290165697
-0.2821995020 -0.1249086037 0.5526755452 4290231490
-0.2822534144 -0.1243182793 0.5527811050 4290297283
-0.2823070884 -0.1237276271 0.5528862476 4290297283
-0.2828065753 -0.1233311594 0.5538644791 4290363076
-0.2828598619 -0.1227388978 0.5539688468 4290428869
-0.2833591402 -0.1223389581 0.5549466610 4290363076
-0.2838583589 -0.1219368130 0.5559242964 4290494662
-0.2839110792 -0.1213416830 0.5560275912 4290494662
-0.2839635909 -0.1207462177 0.5561304092 4290560455
-0.2840158343 -0.1201504245 0.5562327504 4290560455
-0.2840678394 -0.1195543036 0.5563346148 4290626248
-0.2841196358 -0.1189578548 0.5564360619 4290626248
-0.2846179903 -0.1185471863 0.5574120283 4290626248
-0.2851162553 -0.1181343123 0.5583878756 4290692041
-0.2851674557 -0.1175350100 0.5584881902 4290757834
-0.2856654823 -0.1171186715 0.5594635606 4290757834
-0.2857162952 -0.1165177897 0.5595630407 4290757834
-0.2862140834 -0.1160979867 0.5605379343 4290757834
-0.2862644792 -0.1154955253 0.5606366396 4290757834
-0.2863146365 -0.1148927510 0.5607348680 4290692041
-0.2863645554 -0.1142896488 0.5608326197 4290692041
-0.2868617475 -0.1138638780 0.5618063211 4290692041
-0.2869112492 -0.1132592112 0.5619032979 4290692041
-0.2869604826 -0.1126542315 0.5619997382 4290692041
-0.2874572575 -0.1122237444 0.5629726052 4290626248
-0.2875060737 -0.1116172001 0.5630682707 4290560455
-0.2875546515 -0.1110103428 0.5631633997 4290560455
-0.2876029909 -0.1104031876 0.5632580519 4290626248
-0.2880991399 -0.1099667400 0.5642297268 4290495176
-0.2881470621 -0.1093580276 0.5643236041 4290495176
-0.2886429131 -0.1089181304 0.5652946830 4290692555
-0.2891386747 -0.1084760427 0.5662656426 4290889934
-0.2900826931 -0.1081989929 0.5681144595 4291087315
-0.2901299000 -0.1075852811 0.5682068467 4291284694
-0.2910738289 -0.1073019356 0.5700555444 4291548379
-0.2915692329 -0.1068501174 0.5710257888 4291877344
-0.2920645177 -0.1063960940 0.5719957948 4292140516
-0.2930084169 -0.1061023623 0.5738443732 4292469481
-0.2944011390 -0.1059660688 0.5765718818 4292403688
-0.2953451574 -0.1056631878 0.5784206986 4292732653
-0.2967381179 -0.1055158377 0.5811488032 4292864237
-0.2976822257 -0.1052037999 0.5829977989 4292930030
-0.3041544855 -0.1048438177 0.5956734419 4292271589
-0.3050990701 -0.1045055240 0.5975233316 4290297799
-0.3055942357 -0.1040101722 0.5984931588 4289771455
-0.3051903546 -0.1032086164 0.5977021456 4289968834
-0.3034374416 -0.1019555405 0.5942690969 4290495178
-0.2967380881 -0.0990588516 0.5811487436 4290955729
-0.2945331633 -0.0976818949 0.5768305063 4291350487
-0.2954754829 -0.0973514616 0.5786759853 4291745245
-0.2941688001 -0.0962808430 0.5761169195 4292074210
-0.2946609259 -0.0958007351 0.5770807266 4292206309
-0.2947029769 -0.0951731354 0.5771631002 4292666860
-0.2947447896 -0.0945452675 0.5772449374 4293127409
-0.2961364686 -0.0943472981 0.5799704790 4293653753
-0.3242135346 -0.1819970906 0.6363424063 4290166215
-0.3234101832 -0.1808408648 0.6347656250 4289837250
-0.3204056025 -0.1784620732 0.6288684607 4289705662
-0.3143177629 -0.1743857712 0.6169196963 4289574076
-0.3047042191 -0.1683876365 0.5980509520 4289705660
-0.2964071929 -0.1631560922 0.5817661881 4289705660
-0.2929518521 -0.1606152654 0.5749843121 4289705660
-0.2908165753 -0.1588103771 0.5707932711 4289639867
-0.2895615101 -0.1574935466 0.5683299303 4289770939
-0.2887464464 -0.1564205438 0.5667302012 4289705146
-0.2879307568 -0.1553507745 0.5651292205 4289705144
-0.2871144414 -0.1542842090 0.5635269880 4289705144
-0.2867386341 -0.1534569710 0.5627893806 4289705144
-0.2859211564 -0.1523959637 0.5611849427 4289573558
-0.2855444252 -0.1515724659 0.5604454875 4289573558
-0.2851672471 -0.1507503837 0.5597052574 4289573558
-0.2847896814 -0.1499297321 0.5589641333 4289441972
-0.2848533094 -0.1493420452 0.5590890646 4289441972
-0.2844749689 -0.1485233307 0.5583465099 4289441972
-0.2845380604 -0.1479357779 0.5584703088 4289310386
-0.2841590047 -0.1471190155 0.5577263236 4289441974
-0.2833375037 -0.1460758150 0.5561139584 4289441974
-0.2833996415 -0.1454898268 0.5562359095 4289441974
-0.2830193341 -0.1446774006 0.5554894209 4289441974
-0.2826386094 -0.1438664198 0.5547421575 4289376181
-0.2826998532 -0.1432811171 0.5548624396 4289376181
-0.2823184133 -0.1424721181 0.5541137457 4289376181
-0.2819365263 -0.1416645795 0.5533642173 4289376181
-0.2819969356 -0.1410799623 0.5534827709 4289376181
-0.2820571065 -0.1404949874 0.5536009073 4289376181
-0.2821170688 -0.1399096251 0.5537185669 4289376181
-0.2817338407 -0.1391051859 0.5529663563 4289376181
-0.2817932367 -0.1385200024 0.5530830026 4289245109
-0.2814092636 -0.1377175748 0.5523293614 4289310902
-0.2814681232 -0.1371325850 0.5524448752 4289310902
-0.2815267742 -0.1365472227 0.5525599718 4289310902
-0.2815851867 -0.1359614879 0.5526746511 4289310902
-0.2816433907 -0.1353753954 0.5527888536 4289376695
-0.2812577188 -0.1345766783 0.5520318747 4289376695
-0.2813153565 -0.1339907944 0.5521450043 4289442488
-0.2809289694 -0.1331941187 0.5513866544 4289508281
-0.2809860706 -0.1326084286 0.5514987111 4289574074
-0.2810429335 -0.1320223957 0.5516103506 4289639867
-0.2810995877 -0.1314360052 0.5517215133 4289639867
-0.2811559737 -0.1308492571 0.5518321991 4289902525
-0.2812121511 -0.1302621514 0.5519424677 4289902525
-0.2812681198 -0.1296746880 0.5520522594 4289902525
-0.2813238204 -0.1290868968 0.5521616340 4289902525
-0.2813793123 -0.1284987330 0.5522705317 4289968318
-0.2814345658 -0.1279102415 0.5523790121 4290034111
-0.2814895809 -0.1273213923 0.5524870157 4290099904
-0.2815443873 -0.1267322004 0.5525945425 4290099904
-0.2820438147 -0.1263419539 0.5535747409 4290165697
-0.2820982039 -0.1257511377 0.5536815524 4290165697
-0.2821523845 -0.1251599938 0.5537878871 4290297283
-0.2822063267 -0.1245685071 0.5538937449 4290297283
-0.2827052474 -0.1241722256 0.5548729897 4290363076
-0.2827588022 -0.1235791296 0.5549780726 4290363076
-0.2832574844 -0.1231793687 0.5559569001 4290428869
-0.2833106518 -0.1225846633 0.5560612082 4290363076
-0.2833635807 -0.1219896302 0.5561650991 4290494662
-0.2834162712 -0.1213942543 0.5562685132 4290494662
-0.2839144170 -0.1209884882 0.5572462678 4290560455
-0.2839667201 -0.1203915179 0.5573489070 4290560455
-0.2840187550 -0.1197942197 0.5574510694 4290626248
-0.2840705812 -0.1191965938 0.5575527549 4290692041
-0.2841221392 -0.1185986400 0.5576539636 4290692041
-0.2846195996 -0.1181856021 0.5586303473 4290692041
-0.2851169705 -0.1177703664 0.5596064925 4290823627
-0.2851679623 -0.1171695665 0.5597066283 4290757834
-0.2856650949 -0.1167508587 0.5606823564 4290757834
-0.2857156992 -0.1161484718 0.5607816577 4290757834
-0.2857660353 -0.1155457646 0.5608804822 4290757834
-0.2862627506 -0.1151223406 0.5618553758 4290757834
-0.2863126993 -0.1145180538 0.5619534254 4290757834
-0.2863624096 -0.1139134541 0.5620509982 4290757834
-0.2864118516 -0.1133085415 0.5621480346 4290692041
-0.2869079709 -0.1128791422 0.5631217360 4290626248
-0.2869569957 -0.1122726575 0.5632179976 4290495176
-0.2874528468 -0.1118398011 0.5641912222 4290429383
-0.2875014544 -0.1112317517 0.5642866492 4290429383
-0.2875498235 -0.1106233969 0.5643815994 4290429383
-0.2880452275 -0.1101858318 0.5653538704 4290429383
-0.2880931795 -0.1095759198 0.5654479861 4290495176
-0.2885882854 -0.1091349050 0.5664197803 4290692555
-0.2895308137 -0.1088599488 0.5682696700 4290824141
-0.2895781994 -0.1082462817 0.5683627129 4291087315
-0.2900730073 -0.1077986732 0.5693339109 4291416280
-0.2901200056 -0.1071834564 0.5694261193 4291679452
-0.2906145155 -0.1067324057 0.5703967214 4292008417
-0.2915567756 -0.1064426526 0.5722461343 4292337382
-0.2920511365 -0.1059862524 0.5732163787 4292600554
-0.2929933965 -0.1056892648 0.5750657916 4292535274
-0.2943837345 -0.1055488214 0.5777946711 4292666860
-0.2953261137 -0.1052426696 0.5796442628 4292798446
-0.2962684929 -0.1049324200 0.5814939141 4293127411
-0.2995441556 -0.1041329205 0.5879231691 4292074210
-0.3009351492 -0.1039602235 0.5906533003 4290429385
-0.3000834882 -0.1030116156 0.5889817476 4289771455
-0.3005771935 -0.1025256142 0.5899507403 4290034627
-0.2992759943 -0.1014291346 0.5873968005 4290495176
-0.2984228730 -0.1004892215 0.5857223868 4290889934
-0.2957739234 -0.0989522338 0.5805232525 4291350485
-0.2949194908 -0.0980232358 0.5788462162 4291876829
-0.2940645218 -0.0970977992 0.5771681666 4292205796
-0.2941070795 -0.0964704752 0.5772516727 4292271589
-0.2945984304 -0.0959892124 0.5782160759 4292732138
-0.2946405113 -0.0953603908 0.5782986879 4293192689
-0.2955807745 -0.0950201228 0.5801441073 4293653494
-0.3227649033 -0.1815797389 0.6348831654 4290166215
-0.3215236068 -0.1801787168 0.6324414611 4289903043
-0.3189633787 -0.1780468971 0.6274055243 4289771455
-0.3045366406 -0.1693282574 0.5990278721 4289508283
-0.3138385117 -0.1738144010 0.6173248291 4289771453
-0.2967653573 -0.1637101173 0.5837416649 4289705660
-0.2928766012 -0.1609248221 0.5760924220 4289705660
-0.2907452285 -0.1591182798 0.5718999505 4289639867
-0.2894925177 -0.1578000188 0.5694358945 4289770939
-0.2882390022 -0.1564867795 0.5669701695 4289705146
-0.2874247730 -0.1554165781 0.5653685927 4289705144
-0.2866099477 -0.1543496102 0.5637658238 4289639351
-0.2862348855 -0.1535220444 0.5630280375 4289639351
-0.2854188979 -0.1524606198 0.5614230037 4289639351
-0.2850428820 -0.1516367942 0.5606833696 4289639351
-0.2846664190 -0.1508143991 0.5599429011 4289573558
-0.2842895687 -0.1499934196 0.5592015982 4289441972
-0.2843531370 -0.1494055092 0.5593266487 4289441972
-0.2839755416 -0.1485864818 0.5585838556 4289376179
-0.2840385735 -0.1479987055 0.5587078929 4289376179
-0.2836602330 -0.1471816301 0.5579636693 4289376181
-0.2832814455 -0.1463660002 0.5572186112 4289376181
-0.2829022706 -0.1455518007 0.5564727783 4289441974
-0.2825226784 -0.1447390467 0.5557261109 4289441974
-0.2825842202 -0.1441529840 0.5558471680 4289441974
-0.2822039127 -0.1433422267 0.5550990701 4289441974
-0.2818231583 -0.1425329000 0.5543501377 4289441974
-0.2818838358 -0.1419475377 0.5544694662 4289441974
-0.2815023661 -0.1411402076 0.5537191033 4289376181
-0.2815624774 -0.1405550092 0.5538374186 4289376181
-0.2816223800 -0.1399694234 0.5539551973 4289441974
-0.2816820741 -0.1393834800 0.5540726185 4289376181
-0.2812992334 -0.1385792643 0.5533195734 4289376181
-0.2809159756 -0.1377765089 0.5525656939 4289441974
-0.2809748054 -0.1371912956 0.5526813865 4289441974
-0.2810333669 -0.1366056949 0.5527966619 4289507767
-0.2810917497 -0.1360197514 0.5529114604 4289376695
-0.2811498940 -0.1354334354 0.5530257821 4289376695
-0.2812077999 -0.1348467469 0.5531396866 4289376695
-0.2808225453 -0.1340482682 0.5523818731 4289442488
-0.2808798850 -0.1334617883 0.5524947643 4289508281
-0.2809370458 -0.1328749508 0.5526071191 4289574074
-0.2809939384 -0.1322877556 0.5527190566 4289574074
-0.2810506225 -0.1317002028 0.5528305173 4289574074
-0.2811070681 -0.1311122924 0.5529415607 4289902525
-0.2811632752 -0.1305240393 0.5530521274 4289902525
-0.2812192738 -0.1299354285 0.5531622767 4289902525
-0.2812750340 -0.1293464601 0.5532719493 4289902525
-0.2813305557 -0.1287571490 0.5533811450 4289968318
-0.2813858390 -0.1281674951 0.5534899235 4290034111
-0.2814409137 -0.1275774837 0.5535982251 4290099904
-0.2814957201 -0.1269871294 0.5537061095 4290099904
-0.2815503180 -0.1263964325 0.5538134575 4290165697
-0.2816046774 -0.1258053929 0.5539203882 4290231490
-0.2816587985 -0.1252140105 0.5540268421 4290231490
-0.2817127109 -0.1246222854 0.5541328788 4290231490
-0.2822107971 -0.1242258549 0.5551126003 4290363076
-0.2827087939 -0.1238272190 0.5560922027 4290428869
-0.2827621698 -0.1232326105 0.5561971664 4290428869
-0.2828152776 -0.1226376668 0.5563016534 4290494662
-0.2828681469 -0.1220423952 0.5564056635 4290428869
-0.2829208076 -0.1214467809 0.5565091968 4290494662
-0.2834181190 -0.1210408583 0.5574874878 4290494662
-0.2834703624 -0.1204436496 0.5575902462 4290560455
-0.2835223973 -0.1198461130 0.5576925278 4290626248
-0.2835741639 -0.1192482486 0.5577943921 4290692041
-0.2840709388 -0.1188363135 0.5587715507 4290757834
-0.2841222882 -0.1182368547 0.5588725805 4290757834
-0.2846188247 -0.1178214550 0.5598492622 4290823627
-0.2846698165 -0.1172204092 0.5599495173 4290823627
-0.2851660848 -0.1168015450 0.5609257221 4290823627
-0.2852166593 -0.1161989123 0.5610252023 4290823627
-0.2852669656 -0.1155959666 0.5611241460 4290823627
-0.2857628465 -0.1151723713 0.5620995760 4290757834
-0.2858127654 -0.1145678386 0.5621977448 4290757834
-0.2858624160 -0.1139629930 0.5622953773 4290757834
-0.2859118283 -0.1133578345 0.5623925924 4290560969
-0.2864071131 -0.1129282638 0.5633668303 4290495176
-0.2864561081 -0.1123215333 0.5634632111 4290429383
-0.2869511247 -0.1118885055 0.5644369125 4290429383
-0.2869997025 -0.1112802103 0.5645324588 4290429383
-0.2874944508 -0.1108437255 0.5655056238 4290429383
-0.2879890800 -0.1104050353 0.5664786100 4290429383
-0.2880370617 -0.1097939312 0.5665729642 4290495176
-0.2885314226 -0.1093517914 0.5675454140 4290692555
-0.2890256941 -0.1089074463 0.5685176253 4290824141
-0.2895198762 -0.1084609106 0.5694896579 4291153108
-0.2895670533 -0.1078457385 0.5695825219 4291482073
-0.2900609374 -0.1073957533 0.5705539584 4291811038
-0.2901076972 -0.1067790389 0.5706459284 4292140003
-0.2906012535 -0.1063255966 0.5716168284 4292468968
-0.2910947502 -0.1058699638 0.5725874901 4292666347
-0.2920353115 -0.1055738106 0.5744376183 4292666862
-0.2929759026 -0.1052735522 0.5762877464 4292798448
-0.2939165533 -0.1049691886 0.5781379938 4293061618
-0.2948571742 -0.1046607196 0.5799882412 4293390583
-0.2957978547 -0.1043481454 0.5818385482 4293126898
-0.2967385352 -0.1040314659 0.5836888552 4291679452
-0.2972315848 -0.1035547256 0.5846587420 4290297799
-0.2972767949 -0.1029207855 0.5847476721 4289837248
-0.2964262068 -0.1019784585 0.5830745101 4290034627
-0.2955750823 -0.1010396704 0.5814003348 4290495178
-0.2947234213 -0.1001044214 0.5797251463 4291087313
-0.2943191826 -0.0993238986 0.5789300203 4291416278
-0.2939145863 -0.0985450074 0.5781341791 4291679450
-0.2935095727 -0.0977677479 0.5773375034 4292008415
-0.2935523689 -0.0971404389 0.5774216652 4292337382
-0.2935948670 -0.0965128615 0.5775052309 4292797933
-0.2945337296 -0.0961777791 0.5793519616 4293390322
-0.2959209085 -0.0959840342 0.5820806623 4293719287
-0.3213186562 -0.1811618954 0.6334221959 4290100420
-0.3178870678 -0.1785308719 0.6266574264 4289903041
-0.3201549649 -0.1791033447 0.6311281919 4289705662
-0.3132115602 -0.1745329797 0.6174404621 4289705662
-0.3045095205 -0.1690169275 0.6002859473 4289968318
-0.2966808677 -0.1640218496 0.5848532319 4289836732
-0.2923601866 -0.1609927714 0.5763357282 4289836730
-0.2902325988 -0.1591855139 0.5721415877 4289770937
-0.2889821529 -0.1578667164 0.5696765780 4289705144
-0.2881701887 -0.1567919701 0.5680758953 4289705144
-0.2873575687 -0.1557204425 0.5664739609 4289770936
-0.2865443230 -0.1546521336 0.5648708344 4289770936
-0.2857304811 -0.1535870582 0.5632664561 4289705146
-0.2853556871 -0.1527605802 0.5625276566 4289639353
-0.2849804759 -0.1519355327 0.5617879629 4289573560
-0.2841649652 -0.1508783549 0.5601803064 4289507767
-0.2837888002 -0.1500570625 0.5594388247 4289507767
-0.2838523388 -0.1494689286 0.5595639944 4289441974
-0.2834754288 -0.1486495733 0.5588210821 4289376181
-0.2830981314 -0.1478316635 0.5580772758 4289376181
-0.2831608057 -0.1472441703 0.5582007766 4289441972
-0.2827827632 -0.1464282274 0.5574555397 4289441972
-0.2824043036 -0.1456137151 0.5567094684 4289441972
-0.2824660838 -0.1450268924 0.5568313003 4289441972
-0.2820869088 -0.1442143619 0.5560837984 4289441972
-0.2821481526 -0.1436276883 0.5562045574 4289441972
-0.2817682326 -0.1428171396 0.5554556251 4289441972
-0.2813878953 -0.1420080364 0.5547058582 4289441972
-0.2814482749 -0.1414220631 0.5548248887 4289507767
-0.2810672224 -0.1406149715 0.5540736914 4289441974
-0.2811270654 -0.1400291771 0.5541916490 4289310902
-0.2811866999 -0.1394429952 0.5543091893 4289310902
-0.2812460959 -0.1388564408 0.5544263124 4289310902
-0.2808636725 -0.1380524635 0.5536723733 4289310902
-0.2804808021 -0.1372499466 0.5529176593 4289507767
-0.2805393636 -0.1366641372 0.5530330539 4289441974
-0.2805976570 -0.1360779554 0.5531480312 4289507767
-0.2806557417 -0.1354914010 0.5532625318 4289507767
-0.2807135880 -0.1349044889 0.5533766150 4289376949
-0.2807712257 -0.1343172193 0.5534902215 4289442742
-0.2803863883 -0.1335189939 0.5527315140 4289574328
-0.2804434597 -0.1329319328 0.5528440475 4289574328
-0.2805003226 -0.1323444992 0.5529561639 4289705144
-0.2805569470 -0.1317567229 0.5530678034 4289770937
-0.2806133330 -0.1311685890 0.5531789660 4289836732
-0.2806695104 -0.1305800974 0.5532896519 4289902525
-0.2807254493 -0.1299912483 0.5533999205 4289968318
-0.2807811499 -0.1294020563 0.5535097718 4289968318
-0.2808366418 -0.1288125217 0.5536190867 4290034111
-0.2808918655 -0.1282226294 0.5537280440 4290099904
-0.2809468806 -0.1276323795 0.5538364649 4290099904
-0.2810016572 -0.1270418018 0.5539444685 4290034111
-0.2810561955 -0.1264508665 0.5540519953 4290165697
-0.2811105251 -0.1258595884 0.5541590452 4290165697
-0.2816080749 -0.1254655570 0.5551398993 4290231490
-0.2821055651 -0.1250693202 0.5561205745 4290297283
-0.2821593583 -0.1244751513 0.5562266111 4290363076
-0.2822128832 -0.1238806471 0.5563321710 4290428869
-0.2822661996 -0.1232858002 0.5564372540 4290494662
-0.2823192775 -0.1226906255 0.5565418601 4290560455
-0.2823720872 -0.1220951080 0.5566459894 4290428869
-0.2828687429 -0.1216903031 0.5576251149 4290494662
-0.2829211950 -0.1210931838 0.5577284694 4290560455
-0.2829734087 -0.1204957366 0.5578313470 4290560455
-0.2834696770 -0.1200861782 0.5588096976 4290626248
-0.2835214734 -0.1194871366 0.5589118004 4290626248
-0.2835730314 -0.1188877597 0.5590134263 4290692041
-0.2840689123 -0.1184734702 0.5599910021 4290757834
-0.2841200829 -0.1178725064 0.5600918531 4290692041
-0.2846156955 -0.1174547374 0.5610688925 4290757834
-0.2846664488 -0.1168521866 0.5611689091 4290823627
-0.2847169638 -0.1162493080 0.5612685084 4290889420
-0.2852121890 -0.1158268154 0.5622447729 4290823627
-0.2852622867 -0.1152223572 0.5623435378 4290823627
-0.2853121459 -0.1146175787 0.5624418259 4290823627
-0.2853617668 -0.1140124947 0.5625396371 4290692041
-0.2854111493 -0.1134070829 0.5626369119 4290757834
-0.2859055996 -0.1129773408 0.5636116862 4290626248
-0.2859545350 -0.1123703644 0.5637081861 4290560455
-0.2864487469 -0.1119371653 0.5646823645 4290494662
-0.2864972651 -0.1113286242 0.5647780299 4290363590
-0.2869911790 -0.1108919606 0.5657517314 4290363590
-0.2874850035 -0.1104530990 0.5667251945 4290429383
-0.2884245217 -0.1101823375 0.5685772896 4290560969
-0.2884723544 -0.1095687747 0.5686715841 4290758348
-0.2889658809 -0.1091233119 0.5696444511 4291021520
-0.2890132666 -0.1085081920 0.5697379112 4291219412
-0.2890604436 -0.1078927666 0.5698308945 4291482584
-0.2895534933 -0.1074426025 0.5708028078 4292008928
-0.2896001935 -0.1068256274 0.5708948970 4292272100
-0.2900929451 -0.1063720062 0.5718663335 4292337893
-0.2905856073 -0.1059161946 0.5728374720 4292601065
-0.2910781503 -0.1054581702 0.5738084316 4292732140
-0.2915705442 -0.1049979553 0.5747791529 4293061105
-0.2920628488 -0.1045355424 0.5757496357 4293192693
-0.2930016816 -0.1042298153 0.5776003599 4292666349
-0.2934938073 -0.1037620455 0.5785704851 4291350234
-0.2939858139 -0.1032920778 0.5795404315 4289968581
-0.2940308452 -0.1026638970 0.5796291828 4289443003
-0.2940756381 -0.1020354182 0.5797174573 4290035140
-0.2936731577 -0.1012525409 0.5789240003 4290364103
-0.2928231955 -0.1003181338 0.5772485137 4290758861
-0.2928670049 -0.0996916741 0.5773348212 4291219412
-0.2929105163 -0.0990649387 0.5774205923 4291679963
-0.2929537892 -0.0984379202 0.5775058866 4292074721
-0.2925494611 -0.0976612940 0.5767088532 4292337893
-0.2930395007 -0.0971830487 0.5776749253 4292666858
-0.2939769030 -0.0968500301 0.5795227885 4293061616
-0.3198747933 -0.1807435751 0.6319595575 4290232006
-0.3186375797 -0.1793450564 0.6295152307 4289837248
-0.3165239096 -0.1774605811 0.6253393888 4289639869
-0.3126574159 -0.1746064872 0.6177005172 4289639869
-0.3048467934 -0.1695754230 0.6022695303 4289836732
-0.2965942025 -0.1643337309 0.5859652758 4289836732
-0.2922812700 -0.1613025069 0.5774444938 4289770937
-0.2897193432 -0.1592526734 0.5723829865 4289770937
-0.2884711623 -0.1579333544 0.5699170232 4289770937
-0.2876606584 -0.1568581909 0.5683158040 4289770937
-0.2868495584 -0.1557862312 0.5667133331 4289770937
-0.2860378027 -0.1547175050 0.5651096106 4289770937
-0.2856642604 -0.1538883895 0.5643715858 4289639353
-0.2848513722 -0.1528252214 0.5627655983 4289639353
-0.2844768763 -0.1519998461 0.5620257854 4289639353
-0.2841019630 -0.1511759013 0.5612850785 4289573560
-0.2837266326 -0.1503533721 0.5605435371 4289507767
-0.2833508849 -0.1495322734 0.5598012209 4289441974
-0.2829747200 -0.1487126052 0.5590580106 4289441974
-0.2825981379 -0.1478943676 0.5583140254 4289441974
-0.2826607227 -0.1473066658 0.5584377050 4289441972
-0.2822834253 -0.1464903951 0.5576922297 4289441972
-0.2823454738 -0.1459028274 0.5578148365 4289441972
-0.2819674015 -0.1450885236 0.5570679307 4289441972
-0.2820289433 -0.1445011050 0.5571894646 4289441972
-0.2816501558 -0.1436887830 0.5564411283 4289376179
-0.2812709510 -0.1428779066 0.5556919575 4289441972
-0.2813315988 -0.1422911733 0.5558118224 4289441972
-0.2809516788 -0.1414822936 0.5550611615 4289441974
-0.2810117900 -0.1408957243 0.5551799536 4289376181
-0.2806311250 -0.1400888562 0.5544279218 4289310902
-0.2806906998 -0.1395024508 0.5545455813 4289310902
-0.2807500362 -0.1389156878 0.5546628237 4289311156
-0.2803683281 -0.1381113827 0.5539087057 4289311156
-0.2804271281 -0.1375247836 0.5540248752 4289507765
-0.2804856896 -0.1369378269 0.5541406274 4289441972
-0.2805440426 -0.1363504827 0.5542559028 4289441972
-0.2801609635 -0.1355493218 0.5534990430 4289507765
-0.2802187800 -0.1349621862 0.5536132455 4289376949
-0.2802763581 -0.1343746930 0.5537270308 4289442742
-0.2803336978 -0.1337868273 0.5538403392 4289574328
-0.2803908288 -0.1331986189 0.5539531708 4289574328
-0.2804477215 -0.1326100379 0.5540655851 4289705144
-0.2805043757 -0.1320210993 0.5541775227 4289770937
-0.2805608213 -0.1314318031 0.5542889833 4289836732
-0.2806170285 -0.1308421493 0.5544000268 4289836732
-0.2806729972 -0.1302521527 0.5545106530 4289902525
-0.2807287276 -0.1296617985 0.5546207428 4289902525
-0.2807842493 -0.1290710866 0.5547304153 4289968318
-0.2808395326 -0.1284800321 0.5548396707 4290034111
-0.2808945775 -0.1278886348 0.5549483895 4290099904
-0.2805069685 -0.1270964146 0.5541825891 4290099904
-0.2810039818 -0.1267047822 0.5551645160 4290165697
-0.2810583413 -0.1261123419 0.5552719235 4290165697
-0.2815551460 -0.1257172227 0.5562534332 4290231490
-0.2816091180 -0.1251231730 0.5563600659 4290297283
-0.2816628218 -0.1245287657 0.5564662218 4290363076
-0.2817163169 -0.1239340305 0.5565719008 4290428869
-0.2817695737 -0.1233389452 0.5566771030 4290428869
-0.2818226218 -0.1227435321 0.5567818880 4290428869
-0.2818754017 -0.1221477836 0.5568861365 4290428869
-0.2823712230 -0.1217428148 0.5578657389 4290428869
-0.2824236155 -0.1211454645 0.5579692721 4290494662
-0.2824757695 -0.1205477789 0.5580722690 4290560455
-0.2829712033 -0.1201380640 0.5590510964 4290626248
-0.2830229700 -0.1195387766 0.5591533780 4290626248
-0.2835181952 -0.1191255897 0.5601317286 4290692041
-0.2835695446 -0.1185247079 0.5602331758 4290692041
-0.2840645015 -0.1181080490 0.5612110496 4290692041
-0.2841154635 -0.1175055727 0.5613117218 4290692041
-0.2841661572 -0.1169027761 0.5614119172 4290757834
-0.2846607268 -0.1164813787 0.5623889565 4290823627
-0.2847110331 -0.1158769950 0.5624883771 4290757834
-0.2847611010 -0.1152722985 0.5625872612 4290823627
-0.2848109007 -0.1146672815 0.5626856685 4290823627
-0.2848604620 -0.1140619442 0.5627835989 4290757834
-0.2849097848 -0.1134562939 0.5628810525 4290692555
-0.2854034305 -0.1130263805 0.5638563037 4290560969
-0.2854523361 -0.1124191582 0.5639529228 4290429383
-0.2859457135 -0.1119857803 0.5649276376 4290363590
-0.2864389718 -0.1115502045 0.5659021735 4290297797
-0.2864872813 -0.1109401584 0.5659976006 4290363590
-0.2869803011 -0.1105011255 0.5669716001 4290495176
-0.2879181802 -0.1102302596 0.5688245893 4290626762
-0.2884110510 -0.1097858697 0.5697982907 4290758348
-0.2884586751 -0.1091708019 0.5698924065 4291021520
-0.2885060310 -0.1085554287 0.5699859262 4291350485
-0.2885531485 -0.1079397574 0.5700790286 4291811036
-0.2885999978 -0.1073237807 0.5701715946 4292140001
-0.2890920341 -0.1068721786 0.5711436868 4292271587
-0.2891384661 -0.1062546596 0.5712354183 4292469479
-0.2896302044 -0.1057996079 0.5722069144 4292732651
-0.2901218534 -0.1053423584 0.5731782317 4292929519
-0.2906133831 -0.1048829034 0.5741493106 4292929519
-0.2911047935 -0.1044212580 0.5751201510 4292205798
-0.2911502123 -0.1037984490 0.5752099156 4290889938
-0.2916413248 -0.1033333540 0.5761801600 4290034629
-0.2921322882 -0.1028660610 0.5771501660 4289705664
-0.2921770811 -0.1022404805 0.5772386193 4289903041
-0.2917754650 -0.1014594734 0.5764451623 4290560971
-0.2918196619 -0.1008342728 0.5765324831 4290955727
-0.2918635905 -0.1002087891 0.5766193271 4291284692
-0.2919072807 -0.0995830297 0.5767056346 4291745243
-0.2919507027 -0.0989569798 0.5767914057 4292140001
-0.2919938564 -0.0983306617 0.5768766403 4292403686
-0.2920367420 -0.0977040604 0.5769613981 4292732651
-0.2934192121 -0.0975224897 0.5796926022 4293259249
-0.2939084470 -0.0970399454 0.5806591511 4293719800
-0.3179965317 -0.1800774038 0.6296303272 4290363592
-0.3171981573 -0.1789274961 0.6280495524 4289705662
-0.3150881231 -0.1770440638 0.6238716841 4289639869
-0.3112283051 -0.1741906255 0.6162292957 4289574076
-0.3038686514 -0.1694030315 0.6016572714 4289770939
-0.2965052724 -0.1646457464 0.5870778561 4289770939
-0.2922001779 -0.1616123766 0.5785537958 4289705146
-0.2896429300 -0.1595607996 0.5734904408 4289639353
-0.2883971334 -0.1582400501 0.5710238218 4289705144
-0.2875882387 -0.1571635604 0.5694221854 4289705144
-0.2867787182 -0.1560902745 0.5678193569 4289770937
-0.2859685719 -0.1550202072 0.5662152767 4289836730
-0.2847197652 -0.1537168920 0.5637426376 4289639353
-0.2843464017 -0.1528897882 0.5630034208 4289705146
-0.2839726508 -0.1520640999 0.5622633100 4289639353
-0.2835984528 -0.1512398273 0.5615224242 4289639353
-0.2832238376 -0.1504169852 0.5607807040 4289573560
-0.2828488052 -0.1495955735 0.5600381494 4289507767
