VERSION 0.7
FIELDS x y z rgba
SIZE 4 4 4 4
TYPE F F F U
COUNT 1 1 1 1
WIDTH 920
HEIGHT 1
VIEWPOINT 0.0 0.0 0.0 1.0 0.0 0.0 0.0
POINTS 920
DATA ascii
-0.2488623559 -0.1445668191 0.5389702916 4290164406
-0.2485125661 -0.1437656432 0.5382127166 4290164406
-0.2485698760 -0.1432006657 0.5383368731 4290164406
-0.2482194155 -0.1424014717 0.5375778675 4290098613
-0.2482762337 -0.1418366432 0.5377008915 4290164408
-0.2479250878 -0.1410394609 0.5369403958 4290230201
-0.2479814291 -0.1404747963 0.5370624065 4290230201
-0.2476295978 -0.1396796256 0.5363004804 4290164408
-0.2476854324 -0.1391151249 0.5364214182 4290164408
-0.2477410734 -0.1385502368 0.5365418792 4290230201
-0.2477965057 -0.1379849613 0.5366619229 4290230201
-0.2474434227 -0.1371929348 0.5358972549 4290164408
-0.2470899373 -0.1364023834 0.5351316929 4290230201
-0.2471445948 -0.1358378381 0.5352500677 4290230201
-0.2471990287 -0.1352729350 0.5353679657 4290164665
-0.2472532690 -0.1347076595 0.5354854465 4290098872
-0.2468985468 -0.1339202821 0.5347172022 4290164665
-0.2469522804 -0.1333552003 0.5348336101 4290164665
-0.2470058203 -0.1327897459 0.5349495411 4290164665
-0.2466501296 -0.1320050061 0.5341791511 4290164665
-0.2467031628 -0.1314397603 0.5342940688 4290164665
-0.2463467866 -0.1306571066 0.5335222483 4290164665
-0.2463993430 -0.1300920546 0.5336360335 4290164665
-0.2464516759 -0.1295266598 0.5337494016 4290230458
-0.2460943311 -0.1287466884 0.5329754949 4290230458
-0.2461461723 -0.1281815022 0.5330877900 4290296251
-0.2457881570 -0.1274036318 0.5323123932 4290296251
-0.2458395064 -0.1268386841 0.5324236155 4290296251
-0.2458906472 -0.1262733787 0.5325343609 4290230458
-0.2455316633 -0.1254982203 0.5317568779 4290296251
-0.2455822974 -0.1249331534 0.5318665504 4290296251
-0.2452226579 -0.1241601184 0.5310876966 4290296251
-0.2452728003 -0.1235953048 0.5311962366 4290362044
-0.2449124902 -0.1228244156 0.5304158926 4290296251
-0.2449621260 -0.1222598553 0.5305234194 4290296251
-0.2450115532 -0.1216949597 0.5306304693 4290427837
-0.2446502745 -0.1209268197 0.5298480392 4290296251
-0.2446992099 -0.1203621849 0.5299540162 4290296251
-0.2443372756 -0.1195962131 0.5291701555 4290296251
-0.2443856895 -0.1190318540 0.5292750001 4290296251
-0.2444339097 -0.1184671596 0.5293794274 4290362044
-0.2444819212 -0.1179021299 0.5294834375 4290362044
-0.2441187352 -0.1171395630 0.5286968350 4290362044
-0.2437551767 -0.1163785681 0.5279095173 4290362044
-0.2438023984 -0.1158144549 0.5280117393 4290428089
-0.2438493967 -0.1152500063 0.5281135440 4290362296
-0.2438961864 -0.1146852374 0.5282148719 4290230975
-0.2435313910 -0.1139276996 0.5274248123 4290296768
-0.2435776740 -0.1133632287 0.5275250673 4290493119
-0.2436237484 -0.1127984449 0.5276248455 4290493119
-0.2436696142 -0.1122333407 0.5277241468 4290494402
-0.2433035672 -0.1114792898 0.5269314647 4290691781
-0.2433489263 -0.1109144986 0.5270296931 4285492592
-0.2433940768 -0.1103494018 0.5271274447 4282992458
-0.2430270910 -0.1095982268 0.5263326764 4282541228
-0.2430717349 -0.1090334579 0.5264293551 4282935986
-0.2431161553 -0.1084683761 0.5265255570 4284317888
-0.2431603670 -0.1079029888 0.5266212821 4284383681
-0.2427921444 -0.1071553603 0.5258238316 4284449214
-0.2428358495 -0.1065903157 0.5259184837 4286686176
-0.2432917058 -0.1062049791 0.5269057155 4287673333
-0.2433350533 -0.1056383699 0.5269995928 4285502164
-0.2437906861 -0.1052495390 0.5279864073 4284843975
-0.2438336760 -0.1046813652 0.5280795097 4285172940
-0.2442891002 -0.1042890549 0.5290657878 4285238733
-0.2447444350 -0.1038945168 0.5300519466 4284975561
-0.2456125021 -0.1036719978 0.5319319367 4285107147
-0.2464806288 -0.1034453288 0.5338121057 4285107147
-0.2473488301 -0.1032145098 0.5356923938 4285435342
-0.2482170761 -0.1029795334 0.5375728011 4285369549
-0.2490853816 -0.1027403995 0.5394533277 4286421979
-0.2495405972 -0.1023276970 0.5404391885 4286553565
-0.2504089475 -0.1020812243 0.5423198342 4286750944
-0.2516906261 -0.1019980684 0.5450956225 4286487772
-0.2521457970 -0.1015757918 0.5460813642 4286356186
-0.2526008785 -0.1011512801 0.5470669270 4286816737
-0.2534693480 -0.1008891314 0.5489478111 4285566670
-0.2539242804 -0.1004592031 0.5499330759 4285829842
-0.2547927499 -0.1001896858 0.5518139601 4286356186
-0.2552475929 -0.0997543335 0.5527989864 4286553565
-0.2557023168 -0.0993167534 0.5537838340 4287014116
-0.2561569214 -0.0988769457 0.5547683835 4287211495
-0.2566114366 -0.0984349027 0.5557527542 4285829840
-0.2570658624 -0.0979906395 0.5567368865 4287211493
-0.2575201690 -0.0975441486 0.5577208400 4285500875
-0.2579743564 -0.0970954299 0.5587044954 4286816735
-0.2584284544 -0.0966444910 0.5596879125 4287342568
-0.2588824332 -0.0961913168 0.5606711507 4286487259
-0.2593362927 -0.0957359225 0.5616540909 4286882015
-0.2602044046 -0.0954302549 0.5635341406 4287474152
-0.2610724866 -0.0951204225 0.5654142499 4286816735
-0.2615261376 -0.0946563929 0.5663967133 4286553563
-0.2619796693 -0.0941901505 0.5673789382 4286356433
-0.2624330819 -0.0937216729 0.5683609247 4286027468
-0.2628863752 -0.0932509750 0.5693426132 4285698763
-0.2633395493 -0.0927780494 0.5703240633 4285238212
-0.2642073333 -0.0924480334 0.5722035170 4284712386
-0.2650751472 -0.0921138376 0.5740829110 4286028246
-0.2659429312 -0.0917754546 0.5759623647 4288397054
-0.2663957775 -0.0912907049 0.5769430399 4288528639
-0.2668484747 -0.0908037275 0.5779234767 4285304523
-0.2677161098 -0.0904547647 0.5798025727 4285896660
-0.2685837448 -0.0901016220 0.5816816092 4285500614
-0.2694513202 -0.0897442922 0.5835605860 4284776891
-0.2703188956 -0.0893827826 0.5854395032 4284842165
-0.2711864412 -0.0890170932 0.5873183608 4285500095
-0.2716386020 -0.0885118768 0.5882976651 4285697213
-0.2720906138 -0.0880044326 0.5892766118 4285368248
-0.2725425065 -0.0874947682 0.5902552605 4285497775
-0.2734097540 -0.0871152803 0.5921334624 4287339979
-0.2738613784 -0.0866001919 0.5931115746 4289642724
-0.2738972306 -0.0859524608 0.5931892395 4291090170
-0.2592839003 -0.1960139722 0.5628946424 4289902014
-0.2585610449 -0.1948438138 0.5613253117 4289507256
-0.2590349019 -0.1945760846 0.5623540282 4289244084
-0.2583110929 -0.1934093237 0.5607826710 4289770428
-0.2575866580 -0.1922455728 0.5592099428 4289770685
-0.2572610378 -0.1913820356 0.5585030913 4289770685
-0.2565354407 -0.1902234554 0.5569278002 4289770428
-0.2554095089 -0.1887724996 0.5544834733 4289704635
-0.2566816211 -0.1890935749 0.5572451353 4289507256
-0.2559545934 -0.1879405826 0.5556668043 4289507256
-0.2556269467 -0.1870834231 0.5549555421 4289375670
-0.2552989423 -0.1862275451 0.5542433858 4289112498
-0.2553707659 -0.1856639832 0.5543993711 4288717740
-0.2550420463 -0.1848098040 0.5536857247 4288059810
-0.2551134229 -0.1842461675 0.5538406968 4287532694
-0.2551846206 -0.1836820543 0.5539952517 4286940557
-0.2548549175 -0.1828299910 0.5532794595 4286216834
-0.2549256384 -0.1822658330 0.5534330010 4285756283
-0.2545952499 -0.1814154983 0.5527157187 4285558904
-0.2546654940 -0.1808512807 0.5528682470 4285427318
-0.2543344200 -0.1800026894 0.5521494746 4285164400
-0.2544041872 -0.1794384271 0.5523009896 4285361779
-0.2544738054 -0.1788737029 0.5524520874 4285624951
-0.2541417181 -0.1780272722 0.5517311692 4285493365
-0.2538092434 -0.1771821678 0.5510093570 4285427572
-0.2534763813 -0.1763383895 0.5502867103 4285559158
-0.2531431317 -0.1754959375 0.5495632291 4285624950
-0.2532113791 -0.1749324799 0.5497114062 4285624950
-0.2532794476 -0.1743685752 0.5498591661 4285559157
-0.2529451847 -0.1735283434 0.5491335392 4285493364
-0.2526105344 -0.1726894379 0.5484070182 4285624950
-0.2526778579 -0.1721259654 0.5485531688 4285690743
-0.2527449727 -0.1715620458 0.5486988425 4285690743
-0.2528119087 -0.1709976792 0.5488441586 4285690743
-0.2524759769 -0.1701614708 0.5481148958 4285690743
-0.2525424361 -0.1695971042 0.5482591987 4285756536
-0.2526087165 -0.1690323055 0.5484030843 4285624951
-0.2522718012 -0.1681983620 0.5476716757 4285756537
-0.2523376048 -0.1676335633 0.5478144884 4286019708
-0.2524031997 -0.1670683324 0.5479569435 4289572530
-0.2524686456 -0.1665026546 0.5480989218 4289769909
-0.2525338531 -0.1659365445 0.5482405424 4289967288
-0.2521953881 -0.1651058197 0.5475057364 4289901495
-0.2518565357 -0.1642764658 0.5467700958 4289967288
-0.2515172660 -0.1634484977 0.5460335612 4289901495
-0.2515814304 -0.1628833562 0.5461728573 4289901495
-0.2512414753 -0.1620572507 0.5454348326 4289967029
-0.2513051629 -0.1614921540 0.5455731153 4289967029
-0.2509645224 -0.1606679112 0.5448336005 4289967029
-0.2510277331 -0.1601028591 0.5449708104 4289967029
-0.2506864071 -0.1592804939 0.5442298055 4289901236
-0.2507491112 -0.1587155014 0.5443659425 4289967029
-0.2508116364 -0.1581501067 0.5445016623 4289967029
-0.2504693270 -0.1573301107 0.5437585711 4289967029
-0.2505313754 -0.1567647755 0.5438932180 4289967029
-0.2505932152 -0.1561990231 0.5440275073 4289967029
-0.2498449981 -0.1551299989 0.5424031615 4290032822
-0.2499062568 -0.1545652300 0.5425361395 4290032822
-0.2495621890 -0.1537504643 0.5417891741 4290032822
-0.2496229559 -0.1531857848 0.5419211388 4290032822
-0.2496835440 -0.1526207030 0.5420526266 4290032822
-0.2493384928 -0.1518083662 0.5413035750 4290032822
-0.2489930689 -0.1509974599 0.5405536294 4290032822
-0.2490528673 -0.1504329890 0.5406834483 4290032822
-0.2491124719 -0.1498681009 0.5408128500 4290032822
-0.2487660497 -0.1490596533 0.5400608182 4290032822
-0.2488251626 -0.1484948844 0.5401891470 4290098615
-0.2488840818 -0.1479297131 0.5403170586 4290098615
-0.2489428073 -0.1473641545 0.5404445529 4290164406
-0.2485951334 -0.1465587020 0.5396897197 4290098613
-0.2486533672 -0.1459932625 0.5398161411 4290098613
-0.2487113923 -0.1454274207 0.5399421453 4290098613
-0.2483627498 -0.1446244866 0.5391852260 4290098613
-0.2484202832 -0.1440587789 0.5393101573 4290164406
-0.2480709553 -0.1432578266 0.5385517478 4290164406
-0.2481279969 -0.1426922679 0.5386756063 4290164406
-0.2477779835 -0.1418933123 0.5379157662 4290164408
-0.2478345484 -0.1413279027 0.5380385518 4290230201
-0.2474838495 -0.1405309737 0.5372772217 4290230201
-0.2471327782 -0.1397355050 0.5365150571 4290230201
-0.2471885532 -0.1391708106 0.5366361141 4290164408
-0.2472441196 -0.1386057138 0.5367567539 4290230201
-0.2472994924 -0.1380402446 0.5368769169 4290230201
-0.2469471544 -0.1372479200 0.5361120105 4290230201
-0.2470020205 -0.1366826296 0.5362311602 4290230201
-0.2466490120 -0.1358923316 0.5354647636 4290295994
-0.2467033863 -0.1353272200 0.5355828404 4290230201
-0.2467575669 -0.1347617507 0.5357004404 4290164408
-0.2464035898 -0.1339740753 0.5349319577 4290230201
-0.2464572638 -0.1334087849 0.5350484848 4290164408
-0.2465107441 -0.1328431219 0.5351645947 4290098872
-0.2461557984 -0.1320580989 0.5343940258 4290164665
-0.2462087721 -0.1314926445 0.5345090628 4290164665
-0.2458531559 -0.1307096928 0.5337370038 4290164665
-0.2459056377 -0.1301444471 0.5338509679 4290164665
-0.2459579110 -0.1295788437 0.5339644551 4290230458
-0.2460099906 -0.1290128827 0.5340774655 4290296251
-0.2456531078 -0.1282331944 0.5333027244 4290296251
-0.2457046807 -0.1276674569 0.5334146619 4290296251
-0.2453471422 -0.1268898696 0.5326384902 4290296251
-0.2453982085 -0.1263243705 0.5327493548 4290230458
-0.2454490811 -0.1257584989 0.5328598022 4290296251
-0.2450905740 -0.1249836385 0.5320814848 4290230458
-0.2447316945 -0.1242103130 0.5313023329 4290230458
-0.2447817624 -0.1236452907 0.5314110518 4290362044
-0.2444222122 -0.1228741035 0.5306305289 4290362044
-0.2444717884 -0.1223093420 0.5307381153 4290296251
-0.2445211560 -0.1217442304 0.5308452845 4290427837
-0.2445703149 -0.1211787835 0.5309520364 4290362044
-0.2442095280 -0.1204109639 0.5301687717 4290362044
-0.2442581803 -0.1198457778 0.5302743912 4290362044
-0.2438967228 -0.1190801263 0.5294896960 4290362044
-0.2439448833 -0.1185152233 0.5295942426 4290362044
-0.2439928204 -0.1179499850 0.5296983123 4290362044
-0.2440405637 -0.1173844114 0.5298019648 4290427837
-0.2440880835 -0.1168185100 0.5299051404 4290427837
-0.2433147728 -0.1158615127 0.5282263160 4290559416
-0.2433617264 -0.1152968556 0.5283282399 4290427830
-0.2434084564 -0.1147318780 0.5284296870 4290427839
-0.2434549779 -0.1141665652 0.5285306573 4290493632
-0.2430906594 -0.1134093702 0.5277397633 4290558912
-0.2431366742 -0.1128443703 0.5278396606 4290558912
-0.2431824803 -0.1122790501 0.5279390812 4290560195
-0.2428172231 -0.1115247086 0.5271461010 4290757574
-0.2428625226 -0.1109597087 0.5272444487 4285295215
-0.2429076135 -0.1103943959 0.5273423791 4283124046
-0.2429524958 -0.1098287627 0.5274397731 4282541227
-0.2425859869 -0.1090779454 0.5266441107 4283067571
-0.2426303625 -0.1085126549 0.5267404318 4284317888
-0.2426745147 -0.1079470441 0.5268363357 4284515267
-0.2423070669 -0.1071991324 0.5260386467 4284843972
-0.2423507273 -0.1066338718 0.5261333585 4286883555
-0.2428057045 -0.1062483937 0.5271211267 4288002039
-0.2428489923 -0.1056815609 0.5272151232 4285370319
-0.2433037609 -0.1052925959 0.5282023549 4284975561
-0.2437584400 -0.1049013957 0.5291894674 4285238733
-0.2442130595 -0.1045079827 0.5301764607 4285303756
-0.2446676046 -0.1041123345 0.5311632156 4285172170
-0.2451220751 -0.1037144661 0.5321498513 4285303756
-0.2464005500 -0.1036610603 0.5349254012 4285237963
-0.2472671121 -0.1034291983 0.5368066430 4285435342
-0.2477215528 -0.1030217558 0.5377932191 4285501135
-0.2485881597 -0.1027825475 0.5396745801 4286421979
-0.2494548261 -0.1025391743 0.5415561199 4286750944
-0.2503215373 -0.1022916436 0.5434377193 4287145702
-0.2507758439 -0.1018723994 0.5444239974 4286619358
-0.2516426146 -0.1016175151 0.5463056564 4285895892
-0.2520968020 -0.1011928469 0.5472916961 4286816994
-0.2529635727 -0.1009306014 0.5491734147 4285764047
-0.2534176409 -0.1005005017 0.5501592159 4285829840
-0.2542844117 -0.1002308950 0.5520409346 4286356186
-0.2547383606 -0.0997953713 0.5530264378 4286553565
-0.2551922202 -0.0993576273 0.5540117025 4287014116
-0.2556459606 -0.0989176482 0.5549967885 4287145702
-0.2560996115 -0.0984754413 0.5559816360 4285961426
-0.2565531433 -0.0980310068 0.5569662452 4287211493
-0.2570065856 -0.0975843444 0.5579506159 4285829840
-0.2574599087 -0.0971354544 0.5589348078 4286882528
-0.2579131126 -0.0966843367 0.5599187016 4287079396
-0.2583662271 -0.0962309912 0.5609023571 4286355673
-0.2588192225 -0.0957754180 0.5618858337 4286553050
-0.2596856356 -0.0954696387 0.5637667179 4286882015
-0.2605520189 -0.0951596871 0.5656476617 4286158805
-0.2610048056 -0.0946954861 0.5666306019 4285961426
-0.2614574730 -0.0942290574 0.5676133037 4285961676
-0.2619099915 -0.0937604010 0.5685957670 4285698504
-0.2623624206 -0.0932895169 0.5695779324 4285698506
-0.2628147006 -0.0928164050 0.5705598593 4285172162
-0.2636808157 -0.0924862623 0.5724401474 4284909251
-0.2645469308 -0.0921519399 0.5743204355 4286817248
-0.2654130161 -0.0918134376 0.5762006640 4288791551
-0.2658649981 -0.0913284943 0.5771818757 4287804657
-0.2667309940 -0.0909826010 0.5790619254 4285172423
-0.2671827674 -0.0904922262 0.5800427198 4285040837
-0.2684629560 -0.0902782679 0.5828219652 4284842682
-0.2693289220 -0.0899198204 0.5847019553 4285105854
-0.2697804570 -0.0894198343 0.5856821537 4285236662
-0.2706463039 -0.0890539959 0.5875619054 4285105076
-0.2710975707 -0.0885485858 0.5885416269 4285499315
-0.2715487480 -0.0880409405 0.5895210505 4286486210
-0.2719997466 -0.0875310749 0.5905001760 4288655315
-0.2728652954 -0.0871514380 0.5923792124 4290300140
-0.2733160555 -0.0866361484 0.5933578014 4291681783
-0.2579617202 -0.1954857707 0.5613778234 4288059810
-0.2580365539 -0.1949185580 0.5615406632 4287007122
-0.2569162250 -0.1934510916 0.5591025949 4286546571
-0.2577872276 -0.1934836060 0.5609980822 4287336087
-0.2570643127 -0.1923194677 0.5594248772 4288389034
-0.2567394078 -0.1914556175 0.5587178469 4288717999
-0.2560153604 -0.1902966499 0.5571420789 4289310134
-0.2548917532 -0.1888451725 0.5546969175 4289639099
-0.2561613321 -0.1891664118 0.5574598312 4289639099
-0.2554358244 -0.1880130172 0.5558809638 4289441720
-0.2555081546 -0.1874484569 0.5560383797 4289375670
-0.2551809549 -0.1865914166 0.5553263426 4289375670
-0.2552528381 -0.1860267818 0.5554826856 4289638842
-0.2549249530 -0.1851714253 0.5547691584 4289375670
-0.2549963295 -0.1846067309 0.5549245477 4289178291
-0.2550675571 -0.1840415448 0.5550795197 4289046705
-0.2551385760 -0.1834758967 0.5552340746 4288783533
-0.2544094026 -0.1823363900 0.5536472797 4288454568
-0.2544798553 -0.1817715764 0.5538005829 4287796638
-0.2541499138 -0.1809213758 0.5530825257 4287072915
-0.2542198896 -0.1803565174 0.5532348156 4286217088
-0.2542896867 -0.1797911823 0.5533867478 4286019709
-0.2543593347 -0.1792253852 0.5535382628 4285822330
-0.2536274195 -0.1780964285 0.5519454479 4285295986
-0.2540972531 -0.1778119504 0.5529679060 4285164400
-0.2533644140 -0.1766865253 0.5513731241 4285427572
-0.2534329891 -0.1761215627 0.5515223742 4285493364
-0.2531002760 -0.1752783656 0.5507982969 4285624950
-0.2535695732 -0.1749902517 0.5518196225 4285624950
-0.2528349459 -0.1738719493 0.5502209067 4285559157
-0.2525011301 -0.1730318666 0.5494944453 4285559157
-0.2521669269 -0.1721931100 0.5487671494 4285624950
-0.2522339523 -0.1716290116 0.5489130020 4285624950
-0.2523007989 -0.1710644513 0.5490584970 4285624950
-0.2523674667 -0.1704994589 0.5492035747 4285624950
-0.2520320117 -0.1696634144 0.5484735370 4285690743
-0.2520982027 -0.1690984219 0.5486175418 4285362293
-0.2517620325 -0.1682641804 0.5478859544 4285493879
-0.2518277168 -0.1676992029 0.5480290055 4285690743
-0.2518932521 -0.1671337783 0.5481715798 4289506737
-0.2519586086 -0.1665679216 0.5483137965 4289769909
-0.2516211569 -0.1657364368 0.5475794077 4290033081
-0.2516860068 -0.1651705950 0.5477205515 4289835702
-0.2513478696 -0.1643409580 0.5469847322 4289835702
-0.2510093451 -0.1635126919 0.5462480187 4289835700
-0.2510734499 -0.1629473716 0.5463874936 4289835700
-0.2511373460 -0.1623816043 0.5465265512 4289901236
-0.2507978380 -0.1615556777 0.5457876921 4289901236
-0.2508612275 -0.1609899551 0.5459256768 4289901234
-0.2505210340 -0.1601659060 0.5451853871 4289901234
-0.2505839765 -0.1596002430 0.5453222990 4289901234
-0.2502430975 -0.1587780714 0.5445805192 4289967027
-0.2503055334 -0.1582124680 0.5447164178 4289967029
-0.2503677905 -0.1576464474 0.5448518991 4289967029
-0.2500259280 -0.1568266600 0.5441079140 4289967029
-0.2500877082 -0.1562606990 0.5442423224 4289967029
-0.2493410558 -0.1551912874 0.5426174402 4289967029
-0.2494022399 -0.1546263397 0.5427505970 4290032822
-0.2494632304 -0.1540609598 0.5428833365 4290032822
-0.2491196096 -0.1532464027 0.5421355367 4290032822
-0.2491801083 -0.1526811272 0.5422672033 4289967029
-0.2492404282 -0.1521154344 0.5423984528 4290032822
-0.2488958240 -0.1513033211 0.5416485667 4290032822
-0.2485508472 -0.1504926234 0.5408977866 4290032822
-0.2486103773 -0.1499275565 0.5410273671 4290032822
-0.2486697137 -0.1493620723 0.5411564708 4290032822
-0.2483237535 -0.1485538483 0.5404036045 4290032822
-0.2483825982 -0.1479884833 0.5405316949 4290032822
-0.2484412491 -0.1474227160 0.5406593084 4290032820
-0.2480943203 -0.1466169804 0.5399042964 4290098613
-0.2481524795 -0.1460513324 0.5400308967 4290098613
-0.2482104450 -0.1454852968 0.5401570201 4290098613
-0.2478625327 -0.1446820647 0.5393999219 4290098613
-0.2479200065 -0.1441161633 0.5395249724 4290098613
-0.2475714236 -0.1433149129 0.5387663841 4290098613
-0.2476284057 -0.1427491605 0.5388903618 4290164406
-0.2476851791 -0.1421830058 0.5390139818 4290164408
-0.2473356277 -0.1413843036 0.5382532477 4290164408
-0.2473919243 -0.1408183128 0.5383757353 4290230201
-0.2470416874 -0.1400216222 0.5376135707 4290164408
-0.2466910630 -0.1392264217 0.5368505716 4290164408
-0.2467465699 -0.1386611313 0.5369713306 4290230201
-0.2468018681 -0.1380954534 0.5370916724 4290230201
-0.2468569726 -0.1375294030 0.5372115970 4290230201
-0.2465050966 -0.1367373466 0.5364458561 4290164665
-0.2465596944 -0.1361714751 0.5365646482 4290164665
-0.2462071478 -0.1353814453 0.5357974172 4290164665
-0.2462612540 -0.1348157674 0.5359151959 4290098872
-0.2459080368 -0.1340278089 0.5351465344 4290098872
-0.2459616512 -0.1334623098 0.5352631807 4290098872
-0.2460150570 -0.1328964531 0.5353794098 4290098872
-0.2456608713 -0.1321111321 0.5346086025 4290164665
-0.2457137853 -0.1315454692 0.5347237587 4290164665
-0.2457664907 -0.1309794486 0.5348384976 4290164665
-0.2454113364 -0.1301967800 0.5340656042 4290230458
-0.2454635501 -0.1296309680 0.5341792107 4290230458
-0.2451077253 -0.1288504004 0.5334048867 4290230458
-0.2451594472 -0.1282848120 0.5335174203 4290230458
-0.2452109605 -0.1277188659 0.5336295366 4290230458
-0.2452622652 -0.1271525621 0.5337411761 4290296251
-0.2449051887 -0.1263752878 0.5329641104 4290296251
-0.2449559867 -0.1258092225 0.5330746770 4290296251
-0.2445982397 -0.1250340641 0.5322961211 4290230458
-0.2442401201 -0.1242604405 0.5315167904 4290230458
-0.2442901433 -0.1236952171 0.5316256285 4290362044
-0.2439313531 -0.1229237393 0.5308448672 4290362044
-0.2439808697 -0.1223587617 0.5309526324 4290296251
-0.2440301776 -0.1217934489 0.5310599208 4290362044
-0.2440792769 -0.1212277934 0.5311667323 4290362044
-0.2437192500 -0.1204596758 0.5303832293 4290362044
-0.2437678427 -0.1198942885 0.5304890275 4290362044
-0.2438162416 -0.1193285584 0.5305943489 4290362044
-0.2434552461 -0.1185632274 0.5298087597 4290362044
-0.2435031384 -0.1179977804 0.5299129486 4290427837
-0.2435508221 -0.1174319983 0.5300167203 4290427837
-0.2435982823 -0.1168658882 0.5301200151 4290427837
-0.2432360500 -0.1161039770 0.5293317437 4290428089
-0.2432830185 -0.1155381575 0.5294339657 4290362296
-0.2433297783 -0.1149720103 0.5295357108 4290428091
-0.2429665923 -0.1142129377 0.5287453532 4290559677
-0.2430128604 -0.1136470959 0.5288460255 4290690241
-0.2426490188 -0.1128902361 0.5280542374 4290624448
-0.2426947653 -0.1123247072 0.5281537771 4290494400
-0.2427403033 -0.1117588580 0.5282528996 4290757572
-0.2423755229 -0.1110048592 0.5274590254 4285097581
-0.2424205542 -0.1104393303 0.5275570154 4283321170
-0.2424653769 -0.1098734885 0.5276545882 4282606761
-0.2425099909 -0.1093073338 0.5277516842 4283198898
-0.2421439737 -0.1085568741 0.5269551277 4284252097
-0.2421880662 -0.1079910547 0.5270510912 4284975820
-0.2418213934 -0.1072428524 0.5262531638 4285962968
-0.2418650091 -0.1066773757 0.5263480544 4287410414
-0.2423190922 -0.1062917560 0.5273362398 4288265211
-0.2423623502 -0.1057247147 0.5274303555 4285172940
-0.2428162247 -0.1053356007 0.5284181237 4285041353
-0.2432700396 -0.1049442589 0.5294057131 4285238732
-0.2437237799 -0.1045506895 0.5303931236 4285237962
-0.2441774458 -0.1041548997 0.5313804150 4285237962
-0.2450421900 -0.1039312631 0.5332622528 4285369549
-0.2454957664 -0.1035300568 0.5342493653 4285237963
-0.2463605553 -0.1032990739 0.5361313224 4285369548
-0.2472254187 -0.1030639410 0.5380133986 4285566927
-0.2485017478 -0.1029951647 0.5407909751 4286356443
-0.2489552945 -0.1025811806 0.5417779684 4286619615
-0.2498203069 -0.1023335680 0.5436604023 4287014116
-0.2502737343 -0.1019141600 0.5446471572 4286487772
-0.2511387765 -0.1016591862 0.5465297103 4285237962
-0.2515920997 -0.1012343541 0.5475162268 4286290650
-0.2524571717 -0.1009720191 0.5493987799 4285764047
-0.2529103756 -0.1005417630 0.5503850579 4285632461
-0.2537754476 -0.1002720520 0.5522676110 4286487770
-0.2542285323 -0.0998363644 0.5532535911 4287014114
-0.2546814978 -0.0993984491 0.5542393923 4287145700
-0.2551343739 -0.0989583060 0.5552248955 4286948321
-0.2555871308 -0.0985159352 0.5562102199 4286093012
-0.2560397983 -0.0980713293 0.5571953058 4287277286
-0.2564923763 -0.0976244956 0.5581802130 4285895633
-0.2569448054 -0.0971754342 0.5591648221 4286421977
-0.2573971748 -0.0967241377 0.5601491928 4286618843
-0.2582619488 -0.0964246541 0.5620312095 4286487257
-0.2587141395 -0.0959679335 0.5630152225 4286487257
-0.2591662109 -0.0955089778 0.5639990568 4286092499
-0.2596181631 -0.0950478017 0.5649825931 4285763534
-0.2604828179 -0.0947345272 0.5668642521 4286092499
-0.2609345913 -0.0942679197 0.5678474307 4286093010
-0.2613862753 -0.0937990770 0.5688303113 4285764045
-0.2618378103 -0.0933280140 0.5698130131 4285632459
-0.2627022862 -0.0930009484 0.5716942549 4284908736
-0.2631536424 -0.0925244540 0.5726764798 4284711359
-0.2640180588 -0.0921900049 0.5745576024 4286290391
-0.2648824453 -0.0918513685 0.5764387250 4287343592
-0.2657468319 -0.0915085524 0.5783197880 4285830353
-0.2661978602 -0.0910202116 0.5793012977 4285040835
-0.2670621574 -0.0906700045 0.5811821818 4285106628
-0.2679264247 -0.0903156027 0.5830630660 4284908728
-0.2687906623 -0.0899570212 0.5849438310 4284711349
-0.2692413330 -0.0894568413 0.5859245658 4284973741
-0.2701054811 -0.0890908614 0.5878050923 4286026429
-0.2705558836 -0.0885852501 0.5887853503 4287867857
-0.2710061669 -0.0880774036 0.5897652507 4289710061
-0.2714563012 -0.0875673443 0.5907447934 4291352558
-0.2570394576 -0.1952588111 0.5607260466 4286217865
-0.2571140528 -0.1946923137 0.5608888268 4284638833
-0.2567909956 -0.1938252598 0.5601840615 4282993495
-0.2564675212 -0.1929594874 0.5594784021 4282532944
-0.2569391131 -0.1926915348 0.5605071783 4282665043
-0.2558193505 -0.1912317127 0.5580644011 4283257180
-0.2554946542 -0.1903697401 0.5573561192 4284573040
-0.2555676401 -0.1898046881 0.5575153232 4286020486
-0.2552422583 -0.1889443845 0.5568055511 4287073174
-0.2553147972 -0.1883792430 0.5569637418 4287731104
-0.2549887300 -0.1875206232 0.5562524199 4288586411
-0.2546622455 -0.1866632849 0.5555402637 4289310134
-0.2547340095 -0.1860984713 0.5556967854 4288981169
-0.2544068396 -0.1852428466 0.5549830794 4289244341
-0.2544781566 -0.1846779585 0.5551386476 4289441463
-0.2545492947 -0.1841126084 0.5552937984 4289244084
-0.2542211413 -0.1832590848 0.5545779467 4289046705
-0.2542918026 -0.1826936752 0.5547320843 4289244084
-0.2539629638 -0.1818418801 0.5540147424 4289441463
-0.2536337078 -0.1809913814 0.5532965064 4289441463
-0.2541031539 -0.1807104796 0.5543205738 4289177773
-0.2537733316 -0.1798608303 0.5536010861 4288848808
-0.2538428605 -0.1792948544 0.5537527800 4288125599
-0.2535123527 -0.1784469485 0.5530318022 4287336083
-0.2535814345 -0.1778809428 0.5531824827 4286809739
-0.2532502413 -0.1770347953 0.5524599552 4286480774
-0.2533188164 -0.1764687449 0.5526095629 4285822844
-0.2529869378 -0.1756243706 0.5518856049 4285362293
-0.2530550361 -0.1750583053 0.5520341992 4285230707
-0.2523219585 -0.1739396006 0.5504349470 4285230707
-0.2519888878 -0.1730992198 0.5497083664 4285296500
-0.2520561218 -0.1725344807 0.5498550534 4285559672
-0.2517223656 -0.1716958880 0.5491269231 4285822844
-0.2517891228 -0.1711311489 0.5492725968 4285888637
-0.2518557012 -0.1705659628 0.5494178534 4285822844
-0.2519221008 -0.1700003296 0.5495626926 4285757051
-0.2515870631 -0.1691644490 0.5488318205 4285494134
-0.2512516379 -0.1683299243 0.5481000543 4285625720
-0.2513172626 -0.1677647531 0.5482432246 4285756536
-0.2513827085 -0.1671991497 0.5483859777 4289506737
-0.2514479458 -0.1666330993 0.5485283136 4289769909
-0.2511112392 -0.1658013165 0.5477938056 4290033081
-0.2511760294 -0.1652352959 0.5479351282 4289769907
-0.2508386374 -0.1644053608 0.5471991301 4289967286
-0.2505008280 -0.1635768116 0.5464622378 4289769907
-0.2505648434 -0.1630112976 0.5466018319 4289769907
-0.2506286502 -0.1624453366 0.5467410684 4289901236
-0.2506922781 -0.1618789583 0.5468798876 4289901236
-0.2503532171 -0.1610532254 0.5461401939 4289901234
-0.2500137687 -0.1602288634 0.5453996658 4289967027
-0.2500766218 -0.1596630216 0.5455368161 4289967027
-0.2497364879 -0.1588405520 0.5447947979 4289967027
-0.2497988492 -0.1582747549 0.5449308753 4289901236
-0.2498610318 -0.1577085406 0.5450664759 4289901236
-0.2499230206 -0.1571419090 0.5452017188 4289967029
-0.2495816052 -0.1563223153 0.5444569588 4289967029
-0.2492398024 -0.1555041373 0.5437113047 4289967029
-0.2493010163 -0.1549380720 0.5438448191 4290032822
-0.2493620217 -0.1543715894 0.5439779162 4290032822
-0.2494228482 -0.1538047045 0.5441105962 4290032822
-0.2490797788 -0.1529894322 0.5433622003 4290032822
-0.2491401136 -0.1524226367 0.5434938073 4290032822
-0.2483924776 -0.1513631791 0.5418628454 4290032822
-0.2484522164 -0.1507973969 0.5419932008 4290032822
-0.2481076866 -0.1499869227 0.5412416458 4290032822
-0.2481669486 -0.1494212449 0.5413709283 4290032822
-0.2482260168 -0.1488551646 0.5414997339 4290032822
-0.2478805184 -0.1480471790 0.5407460332 4290032822
-0.2479390949 -0.1474812031 0.5408738256 4289967027
-0.2475929111 -0.1466751844 0.5401186347 4290032820
-0.2476509959 -0.1461093426 0.5402453542 4290098613
-0.2477088869 -0.1455430984 0.5403716564 4290098613
-0.2473617345 -0.1447395831 0.5396143198 4290098613
-0.2474191338 -0.1441734731 0.5397395492 4290098613
-0.2470712960 -0.1433719397 0.5389807820 4290098613
-0.2471282184 -0.1428059787 0.5391048789 4290098613
-0.2471849173 -0.1422396302 0.5392286181 4290164408
-0.2468361109 -0.1414406449 0.5384677052 4290164408
-0.2468923330 -0.1408744454 0.5385903716 4290164408
-0.2465428561 -0.1400774717 0.5378279686 4290164408
-0.2465985864 -0.1395114213 0.5379495621 4290164408
-0.2462484241 -0.1387164742 0.5371856689 4290164408
-0.2463036627 -0.1381506026 0.5373061895 4290164408
-0.2463586926 -0.1375843585 0.5374262333 4290230201
-0.2460075766 -0.1367919892 0.5366602540 4290098872
-0.2460621148 -0.1362259239 0.5367792249 4290098872
-0.2457103133 -0.1354356110 0.5360118151 4290164665
-0.2457643598 -0.1348697245 0.5361297131 4290164665
-0.2454118878 -0.1340814680 0.5353607535 4290164665
-0.2454654425 -0.1335157752 0.5354775786 4290164665
-0.2455187887 -0.1329497099 0.5355939865 4290164665
-0.2455719262 -0.1323832721 0.5357099175 4290164665
-0.2452182025 -0.1315982342 0.5349382758 4290164665
-0.2452708483 -0.1310320050 0.5350531340 4290230458
-0.2453232855 -0.1304654032 0.5351675153 4290230458
-0.2449686080 -0.1296830326 0.5343937874 4290230458
-0.2450205535 -0.1291166544 0.5345070958 4290164665
-0.2446651906 -0.1283363849 0.5337318778 4290164665
-0.2447166443 -0.1277702302 0.5338441133 4290230458
-0.2447678745 -0.1272037178 0.5339558721 4290230458
-0.2448189110 -0.1266368628 0.5340672135 4290296251
-0.2444623113 -0.1258598715 0.5332893133 4290296251
-0.2441053241 -0.1250844300 0.5325105190 4290296251
-0.2441555709 -0.1245183945 0.5326201320 4290296251
-0.2437979132 -0.1237450764 0.5318399668 4290296251
-0.2438476682 -0.1231792942 0.5319484472 4290296251
-0.2434893548 -0.1224081293 0.5311667919 4290296251
-0.2435386032 -0.1218426079 0.5312742591 4290296251
-0.2435876429 -0.1212767363 0.5313812494 4290296251
-0.2436364740 -0.1207105294 0.5314877629 4290362044
-0.2436850965 -0.1201439798 0.5315937996 4290362044
-0.2437335104 -0.1195770949 0.5316994190 4290362044
-0.2433733642 -0.1188105270 0.5309137702 4290427837
-0.2434212863 -0.1182439178 0.5310183167 4290427837
-0.2434689850 -0.1176769733 0.5311223865 4290427837
-0.2431078851 -0.1169131994 0.5303346515 4290427837
-0.2427464277 -0.1161510050 0.5295461416 4290493882
-0.2427933365 -0.1155849770 0.5296484828 4290362296
-0.2428400367 -0.1150186211 0.5297503471 4290362298
-0.2424776256 -0.1142592505 0.5289597511 4290493884
-0.2425238192 -0.1136932001 0.5290605426 4290624448
-0.2425698042 -0.1131268218 0.5291608572 4290558655
-0.2422064543 -0.1123703048 0.5283681750 4290494400
-0.2422519326 -0.1118042469 0.5284674168 4290823365
-0.2422972023 -0.1112378612 0.5285661817 4284966510
-0.2419328988 -0.1104842201 0.5277714729 4283453271
-0.2419776767 -0.1099181622 0.5278691053 4282672552
-0.2420222312 -0.1093517914 0.5279663205 4283198896
-0.2420665622 -0.1087851152 0.5280630589 4284120511
-0.2417010367 -0.1080350131 0.5272656083 4285567957
-0.2417448759 -0.1074686721 0.5273612738 4287015656
-0.2417884916 -0.1069020182 0.5274564028 4287739379
-0.2418318987 -0.1063350663 0.5275511146 4288527612
-0.2422850579 -0.1059470773 0.5285396576 4285303755
-0.2423281074 -0.1053785458 0.5286335945 4285107146
-0.2427810431 -0.1049870625 0.5296216607 4285172939
-0.2432339042 -0.1045933515 0.5306095481 4285237962
-0.2436866909 -0.1041974127 0.5315973163 4285303755
-0.2445497215 -0.1039737016 0.5334799886 4285369548
-0.2454128265 -0.1037458330 0.5353628397 4285237962
-0.2462759763 -0.1035138071 0.5372458100 4285369548
-0.2475497276 -0.1034491807 0.5400244594 4285632720
-0.2480024844 -0.1030372754 0.5410121083 4286356443
-0.2488658130 -0.1027927697 0.5428954363 4286422236
-0.2493184507 -0.1023754403 0.5438828468 4286553565
-0.2501818240 -0.1021235660 0.5457662940 4286553565
-0.2506343424 -0.1017008126 0.5467534661 4285435084
-0.2514977455 -0.1014415771 0.5486369133 4286553565
-0.2519501746 -0.1010133848 0.5496239066 4285632461
-0.2524024844 -0.1005829647 0.5506106019 4285632461
-0.2528547049 -0.1001503170 0.5515971184 4286816735
-0.2533068359 -0.0997154340 0.5525834560 4287277286
-0.2541701496 -0.0994392335 0.5544667244 4287079907
-0.2546221614 -0.0989989191 0.5554527640 4286816735
-0.2550740540 -0.0985563770 0.5564385653 4286290391
-0.2555258274 -0.0981115997 0.5574241281 4287079907
-0.2559775114 -0.0976645947 0.5584094524 4285829840
-0.2560174763 -0.0970593169 0.5584966540 4286421977
-0.2572922409 -0.0969189629 0.5612775087 4286750942
-0.2577436566 -0.0964642987 0.5622622371 4286685149
-0.2581949532 -0.0960073993 0.5632467866 4286487770
-0.2586461604 -0.0955482721 0.5642310381 4286093012
-0.2590972483 -0.0950869173 0.5652151108 4286026706
-0.2595482171 -0.0946233273 0.5661988854 4286289878
-0.2604111135 -0.0943067372 0.5680812597 4286093525
-0.2608619034 -0.0938377157 0.5690646172 4285830353
-0.2617247403 -0.0935137346 0.5709468722 4285304009
-0.2621753216 -0.0930392817 0.5719298720 4284711872
-0.2630380988 -0.0927079096 0.5738120079 4284777665
-0.2639008760 -0.0923723504 0.5756940842 4284975044
-0.2643512189 -0.0918892547 0.5766764879 4285238214
-0.2652139068 -0.0915463045 0.5785584450 4285238214
-0.2656640410 -0.0910577774 0.5795404315 4285040574
-0.2669392228 -0.0908478498 0.5823221803 4284974781
-0.2673892081 -0.0903529003 0.5833038092 4284843186
-0.2682517469 -0.0899941847 0.5851854682 4285303737
-0.2687015235 -0.0894938037 0.5861666799 4286947268
-0.2691511810 -0.0889911950 0.5871475339 4289052644
-0.2700135410 -0.0886218697 0.5890287161 4290828278
-0.2561182082 -0.1950315386 0.5600733757 4287073174
-0.2557960153 -0.1941646934 0.5593687892 4286217865
-0.2558701336 -0.1935992688 0.5595308542 4285099384
-0.2559440434 -0.1930333525 0.5596925616 4284309868
-0.2556208968 -0.1921685487 0.5589858890 4283257950
-0.2552973330 -0.1913050115 0.5582783222 4282402641
-0.2549733520 -0.1904427558 0.5575698614 4281481539
-0.2550462484 -0.1898775250 0.5577292442 4281086781
-0.2547215819 -0.1890169233 0.5570192933 4281349181
-0.2547940314 -0.1884516180 0.5571777225 4281941318
-0.2548662722 -0.1878858209 0.5573357344 4283191385
-0.2541429102 -0.1867350787 0.5557538867 4284441452
-0.2538167834 -0.1858787388 0.5550406575 4286678414
-0.2542861104 -0.1856046170 0.5560669899 4287665309
-0.2539593875 -0.1847490966 0.5553525090 4288652204
-0.2540304065 -0.1841835678 0.5555078387 4289178548
-0.2537029982 -0.1833297610 0.5547918677 4289573049
-0.2537735701 -0.1827641726 0.5549461842 4289507256
-0.2538439333 -0.1821981072 0.5551000834 4289441463
-0.2535155416 -0.1813464314 0.5543819666 4289573049
-0.2535854578 -0.1807803214 0.5545348525 4289770426
-0.2536551952 -0.1802137345 0.5546873212 4289638840
-0.2537247539 -0.1796467006 0.5548394322 4289573047
-0.2533950806 -0.1787976027 0.5541185141 4289375668
-0.2530650198 -0.1779498458 0.5533967614 4289375666
-0.2531338036 -0.1773831844 0.5535472035 4289178287
-0.2528030574 -0.1765371859 0.5528239012 4288586152
-0.2528713644 -0.1759704947 0.5529732704 4287994015
-0.2525399327 -0.1751262546 0.5522484779 4287270290
-0.2526077628 -0.1745595634 0.5523968339 4286678153
-0.2518758178 -0.1734417826 0.5507962704 4285822844
-0.2515431941 -0.1726015657 0.5500688553 4285230707
-0.2516101599 -0.1720362008 0.5502153039 4285295986
-0.2516769469 -0.1714703739 0.5503613353 4285427572
-0.2517435551 -0.1709040999 0.5505070090 4285559158
-0.2514096498 -0.1700665653 0.5497767925 4285624951
-0.2514757812 -0.1695003062 0.5499214530 4285164399
-0.2511411905 -0.1686645895 0.5491897464 4285493364
-0.2508061826 -0.1678302288 0.5484571457 4285756536
-0.2508715391 -0.1672644317 0.5486001372 4289440944
-0.2509367168 -0.1666982025 0.5487426519 4289835700
-0.2510017157 -0.1661315113 0.5488847494 4289967286
-0.2506654561 -0.1652999222 0.5481494069 4289704114
-0.2507299483 -0.1647332609 0.5482904911 4289835700
-0.2503930032 -0.1639035195 0.5475536585 4289769907
-0.2500556409 -0.1630751491 0.5468159318 4289769907
-0.2501193881 -0.1625089943 0.5469552875 4289835441
-0.2497813553 -0.1616824865 0.5462161303 4289901234
-0.2498446107 -0.1611163914 0.5463544130 4289901234
-0.2495058924 -0.1602917463 0.5456137657 4289967027
-0.2495686710 -0.1597257107 0.5457510352 4289967027
-0.2492292672 -0.1589029580 0.5450088382 4289967027
-0.2492915690 -0.1583369672 0.5451450348 4289901236
-0.2493536621 -0.1577705741 0.5452808142 4289901236
-0.2490132898 -0.1569501907 0.5445365310 4289967029
-0.2490749061 -0.1563838571 0.5446712375 4289967029
-0.2487338483 -0.1555653811 0.5439254642 4289967029
-0.2487949729 -0.1549991220 0.5440590978 4290032822
-0.2488559186 -0.1544324458 0.5441923738 4290032822
-0.2489166558 -0.1538653672 0.5443252325 4290032822
-0.2485743314 -0.1530498117 0.5435766578 4290032822
-0.2486345917 -0.1524828076 0.5437083840 4290032822
-0.2486946583 -0.1519154012 0.5438397527 4290032820
-0.2483513653 -0.1511022896 0.5430890322 4290032820
-0.2476044148 -0.1500462294 0.5414556265 4289967027
-0.2484703213 -0.1499672681 0.5433491468 4289967027
-0.2477225959 -0.1489140838 0.5417140722 4289967027
-0.2473778427 -0.1481057853 0.5409601331 4289967027
-0.2474363446 -0.1475396305 0.5410881042 4289967027
-0.2474946529 -0.1469730735 0.5412155986 4289967027
-0.2471489161 -0.1461672634 0.5404595733 4290032820
-0.2472067475 -0.1456008404 0.5405859947 4290032820
-0.2472643554 -0.1450340003 0.5407119989 4290098613
-0.2469176650 -0.1442307234 0.5399538279 4290098613
-0.2469747961 -0.1436640322 0.5400787592 4290098613
-0.2466274202 -0.1428627372 0.5393191576 4290032820
-0.2466840595 -0.1422961801 0.5394430161 4290098615
-0.2463360131 -0.1414968967 0.5386819243 4290098615
-0.2463921607 -0.1409305036 0.5388047099 4290098615
-0.2460434288 -0.1401332319 0.5380421281 4290164408
-0.2460990846 -0.1395670027 0.5381638408 4290164408
-0.2461545467 -0.1390003711 0.5382850766 4290164408
-0.2458048463 -0.1382056922 0.5375204086 4290164408
-0.2458598167 -0.1376392394 0.5376405716 4290230201
-0.2455094457 -0.1368465871 0.5368744135 4290098872
-0.2455639243 -0.1362802982 0.5369935036 4290033079
-0.2452128828 -0.1354897022 0.5362258554 4290164665
-0.2452668548 -0.1349236071 0.5363439322 4290230458
-0.2453206331 -0.1343571544 0.5364615321 4290164665
-0.2449686229 -0.1335691661 0.5356917381 4290164665
-0.2450219095 -0.1330028921 0.5358082652 4290230458
-0.2450749874 -0.1324362606 0.5359243155 4290164665
-0.2451278567 -0.1318692565 0.5360399485 4290230458
-0.2447745949 -0.1310845017 0.5352674723 4290230458
-0.2448269725 -0.1305176914 0.5353819728 4290164665
-0.2448791564 -0.1299505383 0.5354961157 4290164665
-0.2445249408 -0.1291684508 0.5347214937 4290230458
-0.2445766032 -0.1286015064 0.5348345041 4290230458
-0.2442217171 -0.1278215200 0.5340584517 4290164665
-0.2442729026 -0.1272548139 0.5341703296 4290164665
-0.2443238795 -0.1266877353 0.5342817903 4290296251
-0.2439680248 -0.1259104609 0.5335036516 4290296251
-0.2440185100 -0.1253436357 0.5336140394 4290362044
-0.2436619848 -0.1245684847 0.5328344107 4290362044
-0.2437119633 -0.1240018979 0.5329437256 4290230458
-0.2437617332 -0.1234349608 0.5330525637 4290230458
-0.2438113093 -0.1228676811 0.5331609249 4290296251
-0.2434535474 -0.1220958754 0.5323786139 4290296251
-0.2430954129 -0.1213256270 0.5315954685 4290296251
-0.2431441844 -0.1207592115 0.5317021012 4290296251
-0.2431927472 -0.1201924533 0.5318083167 4290362044
-0.2432411015 -0.1196253523 0.5319140553 4290427837
-0.2428817302 -0.1188584939 0.5311281681 4290427837
-0.2429295778 -0.1182916760 0.5312328339 4290427837
-0.2429772317 -0.1177245229 0.5313370228 4290427837
-0.2426169068 -0.1169604659 0.5305490494 4290427837
-0.2426640391 -0.1163935959 0.5306521654 4290297019
-0.2423030585 -0.1156317368 0.5298627615 4290231226
-0.2423496991 -0.1150651649 0.5299647450 4290362296
-0.2419880629 -0.1143055111 0.5291739106 4290428089
-0.2420341969 -0.1137392446 0.5292748213 4290689986
-0.2420801371 -0.1131726578 0.5293752551 4290624193
-0.2417175472 -0.1124158502 0.5285823345 4290429118
-0.2417629808 -0.1118495762 0.5286816955 4290758083
-0.2418081909 -0.1112829819 0.5287805796 4284768879
-0.2418531924 -0.1107160747 0.5288789868 4283518812
-0.2414893657 -0.1099627838 0.5280833840 4282738598
-0.2415338755 -0.1093961969 0.5281807184 4283330735
-0.2415781617 -0.1088293046 0.5282775760 4284186045
-0.2416222394 -0.1082620993 0.5283739567 4285962456
-0.2412571907 -0.1075123549 0.5275756717 4287476207
-0.2413007617 -0.1069454923 0.5276709199 4287410414
-0.2413441092 -0.1063783243 0.5277657509 4288461819
-0.2417963892 -0.1059901863 0.5287547708 4285303755
-0.2418393791 -0.1054214463 0.5288487673 4285238732
-0.2422914356 -0.1050298214 0.5298373103 4285041353
-0.2427434176 -0.1046359614 0.5308257341 4285237962
-0.2431953400 -0.1042398810 0.5318139791 4285237962
-0.2440566570 -0.1040160879 0.5336974859 4285303755
-0.2449180484 -0.1037881449 0.5355811715 4285303755
-0.2461891323 -0.1037286296 0.5383607149 4285369291
-0.2470507175 -0.1034913957 0.5402448177 4285698256
-0.2479123622 -0.1032500044 0.5421290398 4286356186
-0.2483642101 -0.1028347462 0.5431171656 4286290393
-0.2492258996 -0.1025859863 0.5450014472 4286356186
-0.2496776432 -0.1021653041 0.5459893346 4287014116
-0.2501293123 -0.1017423868 0.5469769835 4286093012
-0.2509909868 -0.1014830545 0.5488612652 4287343079
-0.2514425218 -0.1010547057 0.5498487353 4285764047
-0.2518939674 -0.1006241217 0.5508359075 4286224598
-0.2523453236 -0.1001913100 0.5518229008 4287145700
-0.2527965605 -0.0997562632 0.5528097153 4287014114
-0.2536581755 -0.0994799584 0.5546938777 4286750942
-0.2541092932 -0.0990394801 0.5556803346 4286816735
-0.2545603216 -0.0985967666 0.5566666126 4286619356
-0.2550112307 -0.0981518254 0.5576526523 4287014114
-0.2554620206 -0.0977046490 0.5586384535 4286224085
-0.2559127212 -0.0972552449 0.5596240759 4286750429
-0.2563633323 -0.0968036056 0.5606094003 4286882526
-0.2568137944 -0.0963497385 0.5615944862 4286948319
-0.2576751411 -0.0960468203 0.5634780526 4286553561
-0.2581254542 -0.0955875218 0.5644628406 4285829838
-0.2585756779 -0.0951259807 0.5654473305 4285960913
-0.2590257525 -0.0946622193 0.5664315820 4286158292
-0.2598869503 -0.0943455026 0.5683147907 4285830867
-0.2603368759 -0.0938763022 0.5692986250 4285436109
-0.2611979842 -0.0935522020 0.5711817741 4285107144
-0.2620591223 -0.0932239145 0.5730648637 4284580800
-0.2625087798 -0.0927460641 0.5740481615 4284843972
-0.2633698583 -0.0924103856 0.5759311318 4284778179
-0.2646424770 -0.0922139212 0.5787140727 4284843708
-0.2650919259 -0.0917264521 0.5796969533 4285041087
-0.2655412555 -0.0912367553 0.5806795359 4284448686
-0.2664022148 -0.0908852965 0.5825622082 4285172409
-0.2668513358 -0.0903901532 0.5835443139 4286619330
-0.2677121758 -0.0900312960 0.5854268074 4288527327
-0.2681610882 -0.0895307213 0.5864084363 4290368492
-0.2686098516 -0.0890279189 0.5873898268 4291552766
-0.2548023164 -0.1945018917 0.5585523844 4289376444
-0.2548763752 -0.1939376742 0.5587148070 4288981686
-0.2545543909 -0.1930726767 0.5580089688 4288126377
-0.2546280026 -0.1925083399 0.5581703186 4287007896
-0.2547014356 -0.1919435263 0.5583313107 4286416014
-0.2547747195 -0.1913782060 0.5584919453 4285560705
-0.2548477948 -0.1908124089 0.5586521626 4284442224
-0.2545242608 -0.1899502575 0.5579429269 4283521122
-0.2545968890 -0.1893843710 0.5581021309 4282600020
-0.2546693385 -0.1888179928 0.5582609773 4281744711
-0.2543448210 -0.1879579127 0.5575495958 4281480767
-0.2544168234 -0.1873914599 0.5577073693 4281414974
-0.2536945939 -0.1862416118 0.5561242104 4281217595
-0.2537660003 -0.1856759638 0.5562807322 4281612353
-0.2534399927 -0.1848201603 0.5555660725 4282138697
-0.2535109520 -0.1842544377 0.5557215810 4283651936
-0.2535817027 -0.1836882532 0.5558767319 4285757566
-0.2532547116 -0.1828345805 0.5551599264 4286941840
-0.2533250153 -0.1822683364 0.5553140640 4287599770
-0.2533951402 -0.1817016155 0.5554677248 4288652458
-0.2530671656 -0.1808500886 0.5547488332 4289309875
-0.2531368136 -0.1802833229 0.5549014807 4289573047
-0.2532062829 -0.1797160953 0.5550537705 4289573047
-0.2532755733 -0.1791483909 0.5552056432 4289573047
-0.2529463470 -0.1782994419 0.5544839501 4289704631
-0.2526167035 -0.1774518192 0.5537613630 4289704631
-0.2526852489 -0.1768845320 0.5539115667 4289835449
-0.2523549199 -0.1760386676 0.5531874895 4289703863
-0.2524229586 -0.1754713356 0.5533366799 4289704117
-0.2520919442 -0.1746272445 0.5526110530 4289309359
-0.2517605424 -0.1737844944 0.5518845916 4288783014
-0.2518278360 -0.1732175946 0.5520320535 4288125084
-0.2514957488 -0.1723766178 0.5513041019 4287532947
-0.2511632442 -0.1715369970 0.5505751967 4286940810
-0.2512297630 -0.1709705442 0.5507210493 4286282881
-0.2512961030 -0.1704036444 0.5508664846 4285624951
-0.2509626448 -0.1695662737 0.5501354933 4285295983
-0.2510285079 -0.1689993739 0.5502798557 4285427569
-0.2506943345 -0.1681638211 0.5495473146 4285756534
-0.2507597208 -0.1675969362 0.5496906638 4289046184
-0.2504248917 -0.1667632163 0.5489566326 4289704114
-0.2504898012 -0.1661963463 0.5490989089 4289967286
-0.2505545020 -0.1656290442 0.5492408276 4289769907
-0.2502186894 -0.1647976190 0.5485046506 4289835700
-0.2498824745 -0.1639675796 0.5477676392 4289769907
-0.2499464154 -0.1634007692 0.5479078293 4289704114
-0.2496095151 -0.1625725776 0.5471693277 4289770161
-0.2496729940 -0.1620058119 0.5473084450 4289835954
-0.2493354082 -0.1611794978 0.5465683937 4289770161
-0.2489974350 -0.1603545547 0.5458275080 4289835954
-0.2490601242 -0.1597883254 0.5459649563 4289835954
-0.2487214655 -0.1589652747 0.5452225804 4289835954
-0.2487836778 -0.1583991051 0.5453589559 4289901236
-0.2488456964 -0.1578325033 0.5454949141 4289901236
-0.2485060692 -0.1570118368 0.5447503924 4289901236
-0.2489691675 -0.1566980481 0.5457655787 4289967029
-0.2486289591 -0.1558783650 0.5450198054 4289967029
-0.2482883483 -0.1550600976 0.5442731380 4290032822
-0.2483492047 -0.1544932276 0.5444065928 4290032822
-0.2484098822 -0.1539259553 0.5445395708 4290032822
-0.2480683029 -0.1531101018 0.5437907577 4289967027
-0.2481284738 -0.1525429189 0.5439227223 4289967027
-0.2481884658 -0.1519753039 0.5440542102 4289967027
-0.2478459179 -0.1511619091 0.5433033109 4289967027
-0.2479054183 -0.1505943984 0.5434337258 4290032820
-0.2475621849 -0.1497829407 0.5426813364 4290032820
-0.2476212084 -0.1492155492 0.5428106785 4290032820
-0.2472772896 -0.1484060436 0.5420567989 4290032820
-0.2473358214 -0.1478387564 0.5421851277 4290032820
-0.2473941445 -0.1472710818 0.5423129797 4289967027
-0.2470492572 -0.1464640647 0.5415569544 4289967027
-0.2467039973 -0.1456584930 0.5408000946 4290032820
-0.2467615455 -0.1450914741 0.5409262776 4290032820
-0.2468189001 -0.1445240378 0.5410519838 4290098613
-0.2464726567 -0.1437209994 0.5402929783 4290098613
-0.2465295196 -0.1431537122 0.5404176116 4290032820
-0.2461826056 -0.1423526704 0.5396571755 4290098615
-0.2462389767 -0.1417855322 0.5397807360 4290032822
-0.2458913773 -0.1409865022 0.5390187502 4290098615
-0.2455434054 -0.1401889473 0.5382559896 4290098615
-0.2455990016 -0.1396225095 0.5383778214 4290164408
-0.2456543893 -0.1390556842 0.5384992361 4290164408
-0.2453054488 -0.1382606924 0.5377343297 4290164408
-0.2453603446 -0.1376940459 0.5378546715 4290164408
-0.2450107336 -0.1369010955 0.5370882750 4290164408
-0.2450651377 -0.1363346279 0.5372075438 4290098615
-0.2447148561 -0.1355437338 0.5364397168 4290164408
