VERSION 0.7
FIELDS x y z rgba
SIZE 4 4 4 4
TYPE F F F U
COUNT 1 1 1 1
WIDTH 920
HEIGHT 1
VIEWPOINT 0.0 0.0 0.0 1.0 0.0 0.0 0.0
POINTS 920
DATA ascii
-0.2696586251 -0.1249536276 0.5269685388 4280573105
-0.2697124183 -0.1243929341 0.5270736217 4280573105
-0.2697659731 -0.1238319054 0.5271782875 4280638898
-0.2702653110 -0.1234742999 0.5281541348 4280770484
-0.2707645893 -0.1231145039 0.5291298032 4280704691
-0.2703714967 -0.1223487258 0.5283616781 4280573105
-0.2708705366 -0.1219864041 0.5293368101 4280573103
-0.2713694870 -0.1216218993 0.5303118825 4280573103
-0.2714219689 -0.1210561022 0.5304144621 4280507310
-0.2719207406 -0.1206881404 0.5313891768 4280638896
-0.2719728947 -0.1201207563 0.5314910412 4280770482
-0.2724714577 -0.1197493523 0.5324653983 4280770482
-0.2729699910 -0.1193757579 0.5334396362 4280704689
-0.2734684646 -0.1189999804 0.5344136953 4280770482
-0.2735199332 -0.1184284985 0.5345143080 4280770482
-0.2740181983 -0.1180492640 0.5354880095 4280704689
-0.2740692794 -0.1174762025 0.5355878472 4280770225
-0.2750145197 -0.1172842383 0.5374350548 4280770225
-0.2750653327 -0.1167086661 0.5375343561 4280836018
-0.2751159072 -0.1161327735 0.5376331806 4280901811
-0.2756136656 -0.1157444641 0.5386059284 4280967604
-0.2756638527 -0.1151670069 0.5387039781 4280901811
-0.2761614025 -0.1147752479 0.5396763086 4280901811
-0.2762112319 -0.1141962260 0.5397736430 4280901811
-0.2767085433 -0.1138010323 0.5407454967 4280967863
-0.2767579556 -0.1132204384 0.5408421159 4280967863
-0.2772550583 -0.1128218025 0.5418134928 4280836277
-0.2777520716 -0.1124209762 0.5427847505 4280902070
-0.2782489955 -0.1120179668 0.5437558889 4280967863
-0.2782977223 -0.1114333123 0.5438510776 4281033656
-0.2787944078 -0.1110268608 0.5448217392 4281099449
-0.2788427174 -0.1104406640 0.5449161530 4280967863
-0.2793391645 -0.1100307703 0.5458862782 4281164983
-0.2793870866 -0.1094430164 0.5459799170 4281230776
-0.2794347405 -0.1088549644 0.5460730791 4281296568
-0.2794821858 -0.1082666144 0.5461657643 4281230775
-0.2799780369 -0.1078507975 0.5471348166 4281164982
-0.2800250649 -0.1072609052 0.5472266674 4281099189
-0.2805206776 -0.1068416610 0.5481952429 4281033909
-0.2805672884 -0.1062502265 0.5482863188 4281099702
-0.2810626328 -0.1058275551 0.5492543578 4281165240
-0.2811088562 -0.1052345857 0.5493445992 4281099447
-0.2811547816 -0.1046413332 0.5494344234 4281099962
-0.2816497087 -0.1042139903 0.5504015684 4281099962
-0.2825937867 -0.1039497331 0.5522465110 4281034167
-0.2830885649 -0.1035170704 0.5532134175 4281034167
-0.2831338346 -0.1029188633 0.5533018708 4280903351
-0.2836283445 -0.1024827808 0.5542681813 4280837558
-0.2836731672 -0.1018830538 0.5543558002 4280902581
-0.2841673791 -0.1014435515 0.5553216338 4280902581
-0.2842117846 -0.1008423045 0.5554084182 4280771765
-0.2847056985 -0.1003993824 0.5563736558 4280640179
-0.2847496867 -0.0997966230 0.5564595461 4280640179
-0.2852433324 -0.0993502960 0.5574242473 4280574386
-0.2852868438 -0.0987460241 0.5575093031 4280574386
-0.2857801914 -0.0982962772 0.5584734082 4280640179
-0.2858232856 -0.0976905078 0.5585576296 4280574386
-0.2863163352 -0.0972373486 0.5595210791 4280508593
-0.2863589823 -0.0966300741 0.5596044660 4280508595
-0.2864013910 -0.0960225314 0.5596873164 4280508595
-0.2864435315 -0.0954147205 0.5597696900 4280574388
-0.2869358957 -0.0949557051 0.5607318282 4280640181
-0.2874281108 -0.0944945142 0.5616937280 4280771767
-0.2874696255 -0.0938839912 0.5617748499 4280903353
-0.2879615128 -0.0934194028 0.5627361536 4281100730
-0.2880025804 -0.0928073898 0.5628163815 4281100730
-0.2884941697 -0.0923394039 0.5637770295 4281166523
-0.2885347605 -0.0917259157 0.5638564229 4281100730
-0.2890260220 -0.0912545323 0.5648164153 4280969144
-0.2895171344 -0.0907809809 0.5657761693 4280969144
-0.2895570993 -0.0901648030 0.5658542514 4280969403
-0.2900478542 -0.0896878541 0.5668132901 4281035196
-0.2900873721 -0.0890702084 0.5668904781 4280837817
-0.2901265919 -0.0884523168 0.5669671297 4280903610
-0.2906168401 -0.0879707709 0.5679251552 4280838587
-0.2906555831 -0.0873514190 0.5680009127 4280838587
-0.2915968597 -0.0870011672 0.5698403716 4280904380
-0.2920866907 -0.0865131095 0.5707975626 4280970173
-0.2921248376 -0.0858901292 0.5708721280 4280970175
-0.2921627164 -0.0852669030 0.5709461570 4280904382
-0.2926519513 -0.0847742632 0.5719022155 4280707001
-0.2926893532 -0.0841495991 0.5719753504 4280707001
-0.2931782305 -0.0836535841 0.5729306936 4280708025
-0.2932151854 -0.0830274746 0.5730028749 4280839611
-0.2937037051 -0.0825280994 0.5739575624 4280642496
-0.2941920459 -0.0820265561 0.5749118924 4283997939
-0.3173126578 -0.2212353051 0.6214431524 4289179326
-0.3126333058 -0.2172925025 0.6122788191 4286418869
-0.3053486347 -0.2115649283 0.5980121493 4286155697
-0.2997950017 -0.2070646733 0.5871355534 4284381101
-0.2946719527 -0.2028850466 0.5771023035 4284446894
-0.2969255149 -0.2037905455 0.5815158486 4284249518
-0.2935352027 -0.2008249164 0.5748760104 4284052139
-0.2927488089 -0.1996498853 0.5733358860 4284116910
-0.2928306758 -0.1990685165 0.5734962225 4284182703
-0.2916085720 -0.1976031959 0.5711027980 4284249515
-0.2912549675 -0.1967298090 0.5704103112 4284446894
-0.2909009457 -0.1958576888 0.5697169304 4284512690
-0.2905464768 -0.1949868053 0.5690227747 4284052139
-0.2893214524 -0.1935351193 0.5666235685 4283657381
-0.2889658809 -0.1926684827 0.5659272075 4283657381
-0.2886098623 -0.1918030977 0.5652299523 4283657127
-0.2882534266 -0.1909389943 0.5645319223 4283591334
-0.2878965437 -0.1900761425 0.5638329983 4283591334
-0.2875392437 -0.1892145574 0.5631332397 4283657127
-0.2871815264 -0.1883542538 0.5624326468 4283591334
-0.2863874435 -0.1872102618 0.5608775020 4283525541
-0.2869007885 -0.1869215369 0.5618827939 4283460261
-0.2856695950 -0.1854977906 0.5594716072 4283460261
-0.2853100300 -0.1846434623 0.5587673783 4283460261
-0.2849500179 -0.1837904304 0.5580623150 4283460261
-0.2837166190 -0.1823775321 0.5556467772 4283460261
-0.2846653461 -0.1823679656 0.5575047731 4283394468
-0.2834307253 -0.1809602827 0.5550868511 4283263913
-0.2830688953 -0.1801133007 0.5543782115 4283132327
-0.2827066183 -0.1792676449 0.5536687374 4283198120
-0.2823439538 -0.1784232855 0.5529584289 4283066534
-0.2815436423 -0.1773049086 0.5513911247 4282671778
-0.2811799943 -0.1764640510 0.5506789088 4282605985
-0.2808159292 -0.1756245047 0.5499658585 4282671778
-0.2804514170 -0.1747862846 0.5492519736 4282474399
-0.2805241346 -0.1742211878 0.5493943691 4282540449
-0.2801588774 -0.1733847260 0.5486791134 4282540449
-0.2793553472 -0.1722795665 0.5471054316 4282540450
-0.2789891660 -0.1714466512 0.5463882089 4282474657
-0.2781844437 -0.1703468114 0.5448122621 4282409634
-0.2786936760 -0.1700522155 0.5458095670 4282607013
-0.2778880298 -0.1689559370 0.5442317128 4283001001
-0.2770816982 -0.1678627729 0.5426525474 4283198380
-0.2767132819 -0.1670374572 0.5419310331 4282935978
-0.2763444483 -0.1662134826 0.5412086844 4283133357
-0.2759751678 -0.1653908640 0.5404855013 4283002283
-0.2751666307 -0.1643075496 0.5389019847 4282936490
-0.2747964263 -0.1634885222 0.5381769538 4283002028
-0.2744258046 -0.1626708806 0.5374510884 4283067821
-0.2740547359 -0.1618545949 0.5367243886 4283067310
-0.2736832798 -0.1610396802 0.5359969139 4283001517
-0.2733114064 -0.1602261364 0.5352686048 4283002032
-0.2729391158 -0.1594139636 0.5345394611 4282936239
-0.2725663781 -0.1586031765 0.5338095427 4282936239
-0.2721932530 -0.1577937752 0.5330787301 4283067825
-0.2713798881 -0.1567317247 0.5314857960 4282871212
-0.2710058093 -0.1559259742 0.5307531953 4282739626
-0.2701912820 -0.1548693925 0.5291579366 4282542757
-0.2702564299 -0.1543186754 0.5292855501 4282476964
-0.2698811293 -0.1535171121 0.5285505652 4282148779
-0.2690650225 -0.1524674147 0.5269522667 4282148779
-0.2682483196 -0.1514209062 0.5253527761 4282938808
-0.2678715885 -0.1506253630 0.5246149302 4283925703
-0.2679350972 -0.1500780582 0.5247393250 4284386252
-0.2671168447 -0.1490384787 0.5231367946 4284781010
-0.2667388618 -0.1482471675 0.5223965645 4284848084
-0.2663604617 -0.1474572718 0.5216554999 4284782291
-0.2659816742 -0.1466687918 0.5209136605 4284519378
-0.2660436630 -0.1461240798 0.5210350752 4284716757
-0.2652228475 -0.1450961232 0.5194275379 4284651736
-0.2652842402 -0.1445524544 0.5195477605 4284717529
-0.2649039328 -0.1437687874 0.5188028812 4284323031
-0.2645231783 -0.1429865658 0.5180572867 4283204550
-0.2645837665 -0.1424435824 0.5181759000 4282349757
-0.2642023265 -0.1416633278 0.5174288750 4282415550
-0.2642624080 -0.1411204934 0.5175465345 4283140815
-0.2638802528 -0.1403422207 0.5167980790 4283272401
-0.2634977102 -0.1395654082 0.5160489082 4284126942
-0.2635569572 -0.1390232891 0.5161649585 4284653286
-0.2636160254 -0.1384808272 0.5162805915 4284587240
-0.2636748552 -0.1379379779 0.5163958669 4284455654
-0.2632910013 -0.1371642500 0.5156440735 4284587758
-0.2633493543 -0.1366215944 0.5157583356 4284916723
-0.2634074688 -0.1360785961 0.5158721805 4284719858
-0.2634654045 -0.1355352253 0.5159856677 4284390893
-0.2635231316 -0.1349914968 0.5160986781 4283930342
-0.2635806501 -0.1344474107 0.5162113309 4283272412
-0.2640810311 -0.1341280192 0.5171913505 4282482895
-0.2641382515 -0.1335823089 0.5173033476 4281956551
-0.2641952336 -0.1330362409 0.5174149871 4281561793
-0.2646953762 -0.1327121109 0.5183944702 4281167035
-0.2647520602 -0.1321644336 0.5185054541 4280704691
-0.2652520537 -0.1318368614 0.5194847584 4280507312
-0.2653084099 -0.1312875450 0.5195950866 4280573105
-0.2653645277 -0.1307379007 0.5197049975 4280770484
-0.2654204369 -0.1301878840 0.5198144913 4280770484
-0.2654761374 -0.1296375394 0.5199235678 4280836277
-0.2659756541 -0.1293027103 0.5209018588 4280967861
-0.2660310268 -0.1287507415 0.5210102797 4281099447
-0.2665303946 -0.1284124553 0.5219882727 4281296826
-0.2665854394 -0.1278588921 0.5220960975 4281165240
-0.2670846581 -0.1275171489 0.5230737925 4280967863
-0.2671393454 -0.1269619614 0.5231809020 4280902070
-0.2676383853 -0.1266167760 0.5241582394 4280967863
-0.2676927447 -0.1260599941 0.5242646933 4280836277
-0.2681916356 -0.1257113367 0.5252417326 4280770482
-0.2686904967 -0.1253605038 0.5262187123 4280836275
-0.2691892982 -0.1250074804 0.5271956325 4280836277
-0.2692430615 -0.1244465709 0.5273008943 4280836277
-0.2692965567 -0.1238853186 0.5274057388 4280638896
-0.2697950602 -0.1235275790 0.5283820033 4280507310
-0.2702935338 -0.1231676489 0.5293582082 4280573103
-0.2699011862 -0.1224015653 0.5285898447 4280573103
-0.2703993618 -0.1220391095 0.5295655131 4280704432
-0.2708975077 -0.1216744632 0.5305411220 4280704432
-0.2709499598 -0.1211084425 0.5306438208 4280770225
-0.2714479268 -0.1207403466 0.5316190124 4280770225
-0.2714999914 -0.1201727316 0.5317210555 4280770482
-0.2719977498 -0.1198011860 0.5326958895 4280704689
-0.2724954486 -0.1194274575 0.5336706042 4280704689
-0.2729930878 -0.1190515310 0.5346451998 4280770482
-0.2730445266 -0.1184798181 0.5347459316 4280836018
-0.2735419571 -0.1181004420 0.5357201695 4280704432
-0.2744856775 -0.1179106012 0.5375683308 4280770482
-0.2745366693 -0.1173351184 0.5376682281 4280902068
-0.2745874226 -0.1167593151 0.5377675891 4280967861
-0.2746379375 -0.1161831915 0.5378665924 4280967861
-0.2751348913 -0.1157947332 0.5388398170 4281033654
-0.2751850486 -0.1152170449 0.5389380455 4280967861
-0.2756817639 -0.1148251370 0.5399108529 4280902068
-0.2757315338 -0.1142458767 0.5400083065 4280967861
-0.2762280405 -0.1138505265 0.5409806967 4281033654
-0.2762774229 -0.1132697016 0.5410774350 4280836275
-0.2767736912 -0.1128709093 0.5420493484 4280967861
-0.2772698998 -0.1124699265 0.5430210829 4280836275
-0.2777659893 -0.1120667532 0.5439927578 4280967861
-0.2778146565 -0.1114818677 0.5440880656 4281165240
-0.2783105373 -0.1110752523 0.5450592041 4280902581
-0.2788063288 -0.1106664464 0.5460301638 4281034167
-0.2788544595 -0.1100787595 0.5461243987 4281361330
-0.2789023221 -0.1094907746 0.5462181568 4281624502
-0.2789499462 -0.1089024767 0.5463114381 4281625015
-0.2794451714 -0.1084877402 0.5472812653 4281427636
-0.2794923782 -0.1078979075 0.5473737717 4281230257
-0.2799873352 -0.1074797362 0.5483431220 4281296050
-0.2800341547 -0.1068883538 0.5484347939 4281164980
-0.2800807357 -0.1062966809 0.5485260487 4281033394
-0.2805752456 -0.1058738381 0.5494945645 4281231288
-0.2806214094 -0.1052806303 0.5495849252 4281165495
-0.2811156809 -0.1048543528 0.5505529642 4281165753
-0.2816098332 -0.1044258997 0.5515207648 4281165753
-0.2821039259 -0.1039952487 0.5524883270 4280969144
-0.2825978696 -0.1035624146 0.5534557700 4280903351
-0.2830917239 -0.1031273976 0.5544229746 4280903351
-0.2831367850 -0.1025277078 0.5545111895 4280837558
-0.2836303413 -0.1020892560 0.5554777980 4281033654
-0.2836749852 -0.1014880463 0.5555651784 4280967861
-0.2841682732 -0.1010461822 0.5565313101 4280836788
-0.2842124403 -0.1004434526 0.5566177964 4280705202
-0.2847054601 -0.0999981686 0.5575833321 4280705202
-0.2847492099 -0.0993939266 0.5576690435 4280705202
-0.2847926915 -0.0987894014 0.5577542186 4280770995
-0.2848359644 -0.0981846079 0.5578389168 4280770995
-0.2853282690 -0.0977334455 0.5588031411 4280639409
-0.2853710949 -0.0971271470 0.5588870049 4280639409
-0.2858631313 -0.0966725796 0.5598505735 4280639411
-0.2859054804 -0.0960647762 0.5599336028 4280705204
-0.2859476209 -0.0954567119 0.5600160360 4280770997
-0.2864391506 -0.0949975103 0.5609787107 4280902583
-0.2869305313 -0.0945361257 0.5619410872 4280903353
-0.2874218225 -0.0940725654 0.5629032254 4281034939
-0.2874630988 -0.0934605598 0.5629841089 4281166523
-0.2879540622 -0.0929935947 0.5639455914 4281100730
-0.2879948914 -0.0923801139 0.5640255809 4281166523
-0.2880354822 -0.0917663649 0.5641050339 4281100730
-0.2885259092 -0.0912947878 0.5650655627 4280969657
-0.2890162170 -0.0908210352 0.5660257936 4280903864
-0.2890561223 -0.0902045965 0.5661039352 4281035450
-0.2895461023 -0.0897274464 0.5670635104 4281035450
-0.2895855606 -0.0891095400 0.5671408176 4280969403
-0.2896247506 -0.0884913877 0.5672175884 4280969403
-0.2901141644 -0.0880096406 0.5681760907 4280838587
-0.2901529074 -0.0873900205 0.5682519674 4280904380
-0.2910926044 -0.0870396271 0.5700922608 4280970173
-0.2915815711 -0.0865513608 0.5710499287 4281035966
-0.2916196883 -0.0859281197 0.5711246133 4280970173
-0.2916575372 -0.0853046253 0.5711987615 4280904380
-0.2921459675 -0.0848117769 0.5721552968 4280772792
-0.2921833694 -0.0841868445 0.5722284913 4280706999
-0.2926714122 -0.0836906210 0.5731843710 4280773818
-0.2927083373 -0.0830642432 0.5732566118 4280905404
-0.2931960225 -0.0825646520 0.5742117763 4280642496
-0.2936835885 -0.0820628926 0.5751666427 4284326904
-0.3154536486 -0.2204186171 0.6191491485 4289047739
-0.3107822537 -0.2164768279 0.6099804640 4286353074
-0.3043760955 -0.2113508135 0.5974069238 4285958316
-0.2992652953 -0.2071494162 0.5873758793 4284512173
-0.2958842516 -0.2041638196 0.5807397366 4284512173
-0.2942343652 -0.2023837268 0.5775014758 4284315311
-0.2930167615 -0.2009072453 0.5751116872 4284183725
-0.2913646698 -0.1991391033 0.5718690753 4284248496
-0.2910937369 -0.1976843327 0.5713373423 4284446378
-0.2907408476 -0.1968106478 0.5706446767 4284643757
-0.2903875113 -0.1959381998 0.5699511766 4284381104
-0.2900337279 -0.1950670034 0.5692567825 4283986346
-0.2896795273 -0.1941970736 0.5685615540 4283723174
-0.2884560525 -0.1927478164 0.5661602020 4283723174
-0.2876661718 -0.1915927082 0.5646099448 4283723174
-0.2881796360 -0.1913062483 0.5656177402 4283657381
-0.2878235877 -0.1904422045 0.5649188757 4283657127
-0.2870321870 -0.1892926395 0.5633656383 4283657127
-0.2866751552 -0.1884320229 0.5626648664 4283591334
-0.2858825624 -0.1872876137 0.5611091852 4283525541
-0.2863950431 -0.1869987994 0.5621150732 4283591334
-0.2851660848 -0.1855745018 0.5597029328 4283591334
-0.2848072052 -0.1847198755 0.5589985847 4283525541
-0.2844479084 -0.1838665307 0.5582933426 4283525541
-0.2840881944 -0.1830144823 0.5575873256 4283525541
-0.2837280333 -0.1821637154 0.5568804145 4283525541
-0.2833674252 -0.1813142598 0.5561726689 4283329447
-0.2830063999 -0.1804661006 0.5554640889 4283197861
-0.2822088003 -0.1793420613 0.5538985729 4283263913
-0.2822830975 -0.1787737012 0.5540444255 4283132327
-0.2819207907 -0.1779294610 0.5533333421 4282737569
-0.2806850374 -0.1765374243 0.5509078503 4282737569
-0.2803216577 -0.1756975651 0.5501946211 4282803360
-0.2799578607 -0.1748590320 0.5494806170 4282605981
-0.2800304890 -0.1742937267 0.5496231914 4282605983
-0.2796659470 -0.1734569669 0.5489076972 4282605983
-0.2793009877 -0.1726215333 0.5481913686 4282540703
-0.2789356112 -0.1717874259 0.5474742055 4282540703
-0.2776951790 -0.1704178900 0.5450395942 4282540449
-0.2782035768 -0.1701232046 0.5460374355 4282737828
-0.2773993909 -0.1690265089 0.5444590449 4283066534
-0.2770321965 -0.1681986451 0.5437383652 4283198120
-0.2766645849 -0.1673721224 0.5430168509 4283132840
-0.2758587003 -0.1662830114 0.5414350629 4283264426
-0.2754901350 -0.1654600799 0.5407117009 4283133356
-0.2746830583 -0.1643763483 0.5391276479 4283067563
-0.2747517824 -0.1638182998 0.5392624736 4283133357
-0.2739436328 -0.1627390683 0.5376763940 4283199150
-0.2735733092 -0.1619224697 0.5369495153 4283067825
-0.2732025385 -0.1611072421 0.5362218022 4283002032
-0.2728313804 -0.1602934003 0.5354933143 4282870446
-0.2728985250 -0.1597377360 0.5356251001 4282936239
-0.2720877826 -0.1586698294 0.5340338349 4282871214
-0.2717153728 -0.1578601003 0.5333028436 4283002800
-0.2713425457 -0.1570517719 0.5325710773 4283068591
-0.2709692717 -0.1562448293 0.5318385363 4283068591
-0.2705956101 -0.1554392725 0.5311051011 4283068074
-0.2697821558 -0.1543836743 0.5295085311 4283002281
-0.2694075704 -0.1535818130 0.5287733078 4282411435
-0.2685929537 -0.1525316983 0.5271744728 4282279849
-0.2682174444 -0.1517335325 0.5264374018 4282543019
-0.2678415179 -0.1509367675 0.5256995559 4283069363
-0.2674651742 -0.1501414180 0.5249608755 4283530684
-0.2670884132 -0.1493474841 0.5242214203 4284451786
-0.2667112648 -0.1485549659 0.5234811902 4285111256
-0.2663336992 -0.1477638632 0.5227401257 4285374428
-0.2655153871 -0.1467308402 0.5211340189 4285178078
-0.2655773163 -0.1461859196 0.5212555528 4285967594
-0.2651985288 -0.1453990936 0.5205121040 4286034417
-0.2648193240 -0.1446136832 0.5197678208 4285771245
-0.2644397318 -0.1438297182 0.5190227628 4285310955
-0.2640597224 -0.1430471838 0.5182769299 4284784611
-0.2641202509 -0.1425040066 0.5183957219 4284719079
-0.2637395263 -0.1417234391 0.5176484585 4285048044
-0.2633584142 -0.1409443319 0.5169004202 4285245421
-0.2629768848 -0.1401666701 0.5161516070 4285048042
-0.2630362809 -0.1396247149 0.5162681937 4285047531
-0.2626540661 -0.1388490498 0.5155180097 4284784359
-0.2627129555 -0.1383072734 0.5156335831 4284191969
-0.2627716660 -0.1377651393 0.5157487988 4283599832
-0.2623884082 -0.1369920224 0.5149965882 4283139543
-0.2624466121 -0.1364500821 0.5151107907 4282678992
-0.2625045776 -0.1359077692 0.5152246356 4281757892
-0.2625623643 -0.1353651136 0.5153380632 4281297341
-0.2626199424 -0.1348220855 0.5154510140 4281033654
-0.2631195188 -0.1345047653 0.5164315701 4280770482
-0.2631767690 -0.1339601278 0.5165439844 4280507310
-0.2636762559 -0.1336393505 0.5175242424 4280507310
-0.2637331784 -0.1330930740 0.5176360011 4280508593
-0.2637898922 -0.1325464547 0.5177473426 4280640179
-0.2642891109 -0.1322209388 0.5187271833 4281164983
-0.2643455267 -0.1316726953 0.5188378692 4280967604
-0.2648445964 -0.1313437372 0.5198174119 4281033397
-0.2649006844 -0.1307938695 0.5199275017 4281099190
-0.2649565339 -0.1302436590 0.5200371146 4280967861
-0.2650122046 -0.1296930909 0.5201463699 4280902068
-0.2655108869 -0.1293581426 0.5211251974 4281033654
-0.2655662000 -0.1288059652 0.5212337375 4281231033
-0.2660647631 -0.1284675449 0.5222122669 4281165495
-0.2661197186 -0.1279137582 0.5223201513 4281033909
-0.2666181326 -0.1275718957 0.5232983828 4280967861
-0.2671164870 -0.1272278428 0.5242764950 4280967861
-0.2671709955 -0.1266711801 0.5243834853 4280967861
-0.2676692009 -0.1263236701 0.5253613591 4280902068
-0.2677233517 -0.1257654130 0.5254676342 4280836530
-0.2682214081 -0.1254144460 0.5264451504 4280836530
-0.2687193751 -0.1250612885 0.5274225473 4281033656
-0.2687730789 -0.1245001554 0.5275279284 4280967863
-0.2692708969 -0.1241435483 0.5285050273 4280704691
-0.2693242431 -0.1235808134 0.5286097527 4280638898
-0.2698218822 -0.1232207492 0.5295864344 4280638898
-0.2698748410 -0.1226564199 0.5296904445 4280573105
-0.2703723013 -0.1222929060 0.5306668282 4280704178
-0.2704249322 -0.1217269823 0.5307701230 4280769971
-0.2709222138 -0.1213600114 0.5317460895 4280967604
-0.2709744573 -0.1207925007 0.5318486691 4280901811
-0.2714715302 -0.1204220727 0.5328242779 4280836275
-0.2715234458 -0.1198529750 0.5329261422 4280770482
-0.2720203102 -0.1194791049 0.5339013934 4280836018
-0.2729624212 -0.1192976460 0.5357505083 4280967604
-0.2730138898 -0.1187247708 0.5358515382 4280967604
-0.2735106051 -0.1183443144 0.5368263721 4280901811
-0.2735616863 -0.1177698597 0.5369266868 4281099189
-0.2740581632 -0.1173859537 0.5379011631 4281164982
-0.2745546103 -0.1169998571 0.5388755202 4281296568
-0.2746051550 -0.1164225712 0.5389747620 4281296568
-0.2746555209 -0.1158449575 0.5390735269 4281230775
-0.2751515508 -0.1154541597 0.5400471687 4281164982
-0.2752015293 -0.1148749813 0.5401452184 4281230775
-0.2756973505 -0.1144807264 0.5411183834 4281296568
-0.2757469118 -0.1138999835 0.5412157178 4281296568
-0.2762425244 -0.1135022864 0.5421884060 4281033396
-0.2762916982 -0.1129199713 0.5422849655 4281559738
-0.2767870724 -0.1125188321 0.5432572365 4281362359
-0.2772823572 -0.1121155024 0.5442293882 4281361845
-0.2777775824 -0.1117099747 0.5452013612 4281427638
-0.2778260410 -0.1111236066 0.5452964902 4281361845
-0.2778742909 -0.1105369255 0.5453911424 4282414533
-0.2783690989 -0.1101267114 0.5463622808 4282544828
-0.2788638175 -0.1097143069 0.5473333001 4282018484
-0.2789114714 -0.1091248244 0.5474268794 4281689521
-0.2789588869 -0.1085350513 0.5475199223 4281689521
-0.2790060937 -0.1079449654 0.5476125479 4281623986
-0.2795002162 -0.1075266302 0.5485823750 4281689779
-0.2795470059 -0.1069350094 0.5486742258 4281493429
-0.2800408602 -0.1065132394 0.5496435761 4281427636
-0.2800872326 -0.1059200838 0.5497345328 4281296566
-0.2805808485 -0.1054948792 0.5507034063 4281296566
-0.2806268036 -0.1049001813 0.5507935882 4281231288
-0.2815677822 -0.1046379060 0.5526404977 4281231288
-0.2816133797 -0.1040407345 0.5527299643 4281099960
-0.2821065485 -0.1036077291 0.5536978841 4281099960
-0.2825995684 -0.1031725258 0.5546655655 4280903353
-0.2826445699 -0.1025725901 0.5547538996 4280837560
-0.2831373513 -0.1021339670 0.5557210445 4281033654
-0.2836299837 -0.1016931534 0.5566880107 4281033654
-0.2836743891 -0.1010904536 0.5567751527 4280902068
-0.2837185264 -0.1004874781 0.5568618178 4280770482
-0.2842107117 -0.1000420079 0.5578278303 4280770482
-0.2847027779 -0.0995943546 0.5587936044 4280770482
-0.2847463191 -0.0989886299 0.5588790178 4280770482
-0.2847895920 -0.0983826295 0.5589640141 4280836275
-0.2848326266 -0.0977763534 0.5590484142 4280639409
-0.2848753929 -0.0971697941 0.5591323972 4280639409
-0.2853665948 -0.0967150405 0.5600965023 4280705204
-0.2854089439 -0.0961069912 0.5601795912 4280770997
-0.2858998477 -0.0956488177 0.5611431003 4280902583
-0.2863906324 -0.0951884687 0.5621063709 4281034169
-0.2864323258 -0.0945776999 0.5621882081 4281099962
-0.2869227827 -0.0941139460 0.5631508231 4281165755
-0.2869640291 -0.0935016870 0.5632318258 4281034939
-0.2874541581 -0.0930345282 0.5641938448 4281100732
-0.2874949574 -0.0924207866 0.5642738938 4281100732
-0.2879847884 -0.0919502303 0.5652352571 4281100732
-0.2880251408 -0.0913350061 0.5653144717 4280903610
-0.2885146141 -0.0908610523 0.5662751794 4280903610
-0.2885544896 -0.0902443528 0.5663534999 4280903610
-0.2890436649 -0.0897670090 0.5673135519 4280969403
-0.2890830636 -0.0891488418 0.5673909187 4281035196
-0.2895718813 -0.0886681005 0.5683503151 4281035196
-0.2896108627 -0.0880484730 0.5684267879 4280904380
-0.2905490696 -0.0877001062 0.5702682734 4280970173
-0.2905876338 -0.0870780498 0.5703439713 4281035966
-0.2910758257 -0.0865895823 0.5713021159 4280970173
-0.2915638387 -0.0860989392 0.5722599626 4280904380
-0.2916017175 -0.0854742229 0.5723343492 4280904380
-0.2916393280 -0.0848492607 0.5724081397 4280969657
-0.2916766703 -0.0842240602 0.5724814534 4280838071
-0.2921639383 -0.0837276280 0.5734378099 4280904890
-0.2922008038 -0.0831009820 0.5735101700 4281036476
-0.2926876843 -0.0826011822 0.5744658113 4280773566
-0.2931744158 -0.0820992067 0.5754211545 4284655353
-0.3140304983 -0.2199035883 0.6177024245 4288916154
-0.3093672097 -0.2159619480 0.6085296869 4286484144
-0.3034044206 -0.2111363858 0.5968008041 4285957800
-0.2983026505 -0.2069341689 0.5867655277 4284577966
-0.2953599691 -0.2042472959 0.5809772015 4284446380
-0.2937130630 -0.2024665326 0.5777377486 4284315310
-0.2924976945 -0.2009894848 0.5753471255 4284183724
-0.2912814319 -0.1995171309 0.5729546547 4284248496
-0.2909300625 -0.1986406446 0.5722635388 4284380082
-0.2901452482 -0.1974706650 0.5707197785 4284577962
-0.2906592488 -0.1971852630 0.5717308521 4284709548
-0.2898734212 -0.1960186362 0.5701851249 4284315311
-0.2895203531 -0.1951471269 0.5694906116 4283920553
-0.2891668379 -0.1942768842 0.5687952638 4283723174
-0.2883792222 -0.1931174845 0.5672460198 4283788967
-0.2884584963 -0.1925401390 0.5674019456 4283788967
-0.2876698077 -0.1913850009 0.5658505559 4283657381
-0.2868804336 -0.1902328581 0.5642978549 4283657381
-0.2865245044 -0.1893706471 0.5635977983 4283591588
-0.2861681879 -0.1885097176 0.5628968477 4283591588
-0.2858113945 -0.1876500547 0.5621950626 4283525795
-0.2854542136 -0.1867916733 0.5614924431 4283591588
-0.2846619785 -0.1856511384 0.5599341393 4283591588
-0.2843037844 -0.1847961992 0.5592295527 4283525795
-0.2839451730 -0.1839425415 0.5585241914 4283525795
-0.2835861444 -0.1830901802 0.5578179359 4283591588
-0.2832266986 -0.1822391152 0.5571109056 4283525795
-0.2828668058 -0.1813893467 0.5564029813 4283329445
-0.2825064659 -0.1805408746 0.5556942225 4283263652
-0.2821457386 -0.1796936989 0.5549846292 4283263911
-0.2813490331 -0.1785714179 0.5534175634 4283132325
-0.2818585932 -0.1782788336 0.5544198751 4282803360
-0.2806251943 -0.1768853813 0.5519937277 4282803360
-0.2798267603 -0.1757705510 0.5504232049 4283000480
-0.2794636488 -0.1749317050 0.5497089624 4282737308
-0.2795362473 -0.1743662208 0.5498517156 4282671515
-0.2791723907 -0.1735291332 0.5491360426 4282671515
-0.2788081467 -0.1726933867 0.5484195352 4282605981
-0.2784434557 -0.1718589664 0.5477022529 4282605981
-0.2780783474 -0.1710258871 0.5469840765 4282605981
-0.2777128220 -0.1701941341 0.5462650657 4282803360
-0.2773468792 -0.1693637371 0.5455452800 4283197861
-0.2765436471 -0.1682688445 0.5439652801 4283263654
-0.2761767507 -0.1674420089 0.5432435870 4283132836
-0.2758094370 -0.1666165292 0.5425210595 4283264422
-0.2754417062 -0.1657924056 0.5417976975 4283199147
-0.2746362090 -0.1647073627 0.5402133465 4283199147
-0.2738301158 -0.1636254489 0.5386276841 4283198896
-0.2738984227 -0.1630676836 0.5387620926 4283198896
-0.2735289037 -0.1622498930 0.5380352139 4283067825
-0.2731589675 -0.1614334583 0.5373075604 4282936239
-0.2719129026 -0.1601027846 0.5348564982 4282871214
-0.2724178433 -0.1598047316 0.5358497500 4282871214
-0.2720466554 -0.1589924395 0.5351196527 4282740139
-0.2716750503 -0.1581815183 0.5343886614 4282740139
-0.2713030577 -0.1573719829 0.5336569548 4282871211
-0.2704922259 -0.1563104987 0.5320619941 4282937004
-0.2701192796 -0.1555046290 0.5313284397 4283002283
-0.2697459161 -0.1547001600 0.5305939913 4282936490
-0.2689334154 -0.1536464393 0.5289958119 4282542247
-0.2681202888 -0.1525959224 0.5273964405 4282673833
-0.2677454948 -0.1517974585 0.5266591907 4282608040
-0.2673702836 -0.1510003805 0.5259211063 4282739626
-0.2674337924 -0.1504517794 0.5260460377 4283003568
-0.2670578659 -0.1496566385 0.5253065825 4284056256
-0.2662421763 -0.1486176699 0.5237020850 4285834720
-0.2658653259 -0.1478262544 0.5229608417 4287545338
-0.2654880583 -0.1470362693 0.5222187638 4287546623
-0.2651103735 -0.1462476999 0.5214758515 4287283452
-0.2647323012 -0.1454605758 0.5207322240 4286560761
-0.2643538415 -0.1446748674 0.5199877024 4286100210
-0.2639749348 -0.1438905895 0.5192424655 4285311468
-0.2635956407 -0.1431077570 0.5184963942 4284127194
-0.2636561096 -0.1425643712 0.5186153054 4283140817
-0.2628358603 -0.1415464133 0.5170018673 4282811852
-0.2624553740 -0.1407679021 0.5162534118 4282613190
-0.2625149190 -0.1402261257 0.5163705349 4282152639
-0.2621337175 -0.1394496113 0.5156207085 4281888954
-0.2617520988 -0.1386745423 0.5148701072 4281757368
-0.2622516155 -0.1383660287 0.5158526301 4281164980
-0.2618694007 -0.1375920624 0.5151008368 4280638636
-0.2619277537 -0.1370502710 0.5152155757 4280704691
-0.2619858682 -0.1365081221 0.5153298974 4280638898
-0.2620438039 -0.1359656155 0.5154438615 4280770486
-0.2621015310 -0.1354227364 0.5155574083 4280573107
-0.2621590495 -0.1348795146 0.5156705976 4280834996
-0.2622163594 -0.1343359351 0.5157833099 4281098168
-0.2627150118 -0.1340172291 0.5167641640 4281032375
-0.2632136643 -0.1336963475 0.5177449584 4280769203
-0.2632705271 -0.1331498623 0.5178568959 4280770486
-0.2633272111 -0.1326030195 0.5179683566 4281099451
-0.2633836865 -0.1320558339 0.5180794001 4281296568
-0.2638819516 -0.1317289472 0.5190595388 4281164982
-0.2639380991 -0.1311801374 0.5191699862 4280901811
-0.2644362152 -0.1308497936 0.5201498270 4280638639
-0.2644920349 -0.1302993596 0.5202595592 4280770482
-0.2645476460 -0.1297485828 0.5203689337 4281165240
-0.2650455236 -0.1294135153 0.5213482976 4281362874
-0.2651007771 -0.1288611293 0.5214569569 4281297081
-0.2655985057 -0.1285225898 0.5224360228 4281231286
-0.2656534314 -0.1279685944 0.5225440860 4280968114
-0.2661510110 -0.1276266128 0.5235227942 4280968629
-0.2662055790 -0.1270709932 0.5236301422 4281034422
-0.2667030096 -0.1267255545 0.5246085525 4280902836
-0.2672003508 -0.1263779104 0.5255869031 4280902836
-0.2676976919 -0.1260280907 0.5265651345 4280968627
-0.2677516937 -0.1254683286 0.5266713500 4280837041
-0.2682488561 -0.1251150519 0.5276492834 4281033656
-0.2687459886 -0.1247595698 0.5286271572 4280967863
-0.2687994838 -0.1241969541 0.5287324190 4280705204
-0.2692964375 -0.1238380224 0.5297098756 4280770997
-0.2693496048 -0.1232738048 0.5298144817 4280705204
-0.2698463500 -0.1229114085 0.5307915807 4280442032
-0.2698991597 -0.1223455966 0.5308954716 4280507312
-0.2703957260 -0.1219797507 0.5318722725 4280704691
-0.2704481781 -0.1214123443 0.5319753885 4280967350
-0.2709445655 -0.1210430413 0.5329517722 4280901557
-0.2709966600 -0.1204740480 0.5330542326 4280902070
-0.2714928389 -0.1201012880 0.5340302587 4280902070
-0.2715445459 -0.1195307001 0.5341320038 4280901557
-0.2724850476 -0.1193491891 0.5359819531 4280967350
-0.2729810774 -0.1189698502 0.5369576216 4281099190
-0.2730323672 -0.1183954850 0.5370585322 4281033397
-0.2730834186 -0.1178207994 0.5371589065 4281230005
-0.2735790610 -0.1174367517 0.5381339192 4281361591
-0.2736297548 -0.1168604866 0.5382335782 4281558970
-0.2741251886 -0.1164729819 0.5392081141 4281624763
-0.2746205926 -0.1160832793 0.5401825905 4281558711
-0.2746707201 -0.1155041903 0.5402811766 4281427125
-0.2751658857 -0.1151110381 0.5412551761 4281558711
-0.2752156556 -0.1145303696 0.5413530469 4281624504
-0.2757105827 -0.1141337752 0.5423266292 4281756088
-0.2757599652 -0.1135515422 0.5424237251 4281624502
-0.2762546539 -0.1131514981 0.5433968306 4282610883
-0.2767492831 -0.1127492562 0.5443697572 4282281918
-0.2772438228 -0.1123448238 0.5453425646 4281887160
-0.2772924900 -0.1117585227 0.5454382896 4281821367
-0.2773409188 -0.1111719161 0.5455335379 4282084537
-0.2773891091 -0.1105849966 0.5456283092 4284058327
-0.2778830826 -0.1101746187 0.5465999842 4285043418
-0.2779308856 -0.1095861495 0.5466939807 4283069628
-0.2784246206 -0.1091723368 0.5476651788 4281754283
-0.2784720063 -0.1085823104 0.5477583408 4281951662
-0.2785191536 -0.1079919934 0.5478510857 4281952180
-0.2790124714 -0.1075734869 0.5488214493 4281689008
-0.2790592015 -0.1069816276 0.5489133596 4281558193
-0.2795522511 -0.1065596864 0.5498832464 4281689779
-0.2795985639 -0.1059662849 0.5499743223 4281427123
-0.2805380821 -0.1057092398 0.5518223643 4281492916
-0.2810308635 -0.1052807271 0.5527916551 4281296566
-0.2810766697 -0.1046836004 0.5528817773 4281296566
-0.2815691531 -0.1042516530 0.5538505316 4281231033
-0.2816145420 -0.1036529914 0.5539398193 4281165240
-0.2821067572 -0.1032176241 0.5549079776 4280968122
-0.2821517289 -0.1026174352 0.5549964309 4280968122
-0.2826436758 -0.1021786332 0.5559641123 4281033654
-0.2831355035 -0.1017376408 0.5569315553 4281033654
-0.2831798494 -0.1011346951 0.5570188165 4280902068
-0.2832239866 -0.1005314663 0.5571055412 4280770482
-0.2837153375 -0.1000858173 0.5580720901 4280770482
-0.2842065692 -0.0996379852 0.5590383410 4280770482
-0.2842500806 -0.0990320072 0.5591239333 4280639409
-0.2842933238 -0.0984257460 0.5592089891 4280639409
-0.2843362987 -0.0978192165 0.5592935681 4280639409
-0.2848268747 -0.0973654985 0.5602585077 4280705202
-0.2848694324 -0.0967574641 0.5603421926 4280640181
-0.2849117219 -0.0961491615 0.5604254007 4280705974
-0.2854018211 -0.0956908017 0.5613893867 4280837560
-0.2858917713 -0.0952302665 0.5623531938 4280903353
-0.2859334350 -0.0946192369 0.5624351501 4280969146
-0.2864230871 -0.0941552892 0.5633982420 4280903353
-0.2864643037 -0.0935427770 0.5634793043 4281034939
-0.2869536281 -0.0930754244 0.5644418597 4281166525
-0.2869943976 -0.0924614221 0.5645220280 4281232318
-0.2874833941 -0.0919906721 0.5654838681 4281166525
-0.2875236869 -0.0913751870 0.5655631423 4281035196
-0.2880123556 -0.0909010395 0.5665243864 4280903610
-0.2880522013 -0.0902840793 0.5666027665 4280903610
-0.2885405421 -0.0898065343 0.5675633550 4281035196
-0.2885799408 -0.0891881064 0.5676408410 4280904380
-0.2890679240 -0.0887071639 0.5686007142 4280904380
-0.2891068757 -0.0880872756 0.5686773062 4281035966
-0.2900435030 -0.0877387673 0.5705196857 4281035966
-0.2900820076 -0.0871164426 0.5705954432 4280970173
-0.2905693650 -0.0866277739 0.5715540648 4280904380
-0.2910566032 -0.0861369222 0.5725124478 4280904380
-0.2910944521 -0.0855119377 0.5725868940 4280970173
-0.2911320329 -0.0848867074 0.5726608038 4281101242
-0.2911693454 -0.0842612386 0.5727341771 4280838070
-0.2916557789 -0.0837645978 0.5736910105 4280839097
-0.2916926146 -0.0831376910 0.5737634897 4280970683
-0.2921786904 -0.0826376751 0.5747196078 4280707773
-0.2926646173 -0.0821354911 0.5756754279 4284852732
-0.3147656620 -0.2209009975 0.6205040812 4288850621
-0.3122676611 -0.2184639573 0.6155797243 4286417840
-0.3076108098 -0.2145322561 0.6063995957 4286023082
-0.3020879626 -0.2100188881 0.5955123305 4284840625
-0.2978567779 -0.2064248770 0.5871712565 4284380074
-0.2949183285 -0.2037424892 0.5813786983 4284380334
-0.2932737768 -0.2019639909 0.5781366825 4284380334
-0.2920600772 -0.2004884779 0.5757440925 4284183722
-0.2912776172 -0.1993133724 0.5742016435 4283986343
-0.2909267545 -0.1984360814 0.5735099912 4284776366
-0.2901430726 -0.1972660571 0.5719650984 4284644780
-0.2897912562 -0.1963921189 0.5712715387 4284118189
-0.2894389629 -0.1955194324 0.5705770850 4283723431
-0.2895190418 -0.1949393898 0.5707349181 4283657638
-0.2891660333 -0.1940683424 0.5700390339 4283657638
-0.2879465818 -0.1926192492 0.5676351190 4283657638
-0.2871593237 -0.1914636791 0.5660831928 4283723431
-0.2868046761 -0.1905990243 0.5653840303 4283657638
-0.2864495814 -0.1897356361 0.5646840334 4283591845
-0.2856605649 -0.1885873377 0.5631286502 4283526052
-0.2853044868 -0.1877273619 0.5624266863 4283526052
-0.2849479914 -0.1868686825 0.5617238879 4283460259
-0.2845910490 -0.1860112697 0.5610202551 4283460259
-0.2842336893 -0.1851551384 0.5603157878 4283591845
-0.2834418416 -0.1840184927 0.5587548018 4283591845
-0.2826493084 -0.1828848869 0.5571925044 4283460259
-0.2831590176 -0.1825944930 0.5581973195 4283394466
-0.2823655307 -0.1814643592 0.5566330552 4283329447
-0.2820059061 -0.1806155741 0.5559241772 4283000482
-0.2816458642 -0.1797681004 0.5552144051 4283395240
-0.2808506489 -0.1786453873 0.5536467433 4283132068
-0.2813593745 -0.1783527285 0.5546496511 4282803103
-0.2805632055 -0.1772335023 0.5530800819 4283000482
-0.2797663510 -0.1761173755 0.5515092611 4282803103
-0.2789688706 -0.1750043184 0.5499371290 4282803103
-0.2790413499 -0.1744386256 0.5500800610 4282605724
-0.2786782384 -0.1736012399 0.5493642092 4282605724
-0.2783146799 -0.1727651805 0.5486475229 4282802849
-0.2779507041 -0.1719304472 0.5479300618 4282671263
-0.2775863111 -0.1710970551 0.5472117066 4282737056
-0.2772215009 -0.1702650040 0.5464925170 4282605470
-0.2764202654 -0.1691674590 0.5449130535 4283000482
-0.2760545015 -0.1683389693 0.5441919565 4283263654
-0.2752520740 -0.1672467738 0.5426101685 4283329704
-0.2757579982 -0.1669502109 0.5436075330 4283395497
-0.2749546468 -0.1658616066 0.5420238376 4283329704
-0.2741506696 -0.1647761464 0.5404389501 4283329704
-0.2733460367 -0.1636938304 0.5388527513 4283330219
-0.2738510668 -0.1633964479 0.5398483276 4283330219
-0.2730454803 -0.1623177528 0.5382602811 4283264426
-0.2726762593 -0.1615010202 0.5375323892 4283264426
-0.2723066211 -0.1606856585 0.5368037224 4283199147
-0.2719365656 -0.1598716676 0.5360742211 4283199147
-0.2715660930 -0.1590590626 0.5353438854 4283133354
-0.2711952031 -0.1582478434 0.5346127748 4283067561
-0.2708238959 -0.1574379951 0.5338807702 4283133356
-0.2704521716 -0.1566295475 0.5331479907 4283264942
-0.2700800300 -0.1558224708 0.5324144363 4283264942
-0.2697075009 -0.1550168097 0.5316800475 4283330735
-0.2693345547 -0.1542125195 0.5309448242 4282871725
-0.2685231268 -0.1531597972 0.5293452740 4283069104
-0.2677111030 -0.1521102637 0.5277444720 4283068593
-0.2668984532 -0.1510639489 0.5261424780 4283002800
-0.2669619024 -0.1505151391 0.5262675285 4282936239
-0.2665866911 -0.1497196853 0.5255278945 4284449478
-0.2662110627 -0.1489256471 0.5247874260 4287148016
-0.2658350170 -0.1481330395 0.5240461230 4286819051
-0.2654585838 -0.1473418474 0.5233040452 4286492911
-0.2650817335 -0.1465520710 0.5225611329 4285834981
-0.2642655075 -0.1455219984 0.5209521055 4283928787
-0.2638877332 -0.1447359920 0.5202074051 4282810306
-0.2639487684 -0.1441913396 0.5203276873 4281955773
-0.2631309927 -0.1431682855 0.5187156200 4281232050
-0.2627520263 -0.1423865855 0.5179685354 4281100981
-0.2623726428 -0.1416063309 0.5172206759 4280969395
-0.2619928718 -0.1408275217 0.5164720416 4280900781
-0.2616126835 -0.1400501579 0.5157225728 4280966574
-0.2612321079 -0.1392742395 0.5149723291 4281032629
-0.2612909973 -0.1387333423 0.5150884390 4281164215
-0.2609097064 -0.1379594356 0.5143367648 4280966582
-0.2609681189 -0.1374187171 0.5144518614 4281229754
-0.2610262930 -0.1368776411 0.5145666003 4280967861
-0.2610842884 -0.1363361925 0.5146809220 4281165240
-0.2611420751 -0.1357944012 0.5147948265 4281035190
-0.2616401315 -0.1354803145 0.5157766342 4280706225
-0.2616975904 -0.1349368840 0.5158899426 4281036219
-0.2617548406 -0.1343930960 0.5160028338 4280312496
-0.2622526586 -0.1340742856 0.5169841647 4280771764
-0.2623096108 -0.1335288733 0.5170964003 4281166522
-0.2628073096 -0.1332065910 0.5180775523 4281559224
-0.2628639340 -0.1326595545 0.5181891322 4281690810
-0.2629203498 -0.1321121603 0.5183003545 4280379060
-0.2634177804 -0.1317851543 0.5192809701 4280839611
-0.2634738684 -0.1312361360 0.5193915367 4281758392
-0.2639711797 -0.1309056729 0.5203719139 4281889978
-0.2640269399 -0.1303550303 0.5204818249 4282676923
-0.2645241022 -0.1300211102 0.5214619040 4284321748
-0.2645795345 -0.1294688433 0.5215711594 4284782039
-0.2650765479 -0.1291314662 0.5225509405 4283203007
-0.2651316524 -0.1285775900 0.5226595402 4281427385
-0.2656285167 -0.1282367408 0.5236390233 4281032627
-0.2656832635 -0.1276812702 0.5237469673 4280967865
-0.2661799788 -0.1273369640 0.5247261524 4280704693
-0.2662343979 -0.1267798692 0.5248334408 4280967611
-0.2667309344 -0.1264321059 0.5258122683 4281099197
-0.2672274411 -0.1260821521 0.5267910361 4280902319
-0.2677238882 -0.1257299930 0.5277697444 4281033905
-0.2677777112 -0.1251687557 0.5278758407 4281163702
-0.2687167227 -0.1250191182 0.5297268629 4280966323
-0.2683274746 -0.1242503151 0.5289595723 4280705467
-0.2688235939 -0.1238912493 0.5299375653 4280771260
-0.2693196833 -0.1235299855 0.5309154987 4280770224
-0.2693726420 -0.1229642779 0.5310199261 4280770224
-0.2698685229 -0.1225995570 0.5319975019 4281163435
-0.2699211538 -0.1220322624 0.5321012139 4281031849
-0.2704168558 -0.1216640770 0.5330783725 4280573105
-0.2704690993 -0.1210951880 0.5331814289 4280902070
-0.2705211341 -0.1205259711 0.5332840085 4280902070
-0.2710165083 -0.1201530695 0.5342605114 4281165242
-0.2719554603 -0.1199736893 0.5361114740 4281032878
-0.2720070779 -0.1194006875 0.5362132192 4281230257
-0.2725022733 -0.1190211996 0.5371894240 4280902834
-0.2729974091 -0.1186395213 0.5381654501 4281034420
-0.2730484903 -0.1180636659 0.5382661819 4281428404
-0.2730993330 -0.1174874976 0.5383664370 4281428404
-0.2731499672 -0.1169110015 0.5384662747 4281099441
-0.2736445963 -0.1165233478 0.5394413471 4281296820
-0.2736948431 -0.1159452796 0.5395403504 4281098419
-0.2741892636 -0.1155541763 0.5405150056 4281493177
-0.2746835947 -0.1151608750 0.5414895415 4283005390
-0.2747333050 -0.1145799756 0.5415875316 4282939597
-0.2752274275 -0.1141832247 0.5425615907 4282411708
-0.2752767503 -0.1136007532 0.5426588058 4283530189
-0.2757706344 -0.1132005528 0.5436323881 4286095079
-0.2762644291 -0.1127981618 0.5446058512 4284384461
-0.2767581642 -0.1123935655 0.5455791354 4282410409
-0.2768067718 -0.1118070260 0.5456749797 4282015651
-0.2773002684 -0.1113989949 0.5466477871 4282543017
-0.2773484886 -0.1108108908 0.5467428565 4287411699
-0.2773964703 -0.1102224886 0.5468374491 4288922111
-0.2774442136 -0.1096337810 0.5469315648 4284711359
-0.2779371142 -0.1092197970 0.5479032397 4281361843
-0.2779844701 -0.1086295396 0.5479965806 4281690808
-0.2784771323 -0.1082121134 0.5489677787 4281559992
-0.2785240710 -0.1076203063 0.5490602851 4281231027
-0.2790164649 -0.1071994454 0.5500310063 4281362359
-0.2790629864 -0.1066060960 0.5501226783 4281164980
-0.2795551419 -0.1061817929 0.5510928631 4281296826
-0.2804931104 -0.1059237048 0.5529419184 4281296826
-0.2805391252 -0.1053266227 0.5530326366 4281493431
-0.2810309827 -0.1048957482 0.5540022254 4281493431
-0.2810765803 -0.1042971313 0.5540921092 4281362362
-0.2815681398 -0.1038628221 0.5550611615 4281296569
-0.2816133201 -0.1032626703 0.5551502109 4281099187
-0.2821046114 -0.1028249338 0.5561187267 4280967601
-0.2821493447 -0.1022232622 0.5562069416 4280837043
-0.2826403677 -0.1017820910 0.5571748614 4280771250
-0.2826846838 -0.1011788920 0.5572622418 4280836530
-0.2831754088 -0.1007343009 0.5582296252 4280770737
-0.2832193077 -0.1001295820 0.5583161116 4280639664
-0.2837097347 -0.0996815711 0.5592828989 4280705457
-0.2842000425 -0.0992313623 0.5602494478 4280640179
-0.2842433155 -0.0986239016 0.5603348017 4280574386
-0.2842863202 -0.0980161577 0.5604195595 4280574386
-0.2843290865 -0.0974081457 0.5605039001 4280640179
-0.2848187387 -0.0969520584 0.5614691377 4280705972
-0.2848610580 -0.0963425413 0.5615525842 4280705972
-0.2853503823 -0.0958830416 0.5625171661 4280838071
-0.2853922844 -0.0952720270 0.5625997782 4280903864
-0.2858812809 -0.0948091149 0.5635637641 4280837817
-0.2859227359 -0.0941966027 0.5636454225 4280837817
-0.2864114344 -0.0937302858 0.5646088123 4280772794
-0.2864524126 -0.0931162834 0.5646896362 4280904380
-0.2864931524 -0.0925020278 0.5647699237 4280970173
-0.2869813144 -0.0920310766 0.5657323003 4280904380
-0.2870216072 -0.0914153382 0.5658116937 4280904380
-0.2875094414 -0.0909409896 0.5667733550 4280970173
-0.2875492573 -0.0903237686 0.5668518543 4280969403
-0.2880367637 -0.0898460224 0.5678129196 4280837817
-0.2880761325 -0.0892273337 0.5678905249 4280903864
-0.2885633111 -0.0887461975 0.5688508749 4281101243
-0.2886022031 -0.0881260410 0.5689275861 4281232829
-0.2895372510 -0.0877773911 0.5707708001 4281232829
-0.2895757258 -0.0871548057 0.5708466768 4281232829
-0.2900622785 -0.0866659284 0.5718058348 4281101243
-0.2901003063 -0.0860418826 0.5718807578 4281035450
-0.2905864716 -0.0855496228 0.5728392005 4281035450
-0.2910725176 -0.0850551799 0.5737973452 4280707511
-0.2911098599 -0.0844284818 0.5738709569 4280641718
-0.2911469340 -0.0838015452 0.5739440322 4280838585
-0.2911837399 -0.0831743628 0.5740165710 4281167550
-0.2916690111 -0.0826741382 0.5749732256 4280772796
-0.2917053401 -0.0820455179 0.5750448108 4285115134
-0.3107609153 -0.2185690552 0.6139537692 4288653241
-0.3056832254 -0.2143267393 0.6039220095 4286417840
-0.3006024063 -0.2101045102 0.5938840508 4285891496
-0.2968107760 -0.2068028450 0.5863931775 4284709037
-0.2943094671 -0.2044140399 0.5814514756 4284380072
-0.2926685810 -0.2026319057 0.5782096386 4284249518
-0.2914576530 -0.2011537552 0.5758173466 4284249518
-0.2902458310 -0.1996802688 0.5734232068 4284249515
-0.2903272510 -0.1990990043 0.5735840797 4284183722
-0.2899769843 -0.1982222646 0.5728920102 4284645038
-0.2896262705 -0.1973467767 0.5721991658 4284513452
-0.2892751396 -0.1964725256 0.5715054274 4284249518
-0.2889235616 -0.1955995262 0.5708108544 4283920553
-0.2885715365 -0.1947277784 0.5701153874 4283788967
-0.2882191241 -0.1938572824 0.5694190860 4283723174
-0.2878662348 -0.1929880530 0.5687219501 4283788967
-0.2870805860 -0.1918311864 0.5671697855 4283788967
-0.2862942517 -0.1906773150 0.5656162500 4283723174
-0.2859398723 -0.1898136139 0.5649160743 4283723174
-0.2855850160 -0.1889511794 0.5642150640 4283526052
-0.2847969532 -0.1878046095 0.5626580715 4283526052
-0.2853070199 -0.1875146925 0.5636658072 4283526052
-0.2840848863 -0.1860878766 0.5612513423 4283526052
-0.2837282419 -0.1852314472 0.5605466962 4283591847
-0.2833711505 -0.1843762845 0.5598412156 4283591847
-0.2825802267 -0.1832413822 0.5582786202 4283526054
-0.2830891907 -0.1829500347 0.5592842102 4283394468
-0.2818636596 -0.1815392971 0.5568629503 4283132066
-0.2815047503 -0.1806901991 0.5561538935 4283263652
-0.2811453938 -0.1798424125 0.5554439425 4283329447
-0.2812196016 -0.1792725921 0.5555905700 4283132068
-0.2808595300 -0.1784265339 0.5548791885 4282737310
-0.2800648212 -0.1773068905 0.5533090830 4283197861
-0.2792694569 -0.1761903316 0.5517377257 4283461033
-0.2789078951 -0.1753499955 0.5510233641 4283461033
-0.2785458863 -0.1745109707 0.5503082275 4282868896
-0.2781834602 -0.1736732721 0.5495921969 4282671517
-0.2778206170 -0.1728368998 0.5488753319 4282868896
-0.2774573267 -0.1720018685 0.5481576324 4282671517
-0.2770936489 -0.1711681634 0.5474390984 4282737056
-0.2767295241 -0.1703357995 0.5467197299 4282737056
-0.2759297788 -0.1692378372 0.5451397300 4282868896
-0.2755647302 -0.1684090346 0.5444184542 4283000482
-0.2747637928 -0.1673164219 0.5428361297 4283329706
-0.2752688825 -0.1670197695 0.5438340306 4283395499
-0.2744670212 -0.1659307480 0.5422497988 4283329706
-0.2736645043 -0.1648448706 0.5406643152 4283329706
-0.2732972205 -0.1640237272 0.5399387479 4283330219
-0.2729295492 -0.1632039547 0.5392123461 4283330219
-0.2725614607 -0.1623855531 0.5384851098 4283264426
-0.2721929252 -0.1615685076 0.5377570391 4283264426
-0.2718240023 -0.1607528329 0.5370281339 4283264426
-0.2714546621 -0.1599385440 0.5362984538 4283264426
-0.2710849047 -0.1591256261 0.5355679393 4283199147
-0.2707147300 -0.1583140939 0.5348365903 4283199147
-0.2703441381 -0.1575039476 0.5341044664 4283264942
-0.2699731290 -0.1566951871 0.5333714485 4283264942
-0.2696017027 -0.1558878124 0.5326377153 4283330735
-0.2692298889 -0.1550818384 0.5319030881 4283330735
-0.2688576579 -0.1542772502 0.5311676860 4283266223
-0.2680477202 -0.1532241106 0.5295675397 4283003051
-0.2676745653 -0.1524232328 0.5288302898 4283199149
-0.2673009634 -0.1516237557 0.5280922651 4283264942
