VERSION 0.7
FIELDS x y z rgba
SIZE 4 4 4 4
TYPE F F F U
COUNT 1 1 1 1
WIDTH 920
HEIGHT 1
VIEWPOINT 0.0 0.0 0.0 1.0 0.0 0.0 0.0
POINTS 920
DATA ascii
-0.2585992813 -0.1451382935 0.5456210375 4290548071
-0.2586581707 -0.1445649862 0.5457452536 4290416485
-0.2587168813 -0.1439912915 0.5458691120 4290350692
-0.2587753534 -0.1434171945 0.5459924936 4290482278
-0.2592504323 -0.1430727392 0.5469948649 4290548071
-0.2593086064 -0.1424969584 0.5471175909 4290482278
-0.2593665421 -0.1419207752 0.5472398996 4290548071
-0.2594242990 -0.1413442194 0.5473617315 4290613864
-0.2594818175 -0.1407672763 0.5474830866 4290548071
-0.2595391572 -0.1401899457 0.5476040840 4290548071
-0.2595962584 -0.1396122277 0.5477245450 4290350951
-0.2596531808 -0.1390341371 0.5478446484 4290482537
-0.2597098649 -0.1384556741 0.5479642153 4290745450
-0.2597663403 -0.1378768235 0.5480834246 4290942829
-0.2598226070 -0.1372976005 0.5482021570 4290679657
-0.2598786652 -0.1367179900 0.5483204126 4290745450
-0.2599345148 -0.1361380219 0.5484382510 4290679657
-0.2604081333 -0.1357756108 0.5494375229 4290679657
-0.2604636252 -0.1351939440 0.5495546460 4290614893
-0.2601007521 -0.1343958527 0.5487889647 4290878065
-0.2605739832 -0.1340295225 0.5497874618 4291273084
-0.2606288493 -0.1334467679 0.5499032140 4291404670
-0.2606835067 -0.1328636259 0.5500184894 4291076992
-0.2607379258 -0.1322801262 0.5501333475 4291208578
-0.2607921362 -0.1316962689 0.5502477288 4291143816
-0.2608461082 -0.1311120391 0.5503616333 4291012230
-0.2604811192 -0.1303179413 0.5495914817 4291274889
-0.2609534562 -0.1299425066 0.5505880713 4291340682
-0.2610067725 -0.1293571889 0.5507006049 4291471754
-0.2606408596 -0.1285648346 0.5499285460 4291471754
-0.2606936693 -0.1279797554 0.5500400066 4291538061
-0.2611654699 -0.1275991201 0.5510354638 4291603854
-0.2612179220 -0.1270123869 0.5511461496 4291604369
-0.2612701654 -0.1264252961 0.5512563586 4291670162
-0.2613221705 -0.1258378625 0.5513660908 4291538576
-0.2613739669 -0.1252500713 0.5514753461 4291538576
-0.2614255250 -0.1246619374 0.5515841842 4291538576
-0.2614768744 -0.1240734532 0.5516924858 4291604369
-0.2615280151 -0.1234846264 0.5518003702 4291670162
-0.2615789175 -0.1228954494 0.5519077778 4291604369
-0.2616295815 -0.1223059297 0.5520147085 4291538321
-0.2616800368 -0.1217160672 0.5521211624 4291604114
-0.2621503770 -0.1213202924 0.5531135201 4291669650
-0.2622004747 -0.1207288057 0.5532191992 4291669650
-0.2622503340 -0.1201369762 0.5533244014 4291604114
-0.2622999549 -0.1195448115 0.5534291267 4291604114
-0.2623493671 -0.1189523190 0.5535333157 4291538576
-0.2623985410 -0.1183594838 0.5536370873 4291472783
-0.2620269060 -0.1175775900 0.5528529882 4291406475
-0.2624962032 -0.1171728224 0.5538432002 4291340682
-0.2625446916 -0.1165789962 0.5539454818 4291602825
-0.2625929713 -0.1159848422 0.5540473461 4291537032
-0.2626410127 -0.1153903604 0.5541486740 4291798662
-0.2626888156 -0.1147955507 0.5542495251 4291667076
-0.2627363801 -0.1142004207 0.5543499589 4291666047
-0.2627837360 -0.1136049628 0.5544498563 4291731840
-0.2628308535 -0.1130091920 0.5545492172 4291863168
-0.2628777325 -0.1124130934 0.5546481609 4291534203
-0.2629244030 -0.1118166819 0.5547466278 4290677349
-0.2629708052 -0.1112199500 0.5548445582 4290216798
-0.2634384930 -0.1108001918 0.5558313131 4290151005
-0.2634845376 -0.1102018729 0.5559284687 4290216798
-0.2635303438 -0.1096032411 0.5560250878 4290414177
-0.2635758817 -0.1090043038 0.5561212301 4290348384
-0.2636212111 -0.1084050536 0.5562168360 4290479970
-0.2636663318 -0.1078054905 0.5563120246 4290348384
-0.2637111843 -0.1072056293 0.5564066768 4290479457
-0.2637557983 -0.1066054553 0.5565007925 4290347871
-0.2638002038 -0.1060049832 0.5565944910 4290347871
-0.2638443410 -0.1054042056 0.5566876531 4290282078
-0.2638882697 -0.1048031300 0.5567802787 4290282078
-0.2639319301 -0.1042017490 0.5568724275 4290216285
-0.2639753819 -0.1036000773 0.5569640994 4290084699
-0.2640185952 -0.1029981002 0.5570552945 4290216285
-0.2640615702 -0.1023958325 0.5571459532 4290084699
-0.2641042769 -0.1017932743 0.5572360754 4290084699
-0.2641467750 -0.1011904255 0.5573257208 4290216285
-0.2641890347 -0.1005872861 0.5574148893 4290150492
-0.2646538019 -0.1001438275 0.5583955050 4290018906
-0.2646956444 -0.0995391458 0.5584838390 4289953113
-0.2647372484 -0.0989341736 0.5585715771 4290150492
-0.2652015984 -0.0984859988 0.5595512986 4290282078
-0.2652427554 -0.0978794917 0.5596381426 4290150492
-0.2652837038 -0.0972727090 0.5597245693 4290150492
-0.2653244138 -0.0966656432 0.5598104000 4290150492
-0.2653648555 -0.0960582942 0.5598958135 4290084699
-0.2654050887 -0.0954506770 0.5599806309 4290150492
-0.2654450536 -0.0948427767 0.5600649714 4290150492
-0.2654847801 -0.0942346081 0.5601487756 4290150492
-0.2655242682 -0.0936261639 0.5602321029 4290216285
-0.2655635178 -0.0930174515 0.5603148937 4290085728
-0.2656024992 -0.0924084634 0.5603971481 4290019935
-0.2656412423 -0.0917992145 0.5604789257 4289888347
-0.2656797469 -0.0911896974 0.5605601668 4289427796
-0.2657180130 -0.0905799195 0.5606408715 4288769878
-0.2657560408 -0.0899698809 0.5607210994 4288572499
-0.2657938004 -0.0893595740 0.5608007908 4284503148
-0.2658313215 -0.0887490138 0.5608799458 4284437355
-0.2667166591 -0.0884193331 0.5627479553 4282802596
-0.2667537928 -0.0878063068 0.5628263354 4283394733
-0.2667906880 -0.0871930271 0.5629041791 4283527095
-0.2668273449 -0.0865794867 0.5629814863 4282869165
-0.2668637633 -0.0859657004 0.5630583167 4282343073
-0.2664755881 -0.0852159709 0.5622392893 4282343073
-0.2665114105 -0.0846026614 0.5623149276 4282211487
-0.2665470243 -0.0839891061 0.5623900294 4282145694
-0.2665823698 -0.0833753049 0.5624645948 4282080669
-0.2666174471 -0.0827612579 0.5625386238 4282146462
-0.2666522861 -0.0821469724 0.5626121759 4282211487
-0.2671115398 -0.0816622749 0.5635811090 4282277280
-0.2671459615 -0.0810465291 0.5636537075 4282539428
-0.2676048577 -0.0805584192 0.5646219850 4282473635
-0.2676388025 -0.0799412280 0.5646936297 4282343587
-0.2680973709 -0.0794497058 0.5656611323 4282606759
-0.2681308687 -0.0788310617 0.5657318234 4282410412
-0.2685891092 -0.0783361420 0.5666986108 4281555103
-0.2686221302 -0.0777160600 0.5667683482 4283981420
-0.2690800130 -0.0772177354 0.5677344203 4289244860
-0.2695377469 -0.0767172202 0.5687001348 4293322983
-0.2766429782 -0.1809817851 0.5850626230 4288126127
-0.2763748169 -0.1795075238 0.5844954848 4282271321
-0.2756223083 -0.1783711165 0.5829040408 4281553786
-0.2748691440 -0.1772378236 0.5813112259 4283856541
-0.2737031579 -0.1758428514 0.5788453221 4283136429
-0.2700624764 -0.1728692800 0.5711457729 4283070636
-0.2664197087 -0.1699114889 0.5634417534 4283136688
-0.2619498074 -0.1664452404 0.5539885163 4283268274
-0.2595404983 -0.1643044949 0.5488932133 4284058558
-0.2583679557 -0.1629551053 0.5464134216 4285440211
-0.2571946084 -0.1616107076 0.5439319015 4286295001
-0.2568462789 -0.1607883126 0.5431952477 4285176520
-0.2564975619 -0.1599673033 0.5424578190 4284122546
-0.2561484575 -0.1591476798 0.5417194963 4283793581
-0.2562122047 -0.1585852355 0.5418542624 4283530415
-0.2562757432 -0.1580223888 0.5419886112 4285701584
-0.2563390732 -0.1574591100 0.5421226025 4284714942
-0.2564022243 -0.1568954140 0.5422561765 4283662254
-0.2564651668 -0.1563313007 0.5423892736 4283530415
-0.2565279305 -0.1557667702 0.5425220132 4283662001
-0.2565904856 -0.1552018374 0.5426543355 4285169053
-0.2566528618 -0.1546364725 0.5427861810 4287011257
-0.2567150295 -0.1540707201 0.5429176688 4290023532
-0.2567769885 -0.1535045356 0.5430487394 4289694567
-0.2572530210 -0.1531846225 0.5440554619 4290021984
-0.2573146820 -0.1526167244 0.5441858768 4290021984
-0.2573761642 -0.1520484090 0.5443158746 4290153312
-0.2574374378 -0.1514796913 0.5444454551 4290284898
-0.2574985027 -0.1509105563 0.5445746183 4290612581
-0.2575593591 -0.1503410190 0.5447033644 4290678374
-0.2576200366 -0.1497710943 0.5448316336 4290154340
-0.2576805055 -0.1492007524 0.5449595451 4290022754
-0.2577407658 -0.1486300230 0.5450869799 4290350692
-0.2578008175 -0.1480588764 0.5452139974 4290482278
-0.2578606904 -0.1474873424 0.5453405976 4290613864
-0.2579203248 -0.1469154060 0.5454667211 4290416485
-0.2579797804 -0.1463430822 0.5455924869 4290548071
-0.2580390275 -0.1457703561 0.5457177758 4290679657
-0.2580980659 -0.1451972276 0.5458425879 4290548071
-0.2581568956 -0.1446237266 0.5459670424 4290416485
-0.2582155168 -0.1440498233 0.5460910201 4290548071
-0.2582739294 -0.1434755325 0.5462145805 4290548071
-0.2587481439 -0.1431309581 0.5472174287 4290482278
-0.2588062286 -0.1425549537 0.5473403335 4290416485
-0.2588641346 -0.1419785768 0.5474627614 4290482278
-0.2589218020 -0.1414018124 0.5475847125 4290482278
-0.2589792609 -0.1408246458 0.5477062464 4290482278
-0.2590365410 -0.1402471066 0.5478273630 4290482278
-0.2595101297 -0.1398937404 0.5488289595 4290416744
-0.2595670521 -0.1393145025 0.5489493608 4290614123
-0.2596237957 -0.1387348920 0.5490693450 4290679657
-0.2596803010 -0.1381549090 0.5491888523 4290877036
-0.2597365975 -0.1375745386 0.5493078828 4290744936
-0.2597926855 -0.1369937807 0.5494264960 4290744936
-0.2598485351 -0.1364126652 0.5495446324 4290613864
-0.2599042058 -0.1358311623 0.5496623516 4290613864
-0.2599596381 -0.1352493018 0.5497795939 4290811502
-0.2600148618 -0.1346670538 0.5498964190 4290877295
-0.2600698769 -0.1340844482 0.5500127673 4290615152
-0.2601246834 -0.1335014701 0.5501286387 4290615152
-0.2601792514 -0.1329181194 0.5502440929 4290550389
-0.2602336109 -0.1323343962 0.5503590107 4290747768
-0.2602877617 -0.1317503154 0.5504735708 4290748799
-0.2603417039 -0.1311658770 0.5505875945 4290683006
-0.2603954077 -0.1305810660 0.5507012010 4290879356
-0.2604489028 -0.1299958974 0.5508143306 4290879356
-0.2600840330 -0.1292026490 0.5500426888 4290879356
-0.2605552375 -0.1288244873 0.5510392189 4290813563
-0.2601897717 -0.1280324012 0.5502662659 4290813309
-0.2606607080 -0.1276516467 0.5512622595 4290944895
-0.2607131004 -0.1270646900 0.5513730645 4290945408
-0.2607652843 -0.1264773756 0.5514833927 4291076994
-0.2608172297 -0.1258897185 0.5515933037 4291077510
-0.2608689666 -0.1253017038 0.5517026782 4291077510
-0.2609204650 -0.1247133538 0.5518116355 4291143303
-0.2609717548 -0.1241246462 0.5519201159 4291209096
-0.2610228360 -0.1235355884 0.5520281196 4291274889
-0.2610736787 -0.1229461879 0.5521356463 4291209096
-0.2611243129 -0.1223564520 0.5522426963 4291078023
-0.2611747086 -0.1217663661 0.5523492694 4291143816
-0.2616441548 -0.1213704422 0.5533421636 4291405707
-0.2616941929 -0.1207787320 0.5534479618 4291471500
-0.2617439926 -0.1201866791 0.5535532832 4291339914
-0.2617935836 -0.1195942834 0.5536581278 4291208328
-0.2618429363 -0.1190015599 0.5537624955 4291077510
-0.2618920505 -0.1184085011 0.5538663864 4290945924
-0.2619409561 -0.1178151071 0.5539698005 4290945406
-0.2619896233 -0.1172213852 0.5540727377 4290945406
-0.2620380521 -0.1166273281 0.5541751981 4291207292
-0.2620862722 -0.1160329431 0.5542771220 4291273085
-0.2621342540 -0.1154382378 0.5543786287 4291402875
-0.2621819973 -0.1148431972 0.5544795990 4291139703
-0.2622295320 -0.1142478362 0.5545800924 4291007089
-0.2622768283 -0.1136521548 0.5546801090 4290875503
-0.2627442777 -0.1132373288 0.5556687713 4290941037
-0.2632116675 -0.1128202677 0.5566571951 4290743658
-0.2632583976 -0.1122217178 0.5567560792 4291006314
-0.2633049190 -0.1116228402 0.5568544269 4290545763
-0.2629305124 -0.1108462960 0.5560626388 4290151005
-0.2629764974 -0.1102477461 0.5561598539 4290151005
-0.2630222440 -0.1096488833 0.5562565923 4290414177
-0.2630677521 -0.1090497077 0.5563528538 4290216798
-0.2631130517 -0.1084502265 0.5564486384 4290414177
-0.2631580830 -0.1078504324 0.5565438867 4290348384
-0.2632029057 -0.1072503328 0.5566386580 4290479457
-0.2632474899 -0.1066499278 0.5567329526 4290413664
-0.2632918060 -0.1060492173 0.5568267107 4290347871
-0.2633359134 -0.1054482013 0.5569199920 4290150492
-0.2633797824 -0.1048468873 0.5570127368 4290216285
-0.2634234130 -0.1042452753 0.5571050644 4290347871
-0.2634668052 -0.1036433578 0.5571967959 4290216285
-0.2635099888 -0.1030411497 0.5572881103 4290216285
-0.2635529041 -0.1024386436 0.5573788881 4289887320
-0.2635955811 -0.1018358469 0.5574691296 4290018906
-0.2636380196 -0.1012327597 0.5575588942 4290216285
-0.2636802197 -0.1006293744 0.5576481819 4290216285
-0.2641441524 -0.1001857519 0.5586292744 4290084699
-0.2646079659 -0.0997399017 0.5596101880 4290018906
-0.2646495998 -0.0991337225 0.5596982241 4290150492
-0.2646909654 -0.0985272601 0.5597857237 4290347871
-0.2647321224 -0.0979205146 0.5598727465 4290084699
-0.2647730112 -0.0973134860 0.5599592328 4290084699
-0.2648136616 -0.0967061818 0.5600451827 4290216285
-0.2648540735 -0.0960985944 0.5601306558 4290084699
-0.2648942471 -0.0954907313 0.5602156520 4290085212
-0.2649341822 -0.0948825926 0.5603000522 4290151005
-0.2649738491 -0.0942741781 0.5603839755 4290085212
-0.2650133073 -0.0936654881 0.5604674220 4290216798
-0.2650524974 -0.0930565298 0.5605503321 4290151521
-0.2650914490 -0.0924473032 0.5606327057 4289888349
-0.2651301622 -0.0918378085 0.5607145429 4289690968
-0.2651686370 -0.0912280455 0.5607959032 4289164624
-0.2652068436 -0.0906180218 0.5608767271 4289098843
-0.2652448118 -0.0900077373 0.5609570146 4289362015
-0.2652825415 -0.0893971846 0.5610368252 4284503148
-0.2657431662 -0.0889279768 0.5620110035 4284503148
-0.2662037015 -0.0884565711 0.5629849434 4282736805
-0.2662408054 -0.0878432915 0.5630633831 4283460528
-0.2662776411 -0.0872297660 0.5631413460 4283856060
-0.2663142681 -0.0866159797 0.5632187724 4283000751
-0.2663506269 -0.0860019475 0.5632956624 4282343073
-0.2659632266 -0.0852519050 0.5624763966 4282343073
-0.2659990191 -0.0846383497 0.5625520945 4282211487
-0.2660345733 -0.0840245411 0.5626273155 4282211487
-0.2660698891 -0.0834104940 0.5627019405 4282080926
-0.2661049366 -0.0827961937 0.5627760887 4282146719
-0.2661397457 -0.0821816623 0.5628497005 4282212001
-0.2665981650 -0.0816967636 0.5638191700 4282212001
-0.2666325271 -0.0810807720 0.5638918281 4282342562
-0.2670905888 -0.0805924684 0.5648605824 4282342562
-0.2671245039 -0.0799750164 0.5649322867 4282409380
-0.2675822079 -0.0794833004 0.5659003258 4282804138
-0.2680397928 -0.0789893866 0.5668680072 4282344618
-0.2680730522 -0.0783692822 0.5669383407 4281620895
-0.2685302794 -0.0778719634 0.5679053068 4283981933
-0.2685630620 -0.0772504136 0.5679746866 4289311166
-0.2690199316 -0.0767496973 0.5689409375 4293059809
-0.2756921053 -0.1807843596 0.5844243765 4287731369
-0.2750132978 -0.1790437698 0.5829854608 4282666079
-0.2746732533 -0.1781754494 0.5822646618 4281356406
-0.2739215195 -0.1770426482 0.5806710720 4283922333
-0.2727577686 -0.1756480634 0.5782040954 4282808239
-0.2691241503 -0.1726742387 0.5705013871 4282939825
-0.2659000456 -0.1699793190 0.5636667609 4282939825
-0.2618506253 -0.1667739600 0.5550826192 4283137204
-0.2590343654 -0.1643701643 0.5491126180 4283727794
-0.2578641474 -0.1630202681 0.5466319323 4284451517
-0.2566931248 -0.1616753638 0.5441495180 4285438412
-0.2563455403 -0.1608526707 0.5434127450 4285898963
-0.2559975684 -0.1600313634 0.5426750779 4284123835
-0.2560615242 -0.1594682485 0.5428106189 4283729077
-0.2557128370 -0.1586488187 0.5420714617 4283466419
-0.2557763159 -0.1580857635 0.5422060490 4285440209
-0.2558395863 -0.1575222909 0.5423401594 4283925691
-0.2559026480 -0.1569584012 0.5424738526 4283728312
-0.2559655309 -0.1563940942 0.5426071882 4283464622
-0.2560282350 -0.1558293700 0.5427400470 4283727794
-0.2560907006 -0.1552642286 0.5428724885 4285301918
-0.2561530173 -0.1546986848 0.5430045724 4286815157
-0.2562150955 -0.1541327238 0.5431361794 4290482802
-0.2562769949 -0.1535663456 0.5432674289 4290219630
-0.2567521632 -0.1532463431 0.5442746282 4290284906
-0.2568137348 -0.1526782364 0.5444052219 4290021734
-0.2568751574 -0.1521097124 0.5445353985 4290021214
-0.2569363415 -0.1515408009 0.5446650982 4290087007
-0.2569973469 -0.1509714723 0.5447944403 4290152800
-0.2570581436 -0.1504017413 0.5449233055 4289955421
-0.2571187317 -0.1498316079 0.5450517535 4289758554
-0.2571791410 -0.1492610574 0.5451797843 4289758554
-0.2572393417 -0.1486901194 0.5453073978 4290087520
-0.2572993338 -0.1481187791 0.5454345942 4290153313
-0.2573591173 -0.1475470364 0.5455613136 4290022239
-0.2574186921 -0.1469749063 0.5456876159 4289956446
-0.2574780881 -0.1464023739 0.5458135009 4290021726
-0.2575372458 -0.1458294392 0.5459389687 4290087519
-0.2575962245 -0.1452561170 0.5460639596 4290087520
-0.2576549947 -0.1446823925 0.5461885333 4290087520
-0.2577135563 -0.1441082805 0.5463126898 4289955934
-0.2581869960 -0.1437649131 0.5473163128 4290021727
-0.2582452297 -0.1431891024 0.5474397540 4290087519
-0.2583032548 -0.1426129043 0.5475627780 4290087519
-0.2583610713 -0.1420363039 0.5476853251 4290021726
-0.2584187090 -0.1414593309 0.5478074551 4290021726
-0.2584761083 -0.1408819556 0.5479291677 4290219106
-0.2585332990 -0.1403042078 0.5480504036 4290153313
-0.2590060234 -0.1399507225 0.5490525365 4290153313
-0.2590628862 -0.1393712759 0.5491730571 4290219106
-0.2591195405 -0.1387914568 0.5492931604 4290284899
-0.2591759861 -0.1382112503 0.5494128466 4290219106
-0.2592322230 -0.1376306713 0.5495320559 4290087777
-0.2592882514 -0.1370497048 0.5496507883 4290350949
-0.2593440413 -0.1364683807 0.5497691035 4290417514
-0.2593996525 -0.1358866692 0.5498869419 4290351721
-0.2594550252 -0.1353045851 0.5500043035 4290483309
-0.2595101893 -0.1347221285 0.5501212478 4290417516
-0.2595651448 -0.1341392994 0.5502377748 4290615152
-0.2596198618 -0.1335560977 0.5503537655 4290483566
-0.2596744001 -0.1329725385 0.5504693389 4290155371
-0.2597286999 -0.1323886067 0.5505844951 4290418543
-0.2597827911 -0.1318043023 0.5506991148 4290681717
-0.2598366439 -0.1312196404 0.5508133173 4290615924
-0.2598903179 -0.1306346208 0.5509270430 4290615669
-0.2599437535 -0.1300492436 0.5510403514 4290615669
-0.2599969506 -0.1294634938 0.5511531234 4290681462
-0.2600499690 -0.1288773865 0.5512654781 4290813048
-0.2596852481 -0.1280850023 0.5504923463 4290813048
-0.2601552904 -0.1277040988 0.5514888167 4290813048
-0.2602076232 -0.1271169335 0.5515997410 4290813050
-0.2602597475 -0.1265293956 0.5517102480 4290813050
-0.2603116632 -0.1259415150 0.5518202186 4290879356
-0.2603633404 -0.1253532916 0.5519297719 4290879356
-0.2604147792 -0.1247647032 0.5520388484 4291010942
-0.2604660094 -0.1241757721 0.5521474481 4291142528
-0.2605170310 -0.1235864982 0.5522556305 4291142528
-0.2605678141 -0.1229968742 0.5523632765 4291208321
-0.2606183887 -0.1224069148 0.5524704456 4291208321
-0.2606687248 -0.1218166053 0.5525771976 4291208321
-0.2611373365 -0.1214205399 0.5535705686 4290814338
-0.2611872852 -0.1208285987 0.5536764860 4290880131
-0.2612370551 -0.1202363223 0.5537819266 4290880644
-0.2612865567 -0.1196437031 0.5538868904 4290814851
-0.2613358498 -0.1190507561 0.5539914370 4290880642
-0.2613849342 -0.1184574664 0.5540954471 4290880642
-0.2614337802 -0.1178638488 0.5541989803 4290945406
-0.2614823878 -0.1172698960 0.5543020368 4290748027
-0.2615307868 -0.1166756153 0.5544046164 4290944634
-0.2615789473 -0.1160809994 0.5545066595 4290944634
-0.2616268694 -0.1154860631 0.5546082854 4291075192
-0.2616745532 -0.1148907915 0.5547094345 4290877813
-0.2617220283 -0.1142952070 0.5548100471 4291007859
-0.2617692947 -0.1136992872 0.5549101830 4290678894
-0.2626554370 -0.1134655625 0.5567887425 4290546279
-0.2627023757 -0.1128670946 0.5568882227 4290677865
-0.2627490759 -0.1122683063 0.5569872260 4291072107
-0.2627955377 -0.1116691977 0.5570856929 4290611556
-0.2628417909 -0.1110697761 0.5571837425 4290479968
-0.2624678314 -0.1102935672 0.5563910007 4290348382
-0.2625135183 -0.1096944734 0.5564878583 4290282589
-0.2625589967 -0.1090950668 0.5565842390 4290414175
-0.2626042366 -0.1084953472 0.5566801429 4290348384
-0.2626492083 -0.1078953147 0.5567755103 4290216798
-0.2626939714 -0.1072949842 0.5568704009 4290216798
-0.2627384961 -0.1066943407 0.5569648147 4290282591
-0.2627828121 -0.1060933992 0.5570586920 4290545761
-0.2628268600 -0.1054921448 0.5571520925 4290545761
-0.2628706694 -0.1048905998 0.5572449565 4290611554
-0.2629142702 -0.1042887494 0.5573373437 4290479968
-0.2629576027 -0.1036865935 0.5574292541 4290282591
-0.2630007267 -0.1030841470 0.5575206280 4290282591
-0.2630435824 -0.1024814099 0.5576115251 4290084697
-0.2630862296 -0.1018783748 0.5577019453 4290084697
-0.2635496259 -0.1014370844 0.5586842895 4290281563
-0.2635918558 -0.1008324996 0.5587737560 4290215770
-0.2640549839 -0.1003877297 0.5597555637 4290084697
-0.2640967965 -0.0997816026 0.5598441958 4290150490
-0.2641383708 -0.0991751850 0.5599322915 4290150490
-0.2641797066 -0.0985684842 0.5600199103 4290216283
-0.2642208040 -0.0979615003 0.5601070523 4290151003
-0.2642616630 -0.0973542258 0.5601936579 4290019417
-0.2647238076 -0.0969009772 0.5611733198 4290018904
-0.2647642493 -0.0962921828 0.5612590313 4290084697
-0.2643827796 -0.0955307409 0.5604503751 4290150490
-0.2644226551 -0.0949223638 0.5605349541 4290084697
-0.2644622922 -0.0943137035 0.5606189370 4290085210
-0.2645016909 -0.0937047750 0.5607025027 4290019417
-0.2645408511 -0.0930955708 0.5607854724 4289954140
-0.2645797729 -0.0924860984 0.5608679652 4289822554
-0.2646184266 -0.0918763578 0.5609499216 4289297242
-0.2646568418 -0.0912663564 0.5610314012 4289034070
-0.2646950185 -0.0906560868 0.5611122847 4290149211
-0.2651551664 -0.0901891664 0.5620877743 4289622867
-0.2656151950 -0.0897200331 0.5630629659 4284700015
-0.2656527758 -0.0891070291 0.5631425381 4284239464
-0.2656900883 -0.0884937644 0.5632216334 4282540450
-0.2657271326 -0.0878802389 0.5633002520 4283856310
-0.2657639682 -0.0872664675 0.5633782744 4283990213
-0.2658005357 -0.0866524354 0.5634558201 4282674353
-0.2658368349 -0.0860381499 0.5635327697 4282210974
-0.2658729255 -0.0854236111 0.5636092424 4282408353
-0.2659087479 -0.0848088264 0.5636851788 4282015905
-0.2659443021 -0.0841937959 0.5637606382 4281950112
-0.2659796476 -0.0835785195 0.5638355017 4282080669
-0.2660147250 -0.0829629973 0.5639098287 4282080669
-0.2660495341 -0.0823472291 0.5639836788 4281884578
-0.2665071487 -0.0818611607 0.5649536848 4281884578
-0.2665415108 -0.0812439322 0.5650265813 4282146472
-0.2665756345 -0.0806264728 0.5650989413 4282146472
-0.2666095197 -0.0800087750 0.5651707649 4282343591
-0.2670663893 -0.0795168579 0.5661392212 4282869935
-0.2675231099 -0.0790227428 0.5671073794 4282541230
-0.2675563097 -0.0784023777 0.5671778321 4281422749
-0.2680127025 -0.0779048577 0.5681452751 4284441706
-0.2684689164 -0.0774051473 0.5691123605 4289376181
-0.2685014904 -0.0767821372 0.5691813827 4292401617
-0.2747421861 -0.1805866510 0.5837852359 4287139232
-0.2732440531 -0.1783117503 0.5806019306 4282995299
-0.2741355896 -0.1782463491 0.5824962854 4281685371
-0.2725644112 -0.1765812486 0.5791577697 4283856540
-0.2718133628 -0.1754529774 0.5775619149 4282742700
-0.2685974836 -0.1727430373 0.5707286596 4282940079
-0.2649689317 -0.1697838604 0.5630185604 4282874032
-0.2617492080 -0.1671027988 0.5561771393 4283137204
-0.2589386404 -0.1646971852 0.5502050519 4283793587
-0.2573597431 -0.1630853564 0.5468502045 4283662001
-0.2561910450 -0.1617399454 0.5443668962 4283990966
-0.2558442056 -0.1609169543 0.5436298847 4284912068
-0.2559083998 -0.1603531539 0.5437662601 4284453316
-0.2555608451 -0.1595320404 0.5430278182 4283466421
-0.2556245327 -0.1589683145 0.5431631207 4283729591
-0.2556880116 -0.1584041566 0.5432980657 4284979658
-0.2557513118 -0.1578395814 0.5434325337 4283727796
-0.2558144331 -0.1572745740 0.5435666442 4283596210
-0.2558773458 -0.1567091644 0.5437002778 4283530670
-0.2559400499 -0.1561433375 0.5438335538 4283793842
-0.2555903196 -0.1553265601 0.5430904627 4285236125
-0.2556525469 -0.1547608227 0.5432226658 4286815157
-0.2557145655 -0.1541946679 0.5433544517 4290483056
-0.2561889589 -0.1538758725 0.5443624258 4290219884
-0.2562506795 -0.1533079892 0.5444935560 4290416746
-0.2563121915 -0.1527396739 0.5446243286 4290285160
-0.2563735247 -0.1521709561 0.5447546244 4290284386
-0.2564346492 -0.1516018361 0.5448845029 4290087007
-0.2564955950 -0.1510323137 0.5450139642 4289824348
-0.2565563321 -0.1504623741 0.5451430082 4289561176
-0.2566168606 -0.1498920470 0.5452716351 4289495383
-0.2566771805 -0.1493213028 0.5453998446 4289561176
-0.2571507394 -0.1489896923 0.5464060307 4289890141
-0.2567972243 -0.1481786072 0.5456548929 4289955934
-0.2572705746 -0.1478443593 0.5466606617 4289824860
-0.2569164634 -0.1470343322 0.5459082723 4289759067
-0.2573895752 -0.1466974318 0.5469135642 4289693274
-0.2574487925 -0.1461233795 0.5470393896 4289627481
-0.2575077713 -0.1455489248 0.5471647382 4289626969
-0.2575665712 -0.1449740827 0.5472896695 4289495383
-0.2576251626 -0.1443988383 0.5474141240 4289429590
-0.2576835454 -0.1438232064 0.5475382209 4289561176
-0.2581560910 -0.1434774846 0.5485423207 4289627481
-0.2582141459 -0.1429001540 0.5486656427 4289693274
-0.2582719922 -0.1423224211 0.5487886071 4289627481
-0.2583296299 -0.1417443007 0.5489110351 4289627481
-0.2583870590 -0.1411658078 0.5490331054 4289956191
-0.2584442794 -0.1405869126 0.5491546988 4290021984
-0.2585012913 -0.1400076449 0.5492758155 4289956193
-0.2585580945 -0.1394279897 0.5493965149 4290021986
-0.2586146891 -0.1388479471 0.5495167971 4290087777
-0.2586710751 -0.1382675320 0.5496365428 4290021984
-0.2587272525 -0.1376867443 0.5497559309 4289891170
-0.2587831914 -0.1371055692 0.5498748422 4290088549
-0.2588389516 -0.1365240216 0.5499932766 4290088551
-0.2593100369 -0.1361602992 0.5509942770 4289956965
-0.2593654394 -0.1355770677 0.5511119962 4289891429
-0.2594206333 -0.1349934638 0.5512292385 4290023015
-0.2594756186 -0.1344094872 0.5513460636 4290352750
-0.2595303655 -0.1338251382 0.5514624119 4290221164
-0.2595849037 -0.1332404166 0.5515783429 4289695079
-0.2596392334 -0.1326553375 0.5516937971 4289826665
-0.2596933544 -0.1320698857 0.5518087745 4290089837
-0.2593309879 -0.1312733591 0.5510388017 4290024044
-0.2593845725 -0.1306881160 0.5511526465 4289892972
-0.2594379485 -0.1301025152 0.5512660742 4289827179
-0.2594911158 -0.1295165420 0.5513790250 4289892972
-0.2595440447 -0.1289302260 0.5514914989 4289958765
-0.2595967650 -0.1283435374 0.5516035557 4289958511
-0.2596492767 -0.1277565062 0.5517150760 4289958511
-0.2597015500 -0.1271691024 0.5518261790 4290024304
-0.2597536147 -0.1265813559 0.5519368052 4290155890
-0.2598054409 -0.1259932518 0.5520469546 4290353269
-0.2598570585 -0.1254048049 0.5521566272 4290287476
-0.2599084675 -0.1248160005 0.5522658229 4290288246
-0.2599596381 -0.1242268533 0.5523746014 4290288246
-0.2600106001 -0.1236373484 0.5524828434 4290288248
-0.2600613236 -0.1230475083 0.5525906682 4290288248
-0.2605293393 -0.1226538792 0.5535851121 4290288248
-0.2605797052 -0.1220624000 0.5536921620 4290222455
-0.2606298625 -0.1214705780 0.5537986755 4290353271
-0.2606797814 -0.1208784133 0.5539047718 4290287478
-0.2607294619 -0.1202859059 0.5540103316 4290156662
-0.2607789338 -0.1196930707 0.5541154146 4290156662
-0.2608281672 -0.1190998927 0.5542200804 4290090867
-0.2608771920 -0.1185063794 0.5543242097 4290156660
-0.2609259784 -0.1179125309 0.5544278622 4290221424
-0.2609745264 -0.1173183545 0.5545310378 4290024045
-0.2610228658 -0.1167238429 0.5546337366 4290286187
-0.2610709667 -0.1161290035 0.5547359586 4290351980
-0.2611188591 -0.1155338362 0.5548377037 4290548332
-0.2615850270 -0.1151225343 0.5558282733 4290416746
-0.2616325319 -0.1145257577 0.5559291840 4290546790
-0.2616797984 -0.1139286608 0.5560296178 4290415204
-0.2621455789 -0.1135125682 0.5570193529 4290347869
-0.2621924579 -0.1129138693 0.5571190119 4290018904
-0.2622391284 -0.1123148501 0.5572181344 4290018904
-0.2622855306 -0.1117155105 0.5573167205 4290216283
-0.2623317242 -0.1111158505 0.5574148893 4290479455
-0.2619585395 -0.1103393361 0.5566219091 4290282076
-0.2620041668 -0.1097400114 0.5567188859 4290150490
-0.2620495856 -0.1091403663 0.5568153858 4290216283
-0.2620947659 -0.1085404158 0.5569114089 4290150490
-0.2621397078 -0.1079401523 0.5570068955 4289953111
-0.2621844411 -0.1073395833 0.5571019053 4290018904
-0.2622289062 -0.1067387089 0.5571964383 4290084697
-0.2622731626 -0.1061375290 0.5572904348 4290150490
-0.2623171508 -0.1055360436 0.5573839545 4290216283
-0.2623609304 -0.1049342602 0.5574769378 4290216283
-0.2628243268 -0.1044991016 0.5584615469 4290150490
-0.2624477744 -0.1037297845 0.5576614738 4290084699
-0.2624908388 -0.1031271070 0.5577529669 4290018906
-0.2625336647 -0.1025241241 0.5578439832 4290084697
-0.2629963756 -0.1020839214 0.5588271618 4290084697
-0.2630387843 -0.1014793962 0.5589172840 4290215770
-0.2630809546 -0.1008745655 0.5590069294 4290084184
-0.2635432184 -0.1004296318 0.5599891543 4290084184
-0.2635850012 -0.0998232588 0.5600779057 4290084184
-0.2636265457 -0.0992166027 0.5601661801 4289953111
-0.2636678219 -0.0986096635 0.5602538586 4289953111
-0.2637088597 -0.0980024338 0.5603411198 4290150490
-0.2637496889 -0.0973949209 0.5604278445 4290150490
-0.2642109692 -0.0969415009 0.5614079833 4290282076
-0.2642513514 -0.0963324606 0.5614938140 4290413662
-0.2642914951 -0.0957231373 0.5615791082 4290347869
-0.2639105022 -0.0949620903 0.5607694983 4290216283
-0.2639500797 -0.0943531841 0.5608536601 4290347869
-0.2639894485 -0.0937440097 0.5609372854 4290282076
-0.2640285492 -0.0931345671 0.5610203743 4289888347
-0.2640674114 -0.0925248563 0.5611029863 4289756761
-0.2641060352 -0.0919148698 0.5611850619 4289493851
-0.2641444206 -0.0913046151 0.5612666011 4289428058
-0.2641825676 -0.0906940997 0.5613476038 4290215004
-0.2646418512 -0.0902270004 0.5623235703 4289754453
-0.2651010156 -0.0897576809 0.5632992387 4284831347
-0.2651385367 -0.0891444311 0.5633789301 4284305003
-0.2651758194 -0.0885309204 0.5634581447 4282606243
-0.2652128339 -0.0879171491 0.5635368228 4283593138
-0.2652496099 -0.0873031244 0.5636149645 4283529403
-0.2652861476 -0.0866888463 0.5636925697 4282476715
-0.2653224170 -0.0860743076 0.5637696385 4282276254
-0.2653584480 -0.0854595304 0.5638462305 4282473633
-0.2653942406 -0.0848444924 0.5639222264 4282146721
-0.2654297650 -0.0842292085 0.5639977455 4282080928
-0.2654650509 -0.0836136863 0.5640727282 4282343071
-0.2655000985 -0.0829979107 0.5641471744 4282343071
-0.2655348778 -0.0823818967 0.5642210841 4282015651
-0.2659916282 -0.0818956345 0.5651916265 4282015651
-0.2660259604 -0.0812781528 0.5652645826 4282146470
-0.2660600543 -0.0806604400 0.5653370023 4282146470
-0.2660938799 -0.0800424889 0.5654088855 4282343591
-0.2665499151 -0.0795503706 0.5663778782 4282738349
-0.2670057714 -0.0790560618 0.5673465133 4282738349
-0.2674614787 -0.0785595551 0.5683148503 4281356696
-0.2674944699 -0.0779377222 0.5683849454 4284573292
-0.2679498196 -0.0774378106 0.5693525076 4289244595
-0.2684050500 -0.0769357011 0.5703197718 4292204238
-0.2727074325 -0.1783825457 0.5808324218 4283324264
-0.2719589472 -0.1772493720 0.5792382956 4282079613
-0.2716195285 -0.1763853878 0.5785153508 4283987610
-0.2704601288 -0.1749924570 0.5760459900 4282808493
-0.2676603198 -0.1725475341 0.5700827241 4282940079
-0.2648588419 -0.1701147705 0.5641159415 4282874032
-0.2612354755 -0.1671693474 0.5563986301 4283137204
-0.2584304512 -0.1647628099 0.5504242778 4284056759
-0.2568547428 -0.1631503701 0.5470681787 4283793587
-0.2560988069 -0.1620641798 0.5454581380 4283531185
-0.2553422749 -0.1609811783 0.5438468456 4284057529
-0.2554063797 -0.1604171842 0.5439833999 4284650695
-0.2550595701 -0.1595957726 0.5432447195 4283400628
-0.2551231682 -0.1590318382 0.5433802009 4284256450
-0.2551865876 -0.1584674865 0.5435152650 4284190657
-0.2552498281 -0.1579027176 0.5436499119 4283464622
-0.2553128600 -0.1573375314 0.5437842011 4283333036
-0.2553756833 -0.1567719281 0.5439180136 4283399598
-0.2554383278 -0.1562058926 0.5440514684 4283596977
-0.2555007935 -0.1556394547 0.5441844463 4285039261
-0.2551514804 -0.1548228860 0.5434405208 4286749879
-0.2552134395 -0.1542565227 0.5435724854 4290482802
-0.2556869388 -0.1539376527 0.5445809364 4290219630
-0.2557485998 -0.1533695459 0.5447122455 4290154344
-0.2558100522 -0.1528010517 0.5448431373 4290220137
-0.2558712959 -0.1522321403 0.5449736118 4290416485
-0.2559323609 -0.1516628116 0.5451036692 4290350692
-0.2559932172 -0.1510930806 0.5452333093 4290153570
-0.2560538948 -0.1505229473 0.5453624725 4290087777
-0.2561143339 -0.1499524117 0.5454912782 4290153572
-0.2561745942 -0.1493814737 0.5456196070 4290219365
-0.2566472888 -0.1490497589 0.5466263294 4290416744
-0.2567072213 -0.1484770924 0.5467540026 4290285158
-0.2567669749 -0.1479040235 0.5468812585 4290350949
-0.2564136088 -0.1470936835 0.5461286306 4290285156
-0.2568858564 -0.1467566937 0.5471344590 4290153570
-0.2569449842 -0.1461824328 0.5472604036 4290087777
-0.2570039034 -0.1456077695 0.5473859310 4290087779
-0.2570626438 -0.1450327188 0.5475110412 4289956193
-0.2571211457 -0.1444572657 0.5476356745 4289693021
-0.2571794689 -0.1438814253 0.5477598310 4289890400
-0.2572375834 -0.1433051974 0.5478836298 4289891168
-0.2577091455 -0.1429580450 0.5488879681 4290022754
-0.2577669322 -0.1423801035 0.5490110517 4289956961
-0.2578245103 -0.1418017894 0.5491336584 4290022754
-0.2578818500 -0.1412230730 0.5492558479 4290220135
-0.2579390109 -0.1406439841 0.5493775606 4290220135
-0.2579959631 -0.1400644928 0.5494988561 4290482539
-0.2580527067 -0.1394846290 0.5496197343 4290548332
-0.2581092417 -0.1389043927 0.5497401357 4290351721
-0.2581655383 -0.1383237541 0.5498600602 4290285928
-0.2582216561 -0.1377427578 0.5499795675 4290286187
-0.2582775354 -0.1371613741 0.5500985980 4290351980
-0.2583332360 -0.1365796030 0.5502172112 4290351982
-0.2588034272 -0.1362157613 0.5512186885 4290286189
-0.2588587701 -0.1356323212 0.5513365865 4290155630
-0.2589139044 -0.1350484937 0.5514540076 4290418802
-0.2589688301 -0.1344643086 0.5515709519 4291010939
-0.2590235174 -0.1338797361 0.5516874194 4290813560
-0.2590779960 -0.1332948059 0.5518034697 4290156144
-0.2591322660 -0.1327095032 0.5519190431 4290221937
-0.2591863275 -0.1321238428 0.5520341992 4290288244
-0.2592401505 -0.1315378100 0.5521488190 4290222451
-0.2588782310 -0.1307415515 0.5513780117 4290156660
-0.2589315474 -0.1301557273 0.5514915586 4290090867
-0.2589846551 -0.1295695454 0.5516046286 4290156660
-0.2590375245 -0.1289830059 0.5517172813 4290156660
-0.2590901852 -0.1283961087 0.5518293977 4290222453
-0.2591426373 -0.1278088391 0.5519410968 4290222453
-0.2591948509 -0.1272212267 0.5520523190 4290288246
-0.2592468560 -0.1266332567 0.5521631241 4290354039
-0.2592986226 -0.1260449439 0.5522733927 4290354041
-0.2593501806 -0.1254562587 0.5523831844 4290288248
-0.2594015300 -0.1248672381 0.5524925590 4290222712
-0.2594526410 -0.1242778674 0.5526013970 4290222712
-0.2595035434 -0.1236881465 0.5527098179 4290156919
-0.2595542073 -0.1230980828 0.5528177619 4290156919
-0.2600213587 -0.1227043122 0.5538127422 4290091126
-0.2600716650 -0.1221126020 0.5539198518 4290025333
-0.2601217628 -0.1215205565 0.5540265441 4290221685
-0.2601716220 -0.1209281683 0.5541327596 4290024306
-0.2602212429 -0.1203354448 0.5542384386 4289827697
-0.2602706552 -0.1197423786 0.5543437004 4289761904
-0.2603198588 -0.1191489697 0.5544484854 4289695339
-0.2603688240 -0.1185552329 0.5545527339 4289629546
-0.2604175508 -0.1179611608 0.5546565056 4289563494
-0.2604660392 -0.1173667535 0.5547598600 4289300322
-0.2605143189 -0.1167720184 0.5548626781 4289628000
-0.2605623901 -0.1161769480 0.5549650192 4289628000
-0.2606101930 -0.1155815497 0.5550668836 4289692508
-0.2614932358 -0.1153543741 0.5569476485 4289626715
-0.2615407407 -0.1147564128 0.5570488572 4289888601
-0.2615880370 -0.1141581312 0.5571495295 4289954394
-0.2616350949 -0.1135595217 0.5572497845 4289755732
-0.2616819143 -0.1129605919 0.5573495030 4288768837
-0.2617285252 -0.1123613343 0.5574487448 4287979321
-0.2617748976 -0.1117617637 0.5575475097 4288966216
-0.2618210316 -0.1111618802 0.5576457381 4289690194
-0.2618669271 -0.1105616763 0.5577434897 4289690194
-0.2614941895 -0.1097854972 0.5569496751 4289558353
-0.2615395486 -0.1091856211 0.5570462942 4289755732
-0.2615846992 -0.1085854396 0.5571423769 4289887318
-0.2616295815 -0.1079849452 0.5572380424 4289755732
-0.2616742551 -0.1073841378 0.5573331714 4289624146
-0.2617186606 -0.1067830324 0.5574277639 4289624146
-0.2617628574 -0.1061816141 0.5575218797 4289557840
-0.2618068159 -0.1055798978 0.5576155186 4289623633
-0.2618505359 -0.1049778759 0.5577086210 4289623633
-0.2623130679 -0.1045425534 0.5586937666 4289623633
-0.2623564005 -0.1039389670 0.5587860346 4289689428
-0.2619802952 -0.1031700075 0.5579850078 4289557842
-0.2620230913 -0.1025667936 0.5580761433 4289492560
-0.2624849379 -0.1021264270 0.5590597987 4289426767
-0.2629466653 -0.1016838253 0.5600432754 4289557840
-0.2629888654 -0.1010778025 0.5601331592 4289557840
-0.2630308270 -0.1004714817 0.5602225065 4289557840
-0.2630725503 -0.0998648703 0.5603113770 4289689426
-0.2631140351 -0.0992579758 0.5603997111 4289558353
-0.2631552815 -0.0986507908 0.5604875684 4289558353
-0.2631962895 -0.0980433226 0.5605748892 4289557840
-0.2632370591 -0.0974355713 0.5606617332 4289557840
-0.2636974752 -0.0969819725 0.5616423488 4289689426
-0.2637378275 -0.0963726863 0.5617282987 4289755219
-0.2637779117 -0.0957631245 0.5618137121 4289689428
-0.2638177872 -0.0951532871 0.5618985891 4289623635
-0.2634372413 -0.0943926275 0.5610880852 4289821014
-0.2638967633 -0.0939327851 0.5620668530 4289689428
-0.2639358938 -0.0933221206 0.5621501803 4289755736
-0.2639747858 -0.0927111953 0.5622330308 4289755736
-0.2640134394 -0.0920999944 0.5623152852 4289821788
-0.2640518248 -0.0914885253 0.5623970628 4290019167
-0.2645105124 -0.0910214931 0.5633740425 4290280544
-0.2645484805 -0.0904085264 0.5634548664 4289885786
-0.2645861804 -0.0897952840 0.5635352135 4284897401
-0.2646236718 -0.0891817883 0.5636150241 4284371057
-0.2646608949 -0.0885680318 0.5636943579 4282408351
-0.2646978796 -0.0879540145 0.5637730956 4282934695
-0.2651554942 -0.0874786004 0.5647478104 4282673581
-0.2651920319 -0.0868630931 0.5648255944 4282147237
-0.2652283311 -0.0862473324 0.5649029613 4282342049
-0.2648433447 -0.0854954049 0.5640829206 4282473635
-0.2648790777 -0.0848801211 0.5641590357 4282212001
-0.2649145722 -0.0842645913 0.5642346740 4282080415
-0.2649498284 -0.0836488158 0.5643097162 4282408351
-0.2649848163 -0.0830327868 0.5643842816 4282408351
-0.2658622563 -0.0826785788 0.5662530661 4282212514
-0.2658968568 -0.0820601135 0.5663267374 4282212514
-0.2659312189 -0.0814414024 0.5663999319 4282212262
-0.2659653127 -0.0808224604 0.5664725900 4282278055
-0.2659991682 -0.0802032724 0.5665447116 4282475175
-0.2660327554 -0.0795838535 0.5666162372 4282869933
-0.2664877772 -0.0790893435 0.5675853491 4283001003
-0.2669426501 -0.0785926357 0.5685541630 4281421971
-0.2669755816 -0.0779705495 0.5686243176 4285165175
-0.2674300969 -0.0774704367 0.5695923567 4289573306
-0.2678844631 -0.0769681185 0.5705600977 4292204753
-0.2713528275 -0.1779173613 0.5793177485 4283324264
-0.2701969147 -0.1765185297 0.5768499374 4282145406
-0.2710845172 -0.1764553785 0.5787449479 4284053403
-0.2691094875 -0.1745314449 0.5745283961 4282939309
-0.2667241096 -0.1723517179 0.5694357753 4283005102
-0.2643373013 -0.1701823771 0.5643401146 4282874032
-0.2611304224 -0.1674983650 0.5574936867 4283202997
-0.2583310902 -0.1650899947 0.5515173078 4284977861
-0.2563491166 -0.1632153094 0.5472859144 4284385724
-0.2555947304 -0.1621287167 0.5456753969 4283596208
-0.2552494407 -0.1613042206 0.5449382067 4284517310
-0.2549037635 -0.1604811251 0.5442002416 4284650695
-0.2545576692 -0.1596594155 0.5434613824 4283532214
-0.2546212077 -0.1590953022 0.5435970426 4284782794
-0.2546845675 -0.1585307568 0.5437322855 4283598520
-0.2547477186 -0.1579657942 0.5438671112 4283399084
-0.2548106909 -0.1574003994 0.5440015197 4283267498
-0.2548734546 -0.1568346024 0.5441355109 4283333806
-0.2549360096 -0.1562683731 0.5442690849 4283465392
-0.2549983859 -0.1557017416 0.5444022417 4284907422
-0.2550605536 -0.1551346928 0.5445349813 4286683833
-0.2551225424 -0.1545672268 0.5446673036 4290351218
-0.2551843226 -0.1539993435 0.5447992086 4290153839
-0.2552458942 -0.1534310579 0.5449306965 4290088551
-0.2553072870 -0.1528623551 0.5450617075 4290154344
-0.2553684711 -0.1522932351 0.5451923609 4290350949
-0.2554294765 -0.1517237127 0.5453225374 4290350949
-0.2559016645 -0.1513971984 0.5463306904 4290285928
-0.2559623718 -0.1508259326 0.5464602709 4290285928
-0.2560228407 -0.1502542794 0.5465893745 4290416746
-0.2560831308 -0.1496822089 0.5467180610 4290350953
-0.2561432123 -0.1491097510 0.5468463302 4290285160
-0.2562030852 -0.1485368758 0.5469741821 4290285160
-0.2562627792 -0.1479636133 0.5471016169 4290285160
-0.2563222349 -0.1473899335 0.5472285748 4290350953
-0.2563815117 -0.1468158662 0.5473551154 4290220137
-0.2564405799 -0.1462413967 0.5474812388 4290154344
-0.2564994395 -0.1456665397 0.5476068854 4290220137
-0.2565580904 -0.1450912803 0.5477321148 4290220137
-0.2566165626 -0.1445156336 0.5478568673 4290154344
-0.2566747963 -0.1439395845 0.5479812622 4290220137
-0.2567328215 -0.1433631480 0.5481051803 4290285930
-0.2572035193 -0.1430158764 0.5491099954 4290351723
-0.2572612166 -0.1424377412 0.5492332578 4290351980
-0.2573187351 -0.1418592036 0.5493560433 4290351980
-0.2573760450 -0.1412802786 0.5494783521 4290417773
-0.2574331164 -0.1407009810 0.5496002436 4290351980
-0.2579033077 -0.1403461993 0.5506040454 4290417516
-0.2579600811 -0.1397651881 0.5507252216 4290483309
-0.2580166459 -0.1391838044 0.5508459806 4290483309
-0.2580729723 -0.1386020333 0.5509662628 4290417516
-0.2581291199 -0.1380198896 0.5510860682 4290417775
-0.2581850290 -0.1374373585 0.5512054563 4290549361
-0.2582407296 -0.1368544400 0.5513243675 4290484338
-0.2582962215 -0.1362711638 0.5514428616 4290484338
-0.2583515048 -0.1356875002 0.5515608788 4290550389
-0.2584065497 -0.1351034641 0.5516784191 4290945147
-0.2584614158 -0.1345190555 0.5517955422 4291472004
-0.2585160434 -0.1339342892 0.5519121885 4291274625
-0.2585704625 -0.1333491355 0.5520283580 4290551418
-0.2586246729 -0.1327636242 0.5521441102 4290551418
-0.2586786747 -0.1321777403 0.5522593260 4290683004
-0.2587324381 -0.1315914840 0.5523741841 4290617211
-0.2587859929 -0.1310048699 0.5524885058 4290748797
-0.2588393390 -0.1304178834 0.5526023507 4290748797
-0.2588924468 -0.1298305392 0.5527157784 4290748797
-0.2589453459 -0.1292428374 0.5528287292 4290748797
-0.2589980364 -0.1286547780 0.5529412031 4290814590
-0.2590505183 -0.1280663610 0.5530532002 4290814590
-0.2591027617 -0.1274775863 0.5531647205 4290814590
-0.2591547668 -0.1268884540 0.5532758236 4290814590
-0.2592065930 -0.1262989640 0.5533863902 4290880383
-0.2592581511 -0.1257091314 0.5534965396 4290880383
-0.2593095303 -0.1251189262 0.5536062121 4290814849
-0.2593606710 -0.1245283931 0.5537154078 4290749056
-0.2594116032 -0.1239375025 0.5538240671 4290749056
-0.2594622970 -0.1233462617 0.5539323092 4290683263
-0.2595127523 -0.1227546856 0.5540400743 4290617470
-0.2595629990 -0.1221627519 0.5541473627 4290551677
-0.2596130371 -0.1215704829 0.5542541742 4290748545
-0.2596628368 -0.1209778711 0.5543605089 4290551166
-0.2597124279 -0.1203849167 0.5544663668 4290420093
-0.2597617805 -0.1197916269 0.5545716882 4290354300
-0.2598108947 -0.1191979945 0.5546765924 4290354041
-0.2598598003 -0.1186040342 0.5547810197 4290222455
-0.2599084973 -0.1180097312 0.5548849106 4290287730
-0.2599569261 -0.1174151003 0.5549883842 4290156144
-0.2608385086 -0.1171945557 0.5568704605 4290220396
-0.2608866692 -0.1165973544 0.5569732785 4290088810
-0.2609345913 -0.1159998253 0.5570755601 4290021475
-0.2609822750 -0.1154019609 0.5571773648 4290021475
-0.2610297501 -0.1148037687 0.5572786927 4290348898
-0.2610769868 -0.1142052561 0.5573795438 4290348898
-0.2611239851 -0.1136064157 0.5574799180 4290018904
-0.2611707449 -0.1130072549 0.5575797558 4288703044
-0.2612172961 -0.1124077737 0.5576791167 4287650869
-0.2612636089 -0.1118079722 0.5577780008 4289164108
-0.2613096833 -0.1112078503 0.5578764081 4290085210
-0.2613555491 -0.1106074154 0.5579742789 4290151003
-0.2614011467 -0.1100066602 0.5580716729 4289953624
-0.2614465356 -0.1094055995 0.5581685305 4289953624
-0.2614916861 -0.1088042185 0.5582649112 4290151003
-0.2615365982 -0.1082025245 0.5583608150 4290085210
-0.2615812719 -0.1076005325 0.5584562421 4290018906
-0.2616257370 -0.1069982201 0.5585511327 4290084699
-0.2616699338 -0.1063956097 0.5586454868 4289887320
-0.2617139220 -0.1057926938 0.5587394238 4289953113
-0.2617576718 -0.1051894724 0.5588328242 4289887320
-0.2618011832 -0.1045859531 0.5589256883 4289887320
-0.2618444562 -0.1039821282 0.5590180755 4290084699
-0.2618874907 -0.1033780053 0.5591099262 4289953113
-0.2619302869 -0.1027735919 0.5592013001 4289689939
-0.2623913288 -0.1023320854 0.5601856112 4289624146
-0.2624337375 -0.1017261073 0.5602761507 4289624146
-0.2624758780 -0.1011198461 0.5603660941 4289558353
-0.2625178099 -0.1005132869 0.5604556203 4289624146
-0.2625594735 -0.0999064371 0.5605446100 4289689939
-0.2630197406 -0.0994576737 0.5615271926 4289558353
-0.2630609870 -0.0988492817 0.5616152883 4289558353
-0.2631020248 -0.0982406065 0.5617028475 4289689428
-0.2631427944 -0.0976316407 0.5617899299 4289689428
-0.2631833255 -0.0970223993 0.5618764758 4289623635
-0.2632236481 -0.0964128748 0.5619625449 4289689428
-0.2632637024 -0.0958030671 0.5620480180 4289689428
-0.2633035183 -0.0951929912 0.5621330142 4289689428
-0.2633430660 -0.0945826322 0.5622175336 4289821014
-0.2633824050 -0.0939719975 0.5623015165 4289689428
-0.2634215057 -0.0933610946 0.5623849630 4289689943
-0.2634603381 -0.0927499235 0.5624678731 4289887322
-0.2639185190 -0.0922851935 0.5634460449 4290150240
-0.2639569342 -0.0916725099 0.5635280609 4290347619
-0.2639951110 -0.0910595506 0.5636095405 4290149476
-0.2640330493 -0.0904463306 0.5636905432 4289491546
-0.2640707195 -0.0898328498 0.5637709498 4284306812
-0.2641081512 -0.0892191082 0.5638508797 4283912054
-0.2641453445 -0.0886051059 0.5639302731 4282276767
-0.2641822696 -0.0879908428 0.5640091896 4282474146
-0.2646390498 -0.0875152349 0.5649843216 4282146721
-0.2646755576 -0.0868994817 0.5650622249 4282015135
-0.2647117972 -0.0862834752 0.5651396513 4282276256
-0.2647478282 -0.0856672153 0.5652165413 4282276256
-0.2643632889 -0.0849157050 0.5643956065 4282014624
-0.2643987536 -0.0842999294 0.5644713044 4281948831
-0.2644339502 -0.0836839005 0.5645464659 4282342560
-0.2648893595 -0.0831996948 0.5655187368 4282408353
-0.2653446496 -0.0827132836 0.5664907098 4282343589
-0.2653792202 -0.0820945650 0.5665645003 4282343589
-0.2654135227 -0.0814756081 0.5666378140 4282344102
-0.2654475868 -0.0808564052 0.5667105317 4282475688
-0.2654814124 -0.0802369714 0.5667827129 4282738349
-0.2659357786 -0.0797434747 0.5677527189 4283198900
-0.2659691274 -0.0791225880 0.5678239465 4283263913
-0.2664231360 -0.0786256790 0.5687932372 4281553295
-0.2664560378 -0.0780033469 0.5688634515 4286020486
-0.2669096887 -0.0775030255 0.5698319674 4290297031
-0.2673631907 -0.0770005062 0.5708001852 4292731614
-0.2700008452 -0.1774516702 0.5778014064 4283126372
-0.2696629465 -0.1765884310 0.5770783424 4282013561
-0.2689166069 -0.1754602790 0.5754811764 4284118937
-0.2681696117 -0.1743352711 0.5738826394 4282939050
-0.2657889128 -0.1721556336 0.5687879324 4283004843
-0.2642235160 -0.1705134511 0.5654379725 4283136690
-0.2606146634 -0.1675648540 0.5577149987 4283465655
-0.2578209043 -0.1651555598 0.5517363548 4285306313
-0.2562515736 -0.1635410041 0.5483780503 4284648383
-0.2550900578 -0.1621931791 0.5458923578 4282938020
-0.2547454834 -0.1613683999 0.5451549888 4284714431
-0.2539915442 -0.1602868885 0.5435415506 4285110730
-0.2540552020 -0.1597229987 0.5436777472 4283663284
-0.2537094653 -0.1589023918 0.5429378748 4284058558
-0.2541819513 -0.1585939378 0.5439490080 4283532214
-0.2538356185 -0.1577743143 0.5432078242 4283267498
-0.2543078959 -0.1574632078 0.5442185402 4283201705
-0.2543706000 -0.1568972021 0.5443527102 4283268272
