VERSION 0.7
FIELDS x y z rgba
SIZE 4 4 4 4
TYPE F F F U
COUNT 1 1 1 1
WIDTH 920
HEIGHT 1
VIEWPOINT 0.0 0.0 0.0 1.0 0.0 0.0 0.0
POINTS 920
DATA ascii
-0.2861492634 -0.1735885143 0.5953776836 4289968058
-0.2858005464 -0.1727162600 0.5946521163 4289638323
-0.2854513824 -0.1718453616 0.5939256549 4289704116
-0.2851018012 -0.1709758341 0.5931982994 4289967286
-0.2843324542 -0.1698571295 0.5915974975 4289769907
-0.2810456157 -0.1672439128 0.5847587585 4289967286
-0.2823722661 -0.1673805863 0.5875190496 4290625216
-0.2774041891 -0.1637943983 0.5771822333 4290493630
-0.2699148357 -0.1587482989 0.5615994334 4290559423
-0.2645210326 -0.1549644768 0.5503768325 4290756802
-0.2620642483 -0.1529193819 0.5452650785 4290493630
-0.2604461908 -0.1513731331 0.5418984890 4290559164
-0.2596674860 -0.1503202617 0.5402782559 4288651167
-0.2601490021 -0.1499976069 0.5412801504 4280361249
-0.2593694031 -0.1489485055 0.5396580696 4279703319
-0.2594301701 -0.1483836472 0.5397844911 4287795860
-0.2594906986 -0.1478184015 0.5399104357 4290493373
-0.2595510483 -0.1472527534 0.5400360227 4290558912
-0.2596111894 -0.1466867179 0.5401611328 4290690498
-0.2600919902 -0.1463571042 0.5411614776 4290624959
-0.2601518035 -0.1457893699 0.5412859917 4290690752
-0.2602114379 -0.1452212334 0.5414100289 4290493884
-0.2602708340 -0.1446527094 0.5415336490 4290099126
-0.2607513070 -0.1443169415 0.5425332785 4289770159
-0.2608104050 -0.1437467188 0.5426562428 4290625468
-0.2604478598 -0.1429448128 0.5419019461 4291875535
-0.2609279752 -0.1426051110 0.5429009199 4291283398
-0.2614080608 -0.1422631890 0.5438998342 4291151560
-0.2614664137 -0.1416905075 0.5440212488 4290427837
-0.2632118165 -0.1420278698 0.5476528406 4288585635
-0.2645358741 -0.1421307772 0.5504077077 4287467154
-0.2650162578 -0.1417762190 0.5514072180 4285690743
-0.2650745213 -0.1411945969 0.5515283942 4285098606
-0.2621772587 -0.1390452683 0.5455002189 4284309607
-0.2660349309 -0.1404761672 0.5535267591 4283059540
-0.2631361485 -0.1383371949 0.5474953651 4282992977
-0.2674176991 -0.1399699152 0.5564038157 4281545531
-0.2805725336 -0.1319371760 0.5837744474 4280822837
-0.2806273699 -0.1313142180 0.5838885307 4281546560
-0.2840790451 -0.1322726309 0.5910702348 4287336346
-0.2866823375 -0.1328220367 0.5964868069 4288981171
-0.2858880162 -0.1317931265 0.5948340893 4288586414
-0.2855179906 -0.1309624910 0.5940642357 4288191656
-0.2876973152 -0.1312970370 0.5985986590 4290232008
-0.2886020839 -0.1310427636 0.6004811525 4291876833
-0.2895069420 -0.1307843477 0.6023638248 4292468970
-0.2843998075 -0.1801756918 0.5931082964 4291415253
-0.2844723165 -0.1795624644 0.5932595134 4291349460
-0.2841273546 -0.1786863804 0.5925401449 4291086547
-0.2841993272 -0.1780731231 0.5926902294 4290889168
-0.2842710912 -0.1774594039 0.5928398967 4290954959
-0.2843426466 -0.1768452078 0.5929890871 4290823373
-0.2844139636 -0.1762305498 0.5931378603 4290625733
-0.2844850719 -0.1756154299 0.5932861567 4290428354
-0.2845560014 -0.1749998629 0.5934340358 4290427839
-0.2842087150 -0.1741277575 0.5927098393 4290164667
-0.2842791080 -0.1735121608 0.5928565860 4289704631
-0.2843492627 -0.1728961170 0.5930029154 4289638838
-0.2844192088 -0.1722796112 0.5931487679 4289244333
-0.2844889462 -0.1716626585 0.5932942033 4289244333
-0.2841399908 -0.1707937121 0.5925664306 4289704114
-0.2825348973 -0.1691742390 0.5892190933 4289835700
-0.2838594615 -0.1693096310 0.5919814706 4290098872
-0.2751339078 -0.1634677052 0.5737844706 4290691009
-0.2689171135 -0.1591509581 0.5608195662 4290691009
-0.2639540136 -0.1556020826 0.5504691601 4290493630
-0.2615027428 -0.1535511166 0.5453571081 4290625216
-0.2615651488 -0.1529816687 0.5454872251 4290625216
-0.2599502206 -0.1514348239 0.5421193242 4290559164
-0.2591730654 -0.1503815502 0.5404985547 4288716960
-0.2588147521 -0.1495739520 0.5397513509 4281216558
-0.2588756382 -0.1490093023 0.5398783684 4280624421
-0.2589968145 -0.1478787810 0.5401310325 4290427580
-0.2590570748 -0.1473129392 0.5402567387 4290559166
-0.2591171563 -0.1467466950 0.5403820276 4290624959
-0.2595970929 -0.1464169770 0.5413828492 4290493373
-0.2596568465 -0.1458490342 0.5415074825 4290559166
-0.2592961490 -0.1450456083 0.5407552719 4290428091
-0.2593553960 -0.1444777995 0.5408788323 4290230712
-0.2598348856 -0.1441428512 0.5418788195 4289901745
-0.2598938346 -0.1435733438 0.5420017242 4290625468
-0.2599525750 -0.1430034488 0.5421242118 4291678156
-0.2600110769 -0.1424331665 0.5422462821 4289375401
-0.2600694001 -0.1418624967 0.5423678756 4289506735
-0.2605484426 -0.1415200830 0.5433669090 4287401359
-0.2606064379 -0.1409477293 0.5434878469 4287730326
-0.2615064085 -0.1408285499 0.5453647375 4287006603
-0.2628277838 -0.1409311295 0.5481203794 4285098607
-0.2624643147 -0.1401280761 0.5473623872 4283914333
-0.2629432082 -0.1397745013 0.5483611822 4283256149
-0.2638435662 -0.1396417469 0.5502387881 4283058770
-0.2822690904 -0.1317343265 0.5886647701 4288454827
-0.2848672867 -0.1322868168 0.5940831900 4288849585
-0.2844982445 -0.1314562261 0.5933135748 4288257449
-0.2858251035 -0.1314070374 0.5960807204 4289178551
-0.2863038778 -0.1309637576 0.5970792174 4291218648
-0.2867825925 -0.1305182278 0.5980775356 4292271336
-0.2872612178 -0.1300704330 0.5990756750 4292666349
-0.2826066613 -0.1794553399 0.5907370448 4291349719
-0.2830950618 -0.1791080087 0.5917579532 4291152340
-0.2831670642 -0.1784958988 0.5919084549 4290758352
-0.2828223109 -0.1776217371 0.5911878347 4290626766
-0.2828937769 -0.1770095974 0.5913372040 4290823373
-0.2829650342 -0.1763969958 0.5914861560 4290625994
-0.2830360830 -0.1757839322 0.5916346908 4290362561
-0.2831069231 -0.1751704216 0.5917827487 4290165182
-0.2831775248 -0.1745564342 0.5919303298 4289967803
-0.2832479477 -0.1739419997 0.5920774937 4289770424
-0.2829008698 -0.1730718315 0.5913520455 4289441972
-0.2829707563 -0.1724573821 0.5914980769 4289310386
-0.2830404043 -0.1718424708 0.5916436911 4289178540
-0.2831098437 -0.1712271273 0.5917888880 4289046954
-0.2827614248 -0.1703596711 0.5910605192 4289441712
-0.2824125588 -0.1694935858 0.5903313160 4289770677
-0.2812275290 -0.1681292355 0.5878542662 4290098872
-0.2787877917 -0.1660231650 0.5827543736 4290559423
-0.2730019987 -0.1619435847 0.5706602931 4290691009
-0.2634496391 -0.1556653082 0.5506928563 4290427837
-0.2672772408 -0.1573061794 0.5586937070 4290690752
-0.2589735687 -0.1518175900 0.5413364172 4290822338
-0.2590351701 -0.1512521058 0.5414652228 4290690750
-0.2586780190 -0.1504427791 0.5407186151 4288716960
-0.2591578066 -0.1501199305 0.5417215228 4281677109
-0.2583812773 -0.1490700245 0.5400983691 4281282351
-0.2584418952 -0.1485047638 0.5402250886 4288256411
-0.2585023046 -0.1479391158 0.5403513312 4290427580
-0.2585625052 -0.1473730654 0.5404772162 4290624959
-0.2586225271 -0.1468066126 0.5406026244 4290690752
-0.2591015697 -0.1464767903 0.5416040421 4290493373
-0.2591612637 -0.1459086388 0.5417287946 4290493373
-0.2588013113 -0.1451049149 0.5409764051 4290428091
-0.2584409714 -0.1443026513 0.5402231216 4290296505
-0.2589195073 -0.1439684927 0.5412234068 4289967538
-0.2593980134 -0.1436321139 0.5422236323 4290559675
-0.2590368390 -0.1428305358 0.5414686799 4291414984
-0.2590952218 -0.1422609687 0.5415906906 4287664783
-0.2591533661 -0.1416910142 0.5417122841 4288454047
-0.2592113316 -0.1411206871 0.5418334007 4284440674
-0.2596892715 -0.1407777667 0.5428324938 4287269775
-0.2605875134 -0.1406594962 0.5447100997 4286480259
-0.2610655129 -0.1403111815 0.5457092524 4284111712
-0.2602820098 -0.1392855942 0.5440714955 4283322196
-0.2590773702 -0.1380392313 0.5415533781 4283321942
-0.2603959739 -0.1381370425 0.5443097353 4281940289
-0.2816775143 -0.1324176192 0.5887948275 4286349451
-0.2817324102 -0.1317891032 0.5889095664 4289046964
-0.2826332748 -0.1315540969 0.5907926559 4288520620
-0.2822646499 -0.1307269633 0.5900221467 4288126377
-0.2835887074 -0.1306815594 0.5927898288 4290165960
-0.2857596874 -0.1310182959 0.5973278880 4292139750
-0.2862375379 -0.1305726022 0.5983267426 4292534508
-0.2812330425 -0.1789986789 0.5892337561 4291153110
-0.2817203701 -0.1786530316 0.5902547836 4290889938
-0.2813764513 -0.1777799129 0.5895342231 4290757580
-0.2814478278 -0.1771698445 0.5896837711 4290560201
-0.2815190256 -0.1765592992 0.5898329020 4290626248
-0.2815899849 -0.1759482920 0.5899816155 4290428869
-0.2816607356 -0.1753368229 0.5901298523 4290165182
-0.2817312777 -0.1747249067 0.5902776718 4289967803
-0.2818016112 -0.1741125137 0.5904250145 4289770424
-0.2818717360 -0.1734996736 0.5905719399 4289573045
-0.2815251946 -0.1726310104 0.5898458362 4289244595
-0.2815947831 -0.1720181555 0.5899916291 4289113009
-0.2816641629 -0.1714048535 0.5901370049 4288717989
-0.2817333043 -0.1707910895 0.5902819037 4288783782
-0.2818022668 -0.1701768935 0.5904263854 4289375919
-0.2810370624 -0.1690605730 0.5888231397 4289836470
-0.2798541784 -0.1676975191 0.5863447785 4289968056
-0.2770017684 -0.1653434336 0.5803684592 4290362814
-0.2708095610 -0.1610168666 0.5673946738 4290822595
-0.2654488981 -0.1572116017 0.5561631322 4290559423
-0.2625902295 -0.1549072862 0.5501736999 4290756545
-0.2605651021 -0.1531060636 0.5459307432 4290888131
-0.2589564621 -0.1515580118 0.5425603390 4290822336
-0.2586001456 -0.1507474780 0.5418137908 4288585374
-0.2586612999 -0.1501809806 0.5419418812 4281347631
-0.2578863204 -0.1491306871 0.5403181314 4281018666
-0.2575287819 -0.1483244300 0.5395690799 4288190103
-0.2575890422 -0.1477594972 0.5396953225 4290624444
-0.2576490939 -0.1471941620 0.5398210883 4290624959
-0.2577089369 -0.1466284245 0.5399464965 4290756545
-0.2586054802 -0.1465365291 0.5418249369 4290624959
-0.2582465410 -0.1457319856 0.5410729051 4290559166
-0.2583058774 -0.1451641470 0.5411972404 4290493884
-0.2579462528 -0.1443615854 0.5404437780 4290362298
-0.2584239244 -0.1440273225 0.5414445400 4289967538
-0.2584826350 -0.1434583217 0.5415675640 4290493882
-0.2581221163 -0.1426573545 0.5408121943 4291480777
-0.2581803203 -0.1420885175 0.5409341455 4286941060
-0.2582383156 -0.1415192783 0.5410556793 4286677636
-0.2582961321 -0.1409496665 0.5411767960 4282269505
-0.2583537102 -0.1403796673 0.5412974358 4286743432
-0.2596695721 -0.1404901892 0.5440544486 4285690744
-0.2601466179 -0.1401426792 0.5450538993 4283321942
-0.2585252225 -0.1386674047 0.5416567922 4283124563
-0.2594215274 -0.1385442615 0.5435346961 4282598219
-0.2607378364 -0.1386402696 0.5462926626 4280163878
-0.2816172540 -0.1320417970 0.5900387168 4289046964
-0.2829388082 -0.1320027858 0.5928076506 4288520620
-0.2825711071 -0.1311734468 0.5920372605 4289245113
-0.2834703922 -0.1309310049 0.5939213634 4291547868
-0.2843697369 -0.1306844205 0.5958057046 4292468715
-0.2796462178 -0.1803613752 0.5872756839 4291349717
-0.2797183692 -0.1797552258 0.5874271989 4291087317
-0.2797902822 -0.1791485995 0.5875782371 4291021524
-0.2798619866 -0.1785415113 0.5877288580 4290889938
-0.2799335122 -0.1779339612 0.5878790021 4290626766
-0.2800047994 -0.1773259342 0.5880287290 4290560201
-0.2796609700 -0.1764556468 0.5873066783 4290428615
-0.2797317505 -0.1758476049 0.5874553323 4290296770
-0.2798023224 -0.1752391011 0.5876035094 4290099391
-0.2798726857 -0.1746301353 0.5877513289 4289902010
-0.2799428403 -0.1740207076 0.5878986120 4289704631
-0.2800127864 -0.1734108180 0.5880455375 4289507765
-0.2800825238 -0.1728004813 0.5881919265 4289310386
-0.2801520526 -0.1721896827 0.5883379579 4289047214
-0.2802213430 -0.1715784371 0.5884835124 4288784042
-0.2802904546 -0.1709667444 0.5886285901 4288849575
-0.2803593278 -0.1703545898 0.5887732506 4288783782
-0.2804279923 -0.1697419882 0.5889174938 4289573298
-0.2796641290 -0.1686270684 0.5873132944 4290033849
-0.2784833610 -0.1672653109 0.5848336220 4290099642
-0.2677252889 -0.1601790041 0.5622408986 4290494400
-0.2748699486 -0.1638122797 0.5772452354 4290757056
-0.2636887729 -0.1565334350 0.5537639856 4290559677
-0.2612520158 -0.1544773281 0.5486466289 4290888129
-0.2596474290 -0.1529226899 0.5452768803 4290822336
-0.2584587038 -0.1516195089 0.5427804589 4290888129
-0.2581031024 -0.1508086622 0.5420337319 4288651167
-0.2573300600 -0.1497565359 0.5404102206 4280821287
-0.2569735646 -0.1489494741 0.5396615863 4280558115
-0.2570941150 -0.1478195935 0.5399147868 4290756030
-0.2571541071 -0.1472540498 0.5400407314 4290624705
-0.2572138906 -0.1466881186 0.5401662588 4290756291
-0.2576911151 -0.1463589966 0.5411685109 4290690752
-0.2581683099 -0.1460276544 0.5421707034 4290690752
-0.2573919892 -0.1449879557 0.5405403376 4290625470
-0.2574509680 -0.1444204599 0.5406641364 4290493884
-0.2575097084 -0.1438525617 0.5407875776 4290099124
-0.2575682700 -0.1432842761 0.5409105420 4290493882
-0.2572084069 -0.1424839348 0.5401547551 4291283400
-0.2572664320 -0.1419157982 0.5402766466 4286546304
-0.2573242784 -0.1413472891 0.5403981209 4284374881
-0.2573819160 -0.1407783926 0.5405191779 4281874747
-0.2578579485 -0.1404370964 0.5415188670 4285756537
-0.2587526441 -0.1403206289 0.5433978438 4284111712
-0.2592287362 -0.1399739385 0.5443975925 4282992977
-0.2576104105 -0.1384990066 0.5409989953 4282532426
-0.2780197561 -0.1319565028 0.5838599801 4285428347
-0.2801809013 -0.1323284954 0.5883985162 4288783790
-0.2802355886 -0.1317004412 0.5885133743 4288324011
-0.2815544903 -0.1316633373 0.5912832022 4288258218
-0.2820848227 -0.1305949390 0.5923969150 4292337384
-0.2786920965 -0.1801662296 0.5866402984 4291218133
-0.2787640393 -0.1795607656 0.5867917538 4290955731
-0.2788357735 -0.1789548397 0.5869427323 4290889938
-0.2784934938 -0.1780838370 0.5862222314 4290758352
-0.2785647213 -0.1774778664 0.5863721371 4290495180
-0.2782216966 -0.1766086370 0.5856501460 4290428869
-0.2782924175 -0.1760026515 0.5857989192 4290231490
-0.2783629000 -0.1753962040 0.5859473348 4290165182
-0.2784331739 -0.1747892946 0.5860952735 4289836217
-0.2785032392 -0.1741819233 0.5862427950 4289507765
-0.2785731256 -0.1735741049 0.5863898396 4289441972
-0.2790574133 -0.1732232124 0.5874093175 4289376179
-0.2787122130 -0.1723570824 0.5866826773 4289244593
-0.2787814438 -0.1717478782 0.5868284106 4288915627
-0.2792654335 -0.1713929027 0.5878471732 4288520869
-0.2793343663 -0.1707819104 0.5879922509 4288586401
-0.2794030607 -0.1701704413 0.5881368518 4287731092
-0.2790562809 -0.1693065912 0.5874068737 4288849575
-0.2782937288 -0.1681930721 0.5858017206 4289704884
-0.2766996324 -0.1665825099 0.5824462175 4290033079
-0.2717799842 -0.1629850864 0.5720904469 4290625216
-0.2647793889 -0.1581676006 0.5573543906 4290691263
-0.2619328201 -0.1558545828 0.5513624549 4290559677
-0.2586688101 -0.1533074677 0.5444917679 4290888129
-0.2599786222 -0.1534757316 0.5472488403 4290690750
-0.2575442493 -0.1514362842 0.5421245694 4290888129
-0.2576054335 -0.1508697867 0.5422533751 4288716960
-0.2576664686 -0.1503028870 0.5423818231 4280690214
-0.2573108971 -0.1494936943 0.5416333675 4280558628
-0.2573714256 -0.1489269137 0.5417607427 4288387995
-0.2570151687 -0.1481196731 0.5410108566 4290624957
-0.2570751905 -0.1475530118 0.5411372185 4290558912
-0.2575517297 -0.1472241879 0.5421403050 4290558912
-0.2571945786 -0.1464185119 0.5413885713 4290493373
-0.2572540045 -0.1458506733 0.5415135622 4290690752
-0.2568961382 -0.1450469643 0.5407603383 4290691263
-0.2565379143 -0.1442447156 0.5400062799 4290625470
-0.2570137382 -0.1439111680 0.5410078764 4290230712
-0.2566549182 -0.1431099772 0.5402525067 4290625470
-0.2562956810 -0.1423102617 0.5394963622 4290822849
-0.2563535571 -0.1417428404 0.5396181941 4285625202
-0.2564112544 -0.1411750466 0.5397396088 4282532677
-0.2564687431 -0.1406068802 0.5398606062 4283124814
-0.2569437921 -0.1402663887 0.5408606529 4285427571
-0.2578367293 -0.1401508301 0.5427402258 4283190609
-0.2583118379 -0.1398049444 0.5437403321 4282598219
-0.2566965818 -0.1383303702 0.5403402448 4280361257
-0.2571711838 -0.1379846632 0.5413392782 4279046167
-0.2580640316 -0.1378601491 0.5432186723 4279243546
-0.2783268690 -0.1324111223 0.5858715177 4287731874
-0.2788020074 -0.1319851130 0.5868716836 4289047734
-0.2801182866 -0.1319530904 0.5896423459 4288324011
-0.2805934250 -0.1315206736 0.5906425714 4288850355
-0.2798062265 -0.1304972917 0.5889855027 4291613661
-0.2775948048 -0.1811789125 0.5856998563 4291218903
-0.2776669562 -0.1805750877 0.5858520865 4291153110
-0.2777389288 -0.1799707860 0.5860038996 4291021524
-0.2773978710 -0.1790995002 0.5852843523 4290824403
-0.2774693370 -0.1784951687 0.5854350924 4290627024
-0.2771275640 -0.1776256561 0.5847139955 4290560973
-0.2771984935 -0.1770212799 0.5848636031 4290363594
-0.2768559754 -0.1761535406 0.5841410160 4290231490
-0.2769263983 -0.1755491495 0.5842895508 4290034111
-0.2769965827 -0.1749442965 0.5844376683 4289968316
-0.2770665884 -0.1743389964 0.5845853686 4289639351
-0.2771363556 -0.1737332195 0.5847325921 4289179316
-0.2772059441 -0.1731269956 0.5848793983 4289047730
-0.2772753239 -0.1725203097 0.5850257874 4289113007
-0.2777584195 -0.1721697748 0.5860450864 4289047214
-0.2774134278 -0.1713055968 0.5853171349 4288849575
-0.2778963149 -0.1709523201 0.5863360167 4288454817
-0.2779649496 -0.1703429222 0.5864808559 4288323229
-0.2780333757 -0.1697330624 0.5866252184 4286481025
-0.2776871324 -0.1688707173 0.5858946443 4288519840
-0.2769259214 -0.1677586138 0.5842885375 4290164665
-0.2753347456 -0.1661492437 0.5809313059 4290098872
-0.2683506608 -0.1613056511 0.5661955476 4290625216
-0.2621926963 -0.1569894403 0.5532027483 4290559677
-0.2601811290 -0.1551750749 0.5489585400 4290559677
-0.2589984834 -0.1538625658 0.5464632511 4290822849
-0.2578150332 -0.1525551379 0.5439662933 4290691263
-0.2566307783 -0.1512527913 0.5414676666 4290888129
-0.2566918433 -0.1506870091 0.5415964723 4288716960
-0.2567526698 -0.1501208395 0.5417248607 4280690214
-0.2563977540 -0.1493122578 0.5409759879 4280756007
-0.2564581037 -0.1487461925 0.5411033034 4288782753
-0.2561025023 -0.1479395777 0.5403530002 4290559164
-0.2561623454 -0.1473736316 0.5404793024 4290624706
-0.2566379309 -0.1470456123 0.5414827466 4290493120
-0.2566974759 -0.1464779675 0.5416083336 4290361787
-0.2567568123 -0.1459099203 0.5417335629 4290493373
-0.2555672228 -0.1446347982 0.5392236710 4290559677
-0.2556258738 -0.1440687180 0.5393474102 4290493884
-0.2561007440 -0.1437359899 0.5403493047 4290099126
-0.2561590672 -0.1431682259 0.5404723883 4290559677
-0.2558005750 -0.1423681974 0.5397160053 4290691263
-0.2558583915 -0.1418005824 0.5398380160 4285296237
-0.2559160292 -0.1412325799 0.5399596095 4283453779
-0.2559734285 -0.1406641901 0.5400807261 4285032811
-0.2564476430 -0.1403235942 0.5410812497 4284835434
-0.2581730485 -0.1406624913 0.5447217226 4282532679
-0.2586474717 -0.1403146386 0.5457227230 4281479738
-0.2566182911 -0.1386122406 0.5414413214 4279505948
-0.2575094700 -0.1384899467 0.5433216095 4279243544
-0.2584008276 -0.1383635551 0.5452023149 4279111958
-0.2765319943 -0.1318655163 0.5834574103 4288718769
-0.2782651186 -0.1320396513 0.5871141553 4288718769
-0.2799986899 -0.1322058439 0.5907717943 4288257963
-0.2796333134 -0.1313778013 0.5900009274 4289968581
-0.2796874940 -0.1307475865 0.5901152492 4292468970
-0.2757476866 -0.1810440123 0.5831691623 4291218903
-0.2758196294 -0.1804431528 0.5833213329 4291021524
-0.2763031721 -0.1801102310 0.5843439698 4291021269
-0.2763748169 -0.1795075238 0.5844954848 4290823890
-0.2764462829 -0.1789043546 0.5846466422 4290561231
-0.2756933272 -0.1777692735 0.5830542445 4290363852
-0.2757641673 -0.1771669686 0.5832040906 4290232008
-0.2758347988 -0.1765642017 0.5833534598 4290034629
-0.2754928172 -0.1756979376 0.5826302171 4289968318
-0.2755629420 -0.1750951558 0.5827784538 4289770939
-0.2756328583 -0.1744918972 0.5829263330 4289705144
-0.2757025659 -0.1738881916 0.5830737352 4289376179
-0.2757720649 -0.1732840240 0.5832207203 4288981937
-0.2758413553 -0.1726794094 0.5833672881 4288784558
-0.2759104371 -0.1720743179 0.5835133791 4288849835
-0.2759793103 -0.1714687943 0.5836590528 4288784042
-0.2760479748 -0.1708628088 0.5838042498 4288651680
-0.2765297890 -0.1705112457 0.5848231912 4288322715
-0.2765981257 -0.1699034572 0.5849677920 4286283132
-0.2766662836 -0.1692952067 0.5851118565 4284111963
-0.2767342031 -0.1686865091 0.5852555633 4287203980
-0.2759743929 -0.1675748974 0.5836486816 4290033079
-0.2735585868 -0.1654651761 0.5785395503 4290098872
-0.2645180225 -0.1593753397 0.5594199896 4290625216
-0.2600274682 -0.1560587287 0.5499230623 4290625470
-0.2588477731 -0.1547424793 0.5474281907 4290625470
-0.2576672733 -0.1534312963 0.5449315906 4290822849
-0.2569003403 -0.1523709595 0.5433095694 4290888642
-0.2561328113 -0.1513138711 0.5416863561 4290953922
-0.2561937869 -0.1507478952 0.5418152809 4288585374
-0.2558398843 -0.1499385089 0.5410668850 4280558628
-0.2554856241 -0.1491305530 0.5403176546 4280887593
-0.2551309466 -0.1483240277 0.5395675898 4288980130
-0.2551908493 -0.1477591991 0.5396942496 4290493369
-0.2552505136 -0.1471939832 0.5398204327 4290690499
-0.2553099990 -0.1466283649 0.5399462581 4290493120
-0.2553692758 -0.1460623443 0.5400716066 4290295994
-0.2554283440 -0.1454959363 0.5401965380 4290361787
-0.2550717890 -0.1446934789 0.5394424796 4290296505
-0.2551303804 -0.1441272050 0.5395663381 4290230712
-0.2556043565 -0.1437943578 0.5405687690 4289901747
-0.2556626201 -0.1432263851 0.5406919718 4290493884
-0.2557206750 -0.1426580399 0.5408147573 4290559677
-0.2557785213 -0.1420892924 0.5409371257 4284638307
-0.2558361888 -0.1415201575 0.5410590768 4283914330
-0.2558936179 -0.1409506500 0.5411805511 4284506467
-0.2563670576 -0.1406090111 0.5421817303 4282993230
-0.2576729953 -0.1407198012 0.5449436307 4281216819
-0.2585629225 -0.1405982375 0.5468257070 4279374362
-0.2569542527 -0.1391197294 0.5434235930 4279176983
-0.2759432495 -0.1325422525 0.5835828185 4286481035
-0.2764165401 -0.1321200877 0.5845837593 4289113272
-0.2773086727 -0.1318948865 0.5864704847 4288455342
-0.2782008946 -0.1316655427 0.5883573890 4288455342
-0.2778360248 -0.1308400035 0.5875857472 4291350234
-0.2743878365 -0.1805753708 0.5816595554 4291218133
-0.2744595110 -0.1799760908 0.5818114877 4291086547
-0.2749419212 -0.1796448678 0.5828341842 4290889938
-0.2750132978 -0.1790437698 0.5829854608 4290889938
-0.2750844657 -0.1784421802 0.5831362605 4290494925
-0.2747441232 -0.1775743067 0.5824148059 4290429132
-0.2744033635 -0.1767077744 0.5816925168 4290232008
-0.2744736969 -0.1761066020 0.5818415880 4289705664
-0.2745438516 -0.1755049676 0.5819903016 4289836478
-0.2742020488 -0.1746406555 0.5812657475 4289902271
-0.2742716968 -0.1740390062 0.5814133286 4290165697
-0.2747530341 -0.1736973077 0.5824337006 4289902525
-0.2748223245 -0.1730938405 0.5825806260 4289836732
-0.2748914361 -0.1724899262 0.5827271342 4289244595
-0.2749603391 -0.1718855351 0.5828732252 4289309875
-0.2750290334 -0.1712807119 0.5830188394 4288915117
-0.2750975192 -0.1706754267 0.5831639767 4288322978
-0.2755783498 -0.1703246683 0.5841832757 4286480774
-0.2756465077 -0.1697175652 0.5843277574 4283059275
-0.2757144868 -0.1691100150 0.5844718218 4281019692
-0.2753693759 -0.1682497710 0.5837402940 4287006855
-0.2737850249 -0.1666368991 0.5803816915 4290559677
-0.2701343894 -0.1637787223 0.5726429224 4290493371
-0.2623502612 -0.1584413946 0.5561417937 4291414473
-0.2586945891 -0.1556243300 0.5483923554 4291282887
-0.2575170398 -0.1543094069 0.5458961129 4291085508
-0.2567521632 -0.1532463431 0.5442746282 4291348680
-0.2559866607 -0.1521865129 0.5426518917 4290756543
-0.2552205622 -0.1511299461 0.5410279036 4291414471
-0.2552813590 -0.1505646855 0.5411568284 4288980130
-0.2553419769 -0.1499990225 0.5412852764 4280953384
-0.2549884319 -0.1491907686 0.5405358672 4281808693
-0.2546344995 -0.1483839452 0.5397855639 4289506476
-0.2542801797 -0.1475785673 0.5390344858 4290953922
-0.2547539175 -0.1472534984 0.5400387645 4291150792
-0.2543990016 -0.1464491636 0.5392863750 4291019206
-0.2548725605 -0.1461214721 0.5402901769 4290690752
-0.2545170486 -0.1453181803 0.5395365357 4290888131
-0.2541611195 -0.1445163488 0.5387821198 4290888129
-0.2542195320 -0.1439508051 0.5389059186 4290559164
-0.2546925545 -0.1436187625 0.5399086475 4290295990
-0.2547506690 -0.1430515200 0.5400317907 4291085506
-0.2548085749 -0.1424838752 0.5401545763 4290690750
-0.2548662722 -0.1419158578 0.5402768850 4283650899
-0.2549237609 -0.1413474381 0.5403987169 4282927435
-0.2549810410 -0.1407786459 0.5405201316 4282795849
-0.2558688521 -0.1406661868 0.5424022079 4281677371
-0.2575877607 -0.1410044730 0.5460460186 4279835167
-0.2588916719 -0.1411084682 0.5488100648 4279440155
-0.2593646049 -0.1407553554 0.5498126149 4279505948
-0.2750448287 -0.1317739636 0.5830522776 4288652976
-0.2763531804 -0.1317498982 0.5858258009 4287600288
-0.2768254876 -0.1313230544 0.5868269801 4289310651
-0.2764611840 -0.1304990947 0.5860547423 4292205543
-0.2729590237 -0.1807034016 0.5799962282 4291283926
-0.2730305791 -0.1801061928 0.5801483393 4291020754
-0.2731019258 -0.1795085222 0.5802999139 4290954961
-0.2731730938 -0.1789103746 0.5804511309 4290626766
-0.2736543417 -0.1785794944 0.5814737082 4290626766
-0.2737252116 -0.1779794991 0.5816242695 4290363594
-0.2737958729 -0.1773790568 0.5817744136 4290232008
-0.2738663256 -0.1767781526 0.5819241405 4289903043
-0.2735258937 -0.1759126484 0.5812007785 4289639871
-0.2735958397 -0.1753117144 0.5813493729 4289704892
-0.2732546628 -0.1744479835 0.5806244612 4289507513
-0.2733241022 -0.1738470346 0.5807720423 4289573560
-0.2738044560 -0.1735061407 0.5817927122 4289705146
-0.2734623551 -0.1726437658 0.5810657740 4289704633
-0.2739425004 -0.1723001450 0.5820860267 4289178289
-0.2740112245 -0.1716964692 0.5822320580 4289046701
-0.2740797400 -0.1710923314 0.5823776126 4288717736
-0.2741480470 -0.1704877466 0.5825227499 4286546822
-0.2746278942 -0.1701377928 0.5835423470 4281349175
-0.2746958733 -0.1695313901 0.5836868286 4280361508
-0.2743517160 -0.1686712950 0.5829555392 4279440406
-0.2740071416 -0.1678125560 0.5822233558 4286809476
-0.2724257410 -0.1662008762 0.5788630843 4290362298
-0.2646596730 -0.1608381569 0.5623614192 4290230712
-0.2593636513 -0.1570073515 0.5511081815 4290822849
-0.2577767968 -0.1554381698 0.5477363467 4291019974
-0.2566014826 -0.1541236639 0.5452390313 4291151560
-0.2558380365 -0.1530611068 0.5436167717 4291020228
-0.2550739646 -0.1520017982 0.5419932604 4290888642
-0.2547221780 -0.1511908025 0.5412457585 4291085508
-0.2547829151 -0.1506253332 0.5413748026 4288848546
-0.2544304132 -0.1498162746 0.5406258106 4280690214
-0.2544906437 -0.1492509246 0.5407537818 4281216558
-0.2541374564 -0.1484438032 0.5400032997 4289638062
-0.2537838817 -0.1476381272 0.5392519832 4290822336
-0.2538433075 -0.1470734179 0.5393783450 4290822338
-0.2539025545 -0.1465083212 0.5395042300 4290756545
-0.2539616227 -0.1459428221 0.5396296978 4290493371
-0.2540204525 -0.1453769356 0.5397546887 4290493371
-0.2532514930 -0.1443389654 0.5381207466 4290493369
-0.2533097267 -0.1437741369 0.5382445455 4290427576
-0.2537817955 -0.1434429139 0.5392475724 4290098611
-0.2538397312 -0.1428763866 0.5393706560 4290559162
-0.2538974583 -0.1423094720 0.5394933820 4290032818
-0.2539550066 -0.1417421699 0.5396156311 4282664002
-0.2544267178 -0.1414047778 0.5406179428 4282401345
-0.2544839382 -0.1408357769 0.5407395363 4281940794
-0.2553700507 -0.1407232881 0.5426223874 4280427303
-0.2570856810 -0.1410617530 0.5462678075 4279177236
-0.2567280829 -0.1402594447 0.5455080271 4279440409
-0.2580294609 -0.1403612494 0.5482732058 4279440409
-0.2736215591 -0.1320474297 0.5814040899 4288717999
-0.2753444314 -0.1322288364 0.5850649476 4288126632
-0.2758159339 -0.1318040937 0.5860667825 4288258218
-0.2754526436 -0.1309801787 0.5852948427 4290626511
-0.2706438601 -0.1808755100 0.5764372945 4291349719
-0.2711242437 -0.1805549562 0.5774604678 4291283926
-0.2711955905 -0.1799606979 0.5776124001 4291086547
-0.2712667584 -0.1793659776 0.5777639747 4290823375
-0.2717469633 -0.1790404320 0.5787867308 4290757582
-0.2718178332 -0.1784438789 0.5789377093 4290560973
-0.2718884945 -0.1778468639 0.5790882111 4290363594
-0.2719589472 -0.1772493720 0.5792382956 4290232008
-0.2724389136 -0.1769174784 0.5802605152 4290034629
-0.2725090683 -0.1763181686 0.5804099441 4289770685
-0.2721691430 -0.1754541546 0.5796859264 4289639099
-0.2722387910 -0.1748548150 0.5798343420 4289573560
-0.2723082602 -0.1742550284 0.5799822211 4289244595
-0.2719672918 -0.1733932495 0.5792560577 4289639353
-0.2720362544 -0.1727934480 0.5794028640 4289376181
-0.2725153863 -0.1724528968 0.5804234147 4289638838
-0.2725840211 -0.1718512774 0.5805696249 4288980908
-0.2726524770 -0.1712492108 0.5807153583 4288783529
-0.2727206945 -0.1706466824 0.5808606744 4286217602
-0.2727887034 -0.1700437069 0.5810055733 4281743933
-0.2732674479 -0.1696954668 0.5820252299 4278914834
-0.2733351588 -0.1690906733 0.5821694136 4279901729
-0.2729915380 -0.1682320833 0.5814375281 4279638557
-0.2722362578 -0.1671224087 0.5798288584 4285822327
-0.2694236934 -0.1647582352 0.5738384724 4289901493
-0.2575579584 -0.1568925977 0.5485659838 4290098872
-0.2605014443 -0.1580691636 0.5548352599 4290691009
-0.2568599880 -0.1552517265 0.5470793843 4290888388
-0.2556869388 -0.1539376527 0.5445809364 4290756802
-0.2549249232 -0.1528756022 0.5429579616 4290691009
-0.2541623116 -0.1518168300 0.5413336754 4290559423
-0.2538111508 -0.1510064304 0.5405857563 4290888129
-0.2538717091 -0.1504416913 0.5407147408 4288848546
-0.2539320886 -0.1498765498 0.5408433080 4281084972
-0.2535799444 -0.1490686238 0.5400933027 4281677109
-0.2532273829 -0.1482621282 0.5393424034 4289638062
-0.2528744340 -0.1474570781 0.5385906696 4290427578
-0.2529337406 -0.1468930840 0.5387169719 4290756545
-0.2529928088 -0.1463287026 0.5388427973 4290690752
-0.2534644902 -0.1460017115 0.5398474336 4290493371
-0.2531103790 -0.1451987624 0.5390931964 4290559164
-0.2523428500 -0.1441613138 0.5374584794 4290361783
-0.2528140247 -0.1438322216 0.5384620428 4290164404
-0.2532851994 -0.1435009092 0.5394655466 4290032818
-0.2533430755 -0.1429341733 0.5395888090 4290493369
-0.2534007430 -0.1423670501 0.5397116542 4289572267
-0.2534582317 -0.1417995393 0.5398340821 4282532416
-0.2535154819 -0.1412316561 0.5399560332 4282203453
-0.2535725534 -0.1406633705 0.5400775671 4280821800
-0.2544569075 -0.1405517906 0.5419611335 4279703580
-0.2565829754 -0.1411189586 0.5464893579 4279374615
-0.2578818500 -0.1412230730 0.5492558479 4279571482
-0.2725628912 -0.1331377029 0.5805246234 4282336076
-0.2730335593 -0.1327214837 0.5815270543 4287270553
-0.2718389630 -0.1314975023 0.5789827108 4289112757
-0.2735582888 -0.1316818297 0.5826446414 4287731874
-0.2744450867 -0.1314592510 0.5845334530 4289113527
-0.2744989395 -0.1308354586 0.5846481323 4291876578
-0.2697022855 -0.1806736439 0.5757939816 4291218133
-0.2693654299 -0.1798090190 0.5750747919 4291152340
-0.2698445916 -0.1794888079 0.5760977864 4290954961
-0.2699154615 -0.1788956821 0.5762490630 4290691789
-0.2699861228 -0.1783020943 0.5763999224 4290560203
-0.2704651356 -0.1779768765 0.5774225593 4290429387
-0.2705354989 -0.1773814708 0.5775728226 4290034629
-0.2710144520 -0.1770526320 0.5785953403 4290099652
-0.2706756592 -0.1761892289 0.5778719783 4289902273
-0.2711544037 -0.1758576781 0.5788940787 4289573306
-0.2712240815 -0.1752595007 0.5790428519 4289441720
-0.2708843350 -0.1743974239 0.5783175826 4289310388
-0.2709535062 -0.1737992465 0.5784652233 4289047216
-0.2710224688 -0.1732005924 0.5786124468 4289573047
-0.2710912228 -0.1726014912 0.5787592530 4289112496
-0.2715694010 -0.1722617596 0.5797801018 4289178287
-0.2712281346 -0.1714019179 0.5790515542 4288257185
-0.2712962925 -0.1708014607 0.5791969895 4285559672
-0.2713642120 -0.1702005416 0.5793420672 4281612092
-0.2718419731 -0.1698553711 0.5803620219 4279572764
-0.2719096243 -0.1692526340 0.5805064440 4279638557
-0.2719770372 -0.1686494648 0.5806503892 4280164901
-0.2704029679 -0.1670319885 0.5772898197 4279506971
-0.2717008293 -0.1671892256 0.5800607204 4282203714
-0.2668412328 -0.1635659337 0.5696858168 4288848807
-0.2582833767 -0.1577075571 0.5514154434 4290033079
-0.2558820248 -0.1556343138 0.5462887287 4290296251
-0.2555333674 -0.1548161209 0.5455443859 4290625216
-0.2547734082 -0.1537513584 0.5439218879 4290559423
-0.2540128231 -0.1526898444 0.5422981381 4290559166
-0.2536627948 -0.1518777311 0.5415508747 4290427580
-0.2529011369 -0.1508218050 0.5399248004 4290559164
-0.2533728778 -0.1505021006 0.5409318805 4288190616
-0.2530217469 -0.1496933699 0.5401822925 4282466625
-0.2530817688 -0.1491285414 0.5403103828 4283387727
-0.2527299523 -0.1483217478 0.5395593047 4288979619
-0.2523777485 -0.1475163996 0.5388073921 4290558651
-0.2520251572 -0.1467124820 0.5380545855 4290361533
-0.2524959743 -0.1463876367 0.5390597582 4290427326
-0.2525547743 -0.1458226591 0.5391853452 4290493373
-0.2522013187 -0.1450203210 0.5384306908 4290690752
-0.2514352500 -0.1439834088 0.5367951989 4290427578
-0.2519054711 -0.1436551362 0.5377990603 4290032820
-0.2523756623 -0.1433246285 0.5388029218 4289967025
-0.2524333596 -0.1427586228 0.5389261246 4290624955
-0.2524908781 -0.1421922296 0.5390489101 4288848546
-0.2529608607 -0.1418568641 0.5400522351 4281611316
-0.2526052892 -0.1410582811 0.5392931700 4280953388
-0.2526622117 -0.1404907256 0.5394146442 4279769114
-0.2539577186 -0.1406086832 0.5421804786 4279571482
-0.2556666136 -0.1409483850 0.5458288789 4279637275
-0.2698986828 -0.1327891499 0.5762133002 4281217595
-0.2708915472 -0.1313499212 0.5783329010 4288718769
-0.2730230093 -0.1317358017 0.5828834772 4287995046
-0.2734924853 -0.1313135922 0.5838857889 4290166215
-0.2735461891 -0.1306905001 0.5840004086 4292468715
-0.2678050101 -0.1811025888 0.5731023550 4291349720
-0.2678762674 -0.1805138290 0.5732548237 4291218133
-0.2679472864 -0.1799246073 0.5734068155 4291086547
-0.2680181265 -0.1793349087 0.5735584497 4290954961
-0.2684962153 -0.1790163964 0.5745815039 4290823375
-0.2685667574 -0.1784248650 0.5747324824 4290625996
-0.2690447867 -0.1781027317 0.5757554173 4290428617
-0.2691150308 -0.1775093824 0.5759057999 4290231238
-0.2691851258 -0.1769155562 0.5760557652 4289836480
-0.2692549825 -0.1763212830 0.5762053132 4289770685
-0.2697327435 -0.1759927869 0.5772276521 4289770685
-0.2698023021 -0.1753966808 0.5773766041 4289507513
-0.2698717117 -0.1748001128 0.5775250793 4289244341
-0.2695325017 -0.1739395410 0.5767991543 4288981423
-0.2696013749 -0.1733429581 0.5769465566 4288981423
-0.2700786293 -0.1730076522 0.5779678822 4288849324
-0.2701472044 -0.1724092513 0.5781146288 4288651945
-0.2702155709 -0.1718104035 0.5782609582 4288454564
-0.2702837288 -0.1712110937 0.5784068108 4285428086
-0.2703517079 -0.1706113219 0.5785522461 4281348406
-0.2704194784 -0.1700111181 0.5786972642 4279835167
-0.2708962262 -0.1696667373 0.5797175169 4280229924
-0.2709636688 -0.1690647155 0.5798618793 4279835166
-0.2706215084 -0.1682077795 0.5791296363 4279900959
-0.2698694170 -0.1670986414 0.5775201917 4279637787
-0.2687070966 -0.1657400429 0.5750328302 4278914064
-0.2564816475 -0.1575894952 0.5488703847 4285361778
-0.2635113299 -0.1612821668 0.5639138818 4289638321
-0.2545574903 -0.1551967114 0.5447526574 4290625216
-0.2542093694 -0.1543800384 0.5440077186 4290559166
-0.2538608611 -0.1535647959 0.5432619452 4290822338
-0.2531017661 -0.1525038034 0.5416374207 4290361785
-0.2527523637 -0.1516923159 0.5408897400 4290559164
-0.2524025738 -0.1508822441 0.5401411653 4290427065
-0.2524629235 -0.1503180265 0.5402702689 4289242791
-0.2525230348 -0.1497534066 0.5403989553 4287203208
-0.2525829673 -0.1491883844 0.5405272245 4287992724
-0.2522318959 -0.1483813077 0.5397759080 4289703342
-0.2514695525 -0.1473349035 0.5381444693 4290558651
-0.2515285909 -0.1467714459 0.5382708311 4290493119
-0.2515874505 -0.1462075859 0.5383967757 4290624705
-0.2516461015 -0.1456433386 0.5385223031 4290624959
-0.2517045438 -0.1450786889 0.5386473536 4290690752
-0.2509400547 -0.1440413743 0.5370113254 4290493371
-0.2514093816 -0.1437130123 0.5380157232 4290164406
-0.2518786788 -0.1433824003 0.5390200615 4289506476
-0.2519363463 -0.1428161860 0.5391433835 4289572269
-0.2519937754 -0.1422495842 0.5392663479 4287269514
-0.2520510256 -0.1416825950 0.5393888354 4280098077
-0.2521080673 -0.1411152184 0.5395109057 4279703321
-0.2521649003 -0.1405474693 0.5396325588 4279769114
-0.2530457973 -0.1404367685 0.5415176153 4279571482
-0.2547512650 -0.1407775730 0.5451673865 4279439896
-0.2556326687 -0.1406568289 0.5470535755 4279505691
-0.2689543068 -0.1326390356 0.5755618811 4282007113
-0.2702518702 -0.1326363534 0.5783386230 4287007381
-0.2711350918 -0.1324251592 0.5802286863 4288784562
-0.2703597546 -0.1314036548 0.5785695314 4288126632
-0.2712428570 -0.1311879307 0.5804593563 4288850100
-0.2717112303 -0.1307684183 0.5814616084 4291416027
-0.2663901150 -0.1812098473 0.5714326501 4291349720
-0.2664612234 -0.1806231588 0.5715852380 4291086548
-0.2665321827 -0.1800360084 0.5717374086 4291020754
-0.2670093179 -0.1797219217 0.5727608800 4290954961
-0.2670799494 -0.1791329384 0.5729124546 4290757582
-0.2671504319 -0.1785434783 0.5730636120 4290625996
-0.2672206759 -0.1779535413 0.5732142925 4290428617
-0.2676975727 -0.1776331216 0.5742372870 4290165445
-0.2677675486 -0.1770413667 0.5743874311 4289968066
-0.2682443857 -0.1767173111 0.5754102468 4289704894
-0.2683140635 -0.1761237234 0.5755597353 4289639099
-0.2683835626 -0.1755296886 0.5757088065 4289639099
-0.2684528232 -0.1749351770 0.5758574009 4289441720
-0.2685219347 -0.1743402183 0.5760056376 4289112755
-0.2685908079 -0.1737447977 0.5761533976 4289046703
-0.2686595023 -0.1731489152 0.5763007402 4288980910
-0.2687279880 -0.1725525856 0.5764476061 4289046703
-0.2692041695 -0.1722167283 0.5774690509 4288257187
-0.2692723572 -0.1716185808 0.5776153207 4285822330
-0.2697484195 -0.1712790877 0.5786365271 4281545785
-0.2698163092 -0.1706791222 0.5787821412 4279637787
-0.2694756687 -0.1698213965 0.5780515075 4280098338
-0.2695430517 -0.1692214459 0.5781960487 4279966752
-0.2696102262 -0.1686210334 0.5783401132 4279966752
-0.2692685723 -0.1677656025 0.5776072741 4279703578
-0.2681091130 -0.1664042026 0.5751200914 4280098336
-0.2653136551 -0.1640368253 0.5691235065 4278847758
-0.2600631118 -0.1601707339 0.5578606725 4281479478
-0.2552188039 -0.1565788835 0.5474690795 4286151035
-0.2536447048 -0.1550086439 0.5440925360 4287927446
-0.2532972395 -0.1541925967 0.5433471799 4288190618
-0.2529493868 -0.1533779651 0.5426009893 4288519583
-0.2521917224 -0.1523174942 0.5409756899 4289243304
-0.2518429458 -0.1515066177 0.5402275920 4289769648
-0.2514938116 -0.1506971866 0.5394786596 4289374377
-0.2515539825 -0.1501336843 0.5396077037 4287926931
-0.2516139448 -0.1495697796 0.5397363305 4285163625
-0.2516736984 -0.1490054876 0.5398645401 4285295211
-0.2513232827 -0.1481990218 0.5391128659 4287597966
-0.2509724796 -0.1473940015 0.5383602977 4289176998
-0.2510314584 -0.1468303353 0.5384868383 4290164408
-0.2510902286 -0.1462662816 0.5386129022 4290559166
-0.2511487901 -0.1457018256 0.5387385488 4290690239
-0.2512071729 -0.1451369822 0.5388638377 4290690239
-0.2504442334 -0.1440992802 0.5372272134 4290624957
-0.2509126961 -0.1437707990 0.5382320881 4290230199
-0.2509703636 -0.1432057023 0.5383558273 4288716958
-0.2510278523 -0.1426402181 0.5384791493 4287532684
-0.2514960766 -0.1423068792 0.5394835472 4283979862
-0.2519643009 -0.1419712901 0.5404878855 4279834903
-0.2516102195 -0.1411721110 0.5397284031 4279637528
-0.2516669929 -0.1406041533 0.5398501754 4279703321
-0.2525461912 -0.1404934376 0.5417361259 4279703067
-0.2667162418 -0.1324843615 0.5721322894 4280888630
-0.2684245110 -0.1326931417 0.5757966638 4283849317
-0.2676511407 -0.1316729188 0.5741376877 4288717999
-0.2694134712 -0.1312557012 0.5779181123 4287863460
-0.2698808610 -0.1308401823 0.5789206624 4289902788
-0.2703481913 -0.1304224133 0.5799231529 4292402922
-0.2649070323 -0.1818971038 0.5696083903 4291349719
-0.2649782300 -0.1813129485 0.5697615147 4291283926
-0.2650492489 -0.1807283163 0.5699141622 4291152340
-0.2655254304 -0.1804186702 0.5709381104 4290954961
-0.2655961812 -0.1798322201 0.5710902214 4290823375
-0.2656667233 -0.1792452931 0.5712419152 4290691789
-0.2657370865 -0.1786578894 0.5713931918 4290494410
-0.2658072412 -0.1780700386 0.5715440512 4290297031
-0.2662831247 -0.1777526736 0.5725672841 4290099652
-0.2663529813 -0.1771629900 0.5727175474 4289902273
-0.2664226592 -0.1765728444 0.5728673339 4289836480
-0.2664921582 -0.1759822220 0.5730167627 4289639101
-0.2665614188 -0.1753911525 0.5731657147 4289507513
-0.2670369744 -0.1750660837 0.5741882324 4289507513
-0.2671059668 -0.1744731814 0.5743365884 4289244082
-0.2671747506 -0.1738798320 0.5744845271 4289112496
-0.2672433555 -0.1732860059 0.5746319890 4289046703
-0.2673117518 -0.1726917475 0.5747790933 4288454566
-0.2673799396 -0.1720970124 0.5749257207 4287928220
-0.2678550184 -0.1717628688 0.5759472251 4285888637
-0.2687372863 -0.1716865897 0.5778442621 4281874749
-0.2683978975 -0.1708285660 0.5771145225 4280098338
-0.2684654891 -0.1702302098 0.5772598982 4280229924
-0.2685328722 -0.1696314067 0.5774047971 4279835166
-0.2690076530 -0.1692886502 0.5784256458 4279637787
-0.2686670423 -0.1684324443 0.5776932836 4279637787
-0.2671026886 -0.1668135822 0.5743294954 4279505688
-0.2651293874 -0.1649477929 0.5700865388 4279571481
-0.2615229189 -0.1620792747 0.5623317957 4279834653
-0.2566901743 -0.1584709138 0.5519403219 4279834653
-0.2538957596 -0.1561391950 0.5459317565 4280360997
-0.2527329624 -0.1548202932 0.5434314609 4280426790
-0.2523861229 -0.1540048718 0.5426856875 4280492837
-0.2516303957 -0.1529425830 0.5410607457 4280558630
-0.2508741021 -0.1518835425 0.5394344926 4280756009
-0.2505258918 -0.1510742158 0.5386857986 4281742904
-0.2505860627 -0.1505118459 0.5388152003 4282466627
-0.2506460547 -0.1499490738 0.5389441848 4282203455
-0.2507058680 -0.1493858993 0.5390727520 4279505429
-0.2507654428 -0.1488223225 0.5392009020 4279505429
-0.2504156828 -0.1480164826 0.5384488106 4282400321
-0.2500655055 -0.1472120881 0.5376958847 4284110939
-0.2501243353 -0.1466491520 0.5378223062 4285361008
-0.2505924106 -0.1463249028 0.5388287902 4286084731
-0.2506509125 -0.1457602531 0.5389546156 4287005831
-0.2507092357 -0.1451952010 0.5390799642 4287861140
-0.2503575981 -0.1443934441 0.5383238792 4287992724
-0.2504154146 -0.1438285410 0.5384482145 4287203208
-0.2504730225 -0.1432632357 0.5385721326 4285098343
-0.2505304515 -0.1426975429 0.5386955738 4283519311
-0.2509977818 -0.1423640996 0.5397004485 4280690214
-0.2514651120 -0.1420283914 0.5407053232 4279900698
-0.2515220940 -0.1414596885 0.5408278704 4279703321
-0.2511684895 -0.1406607628 0.5400675535 4279440149
-0.2653637528 -0.1321273297 0.5705904365 4281809732
-0.2666557431 -0.1321335733 0.5733684897 4286218635
-0.2675351501 -0.1319301724 0.5752593875 4289179320
-0.2667628527 -0.1309120357 0.5735988021 4288455597
-0.2688812017 -0.1313092262 0.5781537890 4288455597
-0.2689346075 -0.1306928098 0.5782685876 4291087062
-0.2635693848 -0.1814118475 0.5680888295 4291218133
-0.2636402845 -0.1808292866 0.5682416558 4291152340
-0.2641154528 -0.1805227101 0.5692658424 4290954961
-0.2641860843 -0.1799383312 0.5694180727 4290823375
-0.2642565072 -0.1793534607 0.5695698857 4290691787
-0.2643267512 -0.1787681431 0.5697212815 4290560201
-0.2643968165 -0.1781823486 0.5698722601 4290362822
-0.2644666731 -0.1775960922 0.5700228214 4290099650
-0.2649414241 -0.1772804409 0.5710461140 4289902271
-0.2650110126 -0.1766923517 0.5711960793 4289770685
-0.2650803924 -0.1761038005 0.5713456273 4289573306
-0.2651495636 -0.1755148023 0.5714947581 4289441720
-0.2652185559 -0.1749253273 0.5716434717 4289310388
-0.2656930089 -0.1746019721 0.5726660490 4289244595
-0.2657617033 -0.1740106791 0.5728141069 4289046703
-0.2658301890 -0.1734189391 0.5729617476 4289046703
-0.2663044631 -0.1730905771 0.5739839673 4288849324
-0.2663726807 -0.1724970192 0.5741309524 4287665050
-0.2664406896 -0.1719029993 0.5742775798 4285559672
-0.2665084898 -0.1713085175 0.5744237304 4282401608
-0.2673888505 -0.1712340564 0.5763211846 4279900959
-0.2674564421 -0.1706368625 0.5764669180 4279703580
-0.2675238550 -0.1700392216 0.5766122341 4279835164
-0.2671844065 -0.1691836119 0.5758805275 4279703578
-0.2672513127 -0.1685859710 0.5760247707 4279571994
-0.2665042579 -0.1674765050 0.5744145513 4279374615
-0.2649426460 -0.1658606678 0.5710487366 4279176723
-0.2525134087 -0.1562655419 0.5442591906 4279834653
-0.2513532639 -0.1549456567 0.5417585969 4279966239
-0.2518222034 -0.1546316892 0.5427693725 4280492583
-0.2510684431 -0.1535675824 0.5411447287 4280295458
-0.2511294484 -0.1530034989 0.5412762165 4280624423
-0.2503746748 -0.1519440711 0.5396494269 4280492837
-0.2504350841 -0.1513809860 0.5397796631 4280163872
-0.2504953146 -0.1508175135 0.5399094224 4279768860
-0.2505553365 -0.1502536237 0.5400387645 4280295204
-0.2493906319 -0.1489579529 0.5375284553 4279900446
-0.2490417063 -0.1481531411 0.5367763638 4279834653
-0.2491007447 -0.1475917250 0.5369036198 4279834907
-0.2487511337 -0.1467888653 0.5361500978 4279834907
-0.2488096803 -0.1462275833 0.5362762809 4279965982
-0.2488680333 -0.1456658989 0.5364020467 4280031775
-0.2489261776 -0.1451038122 0.5365273952 4280492326
-0.2489841431 -0.1445413381 0.5366523266 4281281842
-0.2486329675 -0.1437420547 0.5358954072 4281281838
-0.2490994632 -0.1434152126 0.5369008780 4280887080
-0.2495659441 -0.1430861354 0.5379062891 4280098077
-0.2496231943 -0.1425211728 0.5380297303 4279834905
-0.2500895560 -0.1421885341 0.5390349030 4279966491
-0.2505559325 -0.1418536603 0.5400400758 4279900698
-0.2506127656 -0.1412856728 0.5401625633 4279637274
-0.2648376226 -0.1321810335 0.5708224177 4282928213
-0.2657151520 -0.1319826841 0.5727137327 4288060839
-0.2670047879 -0.1319838464 0.5754934549 4289047734
-0.2666462064 -0.1311680377 0.5747205615 4288192425
-0.2675238848 -0.1309591234 0.5766122341 4289376699
-0.2675770521 -0.1303443611 0.5767268538 4292073957
-0.2625668943 -0.1817858070 0.5672861338 4291218648
-0.2626377642 -0.1812044233 0.5674393177 4291153110
-0.2627084851 -0.1806225777 0.5675920844 4291021524
-0.2627789974 -0.1800402552 0.5677444339 4291020754
-0.2628493309 -0.1794574559 0.5678963661 4290954961
-0.2629194558 -0.1788741946 0.5680478811 4290625996
-0.2629894018 -0.1782904714 0.5681989789 4290362824
-0.2630591393 -0.1777062863 0.5683496594 4290231238
-0.2631286979 -0.1771216244 0.5684999824 4289968066
-0.2636023760 -0.1768076867 0.5695233345 4289639099
-0.2636716366 -0.1762212068 0.5696730018 4289573306
-0.2637407184 -0.1756342649 0.5698222518 4290034111
-0.2638096213 -0.1750468612 0.5699711442 4289902525
-0.2642830312 -0.1747265756 0.5709939599 4289507767
-0.2643516362 -0.1741373539 0.5711421967 4289507767
-0.2644200623 -0.1735476702 0.5712899566 4288981423
-0.2644882798 -0.1729575396 0.5714373589 4289178802
-0.2649614215 -0.1726309061 0.5724596381 4287928220
-0.2654345930 -0.1723020077 0.5734819174 4285296500
-0.2650970519 -0.1714465469 0.5727526546 4282467401
-0.2655700445 -0.1711149216 0.5737745762 4280033060
-0.2660430074 -0.1707810313 0.5747964382 4279966753
-0.2665160000 -0.1704448909 0.5758183599 4280427304
-0.2661774755 -0.1695894152 0.5750869513 4280229925
-0.2658385336 -0.1687353253 0.5743546486 4279966753
-0.2654991746 -0.1678826064 0.5736215115 4280229412
-0.2643473148 -0.1665196717 0.5711328387 4280097826
-0.2603514791 -0.1633776128 0.5624996424 4280032033
-0.2504445314 -0.1547559500 0.5410953164 4279966240
-0.2501601875 -0.1533792168 0.5404809713 4280163619
-0.2498141527 -0.1525673717 0.5397333503 4279966240
-0.2486537993 -0.1512618214 0.5372263789 4279966240
-0.2499350160 -0.1514412463 0.5399944782 4280163619
-0.2499951571 -0.1508775651 0.5401244164 4280163619
-0.2504623532 -0.1505582929 0.5411338210 4280097826
-0.2497074902 -0.1495051086 0.5395029187 4280229412
-0.2477297038 -0.1477262825 0.5352298021 4280163619
-0.2477884740 -0.1471665055 0.5353568196 4280097826
-0.2474394143 -0.1463652104 0.5346026421 4280163619
-0.2474976927 -0.1458055675 0.5347285271 4279835166
-0.2471479475 -0.1450062394 0.5339729190 4280098338
-0.2472057492 -0.1444467306 0.5340977907 4279900959
-0.2472633570 -0.1438868344 0.5342222452 4279835166
