VERSION 0.7
FIELDS x y z rgba
SIZE 4 4 4 4
TYPE F F F U
COUNT 1 1 1 1
WIDTH 920
HEIGHT 1
VIEWPOINT 0.0 0.0 0.0 1.0 0.0 0.0 0.0
POINTS 920
DATA ascii
-0.3141593337 -0.1285532862 0.5660194159 4294172265
-0.3142175376 -0.1279480904 0.5661242008 4294238070
-0.3142754436 -0.1273425668 0.5662285686 4293909105
-0.3143331110 -0.1267367005 0.5663325191 4294106496
-0.3143905401 -0.1261304915 0.5664359331 4294764426
-0.3144477010 -0.1255239695 0.5665389299 4294963094
-0.3140280843 -0.1247278377 0.5657829046 4294962066
-0.3140846491 -0.1241215616 0.5658848286 4294765717
-0.3136642873 -0.1233275384 0.5651274323 4294963867
-0.3141970336 -0.1229080409 0.5660873055 4294964384
-0.3142528236 -0.1223007962 0.5661878586 4294963613
-0.3143083751 -0.1216932237 0.5662879348 4294962838
-0.3143636584 -0.1210853383 0.5663875341 4294897045
-0.3144187033 -0.1204771250 0.5664866567 4294765717
-0.3144734800 -0.1198685914 0.5665853620 4294634131
-0.3145279884 -0.1192597449 0.5666835904 4294371222
-0.3150596023 -0.1188306287 0.5676413774 4294108050
-0.3155911267 -0.1183993518 0.5685990453 4293975943
-0.3156450093 -0.1177877113 0.5686961412 4293646978
-0.3156986535 -0.1171757579 0.5687927604 4293580918
-0.3157520294 -0.1165634915 0.5688889027 4293449332
-0.3162828982 -0.1161263287 0.5698454380 4293251189
-0.3163358271 -0.1155125201 0.5699408054 4292922224
-0.3163885176 -0.1148984060 0.5700356960 4291937657
-0.3169189095 -0.1144566089 0.5709913373 4290884969
-0.3181545734 -0.1476795673 0.5743669868 4289962837
-0.3177478313 -0.1468534172 0.5736326575 4290094423
-0.3178135455 -0.1462463140 0.5737513304 4291078466
-0.3174059987 -0.1454221159 0.5730155706 4291210052
-0.3169980347 -0.1445993483 0.5722790360 4291277114
-0.3165895939 -0.1437780261 0.5715416670 4291474493
-0.3166540563 -0.1431721449 0.5716580749 4291672382
-0.3162448704 -0.1423528045 0.5709193349 4291869761
-0.3158352077 -0.1415348947 0.5701797605 4291869763
-0.3154251277 -0.1407184303 0.5694394708 4291803970
-0.3154883385 -0.1401138157 0.5695535541 4291803707
-0.3155512512 -0.1395088285 0.5696671605 4291869500
-0.3151400685 -0.1386949122 0.5689248443 4292197435
-0.3147284389 -0.1378824562 0.5681816936 4292394814
-0.3147904277 -0.1372782141 0.5682936311 4292591942
-0.3148522079 -0.1366735995 0.5684051514 4292657735
-0.3144394457 -0.1358637214 0.5676600337 4292657997
-0.3149749935 -0.1354633272 0.5686268210 4292855376
-0.3140870929 -0.1344514638 0.5670238733 4292658248
-0.3136731386 -0.1336450875 0.5662765503 4292724041
-0.3137333691 -0.1330414563 0.5663853288 4292855627
-0.3137933612 -0.1324374825 0.5664936304 4292855627
-0.3138531148 -0.1318331659 0.5666014552 4292921420
-0.3134377003 -0.1310299784 0.5658515096 4293053006
-0.3134968579 -0.1304258853 0.5659583211 4293251155
-0.3135557473 -0.1298214495 0.5660646558 4293645913
-0.3136143982 -0.1292166710 0.5661705136 4293778020
-0.3136727810 -0.1286115646 0.5662759542 4294041192
-0.3137309253 -0.1280061156 0.5663809180 4293909621
-0.3137888312 -0.1274003237 0.5664854050 4293580656
-0.3133709431 -0.1266020834 0.5657309890 4294106498
-0.3134282231 -0.1259965599 0.5658344626 4294698635
-0.3134852648 -0.1253906935 0.5659373999 4294961812
-0.3130662739 -0.1245951355 0.5651810169 4294764176
-0.3131227195 -0.1239895299 0.5652828813 4294369932
-0.3127029538 -0.1231960878 0.5645250678 4294896276
-0.3132348359 -0.1227773428 0.5654852986 4294962590
-0.3137666583 -0.1223564297 0.5664454103 4294830747
-0.3138221502 -0.1217486039 0.5665456057 4294699415
-0.3134011328 -0.1209566295 0.5657855272 4294765208
-0.3139324188 -0.1205319911 0.5667446256 4294764436
-0.3139871359 -0.1199231967 0.5668434501 4294567057
-0.3140416145 -0.1193140969 0.5669417977 4294896540
-0.3140958548 -0.1187046692 0.5670396686 4294435989
-0.3146265149 -0.1182741374 0.5679976940 4294173580
-0.3146802783 -0.1176631600 0.5680947900 4293910408
-0.3152106702 -0.1172292233 0.5690523386 4293844607
-0.3152640164 -0.1166166961 0.5691486001 4293778814
-0.3153170943 -0.1160038635 0.5692444444 4293448570
-0.3158470392 -0.1155652851 0.5702010989 4293053812
-0.3168540597 -0.1152981892 0.5720191002 4293054321
-0.3164293170 -0.1145089269 0.5712522864 4292659563
-0.3169588447 -0.1140647903 0.5722082853 4291148680
-0.3170108497 -0.1134476364 0.5723021626 4290293371
-0.3159670532 -0.1450536996 0.5715638399 4291079481
-0.3155595660 -0.1442324072 0.5708267689 4291343419
-0.3156241477 -0.1436275542 0.5709435344 4291409212
-0.3152158856 -0.1428082287 0.5702050328 4291606079
-0.3143344820 -0.1417771578 0.5686106682 4291869251
-0.3139252663 -0.1409616321 0.5678703785 4292000067
-0.3139884770 -0.1403589398 0.5679847002 4292065860
-0.3140514195 -0.1397558749 0.5680986047 4292131393
-0.3136410713 -0.1389428973 0.5673562884 4292131393
-0.3132302761 -0.1381313652 0.5666131973 4292197950
-0.3137655556 -0.1377367973 0.5675814748 4292395329
-0.3133541048 -0.1369263828 0.5668371916 4292330051
-0.3134156466 -0.1363233477 0.5669484735 4292330051
-0.3134769201 -0.1357199699 0.5670593381 4292526410
-0.3130643368 -0.1349121183 0.5663130283 4292657996
-0.3131250441 -0.1343089491 0.5664228201 4292592203
-0.3127116859 -0.1335031390 0.5656750798 4292723789
-0.3122979105 -0.1326988190 0.5649265647 4292789582
-0.3123576641 -0.1320964098 0.5650346875 4292789582
-0.3124172091 -0.1314936727 0.5651423931 4292789836
-0.3120023012 -0.1306919754 0.5643918514 4292987215
-0.3120612204 -0.1300894618 0.5644984841 4293250901
-0.3121199310 -0.1294866055 0.5646046400 4293645659
-0.3121783435 -0.1288834065 0.5647103190 4293843559
-0.3122365177 -0.1282798797 0.5648155808 4294172524
-0.3122944534 -0.1276760101 0.5649203658 4293975415
-0.3123521507 -0.1270718127 0.5650246739 4293580657
-0.3124095500 -0.1264672726 0.5651285648 4294172293
-0.3124667406 -0.1258624047 0.5652319789 4294632844
-0.3125236630 -0.1252572089 0.5653349161 4294632590
-0.3121052682 -0.1244622320 0.5645781159 4294172039
-0.3116864562 -0.1236687750 0.5638205409 4294501004
-0.3122176528 -0.1232520267 0.5647814274 4294962840
-0.3127487898 -0.1228331104 0.5657421947 4294963624
-0.3128044307 -0.1222262755 0.5658428669 4294962339
-0.3123843372 -0.1214342862 0.5650829673 4294961571
-0.3129149377 -0.1210116372 0.5660427809 4294961571
-0.3129698336 -0.1204038337 0.5661420226 4294961824
-0.3130244315 -0.1197957098 0.5662408471 4294961567
-0.3135546148 -0.1193684042 0.5671998858 4294962593
-0.3136087954 -0.1187587231 0.5672978759 4294961308
-0.3136627078 -0.1181487292 0.5673954487 4294699926
-0.3141924143 -0.1177167743 0.5683536530 4294239375
-0.3142459095 -0.1171052307 0.5684503913 4293779073
-0.3142991364 -0.1164933667 0.5685467124 4293713280
-0.3148283958 -0.1160567701 0.5695040822 4293777794
-0.3153575659 -0.1156180128 0.5704612732 4293712001
-0.3149337173 -0.1148296520 0.5696945786 4293382258
-0.3164155483 -0.1147340015 0.5723751187 4293513844
-0.3164677918 -0.1141168922 0.5724696517 4292332934
-0.3165197670 -0.1134994701 0.5725636482 4291411832
-0.3166251183 -0.1481990367 0.5739073157 4289832021
-0.3171625137 -0.1478118300 0.5748813748 4290750269
-0.3167571425 -0.1469849944 0.5741466284 4290947648
-0.3163513243 -0.1461595893 0.5734110475 4291079481
-0.3159450889 -0.1453355998 0.5726746917 4291145274
-0.3155383766 -0.1445130557 0.5719375014 4291342653
-0.3151312470 -0.1436919570 0.5711995363 4291540032
-0.3147236705 -0.1428722888 0.5704607964 4291737665
-0.3143156767 -0.1420540661 0.5697212219 4291803458
-0.3134351969 -0.1410249174 0.5681253076 4292000066
-0.3130262196 -0.1402104944 0.5673840046 4292000066
-0.3130890429 -0.1396081001 0.5674978495 4292000320
-0.3131516278 -0.1390053481 0.5676112771 4292131906
-0.3127415180 -0.1381934881 0.5668679476 4292263231
-0.3123309910 -0.1373830736 0.5661238432 4292263231
-0.3123926520 -0.1367810667 0.5662356019 4292263231
-0.3124540448 -0.1361787021 0.5663468838 4292394817
-0.3125151992 -0.1355759799 0.5664577484 4292657988
-0.3125761151 -0.1349729002 0.5665681362 4292921160
-0.3126367927 -0.1343694776 0.5666781068 4292657484
-0.3122241199 -0.1335633397 0.5659301281 4292723277
-0.3118110299 -0.1327586621 0.5651813745 4292658250
-0.3118707836 -0.1321560144 0.5652896762 4292789836
-0.3114569187 -0.1313534081 0.5645395517 4292724808
-0.3115160465 -0.1307509840 0.5646467209 4292724808
-0.3111014366 -0.1299504340 0.5638951659 4293119567
-0.3111599982 -0.1293482482 0.5640013218 4293777497
-0.3112182915 -0.1287457198 0.5641070008 4293711462
-0.3112763464 -0.1281428486 0.5642122626 4293908841
-0.3113341630 -0.1275396496 0.5643169880 4294040954
-0.3113917112 -0.1269361228 0.5644212961 4293580403
-0.3114489913 -0.1263322383 0.5645251870 4294435461
-0.3115060627 -0.1257280409 0.5646286011 4294501254
-0.3115628362 -0.1251235157 0.5647315383 4293909370
-0.3116194010 -0.1245186478 0.5648339987 4294764679
-0.3112012744 -0.1237248480 0.5640761852 4294239383
-0.3112572432 -0.1231202483 0.5641775727 4294963363
-0.3113129139 -0.1225153282 0.5642785430 4294965675
-0.3118430078 -0.1220959127 0.5652393699 4294702503
-0.3114235401 -0.1213045046 0.5644790530 4294767274
-0.3119533062 -0.1208826080 0.5654392242 4294964910
-0.3120080531 -0.1202754751 0.5655384660 4294965684
-0.3120625615 -0.1196680143 0.5656372905 4294965427
-0.3121168017 -0.1190602481 0.5657355785 4294700967
-0.3126459122 -0.1186324507 0.5666946769 4294569381
-0.3126997352 -0.1180231199 0.5667922497 4294963104
-0.3127532899 -0.1174134761 0.5668892860 4294764954
-0.3132819533 -0.1169810370 0.5678475499 4294173322
-0.3133350611 -0.1163698435 0.5679438114 4293975943
-0.3138634861 -0.1159339920 0.5689015985 4294104706
-0.3139161468 -0.1153212562 0.5689970851 4293775741
-0.3139685690 -0.1147082075 0.5690920353 4293384055
-0.3154480755 -0.1146134585 0.5717737675 4293186676
-0.3155001998 -0.1139970124 0.5718682408 4293514094
-0.3160279989 -0.1135512665 0.5728249550 4293119336
-0.3156036437 -0.1127632037 0.5720557570 4291477375
-0.3156549633 -0.1121458411 0.5721487999 4290622066
-0.3170031905 -0.1493150145 0.5757516623 4290028874
-0.3165993094 -0.1484858841 0.5750181079 4289897288
-0.3166655004 -0.1478779018 0.5751383305 4290553398
-0.3162608147 -0.1470507234 0.5744033456 4290948156
-0.3158556819 -0.1462249607 0.5736675262 4291013688
-0.3154501319 -0.1454006433 0.5729309320 4291145274
-0.3150441349 -0.1445777565 0.5721935630 4291342653
-0.3151087165 -0.1439715177 0.5723108649 4291540032
-0.3142308295 -0.1429363042 0.5707163811 4291868481
-0.3138235211 -0.1421177536 0.5699766278 4291868481
-0.3129444718 -0.1410881430 0.5683800578 4291868480
-0.3130075932 -0.1404849738 0.5684946775 4291802687
-0.3125989735 -0.1396707594 0.5677525401 4291934527
-0.3121899068 -0.1388580054 0.5670096278 4292000320
-0.3122521043 -0.1382555515 0.5671225786 4292197184
-0.3118422925 -0.1374448091 0.5663782358 4292197184
-0.3119038939 -0.1368425488 0.5664901137 4292197438
-0.3119652569 -0.1362399310 0.5666015744 4292329024
-0.3120263815 -0.1356369704 0.5667126179 4292592195
-0.3116150796 -0.1348293573 0.5659655929 4292789574
-0.3116756082 -0.1342266053 0.5660755634 4292657737
-0.3112635612 -0.1334210336 0.5653271675 4292657737
-0.3113235235 -0.1328184754 0.5654360652 4292658248
-0.3109107018 -0.1320149601 0.5646862984 4292724041
-0.3109700382 -0.1314126253 0.5647940636 4292855878
-0.3110291660 -0.1308099627 0.5649014115 4292855878
-0.3106152415 -0.1300090700 0.5641496181 4292987981
-0.3106737435 -0.1294066310 0.5642558932 4293448532
-0.3107320070 -0.1288038492 0.5643617511 4293448544
-0.3107900321 -0.1282007396 0.5644671321 4293645923
-0.3108477890 -0.1275972873 0.5645720363 4293974645
-0.3109053075 -0.1269935071 0.5646764636 4293843059
-0.3109625876 -0.1263893843 0.5647804737 4294304130
-0.3105461895 -0.1255934685 0.5640242696 4294369923
-0.3106028736 -0.1249896064 0.5641271472 4293975165
-0.3106592894 -0.1243854091 0.5642296076 4294567302
-0.3102417886 -0.1235921904 0.5634713769 4294567578
-0.3107713461 -0.1231760308 0.5644332170 4294962336
-0.3108270168 -0.1225708574 0.5645343065 4294964135
-0.3108824193 -0.1219653487 0.5646349192 4294964649
-0.3104635775 -0.1211745292 0.5638741851 4294964910
-0.3109924495 -0.1207533777 0.5648347735 4294965167
-0.3110471070 -0.1201469153 0.5649340153 4294966196
-0.3111014664 -0.1195401251 0.5650327802 4294966967
-0.3111555874 -0.1189330220 0.5651310682 4294834607
-0.3116838634 -0.1185059771 0.5660905242 4294637228
-0.3117375672 -0.1178973168 0.5661880374 4294963619
-0.3122655749 -0.1174668595 0.5671470165 4294963876
-0.3123188317 -0.1168566495 0.5672437549 4294963612
-0.3128465414 -0.1164227873 0.5682022572 4294765976
-0.3128993511 -0.1158110201 0.5682981610 4294369419
-0.3134268224 -0.1153737605 0.5692561269 4293514110
-0.3130042255 -0.1145865694 0.5684885979 4293251953
-0.3144814074 -0.1144927293 0.5711714625 4293186160
-0.3150085211 -0.1140489653 0.5721288919 4293514093
-0.3150603473 -0.1134319454 0.5722230077 4293316714
-0.3151119053 -0.1128146276 0.5723166466 4292397432
-0.3151631951 -0.1121969968 0.5724098086 4291739502
-0.3169076145 -0.1502125114 0.5767415166 4289502815
-0.3165048659 -0.1493816227 0.5760084987 4290356800
-0.3161016405 -0.1485521495 0.5752747059 4290356800
-0.3161678016 -0.1479439288 0.5753951073 4290488118
-0.3152939379 -0.1468974799 0.5738047361 4290948669
-0.3148894012 -0.1460722834 0.5730685592 4291144760
-0.3140143454 -0.1450314224 0.5714760423 4291276346
-0.3150193989 -0.1448586285 0.5733051300 4291473723
-0.3136731982 -0.1436053216 0.5708552003 4291605309
-0.3127965629 -0.1425714940 0.5692597628 4291736895
-0.3119193017 -0.1415409297 0.5676631927 4291802688
-0.3129236400 -0.1413639188 0.5694910288 4291802687
-0.3115748465 -0.1401245892 0.5670363307 4291736894
-0.3111667335 -0.1393118501 0.5662936568 4291868734
-0.3112290204 -0.1387104243 0.5664070249 4291934527
-0.3112910986 -0.1381086409 0.5665199757 4292000318
-0.3113529086 -0.1375064999 0.5666324496 4292066111
-0.3114144802 -0.1369039863 0.5667445064 4292131902
-0.3110045791 -0.1360949278 0.5659984946 4292263488
-0.3110655546 -0.1354926229 0.5661094785 4292526403
-0.3106548786 -0.1346855909 0.5653620958 4292657989
-0.3107152879 -0.1340834945 0.5654720664 4292723014
-0.3103038371 -0.1332785040 0.5647232533 4292657221
-0.3103636503 -0.1326766163 0.5648320913 4292723782
-0.3099514544 -0.1318736672 0.5640819669 4292921161
-0.3100106716 -0.1312720180 0.5641897321 4292921673
-0.3100696504 -0.1306700110 0.5642970204 4292921673
-0.3101283610 -0.1300676763 0.5644039512 4293053004
-0.3097147346 -0.1292679310 0.5636511445 4293184590
-0.3097728789 -0.1286658198 0.5637569427 4293184857
-0.3098307550 -0.1280633658 0.5638622642 4293382236
-0.3098883927 -0.1274605840 0.5639671683 4294040437
-0.3099457920 -0.1268574744 0.5640715957 4294237816
-0.3100029230 -0.1262540221 0.5641756058 4294501509
-0.3100598156 -0.1256502271 0.5642791390 4294501509
-0.3096436858 -0.1248554885 0.5635218620 4294435463
-0.3096999824 -0.1242519617 0.5636243224 4294698635
-0.3097560406 -0.1236481071 0.5637263060 4294501015
-0.3098118305 -0.1230439246 0.5638278127 4294698394
-0.3098673522 -0.1224394143 0.5639289021 4294502555
-0.3094494641 -0.1216485724 0.5631684065 4294568348
-0.3099776804 -0.1212294251 0.5641296506 4294897063
-0.3100324571 -0.1206239462 0.5642293096 4294963370
-0.3100869656 -0.1200181469 0.5643285513 4294506672
-0.3101412356 -0.1194120347 0.5644273162 4294901430
-0.3106687963 -0.1189869791 0.5653874874 4294836150
-0.3107226491 -0.1183793023 0.5654854178 4294507185
-0.3112499714 -0.1179508418 0.5664451122 4294635942
-0.3113033473 -0.1173416078 0.5665422678 4294833321
-0.3118304014 -0.1169097349 0.5675014853 4294965927
-0.3118833601 -0.1162989512 0.5675978661 4294965413
-0.3124101460 -0.1158636734 0.5685565472 4294634392
-0.3115143776 -0.1149015650 0.5669263005 4293450118
-0.3134633601 -0.1149866134 0.5704733133 4293317231
-0.3139898479 -0.1145448312 0.5714313984 4293317231
-0.3145161867 -0.1141008809 0.5723893642 4293382761
-0.3136190474 -0.1131412685 0.5707566142 4293251175
-0.3146195114 -0.1128660142 0.5725773573 4292988268
-0.3141961396 -0.1120788231 0.5718069077 4292725096
-0.3142470717 -0.1114615649 0.5718995333 4291214462
-0.3142977357 -0.1108440086 0.5719917417 4290095981
-0.3156033456 -0.1486183703 0.5755311847 4290750528
-0.3152003884 -0.1477899700 0.5747963190 4290422842
-0.3143278658 -0.1467439979 0.5732051730 4290751807
-0.3135195673 -0.1450961679 0.5717312098 4291276346
-0.3131147623 -0.1442744136 0.5709930062 4291473723
-0.3127095401 -0.1434541047 0.5702540278 4291539516
-0.3114280105 -0.1416042298 0.5679171085 4291802688
-0.3110213876 -0.1407891512 0.5671755672 4291868480
-0.3106143177 -0.1399755478 0.5664332509 4291868480
-0.3103308976 -0.1379615068 0.5659163594 4291934525
-0.3103925884 -0.1373600215 0.5660288334 4292066111
-0.3104540110 -0.1367581785 0.5661408901 4292263488
-0.3105151951 -0.1361559927 0.5662524700 4292329281
-0.3105761409 -0.1355534494 0.5663635731 4292395074
-0.3101661801 -0.1347460747 0.5656160116 4292395074
-0.3102265298 -0.1341437250 0.5657260418 4292591426
-0.3098157942 -0.1333383918 0.5649770498 4292657219
-0.3094046116 -0.1325345337 0.5642272234 4292723782
-0.3094640374 -0.1319329739 0.5643356442 4292921161
-0.3090521097 -0.1311311722 0.5635844469 4292986700
-0.3095821738 -0.1307288259 0.5645509958 4292920907
-0.3091695607 -0.1299281716 0.5637986064 4292987215
-0.3092279136 -0.1293261498 0.5639050007 4293118801
-0.3092859983 -0.1287238002 0.5640109181 4292922200
-0.3093438745 -0.1281210929 0.5641164184 4293119579
-0.3094014525 -0.1275180578 0.5642215014 4293777519
-0.3089870811 -0.1267212182 0.5634658337 4294303863
-0.3090440929 -0.1261184365 0.5635697842 4294632840
-0.3091008365 -0.1255153269 0.5636732578 4294764426
-0.3091573715 -0.1249118745 0.5637763143 4294961555
-0.3087415397 -0.1241183132 0.5630180240 4294895762
-0.3087974489 -0.1235151216 0.5631200075 4294370196
-0.3088531196 -0.1229116097 0.5632215142 4294699161
-0.3089085221 -0.1223077700 0.5633226037 4294502297
-0.3089636862 -0.1217036098 0.5634231567 4294107539
-0.3090186119 -0.1210991219 0.5635232925 4294435740
-0.3095458448 -0.1206785589 0.5644847751 4294962341
-0.3096003234 -0.1200724989 0.5645841360 4294834608
-0.3096545637 -0.1194661334 0.5646830201 4294966965
-0.3097085357 -0.1188594401 0.5647814274 4294901430
-0.3102351427 -0.1184329689 0.5657417774 4294769844
-0.3102886975 -0.1178247184 0.5658394098 4294964653
-0.3103419840 -0.1172161549 0.5659365654 4294832553
-0.3108681738 -0.1167850345 0.5668961406 4294964903
-0.3113942444 -0.1163517460 0.5678555369 4294965931
-0.3114469349 -0.1157403886 0.5679515600 4294635675
-0.3110259175 -0.1149537563 0.5671838522 4293648780
-0.3124984503 -0.1148648262 0.5698691010 4293778035
-0.3135495484 -0.1139805913 0.5717858672 4293383277
-0.3136012256 -0.1133639812 0.5718801022 4293185898
-0.3136526346 -0.1127470583 0.5719738603 4293513575
-0.3137037754 -0.1121298373 0.5720671415 4293513575
-0.3137546778 -0.1115123183 0.5721599460 4292462964
-0.3142793179 -0.1110620052 0.5731167197 4291541862
-0.3159742653 -0.1497365236 0.5773770213 4290684222
-0.3155725598 -0.1489054710 0.5766429901 4290750015
-0.3151704073 -0.1480758339 0.5759081244 4290291519
-0.3142994046 -0.1470285058 0.5743165612 4290488898
-0.3138962686 -0.1462026387 0.5735799074 4291078967
-0.3134927154 -0.1453781873 0.5728424788 4291210553
-0.3126200140 -0.1443387866 0.5712478161 4291407930
-0.3122154772 -0.1435181350 0.5705085993 4291539516
-0.3118104935 -0.1426989287 0.5697686076 4291605309
-0.3114050925 -0.1418811679 0.5690277815 4291736895
-0.3109992445 -0.1410648525 0.5682861805 4291868480
-0.3105929494 -0.1402499825 0.5675438046 4291934273
-0.3101862371 -0.1394365728 0.5668005943 4291802941
-0.3097791076 -0.1386246234 0.5660566688 4291802941
-0.3098409772 -0.1380232573 0.5661697388 4291934525
-0.3099026084 -0.1374215335 0.5662823319 4292066111
-0.3099640012 -0.1368194520 0.5663945079 4292263488
-0.3100251555 -0.1362170130 0.5665062666 4292329281
-0.3096162379 -0.1354087442 0.5657590032 4292329281
-0.3096767962 -0.1348064989 0.5658696890 4292263488
-0.3092671037 -0.1340002716 0.5651210546 4292525633
-0.3088569641 -0.1331955045 0.5643716455 4292657219
-0.3089165986 -0.1325940490 0.5644806027 4292657989
-0.3089759946 -0.1319922507 0.5645891428 4292723782
-0.3090351522 -0.1313900948 0.5646972060 4292723528
-0.3086235821 -0.1305885315 0.5639451742 4292723528
-0.3086821437 -0.1299865991 0.5640521646 4292790352
-0.3087404370 -0.1293843389 0.5641586781 4293053524
-0.3083277643 -0.1285854131 0.5634046197 4292856405
-0.3083854914 -0.1279833913 0.5635101199 4292856405
-0.3084429801 -0.1273810267 0.5636151433 4293185380
-0.3085002005 -0.1267783195 0.5637196898 4293645931
-0.3080860972 -0.1259826571 0.5629630089 4294304130
-0.3081427217 -0.1253802031 0.5630664825 4294633095
-0.3081991076 -0.1247774288 0.5631695390 4294896276
-0.3082552254 -0.1241743192 0.5632721186 4294567311
-0.3083111048 -0.1235708743 0.5633742213 4294239632
-0.3083667457 -0.1229671091 0.5634758472 4294765976
-0.3084221184 -0.1223630235 0.5635770559 4294700187
-0.3084772527 -0.1217586026 0.5636777878 4294239636
-0.3085321188 -0.1211538613 0.5637780428 4294435222
-0.3085867465 -0.1205487996 0.5638778210 4294895773
-0.3086411059 -0.1199434176 0.5639771819 4294964139
-0.3091672063 -0.1195201874 0.5649385452 4294965424
-0.3092211485 -0.1189132407 0.5650370717 4294899374
-0.3092748225 -0.1183059812 0.5651351810 4294899374
-0.3093282580 -0.1176984012 0.5652328134 4294964398
-0.3093814254 -0.1170905083 0.5653299689 4294633891
-0.3099067509 -0.1166601405 0.5662899017 4294570145
-0.3099594712 -0.1160506904 0.5663862228 4294966188
-0.3100119531 -0.1154409349 0.5664821267 4294635675
-0.3114821315 -0.1153560132 0.5691685677 4293780366
-0.3105888665 -0.1143946201 0.5675362945 4294238838
-0.3115862608 -0.1141293794 0.5693588257 4294173045
-0.3121108115 -0.1136878580 0.5703173876 4293712243
-0.3126352727 -0.1132441610 0.5712757111 4293580657
-0.3126865923 -0.1126279160 0.5713694692 4294104940
-0.3132107556 -0.1121808216 0.5723272562 4294039147
-0.3132615983 -0.1115630344 0.5724201798 4293382256
-0.3137854636 -0.1111125350 0.5733774304 4292724326
-0.3138358593 -0.1104932129 0.5734695196 4290623882
-0.3138859868 -0.1098736003 0.5735611320 4289900159
-0.3171406686 -0.1525304615 0.5806868672 4289173842
-0.3167410791 -0.1516938955 0.5799552202 4290092345
-0.3154731989 -0.1498030871 0.5776336789 4290618942
-0.3146046996 -0.1487506628 0.5760434866 4290618942
-0.3142031431 -0.1479215920 0.5753082633 4290356797
-0.3138011396 -0.1470939517 0.5745722055 4290554176
-0.3129309714 -0.1460494250 0.5729788542 4291013174
-0.3125279844 -0.1452255547 0.5722410083 4291144760
-0.3116566241 -0.1441866308 0.5706455708 4291276344
-0.3112526834 -0.1433665454 0.5699059367 4291342137
-0.3108483255 -0.1425478905 0.5691655278 4291407930
-0.3104435205 -0.1417306960 0.5684243441 4291539516
-0.3100382686 -0.1409149617 0.5676823258 4291736894
-0.3101010323 -0.1403126121 0.5677972436 4291868480
-0.3096950352 -0.1394988745 0.5670538545 4291605562
-0.3092885911 -0.1386865824 0.5663096309 4291671355
-0.3088817000 -0.1378757507 0.5655646324 4291868732
-0.3094120026 -0.1374830008 0.5665356517 4292000318
-0.3090044558 -0.1366732866 0.5657894015 4292131902
-0.3090654612 -0.1360715032 0.5659011006 4292197695
-0.3086571395 -0.1352638155 0.5651534796 4292197438
-0.3087175786 -0.1346622407 0.5652641058 4292197438
-0.3083084822 -0.1338565946 0.5645151138 4292197437
-0.3083683252 -0.1332552284 0.5646246672 4292329023
-0.3079584837 -0.1324516237 0.5638742447 4292460609
-0.3080177307 -0.1318504810 0.5639827251 4292526402
-0.3080767691 -0.1312489957 0.5640907884 4292395074
-0.3081355095 -0.1306471676 0.5641983747 4292395074
-0.3081940413 -0.1300449967 0.5643055439 4292527178
-0.3077824116 -0.1292451620 0.5635518432 4292856143
-0.3078403473 -0.1286432147 0.5636579394 4292856403
-0.3074279428 -0.1278454661 0.5629028082 4292790610
-0.3074853122 -0.1272437721 0.5630078316 4292659287
-0.3075424135 -0.1266417354 0.5631123781 4292988252
-0.3071289062 -0.1258466542 0.5623552799 4293777782
-0.3071854115 -0.1252448708 0.5624587536 4294369919
-0.3072416782 -0.1246427670 0.5625617504 4294567310
-0.3072976768 -0.1240403280 0.5626643300 4294040966
-0.3073534369 -0.1234375611 0.5627664328 4294041993
-0.3074089587 -0.1228344664 0.5628680587 4294568337
-0.3074642122 -0.1222310513 0.5629692078 4294700955
-0.3075192273 -0.1216273010 0.5630699396 4294635162
-0.3075739741 -0.1210232377 0.5631701350 4294829980
-0.3080995679 -0.1206032559 0.5641325116 4294632601
-0.3081538975 -0.1199976131 0.5642319918 4294502046
-0.3082079589 -0.1193916574 0.5643309951 4294765218
-0.3082617819 -0.1187853813 0.5644295216 4294897061
-0.3083153367 -0.1181787923 0.5645276308 4294962854
-0.3083686233 -0.1175718829 0.5646252036 4294963111
-0.3084216714 -0.1169646680 0.5647223592 4294370460
-0.3089461625 -0.1165350452 0.5656826496 4294373021
-0.3089987636 -0.1159262732 0.5657789707 4294966186
-0.3095229566 -0.1154932454 0.5667387843 4294635162
-0.3095751405 -0.1148829237 0.5668343306 4293911439
-0.3105710447 -0.1146206781 0.5686578155 4294370420
-0.3110949397 -0.1141811460 0.5696170926 4294238834
-0.3116187155 -0.1137394384 0.5705761313 4293843828
-0.3116701543 -0.1131241620 0.5706703663 4293712242
-0.3117213547 -0.1125085801 0.5707640648 4294171505
-0.3127170503 -0.1122317687 0.5725871921 4294039919
-0.3127678633 -0.1116137132 0.5726802349 4293579368
-0.3132909536 -0.1111630276 0.5736380219 4293184610
-0.3128687143 -0.1103767157 0.5728648901 4291740797
-0.3138641119 -0.1100893617 0.5746874213 4290688109
-0.3203667104 -0.1543960124 0.5877891183 4289764168
-0.3162371814 -0.1517612040 0.5802125335 4290224184
-0.3149047792 -0.1504798383 0.5777679086 4290487356
-0.3149714470 -0.1498696208 0.5778902173 4290618942
-0.3141043782 -0.1488167495 0.5762994289 4290553149
-0.3137035370 -0.1479873359 0.5755639076 4290553912
-0.3128353059 -0.1469400376 0.5739709735 4290685498
-0.3124334812 -0.1461143941 0.5732337236 4290816309
-0.3115640879 -0.1450726837 0.5716386437 4290947895
-0.3111612797 -0.1442508101 0.5708996058 4291079481
-0.3102907538 -0.1432147026 0.5693023801 4291079481
-0.3098869920 -0.1423966289 0.5685615540 4291144758
-0.3094827831 -0.1415800005 0.5678199530 4291210551
-0.3090781569 -0.1407648325 0.5670775771 4291473722
-0.3091407716 -0.1401631534 0.5671924353 4291736894
-0.3087353706 -0.1393499821 0.5664486289 4291539769
-0.3087973893 -0.1387484968 0.5665624738 4291605562
-0.3083912134 -0.1379373372 0.5658172369 4291736633
-0.3084526658 -0.1373360306 0.5659300089 4291868219
-0.3085138798 -0.1367343664 0.5660423040 4292065852
-0.3081066012 -0.1359257847 0.5652950406 4292131645
-0.3076989055 -0.1351186633 0.5645470023 4292131644
-0.3077591956 -0.1345177591 0.5646576285 4292065851
-0.3078192472 -0.1339165121 0.5647678375 4292065849
-0.3074104190 -0.1331119984 0.5640177727 4292131642
-0.3074699044 -0.1325109601 0.5641268492 4292329021
-0.3075291216 -0.1319095790 0.5642355084 4292460607
-0.3075881004 -0.1313078403 0.5643436909 4292329023
-0.3076468110 -0.1307057738 0.5644514561 4292263230
-0.3072362244 -0.1299050152 0.5636981130 4292264260
-0.3072943687 -0.1293031722 0.5638048053 4292461639
-0.3068830371 -0.1285044998 0.5630500913 4292725070
-0.3069405854 -0.1279028952 0.5631557107 4292988242
-0.3069978952 -0.1273009479 0.5632608533 4292856405
-0.3065854311 -0.1265049428 0.5625041127 4292856405
-0.3066421747 -0.1259032488 0.5626081824 4293514093
-0.3066986203 -0.1253012270 0.5627117753 4294172023
-0.3067548573 -0.1246988624 0.5628149509 4294435463
-0.3063409925 -0.1239061356 0.5620555878 4294106498
-0.3063966036 -0.1233040392 0.5621576309 4294238086
-0.3069220185 -0.1228898093 0.5631216168 4294830223
-0.3069772422 -0.1222861409 0.5632229447 4294765978
-0.3070321977 -0.1216821373 0.5633237958 4294765978
-0.3070869148 -0.1210778207 0.5634241700 4294962337
-0.3071413636 -0.1204731762 0.5635240674 4294962080
-0.3071955740 -0.1198682114 0.5636235476 4294633117
-0.3077200353 -0.1194455624 0.5645858049 4294501531
-0.3077738285 -0.1188390329 0.5646844506 4294963366
-0.3078273535 -0.1182321906 0.5647826791 4294964137
-0.3078806102 -0.1176250279 0.5648804307 4294963879
-0.3084044755 -0.1171964705 0.5658415556 4294831522
-0.3084573150 -0.1165877506 0.5659384727 4294702243
-0.3085098863 -0.1159787253 0.5660349727 4294965672
-0.3090333045 -0.1155455187 0.5669952631 4294635160
-0.3086142838 -0.1147597283 0.5662264824 4293977230
-0.3100798130 -0.1146725938 0.5689153671 4294435447
-0.3106029332 -0.1142328754 0.5698751211 4294303861
-0.3106545210 -0.1136185750 0.5699698329 4294040437
-0.3102343976 -0.1128324866 0.5691989660 4293843058
-0.3112285137 -0.1125596017 0.5710229278 4294040430
-0.3117510378 -0.1121130660 0.5719816089 4293974637
-0.3127451539 -0.1118330434 0.5738055706 4293645408
-0.3113803864 -0.1107102633 0.5713015795 4293316443
-0.3133179545 -0.1107604504 0.5748565197 4292922735
-0.3133680820 -0.1101393625 0.5749484897 4291935840
-0.3756449521 -0.1821735501 0.6906176209 4289500220
-0.3194580674 -0.1536199450 0.5873188376 4290026803
-0.3135372400 -0.1494918317 0.5764334798 4290487869
-0.3131374419 -0.1486615539 0.5756984353 4290422076
-0.3122710884 -0.1476123929 0.5741056800 4290553652
-0.3118703067 -0.1467858851 0.5733688474 4290619445
-0.3110027909 -0.1457422972 0.5717739463 4290750516
-0.3106010258 -0.1449195594 0.5710353255 4290882102
-0.3097323775 -0.1438815743 0.5694382787 4291013688
-0.3093296289 -0.1430626363 0.5686978698 4291079481
-0.3089264631 -0.1422451288 0.5679566264 4290948149
-0.3085228801 -0.1414290816 0.5672146678 4290882356
-0.3081188500 -0.1406144798 0.5664718151 4291210550
-0.3081813157 -0.1400134712 0.5665867329 4291473722
-0.3077765107 -0.1392008662 0.5658425093 4291605562
-0.3073712885 -0.1383897364 0.5650975108 4291539769
-0.3079000711 -0.1379988641 0.5660696626 4291605301
-0.3074941635 -0.1371888220 0.5653234124 4291736887
-0.3075552583 -0.1365878433 0.5654357076 4292000059
-0.3076160848 -0.1359864920 0.5655475259 4292065852
-0.3067414761 -0.1349732876 0.5639395714 4292065851
-0.3068016469 -0.1343730539 0.5640501976 4292000058
-0.3068615496 -0.1337724775 0.5641603470 4292131642
-0.3064533770 -0.1329685301 0.5634098649 4292065849
-0.3065127134 -0.1323681772 0.5635190010 4292394300
-0.3070398271 -0.1319686323 0.5644881129 4292591679
-0.3070987761 -0.1313666552 0.5645964742 4292329023
-0.3066892326 -0.1305649877 0.5638434887 4292197437
-0.3067475557 -0.1299632341 0.5639507771 4292132674
-0.3068056703 -0.1293611526 0.5640575886 4292198467
-0.3063950241 -0.1285621375 0.5633026361 4292527178
-0.3064525425 -0.1279602796 0.5634083748 4293185108
-0.3065098226 -0.1273580939 0.5635136366 4293119577
-0.3065668344 -0.1267555654 0.5636184812 4292790612
-0.3061547577 -0.1259597987 0.5628609061 4293250662
-0.3062111735 -0.1253575236 0.5629646778 4293908592
-0.3062673807 -0.1247549206 0.5630679131 4294500740
-0.3058542013 -0.1239618510 0.5623083115 4294500740
-0.3059098125 -0.1233595088 0.5624105334 4294696327
-0.3059651554 -0.1227568388 0.5625122786 4294960784
-0.3060202301 -0.1221538335 0.5626136065 4294371220
-0.3065445125 -0.1217369363 0.5635774732 4294108048
-0.3065991998 -0.1211323664 0.5636779666 4294830750
-0.3066536188 -0.1205274686 0.5637780428 4294963878
-0.3067077994 -0.1199222505 0.5638776422 4294962339
-0.3067617118 -0.1193167120 0.5639767647 4294501531
-0.3068153560 -0.1187108532 0.5640754104 4294699423
-0.3073387146 -0.1182855442 0.5650375485 4294964137
-0.3073919415 -0.1176781282 0.5651354194 4294964133
-0.3074449003 -0.1170703918 0.5652328134 4294964647
-0.3079678118 -0.1166404262 0.5661941767 4294900903
-0.3080203533 -0.1160311326 0.5662907958 4294440352
-0.3080726266 -0.1154215336 0.5663868785 4294437781
-0.3081246614 -0.1148116216 0.5664825439 4293845644
-0.3091174364 -0.1145501137 0.5683077574 4294369402
-0.3091691136 -0.1139377207 0.5684027076 4294369402
-0.3096911609 -0.1134975180 0.5693625212 4294369145
-0.3102131188 -0.1130551398 0.5703221560 4294105973
-0.3102641702 -0.1124399677 0.5704159737 4294040430
-0.3112567365 -0.1121638715 0.5722407699 4294106223
-0.3117783666 -0.1117149815 0.5731998086 4293777245
-0.3108867705 -0.1107604653 0.5715606213 4293448280
-0.3123501837 -0.1106438041 0.5742511153 4293513573
-0.3133925200 -0.1097327024 0.5761674047 4290623106
-0.3134421706 -0.1091098189 0.5762586594 4290030969
-0.3851018250 -0.1887184083 0.7094525695 4288845657
-0.3847204149 -0.1877440214 0.7087498903 4288714071
-0.3834089935 -0.1863192767 0.7063339353 4289501239
-0.3811670244 -0.1844495833 0.7022036910 4289698618
-0.3156923354 -0.1521196961 0.5815831423 4290157889
-0.3135007918 -0.1497802883 0.5775457621 4290421555
-0.3126365244 -0.1487274468 0.5759536028 4290618934
-0.3122369647 -0.1478982568 0.5752174854 4290684474
-0.3118369579 -0.1470704973 0.5744805932 4290618681
-0.3109709918 -0.1460255831 0.5728852749 4290684976
-0.3101043999 -0.1449839026 0.5712888241 4290816562
-0.3097029030 -0.1441622674 0.5705491900 4290948149
-0.3093009889 -0.1433420777 0.5698087215 4291013942
-0.3084326982 -0.1423083544 0.5682091117 4291144757
-0.3084958196 -0.1417060196 0.5683254004 4291078964
-0.3080925643 -0.1408901811 0.5675825477 4291079218
-0.3076889217 -0.1400757879 0.5668388605 4291079218
-0.3077510893 -0.1394741684 0.5669534206 4291276595
-0.3073466718 -0.1386617869 0.5662083626 4291276595
-0.3069418073 -0.1378508508 0.5654625297 4291408181
-0.3070030808 -0.1372499764 0.5655754209 4291605560
-0.3065974414 -0.1364410818 0.5648281574 4291868219
-0.3066581488 -0.1358404011 0.5649399757 4291999805
-0.3062517643 -0.1350335181 0.5641912818 4292000059
-0.3063118756 -0.1344330460 0.5643020272 4292065852
-0.3063717484 -0.1338322163 0.5644123554 4292131644
-0.3059642613 -0.1330279559 0.5636616349 4292065851
-0.3060235381 -0.1324273348 0.5637708902 4292131391
-0.3060826063 -0.1318263859 0.5638796687 4292197184
-0.3061414063 -0.1312250793 0.5639879704 4292197697
-0.3061999381 -0.1306234151 0.5640958548 4292197697
-0.3062582612 -0.1300214231 0.5642032623 4292263743
-0.3063163161 -0.1294190884 0.5643101931 4292395329
-0.3059063852 -0.1286197305 0.5635550022 4292264257
-0.3059638441 -0.1280176342 0.5636609197 4293316945
-0.3055531681 -0.1272203624 0.5629042983 4293580381
-0.3056100607 -0.1266185194 0.5630090833 4292922451
-0.3051986098 -0.1258233339 0.5622510910 4293119328
-0.3052549064 -0.1252217442 0.5623548627 4293579879
-0.3053109646 -0.1246198043 0.5624580979 4294303352
-0.3053667545 -0.1240175366 0.5625609159 4294434938
-0.3049538732 -0.1232256517 0.5618003011 4294501518
-0.3054776192 -0.1228120178 0.5627651811 4294567311
-0.3055326939 -0.1222087666 0.5628665686 4294633620
-0.3055875003 -0.1216051877 0.5629675388 4294436241
-0.3061108291 -0.1211868748 0.5639316440 4294173071
-0.3061652184 -0.1205817237 0.5640318394 4294436243
-0.3062193394 -0.1199762523 0.5641315579 4294896794
-0.3062732220 -0.1193704605 0.5642307997 4294962587
-0.3063268363 -0.1187643483 0.5643296242 4294962846
-0.3063802123 -0.1181579232 0.5644279122 4294963874
-0.3064333200 -0.1175511777 0.5645257831 4294965417
-0.3064861894 -0.1169441193 0.5646231174 4294964903
-0.3070082068 -0.1165148988 0.5655848384 4294965157
-0.3070606291 -0.1159062833 0.5656814575 4294965414
-0.3071128130 -0.1152973622 0.5657775402 4294634131
-0.3071647286 -0.1146881208 0.5658732057 4293844615
-0.3081558645 -0.1144274399 0.5676991343 4294435211
-0.3086772561 -0.1139892265 0.5686596632 4294172039
-0.3087286353 -0.1133762673 0.5687543154 4293975412
-0.3092497289 -0.1129346415 0.5697143078 4293909619
-0.3093006611 -0.1123201475 0.5698081255 4293909873
-0.3098214567 -0.1118751094 0.5707675815 4293712494
-0.3098719418 -0.1112590730 0.5708605647 4293908064
-0.3103924692 -0.1108106300 0.5718194842 4293710685
-0.3109128773 -0.1103600115 0.5727781653 4293448795
-0.3119035959 -0.1100732535 0.5746033788 4293054037
-0.3124238551 -0.1096173599 0.5755617619 4292199014
-0.3129439652 -0.1091592982 0.5765200257 4291212119
-0.3784542084 -0.1858410090 0.6986354589 4288450377
-0.3794638216 -0.1855584830 0.7004992962 4288384584
-0.3772256374 -0.1836902797 0.6963675022 4289566262
-0.3146542013 -0.1525757164 0.5808591843 4289829434
-0.3179708123 -0.1535317600 0.5869817138 4290092349
-0.3129313588 -0.1504566222 0.5776787996 4290223935
-0.3129977584 -0.1498465687 0.5778013468 4290356019
-0.3121349514 -0.1487932950 0.5762085915 4290421812
-0.3112715185 -0.1477432549 0.5746146441 4290618165
-0.3108721077 -0.1469160616 0.5738773346 4290618165
-0.3100075126 -0.1458716094 0.5722812414 4290684723
-0.3096071482 -0.1450482011 0.5715421438 4290750516
-0.3087413609 -0.1440093368 0.5699439049 4290881588
-0.3083400428 -0.1431897134 0.5692030787 4290947381
-0.3079382777 -0.1423715502 0.5684614182 4291078965
-0.3075360656 -0.1415548176 0.5677189231 4291013172
-0.3075987995 -0.1409527808 0.5678347349 4291013425
-0.3071958423 -0.1401380599 0.5670908689 4291145011
-0.3067924380 -0.1393247843 0.5663461685 4291276595
-0.3068542480 -0.1387234777 0.5664603114 4291276595
-0.3064500988 -0.1379122138 0.5657141805 4291407922
-0.3065113425 -0.1373111010 0.5658272505 4291473715
-0.3061064184 -0.1365018487 0.5650797486 4291539507
-0.3057010472 -0.1356940866 0.5643314719 4291671093
-0.3057613671 -0.1350937188 0.5644428134 4291802677
-0.3058214486 -0.1344929934 0.5645536780 4291868470
-0.3058812916 -0.1338919252 0.5646641254 4291802679
-0.3054744899 -0.1330873221 0.5639132261 4291934265
-0.3055337369 -0.1324864626 0.5640226007 4292000059
-0.3055927455 -0.1318852603 0.5641314983 4292065852
-0.3056515157 -0.1312837005 0.5642399788 4292131645
-0.3057100177 -0.1306818128 0.5643479824 4292065852
-0.3057682812 -0.1300795674 0.5644555688 4292132157
-0.3058263063 -0.1294769794 0.5645626783 4292329536
-0.3054170609 -0.1286772937 0.5638071895 4292330050
-0.3054745197 -0.1280749440 0.5639132261 4292922187
-0.3050645292 -0.1272773445 0.5631563663 4293382487
-0.3051213622 -0.1266752332 0.5632613301 4293316694
-0.3047106266 -0.1258797348 0.5625030994 4293382498
-0.3047668934 -0.1252778769 0.5626069903 4293316705
-0.3048229218 -0.1246756986 0.5627103448 4293777008
-0.3044110835 -0.1238828823 0.5619500875 4294105973
-0.3044665158 -0.1232809648 0.5620524287 4294303875
-0.3045216799 -0.1226787120 0.5621542931 4294303875
-0.3050444722 -0.1222636551 0.5631194115 4294369929
-0.3050992489 -0.1216598302 0.5632205009 4294304136
-0.3051537573 -0.1210556775 0.5633211136 4294172552
-0.3056761324 -0.1206359416 0.5642854571 4294238345
-0.3057302237 -0.1200302169 0.5643852949 4294633104
-0.3057840765 -0.1194241717 0.5644847155 4294962326
-0.3058376610 -0.1188178062 0.5645835996 4294962583
-0.3058909774 -0.1182111278 0.5646820664 4294962840
-0.3059440553 -0.1176041290 0.5647800565 4294963612
-0.3059968948 -0.1169968098 0.5648775697 4294963355
-0.3060494363 -0.1163891852 0.5649746060 4294963867
-0.3065705299 -0.1159585491 0.5659365058 4294963353
-0.3066226542 -0.1153493673 0.5660327673 4294370697
-0.3071434498 -0.1149153113 0.5669941306 4293975939
-0.3076641560 -0.1144790873 0.5679553747 4294435463
-0.3077156842 -0.1138671115 0.5680505037 4294172291
-0.3082360923 -0.1134274751 0.5690111518 4293974644
-0.3078179359 -0.1126422435 0.5682392716 4293908851
-0.3083379865 -0.1122001335 0.5691992640 4293910124
-0.3088579178 -0.1117558479 0.5701591372 4293778538
-0.3089083135 -0.1111404821 0.5702521205 4293842789
-0.3089584112 -0.1105248183 0.5703446269 4293711203
-0.3104171157 -0.1104099527 0.5730373859 4293514588
-0.3109366000 -0.1099569798 0.5739964247 4293317209
-0.3114559948 -0.1095018387 0.5749552250 4292791392
-0.3119752705 -0.1090445220 0.5759137869 4292067669
-0.3755295277 -0.1847837120 0.6946607232 4288844608
-0.3732950985 -0.1829169989 0.6905274391 4289107780
-0.3692063689 -0.1801546812 0.6829640865 4289894457
-0.3136843443 -0.1524179280 0.5802584887 4290026043
-0.3169955611 -0.1533753276 0.5863837004 4290026552
-0.3165996075 -0.1525330544 0.5856512189 4290092345
-0.3115667999 -0.1494679600 0.5763414502 4290224434
-0.3107052445 -0.1484160572 0.5747476816 4290224434
-0.3098430336 -0.1473673880 0.5731527805 4290486579
-0.3089802265 -0.1463219672 0.5715567470 4290552372
-0.3085807860 -0.1454986036 0.5708178878 4290750002
-0.3081809282 -0.1446766704 0.5700781941 4290750002
-0.3077806532 -0.1438561827 0.5693377256 4290684209
-0.3073799312 -0.1430371255 0.5685964823 4290815795
-0.3069787621 -0.1422195286 0.5678544044 4291078965
-0.3065771759 -0.1414033771 0.5671115518 4291013172
-0.3061751723 -0.1405886710 0.5663679242 4290947632
-0.3062373996 -0.1399878561 0.5664830804 4291145011
-0.3058346212 -0.1391751617 0.5657379627 4291210800
-0.3054314256 -0.1383639276 0.5649921298 4291210800
-0.3054927588 -0.1377638429 0.5651055574 4291276335
-0.3050887883 -0.1369546205 0.5643582940 4291276335
-0.3051495254 -0.1363547295 0.5644707084 4291342126
-0.3047448099 -0.1355475336 0.5637219548 4291407919
-0.3048049808 -0.1349478364 0.5638332963 4291539759
-0.3048649132 -0.1343477964 0.5639441609 4291605552
-0.3045184314 -0.1329433769 0.5633032918 4291867956
-0.3045775592 -0.1323431879 0.5634126067 4291999288
-0.3051022291 -0.1319441050 0.5643832088 4291933495
-0.3051609695 -0.1313423067 0.5644918084 4291868472
-0.3047534525 -0.1305405498 0.5637379885 4291934265
-0.3048115671 -0.1299389750 0.5638455153 4292065849
-0.3048694730 -0.1293370724 0.5639526248 4292263228
-0.3044608533 -0.1285379678 0.5631967187 4292395327
-0.3045181632 -0.1279362887 0.5633027554 4292658499
-0.3045752347 -0.1273342818 0.5634083152 4292921936
-0.3046320379 -0.1267319322 0.5635133982 4293185108
-0.3042219877 -0.1259360760 0.5627549291 4293513826
-0.3042782247 -0.1253339797 0.5628589392 4293250654
-0.3043341935 -0.1247315481 0.5629624724 4293579114
-0.3039230704 -0.1239384040 0.5622019768 4293908079
-0.3039784729 -0.1233362332 0.5623044372 4293974647
-0.3040336072 -0.1227337345 0.5624064207 4294106233
-0.3045556247 -0.1223185137 0.5633720160 4294106751
-0.3046103418 -0.1217144281 0.5634732842 4294304130
-0.3046648204 -0.1211100295 0.5635740757 4294238597
-0.3051864207 -0.1206901222 0.5645388961 4294172804
-0.3047730327 -0.1199002489 0.5637741685 4294369670
-0.3048267365 -0.1192948818 0.5638735890 4294698635
-0.3048802018 -0.1186891869 0.5639724731 4294698635
-0.3054011166 -0.1182642877 0.5649360418 4294698635
-0.3049863875 -0.1174768582 0.5641688704 4294567308
-0.3050390780 -0.1168702170 0.5642663240 4294764687
-0.3055594563 -0.1164415851 0.5652289391 4294962577
-0.3056117296 -0.1158333868 0.5653256774 4294764941
-0.3056637645 -0.1152248755 0.5654218793 4294435716
-0.3057155013 -0.1146160588 0.5655176044 4294435716
-0.3067035079 -0.1143561080 0.5673452616 4294434947
-0.3067549169 -0.1137448102 0.5674403310 4294237568
-0.3068060577 -0.1131332070 0.5675349236 4294040180
-0.3073254228 -0.1126930788 0.5684956908 4293908594
-0.3078446984 -0.1122507825 0.5694562197 4293975145
-0.3078952134 -0.1116363928 0.5695496798 4293909352
-0.3079454899 -0.1110217050 0.5696426630 4293711722
-0.3089330494 -0.1107428074 0.5714694858 4293645929
-0.3094518185 -0.1102927551 0.5724291205 4293514335
-0.3104394078 -0.1100067049 0.5742559433 4293382749
-0.3114270270 -0.1097166017 0.5760828853 4293448280
-0.3105383217 -0.1087652668 0.5744389296 4292987729
-0.3726115227 -0.1837253422 0.6906819940 4288844598
-0.3699178696 -0.1816353202 0.6856889725 4289107770
-0.3214355111 -0.1571677327 0.5958209038 4290091066
-0.3247427940 -0.1581160426 0.6019513607 4290156859
-0.3132449687 -0.1518726647 0.5806387067 4289961012
-0.3114606440 -0.1503660977 0.5773311853 4290026805
-0.3106010556 -0.1493114233 0.5757378340 4289961775
-0.3102038205 -0.1484816074 0.5750015378 4290027568
-0.3093430996 -0.1474325061 0.5734060407 4290420786
-0.3084817231 -0.1463866532 0.5718094110 4290552372
-0.3080829978 -0.1455629468 0.5710703135 4290684207
-0.3076838255 -0.1447406709 0.5703304410 4290684207
-0.3072842360 -0.1439198405 0.5695897341 4290618413
-0.3073478043 -0.1433166265 0.5697075129 4290749999
-0.3069474399 -0.1424977779 0.5689654350 4291079218
-0.3065466583 -0.1416803747 0.5682225227 4291013425
-0.3061454296 -0.1408644319 0.5674787760 4290947117
-0.3057437837 -0.1400499344 0.5667343140 4291144496
-0.3053416908 -0.1392369121 0.5659889579 4291144750
-0.3054033220 -0.1386360228 0.5661032200 4291210543
-0.3050004840 -0.1378250122 0.5653564930 4291210542
-0.3045971990 -0.1370154619 0.5646089911 4291144749
-0.3046579361 -0.1364153177 0.5647215247 4291276333
-0.3042539060 -0.1356077939 0.5639725924 4291407919
-0.3043140471 -0.1350078583 0.5640840530 4291539759
-0.3043739200 -0.1344075799 0.5641950965 4291539759
-0.3044335842 -0.1338069290 0.5643056631 4291670577
-0.3040281236 -0.1330025643 0.5635541081 4291802163
-0.3040871918 -0.1324021369 0.5636636019 4291801909
-0.3041460216 -0.1318013668 0.5637726188 4291801909
-0.3042046130 -0.1312002391 0.5638812184 4291736886
-0.3042629361 -0.1305987686 0.5639894009 4291802679
-0.3038557172 -0.1297981739 0.5632345080 4291934263
-0.3039134741 -0.1291969419 0.5633416176 4292065849
-0.3039709926 -0.1285953522 0.5634481907 4292066362
-0.3035626709 -0.1277974248 0.5626913309 4292526913
-0.3036195934 -0.1271960884 0.5627968311 4292461639
-0.3036762774 -0.1265944093 0.5629019141 4292461639
-0.3037327230 -0.1259923875 0.5630065203 4293316447
-0.3033229709 -0.1251977235 0.5622470379 4293579619
-0.3033788204 -0.1245959699 0.5623505712 4293776493
-0.3034344316 -0.1239938810 0.5624536276 4293842286
-0.3034897745 -0.1233914644 0.5625562072 4293579886
-0.3035448790 -0.1227887124 0.5626583695 4293843058
-0.3040660918 -0.1223733202 0.5636245012 4293909368
-0.3041207790 -0.1217689961 0.5637258887 4294040954
-0.3041752279 -0.1211643368 0.5638267994 4294303875
-0.3042294085 -0.1205593571 0.5639272332 4294303875
-0.3042833507 -0.1199540570 0.5640271902 4294303107
-0.3043370247 -0.1193484366 0.5641266704 4294237314
-0.3043904603 -0.1187424883 0.5642257333 4294500740
-0.3044436276 -0.1181362271 0.5643243194 4294500740
-0.3044965565 -0.1175296530 0.5644223690 4294434947
-0.3045492172 -0.1169227585 0.5645200014 4294632326
-0.3046016097 -0.1163155511 0.5646171570 4294763912
-0.3046537936 -0.1157080308 0.5647138357 4294566533
-0.3047056794 -0.1151001975 0.5648100376 4294500739
-0.3056921661 -0.1148432568 0.5666386485 4294500739
-0.3057437241 -0.1142329425 0.5667341948 4294237565
-0.3062625825 -0.1137960479 0.5676959753 4294171772
-0.3063136935 -0.1131841838 0.5677906871 4294171505
-0.3063645363 -0.1125720143 0.5678849220 4294105712
-0.3068829477 -0.1121304631 0.5688458681 4293909354
-0.3069333434 -0.1115167513 0.5689393282 4293843561
-0.3079194129 -0.1112408563 0.5707671046 4293515376
-0.3075014353 -0.1104565412 0.5699923038 4293515376
-0.3084873557 -0.1101753637 0.5718198419 4293711463
-0.3090051413 -0.1097238883 0.5727795959 4293382498
-0.3095228076 -0.1092702448 0.5737391710 4293514327
-0.3105086982 -0.1089787930 0.5755666494 4293909085
-0.3096209764 -0.1080295593 0.5739211440 4292990632
-0.3731479943 -0.1866796911 0.6931033731 4289441972
-0.3723071218 -0.1854906678 0.6915414929 4288320636
-0.3714655638 -0.1843047738 0.6899783015 4288123257
-0.3692386746 -0.1824378669 0.6858419776 4289106992
-0.3660871983 -0.1801252365 0.6799882650 4289172785
-0.3620105386 -0.1773723066 0.6724160910 4289959480
-0.3149800003 -0.1536789685 0.5850592852 4290025273
-0.3122758567 -0.1517151445 0.5800364614 4289895730
-0.3118804991 -0.1508794278 0.5793021321 4289961523
-0.3110225797 -0.1498225033 0.5777085423 4289764914
-0.3097017705 -0.1485471129 0.5752552152 4289764914
-0.3088424802 -0.1474975795 0.5736591220 4290223923
-0.3084449768 -0.1466711909 0.5729207993 4290355509
-0.3080470562 -0.1458462328 0.5721817017 4290684460
-0.3071860671 -0.1448046416 0.5705824494 4290750253
-0.3072499037 -0.1442006379 0.5707010031 4290816044
-0.3068507016 -0.1433800012 0.5699595213 4290881837
-0.3064510226 -0.1425608248 0.5692171454 4291013423
-0.3055879474 -0.1415286511 0.5676140189 4290947630
-0.3051873147 -0.1407132745 0.5668699145 4290881578
-0.3052494824 -0.1401119828 0.5669853687 4291013164
-0.3048481047 -0.1392986178 0.5662398338 4291013164
-0.3049097061 -0.1386974901 0.5663542151 4291078957
-0.3045075536 -0.1378861368 0.5656072497 4291078956
-0.3041049838 -0.1370762438 0.5648595095 4291078956
