VERSION 0.7
FIELDS x y z rgba
SIZE 4 4 4 4
TYPE F F F U
COUNT 1 1 1 1
WIDTH 920
HEIGHT 1
VIEWPOINT 0.0 0.0 0.0 1.0 0.0 0.0 0.0
POINTS 920
DATA ascii
-0.2934556901 -0.1870207191 0.5981396437 4289699404
-0.2931075990 -0.1861350834 0.5974300504 4289896783
-0.2914861739 -0.1844452918 0.5941252112 4291076413
-0.2902880609 -0.1830297709 0.5916831493 4290615862
-0.2895136178 -0.1818858087 0.5901045799 4290551081
-0.2878892720 -0.1802133620 0.5867937803 4290551081
-0.2866885662 -0.1788124889 0.5843464136 4290682667
-0.2854870260 -0.1774165332 0.5818973780 4290682667
-0.2847095430 -0.1762886047 0.5803126693 4290748459
-0.2826563120 -0.1743771434 0.5761275887 4290814252
-0.2835778594 -0.1743034571 0.5780059695 4290880558
-0.2815228105 -0.1724027544 0.5738171935 4290814765
-0.2807425559 -0.1712891608 0.5722268820 4290617384
-0.2808126509 -0.1706959754 0.5723697543 4290683177
-0.2804569602 -0.1698446125 0.5716447234 4290748970
-0.2801008224 -0.1689946204 0.5709188581 4290880556
-0.2797442675 -0.1681459695 0.5701921582 4290814763
-0.2798132002 -0.1675537229 0.5703326464 4290748970
-0.2798819244 -0.1669610441 0.5704727173 4290814763
-0.2795243263 -0.1661147028 0.5697438717 4290880556
-0.2795925438 -0.1655220538 0.5698828697 4290946090
-0.2796605229 -0.1649289578 0.5700214505 4290946090
-0.2797282934 -0.1643354446 0.5701595545 4290946090
-0.2793693542 -0.1634918898 0.5694279075 4291011883
-0.2790099680 -0.1626497209 0.5686954260 4291143469
-0.2790769041 -0.1620567292 0.5688318610 4291143469
-0.2787168026 -0.1612164229 0.5680978894 4291143982
-0.2787832022 -0.1606234908 0.5682332516 4291209775
-0.2788494229 -0.1600301266 0.5683681369 4291143982
-0.2789154053 -0.1594363451 0.5685026646 4291275568
-0.2789811492 -0.1588421464 0.5686367154 4291209521
-0.2790467143 -0.1582475156 0.5687702894 4291209521
-0.2791120410 -0.1576524824 0.5689034462 4291143728
-0.2791771591 -0.1570570171 0.5690361857 4291143728
-0.2792420685 -0.1564611495 0.5691685081 4291341107
-0.2793067396 -0.1558648646 0.5693003535 4291275314
-0.2793712318 -0.1552681625 0.5694317222 4291210543
-0.2794354856 -0.1546710432 0.5695627332 4291144750
-0.2794995010 -0.1540735215 0.5696932077 4291275568
-0.2795633376 -0.1534755826 0.5698233247 4291275568
-0.2796269059 -0.1528772265 0.5699529052 4291078703
-0.2796902955 -0.1522784829 0.5700821280 4291078703
-0.2797534466 -0.1516793221 0.5702108145 4291145007
-0.2798163891 -0.1510797590 0.5703390837 4291210800
-0.2798790932 -0.1504797786 0.5704669356 4291276593
-0.2799415886 -0.1498794109 0.5705943108 4291079214
-0.2795750797 -0.1490500420 0.5698472261 4291013423
-0.2796370089 -0.1484497786 0.5699735284 4291342388
-0.2796987593 -0.1478491277 0.5700993538 4291473974
-0.2797602415 -0.1472480893 0.5702247024 4291342388
-0.2798215449 -0.1466466337 0.5703496337 4291408951
-0.2798825800 -0.1460448056 0.5704740286 4291606330
-0.2799434364 -0.1454425752 0.5705980659 4291670842
-0.2800040245 -0.1448399425 0.5707215667 4291670842
-0.2804939747 -0.1444581598 0.5717201829 4291736894
-0.2805542052 -0.1438538283 0.5718429685 4291802687
-0.2806142271 -0.1432491094 0.5719653368 4291802687
-0.2811038494 -0.1428624392 0.5729632974 4291736894
-0.2811635137 -0.1422560215 0.5730848908 4291736894
-0.2812229395 -0.1416492164 0.5732060075 4291802687
-0.2812821269 -0.1410420388 0.5733267069 4291934274
-0.2817713022 -0.1406491995 0.5743237138 4292000067
-0.2818301320 -0.1400403082 0.5744436383 4291868997
-0.2823190987 -0.1396439224 0.5754402876 4291868997
-0.2823775411 -0.1390333474 0.5755594373 4292000583
-0.2828662992 -0.1386334002 0.5765556693 4292000583
-0.2829243839 -0.1380211413 0.5766740441 4292197448
-0.2834129632 -0.1376176476 0.5776698589 4292329034
-0.2839014530 -0.1372119188 0.5786655545 4292067151
-0.2839590311 -0.1365966648 0.5787828565 4292132944
-0.2844473124 -0.1361873895 0.5797781348 4292132690
-0.2845044732 -0.1355704516 0.5798946619 4292198483
-0.2849925756 -0.1351576149 0.5808895230 4292330587
-0.2854805887 -0.1347425431 0.5818842649 4292462173
-0.2859685421 -0.1343252361 0.5828788280 4292396640
-0.2864564359 -0.1339056790 0.5838732719 4292462433
-0.2869442403 -0.1334838867 0.5848675370 4292331368
-0.2870004177 -0.1328600496 0.5849820375 4292462954
-0.2874879837 -0.1324347109 0.5859758258 4292594550
-0.2879754901 -0.1320071220 0.5869695544 4292726136
-0.2884629369 -0.1315772831 0.5879630446 4292857217
-0.2889502943 -0.1311452091 0.5889564157 4292791424
-0.2894375622 -0.1307108998 0.5899496078 4292857478
-0.2903568447 -0.1304684877 0.5918233395 4293054857
-0.2908440530 -0.1300287396 0.5928163528 4292793780
-0.2941803634 -0.1879079342 0.6009771228 4289239390
-0.2929864824 -0.1864803433 0.5985382199 4288844632
-0.2922152579 -0.1853261888 0.5969626904 4290353987
-0.2910197675 -0.1839074492 0.5945204496 4290090815
-0.2902471423 -0.1827603877 0.5929419994 4290615844
-0.2886261940 -0.1810846031 0.5896306634 4290747430
-0.2870041728 -0.1794155091 0.5863170624 4290551089
-0.2862291932 -0.1782813519 0.5847337842 4290551089
-0.2837569416 -0.1760974079 0.5796833038 4290552361
-0.2846772671 -0.1760223955 0.5815634131 4290683947
-0.2826272249 -0.1741133183 0.5773754120 4290815017
-0.2818493545 -0.1729943603 0.5757863522 4290749224
-0.2810708582 -0.1718785614 0.5741959214 4290880556
-0.2807163894 -0.1710246354 0.5734717846 4290748970
-0.2803615034 -0.1701720506 0.5727468133 4290748970
-0.2800062001 -0.1693208367 0.5720209479 4290814763
-0.2796504796 -0.1684709936 0.5712942481 4290749487
-0.2792943418 -0.1676224917 0.5705667138 4290683694
-0.2793629766 -0.1670296043 0.5707069635 4290815266
-0.2794314325 -0.1664362699 0.5708467960 4290881059
-0.2794996500 -0.1658425033 0.5709861517 4290946603
-0.2791421711 -0.1649967879 0.5702558160 4290880810
-0.2792098820 -0.1644030511 0.5703941584 4290946603
-0.2792773545 -0.1638088971 0.5705320239 4291012396
-0.2789188027 -0.1629655063 0.5697995424 4291078189
-0.2789857984 -0.1623713970 0.5699363947 4291143982
-0.2786265016 -0.1615298688 0.5692024231 4291209775
-0.2786929607 -0.1609358042 0.5693381429 4291143982
-0.2783329487 -0.1600961536 0.5686026812 4291143982
-0.2783988416 -0.1595021635 0.5687373281 4291143982
-0.2784645557 -0.1589077413 0.5688715577 4291012910
-0.2785300314 -0.1583129019 0.5690053105 4291078703
-0.2790219486 -0.1579591781 0.5700102448 4291078703
-0.2786603570 -0.1571219712 0.5692715645 4291078703
-0.2787251770 -0.1565258801 0.5694040060 4291078703
-0.2787898183 -0.1559293866 0.5695360303 4291012910
-0.2788542211 -0.1553324610 0.5696675777 4291210543
-0.2789183855 -0.1547351331 0.5697987080 4291144750
-0.2789823711 -0.1541373879 0.5699293613 4291144750
-0.2790461183 -0.1535392255 0.5700595975 4291144750
-0.2791096568 -0.1529406607 0.5701894164 4291144750
-0.2791729569 -0.1523416936 0.5703187585 4291078957
-0.2792360485 -0.1517423093 0.5704476237 4291210543
-0.2792989314 -0.1511425227 0.5705760717 4291342129
-0.2793615758 -0.1505423337 0.5707040429 4291210802
-0.2794240117 -0.1499417424 0.5708315969 4291145009
-0.2794862092 -0.1493407488 0.5709586740 4291210802
-0.2795481980 -0.1487393528 0.5710852742 4291539767
-0.2791817486 -0.1479106992 0.5703366995 4291539767
-0.2796714902 -0.1475353539 0.5713371634 4291342388
-0.2797327936 -0.1469327658 0.5714624524 4291473974
-0.2797938883 -0.1463297904 0.5715872645 4291605560
-0.2798547447 -0.1457263976 0.5717115998 4291671101
-0.2799153924 -0.1451226324 0.5718354583 4291671101
-0.2799758017 -0.1445184648 0.5719588995 4291671353
-0.2804648578 -0.1441342980 0.5729579329 4291605560
-0.2805249095 -0.1435284317 0.5730805993 4291539767
-0.2805847228 -0.1429221630 0.5732027888 4291737146
-0.2810734510 -0.1425331235 0.5742012262 4291934525
-0.2811329067 -0.1419251710 0.5743227005 4292066111
-0.2811921239 -0.1413168162 0.5744436979 4291803455
-0.2816805243 -0.1409229040 0.5754414201 4291803455
-0.2817393839 -0.1403128654 0.5755616426 4291803457
-0.2822275758 -0.1399154067 0.5765590072 4291869250
-0.2822860777 -0.1393036693 0.5766784549 4291934790
-0.2823443115 -0.1386915445 0.5767974854 4292000583
-0.2828321755 -0.1382892281 0.5777941346 4292066380
-0.2833199799 -0.1378846467 0.5787906647 4292066380
-0.2838077247 -0.1374778450 0.5797870755 4292066638
-0.2838653028 -0.1368614137 0.5799046755 4292066638
-0.2839226425 -0.1362446249 0.5800218582 4292198737
-0.2844100296 -0.1358329505 0.5810174942 4292132944
-0.2848973572 -0.1354190260 0.5820130706 4292330071
-0.2853846252 -0.1350028664 0.5830084682 4292593243
-0.2858718038 -0.1345844716 0.5840036869 4292526947
-0.2859283090 -0.1339620650 0.5841191411 4292526947
-0.2864152491 -0.1335401088 0.5851139426 4292264294
-0.2869021595 -0.1331159174 0.5861086249 4292527466
-0.2873889804 -0.1326894760 0.5871031284 4292528244
-0.2878757119 -0.1322607845 0.5880975127 4292791416
-0.2883623838 -0.1318298578 0.5890917182 4292726413
-0.2888489664 -0.1313966811 0.5900857449 4292923792
-0.2897666693 -0.1311564445 0.5919605494 4292990120
-0.2906844914 -0.1309120655 0.5938354731 4293319085
-0.2936321199 -0.1879842877 0.6012213230 4290161282
-0.2928631604 -0.1868257374 0.5996468067 4288582250
-0.2920935154 -0.1856702715 0.5980709791 4289434692
-0.2913232446 -0.1845178902 0.5964938402 4290092622
-0.2905523479 -0.1833686233 0.5949153900 4290484775
-0.2889347076 -0.1816904098 0.5916032195 4290616361
-0.2877391279 -0.1802840084 0.5891551971 4290617387
-0.2852729261 -0.1780898273 0.5841056108 4290683180
-0.2866154909 -0.1782759130 0.5868545175 4290552361
-0.2841472626 -0.1760942489 0.5818007588 4290420775
-0.2829482853 -0.1747075021 0.5793458223 4290486052
-0.2821721137 -0.1735863388 0.5777565837 4290815017
-0.2813953161 -0.1724683046 0.5761660933 4290880808
-0.2810418010 -0.1716122627 0.5754421949 4290815015
-0.2806878388 -0.1707575768 0.5747174621 4290618152
-0.2799093723 -0.1696472019 0.5731235147 4290683945
-0.2795544565 -0.1687961370 0.5723968744 4290683949
-0.2796234488 -0.1682016701 0.5725381374 4290683949
-0.2792678177 -0.1673524231 0.5718099475 4290880807
-0.2793363035 -0.1667579859 0.5719501972 4290946600
-0.2794045806 -0.1661631018 0.5720899701 4290946601
-0.2790479064 -0.1653161645 0.5713596344 4290946601
-0.2791156173 -0.1647213101 0.5714983344 4291012394
-0.2787582278 -0.1638762206 0.5707665086 4291012394
-0.2788254321 -0.1632814258 0.5709041357 4291078189
-0.2788924277 -0.1626861989 0.5710413456 4291078189
-0.2785339952 -0.1618434489 0.5703073740 4291143982
-0.2786004543 -0.1612482667 0.5704435110 4291143982
-0.2782412767 -0.1604073942 0.5697080493 4291012910
-0.2783071995 -0.1598122716 0.5698430538 4291012910
-0.2783729434 -0.1592167318 0.5699776411 4291012910
-0.2784384489 -0.1586207598 0.5701118112 4291012910
-0.2785037756 -0.1580243856 0.5702455044 4291078703
-0.2789947987 -0.1576682925 0.5712509155 4291078703
-0.2786337137 -0.1568303555 0.5705115795 4291078703
-0.2786983550 -0.1562327296 0.5706439614 4291078703
-0.2787628174 -0.1556346714 0.5707759261 4291276336
-0.2788270116 -0.1550362110 0.5709074140 4291210543
-0.2788910270 -0.1544373333 0.5710384250 4291144750
-0.2789548039 -0.1538380384 0.5711690187 4291078957
-0.2790183723 -0.1532383412 0.5712991953 4291144750
-0.2790817022 -0.1526382267 0.5714288950 4291144750
-0.2791448236 -0.1520377100 0.5715581179 4291210289
-0.2792077363 -0.1514367908 0.5716869235 4291276082
-0.2792704105 -0.1508354545 0.5718152523 4291341875
-0.2793328762 -0.1502337158 0.5719431639 4291276082
-0.2793951035 -0.1496315747 0.5720705986 4291341875
-0.2794571221 -0.1490290463 0.5721975565 4291670840
-0.2790915370 -0.1481991559 0.5714489818 4291539769
-0.2791529894 -0.1475967318 0.5715748668 4291342390
-0.2796418369 -0.1472190171 0.5725757480 4291539769
-0.2797029614 -0.1466148943 0.5727009177 4291671355
-0.2797638476 -0.1460103542 0.5728256106 4291605308
-0.2798245251 -0.1454054415 0.5729498267 4291605308
-0.2798849642 -0.1448001117 0.5730735660 4291605562
-0.2799451947 -0.1441944093 0.5731968880 4291605562
-0.2804333270 -0.1438078582 0.5741963387 4291671353
-0.2804931700 -0.1432004571 0.5743188858 4291802939
-0.2805528045 -0.1425926536 0.5744410157 4291803455
-0.2810406089 -0.1422012299 0.5754398108 4291803455
-0.2810998857 -0.1415917277 0.5755611658 4291737664
-0.2815875113 -0.1411967427 0.5765596032 4291737664
-0.2816464007 -0.1405855417 0.5766801834 4291803458
-0.2821338177 -0.1401870102 0.5776782036 4291869251
-0.2821923494 -0.1395741105 0.5777980089 4291934792
-0.2822506428 -0.1389608234 0.5779173374 4292000585
-0.2827377319 -0.1385574192 0.5789147019 4292066638
-0.2832247615 -0.1381517649 0.5799118876 4292132431
-0.2837117314 -0.1377438754 0.5809090137 4292132430
-0.2837693393 -0.1371262819 0.5810269713 4292198223
-0.2838267088 -0.1365083158 0.5811444521 4292067669
-0.2838838696 -0.1358899772 0.5812614560 4292001876
-0.2843703330 -0.1354759037 0.5822575092 4292198750
-0.2852863669 -0.1352633089 0.5841331482 4292461922
-0.2857728004 -0.1348438114 0.5851290822 4292461671
-0.2858293355 -0.1342202425 0.5852448344 4292527464
-0.2863155305 -0.1337971985 0.5862403512 4292593261
-0.2868016362 -0.1333719045 0.5872356892 4292724847
-0.2872876823 -0.1329443604 0.5882309079 4292725886
-0.2877736688 -0.1325145811 0.5892259479 4292923265
-0.2886897922 -0.1322796792 0.5911017656 4292727452
-0.2891756892 -0.1318444610 0.5920966864 4293253796
-0.2923157513 -0.1869015694 0.5998902321 4289767320
-0.2919695377 -0.1860144883 0.5991797447 4289370976
-0.2912008762 -0.1848607957 0.5976023078 4289305183
-0.2904315889 -0.1837101877 0.5960235596 4290419253
-0.2896616161 -0.1825626940 0.5944434404 4290287667
-0.2872016132 -0.1803573817 0.5893949866 4290420259
-0.2881197929 -0.1802770197 0.5912792683 4290354466
-0.2856576145 -0.1780851036 0.5862264037 4290420005
-0.2844619751 -0.1766911000 0.5837727785 4290551591
-0.2832655013 -0.1753020436 0.5813173652 4290551334
-0.2824910581 -0.1741786450 0.5797280073 4290880299
-0.2817159891 -0.1730584055 0.5781374574 4290815268
-0.2805171907 -0.1716823578 0.5756772161 4290749475
-0.2810103595 -0.1713434458 0.5766893625 4290683945
-0.2798103094 -0.1699737012 0.5742265582 4290683945
-0.2794562280 -0.1691214293 0.5734999180 4290683949
-0.2795252502 -0.1685258448 0.5736415982 4290618156
-0.2791704535 -0.1676753759 0.5729134679 4290683945
-0.2792389393 -0.1670798212 0.5730540752 4290815531
-0.2788834274 -0.1662312001 0.5723243952 4291012394
-0.2789514065 -0.1656356752 0.5724639297 4291078187
-0.2790191770 -0.1650397032 0.5726029873 4291078187
-0.2786625922 -0.1641934067 0.5718712211 4291078187
-0.2783055902 -0.1633484662 0.5711385608 4291078189
-0.2783725262 -0.1627530307 0.5712759495 4291078189
-0.2784392238 -0.1621571481 0.5714128613 4291078189
-0.2780811787 -0.1613145769 0.5706780553 4291143982
-0.2781473696 -0.1607187539 0.5708138943 4291012910
-0.2782133520 -0.1601225138 0.5709493160 4291078703
-0.2782791257 -0.1595258415 0.5710842609 4291012910
-0.2783446610 -0.1589287519 0.5712187886 4291012910
-0.2784099877 -0.1583312452 0.5713528395 4291078703
-0.2784751058 -0.1577333212 0.5714864731 4291078703
-0.2785400152 -0.1571349651 0.5716196895 4291078703
-0.2786046863 -0.1565361917 0.5717524290 4291210289
-0.2786691785 -0.1559370160 0.5718847513 4291210543
-0.2783078551 -0.1551002562 0.5711432695 4291210543
-0.2783718109 -0.1545011699 0.5712744594 4291144750
-0.2784355283 -0.1539016515 0.5714052320 4291144750
-0.2784990072 -0.1533017308 0.5715355277 4291210543
-0.2785622776 -0.1527014077 0.5716654062 4291210543
-0.2786253393 -0.1521006674 0.5717948079 4291210289
-0.2786881924 -0.1514995247 0.5719237328 4291210289
-0.2787508070 -0.1508979648 0.5720522404 4291407668
-0.2788131833 -0.1502960175 0.5721803308 4291407668
-0.2788753808 -0.1496936530 0.5723078847 4291473463
-0.2789373100 -0.1490908861 0.5724350214 4291670842
-0.2789990604 -0.1484877318 0.5725617409 4291605049
-0.2790605426 -0.1478841603 0.5726879239 4291473463
-0.2791218460 -0.1472802013 0.5728136897 4291605049
-0.2791829109 -0.1466758400 0.5729389787 4291736635
-0.2792437375 -0.1460710913 0.5730638504 4291605308
-0.2797314227 -0.1456883699 0.5740646720 4291539515
-0.2797918916 -0.1450818926 0.5741887689 4291605562
-0.2798521221 -0.1444750279 0.5743123889 4291671355
-0.2799121439 -0.1438677758 0.5744355917 4291802941
-0.2803993821 -0.1434788555 0.5754354596 4291868734
-0.2804590464 -0.1428699046 0.5755579472 4291803455
-0.2809461057 -0.1424774081 0.5765574574 4291737662
-0.2810053825 -0.1418667436 0.5766791105 4291803457
-0.2814922333 -0.1414707005 0.5776782632 4291803457
-0.2815511525 -0.1408583373 0.5777991414 4291803458
-0.2820378244 -0.1404587179 0.5787978768 4291869251
-0.2820963860 -0.1398446560 0.5789180398 4291935051
-0.2825828493 -0.1394414902 0.5799163580 4292066637
-0.2826410234 -0.1388257295 0.5800357461 4292198224
-0.2831272781 -0.1384190023 0.5810336471 4292264017
-0.2836134732 -0.1380100250 0.5820314884 4292066637
-0.2836711407 -0.1373912692 0.5821497440 4292198223
-0.2841571271 -0.1369787306 0.5831471086 4292001624
-0.2842143774 -0.1363582909 0.5832645893 4292067417
-0.2842713892 -0.1357374638 0.5833815932 4292133735
-0.2847570181 -0.1353200674 0.5843782425 4292199528
-0.2856715322 -0.1351032704 0.5862549543 4292461932
-0.2861571014 -0.1346804351 0.5872514844 4292593518
-0.2862135172 -0.1340543777 0.5873672366 4292724594
-0.2866988480 -0.1336279958 0.5883632302 4292856180
-0.2871841490 -0.1331993490 0.5893591642 4292923020
-0.2880986929 -0.1329666376 0.5912359953 4293317778
-0.2885839045 -0.1325325668 0.5922317505 4293122996
-0.2910762727 -0.1852038205 0.5987112522 4288780926
-0.2903085649 -0.1840519011 0.5971321464 4289893701
-0.2882758677 -0.1821043789 0.5929511189 4289827908
-0.2896143794 -0.1822880507 0.5957042575 4290355493
-0.2875799537 -0.1803503186 0.5915197134 4290092321
-0.2863878012 -0.1789481789 0.5890675783 4289959708
-0.2847729027 -0.1772883236 0.5857458711 4290354466
-0.2835789323 -0.1758969277 0.5832900405 4290485541
-0.2828062177 -0.1747713238 0.5817006230 4290485541
-0.2820328474 -0.1736488491 0.5801099539 4290617889
-0.2812588811 -0.1725295335 0.5785179138 4290683682
-0.2804842591 -0.1714133620 0.5769246221 4290552363
-0.2801315188 -0.1705576032 0.5761991143 4290552363
-0.2797783911 -0.1697032005 0.5754727721 4290552363
-0.2794248164 -0.1688501537 0.5747454762 4290552363
-0.2790708244 -0.1679984778 0.5740174055 4290814763
-0.2791393697 -0.1674018055 0.5741583705 4290946349
-0.2787846625 -0.1665519625 0.5734287500 4291012394
-0.2788526714 -0.1659553200 0.5735686421 4291012394
-0.2789204717 -0.1653582305 0.5737081170 4291012394
-0.2785647213 -0.1645107120 0.5729763508 4291012394
-0.2782085538 -0.1636645645 0.5722437501 4291078187
-0.2782754898 -0.1630679965 0.5723814964 4291143980
-0.2783422470 -0.1624709964 0.5725187659 4290947117
-0.2779850364 -0.1616271883 0.5717840195 4290947117
-0.2780512571 -0.1610302478 0.5719202161 4291012910
-0.2781172693 -0.1604328901 0.5720559955 4291078703
-0.2781830430 -0.1598350853 0.5721913576 4291078703
-0.2782486379 -0.1592368782 0.5723262429 4291078703
-0.2783139944 -0.1586382389 0.5724606514 4291078703
-0.2783791423 -0.1580391824 0.5725947022 4291144496
-0.2784440815 -0.1574396938 0.5727282166 4291144496
-0.2785087824 -0.1568398029 0.5728613734 4291210289
-0.2785733044 -0.1562394798 0.5729939938 4291078956
-0.2782128155 -0.1554014981 0.5722525716 4291144749
-0.2782768011 -0.1548012644 0.5723841190 4291210543
-0.2783405483 -0.1542006284 0.5725152493 4291210543
-0.2784040570 -0.1535995752 0.5726459026 4291210543
-0.2784673572 -0.1529981047 0.5727761388 4291210543
-0.2785304487 -0.1523962170 0.5729058981 4291210289
-0.2785933316 -0.1517939419 0.5730352402 4291210289
-0.2786559761 -0.1511912495 0.5731640458 4291407668
-0.2787184119 -0.1505881548 0.5732924938 4291473461
-0.2787806094 -0.1499846429 0.5734204054 4291539256
-0.2788425982 -0.1493807435 0.5735478997 4291670842
-0.2789043486 -0.1487764269 0.5736749172 4291605049
-0.2789658904 -0.1481717229 0.5738015175 4291473463
-0.2790271938 -0.1475666165 0.5739276409 4291605049
-0.2790882885 -0.1469611079 0.5740532875 4291670842
-0.2791491449 -0.1463551968 0.5741784573 4291605051
-0.2792097926 -0.1457488984 0.5743032098 4291605051
-0.2796965539 -0.1453637928 0.5753044486 4291671101
-0.2797568440 -0.1447557807 0.5754284263 4291736894
-0.2798168957 -0.1441473812 0.5755519271 4291802941
-0.2803033590 -0.1437573880 0.5765525699 4291868734
-0.2803630531 -0.1431472749 0.5766752958 4291737662
-0.2804225087 -0.1425367594 0.5767976046 4291737662
-0.2809086442 -0.1421418935 0.5777975321 4291737664
-0.2813947201 -0.1417447776 0.5787974000 4291737664
-0.2814536691 -0.1411312521 0.5789186358 4291737924
-0.2819395661 -0.1407305598 0.5799180865 4291803717
-0.2819981575 -0.1401153356 0.5800385475 4291935051
-0.2824838459 -0.1397110969 0.5810375810 4292066637
-0.2825420499 -0.1390941590 0.5811573267 4292198224
-0.2830275595 -0.1386863589 0.5821558833 4292264017
-0.2835129797 -0.1382762939 0.5831543803 4292001104
-0.2835706472 -0.1376563609 0.5832729936 4292132690
-0.2840558887 -0.1372427493 0.5842710733 4292001625
-0.2841131687 -0.1366211325 0.5843889117 4292264797
-0.2845981717 -0.1362039447 0.5853865147 4292396390
-0.2850831151 -0.1357845217 0.5863839984 4292396390
-0.2855679989 -0.1353628486 0.5873813033 4292659563
-0.2860527933 -0.1349389106 0.5883785486 4292791149
-0.2865375280 -0.1345127374 0.5893755555 4292659578
-0.2870222032 -0.1340843141 0.5903724432 4292856957
-0.2875067890 -0.1336536407 0.5913692117 4293055134
-0.2879913151 -0.1332207173 0.5923658013 4293778857
-0.2901833355 -0.1843937486 0.5982412696 4289303385
-0.2885752618 -0.1827109158 0.5949260592 4288974420
-0.2894907594 -0.1826274544 0.5968134403 4290158894
-0.2878811955 -0.1809526384 0.5934951901 4290158894
-0.2866915762 -0.1795481741 0.5910426378 4289893913
-0.2850799859 -0.1778858751 0.5877202153 4290157085
-0.2843097150 -0.1767540127 0.5861322284 4290551332
-0.2831175327 -0.1753643304 0.5836744308 4290551332
-0.2823458910 -0.1742396504 0.5820836425 4290617635
-0.2815736234 -0.1731180996 0.5804915428 4290551842
-0.2808007300 -0.1719997078 0.5788981318 4290420522
-0.2800272107 -0.1708844751 0.5773034096 4290354729
-0.2796748877 -0.1700288653 0.5765770674 4290420777
-0.2793221474 -0.1691745967 0.5758498907 4290618156
-0.2798130810 -0.1688310057 0.5768619776 4290946090
-0.2790375650 -0.1677239239 0.5752632022 4291077676
-0.2786836922 -0.1668728590 0.5745335817 4290946601
-0.2783293724 -0.1660231650 0.5738031864 4290946601
-0.2788195610 -0.1656768918 0.5748137236 4290815785
-0.2784646153 -0.1648281515 0.5740820169 4290881578
-0.2781092823 -0.1639807820 0.5733494163 4290947371
-0.2777535021 -0.1631347835 0.5726159811 4290947371
-0.2778201997 -0.1625375897 0.5727534294 4291013164
-0.2778866589 -0.1619399488 0.5728904605 4290947371
-0.2779529095 -0.1613418758 0.5730270147 4291012910
-0.2780189514 -0.1607433856 0.5731631517 4291012910
-0.2780847549 -0.1601444781 0.5732988715 4291078703
-0.2781503797 -0.1595451236 0.5734341741 4291144496
-0.2782157660 -0.1589453667 0.5735689402 4291144496
-0.2782809436 -0.1583451778 0.5737033486 4291210289
-0.2779222429 -0.1575044692 0.5729638338 4291210289
-0.2779869139 -0.1569043547 0.5730971098 4291144496
-0.2780513167 -0.1563038230 0.5732299685 4291079469
-0.2781155407 -0.1557028741 0.5733623505 4291145262
-0.2781795263 -0.1551015079 0.5734942555 4291145262
-0.2778191566 -0.1542642117 0.5727513433 4291079469
-0.2778826356 -0.1536629349 0.5728821158 4291079214
-0.2779458761 -0.1530612409 0.5730125308 4291145007
-0.2780088782 -0.1524591446 0.5731424689 4291210800
-0.2780717015 -0.1518566459 0.5732719302 4291210800
-0.2781342566 -0.1512537301 0.5734009147 4291342388
-0.2781966329 -0.1506504118 0.5735294819 4291408181
-0.2782587707 -0.1500466764 0.5736576319 4291473974
-0.2783206999 -0.1494425535 0.5737852454 4291605560
-0.2783823907 -0.1488380283 0.5739124417 4291539769
-0.2784438431 -0.1482330859 0.5740391612 4291408183
-0.2789303064 -0.1478531361 0.5750420094 4291539769
-0.2789914310 -0.1472464800 0.5751680136 4291605562
-0.2790523171 -0.1466394365 0.5752935410 4291539515
-0.2791129649 -0.1460319757 0.5754186511 4291605308
-0.2795989811 -0.1456458122 0.5764206052 4291736894
-0.2796593010 -0.1450366527 0.5765449405 4291736894
-0.2797193825 -0.1444270909 0.5766687989 4291802941
-0.2802050710 -0.1440360397 0.5776700974 4291802941
-0.2802647948 -0.1434247643 0.5777931809 4291671869
-0.2803242803 -0.1428131014 0.5779158473 4291737662
-0.2808096409 -0.1424171627 0.5789164901 4291671871
-0.2812949717 -0.1420189589 0.5799170136 4291803457
-0.2817802429 -0.1416185200 0.5809174776 4291803717
-0.2814126909 -0.1407891959 0.5801597238 4291869510
-0.2818976641 -0.1403861344 0.5811595917 4291935051
-0.2823826075 -0.1399808079 0.5821592808 4292066637
-0.2824408412 -0.1393627077 0.5822793245 4292132944
-0.2829255462 -0.1389538199 0.5832786560 4292264530
-0.2834102213 -0.1385426819 0.5842778087 4292198234
-0.2834679186 -0.1379215866 0.5843967795 4292329820
-0.2839523554 -0.1375068724 0.5853955150 4292264543
-0.2840096653 -0.1368840784 0.5855136514 4292527715
-0.2844939232 -0.1364658177 0.5865119696 4292462437
-0.2849780917 -0.1360452920 0.5875101686 4292462437
-0.2854622006 -0.1356225312 0.5885081887 4292791665
-0.2859462202 -0.1351975054 0.5895060301 4292989044
-0.2864301801 -0.1347702295 0.5905038118 4292923273
-0.2873416841 -0.1345409304 0.5923829079 4293318031
-0.2878255844 -0.1341082156 0.5933805108 4293516727
-0.2896360755 -0.1844683737 0.5984833837 4289832058
-0.2888708413 -0.1833178103 0.5969021916 4288516198
-0.2885249555 -0.1824359000 0.5961874723 4289304119
-0.2877585590 -0.1812906563 0.5946038365 4289633084
-0.2869915068 -0.1801485270 0.5930188894 4290026015
-0.2858035266 -0.1787466556 0.5905641317 4290289187
-0.2846147120 -0.1773497164 0.5881075859 4290683429
-0.2834250331 -0.1759576946 0.5856493115 4290551843
-0.2826551199 -0.1748307943 0.5840584636 4290420773
-0.2818845809 -0.1737070233 0.5824662447 4290354980
-0.2811134160 -0.1725864112 0.5808727741 4290223655
-0.2803415954 -0.1714689583 0.5792779922 4290289448
-0.2795691788 -0.1703546643 0.5776818991 4290617384
-0.2792172730 -0.1694991738 0.5769547224 4290880556
-0.2797074318 -0.1691545695 0.5779675245 4291012136
-0.2789335251 -0.1680461615 0.5763684511 4291012136
-0.2790019214 -0.1674468219 0.5765097737 4290749992
-0.2786485553 -0.1665950119 0.5757795572 4290749992
-0.2791380584 -0.1662468165 0.5767910480 4290815785
-0.2779405415 -0.1648955047 0.5743165612 4290881578
-0.2780077755 -0.1642971337 0.5744554996 4290881578
-0.2776528299 -0.1634499133 0.5737220645 4290947371
-0.2777195275 -0.1628515869 0.5738599300 4291013164
-0.2777860463 -0.1622528285 0.5739973187 4291013164
-0.2778523266 -0.1616536379 0.5741342902 4291013164
-0.2779183984 -0.1610540301 0.5742708445 4290947371
-0.2779842317 -0.1604539752 0.5744069219 4291012910
-0.2780498862 -0.1598535180 0.5745425224 4291144496
-0.2781153023 -0.1592526138 0.5746777058 4291144496
-0.2781805098 -0.1586512923 0.5748124719 4291210289
-0.2782455087 -0.1580495536 0.5749467611 4291210289
-0.2778873146 -0.1572081149 0.5742066503 4291144496
-0.2779517770 -0.1566064507 0.5743398070 4291211055
-0.2780160308 -0.1560043693 0.5744725466 4291145262
-0.2780800462 -0.1554018706 0.5746048689 4291145262
-0.2777205110 -0.1545633376 0.5738618970 4291079469
-0.2777839899 -0.1539609283 0.5739930868 4291145007
-0.2778472602 -0.1533581018 0.5741238594 4291145007
-0.2779103220 -0.1527548581 0.5742541552 4291210800
-0.2779731452 -0.1521512121 0.5743839741 4291145007
-0.2780357599 -0.1515471637 0.5745133162 4291342388
-0.2780981362 -0.1509426981 0.5746422410 4291473974
-0.2781603038 -0.1503378302 0.5747706890 4291473974
-0.2782222629 -0.1497325599 0.5748987198 4291605560
-0.2782839835 -0.1491268724 0.5750262737 4291539767
-0.2783454955 -0.1485207975 0.5751533508 4291408181
-0.2788311541 -0.1481398046 0.5761569142 4291473976
-0.2788923085 -0.1475319862 0.5762832761 4291605562
-0.2789532244 -0.1469237804 0.5764091611 4291605308
-0.2790139318 -0.1463151872 0.5765345693 4291671101
-0.2794991732 -0.1459279656 0.5775372386 4291671101
-0.2795594931 -0.1453176439 0.5776618719 4291736894
-0.2796196043 -0.1447069198 0.5777860880 4291802941
-0.2801045477 -0.1443147957 0.5787881017 4291802941
-0.2801642716 -0.1437023729 0.5789115429 4291671869
-0.2802237868 -0.1430895478 0.5790345669 4291671869
-0.2807084024 -0.1426925361 0.5800358653 4291606078
-0.2811929584 -0.1422932744 0.5810371041 4291803457
-0.2816774547 -0.1418917626 0.5820382833 4291935303
-0.2813107371 -0.1410611868 0.5812804699 4291935303
-0.2822206020 -0.1408695132 0.5831606388 4291869258
-0.2822791040 -0.1402506381 0.5832814574 4291935051
-0.2827631831 -0.1398419738 0.5842818022 4292132431
-0.2828212976 -0.1392214000 0.5844018459 4292395603
-0.2833051980 -0.1388091743 0.5854017138 4292329568
-0.2837890387 -0.1383946985 0.5864014626 4292395361
-0.2838465869 -0.1377711147 0.5865204334 4292461924
-0.2843302190 -0.1373530775 0.5875197649 4292593510
-0.2848137617 -0.1369327754 0.5885189176 4292396907
-0.2852972448 -0.1365102381 0.5895179510 4292528493
-0.2857806683 -0.1360854357 0.5905168653 4292726913
-0.2862640023 -0.1356583834 0.5915156007 4292924292
-0.2867472768 -0.1352290660 0.5925142169 4292990624
-0.2872304916 -0.1347975135 0.5935126543 4293648554
-0.2887434959 -0.1836584955 0.5980114937 4289636748
-0.2879792452 -0.1825097054 0.5964286923 4289108047
-0.2876336575 -0.1816288084 0.5957129002 4288647496
-0.2868682146 -0.1804853529 0.5941276550 4289500449
-0.2861021757 -0.1793450266 0.5925410390 4289961000
-0.2853354514 -0.1782078147 0.5909531713 4290289187
-0.2841483951 -0.1768125743 0.5884946585 4290157601
-0.2829605043 -0.1754222810 0.5860344768 4290157862
-0.2821916938 -0.1742962897 0.5844421983 4290223655
-0.2814222574 -0.1731734574 0.5828486085 4290289702
-0.2806521654 -0.1720537692 0.5812537074 4290355495
-0.2798814774 -0.1709372550 0.5796574950 4290748970
-0.2795304954 -0.1700796485 0.5789305568 4290946349
-0.2791790664 -0.1692234129 0.5782027841 4291077416
-0.2792478204 -0.1686224937 0.5783451200 4291077416
-0.2788956761 -0.1677680910 0.5776158571 4290684199
-0.2789638937 -0.1671671867 0.5777571201 4290749992
-0.2786110342 -0.1663146168 0.5770263076 4290815785
-0.2782577276 -0.1654634327 0.5762946010 4290815785
-0.2779040337 -0.1646136194 0.5755620599 4290881578
-0.2775499225 -0.1637651771 0.5748286843 4290947371
-0.2776166499 -0.1631657332 0.5749669075 4291013164
-0.2772618234 -0.1623191684 0.5742319822 4291013164
-0.2773280442 -0.1617197543 0.5743691325 4290947371
-0.2773940265 -0.1611199230 0.5745058060 4290947371
-0.2778814733 -0.1607636213 0.5755153894 4291013164
-0.2779471576 -0.1601620167 0.5756513476 4291078957
-0.2780126035 -0.1595599949 0.5757869482 4291144496
-0.2780778408 -0.1589575559 0.5759220719 4291144496
-0.2781428695 -0.1583546847 0.5760567188 4291210289
-0.2782076597 -0.1577513814 0.5761909485 4291210289
-0.2778500021 -0.1569092125 0.5754501820 4291342129
-0.2779142559 -0.1563059837 0.5755832791 4291276336
-0.2779783309 -0.1557023525 0.5757158995 4291276336
-0.2780421674 -0.1550983042 0.5758481622 4291210543
-0.2776831090 -0.1542590410 0.5751045346 4291145007
-0.2777464092 -0.1536550820 0.5752356648 4291210800
-0.2778095007 -0.1530507058 0.5753662586 4291210802
-0.2778723538 -0.1524459124 0.5754964948 4291210802
-0.2779349983 -0.1518407166 0.5756261945 4291342388
-0.2779974341 -0.1512351185 0.5757554770 4291408181
-0.2780596316 -0.1506291032 0.5758842826 4291473974
-0.2781215906 -0.1500226855 0.5760126710 4291539767
-0.2781833410 -0.1494158506 0.5761405230 4291539767
-0.2782448828 -0.1488086283 0.5762679577 4291408181
-0.2787297666 -0.1484265774 0.5772722363 4291473976
-0.2787909508 -0.1478176117 0.5773989558 4291539769
-0.2788518965 -0.1472082585 0.5775251985 4291605309
-0.2789126337 -0.1465985030 0.5776509643 4291671102
-0.2793971002 -0.1462102234 0.5786543489 4291540285
-0.2794574499 -0.1455987394 0.5787793398 4291671871
-0.2795175910 -0.1449868679 0.5789039135 4291737664
-0.2800017595 -0.1445936859 0.5799066424 4291671871
-0.2800615132 -0.1439801008 0.5800303817 4291606076
-0.2805455029 -0.1435833424 0.5810327530 4291671869
-0.2806048989 -0.1429680288 0.5811557770 4291606078
-0.2810886800 -0.1425676942 0.5821577311 4291803457
-0.2815724015 -0.1421651095 0.5831595659 4291935305
-0.2816312909 -0.1415467858 0.5832815170 4291935305
-0.2821148038 -0.1411406249 0.5842829347 4291869259
-0.2825982869 -0.1407321990 0.5852842331 4291935052
-0.2830817103 -0.1403215379 0.5862854123 4292198224
-0.2827147841 -0.1394890994 0.5855255127 4292461396
-0.2836231291 -0.1392846107 0.5874067545 4292394589
-0.2841062546 -0.1388681233 0.5884073973 4292460382
-0.2841639519 -0.1382424235 0.5885268450 4292462186
-0.2846468687 -0.1378223449 0.5895270705 4292593772
-0.2851297557 -0.1374000311 0.5905271173 4292200829
-0.2856125236 -0.1369754523 0.5915269852 4292595587
-0.2860952616 -0.1365486234 0.5925267935 4292662686
-0.2865779102 -0.1361195296 0.5935263634 4292925858
-0.2878512740 -0.1828492135 0.5975381136 4290029424
-0.2870880067 -0.1817022115 0.5959537029 4288318806
-0.2867426872 -0.1808223128 0.5952368379 4288842783
-0.2863969505 -0.1799437404 0.5945191383 4289303334
-0.2843755186 -0.1780177802 0.5903229713 4289894690
-0.2857041955 -0.1781905740 0.5930811167 4290092069
-0.2836810946 -0.1762744933 0.5888814330 4289961000
-0.2829141021 -0.1751453727 0.5872892737 4290092586
-0.2821464837 -0.1740194112 0.5856958032 4290224677
-0.2813782394 -0.1728966087 0.5841010809 4290290470
-0.2801899314 -0.1715201885 0.5816342831 4290617386
-0.2798398733 -0.1706604660 0.5809075832 4290814765
-0.2794893980 -0.1698021144 0.5801800489 4291077163
-0.2791385055 -0.1689451188 0.5794516802 4291077163
-0.2792070508 -0.1683426350 0.5795939565 4290684199
-0.2788554430 -0.1674874723 0.5788640380 4290749992
-0.2785033882 -0.1666336805 0.5781332850 4290749992
-0.2785710990 -0.1660316885 0.5782738328 4290815785
-0.2782183290 -0.1651797444 0.5775415301 4290947371
-0.2782855332 -0.1645777822 0.5776810050 4290947371
-0.2775115371 -0.1634799987 0.5760743022 4290947371
-0.2775780857 -0.1628789902 0.5762124658 4291013164
-0.2772237659 -0.1620316803 0.5754769444 4290881578
-0.2772898078 -0.1614307314 0.5756140351 4290947371
-0.2773556113 -0.1608293355 0.5757506490 4290947371
-0.2778421938 -0.1604706645 0.5767607093 4291013164
-0.2779076695 -0.1598675102 0.5768966079 4291078957
-0.2779729366 -0.1592639387 0.5770320892 4291144750
-0.2780379951 -0.1586599350 0.5771671534 4291144496
-0.2781028152 -0.1580554992 0.5773017406 4291276082
-0.2777459621 -0.1572120935 0.5765609741 4291342129
-0.2778102756 -0.1566077322 0.5766944289 4291342129
-0.2778743505 -0.1560029685 0.5768274665 4291276082
-0.2779382169 -0.1553977728 0.5769600272 4291210289
-0.2780018449 -0.1547921747 0.5770921707 4291210289
-0.2776433229 -0.1539521813 0.5763478875 4291210289
-0.2777064443 -0.1533466578 0.5764788985 4291341875
-0.2777693272 -0.1527407318 0.5766094327 4291473461
-0.2778320014 -0.1521344036 0.5767395496 4291342388
-0.2778944373 -0.1515276432 0.5768691897 4291408181
-0.2779566646 -0.1509204954 0.5769983530 4291408181
-0.2784411907 -0.1505413651 0.5780041218 4291539767
-0.2785030603 -0.1499324739 0.5781325698 4291539769
-0.2785647213 -0.1493231803 0.5782605410 4291408183
-0.2786261439 -0.1487134695 0.5783880949 4291408183
-0.2791102529 -0.1483281106 0.5793929696 4291539769
-0.2791713178 -0.1477166712 0.5795197487 4291408700
-0.2792321444 -0.1471048295 0.5796460509 4291540286
-0.2792927623 -0.1464926004 0.5797719359 4291606079
-0.2797764242 -0.1461009979 0.5807759166 4291671872
-0.2798366845 -0.1454870403 0.5809009671 4291737664
-0.2798967063 -0.1448726952 0.5810256004 4291671871
-0.2803800404 -0.1444761902 0.5820289254 4291606078
-0.2804397047 -0.1438601166 0.5821527839 4291671871
-0.2809228599 -0.1434600353 0.5831556916 4291671872
-0.2809821367 -0.1428422481 0.5832787752 4291803458
-0.2814650834 -0.1424385756 0.5842813253 4291869512
-0.2819479704 -0.1420326680 0.5852837563 4291869512
-0.2820067406 -0.1414118409 0.5854057670 4291869259
-0.2824894488 -0.1410023421 0.5864077210 4292000845
-0.2829720974 -0.1405905932 0.5874096155 4292264019
-0.2834546566 -0.1401765943 0.5884113908 4292461398
-0.2839371860 -0.1397603303 0.5894130468 4292460636
-0.2844196260 -0.1393418163 0.5904145241 4292592222
-0.2844774425 -0.1387140006 0.5905345082 4292331376
-0.2849596739 -0.1382919103 0.5915355682 4292397169
-0.2854418457 -0.1378675550 0.5925365090 4292201871
-0.2859239280 -0.1374409497 0.5935372710 4292794008
-0.2873034477 -0.1829229593 0.5977791548 4290885005
-0.2869593799 -0.1820405275 0.5970633030 4289305973
-0.2866148949 -0.1811594069 0.5963464975 4288646718
-0.2862699926 -0.1802796125 0.5956288576 4288712511
-0.2859246433 -0.1794011444 0.5949103236 4289632035
-0.2851607502 -0.1782626361 0.5933209658 4289763621
-0.2843962312 -0.1771272570 0.5917302966 4290222629
-0.2836310863 -0.1759950221 0.5901382565 4290551594
-0.2824468613 -0.1746072471 0.5876743197 4290617135
-0.2816803455 -0.1734822094 0.5860794187 4290485549
-0.2809132040 -0.1723603457 0.5844832659 4290289702
-0.2805641890 -0.1714975983 0.5837570429 4290552874
-0.2797958851 -0.1703811437 0.5821585059 4290619432
-0.2794459164 -0.1695220172 0.5814303756 4290685225
-0.2790955305 -0.1686642766 0.5807013512 4290750251
-0.2791638970 -0.1680602282 0.5808435678 4290750251
-0.2788127959 -0.1672043055 0.5801130533 4290750251
-0.2784612775 -0.1663497537 0.5793816447 4290816044
-0.2785288095 -0.1657462120 0.5795221329 4291012910
-0.2785961032 -0.1651422232 0.5796622038 4291012910
-0.2782435417 -0.1642899960 0.5789285898 4291078957
-0.2778905332 -0.1634391546 0.5781941414 4291210543
-0.2779570222 -0.1628356874 0.5783324838 4291013164
-0.2780232728 -0.1622317731 0.5784702897 4291013164
-0.2776692510 -0.1613832861 0.5777336955 4291078957
-0.2777349651 -0.1607794315 0.5778704286 4291078957
-0.2778004706 -0.1601751447 0.5780067444 4291078957
-0.2778657675 -0.1595704406 0.5781426430 4291276336
-0.2779308558 -0.1589653045 0.5782780051 4291407922
-0.2779957056 -0.1583597511 0.5784129500 4291407922
-0.2776396871 -0.1575151086 0.5776722431 4291342388
-0.2777040303 -0.1569096148 0.5778060555 4291276595
-0.2777681351 -0.1563037038 0.5779394507 4291145009
-0.2778320312 -0.1556973755 0.5780723691 4291145009
-0.2778956890 -0.1550906301 0.5782048702 4291276595
-0.2779591382 -0.1544834673 0.5783368945 4291210802
-0.2776011229 -0.1536427587 0.5775920153 4291210802
-0.2776640654 -0.1530356854 0.5777229071 4291408181
-0.2777267396 -0.1524281949 0.5778533816 4291473974
-0.2777892351 -0.1518203020 0.5779833198 4291473974
-0.2778514624 -0.1512120068 0.5781128407 4291408181
-0.2783352137 -0.1508318335 0.5791193843 4291408181
-0.2783971131 -0.1502217948 0.5792481899 4291539767
-0.2784588039 -0.1496113390 0.5793765187 4291539767
-0.2789422572 -0.1492262483 0.5803824067 4291539767
-0.2790035903 -0.1486140639 0.5805100203 4291737146
-0.2790646851 -0.1480014771 0.5806370974 4291868483
-0.2791255414 -0.1473884881 0.5807637572 4291802690
-0.2796085775 -0.1469971538 0.5817687511 4291934525
-0.2796690762 -0.1463824362 0.5818946362 4292000318
-0.2797293663 -0.1457673311 0.5820201039 4291737913
-0.2802120447 -0.1453710794 0.5830243826 4291869499
-0.2802719772 -0.1447542459 0.5831490755 4292066881
-0.2807544768 -0.1443544030 0.5841529965 4292001088
-0.2808140218 -0.1437358558 0.5842769146 4291868997
-0.2812963426 -0.1433324367 0.5852804184 4291934790
-0.2813555002 -0.1427121609 0.5854035616 4291935052
-0.2818376422 -0.1423051655 0.5864066482 4292000845
-0.2818964124 -0.1416831762 0.5865290165 4292132181
-0.2828016877 -0.1414844096 0.5884125829 4292197974
-0.2832836509 -0.1410706490 0.5894153714 4292329307
-0.2837655246 -0.1406546235 0.5904179811 4292460893
-0.2842473686 -0.1402363330 0.5914204717 4292199261
-0.2851528227 -0.1400238574 0.5933044553 4292001882
-0.2852108181 -0.1393930018 0.5934251547 4291805812
-0.2856924534 -0.1389679313 0.5944272280 4292332156
-0.2870795429 -0.1383153349 0.5973132849 4293385905
-0.2861906290 -0.1839627773 0.5968430638 4290294414
-0.2862645090 -0.1833469570 0.5969970822 4289965449
-0.2863381803 -0.1827306598 0.5971506834 4289897859
-0.2859947085 -0.1818487942 0.5964344144 4289108343
-0.2860678434 -0.1812324375 0.5965869427 4288777802
-0.2857236564 -0.1803523302 0.5958691239 4288448837
-0.2857962549 -0.1797359437 0.5960205793 4289105695
-0.2850340009 -0.1785960943 0.5944308639 4289500453
-0.2846885324 -0.1777199805 0.5937104225 4289893404
-0.2839250863 -0.1765855253 0.5921183228 4290353955
-0.2831610441 -0.1754541993 0.5905249119 4290419754
-0.2823963463 -0.1743260473 0.5889301300 4290288168
-0.2816310525 -0.1732010394 0.5873340964 4290091812
-0.2808651030 -0.1720791906 0.5857367516 4290223398
-0.2800985277 -0.1709605157 0.5841380954 4290421539
-0.2797494829 -0.1700992733 0.5834102035 4290684711
-0.2798182964 -0.1694927365 0.5835537314 4290683945
-0.2794685364 -0.1686333120 0.5828242898 4290683945
-0.2791183591 -0.1677752733 0.5820939541 4290683945
-0.2787677646 -0.1669185907 0.5813628435 4290749738
-0.2788354158 -0.1663130075 0.5815039277 4290749992
-0.2789028585 -0.1657069772 0.5816445351 4290815785
-0.2785512209 -0.1648526192 0.5809112191 4290881575
-0.2786181271 -0.1642466336 0.5810507536 4291078954
-0.2782657444 -0.1633941382 0.5803158879 4290947368
-0.2783321440 -0.1627881974 0.5804543495 4291013161
-0.2783983052 -0.1621818095 0.5805923343 4291078956
-0.2784642577 -0.1615750045 0.5807298422 4291078956
-0.2785300016 -0.1609677523 0.5808669329 4291078956
-0.2785955071 -0.1603600830 0.5810036063 4291210542
-0.2782411575 -0.1595114022 0.5802645683 4291276335
-0.2783061266 -0.1589037925 0.5804001093 4291210542
-0.2779510319 -0.1580569893 0.5796595812 4291210543
-0.2780154943 -0.1574494541 0.5797939897 4291210543
-0.2780797184 -0.1568414867 0.5799279213 4291276336
-0.2777235806 -0.1559971124 0.5791851878 4291342129
-0.2777872980 -0.1553892195 0.5793180466 4291342129
-0.2778507769 -0.1547809243 0.5794504285 4291342129
-0.2779140174 -0.1541721970 0.5795823932 4291276595
-0.2779770494 -0.1535630673 0.5797138214 4291473974
-0.2780398726 -0.1529535204 0.5798448324 4291605560
-0.2781024873 -0.1523435712 0.5799753666 4291539767
-0.2781648636 -0.1517331898 0.5801054835 4291473974
-0.2786479294 -0.1513510346 0.5811129212 4291408181
-0.2787099481 -0.1507389247 0.5812422633 4291473974
-0.2787717283 -0.1501264125 0.5813711286 4291473974
-0.2788332999 -0.1495134830 0.5814995170 4291473974
-0.2793159485 -0.1491250694 0.5825060606 4291605560
-0.2793771625 -0.1485103965 0.5826337337 4291934274
-0.2794381678 -0.1478953362 0.5827609301 4291802688
-0.2794989347 -0.1472798586 0.5828876495 4291671869
-0.2799811065 -0.1468852013 0.5838932395 4291803455
-0.2800415158 -0.1462680101 0.5840191841 4291869502
-0.2801016867 -0.1456504017 0.5841446519 4291869502
-0.2805835605 -0.1452508271 0.5851495862 4291869250
-0.2806433439 -0.1446315050 0.5852743387 4291803457
-0.2811250389 -0.1442283392 0.5862788558 4291935044
-0.2816066742 -0.1438229233 0.5872832537 4292066630
-0.2816659510 -0.1432005614 0.5874069333 4292000585
-0.2821473777 -0.1427915543 0.5884109139 4292000585
-0.2822062969 -0.1421674639 0.5885338187 4292066640
-0.2831100821 -0.1419667602 0.5904185772 4292198226
-0.2835913301 -0.1415509731 0.5914222598 4292197976
-0.2840725183 -0.1411329359 0.5924257636 4292132183
-0.2845536470 -0.1407126337 0.5934291482 4291738714
-0.2854576409 -0.1404982060 0.5953143835 4291804507
-0.2859387100 -0.1400724351 0.5963176489 4291937146
-0.2859966755 -0.1394381374 0.5964385271 4292726662
-0.2873815894 -0.1387815624 0.5993267298 4293714102
-0.2845889330 -0.1853407770 0.5948806405 4289504659
-0.2850786746 -0.1849976480 0.5959043503 4289307022
-0.2851527929 -0.1843834668 0.5960592628 4289109643
-0.2852266729 -0.1837687939 0.5962136984 4288912247
-0.2853003442 -0.1831536591 0.5963677168 4288451696
-0.2853738070 -0.1825380474 0.5965212584 4288515693
-0.2854470909 -0.1819219589 0.5966744423 4288384107
-0.2855201364 -0.1813054085 0.5968270898 4288448334
-0.2851766646 -0.1804249734 0.5961091518 4287987783
-0.2852491736 -0.1798083633 0.5962607265 4288381731
-0.2849049568 -0.1789297014 0.5955411792 4288776489
-0.2845603228 -0.1780523658 0.5948207974 4289367584
-0.2842152417 -0.1771763712 0.5940995216 4289696549
-0.2834529281 -0.1760428250 0.5925059915 4290024996
-0.2826899588 -0.1749124378 0.5909112096 4289959203
-0.2819263637 -0.1737851948 0.5893150568 4289893661
-0.2811621726 -0.1726611257 0.5877175927 4289959454
-0.2808145881 -0.1717954874 0.5869910121 4290222878
-0.2804665864 -0.1709312052 0.5862635970 4290617636
-0.2801181674 -0.1700682938 0.5855352879 4290683945
-0.2797693312 -0.1692067385 0.5848061442 4290683945
-0.2798377275 -0.1685982049 0.5849491358 4290749738
-0.2794881761 -0.1677384824 0.5842184424 4290815531
-0.2791381776 -0.1668801308 0.5834868550 4290815785
-0.2796237171 -0.1665209830 0.5845018029 4290881578
-0.2788550258 -0.1654155850 0.5828949809 4290947368
-0.2789220810 -0.1648075581 0.5830351114 4291013161
-0.2785706222 -0.1639529169 0.5823004842 4291013161
-0.2786371410 -0.1633449346 0.5824394822 4291013161
-0.2782849669 -0.1624921560 0.5817033648 4291013161
-0.2783509493 -0.1618842185 0.5818412304 4291013161
-0.2784166932 -0.1612758487 0.5819787383 4291078954
-0.2784822583 -0.1606670469 0.5821157694 4291144747
-0.2785475850 -0.1600578129 0.5822523236 4291210540
-0.2786127031 -0.1594481468 0.5823884010 4291144747
-0.2786775827 -0.1588380635 0.5825240612 4291210543
-0.2779039443 -0.1577516794 0.5809068680 4291210543
-0.2779681981 -0.1571425796 0.5810412169 4291276336
-0.2780322433 -0.1565330476 0.5811750889 4291342129
-0.2780960798 -0.1559231132 0.5813084841 4291276336
-0.2777401209 -0.1550784856 0.5805644393 4291407922
-0.2778034210 -0.1544686258 0.5806967616 4291539254
-0.2778664827 -0.1538583636 0.5808285475 4291539254
-0.2779293060 -0.1532476693 0.5809599161 4291473461
-0.2779919505 -0.1526365578 0.5810908079 4291539254
-0.2784743607 -0.1522546858 0.5820992589 4291408181
-0.2785366476 -0.1516418457 0.5822294354 4291342388
-0.2785986960 -0.1510285735 0.5823591352 4291473976
-0.2786605060 -0.1504148990 0.5824883580 4291539769
-0.2791424990 -0.1500267684 0.5834958553 4291605562
-0.2792039812 -0.1494113505 0.5836243629 4291671355
-0.2792652249 -0.1487955451 0.5837523937 4291736895
-0.2797468901 -0.1484024823 0.5847592354 4291736895
-0.2798077762 -0.1477849185 0.5848864913 4291736895
-0.2798684239 -0.1471669674 0.5850132704 4291802688
-0.2803497910 -0.1467689872 0.5860195160 4291736895
-0.2804100811 -0.1461492926 0.5861455202 4291605309
-0.2804701328 -0.1455292106 0.5862710476 4291540286
-0.2809511721 -0.1451262981 0.5872765779 4291869251
-0.2810108662 -0.1445044875 0.5874013305 4291671872
-0.2814917266 -0.1440979987 0.5884065032 4291869251
-0.2823939919 -0.1439040154 0.5902925134 4291868997
-0.2828748226 -0.1434920728 0.5912976265 4291803204
-0.2829339504 -0.1428649426 0.5914211869 4291934541
-0.2834145725 -0.1424493939 0.5924258232 4292000334
-0.2843169570 -0.1422426403 0.5943121314 4291737172
-0.2843756378 -0.1416115314 0.5944347382 4291671379
-0.2852780819 -0.1413983703 0.5963211656 4291277399
-0.2857585251 -0.1409728378 0.5973254442 4291540571
-0.2858167589 -0.1403377503 0.5974471569 4291870585
-0.2862969935 -0.1399086267 0.5984510183 4292725894
-0.2872572541 -0.1390435994 0.6004582644 4293714102
-0.2837434113 -0.1878622472 0.5944934487 4289373332
-0.2838183641 -0.1872511655 0.5946504474 4289109901
-0.2838930786 -0.1866395921 0.5948070288 4288780936
-0.2839676142 -0.1860275418 0.5949631333 4288648320
-0.2840419114 -0.1854149997 0.5951188803 4288187769
-0.2841160297 -0.1848019958 0.5952741504 4287858802
-0.2841899395 -0.1841885000 0.5954290032 4287661423
-0.2842636406 -0.1835745275 0.5955833793 4287792485
-0.2843371332 -0.1829600781 0.5957373381 4287660899
-0.2844104171 -0.1823451519 0.5958908796 4287660889
-0.2844834924 -0.1817297488 0.5960440040 4287529303
-0.2845563293 -0.1811138839 0.5961966515 4287659847
-0.2846289873 -0.1804975271 0.5963488817 4287594054
-0.2847014368 -0.1798807234 0.5965006351 4287855672
-0.2843579352 -0.1790017337 0.5957809687 4287855672
-0.2840140164 -0.1781240851 0.5950603485 4288381228
