VERSION 0.7
FIELDS x y z rgba
SIZE 4 4 4 4
TYPE F F F U
COUNT 1 1 1 1
WIDTH 920
HEIGHT 1
VIEWPOINT 0.0 0.0 0.0 1.0 0.0 0.0 0.0
POINTS 920
DATA ascii
-0.2845225632 -0.1493409872 0.5476944447 4290667567
-0.2845865786 -0.1487659365 0.5478176475 4290601774
-0.2842020988 -0.1479571015 0.5470775366 4290603825
-0.2838172317 -0.1471497118 0.5463366508 4290866997
-0.2838803828 -0.1465753019 0.5464582443 4290670131
-0.2834947407 -0.1457698643 0.5457159281 4290406959
-0.2835573852 -0.1451956034 0.5458364487 4290536751
-0.2831709981 -0.1443921328 0.5450927615 4290339372
-0.2832331061 -0.1438180208 0.5452122688 4290599726
-0.2828460038 -0.1430165172 0.5444670916 4290007589
-0.2824584842 -0.1422164589 0.5437211394 4290334503
-0.2825196981 -0.1416430473 0.5438389778 4290795054
-0.2825807035 -0.1410692483 0.5439564586 4290926127
-0.2821921408 -0.1402717382 0.5432084799 4290991920
-0.2822526097 -0.1396981180 0.5433248281 4291058224
-0.2827624083 -0.1393456608 0.5443061590 4291124017
-0.2828225195 -0.1387704015 0.5444219112 4290990129
-0.2833321393 -0.1384144723 0.5454028845 4290595371
-0.2838417292 -0.1380563527 0.5463838577 4290595882
-0.2839013636 -0.1374781579 0.5464986563 4290595882
-0.2844108045 -0.1371165514 0.5474792719 4290530089
-0.2844700813 -0.1365367174 0.5475933552 4290398503
-0.2849793136 -0.1361716390 0.5485736728 4290397992
-0.2850382328 -0.1355901659 0.5486871004 4290595371
-0.2850969136 -0.1350083202 0.5488000512 4290594603
-0.2856058776 -0.1346384883 0.5497797728 4290594603
-0.2856642008 -0.1340550035 0.5498920083 4290660396
-0.2857222855 -0.1334711760 0.5500038266 4290726189
-0.2857801318 -0.1328869909 0.5501152277 4290923568
-0.2862886190 -0.1325111240 0.5510939956 4291120947
-0.2863461077 -0.1319253147 0.5512046814 4291252533
-0.2868544161 -0.1315459758 0.5521831512 4291252533
-0.2869115174 -0.1309585273 0.5522930622 4291449914
-0.2869684100 -0.1303707361 0.5524025559 4291515707
-0.2870250642 -0.1297825873 0.5525116324 4291515707
-0.2875328660 -0.1293972433 0.5534891486 4291449914
-0.2875891328 -0.1288074702 0.5535974503 4291252535
-0.2876451612 -0.1282173693 0.5537053347 4291055156
-0.2881526053 -0.1278272718 0.5546821356 4291054643
-0.2882082760 -0.1272355467 0.5547892451 4291120436
-0.2887155116 -0.1268419772 0.5557656884 4291186229
-0.2892226875 -0.1264462173 0.5567419529 4291186229
-0.2892777920 -0.1258516163 0.5568480492 4291646781
-0.2893326581 -0.1252566725 0.5569536686 4292041539
-0.2893872857 -0.1246613860 0.5570588112 4291712574
-0.2898939252 -0.1242596209 0.5580341220 4291252023
-0.2899481654 -0.1236627400 0.5581384897 4291186230
-0.2900021672 -0.1230655238 0.5582424402 4291317816
-0.2905084193 -0.1226590276 0.5592169762 4291383860
-0.2910146117 -0.1222503334 0.5601913333 4291383860
-0.2910680473 -0.1216502562 0.5602942109 4291252020
-0.2915740013 -0.1212381050 0.5612681508 4291186227
-0.2916270196 -0.1206364334 0.5613702536 4291185716
-0.2925856411 -0.1204072088 0.5632155538 4291119923
-0.2930913568 -0.1199884713 0.5641890168 4291120437
-0.2931438982 -0.1193830147 0.5642901063 4291449402
-0.2931961715 -0.1187772304 0.5643907785 4291318075
-0.2932482362 -0.1181711257 0.5644909739 4291252282
-0.2937533557 -0.1177464053 0.5654633045 4291911243
-0.2938049734 -0.1171387136 0.5655626655 4292042829
-0.2943098247 -0.1167105436 0.5665345192 4291978064
-0.2952681780 -0.1164590642 0.5683792830 4292175443
-0.2962265611 -0.1162035093 0.5702241659 4292373849
-0.2967312932 -0.1157668680 0.5711957216 4293097572
-0.2976897359 -0.1155041009 0.5730406642 4292641649
-0.2986482084 -0.1152372584 0.5748857260 4293628544
-0.3000607193 -0.1151405275 0.5776047111 4293314501
-0.3364087343 -0.2043530643 0.6489607096 4292665304
-0.3360513151 -0.2034156770 0.6482712030 4290954686
-0.3356934488 -0.2024795413 0.6475808620 4291149458
-0.3353351057 -0.2015446573 0.6468895674 4290754700
-0.3345326185 -0.2003453374 0.6453415155 4291212905
-0.3328418732 -0.1986193806 0.6420799494 4290818147
-0.3031842411 -0.1802717149 0.5848678350 4291015516
-0.3285689652 -0.1946610957 0.6338371038 4290752344
-0.3188804090 -0.1882376075 0.6151470542 4290554707
-0.3051886261 -0.1795011163 0.5887344480 4290225742
-0.3003766537 -0.1760270745 0.5794517398 4290290504
-0.2977842987 -0.1738696545 0.5744509101 4290356297
-0.2951904237 -0.1717224568 0.5694471002 4290422088
-0.2939290404 -0.1703586727 0.5670138001 4290290502
-0.2926667929 -0.1689997911 0.5645787716 4290289988
-0.2914036810 -0.1676458269 0.5621421337 4290158402
-0.2905846834 -0.1665518284 0.5605622530 4290025790
-0.2902101576 -0.1657151431 0.5598397255 4289762618
-0.2893899977 -0.1646265537 0.5582575798 4290023482
-0.2885691822 -0.1635411084 0.5566741824 4289760310
-0.2881931663 -0.1627103090 0.5559487939 4289889586
-0.2873711884 -0.1616302878 0.5543631315 4289823793
-0.2869941890 -0.1608031243 0.5536358953 4289953837
-0.2861710489 -0.1597285420 0.5520479679 4289953837
-0.2857930958 -0.1589050442 0.5513188839 4290215730
-0.2854147255 -0.1580829322 0.5505889654 4290149937
-0.2854820192 -0.1575082988 0.5507187843 4290279219
-0.2851029038 -0.1566880643 0.5499874353 4290147633
-0.2851696610 -0.1561135352 0.5501161814 4290211120
-0.2852361798 -0.1555385888 0.5502445698 4289947948
-0.2853025198 -0.1549632549 0.5503724813 4290077740
-0.2853686213 -0.1543875039 0.5504999757 4290011947
-0.2854345143 -0.1538113654 0.5506271124 4289747748
-0.2855001688 -0.1532348245 0.5507537723 4289879334
-0.2851187289 -0.1524190009 0.5500179529 4290339883
-0.2847368717 -0.1516045630 0.5492812991 4290932020
-0.2848016918 -0.1510286480 0.5494063497 4290932274
-0.2844190896 -0.1502161473 0.5486682653 4290800688
-0.2844833732 -0.1496403515 0.5487923026 4290667568
-0.2841000259 -0.1488297880 0.5480527878 4290601775
-0.2841637731 -0.1482541114 0.5481757522 4290274860
-0.2837796807 -0.1474454999 0.5474348664 4290669618
-0.2833952010 -0.1466383040 0.5466931462 4290801715
-0.2834580839 -0.1460632980 0.5468144417 4290604336
-0.2830728590 -0.1452580690 0.5460712910 4290602545
-0.2831352055 -0.1446831971 0.5461915731 4290273580
-0.2823011279 -0.1436519176 0.5445826054 4290599472
-0.2828110456 -0.1433052272 0.5455662608 4289809956
-0.2824243307 -0.1425039470 0.5448202491 4290136614
-0.2820372283 -0.1417041123 0.5440734625 4290597165
-0.2820981741 -0.1411301047 0.5441910625 4290728236
-0.2821589112 -0.1405557245 0.5443082452 4290596650
-0.2822194099 -0.1399809718 0.5444249511 4290990893
-0.2827284932 -0.1396274716 0.5454069972 4291254065
-0.2827886343 -0.1390510798 0.5455230474 4290924847
-0.2832975388 -0.1386941075 0.5465047359 4290727468
-0.2838064134 -0.1383349299 0.5474864244 4290595882
-0.2834169567 -0.1375376284 0.5467350483 4290595882
-0.2839255631 -0.1371759027 0.5477162004 4290530091
-0.2839847803 -0.1365958303 0.5478304625 4290464298
-0.2844932079 -0.1362306178 0.5488112569 4290463785
-0.2845520675 -0.1356489211 0.5489248633 4290463785
-0.2850603461 -0.1352802217 0.5499053001 4290792752
-0.2851188481 -0.1346968710 0.5500181913 4290924338
-0.2851771116 -0.1341131777 0.5501306057 4290924336
-0.2852351665 -0.1335291117 0.5502425432 4290924336
-0.2857429683 -0.1331543922 0.5512221456 4291120947
-0.2858006358 -0.1325686872 0.5513334274 4291318326
-0.2858580947 -0.1319826394 0.5514442325 4291515194
-0.2863655686 -0.1316031665 0.5524231791 4291580987
-0.2864226103 -0.1310154796 0.5525332689 4291647293
-0.2864794731 -0.1304274648 0.5526429415 4291647293
-0.2865360677 -0.1298390776 0.5527521372 4291647293
-0.2870430648 -0.1294535846 0.5537301302 4291581500
-0.2870992720 -0.1288635880 0.5538386106 4291449914
-0.2876060605 -0.1284746081 0.5548161864 4291186742
-0.2876619101 -0.1278829873 0.5549239516 4291120949
-0.2881684601 -0.1274905503 0.5559011698 4291186742
-0.2882239223 -0.1268973202 0.5560081601 4291449401
-0.2887302935 -0.1265013963 0.5569849610 4291186229
-0.2887853384 -0.1259065568 0.5570911765 4291515194
-0.2888401747 -0.1253113747 0.5571969151 4291844159
-0.2893461585 -0.1249107271 0.5581730008 4291646780
-0.2894005775 -0.1243139356 0.5582780242 4291383608
-0.2899063528 -0.1239098161 0.5592536926 4291383608
-0.2899603844 -0.1233114302 0.5593578815 4291186229
-0.2900141776 -0.1227127016 0.5594616532 4291186738
-0.2905195355 -0.1223038509 0.5604366064 4291318324
-0.2910248339 -0.1218928024 0.5614113212 4291252533
-0.2910780609 -0.1212912202 0.5615140200 4291186740
-0.2915831208 -0.1208767071 0.5624883175 4291186229
-0.2920880914 -0.1204599962 0.5634624362 4291186229
-0.2925930023 -0.1200410873 0.5644364357 4291252023
-0.2930977941 -0.1196199879 0.5654102564 4291383609
-0.2931501269 -0.1190130189 0.5655111670 4291186491
-0.2932021916 -0.1184057295 0.5656116605 4291449663
-0.2932540476 -0.1177981123 0.5657116771 4291648072
-0.2937582433 -0.1173710302 0.5666843057 4291911244
-0.2938096821 -0.1167618334 0.5667834878 4291780944
-0.2947664261 -0.1165102646 0.5686291456 4292175702
-0.2957232296 -0.1162546128 0.5704749227 4292373851
-0.2966800928 -0.1159948930 0.5723208189 4293229160
-0.2976370156 -0.1157310903 0.5741667747 4292707442
-0.2985939980 -0.1154632047 0.5760129094 4293760130
-0.2995510399 -0.1151912361 0.5778591037 4293446087
-0.3345873058 -0.2029643655 0.6468328834 4291217603
-0.3342299163 -0.2020296454 0.6461419463 4291215769
-0.3338720202 -0.2010961771 0.6454500556 4290689425
-0.3330707848 -0.1998981535 0.6439010501 4291213421
-0.3313827813 -0.1981732845 0.6406378150 4290818663
-0.3274779916 -0.1951347291 0.6330889463 4291081311
-0.3195817173 -0.1897431165 0.6178236604 4290752346
-0.3063609004 -0.1812355667 0.5922648907 4290620245
-0.3006722033 -0.1772244424 0.5812673569 4290357073
-0.2980854809 -0.1750594974 0.5762666464 4290356297
-0.2963846028 -0.1734239757 0.5729784369 4290487883
-0.2951264381 -0.1720538586 0.5705460906 4290553929
-0.2934234738 -0.1704308093 0.5672538877 4290356550
-0.2926074862 -0.1693283468 0.5656763911 4290355780
-0.2917908132 -0.1682289988 0.5640975833 4290224194
-0.2905292809 -0.1668776274 0.5616587996 4290025790
-0.2897112370 -0.1657854617 0.5600773096 4289828411
-0.2888925374 -0.1646964401 0.5584945679 4290089277
-0.2880732119 -0.1636105627 0.5569105744 4289826105
-0.2876978815 -0.1627794504 0.5561850071 4289889335
-0.2873221338 -0.1619496942 0.5554586053 4289691956
-0.2865010798 -0.1608715206 0.5538713336 4290019373
-0.2861243784 -0.1600454152 0.5531430840 4290150959
-0.2857472599 -0.1592206955 0.5524140596 4290281523
-0.2849245071 -0.1581502557 0.5508235097 4290215730
-0.2854370475 -0.1578216255 0.5518143177 4290477109
-0.2846133411 -0.1567548662 0.5502219200 4290148144
-0.2846800387 -0.1561801136 0.5503508449 4289948714
-0.2847464979 -0.1556049585 0.5504793525 4289751335
-0.2848127782 -0.1550294161 0.5506074429 4290078505
-0.2848788202 -0.1544534564 0.5507351160 4290012712
-0.2849446535 -0.1538770944 0.5508624315 4289879334
-0.2850102782 -0.1533003449 0.5509892702 4290076713
-0.2850756645 -0.1527231932 0.5511156917 4290141993
-0.2846946120 -0.1519075483 0.5503790379 4290339372
-0.2843131423 -0.1510933042 0.5496415496 4290208297
-0.2843776941 -0.1505167782 0.5497663617 4290208297
-0.2839954793 -0.1497044712 0.5490274429 4290864949
-0.2836128473 -0.1488935947 0.5482877493 4290799156
-0.2832297981 -0.1480841339 0.5475472212 4290274860
-0.2832931876 -0.1475087553 0.5476697087 4290669618
-0.2829093933 -0.1467012465 0.5469278097 4291064374
-0.2829722166 -0.1461260170 0.5470492840 4290801202
-0.2825877070 -0.1453204751 0.5463058949 4290734131
-0.2826499939 -0.1447453946 0.5464263558 4290470959
-0.2827120721 -0.1441699266 0.5465463400 4290731059
-0.2827739418 -0.1435940862 0.5466659069 4289809957
-0.2823880613 -0.1427915692 0.5459198952 4290070567
-0.2824493647 -0.1422158927 0.5460384488 4290596911
-0.2825104594 -0.1416398287 0.5461565852 4290924847
-0.2825713456 -0.1410634071 0.5462742448 4290661675
-0.2826319933 -0.1404865980 0.5463914871 4290989866
-0.2826924026 -0.1399094313 0.5465083122 4291318831
-0.2827526331 -0.1393318921 0.5466247201 4290596650
-0.2828125954 -0.1387539804 0.5467406511 4290662443
-0.2833206654 -0.1383946836 0.5477228761 4290465066
-0.2833802700 -0.1378151178 0.5478381515 4290465066
-0.2834396958 -0.1372351944 0.5479529500 4290793263
-0.2834988534 -0.1366548985 0.5480673909 4290727470
-0.2840064764 -0.1362895519 0.5490487218 4290726959
-0.2840653062 -0.1357076168 0.5491623878 4290661166
-0.2845727205 -0.1353387982 0.5501434207 4290793263
-0.2846311927 -0.1347552240 0.5502564311 4291188021
-0.2846894264 -0.1341712922 0.5503689647 4291319607
-0.2847474217 -0.1335869879 0.5504810810 4291253814
-0.2852543890 -0.1332121342 0.5514612198 4291384889
-0.2853120267 -0.1326262057 0.5515726209 4291450682
-0.2853694260 -0.1320399195 0.5516835451 4291580988
-0.2854265869 -0.1314532906 0.5517940521 4291646781
-0.2859330773 -0.1310723871 0.5527732968 4291647291
-0.2864395380 -0.1306892931 0.5537523627 4291647291
-0.2864961922 -0.1300997585 0.5538618565 4291647291
-0.2865526080 -0.1295098811 0.5539709330 4291713084
-0.2866087854 -0.1289196461 0.5540795326 4291713084
-0.2871147394 -0.1285305172 0.5550577044 4291449912
-0.2876206338 -0.1281391978 0.5560356975 4291252535
-0.2876763046 -0.1275460720 0.5561432838 4291252535
-0.2877317071 -0.1269526035 0.5562503934 4291120949
-0.2882372439 -0.1265565455 0.5572277308 4290989363
-0.2882922590 -0.1259614676 0.5573340654 4291384121
-0.2883470356 -0.1253660470 0.5574399829 4291844672
-0.2888522148 -0.1249652356 0.5584166050 4291910465
-0.2889066041 -0.1243682057 0.5585217476 4292107844
-0.2894115448 -0.1239639297 0.5594978929 4292107844
-0.2894655168 -0.1233652979 0.5596022606 4291647293
-0.2895192802 -0.1227663308 0.5597062111 4290924336
-0.2900238335 -0.1223573238 0.5606815815 4291121715
-0.2905282974 -0.1219461188 0.5616568923 4291318326
-0.2905814946 -0.1213442832 0.5617597103 4291186740
-0.2915370166 -0.1211171001 0.5636069775 4291120694
-0.2915898860 -0.1205127388 0.5637091398 4291186487
-0.2920939624 -0.1200936660 0.5646836758 4291318073
-0.2925979495 -0.1196723953 0.5656579733 4291383866
-0.2926502526 -0.1190651804 0.5657590628 4290989626
-0.2927022874 -0.1184576452 0.5658596754 4291450177
-0.2932058573 -0.1180316508 0.5668331981 4291385416
-0.2932574749 -0.1174225286 0.5669329762 4291780174
-0.2937607765 -0.1169930771 0.5679060221 4291846739
-0.2942640185 -0.1165614203 0.5688788295 4292307290
-0.2952192426 -0.1163056791 0.5707255006 4292308060
-0.2961745262 -0.1160458550 0.5725722909 4293031783
-0.2971298695 -0.1157819554 0.5744192004 4292641651
-0.2980852723 -0.1155139729 0.5762661695 4293760132
-0.2994931042 -0.1154162437 0.5789878964 4293577673
-0.3326838315 -0.2022439390 0.6445369124 4291416532
-0.3323267698 -0.2013115138 0.6438451409 4290690712
-0.3319692314 -0.2003803402 0.6431525350 4290427540
-0.3311690986 -0.1991845071 0.6416023374 4291017325
-0.3299260139 -0.1977266669 0.6391940117 4290622567
-0.3264701664 -0.1949528009 0.6324987411 4291081570
-0.3190299869 -0.1898231208 0.6180841923 4290818398
-0.3071598411 -0.1820991933 0.5950871706 4290423638
-0.3010386527 -0.1778222620 0.5832280517 4290160466
-0.2984566987 -0.1756546497 0.5782257915 4290423121
-0.2963160872 -0.1737569720 0.5740786195 4290488914
-0.2950602770 -0.1723854244 0.5716456175 4290618953
-0.2933604121 -0.1707608402 0.5683523417 4290487367
-0.2921027541 -0.1693999916 0.5659157634 4290420803
-0.2912875712 -0.1683002114 0.5643364191 4290289217
-0.2904717326 -0.1672035903 0.5627558231 4290156606
-0.2896552682 -0.1661100984 0.5611740351 4290090813
-0.2888381481 -0.1650197506 0.5595909357 4290155579
-0.2880203724 -0.1639325619 0.5580065846 4289958200
-0.2872019708 -0.1628485322 0.5564210415 4289826101
-0.2863829434 -0.1617676467 0.5548342466 4289365550
-0.2868955731 -0.1614396721 0.5558274388 4289954609
-0.2856313586 -0.1601134390 0.5533781648 4290086195
-0.2852549553 -0.1592884064 0.5526489019 4290020148
-0.2848781049 -0.1584647447 0.5519188046 4289822769
-0.2849453688 -0.1578887999 0.5520491600 4290476852
-0.2845678031 -0.1570670307 0.5513176322 4290082094
-0.2841897905 -0.1562466472 0.5505852699 4289357351
-0.2842561901 -0.1556712836 0.5507139564 4289291558
-0.2843224108 -0.1550955176 0.5508422256 4290339885
-0.2843883932 -0.1545193344 0.5509700775 4290405678
-0.2844541669 -0.1539427638 0.5510975122 4290012201
-0.2845197320 -0.1533657908 0.5512245297 4289749029
-0.2845850587 -0.1527884305 0.5513510704 4290206757
-0.2842047215 -0.1519724578 0.5506142378 4290009378
-0.2842695415 -0.1513952017 0.5507397652 4289878305
-0.2838884592 -0.1505811661 0.5500015020 4290338856
-0.2839527428 -0.1500040293 0.5501260161 4290340912
-0.2835709155 -0.1491919160 0.5493863225 4290340912
-0.2831887007 -0.1483812332 0.5486457944 4290406444
-0.2828060389 -0.1475719661 0.5479044318 4290801202
-0.2824229598 -0.1467641443 0.5471622944 4291260726
-0.2824857533 -0.1461886913 0.5472838879 4291260726
-0.2821019292 -0.1453828365 0.5465403199 4291653433
-0.2821641862 -0.1448075324 0.5466609001 4291258675
-0.2822262049 -0.1442318410 0.5467810631 4290929200
-0.2822880149 -0.1436557770 0.5469008088 4290139684
-0.2823495865 -0.1430793405 0.5470201373 4289744417
-0.2824109495 -0.1425025314 0.5471389890 4290073382
-0.2824721038 -0.1419253349 0.5472574234 4290335531
-0.2825330198 -0.1413477659 0.5473754406 4290072359
-0.2825936973 -0.1407698393 0.5474930406 4290269229
-0.2826541662 -0.1401915252 0.5476102233 4290598194
-0.2827144265 -0.1396128386 0.5477269292 4290465838
-0.2827744484 -0.1390337944 0.5478432178 4290268459
-0.2828342617 -0.1384543777 0.5479590893 4290465325
-0.2828938365 -0.1378745884 0.5480745435 4290596911
-0.2829531729 -0.1372944266 0.5481895208 4290531118
-0.2830123007 -0.1367139220 0.5483040810 4290860083
-0.2830712199 -0.1361330450 0.5484181643 4291057975
-0.2835778594 -0.1357662827 0.5493997931 4290794803
-0.2840844989 -0.1353973150 0.5503813028 4291188791
-0.2841429114 -0.1348135173 0.5504944324 4291320377
-0.2842010856 -0.1342293471 0.5506071448 4291778877
-0.2842590213 -0.1336448342 0.5507194400 4291778877
-0.2847651839 -0.1332698315 0.5517000556 4291975486
-0.2848227620 -0.1326836646 0.5518115759 4291975486
-0.2848801017 -0.1320971549 0.5519226789 4291844157
-0.2853859365 -0.1317173988 0.5529026985 4291778364
-0.2854429185 -0.1311292499 0.5530130863 4291647291
-0.2854996622 -0.1305407584 0.5531229973 4291581498
-0.2860051394 -0.1301562488 0.5541023612 4291581498
-0.2860615253 -0.1295661181 0.5542115569 4291778877
-0.2861176431 -0.1289756596 0.5543202758 4292041536
-0.2866227925 -0.1285863966 0.5552989244 4291712571
-0.2871278822 -0.1281949282 0.5562775135 4291120949
-0.2876328826 -0.1278012544 0.5572559237 4291120949
-0.2876883447 -0.1272066087 0.5573633313 4291186742
-0.2877435684 -0.1266116351 0.5574703217 4290857777
-0.2882482111 -0.1262132227 0.5584480166 4291252023
-0.2883030176 -0.1256166250 0.5585542321 4291712574
-0.2883576155 -0.1250196993 0.5586599708 4291778367
-0.2884119451 -0.1244224310 0.5587652326 4292238918
-0.2889160812 -0.1240179986 0.5597419143 4292370761
-0.2889700234 -0.1234191284 0.5598464608 4291844417
-0.2894739211 -0.1230112240 0.5608226657 4291251509
-0.2895274758 -0.1224107519 0.5609264374 4291317302
-0.2900311351 -0.1219993830 0.5619022250 4291383608
-0.2905347049 -0.1215858161 0.5628778338 4291252022
-0.2910382152 -0.1211700439 0.5638533235 4291186742
-0.2915416360 -0.1207520738 0.5648286343 4291384121
-0.2915942967 -0.1201462001 0.5649306774 4291515707
-0.2920974791 -0.1197247654 0.5659055114 4291384121
-0.2921497226 -0.1191173047 0.5660067201 4291383355
-0.2926526368 -0.1186924055 0.5669810772 4291449148
-0.2927044630 -0.1180833578 0.5670815110 4291646788
-0.2932071388 -0.1176549941 0.5680553317 4292238925
-0.2932585478 -0.1170443594 0.5681549311 4292109652
-0.2937609553 -0.1166125387 0.5691282749 4292043859
-0.2947145700 -0.1163567007 0.5709758401 4292111710
-0.2956682742 -0.1160967797 0.5728235245 4292703847
-0.2966220379 -0.1158327833 0.5746713281 4292837753
-0.2980273962 -0.1157400608 0.5773940682 4294022027
-0.2989813387 -0.1154669449 0.5792422295 4292924630
-0.3312252462 -0.2017914504 0.6430948973 4292008669
-0.3308686316 -0.2008604407 0.6424025297 4290888093
-0.3305115700 -0.1999306977 0.6417092681 4290295956
-0.3297126889 -0.1987361759 0.6401581764 4290885741
-0.3284716010 -0.1972795129 0.6377485394 4290688362
-0.3254632056 -0.1947705895 0.6319075227 4291015779
-0.3193609715 -0.1904298365 0.6200597286 4290884193
-0.3083953559 -0.1832259297 0.5987691879 4290555226
-0.3014013767 -0.1784204394 0.5851899981 4290292054
-0.2979400754 -0.1757287234 0.5784696341 4290422866
-0.2958032489 -0.1738303006 0.5743208528 4290488659
-0.2945496440 -0.1724582016 0.5718869567 4290487883
-0.2932952046 -0.1710910201 0.5694513321 4290356297
-0.2920398712 -0.1697287410 0.5670139790 4290618440
-0.2912262678 -0.1686276495 0.5654343367 4290421061
-0.2904120088 -0.1675296873 0.5638534427 4290222399
-0.2895970941 -0.1664348841 0.5622712374 4290156606
-0.2883386612 -0.1650896221 0.5598278642 4290090302
-0.2875223458 -0.1640020013 0.5582429767 4289958716
-0.2871485651 -0.1631693542 0.5575172305 4289957687
-0.2858878672 -0.1618362516 0.5550695062 4289365550
-0.2863996923 -0.1615081578 0.5560632348 4289757487
-0.2851377130 -0.1601813883 0.5536130667 4290020659
-0.2847619951 -0.1593560427 0.5528835654 4290020148
-0.2843858600 -0.1585320681 0.5521532893 4289625390
-0.2844530940 -0.1579558998 0.5522837639 4290279730
-0.2845200598 -0.1573793292 0.5524138808 4289884972
-0.2841428816 -0.1565577388 0.5516815186 4289291558
-0.2837652564 -0.1557375342 0.5509483814 4289291558
-0.2838314176 -0.1551615596 0.5510767698 4290537264
-0.2838973403 -0.1545851678 0.5512048006 4290471471
-0.2839630544 -0.1540083885 0.5513323545 4290077740
-0.2840285599 -0.1534311920 0.5514595509 4289880361
-0.2840938568 -0.1528536081 0.5515863299 4290207270
-0.2837142348 -0.1520373225 0.5508492589 4290075684
-0.2837789655 -0.1514598429 0.5509749651 4290075684
-0.2833985984 -0.1506454945 0.5502364635 4290470442
-0.2834628224 -0.1500681341 0.5503611565 4290472498
-0.2830817103 -0.1492557079 0.5496212244 4290406705
-0.2827002108 -0.1484446973 0.5488804579 4290275373
-0.2823182642 -0.1476351321 0.5481389165 4290604338
-0.2823812962 -0.1470589340 0.5482612848 4291195446
-0.2819986343 -0.1462513208 0.5475183129 4291458618
-0.2820611298 -0.1456752717 0.5476396680 4291786302
-0.2821234167 -0.1450988352 0.5477606058 4291588923
-0.2821854949 -0.1445220262 0.5478811264 4291192372
-0.2818014622 -0.1437174231 0.5471354723 4290468649
-0.2818629742 -0.1431407630 0.5472549200 4290007589
-0.2819242775 -0.1425637305 0.5473740101 4289876003
-0.2819853723 -0.1419863105 0.5474925637 4289941543
-0.2820462584 -0.1414085329 0.5476107597 4290007336
-0.2821068764 -0.1408303678 0.5477284789 4290269486
-0.2821673155 -0.1402518302 0.5478458405 4290466865
-0.2822275162 -0.1396729350 0.5479626656 4290401326
-0.2822874784 -0.1390936524 0.5480791330 4290203947
-0.2827939689 -0.1387331784 0.5490625501 4290531629
-0.2828536034 -0.1381522566 0.5491783023 4290663215
-0.2829129994 -0.1375709623 0.5492936373 4290662958
-0.2829721570 -0.1369892955 0.5494084954 4291189302
-0.2830311060 -0.1364072710 0.5495229363 4291715392
-0.2830898166 -0.1358248889 0.5496369004 4291583806
-0.2831483185 -0.1352421343 0.5497505069 4291517756
-0.2836539745 -0.1348717511 0.5507322550 4291649342
-0.2841596007 -0.1344991773 0.5517139435 4291977024
-0.2842175961 -0.1339135021 0.5518265367 4291977024
-0.2842753530 -0.1333274692 0.5519387126 4291911231
-0.2843328714 -0.1327410787 0.5520504117 4291845438
-0.2848380208 -0.1323624551 0.5530311465 4291714365
-0.2848951817 -0.1317744404 0.5531421304 4291516986
-0.2854001522 -0.1313923299 0.5541225672 4291582268
-0.2854569256 -0.1308026761 0.5542328358 4291450682
-0.2855134606 -0.1302126795 0.5543426275 4291581498
-0.2860180736 -0.1298258156 0.5553223491 4291713084
-0.2860742509 -0.1292341799 0.5554314256 4291844670
-0.2861301899 -0.1286422163 0.5555400252 4291581498
-0.2866344452 -0.1282505989 0.5565190911 4290990133
-0.2871386707 -0.1278567761 0.5574980378 4290990133
-0.2871940732 -0.1272619069 0.5576055646 4290858547
-0.2876980603 -0.1268645972 0.5585840940 4290595375
-0.2877530754 -0.1262681186 0.5586909056 4290989108
-0.2878078222 -0.1256712824 0.5587972403 4291252280
-0.2878623605 -0.1250741184 0.5589031577 4291449659
-0.2883658409 -0.1246708035 0.5598806739 4292041796
-0.2884199619 -0.1240720227 0.5599857569 4292370761
-0.2884738743 -0.1234729066 0.5600904226 4291976003
-0.2889769375 -0.1230648533 0.5610671639 4291448888
-0.2899294496 -0.1228450462 0.5629165173 4291514681
-0.2899828851 -0.1222421303 0.5630202293 4291383608
-0.2904857397 -0.1218274608 0.5639965534 4291252022
-0.2905387580 -0.1212229431 0.5640994906 4291318328
-0.2910413444 -0.1208048090 0.5650753379 4291515707
-0.2915438712 -0.1203844696 0.5660510063 4291384121
-0.2915963233 -0.1197770908 0.5661528111 4291384121
-0.2920985818 -0.1193532869 0.5671280622 4291514941
-0.2921506166 -0.1187443137 0.5672290325 4291580734
-0.2926526368 -0.1183170453 0.5682037473 4291712581
-0.2927042544 -0.1177064851 0.5683039427 4292173132
-0.2932060063 -0.1172757521 0.5692781806 4292240984
-0.2937076688 -0.1168428138 0.5702521801 4292372570
-0.2942092419 -0.1164076775 0.5712260008 4292111710
-0.2951613665 -0.1161476672 0.5730745792 4292506468
-0.2961135209 -0.1158835664 0.5749232769 4292246643
-0.2970657349 -0.1156153828 0.5767720938 4293891468
-0.3289724588 -0.2001409233 0.6401013136 4291085733
-0.3286157548 -0.1992134899 0.6394072771 4290296217
-0.3282586038 -0.1982873082 0.6387123466 4290885487
-0.3270195127 -0.1968318671 0.6363013983 4290819694
-0.3244570196 -0.1945880651 0.6313154101 4291082089
-0.3192472756 -0.1907734275 0.6211784482 4290950503
-0.3100650907 -0.1846160889 0.6033121347 4290686560
-0.3017603755 -0.1790190041 0.5871531963 4290291802
-0.2983053625 -0.1763244122 0.5804305673 4290291795
-0.2957311571 -0.1741634905 0.5754217505 4290423381
-0.2940383852 -0.1725309193 0.5721280575 4290619471
-0.2927861810 -0.1711631864 0.5696915388 4290487885
-0.2915330827 -0.1698003709 0.5672532916 4290750028
-0.2911627591 -0.1689552218 0.5665327907 4290552649
-0.2899081707 -0.1676004678 0.5640916228 4290288192
-0.2890947461 -0.1665052176 0.5625088811 4290090813
-0.2882806659 -0.1654131263 0.5609248877 4290024763
-0.2870237231 -0.1640713811 0.5584791303 4289958970
-0.2866506279 -0.1632384062 0.5577532053 4289958200
-0.2862771153 -0.1624068022 0.5570264459 4289366063
-0.2859031558 -0.1615765840 0.5562988520 4289757487
-0.2850861251 -0.1604985148 0.5547090769 4290020659
-0.2842684388 -0.1594236195 0.5531180501 4289954355
-0.2838930190 -0.1585993320 0.5523875356 4289493804
-0.2839601636 -0.1580229551 0.5525181890 4290082351
-0.2840270996 -0.1574461758 0.5526484251 4289884972
-0.2836506069 -0.1566242576 0.5519158840 4289488937
-0.2837170064 -0.1560475677 0.5520451069 4289488937
-0.2833397985 -0.1552275419 0.5513111353 4290604084
-0.2834056616 -0.1546509415 0.5514392853 4290472498
-0.2834713161 -0.1540739387 0.5515670776 4290275119
-0.2835367620 -0.1534965336 0.5516943932 4290143533
-0.2836019993 -0.1529187411 0.5518212914 4290273579
-0.2832230926 -0.1521021277 0.5510840416 4290141993
-0.2832877636 -0.1515244395 0.5512099266 4290010920
-0.2829081416 -0.1507097632 0.5504711866 4290405678
-0.2829722762 -0.1501321793 0.5505960584 4290735670
-0.2825919092 -0.1493194401 0.5498558879 4290538291
-0.2826555073 -0.1487419903 0.5499796867 4290341423
-0.2822743952 -0.1479311883 0.5492381454 4290407216
-0.2818928659 -0.1471218169 0.5484957695 4290735924
-0.2819556296 -0.1465450227 0.5486178994 4291130682
-0.2815733552 -0.1457376182 0.5478740931 4291524157
-0.2816355824 -0.1451609582 0.5479951501 4291524157
-0.2816976011 -0.1445839256 0.5481157899 4291325240
-0.2817593813 -0.1440065205 0.5482360721 4290733103
-0.2813757360 -0.1432021409 0.5474895835 4290468651
-0.2814370096 -0.1426248848 0.5476087332 4289942307
-0.2814980447 -0.1420472413 0.5477275252 4289875749
-0.2815588415 -0.1414692402 0.5478458405 4290073128
-0.2816194296 -0.1408908516 0.5479637384 4290138924
-0.2816798091 -0.1403120905 0.5480812192 4290204717
-0.2817399502 -0.1397329718 0.5481982231 4290336303
-0.2822457552 -0.1393736452 0.5491824150 4290204717
-0.2823055387 -0.1387928575 0.5492987633 4290598192
-0.2823651135 -0.1382117122 0.5494146347 4290663985
-0.2824244499 -0.1376301944 0.5495301485 4290860337
-0.2824835777 -0.1370483041 0.5496451259 4291452474
-0.2825424671 -0.1364660561 0.5497597456 4292110404
-0.2826011479 -0.1358834356 0.5498738885 4292044611
-0.2831061184 -0.1355142146 0.5508564711 4291715133
-0.2831644118 -0.1349299550 0.5509698987 4291715133
-0.2836692035 -0.1345572323 0.5519521236 4291846721
-0.2837271392 -0.1339713335 0.5520648360 4291846721
-0.2837848663 -0.1333850622 0.5521771312 4291780928
-0.2838423252 -0.1327984482 0.5522889495 4291780928
-0.2843466699 -0.1324196905 0.5532702804 4291452733
-0.2844037712 -0.1318314373 0.5533813834 4291189561
-0.2849079072 -0.1314491928 0.5543623567 4291516988
-0.2849646509 -0.1308593005 0.5544726849 4291319609
-0.2850211561 -0.1302690655 0.5545826554 4291384889
-0.2850774229 -0.1296784729 0.5546921492 4291384889
-0.2855810821 -0.1292901933 0.5556721091 4291319096
-0.2860846519 -0.1288997084 0.5566520095 4291121717
-0.2861404121 -0.1283062100 0.5567604303 4290924340
-0.2866437733 -0.1279122531 0.5577399135 4290924340
-0.2866991460 -0.1273171455 0.5578476191 4290792754
-0.2872022986 -0.1269196868 0.5588266253 4290661168
-0.2872572839 -0.1263229698 0.5589336157 4290792499
-0.2873120010 -0.1257258952 0.5590400696 4290989878
-0.2873664796 -0.1251284927 0.5591461062 4291253050
-0.2878691256 -0.1247250140 0.5601240993 4291910980
-0.2879232168 -0.1241260022 0.5602293611 4292239945
-0.2884256244 -0.1237190515 0.5612069368 4291976773
-0.2884793282 -0.1231184304 0.5613114238 4291646780
-0.2894302309 -0.1228985488 0.5631616712 4291580987
-0.2899324298 -0.1224849895 0.5641388297 4291318328
-0.2899856567 -0.1218805611 0.5642423630 4291186742
-0.2900386155 -0.1212757975 0.5643454194 4291516477
-0.2905403972 -0.1208574995 0.5653218031 4291582270
-0.2910421193 -0.1204369962 0.5662980080 4291055926
-0.2910945117 -0.1198293716 0.5663999319 4291253305
-0.2915959656 -0.1194054037 0.5673756599 4291383868
-0.2916479409 -0.1187961847 0.5674768090 4291515454
-0.2921491563 -0.1183687449 0.5684520602 4291647559
-0.2926502526 -0.1179390997 0.5694270730 4291910731
-0.2927016616 -0.1173270345 0.5695270896 4292175704
-0.2932025194 -0.1168939248 0.5705016255 4292504669
-0.2941530347 -0.1166369617 0.5723510981 4291979869
-0.2946537733 -0.1161985025 0.5733254552 4292177248
-0.2956043482 -0.1159343049 0.5751750469 4291918448
-0.2970049977 -0.1158415377 0.5779002905 4293892238
-0.3275198042 -0.1996887028 0.6386550069 4291479981
-0.3271635473 -0.1987626851 0.6379603744 4290558879
-0.3268068731 -0.1978379339 0.6372647882 4291148662
-0.3255698085 -0.1963836849 0.6348525286 4290951283
-0.3234516978 -0.1944052577 0.6307222843 4291213423
-0.3186911345 -0.1908535510 0.6214393377 4291016044
-0.3108459115 -0.1854818314 0.6061413288 4290752354
-0.3025560677 -0.1798797697 0.5899763703 4290357596
-0.2986669242 -0.1769204736 0.5823926330 4290357336
-0.2956568599 -0.1744968444 0.5765230656 4290488922
-0.2935265005 -0.1726035625 0.5723689198 4290750803
-0.2922765017 -0.1712352931 0.5699315071 4290619217
-0.2914665937 -0.1701293141 0.5683522224 4290684235
-0.2906560600 -0.1690264791 0.5667716861 4290618442
-0.2898448408 -0.1679267734 0.5651898384 4290419778
-0.2885917425 -0.1665755063 0.5627462864 4290156606
-0.2877791524 -0.1654829830 0.5611617565 4290024763
-0.2874073982 -0.1646465361 0.5604369044 4290024763
-0.2865936458 -0.1635594368 0.5588500500 4290089786
-0.2862209380 -0.1627266109 0.5581232905 4289497649
-0.2854059935 -0.1616449505 0.5565342307 4289757998
-0.2850323319 -0.1608157754 0.5558055639 4290021170
-0.2846582532 -0.1599879861 0.5550761223 4290085941
-0.2838416398 -0.1589140594 0.5534837246 4289493804
-0.2839088440 -0.1583365649 0.5536147356 4289688876
-0.2839758098 -0.1577586830 0.5537453890 4289754669
-0.2836001515 -0.1569355428 0.5530128479 4289817902
-0.2832240462 -0.1561138034 0.5522794724 4289817902
-0.2832901776 -0.1555364877 0.5524083972 4290736953
-0.2829133570 -0.1547166556 0.5516736507 4290539574
-0.2829789519 -0.1541394293 0.5518015623 4290473011
-0.2830443382 -0.1535618156 0.5519290566 4290275632
-0.2831095159 -0.1529837996 0.5520561337 4290274862
-0.2831744850 -0.1524053812 0.5521827936 4290077483
-0.2827959657 -0.1515889764 0.5514446497 4290077481
-0.2828603685 -0.1510106623 0.5515702963 4290472239
-0.2824811339 -0.1501961797 0.5508307815 4290539572
-0.2821014524 -0.1493831277 0.5500904322 4290473779
-0.2826086581 -0.1490394324 0.5510794520 4290407986
-0.2822283506 -0.1482273936 0.5503379107 4290407986
-0.2818476260 -0.1474168003 0.5495954752 4290670388
-0.2814664841 -0.1466076374 0.5488522649 4291065146
-0.2815289795 -0.1460302323 0.5489741564 4291393341
-0.2815912664 -0.1454524547 0.5490955710 4291459134
-0.2812090814 -0.1446457803 0.5483502746 4291523646
-0.2817151546 -0.1442957371 0.5493371487 4291063095
-0.2813323438 -0.1434901357 0.5485906601 4290930227
-0.2813936174 -0.1429117471 0.5487101674 4290206504
-0.2814547122 -0.1423329711 0.5488292575 4290007335
-0.2815155685 -0.1417538226 0.5489479303 4290204714
-0.2815761864 -0.1411743015 0.5490661860 4290400813
-0.2816365957 -0.1405944079 0.5491839647 4290400813
-0.2816967964 -0.1400141418 0.5493013263 4290401324
-0.2817567587 -0.1394335032 0.5494182706 4290401324
-0.2818164825 -0.1388524920 0.5495347381 4290663983
-0.2818759978 -0.1382711232 0.5496507883 4290663983
-0.2819353044 -0.1376893669 0.5497664213 4290794801
-0.2824398577 -0.1373238564 0.5507503152 4291321145
-0.2824987769 -0.1367404610 0.5508652329 4291781696
-0.2825574875 -0.1361567080 0.5509796739 4291781696
-0.2826159596 -0.1355725825 0.5510936975 4291584317
-0.2831200957 -0.1352010071 0.5520766973 4291518524
-0.2831782103 -0.1346152425 0.5521900654 4291518524
-0.2832360864 -0.1340291053 0.5523028970 4291584317
-0.2837398648 -0.1336527616 0.5532853007 4291715905
-0.2837973833 -0.1330649853 0.5533974767 4291781698
-0.2838546932 -0.1324768662 0.5535091758 4291387710
-0.2839117348 -0.1318883747 0.5536204576 4290992952
-0.2844150662 -0.1315059960 0.5546019077 4291385402
-0.2844717503 -0.1309158802 0.5547124147 4291319609
-0.2849748731 -0.1305299997 0.5556935072 4291319609
-0.2850311697 -0.1299382448 0.5558032990 4291188023
-0.2850872278 -0.1293461472 0.5559126139 4291056437
-0.2851430774 -0.1287537068 0.5560215116 4290859058
-0.2856456935 -0.1283617914 0.5570015907 4290727218
-0.2861482501 -0.1279676706 0.5579816103 4290858804
-0.2866507471 -0.1275713444 0.5589614511 4290793011
-0.2867059112 -0.1269747317 0.5590689778 4290595632
-0.2867608368 -0.1263777614 0.5591760874 4290792499
-0.2868154943 -0.1257804632 0.5592827201 4291121464
-0.2868699431 -0.1251828074 0.5593888760 4291450429
-0.2873717844 -0.1247791871 0.5603674054 4291845187
-0.2874258161 -0.1241799295 0.5604727864 4291977286
-0.2879274189 -0.1237728298 0.5614508986 4291845700
-0.2884289324 -0.1233635172 0.5624288321 4291713086
-0.2889303863 -0.1229520068 0.5634066463 4291515707
-0.2894317508 -0.1225382909 0.5643842816 4291121719
-0.2894849181 -0.1219336167 0.5644879937 4290990133
-0.2895378470 -0.1213286072 0.5645911694 4291648320
-0.2895905375 -0.1207232699 0.5646939278 4291714113
-0.2900913358 -0.1203035414 0.5656704903 4291056184
-0.2905920446 -0.1198816076 0.5666468740 4291319356
-0.2910926938 -0.1194574684 0.5676230788 4291318591
-0.2911446393 -0.1188480034 0.5677243471 4291384384
-0.2916450202 -0.1184203997 0.5687000751 4291517000
-0.2921453118 -0.1179905832 0.5696756244 4291780172
-0.2926454842 -0.1175585687 0.5706510544 4292044634
-0.2931455970 -0.1171243489 0.5716262460 4292307806
-0.2936456203 -0.1166879311 0.5726012588 4291783262
-0.2945946157 -0.1164267808 0.5744517446 4292112227
-0.2955436707 -0.1161615402 0.5763024092 4291919731
-0.2964927852 -0.1158922166 0.5781531334 4293827728
-0.3260694742 -0.1992359459 0.6372069716 4291874747
-0.3257137239 -0.1983113438 0.6365117431 4290822059
-0.3253574967 -0.1973880231 0.6358156204 4291411584
-0.3241224289 -0.1959349811 0.6334020495 4290951033
-0.3220078647 -0.1939575523 0.6292697191 4291147377
-0.3181343079 -0.1909336001 0.6217000484 4291081584
-0.3111819029 -0.1860853285 0.6081135273 4290883688
-0.3033464551 -0.1807411313 0.5928014517 4290554723
-0.2985850275 -0.1772558540 0.5834966302 4290554202
-0.2955803573 -0.1748303473 0.5776249766 4290685788
-0.2934539020 -0.1729354113 0.5734694004 4290882390
-0.2922062576 -0.1715657115 0.5710312724 4290685011
-0.2913979590 -0.1704584211 0.5694516301 4290815567
-0.2905889750 -0.1693542451 0.5678707361 4290749774
-0.2897793651 -0.1682532281 0.5662885904 4290617157
-0.2885285914 -0.1669005305 0.5638443828 4290353985
-0.2877176106 -0.1658066958 0.5622594953 4290352958
-0.2869059443 -0.1647160053 0.5606733561 4290352958
-0.2865344882 -0.1638806015 0.5599474311 4290352958
-0.2861625850 -0.1630465686 0.5592206717 4289760821
-0.2853492498 -0.1619635820 0.5576312542 4290021170
-0.2849764228 -0.1611331999 0.5569026470 4290152756
-0.2841618955 -0.1600556523 0.5553109050 4290217781
-0.2837881148 -0.1592289358 0.5545804501 4289559851
-0.2838553488 -0.1586503386 0.5547118187 4289623596
-0.2834807932 -0.1578254998 0.5539799333 4289755182
-0.2831058502 -0.1570020467 0.5532471538 4290016049
-0.2831722498 -0.1564240158 0.5533769131 4290081842
-0.2827965319 -0.1556024700 0.5526427031 4290869820
-0.2828623950 -0.1550245285 0.5527714491 4290606648
-0.2824859619 -0.1542048752 0.5520358086 4290473781
-0.2825512886 -0.1536270380 0.5521634817 4290276402
-0.2826164067 -0.1530488133 0.5522907376 4290407216
-0.2826813161 -0.1524701715 0.5524175167 4290341423
-0.2827459872 -0.1518911421 0.5525439382 4290275630
-0.2823678553 -0.1510749310 0.5518050194 4290670388
-0.2824320197 -0.1504960060 0.5519303679 4290475062
-0.2820531428 -0.1496817172 0.5511899590 4290475062
-0.2821167707 -0.1491029263 0.5513142943 4290605878
-0.2817371786 -0.1482905895 0.5505725145 4290540085
-0.2813571692 -0.1474796683 0.5498299003 4290867767
-0.2814199328 -0.1469015330 0.5499525070 4291196732
-0.2810391784 -0.1460925788 0.5492084622 4291394111
-0.2811014056 -0.1455145776 0.5493300557 4291591490
-0.2811633945 -0.1449361891 0.5494512320 4291657026
-0.2812251747 -0.1443574131 0.5495719314 4291064889
-0.2808430791 -0.1435514987 0.5488252640 4291063096
-0.2809043229 -0.1429728866 0.5489448905 4290470959
-0.2809653282 -0.1423938870 0.5490641594 4290402093
-0.2810261250 -0.1418145150 0.5491830111 4290270507
-0.2810867131 -0.1412347853 0.5493013859 4290531372
-0.2811470628 -0.1406546682 0.5494193435 4290531372
-0.2812072039 -0.1400741786 0.5495368242 4290597163
-0.2812671065 -0.1394933164 0.5496538877 4290728749
-0.2813268006 -0.1389120817 0.5497705340 4290860848
-0.2813862562 -0.1383304745 0.5498867631 4290860848
-0.2814455032 -0.1377485096 0.5500025153 4290861364
-0.2819492221 -0.1373828650 0.5509868860 4291256122
-0.2820081115 -0.1367992312 0.5511019826 4291519294
-0.2820667624 -0.1362152547 0.5512166023 4291453501
-0.2821252048 -0.1356308907 0.5513308048 4291454014
-0.2826284766 -0.1352591813 0.5523142815 4291388221
-0.2826865613 -0.1346731931 0.5524277687 4291321915
-0.2827443779 -0.1340868324 0.5525407791 4291321915
-0.2828019857 -0.1335001141 0.5526533723 4291650882
-0.2833048105 -0.1331223547 0.5536360145 4291848261
-0.2833620608 -0.1325339973 0.5537478328 4291650112
-0.2834190726 -0.1319452822 0.5538592339 4291255354
-0.2839215696 -0.1315627396 0.5548412204 4291319609
-0.2839781940 -0.1309724003 0.5549519062 4291319609
-0.2844804823 -0.1305863708 0.5559334755 4291254330
-0.2845367491 -0.1299943924 0.5560434461 4291188537
-0.2845927775 -0.1294020563 0.5561529398 4291188023
-0.2846485674 -0.1288093776 0.5562619567 4290990644
-0.2851503491 -0.1284173280 0.5572425723 4290858804
-0.2856521010 -0.1280230582 0.5582230687 4290858804
-0.2861537635 -0.1276265830 0.5592034459 4290990390
-0.2862088680 -0.1270297170 0.5593110919 4290595632
-0.2862637341 -0.1264325231 0.5594183207 4290727219
-0.2863183618 -0.1258349717 0.5595251322 4291253563
-0.2863727808 -0.1252370924 0.5596314073 4291582528
-0.2868737578 -0.1248333082 0.5606104732 4291714114
-0.2873747051 -0.1244273260 0.5615893602 4291779907
-0.2878755629 -0.1240191311 0.5625681281 4291648321
-0.2883763313 -0.1236087307 0.5635467768 4291844417
-0.2884298563 -0.1230054200 0.5636513829 4291515452
-0.2889304161 -0.1225915402 0.5646295547 4291056183
-0.2889835238 -0.1219866201 0.5647333860 4290924597
-0.2894838452 -0.1215692684 0.5657110810 4291385918
-0.2895365655 -0.1209627464 0.5658140779 4291583297
-0.2900366187 -0.1205419153 0.5667912960 4291253563
-0.2905365825 -0.1201188788 0.5677683949 4291582528
-0.2905887365 -0.1195094958 0.5678702593 4291648069
-0.2910884619 -0.1190829873 0.5688468814 4291450690
-0.2911401987 -0.1184720099 0.5689479709 4291517002
-0.2916396558 -0.1180420294 0.5699239969 4291911760
-0.2916909754 -0.1174294576 0.5700243115 4292045147
-0.2926383317 -0.1171754524 0.5718756318 4292242526
-0.2935857475 -0.1169173568 0.5737270713 4292046434
-0.2940849364 -0.1164776087 0.5747025609 4292638571
-0.2950323820 -0.1162122712 0.5765540600 4292118137
-0.2959798872 -0.1159428433 0.5784056783 4293894548
-0.3246215284 -0.1987826675 0.6357572675 4292466635
-0.3242662251 -0.1978594959 0.6350614429 4291019189
-0.3239104748 -0.1969375908 0.6343647242 4291542663
-0.3231158555 -0.1957513690 0.6328084469 4291016319
-0.3210049570 -0.1937740296 0.6286743283 4291147377
-0.3175767958 -0.1910135895 0.6219604611 4291081584
-0.3115141094 -0.1866891980 0.6100869775 4291015274
-0.3041315377 -0.1816030741 0.5956285000 4290620516
-0.2985008955 -0.1775913686 0.5846011639 4290554204
-0.2955017090 -0.1751639992 0.5787273049 4290619997
-0.2938183248 -0.1735267937 0.5754305124 4290948183
-0.2921338379 -0.1718962938 0.5721315145 4290816597
-0.2908876836 -0.1705300659 0.5696910024 4291012946
-0.2900802195 -0.1694254726 0.5681095719 4290749774
-0.2883928120 -0.1678123921 0.5648049116 4290617157
-0.2893427610 -0.1677355468 0.5666652918 4290485571
-0.2876538634 -0.1661305428 0.5633577108 4290484543
-0.2868438065 -0.1650385410 0.5617712140 4290484543
-0.2864731550 -0.1642019153 0.5610453486 4290418750
-0.2861020863 -0.1633666754 0.5603185892 4289892406
-0.2848500609 -0.1620319188 0.5578665733 4290153526
-0.2844779193 -0.1612012237 0.5571377277 4290153526
-0.2841053605 -0.1603718996 0.5564081073 4290480183
-0.2837323844 -0.1595439613 0.5556776524 4289953839
-0.2833589911 -0.1587174088 0.5549463630 4289624110
-0.2829851806 -0.1578922570 0.5542142391 4289755696
-0.2826109231 -0.1570684910 0.5534812808 4290410291
-0.2826772630 -0.1564902514 0.5536112189 4290541877
-0.2823022604 -0.1556683779 0.5528768301 4290871360
-0.2823680639 -0.1550902277 0.5530056953 4290608188
-0.2824336588 -0.1545116752 0.5531341434 4290671158
-0.2824990153 -0.1539327353 0.5532621741 4290539572
-0.2825641930 -0.1533533782 0.5533897877 4290540855
-0.2821875215 -0.1525349170 0.5526520610 4290475062
-0.2822521329 -0.1519556642 0.5527786016 4290540083
-0.2818747163 -0.1511391252 0.5520395041 4290803255
-0.2819388211 -0.1505599916 0.5521650314 4290672952
-0.2820026875 -0.1499804705 0.5522900820 4290541366
-0.2816242278 -0.1491663754 0.5515488982 4290409267
-0.2816875577 -0.1485869735 0.5516729355 4290409267
-0.2813083827 -0.1477748305 0.5509303212 4290737462
-0.2809287608 -0.1469641328 0.5501868725 4291000634
-0.2809912264 -0.1463853866 0.5503092408 4291329599
-0.2810535133 -0.1458062530 0.5504311919 4291592771
-0.2806728482 -0.1449980289 0.5496856570 4291526467
-0.2811773717 -0.1446468383 0.5506737232 4290868537
-0.2807960808 -0.1438396722 0.5499269962 4291128889
-0.2808573544 -0.1432599276 0.5500470400 4290799924
-0.2809184194 -0.1426797956 0.5501666069 4290796851
-0.2809792757 -0.1420992911 0.5502857566 4290533679
-0.2810398936 -0.1415184140 0.5504044890 4290597163
-0.2811003029 -0.1409371644 0.5505228043 4290399784
-0.2811604738 -0.1403555274 0.5506406426 4290662443
-0.2812204063 -0.1397735178 0.5507580638 4290925615
-0.2812801600 -0.1391911507 0.5508750081 4291058227
-0.2813396454 -0.1386083961 0.5509915948 4291189813
-0.2813989222 -0.1380252838 0.5511076450 4291322426
-0.2814579904 -0.1374417990 0.5512233377 4291519805
-0.2815168202 -0.1368579566 0.5513385534 4291519807
-0.2820195556 -0.1364886910 0.5523231030 4291388221
-0.2820779979 -0.1359031796 0.5524376035 4291257405
-0.2821362615 -0.1353173256 0.5525516868 4291257405
-0.2821942568 -0.1347310990 0.5526652932 4291191612
-0.2826965451 -0.1343557537 0.5536490083 4291191612
-0.2827541828 -0.1337678879 0.5537618995 4291651393
-0.2828116119 -0.1331796497 0.5538743138 4291848772
-0.2828688025 -0.1325910687 0.5539863110 4291585087
-0.2833706141 -0.1322096735 0.5549690723 4291256122
-0.2834274173 -0.1316194534 0.5550803542 4291254330
-0.2834840119 -0.1310288608 0.5551912189 4291188537
-0.2839854658 -0.1306426972 0.5561733246 4291254330
-0.2840416729 -0.1300504953 0.5562833548 4291254330
-0.2845429480 -0.1296608299 0.5572651029 4291122744
-0.2845987678 -0.1290669888 0.5573744178 4290925365
-0.2846543789 -0.1284728050 0.5574833155 4290793781
-0.2851552665 -0.1280783862 0.5584642887 4290793781
-0.2856561244 -0.1276817620 0.5594452024 4290925367
-0.2857111990 -0.1270846725 0.5595530272 4290662195
-0.2857660055 -0.1264872253 0.5596603751 4290925368
-0.2858206034 -0.1258894503 0.5597673059 4291517505
-0.2858749330 -0.1252913177 0.5598737597 4291780677
-0.2863751054 -0.1248873845 0.5608533025 4291714884
-0.2868752182 -0.1244812459 0.5618327260 4291648321
-0.2873752415 -0.1240728945 0.5628120303 4291582528
-0.2878752053 -0.1236623377 0.5637911558 4291844417
-0.2883750796 -0.1232495680 0.5647701621 4291581245
-0.2884284258 -0.1226447448 0.5648745894 4291319356
-0.2889280617 -0.1222284958 0.5658531189 4291253563
-0.2889809608 -0.1216220632 0.5659567714 4291385919
-0.2894803882 -0.1212023422 0.5669348240 4291517505
-0.2895328999 -0.1205943078 0.5670376420 4291450944
-0.2900320292 -0.1201711074 0.5680152178 4291648323
-0.2905310988 -0.1197457016 0.5689926744 4291976521
-0.2905830443 -0.1191347986 0.5690943599 4291581763
-0.2910818756 -0.1187059209 0.5700712800 4291451209
-0.2911333740 -0.1180934235 0.5701721907 4291977553
-0.2916319370 -0.1176610664 0.5711485744 4292176733
-0.2921304107 -0.1172265038 0.5721247792 4292374112
-0.2930762172 -0.1169683188 0.5739771128 4292309606
-0.2940220833 -0.1167060286 0.5758295655 4293033329
-0.2949680388 -0.1164396554 0.5776821375 4292251006
-0.2959140241 -0.1161691844 0.5795348287 4293961624
-0.3228211105 -0.1974071264 0.6336094737 4291019454
-0.3224658370 -0.1964866519 0.6329121590 4291476621
-0.3216724396 -0.1953017414 0.6313549280 4291213449
-0.3204406202 -0.1938550472 0.6289372444 4291213170
-0.3170185685 -0.1910934895 0.6222206354 4291081584
-0.3118425608 -0.1872934401 0.6120615602 4291015274
-0.3049113452 -0.1824656129 0.5984575152 4290686309
-0.2984145880 -0.1779270470 0.5857061744 4290554202
-0.2954208255 -0.1754978150 0.5798301697 4290619995
-0.2933021486 -0.1735995710 0.5756717920 4290817110
-0.2920592427 -0.1722270101 0.5732322931 4290817110
-0.2908154428 -0.1708593667 0.5707910657 4291079250
-0.2895707786 -0.1694966257 0.5683481693 4290684492
-0.2892029881 -0.1686506718 0.5676262975 4290551619
-0.2883957922 -0.1675510406 0.5660419464 4290551619
-0.2871488929 -0.1662004292 0.5635946393 4290550590
-0.2867794931 -0.1653612256 0.5628696084 4290550590
-0.2859703600 -0.1642710567 0.5612815619 4290616129
-0.2856000066 -0.1634354889 0.5605546236 4290089785
-0.2852292061 -0.1626012921 0.5598268509 4290481721
-0.2844184041 -0.1615188271 0.5582354665 4290350135
-0.2836069763 -0.1604395509 0.5566428304 4290545978
-0.2832347155 -0.1596112996 0.5559121370 4290217013
-0.2833019197 -0.1590313762 0.5560441017 4289953075
-0.2829289138 -0.1582050025 0.5553119779 4290018868
-0.2825554907 -0.1573800147 0.5545790792 4290542393
-0.2821816504 -0.1565564126 0.5538452864 4290739772
-0.2822476923 -0.1559775621 0.5539749265 4291003203
-0.2818731070 -0.1551558673 0.5532397628 4290740031
