VERSION 0.7
FIELDS x y z rgba
SIZE 4 4 4 4
TYPE F F F U
COUNT 1 1 1 1
WIDTH 920
HEIGHT 1
VIEWPOINT 0.0 0.0 0.0 1.0 0.0 0.0 0.0
POINTS 920
DATA ascii
-0.3030225635 -0.1053736582 0.5699032545 4290606628
-0.3030697107 -0.1047567502 0.5699918866 4291199018
-0.3031165898 -0.1041395590 0.5700801015 4291462190
-0.3040902913 -0.1038386524 0.5719113946 4291068459
-0.3046004176 -0.1033763438 0.5728707910 4291331631
-0.3046467304 -0.1027554646 0.5729578733 4291267371
-0.3051565289 -0.1022897512 0.5739166141 4291662129
-0.3056661785 -0.1018218696 0.5748751760 4291466028
-0.3061757386 -0.1013518125 0.5758334994 4291466028
-0.3066851497 -0.1008795872 0.5767915845 4291468079
-0.3076584637 -0.1005568579 0.5786221623 4291797044
-0.3081676960 -0.1000793353 0.5795798302 4291798586
-0.3086767793 -0.0995996445 0.5805373192 4292259137
-0.3091857433 -0.0991177857 0.5814945102 4292063041
-0.3096945584 -0.0986337587 0.5824514031 4291536697
-0.3106676042 -0.0982944816 0.5842815042 4291537211
-0.3116406202 -0.0979511365 0.5861114860 4292063555
-0.3121491671 -0.0974586904 0.5870679021 4291539817
-0.3140512407 -0.0973963141 0.5906451941 4292329333
-0.3590813577 -0.1928014457 0.6767482758 4289771457
-0.3587099910 -0.1918509156 0.6760483384 4289554020
-0.3583381474 -0.1909016818 0.6753475666 4288896090
-0.3575109839 -0.1897123903 0.6737886071 4289220423
-0.3562281728 -0.1882857233 0.6713709831 4289352009
-0.3513040245 -0.1849474162 0.6620905995 4289285440
-0.3158815503 -0.1656374484 0.5953310728 4289088061
-0.3154980242 -0.1647756994 0.5946082473 4289283635
-0.3101049960 -0.1613097191 0.5844442248 4289152049
-0.3074421287 -0.1592807621 0.5794255733 4289349164
-0.3056888878 -0.1577323377 0.5761213303 4289283371
-0.3048459888 -0.1566590518 0.5745327473 4289283371
-0.3040024340 -0.1555889696 0.5729429126 4289151785
-0.3031582534 -0.1545221061 0.5713518858 4288823074
-0.3027693927 -0.1536899060 0.5706190467 4288823074
-0.3023801148 -0.1528591216 0.5698853731 4289086246
-0.3019903898 -0.1520297378 0.5691509247 4289415211
-0.3016002476 -0.1512017846 0.5684156418 4289481004
-0.3012096882 -0.1503752321 0.5676795244 4289546797
-0.3012751341 -0.1497770548 0.5678029060 4289217832
-0.3008837998 -0.1489524543 0.5670653582 4288954660
-0.3009487092 -0.1483543962 0.5671876669 4288954660
-0.3005566001 -0.1475317478 0.5664486885 4289086246
-0.3001640737 -0.1467105150 0.5657088757 4289020453
-0.3002280891 -0.1461131275 0.5658295155 4288823074
-0.2998347878 -0.1452938765 0.5650883317 4288823074
-0.2998982370 -0.1446966231 0.5652078986 4288823074
-0.2995041907 -0.1438793391 0.5644652247 4288954658
-0.2995670438 -0.1432822496 0.5645837188 4289152037
-0.2996296883 -0.1426847875 0.5647017956 4289349416
-0.2996920943 -0.1420869529 0.5648193955 4289415209
-0.2992966473 -0.1412727237 0.5640740395 4289612588
-0.2989007235 -0.1404599696 0.5633279085 4289744174
-0.2985044122 -0.1396486610 0.5625810027 4289612075
-0.2990235090 -0.1392653435 0.5635592937 4289348903
-0.2981685102 -0.1382427812 0.5619479418 4288888352
-0.2982291281 -0.1376463920 0.5620621443 4288756766
-0.2973730862 -0.1366285980 0.5604488254 4289085731
-0.2974330485 -0.1360333115 0.5605617762 4289348903
-0.2974927425 -0.1354376674 0.5606743097 4289480744
-0.2966352701 -0.1344261318 0.5590582490 4289480744
-0.2971528769 -0.1340384632 0.5600337982 4289283110
-0.2962944508 -0.1330308169 0.5584159493 4289085731
-0.2963529527 -0.1324365139 0.5585261583 4288954145
-0.2959523499 -0.1316377670 0.5577712059 4288822559
-0.2960102558 -0.1310436875 0.5578803420 4288888352
-0.2960679233 -0.1304492503 0.5579890609 4289019938
-0.2961253822 -0.1298544705 0.5580973029 4289084961
-0.2957233787 -0.1290589422 0.5573396683 4289084961
-0.2957802415 -0.1284644008 0.5574468374 4289282593
-0.2958368659 -0.1278695017 0.5575535297 4289479972
-0.2958932519 -0.1272742748 0.5576598048 4289612580
-0.2959493697 -0.1266787052 0.5577656031 4289678373
-0.2955456376 -0.1258870214 0.5570046902 4289547806
-0.2951414883 -0.1250968426 0.5562430024 4289745185
-0.2951967418 -0.1245021150 0.5563471317 4289812512
-0.2952517271 -0.1239070594 0.5564507842 4290009891
-0.2953064740 -0.1233116612 0.5565539598 4289879584
-0.2949009240 -0.1225247979 0.5557896495 4290011170
-0.2954152524 -0.1221198887 0.5567589998 4289881375
-0.2954692841 -0.1215235069 0.5568608046 4290341926
-0.2955230772 -0.1209268048 0.5569621325 4290539556
-0.2955766022 -0.1203297675 0.5570630431 4290473763
-0.2960903645 -0.1199189126 0.5580313206 4290474013
-0.2961435020 -0.1193203032 0.5581314564 4290539806
-0.2961963713 -0.1187213734 0.5582311153 4290343199
-0.2962490022 -0.1181221232 0.5583302975 4290343199
-0.2967621982 -0.1177053303 0.5592974424 4290541088
-0.2968144119 -0.1171045080 0.5593958497 4291001639
-0.2968663573 -0.1165033728 0.5594938397 4291528749
-0.2973791361 -0.1160818934 0.5604602098 4291331370
-0.2978917956 -0.1156582311 0.5614264607 4291331370
-0.2979431748 -0.1150542870 0.5615232587 4291462956
-0.2979943156 -0.1144500300 0.5616195798 4290936361
-0.2985065579 -0.1140216962 0.5625849962 4290673189
-0.2985572517 -0.1134158820 0.5626805425 4291001889
-0.2986076772 -0.1128097549 0.5627756119 4291265061
-0.2986578941 -0.1122033298 0.5628702044 4291329322
-0.2991695106 -0.1117690802 0.5638344288 4290934564
-0.2996810079 -0.1113326475 0.5647984743 4290737957
-0.2997305989 -0.1107234359 0.5648919344 4291724852
-0.3002418280 -0.1102835834 0.5658554435 4291659569
-0.3002909720 -0.1096728295 0.5659480691 4290672674
-0.3003398478 -0.1090617701 0.5660402179 4290408220
-0.3003884852 -0.1084504128 0.5661318302 4290408220
-0.3008990586 -0.1080046743 0.5670941472 4291064358
-0.3009472489 -0.1073917821 0.5671849251 4291327530
-0.3014575541 -0.1069426239 0.5681466460 4291195947
-0.3015052974 -0.1063282117 0.5682366490 4290801189
-0.3020152748 -0.1058756411 0.5691977739 4290473761
-0.3020625710 -0.1052597016 0.5692869425 4290802726
-0.3025722504 -0.1048037261 0.5702474713 4291001640
-0.3030818105 -0.1043455750 0.5712078810 4291396398
-0.3035912514 -0.1038852483 0.5721679926 4291331372
-0.3041005731 -0.1034227461 0.5731278658 4291397165
-0.3041468561 -0.1028015986 0.5732150674 4290871843
-0.3046558499 -0.1023356915 0.5741744041 4291595566
-0.3051647246 -0.1018676087 0.5751334429 4291334444
-0.3056734800 -0.1013973579 0.5760922432 4291268651
-0.3061820865 -0.1009249315 0.5770508647 4291204909
-0.3071538508 -0.1006020680 0.5788823366 4291797046
-0.3076622784 -0.1001243517 0.5798405409 4291799356
-0.3081705868 -0.0996444598 0.5807985067 4292194114
-0.3086787462 -0.0991623923 0.5817561746 4291997762
-0.3096503019 -0.0988261029 0.5835872889 4291471418
-0.3101582527 -0.0983387381 0.5845445395 4291537213
-0.3111297190 -0.0979952514 0.5863754749 4291800385
-0.3121012151 -0.0976476967 0.5882064104 4291475055
-0.3140002787 -0.0975843519 0.5917855501 4292593536
-0.3571232855 -0.1921523213 0.6744697690 4289705664
-0.3567522764 -0.1912041008 0.6737691164 4289751399
-0.3563808203 -0.1902571768 0.6730675697 4289093469
-0.3551006913 -0.1888286322 0.6706498861 4289286729
-0.3538196683 -0.1874049902 0.6682305336 4289286729
-0.3520834446 -0.1857465655 0.6649514437 4289350720
-0.3412580490 -0.1793193817 0.6445063949 4289219134
-0.3099745512 -0.1622305363 0.5854238272 4289349428
-0.3159547150 -0.1646973491 0.5967180133 4289217842
-0.3073864579 -0.1595859677 0.5805358887 4289349164
-0.3056363165 -0.1580360085 0.5772305131 4289217578
-0.3043400347 -0.1567271203 0.5747823715 4289283371
-0.3034979403 -0.1556566060 0.5731919408 4289020199
-0.3026552200 -0.1545892954 0.5716003776 4288888613
-0.3018118441 -0.1535252035 0.5700075626 4288888613
-0.3014231622 -0.1526949853 0.5692734718 4289020199
-0.3014894724 -0.1520959437 0.5693987608 4289283371
-0.3011000454 -0.1512676477 0.5686632395 4289481004
-0.3007101715 -0.1504407674 0.5679268837 4289415211
-0.3007755876 -0.1498423517 0.5680504441 4289283112
-0.3003849387 -0.1490174234 0.5673127174 4288822561
-0.3004497886 -0.1484191418 0.5674351454 4288954147
-0.3000583947 -0.1475961506 0.5666959882 4289283112
-0.2996665835 -0.1467745900 0.5659559965 4289085733
-0.2997305393 -0.1461769640 0.5660767555 4288756768
-0.2993379533 -0.1453573853 0.5653353333 4288822561
-0.2994013429 -0.1447599083 0.5654550195 4289019940
-0.2990080118 -0.1439422816 0.5647121668 4289019938
-0.2990708351 -0.1433449686 0.5648308396 4289217317
-0.2991334200 -0.1427472681 0.5649490356 4289414696
-0.2987389863 -0.1419321746 0.5642040968 4289546282
-0.2988010049 -0.1413346380 0.5643212199 4289612075
-0.2984058261 -0.1405215412 0.5635749102 4289612075
-0.2984672785 -0.1399241835 0.5636909604 4289480489
-0.2980713546 -0.1391130835 0.5629431605 4289217317
-0.2981322408 -0.1385159045 0.5630581975 4289151524
-0.2977355421 -0.1377068311 0.5623089671 4288888352
-0.2973384261 -0.1368992329 0.5615589619 4289085731
-0.2969408929 -0.1360930949 0.5608081818 4289348903
-0.2970005274 -0.1354972124 0.5609208345 4289480489
-0.2966022491 -0.1346931159 0.5601686239 4289546282
-0.2962035239 -0.1338905096 0.5594155788 4289283365
-0.2962622941 -0.1332954019 0.5595265627 4288888607
-0.2958628237 -0.1324948370 0.5587721467 4289019170
-0.2959210277 -0.1318999380 0.5588820577 4288953377
-0.2955208123 -0.1311014295 0.5581262112 4289019170
-0.2955784500 -0.1305067539 0.5582350492 4289150756
-0.2956358492 -0.1299117357 0.5583434105 4289282083
-0.2952345610 -0.1291158795 0.5575855374 4289084704
-0.2952913642 -0.1285210997 0.5576928854 4289150496
-0.2953479588 -0.1279259622 0.5577996969 4289413668
-0.2954042852 -0.1273304969 0.5579061508 4289480224
-0.2954604030 -0.1267346889 0.5580120683 4289743396
-0.2955162525 -0.1261385381 0.5581175685 4289416222
-0.2951129079 -0.1253471076 0.5573558211 4289482015
-0.2951681912 -0.1247512102 0.5574601889 4289746719
-0.2952232361 -0.1241549775 0.5575641394 4290141477
-0.2952780128 -0.1235584170 0.5576676726 4290010659
-0.2948732674 -0.1227702871 0.5569032431 4290076452
-0.2949275076 -0.1221739948 0.5570056438 4290012963
-0.2954409420 -0.1217667386 0.5579753518 4290407721
-0.2954947650 -0.1211688593 0.5580770373 4290407970
-0.2955483496 -0.1205706522 0.5581781864 4290276384
-0.2956016660 -0.1199721172 0.5582789183 4290473500
-0.2961145639 -0.1195589155 0.5592475533 4290605086
-0.2961674929 -0.1189588085 0.5593475103 4290408992
-0.2962201536 -0.1183583736 0.5594469905 4290408992
-0.2962725759 -0.1177576259 0.5595459938 4290475296
-0.2967848778 -0.1173384786 0.5605135560 4290870054
-0.2968368828 -0.1167361587 0.5606117249 4291397163
-0.2968886495 -0.1161335260 0.5607094765 4291265577
-0.2974005342 -0.1157096922 0.5616762638 4291199784
-0.2979122996 -0.1152836829 0.5626428127 4291397163
-0.2979634702 -0.1146782339 0.5627394319 4290936361
-0.2980143726 -0.1140724793 0.5628355742 4290673189
-0.2980650365 -0.1134664118 0.5629312396 4291199268
-0.2985762060 -0.1130344719 0.5638966560 4291265061
-0.2986264527 -0.1124268547 0.5639915466 4291197736
-0.2986764014 -0.1118189320 0.5640859008 4290802978
-0.2991871238 -0.1113823205 0.5650504827 4290605347
-0.2996977568 -0.1109435335 0.5660148263 4291394863
-0.2997471094 -0.1103328168 0.5661080480 4291132713
-0.3002574444 -0.1098906100 0.5670718551 4290343197
-0.3003063798 -0.1092783511 0.5671643019 4290605086
-0.3003550470 -0.1086658016 0.5672562122 4290539293
-0.3004034460 -0.1080529541 0.5673476458 4291128871
-0.3009131253 -0.1076048464 0.5683102012 4291326250
-0.3009610772 -0.1069904640 0.5684008002 4291392047
-0.3010087907 -0.1063757911 0.5684909225 4291260461
-0.3015179932 -0.1059230343 0.5694525838 4290999082
-0.3015652299 -0.1053068340 0.5695418119 4291262254
-0.3020741343 -0.1048506647 0.5705028772 4291198765
-0.3025828898 -0.1043923199 0.5714637637 4291330351
-0.3030915260 -0.1039317995 0.5724244118 4291396397
-0.3036000729 -0.1034691110 0.5733848214 4291725362
-0.3041084707 -0.1030042395 0.5743449926 4290871332
-0.3041545153 -0.1023815945 0.5744319558 4291529262
-0.3046625853 -0.1019133180 0.5753915310 4291466031
-0.3051705360 -0.1014428660 0.5763508677 4291531824
-0.3056783676 -0.1009702459 0.5773099065 4291139888
-0.3066485822 -0.1006472483 0.5791422725 4291732025
-0.3071562052 -0.1001693308 0.5801010132 4291668283
-0.3081263602 -0.0998391435 0.5819332600 4291865662
-0.3086337745 -0.0993559211 0.5828915834 4291603519
-0.3091410697 -0.0988705307 0.5838496685 4291406140
-0.3101110756 -0.0985300317 0.5856816173 4291537984
-0.3110810518 -0.0981854498 0.5875135660 4291801156
-0.3120510280 -0.0978367999 0.5893455148 4291476092
-0.3134840429 -0.0976282731 0.5920519233 4292791952
-0.3551689684 -0.1915024966 0.6721888185 4289705664
-0.3547983468 -0.1905565858 0.6714873910 4289883242
-0.3544272482 -0.1896119863 0.6707850695 4289291105
-0.3531490266 -0.1881855577 0.6683658957 4289681486
-0.3477889299 -0.1845979393 0.6582214236 4289352521
-0.3496827781 -0.1848678440 0.6618057489 4289416513
-0.3393287063 -0.1786803901 0.6422097087 4289219134
-0.3366833925 -0.1765794605 0.6372032762 4289414967
-0.3095284700 -0.1616867185 0.5858101249 4289283381
-0.3068746626 -0.1596551538 0.5807875395 4289283884
-0.3051275015 -0.1581045538 0.5774808526 4289086505
-0.3038334250 -0.1567951292 0.5750317574 4289217319
-0.3029927909 -0.1557241827 0.5734407902 4289085733
-0.3021515310 -0.1546564400 0.5718486309 4289020199
-0.3013096154 -0.1535919160 0.5702552199 4289020199
-0.3009216487 -0.1527613699 0.5695209503 4289020199
-0.3009878993 -0.1521620899 0.5696463585 4289217578
-0.3005991876 -0.1513334662 0.5689106584 4289480491
-0.3002099991 -0.1505062580 0.5681741238 4289480491
-0.3002753854 -0.1499076039 0.5682978034 4289348905
-0.2998854518 -0.1490823478 0.5675598383 4288954147
-0.2999502420 -0.1484838277 0.5676825047 4289151526
-0.2995595634 -0.1476605088 0.5669430494 4289612077
-0.2991684377 -0.1468386203 0.5662028193 4289283112
-0.2992323339 -0.1462407559 0.5663238168 4288822561
-0.2988404632 -0.1454208493 0.5655821562 4288822561
-0.2989038229 -0.1448231339 0.5657020211 4289151526
-0.2985111773 -0.1440051794 0.5649589300 4289085731
-0.2985739410 -0.1434076279 0.5650777221 4289217317
-0.2986364961 -0.1428096890 0.5651960969 4289348903
-0.2982427776 -0.1419942677 0.5644509196 4289414696
-0.2983047664 -0.1413964927 0.5645682216 4289414696
-0.2979102731 -0.1405830681 0.5638216734 4289414696
-0.2979716957 -0.1399854720 0.5639379025 4289283110
-0.2975764573 -0.1391740590 0.5631898642 4289151524
-0.2971808016 -0.1383640915 0.5624410510 4289283110
-0.2972413003 -0.1377672255 0.5625556111 4289085731
-0.2968448997 -0.1369592994 0.5618053675 4289282340
-0.2969048619 -0.1363626271 0.5619187951 4289413926
-0.2965076864 -0.1355567127 0.5611671209 4289479719
-0.2965670824 -0.1349602491 0.5612795353 4289611305
-0.2961691618 -0.1341563761 0.5605264306 4289348388
-0.2957708240 -0.1333539933 0.5597725511 4289019423
-0.2958292961 -0.1327582896 0.5598832369 4288821791
-0.2954302430 -0.1319579780 0.5591279864 4288953377
-0.2954881489 -0.1313624829 0.5592375398 4289019170
-0.2950883210 -0.1305642277 0.5584808588 4289216549
-0.2946880758 -0.1297674626 0.5577233434 4289347876
-0.2947450876 -0.1291727871 0.5578312874 4289150497
-0.2948018610 -0.1285777539 0.5579386950 4289150496
-0.2948583961 -0.1279823780 0.5580457449 4289413668
-0.2949146926 -0.1273866743 0.5581522584 4289348384
-0.2949707508 -0.1267906129 0.5582583547 4289743142
-0.2950265706 -0.1261942238 0.5583639741 4289481502
-0.2946239412 -0.1254024655 0.5576019883 4289415709
-0.2946791649 -0.1248063296 0.5577065349 4289746208
-0.2947341800 -0.1242098585 0.5578106046 4290140966
-0.2947889268 -0.1236130521 0.5579142570 4290141475
-0.2948434353 -0.1230159104 0.5580174327 4290207268
-0.2948977053 -0.1224184409 0.5581201315 4289947170
-0.2949517369 -0.1218206435 0.5582223535 4290276135
-0.2950055003 -0.1212225184 0.5583241582 4290276384
-0.2950590551 -0.1206240654 0.5584254861 4290079005
-0.2955712974 -0.1202119514 0.5593949556 4290276636
-0.2956244349 -0.1196119189 0.5594955087 4290539808
-0.2956773043 -0.1190115586 0.5595955253 4290408992
-0.2957299352 -0.1184108853 0.5596951842 4290408992
-0.2962416112 -0.1179928184 0.5606635213 4290409503
-0.2962938249 -0.1173905730 0.5607623458 4290672675
-0.2963457704 -0.1167879999 0.5608606935 4291331370
-0.2968570292 -0.1163652539 0.5618283153 4291265577
-0.2969085872 -0.1157611161 0.5619258285 4291134506
-0.2974195480 -0.1153349280 0.5628929138 4291266092
-0.2974706888 -0.1147292331 0.5629897118 4290805290
-0.2975215614 -0.1141232252 0.5630859733 4290542118
-0.2975721657 -0.1135169044 0.5631817579 4291265061
-0.2980825305 -0.1130847931 0.5641477108 4291330854
-0.2981327474 -0.1124769226 0.5642426610 4291131943
-0.2986428440 -0.1120413765 0.5652080774 4290737185
-0.2986925840 -0.1114319563 0.5653022528 4290736933
-0.2992024124 -0.1109929904 0.5662671328 4291329070
-0.2992517352 -0.1103820205 0.5663604736 4291132713
-0.2997612655 -0.1099396273 0.5673248172 4290672162
-0.2998101413 -0.1093271151 0.5674173832 4290670370
-0.2998587787 -0.1087143049 0.5675094128 4290538784
-0.3003678322 -0.1082672477 0.5684728026 4291061288
-0.3004160225 -0.1076529026 0.5685640574 4291324460
-0.3004639745 -0.1070382670 0.5686547160 4291653426
-0.3005116284 -0.1064233333 0.5687449574 4291653426
-0.3010200262 -0.1059703827 0.5697071552 4291327281
-0.3010672331 -0.1053539217 0.5697965026 4291590453
-0.3015753329 -0.1048975661 0.5707581043 4291658035
-0.3020833135 -0.1044390351 0.5717194676 4291526449
-0.3025911450 -0.1039783210 0.5726806521 4291461678
-0.3030988872 -0.1035154387 0.5736415386 4291922229
-0.3036064804 -0.1030503735 0.5746022463 4291134506
-0.3041139543 -0.1025831252 0.5755626559 4291134506
-0.3041597605 -0.1019589901 0.5756493807 4291071021
-0.3046669066 -0.1014883444 0.5766091943 4291268400
-0.3051739335 -0.1010155231 0.5775688291 4291271219
-0.3061425984 -0.1006923988 0.5794020891 4291797563
-0.3066494167 -0.1002142727 0.5803613067 4291470650
-0.3076180220 -0.0998839512 0.5821944475 4291470650
-0.3081246614 -0.0994005278 0.5831532478 4291274299
-0.3090931773 -0.0990630090 0.5849862695 4291340092
-0.3095995784 -0.0985742882 0.5859447122 4291670342
-0.3110301793 -0.0983757451 0.5886522532 4291933514
-0.3119986653 -0.0980259925 0.5904851556 4291411077
-0.3134294152 -0.0978164375 0.5931929946 4293055902
-0.3532184362 -0.1908519715 0.6699054241 4289902788
-0.3528481722 -0.1899083853 0.6692032218 4290014828
-0.3524774611 -0.1889661103 0.6685001254 4289488484
-0.3512011170 -0.1875417829 0.6660794616 4289944659
-0.3426809609 -0.1822699010 0.6499203444 4289418315
-0.3454762697 -0.1830287129 0.6552218199 4289417028
-0.3148303330 -0.1654660702 0.5970995426 4289414967
-0.3090115190 -0.1617566943 0.5860636830 4289349174
-0.3063621819 -0.1597242951 0.5810390115 4289283884
-0.3046180010 -0.1581730396 0.5777310729 4289218091
-0.3033261597 -0.1568630785 0.5752809644 4289151272
-0.3024869859 -0.1557916999 0.5736894608 4289085479
-0.3016471863 -0.1547235250 0.5720966458 4289019686
-0.3012604415 -0.1538903266 0.5713632107 4289085479
-0.3008732796 -0.1530585438 0.5706288815 4289151272
-0.3000317812 -0.1519982219 0.5690329075 4289217065
-0.3000976443 -0.1513992250 0.5691578388 4289348651
-0.2997092009 -0.1505716890 0.5684211254 4289414444
-0.2997744977 -0.1499728113 0.5685449839 4289479721
-0.2993852794 -0.1491472125 0.5678067803 4289348135
-0.2994500399 -0.1485484540 0.5679296255 4289480237
-0.2990600467 -0.1477248073 0.5671899915 4289809202
-0.2986696362 -0.1469025910 0.5664495230 4289611823
-0.2987335026 -0.1463045031 0.5665706396 4289085479
-0.2983423173 -0.1454842538 0.5658287406 4289150756
-0.2984056175 -0.1448863149 0.5659487844 4289348135
-0.2980136871 -0.1440680325 0.5652054548 4289151526
-0.2980764210 -0.1434702426 0.5653244257 4289217319
-0.2981389165 -0.1428720653 0.5654429793 4289413928
-0.2977459133 -0.1420563161 0.5646976233 4289413928
-0.2978078425 -0.1414583176 0.5648150444 4289413928
-0.2974140644 -0.1406445503 0.5640682578 4289348135
-0.2970198691 -0.1398322582 0.5633206367 4289217317
-0.2975365520 -0.1394485235 0.5643005371 4289217317
-0.2971417010 -0.1386373192 0.5635516644 4289151524
-0.2967464328 -0.1378275752 0.5628020167 4289019938
-0.2968066633 -0.1372301131 0.5629162192 4289216547
-0.2964106500 -0.1364224106 0.5621651411 4289216547
-0.2964702845 -0.1358251274 0.5622783303 4289216547
-0.2956173122 -0.1348114163 0.5606606007 4289413926
-0.2956763208 -0.1342152655 0.5607724786 4289348388
-0.2952786982 -0.1334125549 0.5600183606 4289085216
-0.2953371406 -0.1328166127 0.5601292253 4288953377
-0.2949387729 -0.1320159584 0.5593736768 4288953377
-0.2949966490 -0.1314202398 0.5594834089 4289019168
-0.2950542867 -0.1308241636 0.5595927238 4289282340
-0.2941980064 -0.1298245639 0.5579687357 4289413926
-0.2942549884 -0.1292296350 0.5580767989 4289282340
-0.2943117023 -0.1286343634 0.5581843853 4289282083
-0.2943682075 -0.1280387640 0.5582915545 4289413669
-0.2944244444 -0.1274428070 0.5583982468 4289348384
-0.2944804728 -0.1268465072 0.5585044622 4289677349
-0.2945362329 -0.1262498796 0.5586102009 4289547295
-0.2945917547 -0.1256529093 0.5587155223 4289481502
-0.2946470380 -0.1250555962 0.5588203669 4289680415
-0.2947020829 -0.1244579554 0.5589247942 4289943587
-0.2947568893 -0.1238599718 0.5590286851 4289944098
-0.2948114574 -0.1232616603 0.5591321588 4290075684
-0.2948657572 -0.1226630211 0.5592351556 4290011938
-0.2949198186 -0.1220640466 0.5593377352 4290472489
-0.2949736416 -0.1214647442 0.5594397783 4290407457
-0.2950272262 -0.1208651140 0.5595414042 4290144285
-0.2950805426 -0.1202651560 0.5596425533 4290342429
-0.2955919206 -0.1198506951 0.5606123805 4290605601
-0.2956448197 -0.1192491576 0.5607127547 4290474531
-0.2956975102 -0.1186472997 0.5608126521 4290474531
-0.2957499325 -0.1180451214 0.5609120727 4290343456
-0.2958020866 -0.1174426228 0.5610110164 4290540835
-0.2958540320 -0.1168398038 0.5611094832 4291264809
-0.2963644564 -0.1164168864 0.5620775819 4291264809
-0.2968748212 -0.1159917787 0.5630455017 4291068200
-0.2969261408 -0.1153861433 0.5631428957 4291199786
-0.2969772518 -0.1147801951 0.5632397532 4290739243
-0.2970280647 -0.1141739339 0.5633361936 4290541864
-0.2970786393 -0.1135673597 0.5634320974 4291002405
-0.2975882292 -0.1131350771 0.5643985271 4291265577
-0.2976383865 -0.1125269458 0.5644936562 4291131945
-0.2981476784 -0.1120912284 0.5654595494 4290671394
-0.2981973886 -0.1114815474 0.5655538440 4290868519
-0.2987064123 -0.1110424027 0.5665192604 4291658035
-0.2987557054 -0.1104311794 0.5666127205 4291461680
-0.2992644310 -0.1099886075 0.5675776005 4291198508
-0.2993132770 -0.1093758345 0.5676702261 4290538016
-0.2993618548 -0.1087627709 0.5677623749 4290340637
-0.2998701334 -0.1083155349 0.5687263608 4290731043
-0.2999182940 -0.1077009290 0.5688176751 4291191594
-0.2999661863 -0.1070860252 0.5689085126 4291717686
-0.3000138104 -0.1064708382 0.5689988136 4291651893
-0.3005214036 -0.1060177013 0.5699615479 4291260208
-0.3005685806 -0.1054009795 0.5700510144 4291391794
-0.3015362322 -0.1051049009 0.5718862414 4291459635
-0.3020434678 -0.1046452299 0.5728482604 4292051772
-0.3025505841 -0.1041833833 0.5738100410 4291921207
-0.3025970161 -0.1035617292 0.5738980770 4292052793
-0.3031038046 -0.1030964702 0.5748592615 4291396912
-0.3036105037 -0.1026290357 0.5758202672 4290936361
-0.3041170537 -0.1021594182 0.5767809749 4290610218
-0.3046234846 -0.1016876251 0.5777414441 4290939183
-0.3051297665 -0.1012136564 0.5787016749 4291599418
-0.3056359291 -0.1007375047 0.5796616673 4291862590
-0.3061419725 -0.1002591848 0.5806213617 4291404347
-0.3071089983 -0.0999287292 0.5824553967 4291470140
-0.3080760241 -0.0995941982 0.5842894316 4291340094
-0.3085817993 -0.0991074443 0.5852486491 4291471680
-0.3095487356 -0.0987657085 0.5870825648 4291736394
-0.3105156720 -0.0984198973 0.5889164209 4292131152
-0.3119440377 -0.0982152894 0.5916254520 4291280782
-0.3133725524 -0.0980046988 0.5943347216 4293254572
-0.3512716591 -0.1902007461 0.6676195860 4289969094
-0.3509018123 -0.1892594844 0.6669166088 4290081134
-0.3505314589 -0.1883195341 0.6662127376 4289423204
-0.3492570221 -0.1868973225 0.6637905836 4289748050
-0.3470778465 -0.1849982589 0.6596488357 4289221706
-0.3430892527 -0.1821477860 0.6520681977 4289482821
-0.3318644166 -0.1754876822 0.6307345629 4289285442
-0.3133984506 -0.1650611907 0.5956385136 4289284152
-0.3089462221 -0.1620638967 0.5871767402 4289284152
-0.3058490753 -0.1597933620 0.5812903047 4289152814
-0.3041078448 -0.1582414806 0.5779809952 4289152814
-0.3028182387 -0.1569309831 0.5755299926 4289151272
-0.3019805253 -0.1558591574 0.5739378929 4289085479
-0.3015950322 -0.1550233215 0.5732051730 4288953895
-0.3007561564 -0.1539570391 0.5716108680 4288953895
-0.3003697097 -0.1531249136 0.5708763599 4289217067
-0.2999828160 -0.1522942185 0.5701410174 4289217067
-0.2995954752 -0.1514649391 0.5694049001 4289348137
-0.2992077172 -0.1506370604 0.5686679482 4289413930
-0.2992729843 -0.1500379592 0.5687919855 4289348137
-0.2988844812 -0.1492120326 0.5680535436 4289413930
-0.2984955311 -0.1483875364 0.5673143268 4289480237
-0.2985599041 -0.1477890611 0.5674366951 4289677616
-0.2981702089 -0.1469665170 0.5666959882 4289677616
-0.2982339859 -0.1463681906 0.5668172836 4289282858
-0.2978435457 -0.1455476135 0.5660752058 4289216551
-0.2979067862 -0.1449494362 0.5661953688 4289282344
-0.2979697883 -0.1443508714 0.5663151145 4289019686
-0.2975782454 -0.1435327977 0.5655709505 4289217065
-0.2976406813 -0.1429343969 0.5656896234 4289348137
-0.2972483933 -0.1421183199 0.5649440289 4289348137
-0.2973102629 -0.1415200680 0.5650616288 4289413930
-0.2969172001 -0.1407059878 0.5643146038 4289282344
-0.2965237200 -0.1398933530 0.5635668039 4289085733
-0.2970395982 -0.1395094842 0.5645472407 4289151526
-0.2966454625 -0.1386979520 0.5637981296 4289216547
-0.2967059612 -0.1380996853 0.5639131665 4289282340
-0.2963110805 -0.1372901797 0.5631626248 4289413926
-0.2963710427 -0.1366921067 0.5632765293 4289348133
-0.2959753871 -0.1358846277 0.5625246167 4289479719
-0.2955793142 -0.1350786239 0.5617718697 4289742891
-0.2951828539 -0.1342741102 0.5610183477 4289611560
-0.2947859466 -0.1334710717 0.5602639914 4289479974
-0.2948443294 -0.1328748912 0.5603749752 4288954147
-0.2944466770 -0.1320739090 0.5596191883 4288822561
-0.2945044935 -0.1314779371 0.5597290993 4288888352
-0.2945621014 -0.1308816224 0.5598385334 4289151524
-0.2941633761 -0.1300832927 0.5590807199 4289545512
-0.2937642336 -0.1292864382 0.5583221316 4289479719
-0.2938209176 -0.1286909431 0.5584298372 4289347876
-0.2938773632 -0.1280950904 0.5585371256 4289347876
-0.2939335704 -0.1274988949 0.5586439967 4289348384
-0.2939895391 -0.1269023567 0.5587503314 4289611556
-0.2940452695 -0.1263054758 0.5588562489 4289547297
-0.2941007316 -0.1257082671 0.5589616895 4289613090
-0.2941559851 -0.1251107156 0.5590667129 4289680160
-0.2942109704 -0.1245128289 0.5591711998 4289745953
-0.2942657471 -0.1239146069 0.5592752695 4289746465
-0.2943202555 -0.1233160496 0.5593788624 4290009637
-0.2943745255 -0.1227171645 0.5594820380 4289945375
-0.2944285274 -0.1221179515 0.5595846772 4290471719
-0.2944823205 -0.1215184033 0.5596868992 4290275359
-0.2945358455 -0.1209185272 0.5597886443 4290012187
-0.2945891321 -0.1203183234 0.5598899126 4290144539
-0.2950997055 -0.1199036986 0.5608602762 4290407711
-0.2951525748 -0.1193019152 0.5609607697 4290407970
-0.2952052057 -0.1186998039 0.5610608459 4290473763
-0.2952575982 -0.1180973798 0.5611603856 4290539554
-0.2953097224 -0.1174946353 0.5612594485 4290605347
-0.2953616083 -0.1168915704 0.5613580942 4291132966
-0.2963292599 -0.1166487709 0.5631971359 4291132966
-0.2963807881 -0.1160431951 0.5632951260 4291001639
-0.2964321077 -0.1154373139 0.5633926392 4291199018
-0.2964831293 -0.1148311123 0.5634896159 4290804779
-0.2965339422 -0.1142246053 0.5635861754 4290607400
-0.2965844870 -0.1136177778 0.5636821985 4290870819
-0.2970932424 -0.1131853163 0.5646491647 4291331370
-0.2971433401 -0.1125769392 0.5647444129 4291131945
-0.2976518571 -0.1121410429 0.5657108426 4290605601
-0.2977015376 -0.1115311086 0.5658052564 4290868519
-0.2982097268 -0.1110917851 0.5667711496 4291658035
-0.2982589900 -0.1104803011 0.5668647885 4291330351
-0.2987669110 -0.1100375503 0.5678301454 4290935593
-0.2988157272 -0.1094245240 0.5679228902 4290537504
-0.2988642752 -0.1088111997 0.5680152178 4290340125
-0.2993717492 -0.1083637774 0.5689796805 4290729764
-0.2994198501 -0.1077489108 0.5690711141 4291190315
-0.2994677126 -0.1071337536 0.5691620708 4291651382
-0.2995153069 -0.1065183058 0.5692524910 4291322417
-0.3000220954 -0.1060649827 0.5702157021 4290536231
-0.3000692427 -0.1054480001 0.5703053474 4290470438
-0.3010353446 -0.1051518098 0.5721414089 4290669351
-0.3015417755 -0.1046919450 0.5731039643 4292248383
-0.3020480871 -0.1042299047 0.5740662813 4292249661
-0.3025542796 -0.1037656888 0.5750283599 4291854903
-0.3026004732 -0.1031425372 0.5751161575 4291594293
-0.3031063676 -0.1026749015 0.5760775805 4291331121
-0.3036121130 -0.1022050902 0.5770388246 4291267379
-0.3041177392 -0.1017331034 0.5779998302 4291662137
-0.3046232462 -0.1012589335 0.5789605379 4291862079
-0.3051286042 -0.1007825881 0.5799210072 4291862079
-0.3056338429 -0.1003040597 0.5808812976 4291403579
-0.3065992892 -0.0999734700 0.5827162266 4291666751
-0.3075647652 -0.0996388048 0.5845511556 4291602755
-0.3085302114 -0.0993000567 0.5863860846 4291668548
-0.3090350926 -0.0988099650 0.5873456597 4291867471
-0.3104611039 -0.0986103192 0.5900558829 4292262229
-0.3118872046 -0.0984046832 0.5927662849 4291346835
-0.3137741983 -0.0983374640 0.5963526368 4293452211
-0.3493286967 -0.1895488203 0.6653312445 4290363076
-0.3489592075 -0.1886098832 0.6646275520 4290278767
-0.3485892713 -0.1876722574 0.6639229059 4289620837
-0.3473167121 -0.1862521768 0.6614992023 4289814874
-0.3455921113 -0.1845960170 0.6582145691 4289222737
-0.3447689712 -0.1834267527 0.6566467881 4289417802
-0.3304039836 -0.1750849932 0.6292872429 4289220423
-0.3128718436 -0.1651324183 0.5958955288 4289481277
-0.3084271848 -0.1621338725 0.5874302387 4289415484
-0.3053352833 -0.1598623842 0.5815414190 4289546032
-0.3035970330 -0.1583098620 0.5782307982 4289348653
-0.3023096621 -0.1569988281 0.5757787824 4288953893
-0.3014734089 -0.1559265703 0.5741860867 4289217065
-0.3006365299 -0.1548575312 0.5725921988 4289019940
-0.3002512157 -0.1540236771 0.5718582869 4288954147
-0.2998654544 -0.1531912386 0.5711236000 4289151526
-0.2994792759 -0.1523602009 0.5703880787 4289283112
-0.2990926504 -0.1515305936 0.5696517229 4289217065
-0.2987056077 -0.1507023871 0.5689145327 4289282858
-0.2987708151 -0.1501030475 0.5690387487 4289479723
-0.2983829975 -0.1492767930 0.5683001280 4289282344
-0.2979947627 -0.1484519690 0.5675606728 4289479721
-0.2980590761 -0.1478532702 0.5676831603 4289677100
-0.2976700962 -0.1470303982 0.5669423342 4289545514
-0.2977338433 -0.1464318335 0.5670637488 4289348135
-0.2977973819 -0.1458328962 0.5671846867 4289282344
-0.2974072993 -0.1450125128 0.5664417744 4289150758
-0.2974702418 -0.1444137245 0.5665616989 4289216549
-0.2970794141 -0.1435953081 0.5658172965 4289216549
-0.2971418202 -0.1429966837 0.5659361482 4289348135
-0.2972039580 -0.1423976570 0.5660545230 4289413928
-0.2968120575 -0.1415817887 0.5653080344 4289348135
-0.2968736291 -0.1409829408 0.5654253960 4289216549
-0.2964809537 -0.1401690692 0.5646774769 4289216547
-0.2960878611 -0.1393566579 0.5639287829 4289282340
-0.2961485684 -0.1387585253 0.5640444160 4289216547
-0.2962090373 -0.1381600350 0.5641595721 4289019168
-0.2958148420 -0.1373502016 0.5634087920 4289217572
-0.2958747447 -0.1367518902 0.5635228753 4289678123
-0.2954798341 -0.1359440833 0.5627707243 4289809709
-0.2950844765 -0.1351377517 0.5620177388 4289743916
-0.2946887016 -0.1343328953 0.5612639785 4289546535
-0.2947473824 -0.1337359101 0.5613757372 4289414949
-0.2943508625 -0.1329331100 0.5606204867 4289151272
-0.2944089770 -0.1323363334 0.5607311726 4288953893
-0.2940117121 -0.1315356046 0.5599745512 4288953630
-0.2940692604 -0.1309390515 0.5600841641 4289151009
-0.2936712503 -0.1301403791 0.5593261123 4289479459
-0.2937282026 -0.1295440495 0.5594345927 4289479459
-0.2937849462 -0.1289473772 0.5595426559 4289413668
-0.2938414514 -0.1283503622 0.5596502423 4289216289
-0.2938976884 -0.1277530044 0.5597573519 4289347875
-0.2939536870 -0.1271553040 0.5598640442 4289676840
-0.2940094769 -0.1265572608 0.5599702597 4289809959
-0.2940649986 -0.1259588748 0.5600759983 4289744166
-0.2941202819 -0.1253601462 0.5601813197 4289744928
-0.2941752970 -0.1247610897 0.5602861643 4289942307
-0.2942301035 -0.1241616979 0.5603905320 4289812001
-0.2942846715 -0.1235619709 0.5604944229 4290206759
-0.2943389714 -0.1229619086 0.5605978370 4289749019
-0.2943930328 -0.1223615184 0.5607008338 4290077984
-0.2944468558 -0.1217607930 0.5608032942 4290143777
-0.2945004404 -0.1211597398 0.5609053373 4289880605
-0.2945537567 -0.1205583587 0.5610069036 4290012189
-0.2946068347 -0.1199566573 0.5611079931 4290275361
-0.2946596742 -0.1193546280 0.5612086654 4290144798
-0.2951691747 -0.1189363822 0.5621790290 4290276384
-0.2952215970 -0.1183327734 0.5622789264 4290079773
-0.2957308590 -0.1179110855 0.5632488132 4290408738
-0.2957828641 -0.1173059046 0.5633478761 4290737957
-0.2958346009 -0.1167004034 0.5634464622 4291001129
-0.2963434458 -0.1162740141 0.5644155741 4291396398
-0.2963947654 -0.1156669408 0.5645133257 4291527984
-0.2964458466 -0.1150595546 0.5646106005 4290936616
-0.2964966893 -0.1144518554 0.5647074580 4290805030
-0.2965472639 -0.1138438433 0.5648037791 4290805030
-0.2965976000 -0.1132355183 0.5648996234 4291199788
-0.2971054614 -0.1128006950 0.5658668876 4291132198
-0.2971553504 -0.1121908128 0.5659619570 4290474268
-0.2976629436 -0.1117525548 0.5669286847 4290802465
-0.2977124155 -0.1111411229 0.5670229197 4291591981
-0.2982197106 -0.1106994301 0.5679891109 4291657524
-0.2982687354 -0.1100864485 0.5680825114 4291131180
-0.2983175218 -0.1094731688 0.5681753755 4290667558
-0.2988243699 -0.1090268046 0.5691407323 4290601765
-0.2988727093 -0.1084119827 0.5692327619 4290860839
-0.2989207804 -0.1077968627 0.5693243146 4291255597
-0.2994271219 -0.1073458344 0.5702887774 4291847222
-0.2994747758 -0.1067291796 0.5703794956 4291386671
-0.2995221317 -0.1061122268 0.5704696774 4290928172
-0.2995692492 -0.1054949909 0.5705594420 4289941277
-0.3005337715 -0.1051986739 0.5723964572 4289879075
-0.3010393977 -0.1047386229 0.5733594894 4291852865
-0.3015449345 -0.1042763889 0.5743222833 4291790645
-0.3020503223 -0.1038119793 0.5752848983 4291856438
-0.3025555909 -0.1033453867 0.5762472153 4291594295
-0.3026015460 -0.1027207375 0.5763347745 4291002158
-0.3031065166 -0.1022507250 0.5772964954 4291201075
-0.3036113381 -0.1017785445 0.5782579780 4292122177
-0.3041160405 -0.1013041735 0.5792192221 4291402302
-0.3046205938 -0.1008276269 0.5801802278 4291599681
-0.3055845499 -0.1005000323 0.5820161700 4291469120
-0.3060889244 -0.1000181809 0.5829768181 4292127050
-0.3070528209 -0.0996833742 0.5848126411 4291930952
-0.3080166876 -0.0993444845 0.5866484642 4292194124
-0.3089805841 -0.0990015194 0.5884842277 4292131427
-0.3104043007 -0.0988008380 0.5911958814 4292263013
-0.3118281662 -0.0985941738 0.5939077139 4291281822
-0.3132521212 -0.0983815119 0.5966197848 4293584577
-0.3478395343 -0.1891408861 0.6638993621 4290297799
-0.3474705219 -0.1882033795 0.6631950736 4290410099
-0.3466508687 -0.1870242953 0.6616306305 4289752169
-0.3458305001 -0.1858483255 0.6600648761 4289815131
-0.3400550485 -0.1820234656 0.6490415931 4289222994
-0.3293210268 -0.1755794436 0.6285542846 4289352524
-0.3127238750 -0.1660673916 0.5968763828 4289155145
-0.3127952814 -0.1654419899 0.5970126390 4289415484
-0.3079074621 -0.1622037888 0.5876835585 4289349691
-0.3052717149 -0.1601679325 0.5826529264 4289546032
-0.3030855656 -0.1583781838 0.5784803033 4289348653
-0.3018004000 -0.1570666134 0.5760273933 4288888100
-0.3009656370 -0.1559939235 0.5744341612 4289085479
-0.3001302183 -0.1549244672 0.5728396177 4289150756
-0.2997456193 -0.1540902704 0.5721055269 4288953377
-0.2993605733 -0.1532575041 0.5713706017 4289216549
-0.2989750803 -0.1524261385 0.5706349015 4289216549
-0.2985891700 -0.1515961885 0.5698983073 4289216551
-0.2982028425 -0.1507676691 0.5691609383 4289413930
-0.2982679904 -0.1501680911 0.5692852736 4289479721
-0.2978808880 -0.1493415087 0.5685464740 4289348135
-0.2974933684 -0.1485163420 0.5678068399 4289348135
-0.2975576222 -0.1479174197 0.5679295063 4289413928
-0.2971693575 -0.1470942199 0.5671883821 4289348135
-0.2972330451 -0.1464954168 0.5673099756 4289216549
-0.2972965240 -0.1458962411 0.5674310923 4289150756
-0.2969071567 -0.1450755298 0.5666879416 4289216549
-0.2969700396 -0.1444765031 0.5668080449 4289151526
-0.2965799272 -0.1436577737 0.5660634041 4289283112
-0.2966422737 -0.1430589110 0.5661823750 4289217319
-0.2967043817 -0.1424596608 0.5663009286 4289217319
-0.2967662513 -0.1418600380 0.5664190054 4289217317
-0.2963747084 -0.1410443634 0.5656717420 4289085731
-0.2959827483 -0.1402301639 0.5649236441 4288954145
-0.2960437238 -0.1396312565 0.5650399923 4289151524
-0.2956510186 -0.1388190687 0.5642904639 4289019168
-0.2957114279 -0.1382203400 0.5644057989 4288887582
-0.2953179777 -0.1374101639 0.5636547804 4289282595
-0.2953778207 -0.1368116289 0.5637690425 4289743146
-0.2949836254 -0.1360034794 0.5630166531 4289940525
-0.2950429022 -0.1354051381 0.5631297827 4289940525
-0.2946479321 -0.1345990300 0.5623759627 4289743146
-0.2942525446 -0.1337944269 0.5616213083 4289611560
-0.2943109274 -0.1331968457 0.5617327690 4289217065
-0.2939148247 -0.1323942840 0.5609766841 4289085479
-0.2939726412 -0.1317969114 0.5610870123 4289019168
-0.2940302193 -0.1311992109 0.5611969233 4289084961
-0.2931784689 -0.1301974207 0.5595712662 4289347875
-0.2936900258 -0.1298017949 0.5605476499 4289347875
-0.2932920754 -0.1290039420 0.5597881079 4289216289
-0.2933485210 -0.1284066886 0.5598958731 4289216289
-0.2934047282 -0.1278090924 0.5600031018 4289413668
-0.2934606969 -0.1272111535 0.5601099133 4289676840
-0.2935164273 -0.1266128570 0.5602163076 4289743912
-0.2935718894 -0.1260142326 0.5603221655 4289678119
-0.2936271429 -0.1254152656 0.5604276061 4289613601
-0.2936821282 -0.1248159707 0.5605325699 4289876773
-0.2941922843 -0.1244089156 0.5615062714 4289943587
-0.2937914133 -0.1236163601 0.5607411265 4290272552
-0.2938456535 -0.1230160519 0.5608447194 4289682973
-0.2943553329 -0.1226052046 0.5618174672 4290011938
-0.2939534783 -0.1218144447 0.5610504150 4290076961
-0.2940070033 -0.1212131530 0.5611526370 4289879582
-0.2940602899 -0.1206115261 0.5612543225 4290012191
-0.2941133082 -0.1200095713 0.5613555312 4290209570
-0.2941661179 -0.1194072962 0.5614563227 4290210592
-0.2946748137 -0.1189888939 0.5624272227 4290539557
-0.2951834202 -0.1185682938 0.5633980036 4290408740
-0.2952356339 -0.1179631799 0.5634976625 4290606119
-0.2952876091 -0.1173577458 0.5635968447 4290672423
-0.2953393161 -0.1167519912 0.5636955500 4290935595
-0.2958473265 -0.1163254380 0.5646651387 4291461937
-0.2958986461 -0.1157181114 0.5647630692 4291659316
-0.2959496677 -0.1151104718 0.5648604631 4291265581
-0.2960004807 -0.1145025194 0.5649574399 4291133995
-0.2960509956 -0.1138942540 0.5650538802 4291265839
-0.2961013019 -0.1132856831 0.5651498437 4291594804
-0.2966083586 -0.1128506809 0.5661176443 4291461678
-0.2971153259 -0.1124134883 0.5670852661 4291001127
-0.2971650064 -0.1118021086 0.5671800971 4291263531
-0.2976716757 -0.1113614887 0.5681471825 4291592496
-0.2977209091 -0.1107485518 0.5682411790 4291394866
-0.2977699041 -0.1101353168 0.5683346391 4290934315
-0.2978186607 -0.1095217764 0.5684276819 4290601767
-0.2983246744 -0.1090752333 0.5693935156 4290470181
-0.2983729839 -0.1084601507 0.5694857240 4290531619
-0.2984210253 -0.1078447774 0.5695773959 4290926377
-0.2984687984 -0.1072290987 0.5696685910 4291518003
-0.2989741564 -0.1067766473 0.5706331730 4290860073
-0.2990215123 -0.1061594412 0.5707234740 4290401829
-0.2990685701 -0.1055419371 0.5708133578 4289941278
-0.3000315130 -0.1052455083 0.5726512671 4290075682
-0.3005363643 -0.1047852635 0.5736147761 4291325749
-0.3010410666 -0.1043228433 0.5745781064 4291330092
-0.3015456796 -0.1038582325 0.5755411983 4291856436
-0.3020501435 -0.1033914462 0.5765040517 4291594293
-0.3025544882 -0.1029224768 0.5774666667 4290738984
-0.3026002049 -0.1022963300 0.5775539279 4290740524
-0.3031042516 -0.1018239483 0.5785159469 4291793212
-0.3036081195 -0.1013493836 0.5794777274 4291467327
-0.3045705855 -0.1010247841 0.5813146830 4291796292
-0.3050742745 -0.1005449072 0.5822760463 4291666499
-0.3060366809 -0.1002130955 0.5841128826 4292192843
-0.3069990575 -0.0998772010 0.5859497786 4291996745
-0.3079614341 -0.0995372236 0.5877866149 4292391503
-0.3089238107 -0.0991931632 0.5896234512 4292262503
-0.3098861873 -0.0988450199 0.5914602280 4292196710
-0.3117668629 -0.0987837538 0.5950497389 4291479462
-0.3131885529 -0.0985700637 0.5977632403 4293848010
-0.3459034264 -0.1884876639 0.6616065502 4290364105
-0.3455348015 -0.1875524968 0.6609014869 4290410869
-0.3451656997 -0.1866186261 0.6601955295 4289818732
-0.3443465829 -0.1854439825 0.6586288214 4289946719
-0.3421778977 -0.1835488826 0.6544807553 4289288789
-0.3377591670 -0.1804608256 0.6460291147 4289287245
-0.3265903890 -0.1737994254 0.6246666908 4289024073
-0.3077670336 -0.1631282866 0.5886633992 4289284413
-0.3073870540 -0.1622736305 0.5879366398 4289284413
-0.3047558367 -0.1602369398 0.5829039216 4289546546
-0.3030236959 -0.1586822271 0.5795908570 4289414960
-0.3017408550 -0.1573692262 0.5771372318 4289216551
-0.3004572093 -0.1560612321 0.5746819377 4289216551
-0.2996232510 -0.1549913287 0.5730869174 4289348135
-0.2992393374 -0.1541568190 0.5723525882 4288953377
-0.2988550067 -0.1533237100 0.5716174841 4289348135
-0.2984702289 -0.1524920166 0.5708814859 4289216549
-0.2980850339 -0.1516617388 0.5701447725 4289282344
-0.2976993918 -0.1508328915 0.5694071651 4289479723
-0.2977645099 -0.1502330750 0.5695316792 4289479721
-0.2978293896 -0.1496328712 0.5696557164 4289348135
-0.2974426448 -0.1488064826 0.5689160824 4289282342
-0.2970555127 -0.1479815096 0.5681755543 4289282342
-0.2971194983 -0.1473819613 0.5682979822 4289282342
-0.2967315912 -0.1465589553 0.5675560236 4289150756
-0.2967950106 -0.1459595561 0.5676773190 4289150756
-0.2964063585 -0.1451385021 0.5669339299 4289282342
-0.2964692116 -0.1445392519 0.5670541525 4289217319
-0.2960797846 -0.1437201947 0.5663093328 4289480491
-0.2961420715 -0.1431210786 0.5664284825 4289217319
-0.2962041497 -0.1425216049 0.5665471554 4289019940
-0.2958136499 -0.1417050660 0.5658003092 4289348903
-0.2958751321 -0.1411057413 0.5659179091 4289151524
-0.2954838872 -0.1402912140 0.5651695728 4288822559
-0.2955448329 -0.1396920681 0.5652860999 4289085731
-0.2951528430 -0.1388795525 0.5645363331 4289216547
-0.2952131927 -0.1382805854 0.5646517873 4289019168
-0.2952733338 -0.1376812458 0.5647668242 4289479974
-0.2948802412 -0.1368713081 0.5640149713 4289874732
-0.2949398160 -0.1362721622 0.5641288757 4289874732
-0.2945459783 -0.1354642510 0.5633756518 4289874732
-0.2941517532 -0.1346578300 0.5626215339 4289743146
-0.2942104042 -0.1340594441 0.5627337694 4289479974
-0.2938154042 -0.1332550645 0.5619782805 4289217065
-0.2938735187 -0.1326568872 0.5620893836 4289085479
-0.2934777737 -0.1318545789 0.5613324642 4289150754
-0.2935353220 -0.1312566251 0.5614425540 4289019168
-0.2931388319 -0.1304563731 0.5606842041 4289282082
-0.2931958139 -0.1298586428 0.5607931614 4289282082
-0.2932525277 -0.1292605698 0.5609016418 4289084704
-0.2928549647 -0.1284629703 0.5601412654 4289150497
-0.2929111421 -0.1278651357 0.5602486730 4289479462
-0.2929670513 -0.1272669435 0.5603556037 4289611048
-0.2934770286 -0.1268648058 0.5613310337 4289546535
-0.2935325503 -0.1262650043 0.5614372492 4289678121
-0.2935878336 -0.1256648749 0.5615429878 4289613603
-0.2936428785 -0.1250644028 0.5616482496 4289810982
-0.2936976552 -0.1244635880 0.5617530346 4290074918
-0.2937522233 -0.1238624454 0.5618574023 4290272297
-0.2938065231 -0.1232609600 0.5619612932 4290011170
-0.2938605845 -0.1226591468 0.5620646477 4290208549
-0.2934594154 -0.1218680590 0.5612973571 4289945377
-0.2935129106 -0.1212665215 0.5613996983 4289945377
-0.2935661674 -0.1206646487 0.5615015030 4290143524
-0.2936191559 -0.1200624481 0.5616028905 4290340903
-0.2936719060 -0.1194599271 0.5617038012 4290407719
-0.2937244177 -0.1188570783 0.5618042350 4290670891
-0.2946875989 -0.1186205894 0.5636464953 4290737450
-0.2947397828 -0.1180152297 0.5637462735 4290737450
-0.2947916985 -0.1174095422 0.5638455749 4290606630
-0.2948433757 -0.1168035418 0.5639444590 4290869802
-0.2953505814 -0.1163768172 0.5649145842 4291331121
-0.2954018414 -0.1157692447 0.5650125742 4291594293
-0.2954528332 -0.1151613519 0.5651101470 4291463218
-0.2955035865 -0.1145531461 0.5652072430 4291200046
-0.2960101962 -0.1141204759 0.5661761761 4291331891
-0.2960605025 -0.1135107055 0.5662724376 4291529270
-0.2961106002 -0.1129006296 0.5663682222 4291265328
-0.2966167331 -0.1124632582 0.5673363209 4291067949
-0.2971227765 -0.1120237038 0.5683042407 4291395633
-0.2971722484 -0.1114108264 0.5683988929 4291132461
-0.2972214520 -0.1107976362 0.5684930086 4290802475
-0.2977270484 -0.1103533953 0.5694600344 4290473510
-0.2977758348 -0.1097386628 0.5695533156 4290601515
-0.2978243530 -0.1091236249 0.5696461201 4290272550
-0.2978726029 -0.1085082814 0.5697384477 4290400037
-0.2983775437 -0.1080581248 0.5707042217 4290729002
-0.2984253466 -0.1074412540 0.5707956553 4291254835
-0.2984729111 -0.1068240777 0.5708866119 4290399526
-0.2985202074 -0.1062066108 0.5709770918 4290137892
-0.2994816899 -0.1059122458 0.5728161335 4290269478
-0.2995286286 -0.1052922979 0.5729058981 4290403618
-0.3000326455 -0.1048318669 0.5738699436 4291127341
-0.3005365431 -0.1043692529 0.5748337507 4291198506
-0.3005828261 -0.1037465483 0.5749222636 4291922229
-0.3010864258 -0.1032805145 0.5758854747 4291594806
-0.3020475507 -0.1029683053 0.5777238011 4290805290
-0.3025509715 -0.1024969593 0.5786867142 4290739756
-0.3025964797 -0.1018693149 0.5787737370 4291529272
-0.3035574257 -0.1015477180 0.5806117058 4291466302
-0.3040604293 -0.1010698229 0.5815738440 4291926853
-0.3045633435 -0.1005897447 0.5825357437 4291797834
-0.3055241406 -0.1002577990 0.5843734741 4292258385
-0.3064849675 -0.0999217704 0.5862112045 4291997264
-0.3074457943 -0.0995816514 0.5880489349 4292392022
-0.3084065914 -0.0992374569 0.5898866653 4292393069
-0.3098257184 -0.0990356654 0.5926010013 4292261483
-0.3112449348 -0.0988278836 0.5953155756 4291808176
-0.3126643002 -0.0986141115 0.5980303288 4294110931
-0.3444195688 -0.1880786568 0.6601708531 4290495691
-0.3440514207 -0.1871449053 0.6594652534 4290542455
-0.3432341516 -0.1859693825 0.6578987241 4289950318
-0.3424161971 -0.1847969741 0.6563308835 4289946719
-0.3406998217 -0.1831450909 0.6530409455 4289354582
-0.3358394504 -0.1798171550 0.6437247992 4289287247
-0.3237912059 -0.1726766378 0.6206311584 4288958282
-0.3117371500 -0.1655843556 0.5975263715 4289218620
-0.3068659604 -0.1623434275 0.5881894827 4289284413
-0.3042392731 -0.1603058875 0.5831547379 4289546292
-0.3025101423 -0.1587505490 0.5798404217 4289480499
-0.3012295365 -0.1574369967 0.5773857832 4289348651
-0.3003978133 -0.1563625485 0.5757915378 4289151272
-0.2995654345 -0.1552913189 0.5741961002 4289414444
-0.2987324297 -0.1542232931 0.5725994110 4289019686
-0.2983488142 -0.1533898562 0.5718640685 4289611309
-0.2979647517 -0.1525578350 0.5711279511 4289413930
-0.2980304360 -0.1519567817 0.5712538958 4289413930
-0.2976456285 -0.1511266828 0.5705162883 4289545516
-0.2972603738 -0.1502980143 0.5697778463 4289413930
-0.2973251939 -0.1496975869 0.5699020624 4289282344
-0.2969391942 -0.1488708556 0.5691621900 4289282344
-0.2970034480 -0.1482705474 0.5692853332 4289348137
-0.2966166735 -0.1474457830 0.5685440302 4289413928
-0.2962294817 -0.1466224343 0.5678018332 4289282342
-0.2962928414 -0.1460227966 0.5679233074 4289216551
-0.2959049046 -0.1452014297 0.5671797395 4289348137
-0.2959676981 -0.1446019411 0.5673000813 4289283112
-0.2955790162 -0.1437825412 0.5665550828 4289546284
-0.2956412435 -0.1431832016 0.5666743517 4289217319
