VERSION 0.7
FIELDS x y z rgba
SIZE 4 4 4 4
TYPE F F F U
COUNT 1 1 1 1
WIDTH 920
HEIGHT 1
VIEWPOINT 0.0 0.0 0.0 1.0 0.0 0.0 0.0
POINTS 920
DATA ascii
-0.2727730274 -0.1236874387 0.5610635281 4291669320
-0.2728249133 -0.1230874583 0.5611702204 4291603525
-0.2728765607 -0.1224871427 0.5612764955 4291537732
-0.2729279697 -0.1218864843 0.5613822341 4291537732
-0.2729791701 -0.1212854907 0.5614874959 4291471939
-0.2730301023 -0.1206841543 0.5615922809 4291471939
-0.2735101879 -0.1202712953 0.5625797510 4291537732
-0.2739901841 -0.1198562086 0.5635671020 4291471939
-0.2740405798 -0.1192519739 0.5636707544 4291340353
-0.2740907669 -0.1186474115 0.5637739301 4291340353
-0.2741406858 -0.1180425137 0.5638766289 4291340353
-0.2741903663 -0.1174372882 0.5639788508 4291406146
-0.2746696770 -0.1170148551 0.5649647117 4291471939
-0.2747189701 -0.1164080277 0.5650660992 4291471939
-0.2747679949 -0.1158008724 0.5651669502 4291603525
-0.2748168111 -0.1151933894 0.5652673841 4291735111
-0.2752955556 -0.1147649065 0.5662520528 4291800904
-0.2753439546 -0.1141558290 0.5663515925 4291670088
-0.2753921151 -0.1135464311 0.5664507151 4291735881
-0.2754400373 -0.1129367203 0.5665493011 4291867469
-0.2759181857 -0.1125021949 0.5675327182 4292064848
-0.2759656906 -0.1118908897 0.5676304698 4292196947
-0.2760129869 -0.1112792715 0.5677277446 4292328533
-0.2760600150 -0.1106673405 0.5678244829 4292132183
-0.2765375376 -0.1102267876 0.5688067079 4292132183
-0.2765841484 -0.1096132770 0.5689025521 4292132441
-0.2766305208 -0.1089994609 0.5689979792 4292066648
-0.2766766548 -0.1083853319 0.5690928102 4292067418
-0.2767225206 -0.1077708974 0.5691872239 4292396383
-0.2776303887 -0.1074899808 0.5710545182 4292594021
-0.2776758969 -0.1068730205 0.5711481571 4292659814
-0.2781524360 -0.1064207554 0.5721283555 4292726377
-0.2786288559 -0.1059662625 0.5731083155 4292923756
-0.2791051567 -0.1055095568 0.5740880370 4292726647
-0.2795813680 -0.1050506383 0.5750675201 4292529268
-0.2800574601 -0.1045894921 0.5760467649 4292726395
-0.2805334330 -0.1041261330 0.5770257711 4292989567
-0.2810092866 -0.1036605537 0.5780045390 4293252238
-0.2819167376 -0.1033510268 0.5798711181 4293318031
-0.2823924422 -0.1028800458 0.5808495283 4293056164
-0.2832998633 -0.1025632024 0.5827160478 4293582508
-0.2919140160 -0.1694458127 0.6018092036 4290486690
-0.2919833660 -0.1688172519 0.6019521952 4288512900
-0.2916292250 -0.1679445058 0.6012220979 4289689438
-0.2916980386 -0.1673159748 0.6013639569 4289952610
-0.2909196913 -0.1662031412 0.5997593403 4290412635
-0.2905642688 -0.1653345376 0.5990266204 4289754705
-0.2893611193 -0.1639871150 0.5965461731 4289556812
-0.2877334058 -0.1624055654 0.5931904912 4289951570
-0.2856808007 -0.1605926454 0.5889587998 4289559867
-0.2832030356 -0.1585510969 0.5838506818 4289888832
-0.2815719843 -0.1569929868 0.5804880857 4290020671
-0.2799399197 -0.1554417908 0.5771234632 4289823292
-0.2787311077 -0.1541321278 0.5746313930 4290152506
-0.2775215209 -0.1528275609 0.5721377134 4290547264
-0.2767355740 -0.1517608613 0.5705173612 4290415932
-0.2759490013 -0.1506974250 0.5688958168 4290218553
-0.2755864859 -0.1498681903 0.5681484342 4290219069
-0.2752235234 -0.1490404010 0.5674001575 4290613827
-0.2748602033 -0.1482140571 0.5666511059 4290087230
-0.2744964361 -0.1473891437 0.5659011602 4289692472
-0.2741322815 -0.1465656906 0.5651504397 4289824312
-0.2741928101 -0.1459699869 0.5652751923 4289692726
-0.2738279104 -0.1451485157 0.5645229816 4289890104
-0.2738879025 -0.1445529461 0.5646466613 4290482241
-0.2735223174 -0.1437334716 0.5638929009 4290745667
-0.2731562853 -0.1429154426 0.5631383657 4290548288
-0.2732154429 -0.1423205733 0.5632603168 4290482495
-0.2728487253 -0.1415045559 0.5625042319 4290482495
-0.2724815905 -0.1406900138 0.5617473722 4290482495
-0.2721140385 -0.1398769319 0.5609896779 4290416702
-0.2717460990 -0.1390653402 0.5602310896 4290153787
-0.2718037665 -0.1384722739 0.5603500009 4290022201
-0.2718612254 -0.1378788203 0.5604684353 4289890615
-0.2714922726 -0.1370698214 0.5597078204 4290153787
-0.2711229026 -0.1362622976 0.5589463115 4290352188
-0.2711794972 -0.1356695890 0.5590630174 4290615360
-0.2712358832 -0.1350765228 0.5591792464 4290812990
-0.2708655000 -0.1342716217 0.5584156513 4291010369
-0.2709213495 -0.1336787343 0.5585307479 4291207745
-0.2709769607 -0.1330854893 0.5586454272 4291207745
-0.2710323632 -0.1324918717 0.5587596893 4291011392
-0.2706606388 -0.1316901892 0.5579932928 4291011392
-0.2707155049 -0.1310967803 0.5581064224 4290879806
-0.2707701325 -0.1305030137 0.5582190156 4290814013
-0.2708245516 -0.1299088895 0.5583311915 4290814013
-0.2708787322 -0.1293144226 0.5584429502 4290879806
-0.2709326744 -0.1287195832 0.5585541725 4290814013
-0.2709864080 -0.1281243861 0.5586649179 4290814013
-0.2714674175 -0.1277299970 0.5596565604 4291011390
-0.2715207934 -0.1271331608 0.5597665906 4291142976
-0.2715739012 -0.1265359819 0.5598760843 4291142976
-0.2716268003 -0.1259384453 0.5599851608 4291011390
-0.2721073031 -0.1255379468 0.5609757900 4291077183
-0.2721598446 -0.1249387711 0.5610840917 4291340355
-0.2722121179 -0.1243392527 0.5611918569 4291603527
-0.2722641826 -0.1237393841 0.5612992048 4291537734
-0.2723160088 -0.1231391802 0.5614060163 4291537734
-0.2723675966 -0.1225386262 0.5615124106 4291537734
-0.2728472948 -0.1221294627 0.5625013113 4291406918
-0.2733269334 -0.1217180714 0.5634900928 4291341125
-0.2733779848 -0.1211146116 0.5635953546 4291341125
-0.2734287977 -0.1205108091 0.5637001395 4291341125
-0.2734793723 -0.1199066788 0.5638043880 4291341125
-0.2735297084 -0.1193022132 0.5639082193 4291275332
-0.2735798359 -0.1186974123 0.5640115142 4291209539
-0.2736296952 -0.1180922762 0.5641143322 4291275332
-0.2736793458 -0.1174868196 0.5642166734 4291275332
-0.2741577923 -0.1170642227 0.5652030110 4291275332
-0.2742070258 -0.1164571568 0.5653045774 4291406918
-0.2742560208 -0.1158497632 0.5654055476 4291472711
-0.2747340798 -0.1154223904 0.5663911104 4291538504
-0.2747826576 -0.1148133948 0.5664913058 4291670090
-0.2748310268 -0.1142040789 0.5665909648 4291932492
-0.2748791575 -0.1135944426 0.5666902065 4291932492
-0.2753565907 -0.1131610200 0.5676745176 4291933262
-0.2754043043 -0.1125497892 0.5677728653 4292064848
-0.2754517794 -0.1119382456 0.5678707361 4292130900
-0.2754990160 -0.1113263816 0.5679680705 4292262486
-0.2755459845 -0.1107142121 0.5680649281 4292197463
-0.2760226727 -0.1102734879 0.5690476894 4292197463
-0.2760692239 -0.1096597314 0.5691436529 4292066648
-0.2761155665 -0.1090456694 0.5692391992 4292132441
-0.2761616409 -0.1084312946 0.5693341494 4292198750
-0.2770679295 -0.1081524938 0.5712025762 4292527715
-0.2771136761 -0.1075355932 0.5712968707 4292594021
-0.2775895298 -0.1070844084 0.5722779036 4292594021
-0.2776348293 -0.1064659432 0.5723713040 4292857195
-0.2781104147 -0.1060112789 0.5733517408 4293120367
-0.2785858810 -0.1055543944 0.5743319392 4292792188
-0.2790612280 -0.1050952896 0.5753119588 4292792188
-0.2795364559 -0.1046339646 0.5762916803 4293054851
-0.2804423571 -0.1043306813 0.5781593323 4293252230
-0.2809174359 -0.1038639545 0.5791387558 4293515157
-0.2818233371 -0.1035533473 0.5810062885 4293515157
-0.2822982371 -0.1030812189 0.5819853544 4293122219
-0.2832040787 -0.1027632877 0.5838528275 4293911735
-0.2905203700 -0.1690238714 0.6003106236 4290685871
-0.2905894518 -0.1683969200 0.6004533768 4288251530
-0.2902358174 -0.1675256640 0.5997226834 4289623907
-0.2903043628 -0.1668987274 0.5998643041 4289755493
-0.2899500132 -0.1660293192 0.5991320610 4290083416
-0.2891724408 -0.1649201959 0.5975254178 4289622865
-0.2883942723 -0.1638142914 0.5959174633 4289030981
-0.2871925235 -0.1624723077 0.5934342146 4289623118
-0.2851438522 -0.1606586725 0.5892009735 4289296186
-0.2835170925 -0.1590912044 0.5858396292 4289493565
-0.2814660966 -0.1572941244 0.5816015601 4289757501
-0.2798372805 -0.1557414085 0.5782358646 4289823294
-0.2786308825 -0.1544303149 0.5757430792 4290086716
-0.2774237096 -0.1531243175 0.5732486844 4290678853
-0.2766393721 -0.1520562917 0.5716279745 4290547265
-0.2758544385 -0.1509915292 0.5700060129 4289889335
-0.2750689089 -0.1499300450 0.5683828592 4290218302
-0.2747067213 -0.1491019279 0.5676344037 4290678853
-0.2743440866 -0.1482752711 0.5668851137 4290087232
-0.2739810646 -0.1474500448 0.5661349893 4289692474
-0.2736176252 -0.1466262788 0.5653840303 4289758265
-0.2736780941 -0.1460303515 0.5655090213 4289626679
-0.2733139694 -0.1452085674 0.5647565722 4289824312
-0.2733739018 -0.1446127892 0.5648803711 4290350656
-0.2730090320 -0.1437929869 0.5641264319 4290416448
-0.2730684280 -0.1431973577 0.5642492175 4290284862
-0.2727028430 -0.1423795521 0.5634937882 4290285116
-0.2727617025 -0.1417840719 0.5636153817 4290416702
-0.2719704509 -0.1407483667 0.5619804263 4290482241
-0.2720286846 -0.1401539743 0.5621007681 4290482241
-0.2716615796 -0.1393411458 0.5613421798 4290285375
-0.2717192769 -0.1387469172 0.5614613891 4290153789
-0.2717767656 -0.1381523162 0.5615801811 4290087994
-0.2714086175 -0.1373420656 0.5608195066 4290285373
-0.2710400820 -0.1365333050 0.5600579977 4290483774
-0.2710967064 -0.1359394491 0.5601750016 4290746946
-0.2711531222 -0.1353452057 0.5602915883 4290878783
-0.2707835734 -0.1345390677 0.5595279336 4290944576
-0.2708394527 -0.1339450330 0.5596433878 4291076160
-0.2708950937 -0.1333506256 0.5597583652 4291076160
-0.2705245018 -0.1325471103 0.5589926243 4290879806
-0.2705796361 -0.1319529116 0.5591065288 4290879806
-0.2706345320 -0.1313583404 0.5592199564 4290814013
-0.2706891894 -0.1307634264 0.5593329072 4290748220
-0.2707436383 -0.1301681399 0.5594453812 4290814013
-0.2707978487 -0.1295724958 0.5595574379 4290814013
-0.2708518207 -0.1289764941 0.5596689582 4290748220
-0.2709055841 -0.1283801347 0.5597800612 4290748220
-0.2709591091 -0.1277834177 0.5598906875 4290945597
-0.2714391947 -0.1273866594 0.5608826876 4291142976
-0.2714923620 -0.1267883033 0.5609925389 4291274562
-0.2715452909 -0.1261895895 0.5611019135 4291142976
-0.2715979815 -0.1255905330 0.5612108111 4290946365
-0.2720775902 -0.1251876503 0.5622017980 4291143744
-0.2721298933 -0.1245869622 0.5623098612 4291341125
-0.2726092637 -0.1241805628 0.5633004308 4291275332
-0.2726612091 -0.1235782355 0.5634077191 4291406918
-0.2727129161 -0.1229755655 0.5635145903 4291406918
-0.2727643847 -0.1223725453 0.5636209249 4291341125
-0.2728156149 -0.1217691973 0.5637267828 4291275332
-0.2732942998 -0.1213554144 0.5647159219 4291275332
-0.2733451426 -0.1207504347 0.5648210049 4291275332
-0.2733957469 -0.1201451197 0.5649255514 4291209539
-0.2734461427 -0.1195394695 0.5650296807 4291209539
-0.2734962702 -0.1189334840 0.5651332736 4291209539
-0.2735461891 -0.1183271706 0.5652363896 4291275332
-0.2735958397 -0.1177205220 0.5653390288 4291275332
-0.2736452818 -0.1171135381 0.5654411316 4291275332
-0.2741227746 -0.1166885570 0.5664278269 4291537734
-0.2741717994 -0.1160799786 0.5665291548 4291669320
-0.2742205858 -0.1154710650 0.5666299462 4291669320
-0.2746976912 -0.1150413007 0.5676158071 4291800906
-0.2747460604 -0.1144307926 0.5677157640 4291998285
-0.2747942209 -0.1138199642 0.5678152442 4292064078
-0.2748421133 -0.1132088080 0.5679142475 4292064850
-0.2753186226 -0.1127730012 0.5688988566 4292130643
-0.2753661275 -0.1121602580 0.5689969659 4292130900
-0.2754133642 -0.1115471944 0.5690946579 4292196693
-0.2754603922 -0.1109338254 0.5691917539 4292197464
-0.2755071521 -0.1103201360 0.5692883730 4292197464
-0.2755536735 -0.1097061411 0.5693845153 4292197723
-0.2760292292 -0.1092617586 0.5703672171 4292263516
-0.2760753334 -0.1086461768 0.5704624653 4292264545
-0.2765506208 -0.1081983075 0.5714445710 4292593510
-0.2770257890 -0.1077482104 0.5724264383 4292659562
-0.2770713270 -0.1071298048 0.5725204945 4292593769
-0.2775461972 -0.1066762209 0.5735017657 4292856941
-0.2775912881 -0.1060562432 0.5735949278 4292988527
-0.2780659199 -0.1055991799 0.5745756626 4292661374
-0.2789702713 -0.1053021476 0.5764443278 4292858753
-0.2794447243 -0.1048396826 0.5774247050 4293120902
-0.2799190581 -0.1043749899 0.5784048438 4293252488
-0.2808233500 -0.1040674523 0.5802733898 4293318556
-0.2812975049 -0.1035973579 0.5812532306 4293252763
-0.2822017670 -0.1032824889 0.5831216574 4293057720
-0.2895506918 -0.1688472331 0.5996832848 4290951614
-0.2891980410 -0.1679760963 0.5989528894 4288254101
-0.2888449430 -0.1671063453 0.5982216001 4289230696
-0.2889131904 -0.1664810181 0.5983629823 4289428075
-0.2885593772 -0.1656131148 0.5976301432 4289755223
-0.2882051170 -0.1647465974 0.5968964696 4289360465
-0.2874283791 -0.1636411846 0.5952877402 4288833602
-0.2862288356 -0.1622996032 0.5928034186 4289359946
-0.2846062183 -0.1607246250 0.5894428492 4289164089
-0.2834049761 -0.1593941003 0.5869549513 4289164089
-0.2813580036 -0.1575953960 0.5827155113 4289625403
-0.2797323763 -0.1560411453 0.5793487430 4289822782
-0.2781057656 -0.1544938385 0.5759798884 4289757497
-0.2769009173 -0.1531873345 0.5734845400 4290415427
-0.2761181295 -0.1521188915 0.5718632936 4290612545
-0.2753347158 -0.1510537118 0.5702407956 4289954615
-0.2745507061 -0.1499918252 0.5686170459 4290152509
-0.2741892338 -0.1491633952 0.5678684115 4290613060
-0.2742505968 -0.1485656798 0.5679954886 4290087234
-0.2734650671 -0.1475108862 0.5663685799 4289758269
-0.2731023729 -0.1466868073 0.5656174421 4289758267
-0.2731627822 -0.1460906714 0.5657425523 4289626681
-0.2732229531 -0.1454941332 0.5658671856 4289890105
-0.2728592455 -0.1446725577 0.5651139021 4290219070
-0.2724950910 -0.1438524574 0.5643597245 4290285116
-0.2725544274 -0.1432565898 0.5644826293 4290219323
-0.2726135552 -0.1426603496 0.5646050572 4290285116
-0.2722483873 -0.1418427825 0.5638487935 4290350909
-0.2718828321 -0.1410266906 0.5630916357 4290351168
-0.2715168595 -0.1402120590 0.5623337030 4290416961
-0.2715748250 -0.1396170706 0.5624537468 4290416961
-0.2716325521 -0.1390216947 0.5625733137 4290351168
-0.2712655365 -0.1382096410 0.5618132353 4290285373
-0.2708981335 -0.1373990774 0.5610523224 4290548545
-0.2713797390 -0.1370188594 0.5620496869 4290681152
-0.2710117102 -0.1362094134 0.5612875223 4290878531
-0.2706432641 -0.1354014724 0.5605244637 4290944576
-0.2706994116 -0.1348066330 0.5606406927 4290944576
-0.2703302801 -0.1340007484 0.5598762035 4290944574
-0.2703858614 -0.1334061176 0.5599913597 4291010367
-0.2704412341 -0.1328111142 0.5601060390 4290813501
-0.2700710893 -0.1320078671 0.5593394041 4290813501
-0.2701259255 -0.1314130723 0.5594529510 4290813500
-0.2701805234 -0.1308179200 0.5595660210 4290879293
-0.2702349126 -0.1302224100 0.5596786737 4290879293
-0.2702890635 -0.1296265423 0.5597908497 4290813500
-0.2703430057 -0.1290303171 0.5599025488 4290748220
-0.2703966796 -0.1284337342 0.5600137711 4290748220
-0.2704501748 -0.1278367937 0.5601245165 4290879806
-0.2709293962 -0.1274398714 0.5611170530 4291077185
-0.2709825039 -0.1268412918 0.5612270236 4291208769
-0.2710353732 -0.1262423545 0.5613365173 4291142976
-0.2719404995 -0.1260381788 0.5632110834 4291142974
-0.2719930708 -0.1254366487 0.5633199811 4291274560
-0.2720454335 -0.1248347834 0.5634284019 4291209539
-0.2720975280 -0.1242325678 0.5635363460 4291209539
-0.2721494138 -0.1236300096 0.5636438131 4291341125
-0.2722010612 -0.1230271012 0.5637507439 4291406918
-0.2726792097 -0.1226157397 0.5647410154 4291341125
-0.2727304697 -0.1220112070 0.5648471713 4291275332
-0.2727814913 -0.1214063317 0.5649528503 4291275332
-0.2728323042 -0.1208011210 0.5650580525 4291209539
-0.2728828490 -0.1201955676 0.5651627779 4291274562
-0.2729331851 -0.1195896789 0.5652670264 4291274562
-0.2729832530 -0.1189834625 0.5653707385 4291340355
-0.2730331123 -0.1183769032 0.5654739738 4291406148
-0.2730827332 -0.1177700236 0.5655767322 4291406148
-0.2735595405 -0.1173461601 0.5665642619 4291406148
-0.2736087441 -0.1167376637 0.5666661859 4291537734
-0.2736577392 -0.1161288396 0.5667676330 4291669320
-0.2741341293 -0.1157001927 0.5677542686 4291735113
-0.2741827071 -0.1150897667 0.5678548813 4291800906
-0.2742310464 -0.1144790128 0.5679550171 4291998285
-0.2742791474 -0.1138679460 0.5680546165 4292064078
-0.2747549713 -0.1134332418 0.5690400600 4291933521
-0.2748026550 -0.1128205732 0.5691388249 4292065107
-0.2748501003 -0.1122075841 0.5692371130 4291934292
-0.2748973072 -0.1115942895 0.5693348646 4292000085
-0.2749442458 -0.1109806672 0.5694321394 4292065624
-0.2749909759 -0.1103667393 0.5695288777 4292065624
-0.2750374377 -0.1097524986 0.5696251392 4292132189
-0.2759406269 -0.1094779372 0.5714957118 4292197982
-0.2759867609 -0.1088611633 0.5715912580 4292264547
-0.2764612734 -0.1084121540 0.5725739598 4292659305
-0.2765069902 -0.1077938080 0.5726686716 4292659563
-0.2769812047 -0.1073413119 0.5736508369 4292659563
-0.2770264745 -0.1067213863 0.5737445951 4292922737
-0.2775004208 -0.1062654108 0.5747261643 4292988530
-0.2775453031 -0.1056439206 0.5748190880 4292923522
-0.2784479856 -0.1053467765 0.5766886473 4293120901
-0.2789216042 -0.1048841253 0.5776695013 4293251979
-0.2798242569 -0.1045796499 0.5795390010 4293383565
-0.2802976966 -0.1041115969 0.5805195570 4293318307
-0.2812003493 -0.1037997901 0.5823889971 4293384100
-0.2882299125 -0.1677997708 0.5983241200 4288584865
-0.2878774405 -0.1669306010 0.5975924730 4289034090
-0.2875245512 -0.1660628170 0.5968599319 4289428848
-0.2875923216 -0.1654386520 0.5970005989 4289821275
-0.2872386873 -0.1645727307 0.5962665081 4289360724
-0.2868846357 -0.1637081951 0.5955315232 4289096774
-0.2856874466 -0.1623661071 0.5930463076 4289425739
-0.2844894230 -0.1610290706 0.5905594230 4289295675
-0.2828690410 -0.1594594717 0.5871956944 4289032503
-0.2816692889 -0.1581335068 0.5847052336 4289493817
-0.2796252370 -0.1563410163 0.5804620385 4289625403
-0.2780018449 -0.1547921747 0.5770921707 4289362482
-0.2772213817 -0.1537182033 0.5754719973 4290020412
-0.2760182619 -0.1524144709 0.5729745030 4290546752
-0.2752364874 -0.1513479650 0.5713516474 4290217787
-0.2744541168 -0.1502847373 0.5697275400 4290349375
-0.2740934491 -0.1494550854 0.5689788461 4290744133
-0.2737323940 -0.1486268640 0.5682293773 4290153025
-0.2733709514 -0.1478001028 0.5674790144 4289758267
-0.2730090916 -0.1469747722 0.5667278767 4289692472
-0.2726468146 -0.1461509019 0.5659758449 4289626679
-0.2727069259 -0.1455541551 0.5661005974 4289890104
-0.2723439336 -0.1447322667 0.5653471351 4290219069
-0.2719805241 -0.1439118534 0.5645927191 4290417213
-0.2720398009 -0.1433157772 0.5647158027 4290351420
-0.2720988691 -0.1427193135 0.5648384094 4290351166
-0.2717344463 -0.1419014335 0.5640819073 4290416959
-0.2717929780 -0.1413051188 0.5642033815 4290482754
-0.2714278102 -0.1404892504 0.5634453893 4290548547
-0.2710622847 -0.1396748573 0.5626865625 4290614340
-0.2711199522 -0.1390792578 0.5628063083 4290482754
-0.2711774111 -0.1384832859 0.5629255772 4290286141
-0.2708108425 -0.1376714855 0.5621646047 4290483520
-0.2708677649 -0.1370756775 0.5622828007 4290812736
-0.2705004811 -0.1362659186 0.5615203381 4291010115
-0.2705568671 -0.1356703043 0.5616374016 4291010367
-0.2706130147 -0.1350743175 0.5617539883 4290878781
-0.2702447176 -0.1342671812 0.5609894395 4290878781
-0.2703003287 -0.1336713880 0.5611048937 4290944574
-0.2699313164 -0.1328663230 0.5603388548 4290812990
-0.2699863911 -0.1322707385 0.5604531765 4290747197
-0.2700412571 -0.1316747814 0.5605670810 4290747708
-0.2700959146 -0.1310784668 0.5606805086 4290813501
-0.2701503038 -0.1304817945 0.5607934594 4290813501
-0.2702044845 -0.1298847646 0.5609059334 4290747708
-0.2702584565 -0.1292873621 0.5610179305 4290879294
-0.2703121901 -0.1286896169 0.5611295104 4290945087
-0.2703656852 -0.1280915141 0.5612405539 4290879806
-0.2704189718 -0.1274930537 0.5613511205 4291077185
-0.2708972692 -0.1270937473 0.5623440742 4291077183
-0.2709501684 -0.1264936477 0.5624538660 4291011390
-0.2714282870 -0.1260908246 0.5634463429 4291142976
-0.2719063163 -0.1256857663 0.5644387007 4291274562
-0.2719587088 -0.1250827163 0.5645474195 4291209539
-0.2720108330 -0.1244793236 0.5646556616 4291275332
-0.2720627487 -0.1238755882 0.5647634268 4291275332
-0.2721144259 -0.1232715026 0.5648706555 4291341125
-0.2721658647 -0.1226670742 0.5649774671 4291275332
-0.2726430893 -0.1222533286 0.5659680963 4291209539
-0.2726941407 -0.1216472760 0.5660740733 4291340355
-0.2727449536 -0.1210408807 0.5661795735 4291208769
-0.2727955282 -0.1204341426 0.5662845969 4291208769
-0.2728458941 -0.1198270693 0.5663890839 4291340355
-0.2728959918 -0.1192196682 0.5664930940 4291274562
-0.2729458809 -0.1186119244 0.5665966272 4291340355
-0.2729955018 -0.1180038527 0.5666996837 4291471428
-0.2730449140 -0.1173954532 0.5668022633 4291471428
-0.2735207975 -0.1169691980 0.5677900910 4291603014
-0.2735697925 -0.1163591817 0.5678918362 4291800393
-0.2736185491 -0.1157488450 0.5679930449 4291866186
-0.2740940154 -0.1153177992 0.5689800382 4291866186
-0.2741423845 -0.1147058606 0.5690804124 4291735883
-0.2741904855 -0.1140935943 0.5691803098 4291867469
-0.2742383778 -0.1134810075 0.5692796707 4291867728
-0.2747132480 -0.1130439043 0.5702654719 4291933521
-0.2747607231 -0.1124297231 0.5703639984 4291934292
-0.2743805647 -0.1116413251 0.5695748329 4292000085
-0.2748549283 -0.1112004071 0.5705595613 4291934038
-0.2749016881 -0.1105852798 0.5706565976 4291934038
-0.2753757834 -0.1101408601 0.5716407895 4292000605
-0.2754220963 -0.1095241532 0.5717369318 4292132191
-0.2758959234 -0.1090762392 0.5727205276 4292264805
-0.2759418488 -0.1084579453 0.5728158355 4292593770
-0.2764153779 -0.1080065444 0.5737988353 4292528493
-0.2764608562 -0.1073866785 0.5738932490 4292594286
-0.2769341469 -0.1069317833 0.5748757124 4292857460
-0.2774072886 -0.1064746603 0.5758579373 4292923253
-0.2774521708 -0.1058519706 0.5759510994 4293120644
-0.2783532739 -0.1055537537 0.5778216720 4293318023
-0.2788261175 -0.1050899550 0.5788031816 4293383311
-0.2792988122 -0.1046239436 0.5797844529 4293646483
-0.2801998556 -0.1043152064 0.5816548467 4293515436
-0.2811008990 -0.1040023193 0.5835253000 4293778608
-0.2868427336 -0.1673780978 0.5968205929 4290558133
-0.2864907980 -0.1665104479 0.5960883498 4289366143
-0.2865586281 -0.1658874005 0.5962294340 4288379248
-0.2866262197 -0.1652639210 0.5963700414 4290082656
-0.2862732112 -0.1643985957 0.5956355929 4289029968
-0.2859197855 -0.1635346562 0.5949002504 4289557577
-0.2851453722 -0.1624325365 0.5932889581 4289294405
-0.2839496732 -0.1610949934 0.5908011198 4289293627
-0.2827531993 -0.1597625166 0.5883116126 4289819971
-0.2815558910 -0.1584351212 0.5858204365 4289821249
-0.2799368203 -0.1568769068 0.5824517012 4289492284
-0.2783167362 -0.1553256214 0.5790809393 4289164592
-0.2771168351 -0.1540153474 0.5765843391 4289756729
-0.2759161592 -0.1527101696 0.5740861297 4290284092
-0.2751359940 -0.1516423374 0.5724629164 4290415678
-0.2743552625 -0.1505777836 0.5708384514 4290284862
-0.2735739052 -0.1495165080 0.5692127347 4290350655
-0.2732135952 -0.1486879885 0.5684630275 4290086714
-0.2732746005 -0.1480894387 0.5685899258 4289757749
-0.2724917233 -0.1470352709 0.5669611096 4289888311
-0.2725521028 -0.1464377642 0.5670866966 4289822518
-0.2721902430 -0.1456141174 0.5663338304 4290085174
-0.2722500861 -0.1450167447 0.5664583445 4290545725
-0.2718875110 -0.1441950798 0.5657039285 4290811709
-0.2715245485 -0.1433748901 0.5649487376 4290548537
-0.2715835571 -0.1427782029 0.5650714636 4290680125
-0.2712198496 -0.1419600099 0.5643147826 4290680125
-0.2712783217 -0.1413634717 0.5644363761 4290877762
-0.2709138989 -0.1405473053 0.5636782050 4290680383
-0.2709718347 -0.1399509311 0.5637987256 4290615360
-0.2706067264 -0.1391367763 0.5630390644 4290417981
-0.2706641257 -0.1385405809 0.5631584525 4290548799
-0.2707212865 -0.1379439980 0.5632774234 4290680385
-0.2703551352 -0.1371324360 0.5625156164 4291075143
-0.2704117894 -0.1365360469 0.5626334548 4291140936
-0.2700449228 -0.1357265264 0.5618701577 4290812990
-0.2701010406 -0.1351303160 0.5619868636 4290944576
-0.2701568902 -0.1345337331 0.5621030927 4291011129
-0.2697890401 -0.1337268502 0.5613377094 4290682164
-0.2698443532 -0.1331304759 0.5614528656 4290746943
-0.2694757879 -0.1323256642 0.5606859326 4290878529
-0.2695305943 -0.1317294836 0.5607999563 4290812736
-0.2695851624 -0.1311329454 0.5609135032 4290812736
-0.2696395218 -0.1305360496 0.5610266328 4290878783
-0.2696936429 -0.1299387813 0.5611392260 4290944576
-0.2697475553 -0.1293411702 0.5612514019 4290879294
-0.2698012292 -0.1287431866 0.5613630414 4290945087
-0.2698546648 -0.1281448454 0.5614742637 4291076672
-0.2707566619 -0.1279472560 0.5633509755 4291010879
-0.2708097994 -0.1273463219 0.5634616017 4291076672
-0.2712872922 -0.1269437075 0.5644550323 4291142465
-0.2713400722 -0.1263411194 0.5645648837 4291339842
-0.2713926136 -0.1257382035 0.5646741986 4291339842
-0.2714449167 -0.1251349300 0.5647830367 4291274560
-0.2714970112 -0.1245312989 0.5648914576 4291208767
-0.2719738185 -0.1241212711 0.5658835173 4291537986
-0.2720255256 -0.1235160083 0.5659911036 4291340607
-0.2720769942 -0.1229104027 0.5660981536 4291274814
-0.2721282244 -0.1223044544 0.5662047863 4291209021
-0.2721792459 -0.1216981634 0.5663108826 4291208767
-0.2722299993 -0.1210915372 0.5664165020 4291208767
-0.2722805440 -0.1204845682 0.5665216446 4291274560
-0.2727563381 -0.1200645640 0.5675116777 4291406146
-0.2728064656 -0.1194559783 0.5676159859 4291274560
-0.2728563845 -0.1188470498 0.5677198172 4291142974
-0.2729060352 -0.1182377860 0.5678231120 4290946367
-0.2729554772 -0.1176281944 0.5679259896 4291143746
-0.2730046511 -0.1170182750 0.5680283308 4291341125
-0.2730536163 -0.1164080203 0.5681301951 4291538504
-0.2731023133 -0.1157974452 0.5682315230 4291670090
-0.2735769451 -0.1153662354 0.5692189932 4291801676
-0.2736252546 -0.1147540584 0.5693195462 4291670092
-0.2736733258 -0.1141415462 0.5694195628 4291801678
-0.2741475105 -0.1137055531 0.5704061389 4291801676
-0.2741951644 -0.1130914539 0.5705053210 4291933262
-0.2742425799 -0.1124770269 0.5706040263 4292196436
-0.2742897570 -0.1118622869 0.5707021356 4292130643
-0.2743366957 -0.1112472266 0.5707998276 4291998802
-0.2743833959 -0.1106318533 0.5708969831 4292130388
-0.2752834260 -0.1103583649 0.5727696419 4292328798
-0.2753297687 -0.1097404510 0.5728660822 4292328798
-0.2753758729 -0.1091222242 0.5729619861 4292330087
-0.2758487463 -0.1086719111 0.5739458799 4292593259
-0.2758944333 -0.1080521122 0.5740409493 4292462962
-0.2763670385 -0.1075983047 0.5750242472 4292594548
-0.2764122784 -0.1069769263 0.5751184225 4292726393
-0.2768845856 -0.1065196320 0.5761011243 4292857979
-0.2773567736 -0.1060601026 0.5770835876 4292923772
-0.2778288722 -0.1055983603 0.5780658126 4292989565
-0.2787283361 -0.1052958816 0.5799373388 4293187221
-0.2792002559 -0.1048287153 0.5809192061 4293384600
-0.2800997198 -0.1045188978 0.5827906728 4293188792
-0.2809991539 -0.1042049304 0.5846621394 4294044101
-0.2859452367 -0.1665783077 0.5963312984 4290091410
-0.2860129774 -0.1659550518 0.5964725614 4287985778
-0.2856610417 -0.1650889218 0.5957385302 4289623134
-0.2857282162 -0.1644656956 0.5958787203 4289096790
-0.2853755355 -0.1636014283 0.5951431394 4289293376
-0.2850224078 -0.1627385765 0.5944067240 4289490755
-0.2842490077 -0.1616383493 0.5927938223 4288965178
-0.2826350927 -0.1600656807 0.5894280076 4289294143
-0.2810201347 -0.1584999412 0.5860601068 4289557565
-0.2798243761 -0.1571771204 0.5835663676 4289294393
-0.2782075405 -0.1556243002 0.5801944733 4288966959
-0.2765897214 -0.1540784389 0.5768205523 4289756475
-0.2758117914 -0.1530060023 0.5751982331 4290349886
-0.2746127546 -0.1517045200 0.5726976395 4290284093
-0.2742541730 -0.1508709490 0.5719498396 4290022203
-0.2734744549 -0.1498083472 0.5703237653 4290153789
-0.2731149495 -0.1489785761 0.5695740581 4289890364
-0.2727550566 -0.1481502652 0.5688235164 4289692985
-0.2723947763 -0.1473233998 0.5680720806 4289955130
-0.2720340490 -0.1464979798 0.5673198700 4289823544
-0.2720941305 -0.1458998621 0.5674451590 4289954104
-0.2717327178 -0.1450764239 0.5666913986 4290480448
-0.2717922628 -0.1444784403 0.5668156147 4290614589
-0.2714301348 -0.1436569989 0.5660603642 4290483003
-0.2710675895 -0.1428370327 0.5653042793 4290614589
-0.2711263001 -0.1422397345 0.5654267073 4290614589
-0.2707630396 -0.1414217800 0.5646691918 4290614843
-0.2708212137 -0.1408246309 0.5647904873 4290614843
-0.2704572380 -0.1400086880 0.5640314221 4290615357
-0.2705148757 -0.1394117177 0.5641516447 4290549564
-0.2705723047 -0.1388143748 0.5642713904 4290352187
-0.2702072859 -0.1380010098 0.5635101795 4290549566
-0.2702641785 -0.1374038309 0.5636288524 4290878531
-0.2698984742 -0.1365925223 0.5628661513 4290878531
-0.2699548304 -0.1359955221 0.5629836917 4290681404
-0.2695884109 -0.1351862550 0.5622195005 4290812990
-0.2696442306 -0.1345894486 0.5623359084 4290879293
-0.2696998119 -0.1339922845 0.5624518394 4290681914
-0.2693323791 -0.1331856549 0.5616855621 4290747454
-0.2693874240 -0.1325886846 0.5618003607 4290747454
-0.2694422603 -0.1319913417 0.5619147420 4290747197
-0.2694968581 -0.1313936412 0.5620285869 4290812990
-0.2695512474 -0.1307955682 0.5621420145 4290944576
-0.2700286508 -0.1304015368 0.5631375909 4291010369
-0.2705059946 -0.1300052553 0.5641331077 4290945087
-0.2705598474 -0.1294042319 0.5642454624 4291010880
-0.2706134915 -0.1288028359 0.5643572807 4291011392
-0.2706668973 -0.1282010972 0.5644686818 4290945599
-0.2707200944 -0.1275990009 0.5645796061 4291010879
-0.2707730532 -0.1269965470 0.5646900535 4291142465
-0.2712495923 -0.1265915483 0.5656838417 4291339842
-0.2713021636 -0.1259874403 0.5657935143 4291405635
-0.2713544965 -0.1253829896 0.5659026504 4291340355
-0.2714066207 -0.1247781888 0.5660113692 4291274562
-0.2714585066 -0.1241730452 0.5661195517 4291340355
-0.2719343901 -0.1237606257 0.5671119690 4291208769
-0.2719858885 -0.1231538355 0.5672193766 4291142976
-0.2720371485 -0.1225467101 0.5673262477 4291077183
-0.2720881701 -0.1219392344 0.5674327016 4291077183
-0.2721389532 -0.1213314235 0.5675386190 4291142976
-0.2721894979 -0.1207232699 0.5676440597 4291274562
-0.2722398341 -0.1201147810 0.5677489638 4291471941
-0.2727147043 -0.1196923852 0.5687393546 4291208769
-0.2727646232 -0.1190822721 0.5688434243 4291077183
-0.2728143334 -0.1184718236 0.5689470768 4291011390
-0.2728637755 -0.1178610474 0.5690501928 4291208769
-0.2729129791 -0.1172499359 0.5691528320 4291471943
-0.2729619741 -0.1166384891 0.5692549944 4291735115
-0.2730107009 -0.1160267219 0.5693566203 4291735885
-0.2730591893 -0.1154146269 0.5694577694 4291801678
-0.2735328674 -0.1149810180 0.5704455376 4291670092
-0.2735809386 -0.1143673211 0.5705458522 4291801678
-0.2736288011 -0.1137532964 0.5706456304 4291801678
-0.2741020322 -0.1133149043 0.5716325641 4291999057
-0.2741494775 -0.1126992851 0.5717315078 4292196436
-0.2737708986 -0.1119093001 0.5709420443 4292130643
-0.2742436528 -0.1114670858 0.5719279051 4291998802
-0.2747162879 -0.1110226437 0.5729135275 4292130388
-0.2747628093 -0.1104047969 0.5730106235 4292263005
-0.2752351761 -0.1099568531 0.5739957094 4292328798
-0.2752813101 -0.1093374193 0.5740919113 4292330087
-0.2753272057 -0.1087176800 0.5741875768 4292659052
-0.2757990956 -0.1082649678 0.5751717687 4292660341
-0.2758445740 -0.1076436490 0.5752665401 4292791927
-0.2763161957 -0.1071874425 0.5762501359 4292857981
-0.2767876983 -0.1067290008 0.5772334933 4292989567
-0.2772591114 -0.1062683389 0.5782166123 4292792190
-0.2777304053 -0.1058054417 0.5791994929 4293252741
-0.2782016098 -0.1053403243 0.5801821351 4293187742
-0.2790994346 -0.1050335839 0.5820544958 4293319328
-0.2849805355 -0.1664017439 0.5956991911 4291014571
-0.2850480974 -0.1657791734 0.5958404541 4288053630
-0.2846967876 -0.1649136543 0.5951060653 4288835160
-0.2847638130 -0.1642911136 0.5952461958 4288835160
-0.2844117582 -0.1634274423 0.5945102572 4289028661
-0.2840592563 -0.1625651866 0.5937734246 4289423419
-0.2832872868 -0.1614654511 0.5921598077 4288833339
-0.2825147212 -0.1603689790 0.5905448794 4289096511
-0.2813222706 -0.1590387225 0.5880522728 4289491520
-0.2797096670 -0.1574774384 0.5846813917 4289294141
-0.2780960798 -0.1559231132 0.5813084841 4289097778
-0.2769010365 -0.1546099782 0.5788104534 4289953087
-0.2757051885 -0.1533019543 0.5763108134 4290546756
-0.2745085657 -0.1519990414 0.5738095045 4290415170
-0.2737309933 -0.1509327441 0.5721840858 4290350656
-0.2733727396 -0.1501003057 0.5714352727 4290416449
-0.2730140984 -0.1492692977 0.5706855655 4289956411
-0.2726550102 -0.1484397501 0.5699349642 4289693239
-0.2722955346 -0.1476116478 0.5691835880 4289955644
-0.2719356716 -0.1467849761 0.5684313178 4289889851
-0.2715753913 -0.1459597796 0.5676782131 4289889337
-0.2716351748 -0.1453610510 0.5678032041 4290218302
-0.2712741792 -0.1445378363 0.5670486093 4290417980
-0.2713334560 -0.1439392418 0.5671725273 4290483773
-0.2709717453 -0.1431180239 0.5664163828 4290680634
-0.2706096172 -0.1422982812 0.5656594634 4290614841
-0.2706680596 -0.1417003870 0.5657815933 4290483255
-0.2703052163 -0.1408826560 0.5650231838 4290680634
-0.2703631222 -0.1402849108 0.5651441813 4290549567
-0.2699995637 -0.1394692063 0.5643842220 4290286395
-0.2700569332 -0.1388716251 0.5645041466 4290417727
-0.2701140642 -0.1382736713 0.5646235943 4290549313
-0.2697494924 -0.1374605596 0.5638614893 4290746946
-0.2698060870 -0.1368627846 0.5639798045 4290812739
-0.2694408298 -0.1360517144 0.5632162690 4290746945
-0.2694968879 -0.1354541183 0.5633335114 4290878531
-0.2691308856 -0.1346451044 0.5625684261 4290944324
-0.2691864371 -0.1340477169 0.5626845360 4290878531
-0.2692417502 -0.1334499419 0.5628001690 4290813501
-0.2688747346 -0.1326435804 0.5620329976 4290747708
-0.2689295113 -0.1320460141 0.5621474981 4290747708
-0.2698285878 -0.1318607926 0.5640268326 4290813501
-0.2698830664 -0.1312606186 0.5641407371 4290879294
-0.2699373364 -0.1306600869 0.5642541647 4290945087
-0.2699913681 -0.1300591975 0.5643671155 4291010879
-0.2700451910 -0.1294579357 0.5644795895 4291010879
-0.2700987756 -0.1288563162 0.5645916462 4291011392
-0.2705748975 -0.1284550577 0.5655868649 4291011392
-0.2706281245 -0.1278517842 0.5656980872 4291076672
-0.2706810832 -0.1272481680 0.5658088326 4291142465
-0.2707338333 -0.1266441792 0.5659191012 4291208771
-0.2707863450 -0.1260398477 0.5660288930 4291340357
-0.2708386481 -0.1254351735 0.5661382079 4291340355
-0.2708907127 -0.1248301417 0.5662469864 4291274562
-0.2713658810 -0.1244188622 0.5672402382 4291208258
-0.2714175582 -0.1238121837 0.5673482418 4291142465
-0.2714689970 -0.1232051700 0.5674557686 4291142465
-0.2715201974 -0.1225978062 0.5675628185 4291076672
-0.2715711594 -0.1219900995 0.5676693916 4291142465
-0.2716219127 -0.1213820502 0.5677754283 4291208258
-0.2716723979 -0.1207736656 0.5678809881 4291274051
-0.2721465826 -0.1203524023 0.5688721538 4291339844
-0.2721966803 -0.1197423860 0.5689769387 4291077185
-0.2722465694 -0.1191320345 0.5690811872 4291077185
-0.2722961903 -0.1185213551 0.5691848993 4291077185
-0.2723456025 -0.1179103330 0.5692881942 4291274564
-0.2723947465 -0.1172989830 0.5693909526 4291537481
-0.2724436820 -0.1166873053 0.5694932342 4291800653
-0.2724923491 -0.1160752922 0.5695949793 4291866446
-0.2729653418 -0.1156428084 0.5705836415 4291866446
-0.2730136216 -0.1150291935 0.5706845522 4291670350
-0.2730616629 -0.1144152507 0.5707849860 4291736143
-0.2731094658 -0.1138009876 0.5708848834 4291801936
-0.2735818326 -0.1133624315 0.5718722939 4291933522
-0.2736292183 -0.1127465665 0.5719713569 4292064595
-0.2741013467 -0.1123045012 0.5729582310 4292130388
-0.2741483152 -0.1116870418 0.5730564594 4292130390
-0.2741950750 -0.1110692695 0.5731541514 4292196183
-0.2746667266 -0.1106224209 0.5741401315 4292263007
-0.2747130692 -0.1100030616 0.5742369294 4292394593
-0.2747591436 -0.1093833819 0.5743332505 4292330089
-0.2752303779 -0.1089317650 0.5753182769 4292659054
-0.2752760351 -0.1083105057 0.5754137039 4292857207
-0.2757469714 -0.1078553870 0.5763981342 4292988793
-0.2762178183 -0.1073980406 0.5773823261 4293054847
-0.2766885459 -0.1069384664 0.5783663392 4293186433
-0.2771591842 -0.1064766571 0.5793500543 4292924039
-0.2776296735 -0.1060126200 0.5803335905 4293318797
-0.2781000733 -0.1055463552 0.5813168883 4293188011
-0.2789963186 -0.1052385345 0.5831902623 4293648562
-0.2836664021 -0.1653595120 0.5943320394 4289108377
-0.2837334871 -0.1647381037 0.5944725871 4288442202
-0.2833823562 -0.1638745666 0.5937369466 4288244823
-0.2834489048 -0.1632531881 0.5938763618 4289028150
-0.2830970287 -0.1623915285 0.5931391716 4289225529
-0.2827447653 -0.1615312546 0.5924010873 4288767546
-0.2819737196 -0.1604343504 0.5907856226 4288964925
-0.2807836235 -0.1591035873 0.5882921219 4289360451
-0.2791741490 -0.1575417072 0.5849199891 4289163072
-0.2784009874 -0.1564573199 0.5833001137 4288638005
-0.2772084773 -0.1551418304 0.5808015466 4289493314
-0.2760151923 -0.1538314521 0.5783013701 4290414918
-0.2752400339 -0.1527587026 0.5766773224 4290414918
-0.2740452290 -0.1514576524 0.5741739869 4290481472
-0.2732687891 -0.1503923833 0.5725471973 4290547265
-0.2729109526 -0.1495601535 0.5717974901 4290152506
-0.2725527287 -0.1487293541 0.5710469484 4289889334
-0.2721940875 -0.1479000151 0.5702955127 4290152509
-0.2718350291 -0.1470721215 0.5695432425 4290086716
-0.2714755833 -0.1462456733 0.5687901378 4289692476
-0.2715354264 -0.1456457973 0.5689154863 4289758269
-0.2711752355 -0.1448213458 0.5681608319 4290614087
-0.2712345421 -0.1442216039 0.5682851076 4290285122
-0.2708736658 -0.1433991492 0.5675289631 4290153528
-0.2705123723 -0.1425781548 0.5667720437 4290548286
-0.2701506913 -0.1417586505 0.5660142303 4290548286
-0.2702088356 -0.1411601305 0.5661360025 4290745665
-0.2698464096 -0.1403426379 0.5653767586 4290548294
-0.2699040174 -0.1397442967 0.5654974580 4290548294
-0.2695409060 -0.1389288306 0.5647366643 4290351685
-0.2695979774 -0.1383306533 0.5648562312 4290483271
-0.2692341506 -0.1375172138 0.5640939474 4290549567
-0.2688699365 -0.1367052794 0.5633308291 4290681153
-0.2689261734 -0.1361078471 0.5634486675 4290812987
-0.2689821720 -0.1355100274 0.5635659695 4290944573
-0.2690379620 -0.1349118352 0.5636828542 4291075643
-0.2690935135 -0.1343132704 0.5637992620 4291075643
-0.2687276602 -0.1335050911 0.5630326867 4290747708
-0.2692039609 -0.1331150532 0.5640307069 4290747708
-0.2692588568 -0.1325153857 0.5641456842 4290813501
-0.2693135142 -0.1319153458 0.5642601848 4290945087
-0.2697894871 -0.1315204501 0.5652574897 4290945087
-0.2698437870 -0.1309187561 0.5653712153 4290945087
-0.2698978484 -0.1303166896 0.5654844642 4290945086
-0.2699517012 -0.1297142655 0.5655972958 4291076672
-0.2700052857 -0.1291114837 0.5657095909 4291010879
-0.2700586915 -0.1285083294 0.5658214688 4291076672
-0.2705338895 -0.1281046867 0.5668171048 4291142465
-0.2705868781 -0.1274998933 0.5669281483 4291208258
-0.2706396580 -0.1268947423 0.5670387149 4291208258
-0.2706921995 -0.1262892336 0.5671488047 4291274051
-0.2707445025 -0.1256833673 0.5672584176 4291274051
-0.2707965970 -0.1250771582 0.5673674941 4291208258
-0.2708484530 -0.1244705990 0.5674761534 4291141953
-0.2713226974 -0.1240569353 0.5684697628 4291141953
-0.2713741362 -0.1234487295 0.5685775876 4291076673
-0.2714253664 -0.1228401884 0.5686849356 4291076673
-0.2714763880 -0.1222312972 0.5687918067 4291142466
-0.2715271413 -0.1216220707 0.5688981414 4291208259
-0.2715776563 -0.1210124940 0.5690039992 4291208259
-0.2716279626 -0.1204025820 0.5691093802 4291208259
-0.2721011937 -0.1199789271 0.5701008439 4290945344
-0.2721510828 -0.1193673909 0.5702053905 4291076930
-0.2722007334 -0.1187555119 0.5703094602 4291274309
-0.2722501755 -0.1181433052 0.5704129934 4291405895
-0.2722993493 -0.1175307706 0.5705160499 4291603274
-0.2723483145 -0.1169179007 0.5706186295 4291800653
-0.2723970115 -0.1163046956 0.5707206726 4291735630
-0.2724454701 -0.1156911701 0.5708222389 4291735630
-0.2729175091 -0.1152562797 0.5718111992 4291736143
-0.2729655504 -0.1146411449 0.5719118714 4291801936
-0.2734373212 -0.1142027453 0.5729002953 4291867729
-0.2734849751 -0.1135860011 0.5730001330 4291999315
-0.2735323906 -0.1129689440 0.5730994940 4291999315
-0.2735795677 -0.1123515591 0.5731983185 4292065108
-0.2736265063 -0.1117338613 0.5732966661 4292130903
-0.2736731768 -0.1111158431 0.5733944774 4292196696
-0.2741439939 -0.1106688231 0.5743809342 4292263007
-0.2741902769 -0.1100492179 0.5744779110 4292394593
-0.2746608257 -0.1095986962 0.5754637718 4292395882
-0.2747066915 -0.1089775041 0.5755598545 4292724847
-0.2751769423 -0.1085234806 0.5765451193 4292857209
-0.2752223909 -0.1079007089 0.5766403079 4293120381
-0.2756923735 -0.1074431837 0.5776250362 4293055362
-0.2761622369 -0.1069834232 0.5786095262 4293186948
-0.2770569324 -0.1066850647 0.5804840922 4293253268
-0.2775266767 -0.1062198877 0.5814682245 4293253268
-0.2784213424 -0.1059141830 0.5833427310 4293254072
-0.2822872400 -0.1649393588 0.5928220153 4290424242
-0.2823540270 -0.1643195748 0.5929622650 4288707946
-0.2824206054 -0.1636993438 0.5931020975 4287523672
-0.2824869752 -0.1630786657 0.5932414532 4288568888
-0.2817184031 -0.1619776338 0.5916274190 4288503095
-0.2822015882 -0.1615969837 0.5926421285 4288570169
-0.2814320624 -0.1604996622 0.5910261273 4288701755
-0.2802442908 -0.1591683775 0.5885316730 4288966210
-0.2794734836 -0.1580784768 0.5869129300 4288900417
-0.2782841921 -0.1567564607 0.5844153762 4288638268
-0.2775120735 -0.1556739956 0.5827938318 4289427784
-0.2759032547 -0.1541277468 0.5794152617 4290414926
-0.2755478621 -0.1532862633 0.5786688924 4290480719
-0.2743556201 -0.1519828588 0.5761650801 4290678090
-0.2739992142 -0.1511460990 0.5754166245 4290612297
-0.2732239962 -0.1500809491 0.5737885833 4290218048
-0.2728666961 -0.1492479891 0.5730382204 4290086462
-0.2725089788 -0.1484164745 0.5722870231 4289824068
-0.2721508443 -0.1475864202 0.5715349317 4289231931
-0.2717923224 -0.1467578113 0.5707820058 4288706878
-0.2714333832 -0.1459306628 0.5700281858 4289035843
-0.2714930177 -0.1453292370 0.5701534152 4289955908
-0.2711333930 -0.1445040852 0.5693981647 4290416459
-0.2703541815 -0.1434579641 0.5677617788 4290482755
-0.2699936330 -0.1426366717 0.5670046210 4290548548
-0.2696326673 -0.1418168396 0.5662465692 4290285116
-0.2696907520 -0.1412181109 0.5663685799 4290416702
-0.2693291008 -0.1404003054 0.5656090379 4290285376
-0.2693866491 -0.1398017406 0.5657299161 4290548548
-0.2690242827 -0.1389859617 0.5649688840 4290350917
-0.2695010602 -0.1386034489 0.5659701824 4290482503
-0.2691380680 -0.1377887726 0.5652078986 4290417731
-0.2687746882 -0.1369756013 0.5644447207 4290483524
-0.2688309252 -0.1363769919 0.5645628572 4290680383
-0.2688869834 -0.1357780248 0.5646805763 4290811969
-0.2689427733 -0.1351786703 0.5647977591 4290943297
-0.2689983547 -0.1345789582 0.5649144650 4290877504
-0.2690537274 -0.1339788586 0.5650307536 4290681402
-0.2686883807 -0.1331699938 0.5642635226 4290812988
-0.2687432170 -0.1325701028 0.5643786192 4290944573
-0.2687978148 -0.1319698393 0.5644932985 4291076159
-0.2692729235 -0.1315748096 0.5654910803 4291141952
-0.2693271637 -0.1309728771 0.5656049848 4291141952
-0.2693811655 -0.1303705871 0.5657184124 4291141952
-0.2694349587 -0.1297679394 0.5658313036 4291207745
-0.2694884837 -0.1291649193 0.5659437776 4291076159
-0.2699629664 -0.1287624240 0.5669402480 4291141952
-0.2700161636 -0.1281577647 0.5670518875 4291142465
-0.2700690925 -0.1275527328 0.5671631098 4291208258
-0.2701218128 -0.1269473433 0.5672737956 4291274051
-0.2701742947 -0.1263416111 0.5673840642 4291208258
-0.2702265680 -0.1257355213 0.5674937963 4291142465
-0.2702785730 -0.1251290739 0.5676030517 4290945086
-0.2707521021 -0.1247165501 0.5685974360 4291141953
-0.2708037496 -0.1241084635 0.5687059164 4291141953
-0.2708551586 -0.1235000342 0.5688138604 4291076673
-0.2709063292 -0.1228912547 0.5689213276 4291010880
-0.2713793218 -0.1224725991 0.5699146390 4291076673
-0.2714301050 -0.1218621880 0.5700213313 4291142466
-0.2714806497 -0.1212514341 0.5701274872 4291208259
-0.2715309858 -0.1206403300 0.5702331662 4291208259
-0.2715810537 -0.1200288981 0.5703383088 4291076930
-0.2716309130 -0.1194171235 0.5704429746 4291208516
-0.2716805041 -0.1188050136 0.5705471635 4291405895
-0.2721524835 -0.1183763817 0.5715383291 4291537481
-0.2722016871 -0.1177626550 0.5716416836 4291603274
-0.2722506523 -0.1171485856 0.5717445016 4291734860
-0.2722993791 -0.1165341958 0.5718468428 4291735630
-0.2723478675 -0.1159194708 0.5719487071 4291801423
-0.2723961473 -0.1153044254 0.5720500350 4291736913
-0.2724441588 -0.1146890447 0.5721508861 4291802706
-0.2729150355 -0.1142504811 0.5731397867 4291999315
-0.2729626596 -0.1136334985 0.5732397437 4291999315
-0.2730100155 -0.1130161956 0.5733392239 4292065110
-0.2730571330 -0.1123985723 0.5734381676 4292130903
-0.2735274434 -0.1119539291 0.5744258761 4292196442
-0.2735741436 -0.1113347113 0.5745239258 4292262235
-0.2736206353 -0.1107151806 0.5746215582 4292329060
-0.2736668587 -0.1100953296 0.5747185946 4292460646
-0.2741365433 -0.1096446291 0.5757049918 4292461422
-0.2746061087 -0.1091917008 0.5766911507 4292790387
-0.2746517360 -0.1085689962 0.5767869353 4292856957
-0.2751210332 -0.1081125587 0.5777724981 4293120129
-0.2755902410 -0.1076538935 0.5787578821 4293186695
-0.2760593295 -0.1071930006 0.5797429681 4293252488
-0.2769524157 -0.1068935692 0.5816185474 4293384351
-0.2774213552 -0.1064272448 0.5826033354 4293384351
-0.2813268006 -0.1647624820 0.5921862721 4290885561
-0.2811095715 -0.1626628935 0.5917289853 4287781692
-0.2807588577 -0.1618033499 0.5909907818 4287518520
-0.2812410891 -0.1614234746 0.5920058489 4288241206
-0.2804729939 -0.1603266746 0.5903890729 4288438585
-0.2801211774 -0.1594704092 0.5896484852 4288505918
-0.2789350450 -0.1581427902 0.5871517062 4288703297
-0.2785821855 -0.1572911888 0.5864089131 4288704324
-0.2773946524 -0.1559719294 0.5839092135 4289164875
-0.2762063146 -0.1546577811 0.5814077854 4289560398
-0.2754345238 -0.1535814404 0.5797832012 4289691984
-0.2746621370 -0.1525083929 0.5781573057 4289495372
-0.2738891542 -0.1514386088 0.5765302181 4289692751
-0.2731155753 -0.1503721178 0.5749018192 4289759316
-0.2727590799 -0.1495379359 0.5741514564 4289693523
-0.2724021971 -0.1487051845 0.5734001994 4288248396
-0.2720449269 -0.1478738785 0.5726481080 4286406192
-0.2716872096 -0.1470440328 0.5718951821 4284894760
-0.2713291049 -0.1462156475 0.5711414218 4285026346
-0.2709706128 -0.1453887075 0.5703867674 4286668851
-0.2706117034 -0.1445632428 0.5696312785 4287063609
-0.2702524066 -0.1437392384 0.5688748956 4287393076
-0.2698926926 -0.1429166943 0.5681177378 4288116799
-0.2695325613 -0.1420956254 0.5673596859 4289168961
-0.2691720426 -0.1412760317 0.5666007996 4289695305
-0.2688111365 -0.1404579133 0.5658410788 4289957697
-0.2688686252 -0.1398591101 0.5659620762 4290023490
-0.2689258754 -0.1392599493 0.5660826564 4290220609
-0.2685639262 -0.1384444088 0.5653207302 4290417988
-0.2686206698 -0.1378454119 0.5654401779 4290549315
-0.2682580054 -0.1370319128 0.5646768212 4290417729
-0.2683142126 -0.1364330947 0.5647950768 4290548547
-0.2683701813 -0.1358338892 0.5649129152 4290548547
-0.2684259415 -0.1352343261 0.5650302768 4290744644
-0.2684814632 -0.1346343756 0.5651471615 4290810437
-0.2685367465 -0.1340340525 0.5652635694 4290746425
-0.2685918510 -0.1334333718 0.5653795004 4290878011
-0.2686466873 -0.1328323185 0.5654949546 4290944574
-0.2687013149 -0.1322308928 0.5656099319 4291141953
-0.2687557042 -0.1316291094 0.5657244325 4291273538
-0.2692299187 -0.1312316805 0.5667225718 4291273538
-0.2692839205 -0.1306282282 0.5668363571 4291273538
-0.2693377435 -0.1300244033 0.5669496059 4291273538
-0.2693913281 -0.1294202209 0.5670623779 4291010366
-0.2694446743 -0.1288156807 0.5671746731 4291076159
-0.2699182034 -0.1284107864 0.5681715012 4291076670
-0.2699711919 -0.1278045923 0.5682829618 4291208256
-0.2700239420 -0.1271980256 0.5683940053 4291339842
-0.2700764239 -0.1265911162 0.5685045123 4291274049
-0.2701287270 -0.1259838492 0.5686146021 4291076670
-0.2701807618 -0.1253762245 0.5687241554 4290879291
-0.2702325881 -0.1247682646 0.5688332319 4290879294
-0.2707051635 -0.1243533418 0.5698280334 4291010880
