VERSION 0.7
FIELDS x y z rgba
SIZE 4 4 4 4
TYPE F F F U
COUNT 1 1 1 1
WIDTH 920
HEIGHT 1
VIEWPOINT 0.0 0.0 0.0 1.0 0.0 0.0 0.0
POINTS 920
DATA ascii
-0.3054592907 -0.1690892428 0.6101741195 4281286012
-0.3055300415 -0.1684502959 0.6103153825 4281154426
-0.3051658273 -0.1675722003 0.6095878482 4280957298
-0.3052359819 -0.1669332832 0.6097280383 4280957298
-0.3048710227 -0.1660570353 0.6089989543 4280891513
-0.3049406111 -0.1654181331 0.6091379523 4281088892
-0.3050099611 -0.1647788137 0.6092765331 4281089662
-0.3046438694 -0.1639049053 0.6085452437 4281155455
-0.3042773604 -0.1630323827 0.6078130603 4281221246
-0.3043457866 -0.1623935699 0.6079497933 4281155453
-0.3039785028 -0.1615229398 0.6072161198 4281090173
-0.3036107719 -0.1606536955 0.6064815521 4281090173
-0.3032426238 -0.1597858667 0.6057461500 4281221507
-0.3024382293 -0.1586907655 0.6041393280 4281418886
-0.3020691276 -0.1578266770 0.6034020185 4281682322
-0.3012636006 -0.1567371637 0.6017929316 4282011287
-0.3008935153 -0.1558768004 0.6010536551 4282143138
-0.3005230129 -0.1550178826 0.6003135443 4282340517
-0.3001520932 -0.1541603804 0.5995725989 4282471851
-0.3002170920 -0.1535274386 0.5997024179 4282537644
-0.2994089425 -0.1524496526 0.5980880857 4282342059
-0.2999098301 -0.1520390511 0.5990886688 4282276266
-0.2995373607 -0.1511854380 0.5983446836 4282210471
-0.2996012270 -0.1505527198 0.5984722376 4282342057
-0.3001016676 -0.1501381397 0.5994718671 4282866863
-0.3001651168 -0.1495036930 0.5995986462 4282998449
-0.3006653488 -0.1490855366 0.6005979180 4282997944
-0.3011655509 -0.1486651301 0.6015970111 4282997944
-0.3021028638 -0.1484573185 0.6034693718 4283065267
-0.3026030064 -0.1480314881 0.6044684649 4282604716
-0.3031030893 -0.1476034075 0.6054673791 4282142101
-0.3031656146 -0.1469610184 0.6055923104 4281286792
-0.3032279313 -0.1463182122 0.6057167649 4281154412
-0.3028523326 -0.1454648226 0.6049665213 4280825447
-0.3024762869 -0.1446128786 0.6042153835 4281221767
-0.3025376797 -0.1439707577 0.6043379903 4282406041
-0.3017229736 -0.1429134160 0.6027105451 4282603950
-0.3009076715 -0.1418593973 0.6010819077 4282669743
-0.3005298674 -0.1410142630 0.6003272533 4282801329
-0.3005897999 -0.1403752565 0.6004469395 4282932915
-0.3010877669 -0.1399395615 0.6014416814 4282932915
-0.3007089496 -0.1390960813 0.6006849408 4283064501
-0.3007681370 -0.1384559274 0.6008031964 4283130294
-0.3012655973 -0.1380162984 0.6017969251 4282998708
-0.3017629981 -0.1375744194 0.6027904749 4283064501
-0.3022603095 -0.1371302903 0.6037839055 4283064501
-0.3027575314 -0.1366839260 0.6047771573 4283196087
-0.3036935329 -0.1364324689 0.6066468358 4283196087
-0.3046296239 -0.1361768991 0.6085167527 4283393466
-0.3051267564 -0.1357219219 0.6095098257 4283854017
-0.3065020442 -0.1356533915 0.6122570038 4283722431
-0.3074383438 -0.1353854537 0.6141273975 4283064501
-0.3083747327 -0.1351133883 0.6159978509 4282669741
-0.3088718355 -0.1346456707 0.6169908643 4282669741
-0.3098082840 -0.1343662888 0.6188614964 4282406569
-0.3103052676 -0.1338931322 0.6198542118 4282274983
-0.3108021617 -0.1334177256 0.6208468080 4282274983
-0.3112989366 -0.1329400688 0.6218391061 4282209190
-0.3117956221 -0.1324601769 0.6228312850 4282143397
-0.3122921884 -0.1319780201 0.6238232255 4282011811
-0.3127886355 -0.1314936131 0.6248149276 4282274983
-0.3128449917 -0.1308229566 0.6249274611 4282143397
-0.3133411705 -0.1303350031 0.6259186268 4282077858
-0.3138372004 -0.1298447996 0.6269094944 4282077858
-0.3143331707 -0.1293523461 0.6279001832 4282077858
-0.3148289919 -0.1288576424 0.6288906336 4282012065
-0.3153246939 -0.1283606887 0.6298808455 4282012065
-0.3158202767 -0.1278614849 0.6308708191 4282143651
-0.3163157701 -0.1273600459 0.6318605542 4282209442
-0.3168111145 -0.1268563420 0.6328500509 4282406821
-0.3177470565 -0.1265258938 0.6347196102 4282341798
-0.3178014457 -0.1258422136 0.6348283291 4282276005
-0.3182964325 -0.1253317744 0.6358170509 4282276005
-0.3187912703 -0.1248190925 0.6368055344 4282341798
-0.3192859888 -0.1243041605 0.6377937794 4282669993
-0.3197805882 -0.1237869859 0.6387817860 4282801579
-0.3198339045 -0.1230977699 0.6388882399 4283064491
-0.3203281462 -0.1225770488 0.6398755908 4283196077
-0.3208222687 -0.1220540851 0.6408625841 4283392928
-0.3213162422 -0.1215288788 0.6418493390 4283524514
-0.3213686645 -0.1208354384 0.6419540644 4283523726
-0.3218622804 -0.1203066930 0.6429401040 4285168551
-0.3223557770 -0.1197757050 0.6439258456 4288063176
-0.3224074841 -0.1190793514 0.6440291405 4290563310
-0.3224588931 -0.1183826625 0.6441318393 4292207095
-0.3110619187 -0.1877956688 0.6227473617 4292600814
-0.3115711212 -0.1874100268 0.6237667203 4292074470
-0.3116486371 -0.1867634356 0.6239219308 4291547874
-0.3117259145 -0.1861163527 0.6240766644 4290429393
-0.3118029833 -0.1854687929 0.6242309213 4289047743
-0.3118797839 -0.1848207563 0.6243847013 4287402918
-0.3115243316 -0.1839171499 0.6236730814 4285692046
-0.3120327592 -0.1835232526 0.6246909499 4284902530
-0.3112443089 -0.1823672056 0.6231124997 4284639360
-0.3108876050 -0.1814666688 0.6223983765 4284244602
-0.3105304837 -0.1805674732 0.6216833591 4284245893
-0.3097403049 -0.1794190109 0.6201013923 4284509065
-0.3093821704 -0.1785233915 0.6193844080 4284048514
-0.3085907698 -0.1773803085 0.6178001165 4282995826
-0.3077987432 -0.1762403995 0.6162144542 4282009707
-0.3074390888 -0.1753506064 0.6154944301 4281746535
-0.3070789874 -0.1744621545 0.6147735119 4281484404
-0.3067184687 -0.1735750735 0.6140516996 4281615990
-0.3063574731 -0.1726893336 0.6133289933 4281287293
-0.3059960604 -0.1718049645 0.6126054525 4281287293
-0.3056342304 -0.1709219515 0.6118810177 4281417857
-0.3057055473 -0.1702818424 0.6120238900 4281286271
-0.3053429425 -0.1694006622 0.6112979054 4281286010
-0.3049798608 -0.1685208529 0.6105710268 4281220217
-0.3050503135 -0.1678812355 0.6107120514 4281088884
-0.3046864867 -0.1670032591 0.6099836826 4281154677
-0.3043222129 -0.1661266834 0.6092544198 4281023351
-0.3043917418 -0.1654875576 0.6093935966 4281220730
-0.3040266931 -0.1646128297 0.6086627841 4281221248
-0.3040956557 -0.1639737487 0.6088008285 4281287041
-0.3037298322 -0.1631008834 0.6080684662 4281287041
-0.3033636212 -0.1622294188 0.6073352695 4281287041
-0.3029969335 -0.1613593698 0.6066011786 4281155964
-0.3030646443 -0.1607212871 0.6067367792 4281155964
-0.3022623062 -0.1596234441 0.6051304340 4281155964
-0.3018943369 -0.1587575972 0.6043937802 4281155964
-0.3015259206 -0.1578931659 0.6036562324 4281418886
-0.3011571169 -0.1570301503 0.6029178500 4281813644
-0.3003525436 -0.1559425443 0.6013071537 4282142620
-0.2999827862 -0.1550832838 0.6005668044 4282537378
-0.2996125519 -0.1542254388 0.5998256803 4282603437
-0.2992419302 -0.1533690244 0.5990836620 4282669230
-0.2988708615 -0.1525140554 0.5983407497 4282604977
-0.2984993756 -0.1516605020 0.5975970626 4282539184
-0.2981274426 -0.1508083940 0.5968524814 4282407848
-0.2986270189 -0.1503968388 0.5978525877 4282407848
-0.2986904681 -0.1497644037 0.5979796052 4282801070
-0.2987536788 -0.1491315663 0.5981062055 4282932656
-0.2992528975 -0.1487151086 0.5991055965 4282997946
-0.2993157208 -0.1480805427 0.5992313623 4282997946
-0.2998147309 -0.1476605088 0.6002303958 4283065269
-0.3007501662 -0.1474522352 0.6021031141 4282407339
-0.3012491167 -0.1470267773 0.6031020880 4282536607
-0.3013113439 -0.1463869214 0.6032266021 4282010263
-0.3013733029 -0.1457466632 0.6033506989 4281154928
-0.3014350235 -0.1451060027 0.6034742594 4280825963
-0.3010595441 -0.1442555934 0.6027225256 4281550736
-0.3006836474 -0.1434066445 0.6019700170 4282340252
-0.3003073335 -0.1425591707 0.6012166142 4282538158
-0.2999305725 -0.1417131573 0.6004623175 4282603951
-0.2995534241 -0.1408686340 0.5997072458 4282801330
-0.2991758287 -0.1400255859 0.5989512801 4282932916
-0.2996727526 -0.1395916045 0.5999462008 4282867122
-0.2997320592 -0.1389525086 0.6000649333 4282998708
-0.2997911274 -0.1383130401 0.6001831293 4282998708
-0.2998499274 -0.1376731843 0.6003008485 4282801329
-0.3003462851 -0.1372330189 0.6012945771 4282867122
-0.3008425832 -0.1367905885 0.6022881866 4282932915
-0.3017767966 -0.1365441084 0.6041584611 4282998195
-0.3022730052 -0.1360962689 0.6051518917 4283063988
-0.3032073081 -0.1358424723 0.6070223451 4283458746
-0.3041416705 -0.1355845630 0.6088929772 4283985090
-0.3055144548 -0.1355169713 0.6116412878 4283459259
-0.3064490557 -0.1352498680 0.6135123968 4282406571
-0.3078222573 -0.1351712048 0.6162614822 4282538157
-0.3083184958 -0.1347033083 0.6172549725 4282603950
-0.3092533052 -0.1344238371 0.6191264987 4282472362
-0.3097494543 -0.1339505017 0.6201197505 4282472362
-0.3102455139 -0.1334749162 0.6211128831 4282406569
-0.3107414544 -0.1329970658 0.6221057177 4282209190
-0.3112372756 -0.1325169802 0.6230983734 4282209190
-0.3117330074 -0.1320346445 0.6240908504 4282340776
-0.3122286201 -0.1315500438 0.6250830889 4282077604
-0.3127241433 -0.1310632080 0.6260750890 4282143397
-0.3127802610 -0.1303909868 0.6261874437 4282012581
-0.3132754564 -0.1299005896 0.6271788478 4282012581
-0.3137705624 -0.1294079423 0.6281700730 4282078374
-0.3142655492 -0.1289130449 0.6291610003 4281946788
-0.3147604167 -0.1284158975 0.6301517487 4281880995
-0.3152551651 -0.1279165000 0.6311422586 4282078374
-0.3157498240 -0.1274148524 0.6321325302 4282209440
-0.3162443340 -0.1269109696 0.6331225038 4282406819
-0.3167387247 -0.1264048219 0.6341122985 4282210209
-0.3172329962 -0.1258964390 0.6351017952 4282078623
-0.3177271187 -0.1253857911 0.6360911131 4282144417
-0.3182211220 -0.1248729080 0.6370801330 4282210210
-0.3182747960 -0.1241860092 0.6371875405 4282538405
-0.3187685013 -0.1236695722 0.6381759048 4282669991
-0.3192620277 -0.1231508926 0.6391639709 4282998178
-0.3193150163 -0.1224610582 0.6392700672 4282998178
-0.3198082149 -0.1219388321 0.6402574778 4282997908
-0.3198607266 -0.1212473586 0.6403625607 4284050596
-0.3203535676 -0.1207216009 0.6413492560 4286023341
-0.3204055727 -0.1200284958 0.6414533854 4288984026
-0.3208980858 -0.1194992065 0.6424393654 4291155439
-0.3097147048 -0.1867085546 0.6214320064 4292206058
-0.3102226853 -0.1863231957 0.6224512458 4291613667
-0.3098687232 -0.1854197979 0.6217409968 4290758358
-0.3099453747 -0.1847747117 0.6218948364 4289639877
-0.3104529977 -0.1843852252 0.6229133606 4288324017
-0.3105292916 -0.1837382764 0.6230664253 4286613399
-0.3101739883 -0.1828365475 0.6223534942 4285363332
-0.3102497160 -0.1821895540 0.6225054860 4284903296
-0.3098936379 -0.1812895834 0.6217910051 4284574331
-0.3095370829 -0.1803909391 0.6210755706 4284245378
-0.3091801107 -0.1794936359 0.6203593016 4284047999
-0.3083907664 -0.1783478856 0.6187755466 4284442759
-0.3076007664 -0.1772052795 0.6171904802 4284376966
-0.3072422743 -0.1763138026 0.6164711118 4282863988
-0.3068833053 -0.1754236668 0.6157509089 4281284956
-0.3065239191 -0.1745348871 0.6150298119 4280694110
-0.3061640859 -0.1736474633 0.6143078208 4281154661
-0.3058038354 -0.1727613956 0.6135849953 4281221232
-0.3058757782 -0.1721201390 0.6137292981 4281155439
-0.3055147529 -0.1712358892 0.6130049229 4281024372
-0.3055860996 -0.1705946475 0.6131480932 4280958579
-0.3052242994 -0.1697122157 0.6124221683 4280695668
-0.3048620522 -0.1688311696 0.6116952896 4280629875
-0.3049325347 -0.1681903899 0.6118366718 4280498547
-0.3045695126 -0.1673111767 0.6111083031 4280301168
-0.3042060435 -0.1664333493 0.6103790998 4281286010
-0.3038421869 -0.1655569077 0.6096489429 4281220217
-0.3039113879 -0.1649170965 0.6097878218 4281286522
-0.3035467267 -0.1640425175 0.6090561748 4281549694
-0.3031816483 -0.1631693244 0.6083236337 4281484671
-0.3028161228 -0.1622975320 0.6075902581 4281484671
-0.3024501801 -0.1614271402 0.6068559885 4281419391
-0.3020837903 -0.1605581343 0.6061208248 4281419391
-0.3017169833 -0.1596905440 0.6053848267 4281353856
-0.3013497293 -0.1588243693 0.6046479344 4281222270
-0.3009820580 -0.1579595953 0.6039102077 4281091204
-0.3001795411 -0.1568692327 0.6022999883 4281551755
-0.2993763983 -0.1557821184 0.6006885171 4281880730
-0.2990072370 -0.1549234390 0.5999478102 4282078109
-0.2986376584 -0.1540661901 0.5992062688 4282472879
-0.2982676625 -0.1532103568 0.5984638333 4282670258
-0.2978972197 -0.1523559690 0.5977206230 4282999223
-0.2975263596 -0.1515030116 0.5969764590 4282867637
-0.2971550524 -0.1506514996 0.5962315202 4282408365
-0.2972185016 -0.1500210613 0.5963588357 4282342572
-0.2972817421 -0.1493902355 0.5964856744 4282538157
-0.2973447144 -0.1487590075 0.5966119766 4282603950
-0.2974074483 -0.1481273621 0.5967378616 4282932654
-0.2974699438 -0.1474953443 0.5968632698 4282998447
-0.2979678214 -0.1470779330 0.5978622437 4282867890
-0.2989013493 -0.1468723863 0.5997353792 4282802097
-0.2989633977 -0.1462363750 0.5998598337 4282735273
-0.2990251780 -0.1455999762 0.5999838114 4282274722
-0.2995227277 -0.1451745033 0.6009821296 4281287791
-0.2995841205 -0.1445363909 0.6011053324 4281221998
-0.2996452749 -0.1438978910 0.6012279987 4281748632
-0.2992699146 -0.1430504620 0.6004748940 4282538148
-0.2988941371 -0.1422045082 0.5997208953 4282471851
-0.2985179424 -0.1413600445 0.5989660621 4282603437
-0.2981413305 -0.1405170411 0.5982103944 4282932656
-0.2982009053 -0.1398803294 0.5983299613 4283130035
-0.2982602119 -0.1392432302 0.5984489918 4283064242
-0.2983193099 -0.1386057585 0.5985674858 4283130035
-0.2983781099 -0.1379679143 0.5986855030 4283064499
-0.2988736331 -0.1375307441 0.5996797681 4282998706
-0.2993690968 -0.1370913535 0.6006738544 4282670513
-0.2998644710 -0.1366496980 0.6016678214 4282933685
-0.3003597558 -0.1362058073 0.6026616096 4282736306
-0.3012922406 -0.1359569877 0.6045325994 4283065271
-0.3022248149 -0.1357040554 0.6064038277 4283460287
-0.3031574786 -0.1354469955 0.6082751751 4283262908
-0.3045277596 -0.1353803277 0.6110245585 4282933945
-0.3054606616 -0.1351140738 0.6128963828 4282473394
-0.3068313301 -0.1350363344 0.6156466007 4282604720
-0.3077644408 -0.1347609013 0.6175188422 4282473134
-0.3086976409 -0.1344813257 0.6193912625 4282604720
-0.3091929257 -0.1340077966 0.6203850508 4282538927
-0.3101261556 -0.1337209046 0.6222575903 4282209962
-0.3106213510 -0.1332419366 0.6232511401 4281946790
-0.3106782138 -0.1325737387 0.6233652830 4282012579
-0.3111731112 -0.1320912093 0.6243582368 4282209958
-0.3116678894 -0.1316064298 0.6253510118 4281880475
-0.3121625781 -0.1311194003 0.6263435483 4281814682
-0.3126571178 -0.1306301206 0.6273358464 4281814937
-0.3127129972 -0.1299563199 0.6274479628 4281946523
-0.3136459291 -0.1296448112 0.6293198466 4282012061
-0.3137013912 -0.1289683878 0.6294311881 4281814682
-0.3141954243 -0.1284710616 0.6304224133 4281617307
-0.3146893382 -0.1279714704 0.6314134598 4281617307
-0.3151831329 -0.1274696290 0.6324042082 4281354901
-0.3152377605 -0.1267889440 0.6325138211 4281683866
-0.3161703646 -0.1264591962 0.6343850493 4281749661
-0.3166637719 -0.1259506047 0.6353750825 4281683868
-0.3171570897 -0.1254397631 0.6363648772 4282143647
-0.3172109127 -0.1247538850 0.6364728808 4282209440
-0.3177038729 -0.1242394969 0.6374620199 4282208402
-0.3181967139 -0.1237228587 0.6384508610 4282142609
-0.3182498515 -0.1230340376 0.6385574937 4282537094
-0.3183027208 -0.1223448664 0.6386635303 4283458196
-0.3183552921 -0.1216553599 0.6387690306 4285366179
-0.3188473880 -0.1211325899 0.6397563815 4287800520
-0.3188994825 -0.1204414517 0.6398609281 4290168801
-0.3189512789 -0.1197499707 0.6399648786 4291418868
-0.3082922697 -0.1862661541 0.6199595332 4292469230
-0.3087991774 -0.1858824641 0.6209788918 4292271851
-0.3084456921 -0.1849805266 0.6202680469 4291613921
-0.3085220754 -0.1843369901 0.6204216480 4290626772
-0.3090286255 -0.1839491874 0.6214402914 4289442498
-0.3091046512 -0.1833038032 0.6215931177 4287929259
-0.3091804385 -0.1826579422 0.6217455268 4286547606
-0.3088252842 -0.1817581058 0.6210313439 4285298054
-0.3089005053 -0.1811122149 0.6211826205 4284179573
-0.3085445464 -0.1802141368 0.6204668283 4284377219
-0.3081881702 -0.1793173999 0.6197502017 4284114047
-0.3078313768 -0.1784219891 0.6190326810 4284245378
-0.3070428669 -0.1772789508 0.6174470186 4284705929
-0.3066850603 -0.1763871312 0.6167275310 4284574860
-0.3063268363 -0.1754966676 0.6160071492 4283851137
-0.3063997030 -0.1748538315 0.6161536574 4282338674
-0.3060407043 -0.1739651710 0.6154317260 4281154400
-0.3056812584 -0.1730778515 0.6147089005 4281155177
-0.3053213656 -0.1721919030 0.6139851809 4281089384
-0.3053930104 -0.1715499610 0.6141292453 4281221232
-0.3050323427 -0.1706658304 0.6134039760 4281287025
-0.3051034212 -0.1700239033 0.6135469079 4280958577
-0.3047419786 -0.1691416055 0.6128200889 4280826991
-0.3048124909 -0.1684996784 0.6129618287 4280761970
-0.3044502735 -0.1676192284 0.6122334599 4280696177
-0.3040876389 -0.1667401493 0.6115042567 4281352056
-0.3037245870 -0.1658624560 0.6107740998 4281352056
-0.3033610880 -0.1649861485 0.6100431085 4281549435
-0.3034299910 -0.1643456668 0.6101817489 4281615228
-0.3026327789 -0.1632377058 0.6085785627 4281615487
-0.3022679687 -0.1623655707 0.6078449488 4281615487
-0.3023358881 -0.1617265344 0.6079815030 4281682048
-0.3019703031 -0.1608562917 0.6072463989 4281747841
-0.3016043007 -0.1599874496 0.6065104008 4281550975
-0.3008044362 -0.1588910669 0.6049019098 4281485182
-0.3004374802 -0.1580259651 0.6041639447 4281353858
-0.2996364832 -0.1569351703 0.6025531888 4281682823
-0.2988348603 -0.1558476239 0.6009411216 4281946008
-0.2984664142 -0.1549886167 0.6002002358 4282274973
-0.2976636589 -0.1539066732 0.5985859036 4282603950
-0.2972942591 -0.1530514359 0.5978431106 4282867122
-0.2969244719 -0.1521976441 0.5970994234 4283064502
-0.2965542376 -0.1513452679 0.5963549018 4282998709
-0.2961835563 -0.1504943520 0.5956095457 4282605231
-0.2958124876 -0.1496448666 0.5948633552 4282539438
-0.2958754599 -0.1490156353 0.5949899554 4282801329
-0.2959381938 -0.1483860165 0.5951160789 4282735536
-0.2960006893 -0.1477559954 0.5952417850 4282866863
-0.2960629165 -0.1471255720 0.5953669548 4282866863
-0.2965597808 -0.1467098743 0.5963661075 4282999478
-0.2970565557 -0.1462919116 0.5973650813 4282538927
-0.2971182764 -0.1456584483 0.5974891782 4283063724
-0.2971797287 -0.1450245976 0.5976127982 4282932138
-0.2976761758 -0.1446017474 0.5986111164 4281090416
-0.2977372408 -0.1439661831 0.5987339020 4280958830
-0.2977980673 -0.1433302164 0.5988562107 4281880218
-0.2978586555 -0.1426938772 0.5989780426 4282472355
-0.2974834144 -0.1418494433 0.5982235074 4282537644
-0.2971077859 -0.1410064995 0.5974680781 4282669230
-0.2967317104 -0.1401650310 0.5967118740 4282866863
-0.2967910469 -0.1395299435 0.5968312025 4282998449
-0.2968501449 -0.1388944685 0.5969499946 4282998706
-0.2969090044 -0.1382586211 0.5970683694 4282998706
-0.2974036634 -0.1378244758 0.5980631113 4283130292
-0.2978982627 -0.1373880804 0.5990577340 4283196085
-0.2983927727 -0.1369494498 0.6000521779 4282933685
-0.2988872230 -0.1365085691 0.6010464430 4283065271
-0.2993815839 -0.1360654533 0.6020405889 4282999476
-0.3003123701 -0.1358174831 0.6039123535 4283262648
-0.3012432158 -0.1355654001 0.6057842374 4283525822
-0.3026108146 -0.1355047226 0.6085344553 4283262650
-0.3039786816 -0.1354380548 0.6112850904 4282999223
-0.3053467870 -0.1353653669 0.6140362620 4282867637
-0.3062781990 -0.1350939721 0.6159093380 4282933683
-0.3072096705 -0.1348184198 0.6177824736 4282933683
-0.3081412315 -0.1345387548 0.6196557879 4282933681
-0.3090728521 -0.1342549473 0.6215292215 4282670509
-0.3095673025 -0.1337780505 0.6225234866 4282473384
-0.3100616336 -0.1332989037 0.6235175729 4282539177
-0.3105558455 -0.1328175068 0.6245114803 4282604198
-0.3106124997 -0.1321477294 0.6246253848 4282472612
-0.3111064434 -0.1316627562 0.6256186366 4281814682
-0.3116002679 -0.1311755478 0.6266117096 4281946268
-0.3120939732 -0.1306860745 0.6276045442 4282012061
-0.3125875890 -0.1301943511 0.6285971999 4281880475
-0.3130810857 -0.1297003776 0.6295895576 4282011804
-0.3131365180 -0.1290237010 0.6297010183 4282209183
-0.3136297166 -0.1285261661 0.6306928396 4282274722
-0.3141227663 -0.1280263811 0.6316843629 4282208929
-0.3146157265 -0.1275243312 0.6326756477 4281946772
-0.3146702945 -0.1268433928 0.6327853799 4281946772
-0.3151629269 -0.1263377964 0.6337760687 4281683598
-0.3156554401 -0.1258299500 0.6347664595 4281420426
-0.3161478341 -0.1253198683 0.6357566118 4281485442
-0.3166400790 -0.1248075217 0.6367465258 4281617028
-0.3166935742 -0.1241210178 0.6368541121 4282603401
-0.3167468011 -0.1234341636 0.6369611025 4283853468
-0.3167997301 -0.1227469668 0.6370675564 4286287283
-0.3172912598 -0.1222284883 0.6380559802 4288261073
-0.3173437119 -0.1215396523 0.6381614804 4290431462
-0.3173958957 -0.1208504736 0.6382663846 4291549943
-0.3174477816 -0.1201609597 0.6383707523 4292273656
-0.3073781133 -0.1854412258 0.6195048690 4292535023
-0.3070251048 -0.1845407486 0.6187934279 4292206058
-0.3075307012 -0.1841559857 0.6198124290 4291482335
-0.3076066673 -0.1835126579 0.6199654937 4290627026
-0.3076824248 -0.1828688383 0.6201181412 4289574597
-0.3077579141 -0.1822245419 0.6202703118 4288587702
-0.3074032664 -0.1813261807 0.6195555329 4287337637
-0.3074781895 -0.1806818545 0.6197065711 4285824398
-0.3071227670 -0.1797852367 0.6189901829 4284903045
-0.3071971238 -0.1791408658 0.6191400886 4284310908
-0.3068409264 -0.1782460362 0.6184222102 4283915896
-0.3064842820 -0.1773525476 0.6177033782 4284113275
-0.3061271906 -0.1764604002 0.6169837117 4284640136
-0.3057696819 -0.1755695939 0.6162630916 4285232273
-0.3058424592 -0.1749265194 0.6164098382 4284838546
-0.3054841757 -0.1740375310 0.6156877279 4284180616
-0.3051254451 -0.1731498837 0.6149647236 4283193983
-0.3051973283 -0.1725072563 0.6151096225 4282009709
-0.3048378229 -0.1716214269 0.6143850684 4280957282
-0.3049091697 -0.1709787995 0.6145288348 4280694110
-0.3045488894 -0.1700947881 0.6138026714 4280563041
-0.3046196401 -0.1694521755 0.6139453053 4280760420
-0.3042585850 -0.1685699970 0.6132176518 4280892265
-0.3038971126 -0.1676892042 0.6124891043 4280892265
-0.3039669693 -0.1670470834 0.6126298904 4281351537
-0.3036047220 -0.1661681384 0.6118997931 4281417330
-0.3032420278 -0.1652905792 0.6111688018 4281418101
-0.3028789163 -0.1644144058 0.6104369164 4281483894
-0.3025153577 -0.1635396332 0.6097041965 4281549435
-0.3021513820 -0.1626662612 0.6089706421 4281681021
-0.3017869592 -0.1617942750 0.6082361937 4281813118
-0.3014221191 -0.1609237045 0.6075008512 4281944704
-0.3010568321 -0.1600545198 0.6067646146 4281748095
-0.3002584875 -0.1589577049 0.6051555872 4281616509
-0.2998922467 -0.1580922753 0.6044174433 4281485184
-0.2990927398 -0.1570010483 0.6028060913 4281485184
-0.2982926071 -0.1559130698 0.6011934876 4281813904
-0.2974918783 -0.1548283547 0.5995796323 4282274455
-0.2971236408 -0.1539713591 0.5988374949 4282602919
-0.2963217795 -0.1528922766 0.5972213745 4282931884
-0.2959525883 -0.1520390660 0.5964773297 4282998709
-0.2955830097 -0.1511872858 0.5957323909 4282998709
-0.2952129841 -0.1503369510 0.5949866176 4282605231
-0.2944089472 -0.1492682248 0.5933661461 4282342059
-0.2944716513 -0.1486406177 0.5934925675 4282603691
-0.2945341468 -0.1480125934 0.5936185122 4282669484
-0.2945963740 -0.1473841816 0.5937439203 4282866093
-0.2946583927 -0.1467553824 0.5938689113 4283195058
-0.2951542139 -0.1463413835 0.5948681831 4283064499
-0.2956499755 -0.1459251344 0.5958673954 4282603948
-0.2957114577 -0.1452932805 0.5959912539 4283129263
-0.2957726717 -0.1446610391 0.5961146951 4283195056
-0.2958336473 -0.1440284103 0.5962375998 4281352565
-0.2963289022 -0.1436059475 0.5972357392 4281286772
-0.2963894904 -0.1429716051 0.5973578691 4282208412
-0.2960151434 -0.1421281695 0.5966033936 4282537377
-0.2960751653 -0.1414939761 0.5967243314 4282472105
-0.2957000732 -0.1406525671 0.5959683657 4282603691
-0.2957595289 -0.1400185376 0.5960881710 4282735275
-0.2958187163 -0.1393841356 0.5962074995 4282932654
-0.2958776653 -0.1387493461 0.5963262916 4282998706
-0.2959363461 -0.1381141692 0.5964446068 4283064499
-0.2959948182 -0.1374786347 0.5965623856 4283064501
-0.2964884043 -0.1370439529 0.5975571871 4283196087
-0.2969819009 -0.1366070360 0.5985518098 4283064501
-0.2979108691 -0.1363672316 0.6004241109 4283064501
-0.2984043062 -0.1359248757 0.6014185548 4283196855
-0.2993333638 -0.1356777698 0.6032910347 4283460027
-0.3006982803 -0.1356230825 0.6060420275 4283394234
-0.3020634651 -0.1355624050 0.6087934971 4283131062
-0.3034289181 -0.1354957223 0.6115454435 4283065269
-0.3047945797 -0.1354230344 0.6142978668 4283196855
-0.3061604798 -0.1353443414 0.6170507669 4283327671
-0.3070904315 -0.1350677609 0.6189250350 4283064499
-0.3080204129 -0.1347870529 0.6207993627 4283196337
-0.3085141182 -0.1343122274 0.6217944026 4283262130
-0.3094441593 -0.1340241879 0.6236688495 4282933418
-0.3099377155 -0.1335439086 0.6246635914 4282538660
-0.3099945784 -0.1328742355 0.6247782111 4282341281
-0.3104878664 -0.1323903948 0.6257723570 4282538660
-0.3105442524 -0.1317190379 0.6258860826 4282209182
-0.3114740849 -0.1314159483 0.6277601123 4282209182
-0.3115301132 -0.1307419688 0.6278730035 4282143390
-0.3120228946 -0.1302500516 0.6288661361 4282143390
-0.3125155270 -0.1297558844 0.6298590899 4282339998
-0.3125708997 -0.1290789396 0.6299706697 4282405791
-0.3130632639 -0.1285812110 0.6309629679 4282208664
-0.3135554790 -0.1280812323 0.6319550276 4281945492
-0.3140476048 -0.1275790036 0.6329468489 4281485184
-0.3141021132 -0.1268977821 0.6330567002 4281353598
-0.3145939112 -0.1263919920 0.6340479255 4281617019
-0.3146479428 -0.1257091016 0.6341568232 4282603914
-0.3151394129 -0.1251997650 0.6351473331 4284182936
-0.3156307638 -0.1246881709 0.6361376047 4285761968
-0.3156841397 -0.1240023449 0.6362451911 4287931843
-0.3157372177 -0.1233161688 0.6363521814 4289642461
-0.3157900274 -0.1226296425 0.6364586353 4290892007
-0.3158425689 -0.1219427809 0.6365645528 4291747316
-0.3163329661 -0.1214237437 0.6375529170 4292273140
-0.3056069911 -0.1841004789 0.6173170805 4292600816
-0.3056827784 -0.1834600717 0.6174702048 4292140778
-0.3061871827 -0.1830756217 0.6184890866 4291548641
-0.3062626123 -0.1824333668 0.6186414957 4290890457
-0.3063378334 -0.1817906499 0.6187934279 4290364113
-0.3064128458 -0.1811474711 0.6189448833 4289508806
-0.3060583472 -0.1802510023 0.6182287931 4288390325
-0.3061327636 -0.1796077639 0.6183791757 4287271332
-0.3057774901 -0.1787130684 0.6176615357 4286350230
-0.3058513701 -0.1780698001 0.6178107262 4285297290
-0.3054953218 -0.1771768779 0.6170915365 4284639360
-0.3051388562 -0.1762852967 0.6163714528 4284179070
-0.3052118123 -0.1756424606 0.6165188551 4284376449
-0.3052845299 -0.1749991477 0.6166657805 4284771722
-0.3049269617 -0.1741098166 0.6159434319 4285166480
-0.3049991131 -0.1734665036 0.6160892248 4285365144
-0.3046407700 -0.1725789756 0.6153653264 4284838800
-0.3047123551 -0.1719356477 0.6155099869 4284246411
-0.3043532372 -0.1710499376 0.6147845387 4283325309
-0.3044242561 -0.1704066396 0.6149280071 4282009709
-0.3040643632 -0.1695227474 0.6142010093 4281154400
-0.3041348159 -0.1688794494 0.6143433452 4280825696
-0.3037741482 -0.1679974198 0.6136147976 4280694110
-0.3034130335 -0.1671167612 0.6128854156 4281088617
-0.3034825921 -0.1664739400 0.6130259037 4281154410
-0.3026895523 -0.1653595865 0.6114239693 4281220203
-0.3027584255 -0.1647177190 0.6115630865 4281417582
-0.3019643128 -0.1636079699 0.6099590063 4281483893
-0.3016010523 -0.1627342552 0.6092252135 4281681272
-0.3016689122 -0.1620938331 0.6093623042 4281747578
-0.3013049066 -0.1612220109 0.6086270213 4281747578
-0.3009404242 -0.1603515893 0.6078907847 4281682302
-0.3001436889 -0.1592534184 0.6062813997 4281682302
-0.2993462980 -0.1581585109 0.6046707034 4281616515
-0.2985483110 -0.1570668519 0.6030588150 4281419136
-0.2977496982 -0.1559784561 0.6014456153 4281550474
-0.2973827124 -0.1551187783 0.6007043123 4282011025
-0.2961506248 -0.1538114548 0.5982155204 4282274205
-0.2953501642 -0.1527328491 0.5965986252 4282734756
-0.2949816287 -0.1518802345 0.5958542228 4282866609
-0.2946126759 -0.1510290504 0.5951089263 4282998195
-0.2938105762 -0.1499584615 0.5934886932 4282802610
-0.2934406698 -0.1491110772 0.5927414894 4282473645
-0.2930703461 -0.1482651532 0.5919934511 4282603687
-0.2931325734 -0.1476387531 0.5921191573 4282537894
-0.2931945622 -0.1470119655 0.5922443867 4282602921
-0.2932563424 -0.1463847607 0.5923691392 4282931886
-0.2933178544 -0.1457571685 0.5924934149 4283064753
-0.2938125134 -0.1453435570 0.5934925675 4282735788
-0.2943070829 -0.1449276954 0.5944916606 4282800552
-0.2943680882 -0.1442970634 0.5946148038 4282603173
-0.2948624492 -0.1438776404 0.5956134200 4281220983
-0.2949230373 -0.1432452947 0.5957358479 4281418362
-0.2949833870 -0.1426125765 0.5958577394 4281945492
-0.2950434983 -0.1419794559 0.5959791541 4282274457
-0.2951033711 -0.1413459480 0.5961000919 4282340515
-0.2947289348 -0.1405051351 0.5953437090 4282472101
-0.2947882116 -0.1398718059 0.5954635143 4282669995
-0.2948472500 -0.1392380893 0.5955827832 4282867374
-0.2949060798 -0.1386039853 0.5957015753 4282998706
-0.2949646115 -0.1379695088 0.5958198309 4282998706
-0.2950229347 -0.1373346597 0.5959376097 4282932915
-0.2955155969 -0.1369007528 0.5969327688 4282998708
-0.2960081697 -0.1364645958 0.5979277492 4282998708
-0.2965006530 -0.1360262036 0.5989225507 4283064501
-0.2974278927 -0.1357840747 0.6007955670 4283525050
-0.2983552217 -0.1355378181 0.6026687622 4283590843
-0.2997176647 -0.1354840845 0.6054208279 4283131060
-0.3010803461 -0.1354243308 0.6081733704 4283065267
-0.3024432659 -0.1353585869 0.6109264493 4283328693
-0.3038064241 -0.1352868229 0.6136800051 4283526072
-0.3051698208 -0.1352090538 0.6164340377 4283591095
-0.3065334558 -0.1351252645 0.6191884875 4283393716
-0.3070262969 -0.1346534640 0.6201840639 4283262130
-0.3079546392 -0.1343694478 0.6220592856 4283130544
-0.3088830411 -0.1340813041 0.6239346862 4283064749
-0.3093757927 -0.1336008459 0.6249299645 4282998956
-0.3094325662 -0.1329309046 0.6250447035 4282801319
-0.3099250197 -0.1324468851 0.6260393858 4282735526
-0.3104173541 -0.1319606006 0.6270338893 4282932389
-0.3109095693 -0.1314720511 0.6280281544 4282603424
-0.3109655380 -0.1307978183 0.6281412244 4282274198
-0.3114574552 -0.1303057075 0.6291348934 4281945233
-0.3115129769 -0.1296298057 0.6292470098 4281682312
-0.3120045662 -0.1291341335 0.6302400231 4281550726
-0.3124960661 -0.1286362112 0.6312328577 4281945480
-0.3125509322 -0.1279573292 0.6313436627 4282603410
-0.3130421340 -0.1274558455 0.6323358417 4283853204
-0.3130965233 -0.1267752945 0.6324457526 4285498029
-0.3135873973 -0.1262702644 0.6334372759 4287339969
-0.3140781224 -0.1257629693 0.6344285607 4288655829
-0.3141318560 -0.1250794679 0.6345371008 4289839836
-0.3146222830 -0.1245686263 0.6355277300 4290497766
-0.3146755099 -0.1238834709 0.6356352568 4291221222
-0.3142913580 -0.1230268627 0.6348593235 4291747566
-0.3143439889 -0.1223419681 0.6349655986 4292338671
-0.3043420911 -0.1823815703 0.6161443591 4292337903
-0.3044171333 -0.1817418039 0.6162962914 4291811559
-0.3044919670 -0.1811015457 0.6164478064 4291285215
-0.3045665622 -0.1804608405 0.6165987849 4290758871
-0.3046409190 -0.1798196435 0.6167494059 4290035148
-0.3047150671 -0.1791779995 0.6168994904 4290363089
-0.3047889769 -0.1785358638 0.6170490980 4289244608
-0.3048626781 -0.1778932810 0.6171982884 4288060594
-0.3045072258 -0.1770009249 0.6164787412 4287073699
-0.3045803607 -0.1763583124 0.6166267395 4285955220
-0.3046532571 -0.1757152379 0.6167743206 4285034118
-0.3042967021 -0.1748251170 0.6160525084 4284442242
-0.3043690324 -0.1741820276 0.6161988974 4284113277
-0.3044411242 -0.1735384762 0.6163448691 4284442757
-0.3045129776 -0.1728944778 0.6164903641 4284640136
-0.3041549921 -0.1720070690 0.6157656312 4284903823
-0.3042263091 -0.1713630706 0.6159099340 4284969616
-0.3038675487 -0.1704774797 0.6151836514 4284509067
-0.3035083711 -0.1695932597 0.6144564748 4283785344
-0.3035787642 -0.1689497381 0.6145989895 4282863989
-0.3032188118 -0.1680673510 0.6138702631 4281942887
-0.3032886088 -0.1674238443 0.6140116453 4281154150
-0.3029279113 -0.1665433198 0.6132813692 4281022564
-0.3025667667 -0.1656641811 0.6125501990 4280891489
-0.3022051752 -0.1647864282 0.6118181348 4281088868
-0.3018431664 -0.1639100760 0.6110852361 4281352042
-0.3014807105 -0.1630351096 0.6103515029 4281615214
-0.3011178374 -0.1621615440 0.6096168160 4281615731
-0.3007545173 -0.1612893790 0.6088812947 4281681524
-0.3003907800 -0.1604186147 0.6081449389 4281813118
-0.2995955348 -0.1593200266 0.6065349579 4281813118
-0.2987996936 -0.1582246870 0.6049237251 4281944971
-0.2984344661 -0.1573600024 0.6041843295 4281813385
-0.2976374626 -0.1562702507 0.6025707722 4281682060
-0.2968398333 -0.1551837772 0.6009559631 4281879439
-0.2956100702 -0.1538759172 0.5984662771 4282208404
-0.2943794727 -0.1525731832 0.5959749818 4282603162
-0.2940115631 -0.1517211646 0.5952301025 4282603437
-0.2932114005 -0.1506486982 0.5936101675 4282669230
-0.2928425670 -0.1498004794 0.5928634405 4282407852
-0.2924732864 -0.1489536911 0.5921158195 4282276266
-0.2921035886 -0.1481083632 0.5913674235 4282801066
-0.2917334735 -0.1472644806 0.5906180739 4283130031
-0.2922275364 -0.1468565464 0.5916182995 4283260338
-0.2922891378 -0.1462300420 0.5917430520 4283457717
-0.2923505306 -0.1456031352 0.5918672681 4283393457
-0.2928442061 -0.1451902986 0.5928667784 4282735527
-0.2929052114 -0.1445616931 0.5929902792 4282274206
-0.2933987081 -0.1441452801 0.5939893723 4282208413
-0.2934592962 -0.1435149461 0.5941120386 4280825972
-0.2939525843 -0.1430949718 0.5951106548 4281089144
-0.2940127850 -0.1424629390 0.5952325463 4281550987
-0.2940727472 -0.1418305188 0.5953539610 4282143124
-0.2941324711 -0.1411976963 0.5954748392 4282538147
-0.2937586606 -0.1403574795 0.5947180986 4282669733
-0.2938178182 -0.1397248358 0.5948378444 4282866859
-0.2938767076 -0.1390918046 0.5949571133 4283064238
-0.2939353883 -0.1384584010 0.5950758457 4282933167
-0.2939938009 -0.1378246099 0.5951941013 4282867374
-0.2940519452 -0.1371904463 0.5953118801 4282932913
-0.2941098809 -0.1365559101 0.5954291224 4282932913
-0.2946014404 -0.1361214668 0.5964242816 4283130292
-0.2955268621 -0.1358843148 0.5982978344 4283327671
-0.2964524031 -0.1356430501 0.6001715660 4283722683
-0.2973780036 -0.1353976429 0.6020455360 4283459511
-0.2987379134 -0.1353448480 0.6047986746 4282998956
-0.3000980914 -0.1352860332 0.6075523496 4283327921
-0.3018928766 -0.1354160607 0.6111859083 4283854520
-0.3032535911 -0.1353442967 0.6139407158 4283986106
-0.3046145439 -0.1352665126 0.6166960001 4283986106
-0.3055411279 -0.1349906921 0.6185718775 4283657141
-0.3064677715 -0.1347107291 0.6204478145 4283393969
-0.3073944747 -0.1344266236 0.6223239899 4283262383
-0.3078863621 -0.1339491755 0.6233198047 4283261871
-0.3083781600 -0.1334694773 0.6243154407 4283064492
-0.3088698685 -0.1329875290 0.6253108978 4282800801
-0.3093614578 -0.1325033158 0.6263061166 4282603422
-0.3098529279 -0.1320168376 0.6273011565 4282340242
-0.3099090457 -0.1313436478 0.6274147034 4282340242
-0.3104002178 -0.1308536083 0.6284091473 4282406025
-0.3104558587 -0.1301787347 0.6285218000 4283063955
-0.3109467626 -0.1296851337 0.6295155883 4284511134
-0.3110019565 -0.1290085912 0.6296273470 4285892787
-0.3114925325 -0.1285114288 0.6306204796 4287603145
-0.3115472496 -0.1278332174 0.6307312846 4288984798
-0.3120374978 -0.1273324937 0.6317238808 4289970913
-0.3120917678 -0.1266526133 0.6318337321 4290760429
-0.3125817180 -0.1261483431 0.6328256130 4291287025
-0.3126355112 -0.1254668087 0.6329345107 4291615990
-0.3131251335 -0.1249589697 0.6339257956 4292207863
-0.3030030429 -0.1813052297 0.6148158908 4292337903
-0.3030775785 -0.1806665659 0.6149671078 4291877352
-0.3031518757 -0.1800274253 0.6151179075 4291482594
-0.3032259643 -0.1793878078 0.6152682304 4291022043
-0.3032998443 -0.1787477285 0.6154181361 4291482081
-0.3033734560 -0.1781071872 0.6155675054 4291021530
-0.3034468591 -0.1774661690 0.6157164574 4290758360
-0.3030919433 -0.1765753031 0.6149963140 4290495188
-0.3035929799 -0.1761827618 0.6160129309 4289771212
-0.3032373786 -0.1752927750 0.6152914166 4288850110
-0.3033097684 -0.1746508181 0.6154382825 4287731631
-0.3033819199 -0.1740083992 0.6155846715 4286613150
-0.3034538329 -0.1733655185 0.6157305837 4285758100
-0.3035255075 -0.1727221906 0.6158760190 4285165963
-0.3031681478 -0.1718353629 0.6151509285 4284311426
-0.3032392859 -0.1711920351 0.6152952313 4283719289
-0.3033101559 -0.1705482602 0.6154390574 4283521657
-0.3029516935 -0.1696637124 0.6147117019 4283719036
-0.3030219972 -0.1690199375 0.6148543954 4283587450
-0.3026627898 -0.1681372225 0.6141254902 4282995313
-0.3027325273 -0.1674934775 0.6142669916 4281614951
-0.3023725152 -0.1666126251 0.6135365367 4281285986
-0.3024416864 -0.1659688950 0.6136769056 4280891226
-0.3020809293 -0.1650899053 0.6129449010 4280891226
-0.3017197251 -0.1642122865 0.6122120023 4280957532
-0.3009282053 -0.1631030738 0.6106059551 4281089118
-0.3009960651 -0.1624612659 0.6107435822 4281286763
-0.3006335497 -0.1615878493 0.6100080609 4281615728
-0.2998404503 -0.1604855806 0.6083987951 4281747325
-0.2990467250 -0.1593865603 0.6067882776 4281813118
-0.2982523739 -0.1582908034 0.6051764488 4282010764
-0.2978878915 -0.1574257761 0.6044368744 4282076557
-0.2966618240 -0.1561090350 0.6019490957 4281879180
-0.2958656251 -0.1550230384 0.6003335714 4281879180
-0.2942073047 -0.1534908563 0.5969687104 4282077068
-0.2934096754 -0.1524132639 0.5953502655 4282471826
-0.2926114798 -0.1513389498 0.5937306285 4282537896
-0.2918126285 -0.1502679139 0.5921097398 4282932654
-0.2914443314 -0.1494212151 0.5913624167 4282934194
-0.2915068269 -0.1487960666 0.5914891958 4283197366
-0.2911377847 -0.1479513347 0.5907403827 4283985594
-0.2907682955 -0.1471080482 0.5899906754 4284051387
-0.2912614048 -0.1467008889 0.5909912586 4283655096
-0.2913228571 -0.1460750699 0.5911159515 4283194545
-0.2918157578 -0.1456643343 0.5921160579 4282274973
-0.2918768525 -0.1450368017 0.5922400355 4281419664
-0.2923695445 -0.1446225047 0.5932397246 4281484943
-0.2924302220 -0.1439932585 0.5933628678 4282011287
-0.2929227054 -0.1435753852 0.5943621993 4280365421
-0.2929830253 -0.1429444104 0.5944845080 4280299628
-0.2930430770 -0.1423130631 0.5946063995 4280892796
-0.2931028903 -0.1416813284 0.5947277546 4281550726
-0.2931624651 -0.1410492063 0.5948486328 4282143641
-0.2927893102 -0.1402096003 0.5940914750 4282406813
-0.2928483188 -0.1395776421 0.5942112207 4282801319
-0.2929070592 -0.1389452964 0.5943304300 4283064491
-0.2929655910 -0.1383125782 0.5944491625 4282998445
-0.2930238545 -0.1376794875 0.5945674181 4282932652
-0.2930818796 -0.1370460093 0.5946851373 4282933167
-0.2931396663 -0.1364121586 0.5948023796 4282998960
-0.2936302722 -0.1359785050 0.5957978964 4283262132
-0.2941208184 -0.1355425864 0.5967932343 4283591097
-0.2950445414 -0.1353031099 0.5986675024 4283722681
-0.2959683537 -0.1350595057 0.6005419493 4283262130
-0.2973256409 -0.1350085884 0.6032960415 4282933932
-0.2986832261 -0.1349516511 0.6060506701 4283460276
-0.3004746139 -0.1350836456 0.6096855402 4284052665
-0.3022663891 -0.1352077276 0.6133211851 4284052665
-0.3036248386 -0.1351308674 0.6160776019 4284249014
-0.3049835265 -0.1350480020 0.6188344359 4283985842
-0.3059085310 -0.1347679347 0.6207113266 4283854256
-0.3068335950 -0.1344837248 0.6225883961 4283525291
-0.3077587187 -0.1341953874 0.6244655252 4282932640
-0.3082497418 -0.1337145567 0.6254618168 4282274710
-0.3083064258 -0.1330440938 0.6255768538 4282471567
-0.3087971509 -0.1325596869 0.6265726089 4283129497
-0.3088533878 -0.1318875402 0.6266867518 4284642466
-0.3089093864 -0.1312150210 0.6268002987 4286155705
-0.3093996346 -0.1307257414 0.6277950406 4287865796
-0.3094551563 -0.1300515532 0.6279076934 4289115863
-0.3099451065 -0.1295586973 0.6289018989 4290365922
-0.3100001812 -0.1288828403 0.6290135980 4291023852
-0.3104898334 -0.1283864230 0.6300071478 4291484142
-0.3105444312 -0.1277088970 0.6301179528 4291944693
-0.3105987608 -0.1270310134 0.6302281618 4292273140
-0.3017396629 -0.1795935184 0.6136353612 4292271851
-0.3018134832 -0.1789554805 0.6137854457 4291745507
-0.3018870652 -0.1783169806 0.6139350533 4292008679
-0.3019604087 -0.1776780188 0.6140842438 4291679714
-0.3020335138 -0.1770385802 0.6142329574 4291482848
-0.3021064103 -0.1763986945 0.6143811941 4291351262
-0.3021790683 -0.1757583320 0.6145289540 4291087836
-0.3022515178 -0.1751175076 0.6146762371 4290956250
-0.3023236990 -0.1744762361 0.6148231030 4290626775
-0.3023956716 -0.1738344878 0.6149694324 4290034638
-0.3024674356 -0.1731922925 0.6151153445 4289508555
-0.3025389314 -0.1725496352 0.6152607799 4288521660
-0.3026102185 -0.1719065309 0.6154057384 4287271339
-0.3022531271 -0.1710207313 0.6146795750 4286021272
-0.3023238480 -0.1703776270 0.6148233414 4284837770
-0.3023943305 -0.1697340757 0.6149666905 4284245633
-0.3020361364 -0.1688505709 0.6142382622 4283915898
-0.3021060526 -0.1682070345 0.6143804193 4283323761
-0.3017471135 -0.1673253626 0.6136505008 4282864242
-0.3018164635 -0.1666818559 0.6137914658 4282337898
-0.3014567494 -0.1658020467 0.6130599380 4281614943
-0.3015255034 -0.1651585549 0.6131998301 4281351771
-0.3011650443 -0.1642806232 0.6124667525 4281088860
-0.3008041382 -0.1634040773 0.6117327809 4280891481
-0.3000136018 -0.1622967422 0.6101250648 4281088868
-0.3005103171 -0.1618864387 0.6111353040 4281615212
-0.2992894351 -0.1605524868 0.6086524129 4281878652
-0.2989267111 -0.1596824676 0.6079147458 4282010238
-0.2981339693 -0.1585853547 0.6063025594 4282207627
-0.2973406017 -0.1574914902 0.6046891809 4282405006
-0.2961168587 -0.1561742276 0.6022004485 4282076557
-0.2948923111 -0.1548620611 0.5997101665 4281747592
-0.2936669588 -0.1535550207 0.5972182155 4282011016
-0.2924408019 -0.1522530913 0.5947245955 4282405774
-0.2916440070 -0.1511792690 0.5931041837 4282471584
-0.2908465862 -0.1501087397 0.5914825797 4283524272
-0.2904789448 -0.1492626369 0.5907348394 4283723449
-0.2905412614 -0.1486381888 0.5908616185 4283723449
-0.2901728451 -0.1477940530 0.5901123881 4283656626
-0.2898040116 -0.1469513625 0.5893623233 4282801317
-0.2902961671 -0.1465449929 0.5903632045 4281812631
-0.2903575003 -0.1459198594 0.5904878974 4280957322
-0.2908494473 -0.1455099136 0.5914883614 4280893055
-0.2913413644 -0.1450977176 0.5924887061 4280695676
-0.2914021313 -0.1444695443 0.5926123261 4280826749
-0.2918938100 -0.1440537721 0.5936122537 4281287300
-0.2919542193 -0.1434238851 0.5937350392 4279641697
-0.2920143604 -0.1427936256 0.5938574076 4279510111
-0.2920742631 -0.1421629637 0.5939792395 4279642978
-0.2921339273 -0.1415319145 0.5941005349 4280169322
-0.2921933532 -0.1409004927 0.5942214131 4280958848
-0.2922525406 -0.1402686685 0.5943417549 4281485192
-0.2918797135 -0.1394302100 0.5935835838 4282012053
-0.2919383347 -0.1387985647 0.5937027335 4282472604
-0.2919966877 -0.1381665319 0.5938214660 4282867112
-0.2920548320 -0.1375341266 0.5939396620 4283064491
-0.2921127081 -0.1369013488 0.5940573812 4283195824
-0.2921703458 -0.1362681985 0.5941746235 4283195824
-0.2926600277 -0.1358353049 0.5951704383 4283393716
-0.2931496501 -0.1354001760 0.5961661339 4283788474
-0.2940716147 -0.1351615489 0.5980411768 4283591093
-0.2949936986 -0.1349188089 0.5999163389 4283327921
-0.2963484824 -0.1348688304 0.6026715040 4283394735
-0.2977035344 -0.1348128319 0.6054272056 4283986872
-0.2994916141 -0.1349458396 0.6090635657 4284513469
-0.3012800813 -0.1350709349 0.6127007008 4284513469
-0.3026360273 -0.1349950135 0.6154581904 4284774840
-0.3039921820 -0.1349130720 0.6182161570 4284380082
-0.3053485751 -0.1348250955 0.6209746003 4283721891
-0.3058387935 -0.1343504936 0.6219715476 4283063961
-0.3063288927 -0.1338736266 0.6229682565 4283458710
-0.3072522879 -0.1335829198 0.6248461008 4284971949
-0.3073088229 -0.1329131275 0.6249610782 4287076801
-0.3077986240 -0.1324294955 0.6259571910 4288655833
-0.3078547418 -0.1317580193 0.6260713339 4290628841
-0.3079105914 -0.1310861856 0.6261848807 4291220978
-0.3079661429 -0.1304139793 0.6262978911 4291681005
-0.3084552884 -0.1299241483 0.6272926331 4291812591
-0.3085104227 -0.1292502731 0.6274047494 4292404464
-0.2999773324 -0.1782694310 0.6114324331 4292337642
-0.3001234829 -0.1769969314 0.6117303371 4292206569
-0.3001962304 -0.1763599962 0.6118785739 4291615202
-0.3002687395 -0.1757225841 0.6120263338 4291417823
-0.3007676303 -0.1753334105 0.6130432487 4291351776
-0.3008397818 -0.1746941805 0.6131902933 4291285983
-0.3009117246 -0.1740544885 0.6133369207 4291285215
-0.3009833992 -0.1734143347 0.6134830713 4291022043
-0.3010548651 -0.1727737188 0.6136287451 4291087585
-0.3011261225 -0.1721326560 0.6137738824 4290627034
-0.3011971116 -0.1714911312 0.6139186621 4290035669
-0.3012678921 -0.1708491594 0.6140629053 4289377739
-0.3013384342 -0.1702067405 0.6142066717 4288324797
-0.3014087379 -0.1695638597 0.6143499613 4287074730
-0.3014788032 -0.1689205319 0.6144927740 4285955479
-0.3011209071 -0.1680380702 0.6137633324 4285034377
-0.3011904061 -0.1673947722 0.6139049530 4283916668
-0.3012596965 -0.1667510122 0.6140461564 4283324531
-0.3009006977 -0.1658708751 0.6133144498 4282666859
-0.3009693921 -0.1652271599 0.6134544611 4282272101
-0.3006096482 -0.1643488705 0.6127212048 4281680482
-0.3002494574 -0.1634719968 0.6119870543 4281154138
-0.2994604409 -0.1623642296 0.6103788018 4281088609
-0.2999563217 -0.1619537920 0.6113895774 4281549160
-0.2991663218 -0.1608497500 0.6097793579 4282141053
-0.2983757257 -0.1597489566 0.6081678867 4282404225
-0.2975845039 -0.1586514264 0.6065551639 4282470284
-0.2967926562 -0.1575571299 0.6049411893 4282799249
-0.2960002124 -0.1564661115 0.6033259630 4282470799
-0.2943489850 -0.1549266726 0.5999603271 4281812869
-0.2931259274 -0.1536191106 0.5974674821 4281879430
-0.2919020951 -0.1523166597 0.5949729681 4282405774
-0.2911068201 -0.1512424201 0.5933519602 4283327143
-0.2903109193 -0.1501714736 0.5917297602 4284314038
-0.2899439931 -0.1493250430 0.5909818411 4283723702
-0.2895766199 -0.1484800577 0.5902330279 4282671014
-0.2892088592 -0.1476365179 0.5894834399 4282011283
-0.2892704904 -0.1470128894 0.5896090269 4281221767
-0.2893318832 -0.1463888437 0.5897341371 4281089159
-0.2893930376 -0.1457644105 0.5898588300 4281089159
-0.2898840308 -0.1453552395 0.5908596516 4280893305
-0.2903749943 -0.1449438184 0.5918603539 4281551235
-0.2908658981 -0.1445301473 0.5928609371 4281024378
-0.2909263670 -0.1439013630 0.5929841995 4280695413
-0.2914170623 -0.1434841156 0.5939843655 4279444057
-0.2914771736 -0.1428536028 0.5941067934 4279444057
-0.2915370166 -0.1422227025 0.5942288041 4279050579
-0.2915966213 -0.1415914148 0.5943502784 4279511130
-0.2916559875 -0.1409597397 0.5944713354 4279774824
-0.2912842035 -0.1401204020 0.5937135220 4280366961
-0.2913430035 -0.1394888908 0.5938333869 4281024643
-0.2914015651 -0.1388570070 0.5939527154 4281748366
-0.2910287380 -0.1380202621 0.5931928158 4282538145
-0.2910867035 -0.1373885572 0.5933109522 4283130282
-0.2911444604 -0.1367564648 0.5934286714 4283393457
-0.2912019491 -0.1361240000 0.5935458541 4283525043
-0.2912591994 -0.1354911625 0.5936625600 4283656886
-0.2917477787 -0.1350577325 0.5946584344 4284051644
-0.2926679552 -0.1348209232 0.5965339541 4283525555
-0.2935882211 -0.1345799714 0.5984097123 4283459762
-0.2949404120 -0.1345318705 0.6011658311 4283986870
-0.2967247367 -0.1346737891 0.6048027873 4284579007
-0.2980774939 -0.1346127242 0.6075600386 4285105858
-0.2998625934 -0.1347397864 0.6111984849 4285237444
-0.3016480803 -0.1348589361 0.6148377657 4284971962
-0.3030017018 -0.1347779185 0.6175968647 4284445618
-0.3039232492 -0.1344995499 0.6194751859 4284774830
-0.3052772582 -0.1344074160 0.6222350597 4286288069
-0.3057665229 -0.1339303702 0.6232323050 4288590551
-0.3062556982 -0.1334510595 0.6242293119 4290169583
-0.3063121140 -0.1327819526 0.6243443489 4290958317
-0.3068009913 -0.1322990805 0.6253408194 4291353075
-0.3068569601 -0.1316282898 0.6254549026 4292010738
-0.2987886071 -0.1759313196 0.6103913188 4292403696
-0.2988608479 -0.1752955019 0.6105388403 4292140524
-0.2993586659 -0.1749080122 0.6115558743 4291745768
