VERSION 0.7
FIELDS x y z rgba
SIZE 4 4 4 4
TYPE F F F U
COUNT 1 1 1 1
WIDTH 920
HEIGHT 1
VIEWPOINT 0.0 0.0 0.0 1.0 0.0 0.0 0.0
POINTS 920
DATA ascii
-0.3069176972 -0.0721670315 0.6103789210 4286542348
-0.3065025806 -0.0713921636 0.6095533967 4286542348
-0.3065339327 -0.0707221404 0.6096157432 4286542348
-0.3065649867 -0.0700519085 0.6096774936 4286608141
-0.3065957725 -0.0693814754 0.6097386479 4286673934
-0.3061792552 -0.0686106831 0.6089103818 4286608141
-0.3057623804 -0.0678416416 0.6080812812 4286739727
-0.3062392473 -0.0672707781 0.6090297103 4286937106
-0.3062688112 -0.0666005313 0.6090884805 4287002899
-0.3062981069 -0.0659300908 0.6091467142 4287068692
-0.3063270748 -0.0652594566 0.6092043519 4287134485
-0.3063557744 -0.0645886362 0.6092613935 4287002899
-0.3059369028 -0.0638243183 0.6084283590 4286739727
-0.3059649467 -0.0631541088 0.6084842086 4286542348
-0.3059927225 -0.0624837093 0.6085394025 4286673934
-0.3060202301 -0.0618131310 0.6085940599 4286476555
-0.3064948618 -0.0612317622 0.6095380187 4286213383
-0.3065218031 -0.0605598427 0.6095916033 4286410762
-0.3065484464 -0.0598877482 0.6096445918 4286542348
-0.3065747917 -0.0592154823 0.6096969843 4286542346
-0.3066008687 -0.0585430413 0.6097488403 4286739725
-0.3066266179 -0.0578704290 0.6098000407 4286805520
-0.3066520989 -0.0571976490 0.6098507047 4286673934
-0.3062295914 -0.0564421862 0.6090104580 4286805005
-0.3062544465 -0.0557700582 0.6090598702 4286936591
-0.3062790036 -0.0550977662 0.6091086864 4287002897
-0.3063032627 -0.0544253141 0.6091569662 4287200276
-0.3058793843 -0.0536741167 0.6083139777 4287595293
-0.3059030175 -0.0530023314 0.6083610058 4287924258
-0.3059263527 -0.0523303933 0.6084074378 4287663137
-0.3059494197 -0.0516582988 0.6084532738 4288518446
-0.3055242002 -0.0509114079 0.6076076031 4288783158
-0.3055466115 -0.0502399988 0.6076521873 4289638467
-0.3060168028 -0.0496411249 0.6085872650 4290625110
-0.3055905998 -0.0488967448 0.6077396870 4290822489
-0.3056121469 -0.0482249036 0.6077824831 4290953056
-0.3056333959 -0.0475529209 0.6078247428 4291018849
-0.3056543469 -0.0468807966 0.6078664660 4289573238
-0.3056750000 -0.0462085381 0.6079075336 4289836410
-0.3056953549 -0.0455361418 0.6079480052 4290428573
-0.3076085448 -0.2284857184 0.6131070852 4288518980
-0.3077000380 -0.2278722674 0.6132894158 4288321601
-0.3069398999 -0.2266296297 0.6117743850 4288978492
-0.3078824580 -0.2266437411 0.6136530042 4289175871
-0.3075473905 -0.2257160246 0.6129851937 4289176896
-0.3067858219 -0.2244777083 0.6114673018 4289242689
-0.3051711023 -0.2226203978 0.6082489491 4289045829
-0.3022761643 -0.2198391706 0.6024789214 4288914243
-0.2917029262 -0.2115034759 0.5814049244 4288913212
-0.2789902985 -0.2016681582 0.5560668707 4288847419
-0.2756577432 -0.1986487955 0.5494246483 4288912699
-0.2736035585 -0.1965625733 0.5453304052 4288781113
-0.2728288770 -0.1954018176 0.5437862873 4288781626
-0.2720534801 -0.1942440271 0.5422408581 4289176384
-0.2712774575 -0.1930891871 0.5406941175 4289506378
-0.2709280550 -0.1922405362 0.5399977565 4289506378
-0.2701508105 -0.1910907626 0.5384485722 4289177926
-0.2702280581 -0.1905469745 0.5386024714 4289177926
-0.2703050971 -0.1900027096 0.5387560725 4288652350
-0.2699541748 -0.1891582161 0.5380566120 4288060213
-0.2696028054 -0.1883149743 0.5373563170 4287732012
-0.2696790993 -0.1877710372 0.5375083685 4287403047
-0.2701833844 -0.1875238419 0.5385134816 4287008029
-0.2702594101 -0.1869781315 0.5386650562 4286810650
-0.2703352869 -0.1864319444 0.5388162732 4286875673
-0.2704109848 -0.1858853102 0.5389671326 4287073052
-0.2704865038 -0.1853382289 0.5391176343 4287467031
-0.2709906101 -0.1850835234 0.5401223898 4287532824
-0.2714947760 -0.1848266423 0.5411272645 4287664410
-0.2719990015 -0.1845675558 0.5421322584 4287730203
-0.2720741332 -0.1840160191 0.5422819853 4287730203
-0.2721490860 -0.1834640354 0.5424314141 4287664410
-0.2726532221 -0.1832001060 0.5434362292 4287664152
-0.2727279365 -0.1826463342 0.5435851216 4287598359
-0.2736616731 -0.1826656312 0.5454462171 4287598359
-0.2733065188 -0.1818233281 0.5447382927 4287532566
-0.2742404640 -0.1818373501 0.5465998054 4287466773
-0.2743147612 -0.1812791377 0.5467479229 4287466773
-0.2743888795 -0.1807204783 0.5468956232 4287663639
-0.2744628191 -0.1801613718 0.5470430255 4287532053
-0.2753971815 -0.1801648140 0.5489053130 4287597846
-0.2750405371 -0.1793224216 0.5481944680 4287926811
-0.2755445540 -0.1790408343 0.5491990447 4287926811
-0.2760486007 -0.1787570417 0.5502036810 4287861018
-0.2761219144 -0.1781930327 0.5503498316 4287861018
-0.2766259313 -0.1779056937 0.5513544083 4287992604
-0.2771299779 -0.1776161492 0.5523589849 4288189983
-0.2767718434 -0.1767736971 0.5516451597 4288321569
-0.2777069211 -0.1767559648 0.5535089970 4288321569
-0.2786422968 -0.1767342389 0.5553732514 4288321569
-0.2782835662 -0.1758904457 0.5546582937 4288387360
-0.2792190909 -0.1758634150 0.5565229058 4288387360
-0.2792915404 -0.1752905399 0.5566672683 4288518176
-0.2797955573 -0.1749872565 0.5576718450 4288255004
-0.2802995741 -0.1746817678 0.5586764812 4287662867
-0.2808036506 -0.1743740439 0.5596811771 4288320797
-0.2813077271 -0.1740641147 0.5606858730 4288715555
-0.2813796103 -0.1734854579 0.5608291030 4288386590
-0.2818836272 -0.1731719673 0.5618336797 4288320799
-0.2823876441 -0.1728562564 0.5628382564 4288255006
-0.2828916907 -0.1725383252 0.5638428926 4288255006
-0.2838284075 -0.1724811047 0.5657098889 4288320799
-0.2834670246 -0.1716337502 0.5649896264 4288320799
-0.2839709818 -0.1713100374 0.5659941435 4288255006
-0.2844749689 -0.1709840894 0.5669986010 4288189213
-0.2845458388 -0.1703965515 0.5671399236 4288189213
-0.2850497365 -0.1700670570 0.5681442022 4288255007
-0.2855536342 -0.1697353125 0.5691485405 4288320800
-0.2860575020 -0.1694013625 0.5701528788 4288189214
-0.2865613997 -0.1690651625 0.5711571574 4288057628
-0.2866316736 -0.1684718579 0.5712972283 4288123421
-0.2871354520 -0.1681320965 0.5723013282 4288123421
-0.2872053981 -0.1675370336 0.5724407434 4288123421
-0.2881430089 -0.1674458832 0.5743095875 4288255007
-0.2882127464 -0.1668481529 0.5744485259 4288123421
-0.2887164056 -0.1665003598 0.5754523873 4288057628
-0.2892200649 -0.1661503166 0.5764562488 4288057628
-0.2897237241 -0.1657980531 0.5774601102 4288057628
-0.2897928655 -0.1651958823 0.5775979757 4287925788
-0.2902964056 -0.1648400575 0.5786015391 4287925788
-0.2907999158 -0.1644819826 0.5796051025 4287925790
-0.2913033962 -0.1641216725 0.5806086659 4287925790
-0.2913720012 -0.1635150611 0.5807453394 4287925790
-0.2918753624 -0.1631511748 0.5817486048 4287925790
-0.2919436097 -0.1625428051 0.5818846822 4287794206
-0.2924468219 -0.1621753573 0.5828876495 4287531034
-0.2925147414 -0.1615652293 0.5830230117 4287465241
-0.2930178046 -0.1611941904 0.5840256810 4287531034
-0.2935208380 -0.1608209312 0.5850283504 4287728159
-0.2935882807 -0.1602077186 0.5851626992 4287859745
-0.2936554849 -0.1595940739 0.5852966905 4287531297
-0.2941582501 -0.1592158973 0.5862987638 4287465504
-0.2946609855 -0.1588354707 0.5873007774 4287464990
-0.2947276831 -0.1582187563 0.5874337554 4287530783
-0.2947941720 -0.1576016247 0.5875662565 4287464990
-0.2952966392 -0.1572162956 0.5885676742 4287136025
-0.2953627408 -0.1565974057 0.5886995196 4286873367
-0.2954286337 -0.1559781134 0.5888308287 4287136539
-0.2959307730 -0.1555878818 0.5898316503 4287070748
-0.2964328825 -0.1551954001 0.5908324122 4287004955
-0.2964982688 -0.1545730382 0.5909627080 4286807576
-0.2970001698 -0.1541769952 0.5919631124 4286807576
-0.2970651984 -0.1535528749 0.5920926929 4286741785
-0.2975669205 -0.1531532556 0.5930927396 4286675992
-0.2976315618 -0.1525274217 0.5932215452 4286610199
-0.2976959646 -0.1519011706 0.5933499336 4286412820
-0.2981973588 -0.1514966488 0.5943493247 4286083337
-0.2982614040 -0.1508686692 0.5944768786 4287991334
-0.2983251810 -0.1502402723 0.5946040154 4290753088
-0.2979511917 -0.1493921131 0.5938586593 4290884674
-0.2980144024 -0.1487638503 0.5939846039 4290358843
-0.2976396680 -0.1479176581 0.5932376981 4290819394
-0.2977023125 -0.1472895145 0.5933625698 4289176420
-0.2977647185 -0.1466609836 0.5934869051 4285228840
-0.2973888814 -0.1458172947 0.5927378535 4284506701
-0.2978887856 -0.1454027295 0.5937342048 4287598972
-0.2979504466 -0.1447730213 0.5938571692 4288388747
-0.2984501421 -0.1443548799 0.5948531032 4289770400
-0.2985114157 -0.1437234581 0.5949752331 4290033310
-0.2990108728 -0.1433017701 0.5959707499 4290362275
-0.2990717590 -0.1426686496 0.5960920453 4290361761
-0.2995710075 -0.1422434002 0.5970871449 4290361761
-0.2996314764 -0.1416085809 0.5972076654 4290230699
-0.3001304865 -0.1411797702 0.5982022882 4290296492
-0.3001905680 -0.1405432522 0.5983220339 4289638303
-0.3002503812 -0.1399063468 0.5984412432 4289769889
-0.3007490039 -0.1394726783 0.5994350910 4289112221
-0.3008084297 -0.1388340890 0.5995534658 4289506979
-0.3008675873 -0.1381951123 0.5996714234 4289705647
-0.3009265065 -0.1375557631 0.5997888446 4289639854
-0.3009851575 -0.1369160414 0.5999057889 4289049021
-0.3010435700 -0.1362759471 0.6000221968 4288588470
-0.3011017442 -0.1356354803 0.6001381278 4288062641
-0.3011596501 -0.1349946409 0.6002535224 4287273125
-0.3016570508 -0.1345495731 0.6012449265 4286745765
-0.3017145395 -0.1339070499 0.6013594866 4285824663
-0.3017717600 -0.1332641840 0.6014735699 4284574078
-0.3018287420 -0.1326209307 0.6015871167 4284508285
-0.3018854856 -0.1319773346 0.6017001867 4284377720
-0.3023821115 -0.1315248162 0.6026900411 4282206551
-0.3024384081 -0.1308795363 0.6028022766 4282469731
-0.3029347658 -0.1304234862 0.6037915349 4284640900
-0.3029906154 -0.1297765523 0.6039029360 4286022026
-0.3030462265 -0.1291292757 0.6040137410 4284508787
-0.3035421371 -0.1286683828 0.6050021648 4284309824
-0.3035973012 -0.1280194372 0.6051121354 4287336302
-0.3036522269 -0.1273701489 0.6052215695 4289966179
-0.3037068844 -0.1267205179 0.6053305268 4289966179
-0.3037612736 -0.1260705292 0.6054389477 4290294354
-0.3038153946 -0.1254201829 0.6055468321 4290557526
-0.3038692772 -0.1247695014 0.6056542397 4290622800
-0.3039228916 -0.1241184697 0.6057610512 4290951765
-0.3039762378 -0.1234670952 0.6058673859 4291281235
-0.3040293455 -0.1228153780 0.6059732437 4291412821
-0.3040821552 -0.1221633255 0.6060785055 4291149675
-0.3045761287 -0.1216872856 0.6070630550 4291412847
-0.3046285212 -0.1210336015 0.6071674824 4291217524
-0.3046806157 -0.1203795895 0.6072713137 4291480696
-0.3051741123 -0.1198987514 0.6082549095 4291479147
-0.3052257597 -0.1192431152 0.6083579063 4291742319
-0.3052771688 -0.1185871512 0.6084603071 4291741551
-0.3053282797 -0.1179308519 0.6085622311 4291741551
-0.3053791225 -0.1172742248 0.6086635590 4291676029
-0.3054297268 -0.1166172773 0.6087644100 4292004994
-0.3054800630 -0.1159599945 0.6088647246 4291412855
-0.3059722483 -0.1154692546 0.6098457575 4290952304
-0.3060221076 -0.1148103774 0.6099451184 4290754404
-0.3060716987 -0.1141511798 0.6100439429 4288583235
-0.3065634072 -0.1136556640 0.6110239625 4285951513
-0.3066125214 -0.1129948795 0.6111218333 4285885720
-0.3066613674 -0.1123337671 0.6112192273 4286147600
-0.3071525097 -0.1118334904 0.6121981740 4286016014
-0.3076435626 -0.1113309935 0.6131768823 4286016014
-0.3081344366 -0.1108262688 0.6141552925 4286016014
-0.3081824183 -0.1101610437 0.6142508984 4285950221
-0.3082301021 -0.1094955057 0.6143459678 4285950221
-0.3082775176 -0.1088296697 0.6144404411 4286016014
-0.3083246648 -0.1081635207 0.6145344377 4285950221
-0.3083715439 -0.1074970663 0.6146278381 4285950221
-0.3084181249 -0.1068303064 0.6147207022 4285950221
-0.3084644377 -0.1061632484 0.6148130298 4286016012
-0.3085104823 -0.1054958925 0.6149047613 4286016012
-0.3081129193 -0.1046776250 0.6141123772 4285884426
-0.3081583381 -0.1040106267 0.6142029166 4285818633
-0.3082034886 -0.1033433452 0.6142929196 4285950221
-0.3082483411 -0.1026757658 0.6143823266 4286016014
-0.3078493476 -0.1018611193 0.6135870814 4285819660
-0.3078936040 -0.1011939272 0.6136752367 4285885453
-0.3079375625 -0.1005264446 0.6137629151 4285951246
-0.3084250391 -0.1000025645 0.6147344708 4286017039
-0.3084685206 -0.0993335471 0.6148211360 4286148625
-0.3080677986 -0.0985222906 0.6140224338 4286148625
-0.3081106544 -0.0978536755 0.6141078472 4286082832
-0.3081532419 -0.0971847847 0.6141927242 4286082832
-0.3077514470 -0.0963765457 0.6133918762 4286082573
-0.3077933788 -0.0957080647 0.6134755015 4286214159
-0.3078350425 -0.0950393155 0.6135585308 4286279952
-0.3078764379 -0.0943702981 0.6136410236 4286214159
-0.3074732125 -0.0935657918 0.6128373742 4286214159
-0.3075139821 -0.0928971991 0.6129186153 4286279952
-0.3071100414 -0.0920950696 0.6121134758 4286345745
-0.3071501851 -0.0914269164 0.6121935248 4286543124
-0.3067454696 -0.0906271562 0.6113868952 4286280211
-0.3072296083 -0.0900898278 0.6123518348 4286280211
-0.3072689176 -0.0894208997 0.6124301553 4286346258
-0.3073079288 -0.0887517110 0.6125079393 4286412051
-0.3073466718 -0.0880822763 0.6125851274 4286412051
-0.3073851168 -0.0874125808 0.6126617789 4286412051
-0.3069783747 -0.0866171047 0.6118510962 4286412051
-0.3070161939 -0.0859478861 0.6119264960 4286346258
-0.3070537448 -0.0852784142 0.6120012999 4286412051
-0.3070909977 -0.0846087039 0.6120755672 4286346258
-0.3066828549 -0.0838170946 0.6112620831 4286412051
-0.3067194819 -0.0831478760 0.6113350987 4286412051
-0.3067558408 -0.0824784115 0.6114075184 4286346258
-0.3067919016 -0.0818087086 0.6114794016 4286412051
-0.3068276644 -0.0811387673 0.6115506887 4286477844
-0.3068631589 -0.0804686025 0.6116214395 4286412051
-0.3064529598 -0.0796823800 0.6108038425 4286739988
-0.3064878285 -0.0790127218 0.6108733416 4286608402
-0.3065223992 -0.0783428401 0.6109422445 4286608402
-0.3065567017 -0.0776727274 0.6110106111 4286674195
-0.3061450720 -0.0768904686 0.6101901531 4286739988
-0.3061787486 -0.0762208849 0.6102572680 4286739988
-0.3062121272 -0.0755510852 0.6103238463 4286476816
-0.3062452078 -0.0748810619 0.6103897691 4286213644
-0.3062780201 -0.0742108226 0.6104551554 4286213644
-0.3063105345 -0.0735403746 0.6105200052 4286279437
-0.3063427806 -0.0728697106 0.6105842590 4286411021
-0.3063747287 -0.0721988305 0.6106479168 4286411021
-0.3064063787 -0.0715277493 0.6107109785 4286410508
-0.3059916794 -0.0707533211 0.6098844409 4286344715
-0.3060227036 -0.0700827986 0.6099463105 4286476301
-0.3060534596 -0.0694120750 0.6100075841 4286607887
-0.3060839176 -0.0687411502 0.6100682616 4286476301
-0.3056678474 -0.0679708049 0.6092389822 4286673680
-0.3056976497 -0.0673004612 0.6092984080 4286871059
-0.3057272136 -0.0666299239 0.6093572974 4287002645
-0.3057564497 -0.0659591928 0.6094155908 4287200024
-0.3057854176 -0.0652882755 0.6094733477 4287265817
-0.3058140874 -0.0646171644 0.6095304489 4287134485
-0.3058424592 -0.0639458597 0.6095870137 4286871313
-0.3054240048 -0.0631820038 0.6087530255 4286608141
-0.3054517508 -0.0625113174 0.6088083386 4286673934
-0.3054792285 -0.0618404485 0.6088630557 4286147590
-0.3059530258 -0.0612588264 0.6098074317 4285752832
-0.3059799373 -0.0605866164 0.6098610759 4286081797
-0.3060065806 -0.0599142313 0.6099141240 4286410762
-0.3060328960 -0.0592416674 0.6099666357 4286542348
-0.3060589433 -0.0585689358 0.6100185513 4286805520
-0.3060846925 -0.0578960292 0.6100698113 4286673932
-0.3061101437 -0.0572229587 0.6101205945 4286608139
-0.3056883812 -0.0564671643 0.6092799306 4286608139
-0.3061601818 -0.0558763109 0.6102202535 4286673932
-0.3057377636 -0.0551221557 0.6093783379 4286673674
-0.3057619929 -0.0544494092 0.6094266772 4286739467
-0.3057859540 -0.0537765063 0.6094744205 4287002897
-0.3053625226 -0.0530258045 0.6086304188 4287397655
-0.3053858280 -0.0523535721 0.6086769104 4287136025
-0.3054088652 -0.0516811870 0.6087228060 4287728162
-0.3054316044 -0.0510086492 0.6087681651 4287861286
-0.3050068319 -0.0502622649 0.6079214811 4288321837
-0.3054761887 -0.0496631302 0.6088570356 4289242681
-0.3054980338 -0.0489901491 0.6089005470 4290295369
-0.3050722778 -0.0482462831 0.6080519557 4291149649
-0.3050935268 -0.0475740060 0.6080942750 4291215442
-0.3051144481 -0.0469015874 0.6081359982 4290033250
-0.3046876788 -0.0461612456 0.6072853804 4290033250
-0.3047080040 -0.0454895422 0.6073259115 4289704569
-0.3060704172 -0.0450151414 0.6100414395 4290296706
-0.3066258132 -0.2282610834 0.6125043035 4288387899
-0.3062922657 -0.2273329943 0.6118380427 4288387899
-0.3063832223 -0.2267204970 0.6120197177 4289044798
-0.3060489297 -0.2257938683 0.6113519073 4289242177
-0.3048638105 -0.2242428958 0.6089845300 4289177666
-0.3028270900 -0.2220726758 0.6049160957 4289375045
-0.2986617088 -0.2183552086 0.5965954661 4289177928
-0.2881101072 -0.2100013644 0.5755180120 4288914756
-0.2779777944 -0.2019990385 0.5552780628 4288716862
-0.2746524215 -0.1989730000 0.5486354232 4288716862
-0.2726026773 -0.1968830377 0.5445409417 4288847419
-0.2714036703 -0.1954147220 0.5421458483 4288715833
-0.2710561454 -0.1945628971 0.5414516330 4288782655
-0.2702818513 -0.1934072375 0.5399049520 4289506378
-0.2699333429 -0.1925587654 0.5392087698 4289770833
-0.2695844173 -0.1917115301 0.5385117531 4289770833
-0.2692350745 -0.1908655465 0.5378139019 4289245000
-0.2693121135 -0.1903224289 0.5379678011 4288521277
-0.2693889737 -0.1897788495 0.5381213427 4287929652
-0.2690385878 -0.1889349222 0.5374214649 4287666480
-0.2691149712 -0.1883912683 0.5375740528 4287403306
-0.2687638998 -0.1875489950 0.5368727446 4286942755
-0.2688398063 -0.1870052963 0.5370243788 4286481943
-0.2693430781 -0.1867575794 0.5380296707 4286350357
-0.2694187462 -0.1862120926 0.5381808281 4286744339
-0.2699220181 -0.1859608442 0.5391861200 4287007511
-0.2699974477 -0.1854135841 0.5393368006 4287138068
-0.2705006897 -0.1851588190 0.5403420925 4287203861
-0.2705758810 -0.1846097559 0.5404922962 4287269654
-0.2710791528 -0.1843514889 0.5414975882 4287401240
-0.2720108032 -0.1843813658 0.5433586240 4287467033
-0.2720858157 -0.1838283241 0.5435084701 4287467033
-0.2721606195 -0.1832748353 0.5436578989 4287466520
-0.2726639807 -0.1830086261 0.5446633697 4287334934
-0.2727385461 -0.1824533492 0.5448123217 4287203346
-0.2732418776 -0.1821836233 0.5458177328 4287071760
-0.2737452388 -0.1819116771 0.5468232632 4286874894
-0.2738194764 -0.1813532859 0.5469715595 4286940687
-0.2738935053 -0.1807944477 0.5471194386 4287137553
-0.2739673853 -0.1802351475 0.5472670197 4287203346
-0.2744705677 -0.1799570173 0.5482721925 4287400725
-0.2749738097 -0.1796766818 0.5492774248 4287795483
-0.2750473320 -0.1791142672 0.5494242907 4287992349
-0.2751206458 -0.1785514057 0.5495707393 4287992349
-0.2756237984 -0.1782661974 0.5505757928 4287992604
-0.2761269510 -0.1779787838 0.5515809059 4287992604
-0.2766301334 -0.1776891500 0.5525860190 4288320799
-0.2762727141 -0.1768463999 0.5518720150 4288386592
-0.2772061825 -0.1768286824 0.5537366867 4288452385
-0.2777093649 -0.1765332967 0.5547418594 4288452385
-0.2777818739 -0.1759628952 0.5548867583 4288255006
-0.2782849967 -0.1756639630 0.5558917522 4288123420
-0.2792190313 -0.1756338477 0.5577575564 4288255006
-0.2788603008 -0.1747892946 0.5570409298 4288320799
-0.2793633938 -0.1744845957 0.5580459237 4287926041
-0.2802977264 -0.1744460464 0.5599122643 4288320799
-0.2808009684 -0.1741360277 0.5609174967 4288649764
-0.2813042104 -0.1738237739 0.5619227886 4288452385
-0.2813759148 -0.1732435971 0.5620660782 4288320799
-0.2818790972 -0.1729277819 0.5630711913 4288320799
-0.2823823094 -0.1726097614 0.5640763044 4288320799
-0.2828854918 -0.1722895056 0.5650815368 4288255006
-0.2833887041 -0.1719670147 0.5660867095 4288320799
-0.2838919461 -0.1716423184 0.5670919418 4288320799
-0.2839629650 -0.1710550189 0.5672338009 4288255007
-0.2844661176 -0.1707267463 0.5682388544 4288320800
-0.2845368087 -0.1701376736 0.5683801174 4288255007
-0.2850398719 -0.1698058397 0.5693849921 4288255007
-0.2855429053 -0.1694717705 0.5703898668 4288123421
-0.2860459387 -0.1691354662 0.5713946819 4287991835
-0.2865490019 -0.1687969416 0.5723995566 4288057628
-0.2870520353 -0.1684561670 0.5734044313 4288057628
-0.2866889536 -0.1676068008 0.5726791620 4288057374
-0.2871917784 -0.1672633737 0.5736835599 4288123167
-0.2876946032 -0.1669176966 0.5746880174 4288188449
-0.2881974280 -0.1665697992 0.5756924152 4288188449
-0.2887002230 -0.1662196517 0.5766968131 4288122656
-0.2892030180 -0.1658672690 0.5777011514 4288056863
-0.2897058129 -0.1655126512 0.5787055492 4287925277
-0.2897748053 -0.1649089307 0.5788433552 4287925277
-0.2902774811 -0.1645507365 0.5798474550 4287991070
-0.2907801270 -0.1641903073 0.5808514953 4288056863
-0.2908486426 -0.1635834873 0.5809884071 4288122658
-0.2913511395 -0.1632194817 0.5819922090 4288122658
-0.2914193273 -0.1626108885 0.5821284056 4288122658
-0.2919217050 -0.1622433066 0.5831319094 4288056865
-0.2919895351 -0.1616329700 0.5832674503 4287859486
-0.2924917638 -0.1612618119 0.5842706561 4287859486
-0.2929939628 -0.1608884037 0.5852738023 4287925281
-0.2934961617 -0.1605127752 0.5862769485 4287991074
-0.2935633957 -0.1598979980 0.5864112377 4287727908
-0.2940654159 -0.1595187783 0.5874140859 4287662115
-0.2941322923 -0.1589022428 0.5875476599 4287596322
-0.2946341336 -0.1585194468 0.5885501504 4287662115
-0.2947006524 -0.1579011679 0.5886830688 4287530531
-0.2952023745 -0.1575147957 0.5896852016 4287201566
-0.2957040071 -0.1571261734 0.5906873345 4286873371
-0.2957700491 -0.1565048248 0.5908191800 4287004957
-0.2962715328 -0.1561126262 0.5918209553 4287004957
-0.2963371873 -0.1554895192 0.5919520855 4286873371
-0.2968384922 -0.1550937444 0.5929535031 4286873116
-0.2969037890 -0.1544688940 0.5930839181 4286807323
-0.2974049151 -0.1540695429 0.5940849185 4286807323
-0.2974697948 -0.1534429491 0.5942145586 4286741530
-0.2979707420 -0.1530400217 0.5952152610 4286544151
-0.2980352640 -0.1524116993 0.5953441262 4286412565
-0.2980995774 -0.1517829597 0.5954725742 4286280456
-0.2981636226 -0.1511538178 0.5956005454 4287464730
-0.2982274294 -0.1505242735 0.5957279801 4289898302
-0.2978542745 -0.1496748626 0.5949825644 4291016783
-0.2983543575 -0.1492639780 0.5959814787 4290950987
-0.2979805171 -0.1484155953 0.5952347517 4291082573
-0.2981058061 -0.1471547484 0.5954850316 4288385603
-0.2981680930 -0.1465237290 0.5956094265 4286807373
-0.2982301116 -0.1458923072 0.5957333446 4287333717
-0.2982919216 -0.1452604979 0.5958567858 4286216515
-0.2983534634 -0.1446283013 0.5959797502 4286150722
-0.2988523245 -0.1442068517 0.5969762802 4286084929
-0.2989134789 -0.1435729414 0.5970984101 4286084929
-0.2994121313 -0.1431479156 0.5980945230 4286413383
-0.2994728982 -0.1425123066 0.5982158780 4286808141
-0.2999713123 -0.1420837194 0.5992115140 4287006054
-0.3000316620 -0.1414464116 0.5993320346 4287137640
-0.3005298674 -0.1410142630 0.6003272533 4287597414
-0.3005897999 -0.1403752565 0.6004469395 4287794793
-0.3010877669 -0.1399395615 0.6014416814 4287926130
-0.3011472821 -0.1392988563 0.6015605927 4288386681
-0.3012065589 -0.1386577636 0.6016790271 4288322174
-0.3012655973 -0.1380162984 0.6017969251 4289045897
-0.3013243973 -0.1373744607 0.6019143462 4289507236
-0.3013828993 -0.1367322356 0.6020312309 4289901994
-0.3014411926 -0.1360896528 0.6021476984 4289968306
-0.3014992177 -0.1354466826 0.6022635698 4289639341
-0.3015569746 -0.1348033547 0.6023789644 4289506738
-0.3016144931 -0.1341596544 0.6024938822 4289243566
-0.3021108806 -0.1337099373 0.6034854054 4289374641
-0.3021679819 -0.1330645531 0.6035994887 4289769399
-0.3022248149 -0.1324188262 0.6037130356 4289375165
-0.3022814095 -0.1317727268 0.6038260460 4288585649
-0.3027771711 -0.1313168406 0.6048163772 4286678681
-0.3028333187 -0.1306690872 0.6049285531 4285362821
-0.3028892279 -0.1300209612 0.6050401926 4283981655
-0.3033845425 -0.1295602471 0.6060296893 4283718483
-0.3034400046 -0.1289104670 0.6061404347 4285757252
-0.3034952283 -0.1282603294 0.6062507033 4286941526
-0.3035501540 -0.1276098341 0.6063604951 4287664186
-0.3036048412 -0.1269589961 0.6064696908 4287532600
-0.3036592603 -0.1263078004 0.6065784097 4287860011
-0.3037134409 -0.1256562620 0.6066865921 4287991597
-0.3037673235 -0.1250043660 0.6067942977 4288056614
-0.3038209677 -0.1243521273 0.6069014668 4288648751
-0.3038743436 -0.1236995459 0.6070080996 4288911155
-0.3039274812 -0.1230466217 0.6071141958 4288779569
-0.3044208884 -0.1225707382 0.6080997586 4289108021
-0.3044735491 -0.1219161823 0.6082049608 4289239607
-0.3045259416 -0.1212612912 0.6083096862 4288716076
-0.3045780957 -0.1206060648 0.6084138155 4289045041
-0.3050708175 -0.1201240867 0.6093980670 4289767982
-0.3051224947 -0.1194672361 0.6095013022 4289702189
-0.3051739037 -0.1188100576 0.6096040010 4289832490
-0.3052250743 -0.1181525439 0.6097061634 4290095662
-0.3052759469 -0.1174946949 0.6098078489 4289899328
-0.3053265512 -0.1168365255 0.6099089384 4289833535
-0.3053769171 -0.1161780283 0.6100094914 4290161487
-0.3058683574 -0.1156861410 0.6109912395 4290161487
-0.3059182465 -0.1150260419 0.6110908389 4289042490
-0.3059678674 -0.1143656224 0.6111899614 4286608149
-0.3064587712 -0.1138689592 0.6121706367 4285359877
-0.3065079153 -0.1132069454 0.6122688055 4285820428
-0.3069985211 -0.1127067804 0.6132488251 4285950735
-0.3070471883 -0.1120431796 0.6133460402 4285884942
-0.3075374663 -0.1115395203 0.6143253446 4285819149
-0.3080275953 -0.1110336334 0.6153044105 4285819149
-0.3080755770 -0.1103671789 0.6154003143 4285753356
-0.3081232905 -0.1097004116 0.6154956222 4285753356
-0.3081707358 -0.1090333387 0.6155903935 4285819151
-0.3077757061 -0.1082104892 0.6148012877 4285753358
-0.3078225255 -0.1075437590 0.6148948073 4285753358
-0.3078690767 -0.1068767235 0.6149877906 4285819151
-0.3079153597 -0.1062093899 0.6150802374 4285884942
-0.3079613745 -0.1055417582 0.6151721478 4285819149
-0.3080070913 -0.1048738286 0.6152634621 4285753356
-0.3076099157 -0.1040558740 0.6144701242 4285687563
-0.3076550364 -0.1033883095 0.6145601869 4285753358
-0.3076998591 -0.1027204543 0.6146497726 4285819151
-0.3077444136 -0.1020523086 0.6147387028 4285885455
-0.3077886701 -0.1013838723 0.6148271561 4285951248
-0.3073897362 -0.1005702391 0.6140303016 4285951248
-0.3078763783 -0.1000461429 0.6150023341 4285951248
-0.3079198003 -0.0993768424 0.6150891185 4286017041
-0.3079629540 -0.0987072662 0.6151753068 4286082834
-0.3075626791 -0.0978963524 0.6143757105 4286082834
-0.3076052070 -0.0972271785 0.6144606471 4286082834
-0.3076474667 -0.0965577289 0.6145450473 4285951246
-0.3072460592 -0.0957498401 0.6137433052 4286017039
-0.3072876930 -0.0950808078 0.6138264537 4286082832
-0.3073290586 -0.0944115072 0.6139090657 4286082832
-0.3073701262 -0.0937419385 0.6139910817 4286082832
-0.3069673181 -0.0929377973 0.6131864786 4286148625
-0.3070077598 -0.0922686607 0.6132672429 4286280211
-0.3066042364 -0.0914668888 0.6124611497 4286411797
-0.3066440523 -0.0907981917 0.6125407219 4286280211
-0.3071274161 -0.0902596712 0.6135062575 4286280211
-0.3071667254 -0.0895894915 0.6135848165 4286411538
-0.3072057664 -0.0889190510 0.6136627793 4286477331
-0.3072445393 -0.0882483572 0.6137402058 4286477331
-0.3072829843 -0.0875774100 0.6138170362 4286477331
-0.3068770766 -0.0867806301 0.6130061746 4286411797
-0.3069149256 -0.0861101523 0.6130818129 4286346004
-0.3069524765 -0.0854394287 0.6131567955 4286411797
-0.3069897592 -0.0847684592 0.6132313013 4286346004
-0.3065824211 -0.0839755461 0.6124175787 4286412051
-0.3066190779 -0.0833050683 0.6124908328 4286477844
-0.3070998788 -0.0827541053 0.6134512424 4286412051
-0.3066915274 -0.0819633827 0.6126355529 4286477844
-0.3067273200 -0.0812921897 0.6127070785 4286412567
-0.3063182533 -0.0805039182 0.6118898988 4286412567
-0.3063534200 -0.0798332319 0.6119601727 4286608919
-0.3063883185 -0.0791623145 0.6120298505 4286411540
-0.3064229190 -0.0784911662 0.6120989323 4286279954
-0.3060124218 -0.0777068511 0.6112790108 4286345747
-0.3060463965 -0.0770362243 0.6113469005 4286411540
-0.3056352139 -0.0762543827 0.6105254889 4286345747
-0.3056685627 -0.0755842924 0.6105921268 4286214159
-0.3061466217 -0.0750230327 0.6115470529 4285950987
-0.3057344258 -0.0742434636 0.6107236743 4286081803
-0.3057669103 -0.0735727251 0.6107885242 4286081803
-0.3057990968 -0.0729017705 0.6108528972 4286081803
-0.3058310151 -0.0722306073 0.6109166145 4286081803
-0.3058626354 -0.0715592355 0.6109797955 4286147851
-0.3058939874 -0.0708876550 0.6110423803 4286082058
-0.3054797351 -0.0701136589 0.6102148890 4286082058
-0.3055104315 -0.0694426447 0.6102762222 4286213644
-0.3055408597 -0.0687714368 0.6103370190 4286147336
-0.3055709898 -0.0681000203 0.6103972197 4286476301
-0.3056008518 -0.0674284101 0.6104568243 4286674195
-0.3051848710 -0.0666592941 0.6096258759 4286805781
-0.3052140772 -0.0659882724 0.6096842885 4287003160
-0.3052430153 -0.0653170645 0.6097420454 4287266332
-0.3052716553 -0.0646456629 0.6097992659 4287200024
-0.3052999973 -0.0639740676 0.6098558903 4286871059
-0.3053280711 -0.0633022934 0.6099119782 4286607887
-0.3049100637 -0.0625388995 0.6090769768 4286739473
-0.3049375117 -0.0618677400 0.6091317534 4286147849
-0.3054105043 -0.0612858683 0.6100766063 4285621505
-0.3058832884 -0.0607018508 0.6110210419 4285884677
-0.3059099317 -0.0600281917 0.6110742688 4286279435
-0.3054902852 -0.0592678338 0.6102360487 4286542094
-0.3055163026 -0.0585948080 0.6102879643 4286739473
-0.3055420518 -0.0579216108 0.6103393435 4286476555
-0.3055674732 -0.0572482422 0.6103901863 4286542348
-0.3051464856 -0.0564921200 0.6095492244 4286542094
-0.3056174517 -0.0559010096 0.6104900241 4286542094
-0.3051958084 -0.0551465265 0.6096477509 4286476042
-0.3052200377 -0.0544734858 0.6096961498 4286476042
-0.3052439392 -0.0538002849 0.6097439528 4286673419
-0.3052675724 -0.0531269312 0.6097911596 4286936591
-0.3048445880 -0.0523767322 0.6089462042 4286938131
-0.3048675954 -0.0517040528 0.6089921594 4286674959
-0.3048903346 -0.0510312207 0.6090375185 4286873878
-0.3044663072 -0.0502845086 0.6081905365 4287663394
-0.3049348593 -0.0496851094 0.6091265082 4288189480
-0.3049567044 -0.0490118377 0.6091701388 4288913203
-0.3049782515 -0.0483384207 0.6092131734 4290227516
-0.3045529425 -0.0475950725 0.6083635688 4290885446
-0.3045738339 -0.0469223596 0.6084053516 4290163791
-0.3041478395 -0.0461816937 0.6075543761 4290032205
-0.3037214875 -0.0454428680 0.6067027450 4289966941
-0.3037414849 -0.0447717197 0.6067426205 4290032734
-0.3046545684 -0.0442301519 0.6085665822 4290033536
-0.3046739995 -0.0435567684 0.6086054444 4291349396
-0.3050376177 -0.2289407402 0.6106866598 4287335800
-0.3047961295 -0.2274035364 0.6102032065 4288322615
-0.3048869371 -0.2267931104 0.6103850007 4288388408
-0.3049775660 -0.2261821330 0.6105663776 4289176384
-0.3046436906 -0.2252568752 0.6098979712 4289307970
-0.3030361235 -0.2233941555 0.6066796184 4289309765
-0.2950591743 -0.2168573290 0.5907097459 4289507144
-0.3006667197 -0.2203098834 0.6019361019 4289244235
-0.2841880023 -0.2076031566 0.5689455867 4288849477
-0.2766226828 -0.2014612854 0.5537998080 4288782655
-0.2737281919 -0.1987443864 0.5480050445 4288848448
-0.2721073031 -0.1969622523 0.5447600484 4289176897
-0.2700599730 -0.1948795915 0.5406612158 4289111104
-0.2709891200 -0.1949473023 0.5425213575 4289244235
-0.2693653405 -0.1931800097 0.5392706394 4289902165
-0.2694430649 -0.1926364154 0.5394262075 4289640787
-0.2690948546 -0.1917888820 0.5387290716 4289246029
-0.2683202922 -0.1906399876 0.5371783972 4288588609
-0.2683971226 -0.1900975704 0.5373322368 4287470128
-0.2684737742 -0.1895546764 0.5374856591 4287404076
-0.2681239843 -0.1887113005 0.5367854238 4287338283
-0.2686265707 -0.1884675026 0.5377915502 4286943271
-0.2682761848 -0.1876249313 0.5370901227 4286416927
-0.2683520317 -0.1870810539 0.5372419357 4286087698
-0.2684276700 -0.1865367144 0.5373933911 4285956112
-0.2685031593 -0.1859919131 0.5375444889 4286285067
-0.2690054476 -0.1857414842 0.5385500789 4286548239
-0.2695077956 -0.1854888499 0.5395557880 4287006228
-0.2700102031 -0.1852340400 0.5405616164 4286874642
-0.2705126703 -0.1849770248 0.5415675640 4286809619
-0.2710151970 -0.1847178042 0.5425735712 4286875412
-0.2715177536 -0.1844563931 0.5435797572 4286875412
-0.2724480927 -0.1844823956 0.5454422832 4286941205
-0.2720952332 -0.1836382300 0.5447358489 4287072021
-0.2721699178 -0.1830832213 0.5448853970 4286874642
-0.2726724744 -0.1828147471 0.5458914638 4286940435
-0.2727468908 -0.1822579503 0.5460404754 4286677263
-0.2732494175 -0.1819859445 0.5470464826 4286611470
-0.2737519741 -0.1817117333 0.5480526686 4286808849
-0.2738260627 -0.1811518222 0.5482009649 4287006228
-0.2738999724 -0.1805914491 0.5483489037 4287072021
-0.2739736736 -0.1800306290 0.5484964848 4287269400
-0.2744760513 -0.1797502190 0.5495022535 4287532572
-0.2745495141 -0.1791876256 0.5496492982 4288057628
-0.2746227682 -0.1786245704 0.5497959852 4288255007
-0.2751250267 -0.1783392876 0.5508015156 4288255007
-0.2751980126 -0.1777744591 0.5509476066 4288320800
-0.2757002413 -0.1774856299 0.5519530773 4288452386
-0.2762024999 -0.1771945953 0.5529586077 4288452386
-0.2767048180 -0.1769013405 0.5539642572 4288386592
-0.2772071362 -0.1766058654 0.5549699068 4288452385
-0.2772795856 -0.1760352701 0.5551149845 4288320286
-0.2777818739 -0.1757362485 0.5561205149 4288122907
-0.2787142694 -0.1757061630 0.5579872131 4288122907
-0.2783562541 -0.1748612970 0.5572704077 4288451872
-0.2792888284 -0.1748258770 0.5591374040 4288254493
-0.2797911763 -0.1745179892 0.5601431727 4288386079
-0.2802935541 -0.1742078662 0.5611489415 4288386079
-0.2807959616 -0.1738955230 0.5621547699 4288386079
-0.2812983990 -0.1735809594 0.5631605983 4288254494
-0.2809390426 -0.1727343202 0.5624412298 4288451873
-0.2818722725 -0.1726811230 0.5643095374 4288451872
-0.2823746204 -0.1723607630 0.5653152466 4288386079
-0.2833082080 -0.1723004431 0.5671842694 4288451872
-0.2833793759 -0.1717133820 0.5673267245 4288451872
-0.2838817537 -0.1713863462 0.5683325529 4288386080
-0.2839526236 -0.1707974970 0.5684744120 4288451873
-0.2844549119 -0.1704668999 0.5694800019 4288320289
-0.2849572003 -0.1701340675 0.5704855919 4288254496
-0.2850276530 -0.1695421040 0.5706266165 4288122908
-0.2855298519 -0.1692057103 0.5716319680 4288057115
-0.2860320508 -0.1688670665 0.5726373792 4287991322
-0.2865342200 -0.1685262024 0.5736427903 4287991322
-0.2866041362 -0.1679297984 0.5737827420 4288057117
-0.2871062160 -0.1675853580 0.5747879148 4288057117
-0.2876082957 -0.1672386676 0.5757930875 4287991070
-0.2881103754 -0.1668897569 0.5767982602 4288122656
-0.2886124551 -0.1665385962 0.5778033733 4288122656
-0.2891145051 -0.1661852002 0.5788084865 4287991070
-0.2896165550 -0.1658295691 0.5798135996 4287859486
-0.2892525494 -0.1649777442 0.5790848732 4287727900
-0.2897543609 -0.1646194458 0.5800895095 4287793693
-0.2902561724 -0.1642588973 0.5810941458 4288056865
-0.2907579541 -0.1638960987 0.5820986629 4288122658
-0.2908262908 -0.1632877141 0.5822355151 4288122658
-0.2913279235 -0.1629213542 0.5832397938 4288320037
-0.2918295562 -0.1625527442 0.5842440724 4288254244
-0.2918974459 -0.1619412601 0.5843799710 4287991072
-0.2923988998 -0.1615690738 0.5853838921 4287859486
-0.2929003537 -0.1611946374 0.5863878131 4287859486
-0.2929677665 -0.1605800688 0.5865227580 4287793693
-0.2934690714 -0.1602020562 0.5875263214 4287662118
-0.2935360968 -0.1595857143 0.5876605511 4287596325
-0.2940372527 -0.1592041254 0.5886638761 4287727398
-0.2941039503 -0.1585860401 0.5887973905 4287793191
-0.2946049273 -0.1582008600 0.5898003578 4287662118
-0.2951058745 -0.1578134447 0.5908032060 4287267360
-0.2951720655 -0.1571922600 0.5909357667 4286938909
-0.2956728339 -0.1568012685 0.5919383168 4286938909
-0.2957386374 -0.1561783403 0.5920701027 4287004704
-0.2962392569 -0.1557837576 0.5930722952 4286873118
-0.2963047028 -0.1551590860 0.5932033062 4286938911
-0.2968051136 -0.1547609270 0.5942051411 4286873118
-0.2968702018 -0.1541345119 0.5943354368 4286741532
-0.2973704338 -0.1537327766 0.5953369141 4286807325
-0.2974351346 -0.1531046182 0.5954664946 4286544666
-0.2979351878 -0.1526992917 0.5964675546 4286478873
-0.2979995012 -0.1520694047 0.5965963602 4286477833
-0.2980636060 -0.1514391005 0.5967246294 4286675212
-0.2981274426 -0.1508083940 0.5968524814 4287530531
-0.2977550924 -0.1499577314 0.5961070061 4288320047
-0.2982544303 -0.1495457739 0.5971066356 4288386092
-0.2978814244 -0.1486961395 0.5963599086 4288386092
-0.2979442179 -0.1480647475 0.5964856148 4287793454
-0.2980067730 -0.1474329531 0.5966108441 4286082836
-0.2980690598 -0.1468007714 0.5967355967 4285622307
-0.2981311381 -0.1461681873 0.5968598723 4285556514
-0.2986295521 -0.1457482874 0.5978577137 4285295133
-0.2986912429 -0.1451139897 0.5979811549 4284900375
-0.2987526655 -0.1444793046 0.5981041789 4284966948
-0.2992507219 -0.1440545171 0.5991012454 4284835362
-0.2993117571 -0.1434181184 0.5992234349 4284703273
-0.2998095751 -0.1429897696 0.6002200842 4284308515
-0.2998701930 -0.1423516572 0.6003414392 4284112166
-0.3003678024 -0.1419197470 0.6013376713 4284243752
-0.3004280329 -0.1412799358 0.6014581919 4284440351
-0.3009253740 -0.1408444494 0.6024539471 4284374558
-0.3014226854 -0.1404067278 0.6034495234 4284702498
-0.3014823198 -0.1397639066 0.6035689116 4284636705
-0.3015417159 -0.1391206980 0.6036878228 4284900644
-0.3016008735 -0.1384771168 0.6038062572 4284703265
-0.3016597629 -0.1378331631 0.6039241552 4285230649
-0.3017184138 -0.1371888220 0.6040415764 4285099063
-0.3017767966 -0.1365441084 0.6041584611 4285098558
-0.3018349409 -0.1358990222 0.6042748690 4285230144
-0.3018928170 -0.1352535635 0.6043907404 4285623887
-0.3019504547 -0.1346077323 0.6045061350 4285821266
-0.3020078242 -0.1339615285 0.6046209931 4286610531
-0.3025033772 -0.1335084587 0.6056130528 4287268461
-0.3025603294 -0.1328605860 0.6057270765 4287467110
-0.3026170135 -0.1322123557 0.6058406234 4287993454
-0.3026734591 -0.1315637529 0.6059535742 4287335546
-0.3031683862 -0.1311045289 0.6069444418 4286348651
-0.3032243848 -0.1304542571 0.6070565581 4285230932
-0.3032801449 -0.1298036426 0.6071681380 4284836174
-0.3037745953 -0.1293395609 0.6081581116 4285362231
-0.3038299084 -0.1286872774 0.6082687974 4285033266
-0.3038849831 -0.1280346513 0.6083790660 4285361180
-0.3039397597 -0.1273816526 0.6084887385 4285361180
-0.3039942980 -0.1267283112 0.6085978746 4285425674
-0.3040485680 -0.1260746270 0.6087065339 4285623053
-0.3041025698 -0.1254205853 0.6088146567 4285950217
-0.3041563034 -0.1247661933 0.6089222431 4285884424
-0.3042097986 -0.1241114587 0.6090293527 4285686283
-0.3047026992 -0.1236347780 0.6100161672 4285686283
-0.3047557473 -0.1229784116 0.6101223230 4285883392
-0.3048084974 -0.1223216951 0.6102279425 4286080768
-0.3048610091 -0.1216646433 0.6103330851 4285820165
-0.3049132526 -0.1210072488 0.6104376912 4285688579
-0.3049652278 -0.1203495264 0.6105417013 4285818118
-0.3054570854 -0.1198641732 0.6115264297 4285489153
-0.3055085838 -0.1192048267 0.6116295457 4285948676
-0.3055598438 -0.1185451448 0.6117321253 4285948676
-0.3056108356 -0.1178851351 0.6118342280 4285687815
-0.3056615591 -0.1172247902 0.6119357347 4285490436
-0.3057119846 -0.1165641248 0.6120367646 4285753105
-0.3057621717 -0.1159031242 0.6121371984 4285753105
-0.3062527180 -0.1154078618 0.6131193042 4285883661
-0.3063024580 -0.1147452593 0.6132188439 4285554696
-0.3063518703 -0.1140823439 0.6133177876 4285755401
-0.3064010441 -0.1134191081 0.6134162545 4285492229
-0.3064499497 -0.1127555445 0.6135141253 4285819151
-0.3069395721 -0.1122529581 0.6144943833 4285884944
-0.3069880009 -0.1115878150 0.6145913601 4285884942
-0.3079184592 -0.1112410948 0.6164540648 4285884942
-0.3079664707 -0.1105734110 0.6165502071 4285819149
-0.3080142140 -0.1099054143 0.6166458130 4285753356
-0.3080616891 -0.1092371121 0.6167408228 4285687565
-0.3076674640 -0.1084129512 0.6159515977 4285687565
-0.3077143133 -0.1077449918 0.6160454154 4285621772
-0.3077608943 -0.1070767269 0.6161386371 4285753358
-0.3078071773 -0.1064081565 0.6162313223 4285819151
-0.3078531921 -0.1057392880 0.6163234711 4285753358
-0.3078989387 -0.1050701141 0.6164150238 4285753358
-0.3079444170 -0.1044006497 0.6165060997 4285753358
-0.3079895973 -0.1037308872 0.6165965199 4285753358
-0.3075925708 -0.1029129699 0.6158016920 4285819151
-0.3076371551 -0.1022435874 0.6158909202 4285950737
-0.3072393835 -0.1014279649 0.6150946021 4286082323
-0.3072833121 -0.1007589698 0.6151825786 4286082321
-0.3077692091 -0.1002336890 0.6161552668 4286016528
-0.3078126609 -0.0995631590 0.6162422895 4286082321
-0.3078558445 -0.0988923386 0.6163287163 4286148114
-0.3074563444 -0.0980801135 0.6155289412 4286017041
-0.3074989021 -0.0974096954 0.6156141758 4286017041
-0.3075411618 -0.0967390016 0.6156987548 4285951248
-0.3075831831 -0.0960680321 0.6157828569 4285951248
-0.3071822524 -0.0952595323 0.6149802208 4286017041
-0.3067809343 -0.0944526866 0.6141768098 4286017041
-0.3068219721 -0.0937828347 0.6142589450 4286082834
-0.3068627417 -0.0931127146 0.6143405437 4286148627
-0.3069032133 -0.0924423262 0.6144215465 4286280213
-0.3069433868 -0.0917716771 0.6145020127 4286346006
-0.3069832921 -0.0911007598 0.6145818830 4286345747
-0.3065798879 -0.0902990997 0.6137742400 4286345747
-0.3066191673 -0.0896286368 0.6138529181 4286542354
-0.3066581786 -0.0889579132 0.6139310002 4286608147
-0.3066968918 -0.0882869363 0.6140084863 4286477331
-0.3067353070 -0.0876157060 0.6140854359 4286477331
-0.3067734540 -0.0869442299 0.6141618490 4286411797
-0.3063679636 -0.0861478224 0.6133499742 4286346004
-0.3064054847 -0.0854768157 0.6134251356 4286411797
-0.3064427376 -0.0848055631 0.6134997010 4286346004
-0.3064796925 -0.0841340721 0.6135736704 4286477331
-0.3060727715 -0.0833415464 0.6127590537 4286543124
-0.3065527380 -0.0827903524 0.6137199402 4286543637
-0.3065888584 -0.0821181312 0.6137922406 4286543637
-0.3061809242 -0.0813278109 0.6129755378 4286412567
-0.3062163889 -0.0806560963 0.6130465865 4286412567
-0.3058077395 -0.0798682347 0.6122284532 4286477592
-0.3058426082 -0.0791970268 0.6122982502 4286280213
-0.3058771789 -0.0785255954 0.6123674512 4286214420
-0.3059114516 -0.0778539330 0.6124360561 4286280213
-0.3055014014 -0.0770700350 0.6116151810 4286345493
-0.3050909638 -0.0762878582 0.6107934713 4286345493
-0.3051242828 -0.0756174773 0.6108601689 4286148368
-0.3051573336 -0.0749468803 0.6109263301 4286016782
-0.3051900864 -0.0742760673 0.6109918952 4285819403
-0.3052225411 -0.0736050457 0.6110568643 4285753610
-0.3052547276 -0.0729338005 0.6111212969 4285687045
-0.3052866161 -0.0722623467 0.6111851335 4285621252
-0.3053182065 -0.0715906844 0.6112483740 4285818631
-0.3049050272 -0.0708155856 0.6104212403 4285752838
-0.3049360216 -0.0701444894 0.6104832292 4285621252
-0.3049666882 -0.0694731921 0.6105446815 4285687045
-0.3049970865 -0.0688016862 0.6106055379 4285884166
-0.3054718375 -0.0682293028 0.6115559936 4286213131
-0.3050570190 -0.0674580857 0.6107254624 4286411023
-0.3050865531 -0.0667859912 0.6107845902 4286411023
-0.3046710193 -0.0660173297 0.6099526882 4286674195
-0.3046999276 -0.0653458238 0.6100105643 4287003160
-0.3047285378 -0.0646741316 0.6100678444 4287068440
-0.3047568500 -0.0640022531 0.6101245284 4286805268
-0.3043399453 -0.0632377341 0.6092898846 4286476301
-0.3043676615 -0.0625664592 0.6093453765 4286805266
-0.3043950498 -0.0618950091 0.6094002724 4286411023
-0.3048672378 -0.0613128841 0.6103455424 4285884679
-0.3048941195 -0.0606400892 0.6103993654 4286016265
-0.3049206734 -0.0599671192 0.6104525328 4286279437
-0.3049469590 -0.0592939742 0.6105051637 4286476301
-0.3049729764 -0.0586206540 0.6105571985 4286542094
-0.3049986660 -0.0579471663 0.6106086373 4286345228
-0.3050240576 -0.0572735071 0.6106595397 4286411021
-0.3050491810 -0.0565996803 0.6107097864 4286344462
-0.3050740063 -0.0559256859 0.6107594967 4286212876
-0.3050985336 -0.0552515313 0.6108086109 4286212619
-0.3046773374 -0.0544975400 0.6099653840 4286212619
-0.3047012389 -0.0538240485 0.6100132465 4286410249
-0.3047248423 -0.0531503968 0.6100605130 4286739214
-0.3047481775 -0.0524765924 0.6101071835 4286214408
-0.3043256104 -0.0517268963 0.6092612147 4286543373
-0.3043483198 -0.0510537736 0.6093066931 4286742035
-0.3048163652 -0.0504542589 0.6102436781 4287136793
-0.3043928146 -0.0497070737 0.6093958020 4287859746
-0.3044146299 -0.0490335040 0.6094394326 4288188711
-0.3039904237 -0.0482889861 0.6085901856 4288845354
-0.3040116131 -0.0476161204 0.6086326241 4289898042
-0.3035867214 -0.0468742810 0.6077819467 4289768512
-0.3036072850 -0.0462021232 0.6078231335 4290492235
-0.3036275804 -0.0455298275 0.6078637242 4290624594
-0.3036475778 -0.0448574014 0.6079037786 4290493008
-0.3036672473 -0.0441848412 0.6079431772 4289902437
-0.3036866486 -0.0435121506 0.6079819798 4289770851
-0.3037057519 -0.0428393334 0.6080202460 4290231957
-0.3040578663 -0.2287139595 0.6100817323 4287926630
-0.3033029139 -0.2274699360 0.6085669994 4288584560
-0.3033935726 -0.2268615514 0.6087488532 4288717628
-0.3034840226 -0.2262526304 0.6089303493 4289046593
-0.3035742939 -0.2256431580 0.6091114879 4289374540
-0.3028173447 -0.2244054377 0.6075926423 4289506126
-0.2978232205 -0.2200405598 0.5975721478 4289505862
-0.3013013601 -0.2219385952 0.6045508981 4289703241
-0.2916404903 -0.2141722590 0.5851666927 4289442129
-0.2815496922 -0.2061342001 0.5649198890 4288981578
-0.2756941915 -0.2012325376 0.5531710386 4288980034
-0.2753505409 -0.2003678530 0.5524814725 4289111620
-0.2728845179 -0.1979650110 0.5475334525 4289112903
-0.2712658346 -0.1961860061 0.5442856550 4289507661
-0.2700706720 -0.1947195381 0.5418875813 4290165591
-0.2692993283 -0.1935630590 0.5403398871 4290362970
-0.2689522207 -0.1927139759 0.5396434069 4289376332
-0.2686046660 -0.1918661445 0.5389460921 4288521023
-0.2682567239 -0.1910195649 0.5382479429 4287864635
-0.2679083347 -0.1901742518 0.5375489593 4287404084
-0.2675595582 -0.1893301755 0.5368491411 4287601463
-0.2667848468 -0.1881872267 0.5352947116 4287009326
-0.2672863305 -0.1879450977 0.5363008976 4286613792
-0.2673621476 -0.1874023676 0.5364530087 4286416413
-0.2674377859 -0.1868591905 0.5366047621 4286415892
-0.2679392099 -0.1866122186 0.5376108885 4286350099
-0.2688668072 -0.1866588593 0.5394720435 4286416403
-0.2680898309 -0.1855217963 0.5379130840 4286613782
-0.2685911953 -0.1852699816 0.5389190912 4286547476
-0.2695190907 -0.1853091717 0.5407809019 4286481683
-0.2700207233 -0.1850520968 0.5417873263 4286743828
-0.2709490657 -0.1850842983 0.5436500907 4286809621
-0.2714509070 -0.1848219484 0.5446569920 4286678035
-0.2719528079 -0.1845573932 0.5456640124 4286743828
-0.2720277011 -0.1840017885 0.5458143353 4286810132
-0.2721024156 -0.1834457219 0.5459642410 4286744339
-0.2721769512 -0.1828891933 0.5461137891 4286350606
-0.2726787031 -0.1826184541 0.5471205115 4286219020
-0.2727529705 -0.1820601374 0.5472695231 4286350095
-0.2732546926 -0.1817858517 0.5482761860 4286679060
-0.2733286917 -0.1812257469 0.5484247208 4287269141
-0.2734025121 -0.1806651950 0.5485728383 4287400727
-0.2739041448 -0.1803860366 0.5495793223 4287925788
-0.2739776969 -0.1798236966 0.5497269034 4287991581
-0.2740510702 -0.1792609096 0.5498741269 4288254493
-0.2745525539 -0.1789768785 0.5508803725 4288451872
-0.2741972208 -0.1781339645 0.5501673818 4288649251
-0.2746985853 -0.1778472811 0.5511733294 4288780837
-0.2756286263 -0.1778349429 0.5530394316 4288780837
-0.2752726078 -0.1769915670 0.5523250699 4288583458
-0.2762027979 -0.1769739240 0.5541915298 4288517665
-0.2767042816 -0.1766783744 0.5551977158 4288517665
-0.2767766714 -0.1761075705 0.5553429723 4288517665
-0.2772780955 -0.1758084595 0.5563490391 4288320286
-0.2777795196 -0.1755071431 0.5573551655 4288320286
-0.2782810032 -0.1752036065 0.5583613515 4288254493
-0.2787824869 -0.1748978347 0.5593675375 4288188701
-0.2792840004 -0.1745898575 0.5603738427 4288188701
-0.2797855437 -0.1742796451 0.5613801479 4288320287
-0.2802870870 -0.1739672124 0.5623865128 4288320287
-0.2807886600 -0.1736525595 0.5633928776 4288517665
-0.2804300189 -0.1728055924 0.5626732707 4288517665
-0.2813616395 -0.1727524102 0.5645425320 4288452385
-0.2822934687 -0.1726952195 0.5664122105 4288320799
-0.2819342017 -0.1718469262 0.5656913519 4288320800
