VERSION 0.7
FIELDS x y z rgba
SIZE 4 4 4 4
TYPE F F F U
COUNT 1 1 1 1
WIDTH 920
HEIGHT 1
VIEWPOINT 0.0 0.0 0.0 1.0 0.0 0.0 0.0
POINTS 920
DATA ascii
-0.2764203250 -0.1368052512 0.5343829393 4288898633
-0.2769272923 -0.1364613473 0.5353630185 4289029190
-0.2769860327 -0.1358953416 0.5354766250 4289160776
-0.2770445645 -0.1353289783 0.5355897546 4289227082
-0.2771028578 -0.1347622573 0.5357024670 4289227082
-0.2776094377 -0.1344123185 0.5366817713 4289292875
-0.2776674032 -0.1338439584 0.5367938280 4289227082
-0.2777251303 -0.1332752556 0.5369054675 4289292875
-0.2777826488 -0.1327061951 0.5370166302 4289424461
-0.2778399289 -0.1321367770 0.5371273756 4289358668
-0.2783459425 -0.1317795515 0.5381056666 4289490254
-0.2784028947 -0.1312085092 0.5382156968 4289359693
-0.2784596086 -0.1306371242 0.5383253694 4289359693
-0.2785161138 -0.1300653815 0.5384345651 4289425486
-0.2790216804 -0.1297021657 0.5394119620 4289425486
-0.2790777981 -0.1291288137 0.5395204425 4289491022
-0.2795831859 -0.1287621260 0.5404974818 4289491022
-0.2800885439 -0.1283932477 0.5414744616 4289556815
-0.2801441848 -0.1278170049 0.5415819883 4289491022
-0.2806493342 -0.1274446696 0.5425585508 4289688401
-0.2807045877 -0.1268668175 0.5426654220 4289885780
-0.2812095582 -0.1264910102 0.5436416268 4290017366
-0.2812644541 -0.1259115636 0.5437477231 4290017366
-0.2817692161 -0.1255322993 0.5447235703 4289951830
-0.2818237245 -0.1249512434 0.5448289514 4289951830
-0.2827785611 -0.1247671992 0.5466749072 4289820244
-0.2832831740 -0.1243813559 0.5476503968 4290149209
-0.2837876976 -0.1239933148 0.5486257672 4290609760
-0.2838416100 -0.1234072000 0.5487300158 4290543967
-0.2843459249 -0.1230157018 0.5497049689 4290347358
-0.2857516110 -0.1230100542 0.5524224639 4290478944
-0.2853543758 -0.1222261190 0.5516544580 4290478944
-0.2858584821 -0.1218280345 0.5526290536 4290413151
-0.2863625288 -0.1214277595 0.5536034703 4290545763
-0.2868664861 -0.1210252866 0.5545777678 4290611556
-0.2873703837 -0.1206206158 0.5555518866 4290677095
-0.2878742218 -0.1202137470 0.5565258861 4290611302
-0.2888292670 -0.1199921742 0.5583721995 4290807907
-0.2897843719 -0.1197665334 0.5602186918 4291071079
-0.2902881205 -0.1193512008 0.5611925721 4290942318
-0.2912433445 -0.1191183552 0.5630391836 4291139697
-0.2921986282 -0.1188814417 0.5648859739 4290878324
-0.2936056852 -0.1188232526 0.5676061511 4291733633
-0.2950129807 -0.1187591180 0.5703267455 4292001446
-0.2959686518 -0.1185081005 0.5721742511 4292725169
-0.3337522447 -0.2050487250 0.6466068625 4289701284
-0.3338381350 -0.2043828964 0.6467733383 4285490532
-0.3334821165 -0.2034470737 0.6460835338 4288312423
-0.3331256211 -0.2025125176 0.6453928947 4287983458
-0.3318848312 -0.2010438144 0.6429889798 4287587922
-0.3297590613 -0.1990462542 0.6388705373 4287587922
-0.3258633316 -0.1959933043 0.6313229799 4287586641
-0.2927761674 -0.1754625291 0.5672204494 4287455055
-0.3078905642 -0.1838579327 0.5965028405 4287651913
-0.2893836498 -0.1721835285 0.5606477857 4287651913
-0.2872431278 -0.1702916175 0.5565007925 4287651913
-0.2855440378 -0.1686696410 0.5532089472 4287454534
-0.2847294509 -0.1675755829 0.5516307950 4287322948
-0.2839142382 -0.1664846390 0.5500514507 4287322948
-0.2830983698 -0.1653968394 0.5484707952 4287388225
-0.2827250063 -0.1645701081 0.5477474332 4287256639
-0.2819079757 -0.1634877026 0.5461645126 4287322173
-0.2806469202 -0.1621522605 0.5437213778 4287190587
-0.2798284888 -0.1610770375 0.5421357751 4287124540
-0.2794530094 -0.1602593511 0.5414083004 4287058747
-0.2790770829 -0.1594430506 0.5406800508 4286993208
-0.2787007689 -0.1586281210 0.5399509072 4287124794
-0.2778801024 -0.1575628668 0.5383610129 4287255608
-0.2779468298 -0.1570024043 0.5384902954 4287058229
-0.2775692642 -0.1561916322 0.5377587676 4286927161
-0.2771912515 -0.1553822458 0.5370264053 4286992954
-0.2768128216 -0.1545742601 0.5362932682 4287059001
-0.2764339745 -0.1537676603 0.5355592966 4287059001
-0.2760547101 -0.1529624760 0.5348245502 4287058231
-0.2756750584 -0.1521586776 0.5340889692 4287058231
-0.2757396996 -0.1516008079 0.5342141986 4287189817
-0.2753593028 -0.1507989466 0.5334771872 4287387196
-0.2749784887 -0.1499984711 0.5327394009 4287255608
-0.2750422955 -0.1494412422 0.5328630805 4287255608
-0.2746607661 -0.1486427039 0.5321238637 4287255349
-0.2747240663 -0.1480855942 0.5322465301 4287321142
-0.2747871578 -0.1475281119 0.5323687196 4287649593
-0.2744045556 -0.1467320323 0.5316275358 4287846972
-0.2744671404 -0.1461746842 0.5317487717 4287847486
-0.2745295167 -0.1456169486 0.5318695903 4287847486
-0.2745916545 -0.1450588405 0.5319899917 4288043325
-0.2742077410 -0.1442657709 0.5312461853 4288240704
-0.2742693722 -0.1437078118 0.5313655734 4288306754
-0.2743307650 -0.1431494653 0.5314846039 4288306754
-0.2743919790 -0.1425907612 0.5316031575 4288372547
-0.2744529843 -0.1420316696 0.5317213535 4288438340
-0.2745137513 -0.1414722204 0.5318390727 4288569668
-0.2745743394 -0.1409123838 0.5319564342 4288635461
-0.2746346891 -0.1403521895 0.5320733786 4288701252
-0.2751414776 -0.1400189251 0.5330552459 4288503873
-0.2752014995 -0.1394570768 0.5331715345 4288438595
-0.2752613127 -0.1388948709 0.5332874060 4288570181
-0.2753208876 -0.1383322924 0.5334028006 4288767558
-0.2753802836 -0.1377693415 0.5335178375 4288833351
-0.2758865654 -0.1374287754 0.5344987512 4288898631
-0.2759456038 -0.1368641853 0.5346131325 4288832838
-0.2764517665 -0.1365201473 0.5355937481 4289029701
-0.2765104771 -0.1359539330 0.5357074738 4289029701
-0.2765689492 -0.1353873461 0.5358207822 4289095496
-0.2766271830 -0.1348204017 0.5359336138 4289161289
-0.2771329582 -0.1344703436 0.5369134545 4289227082
-0.2771908641 -0.1339017600 0.5370256305 4289292875
-0.2772485316 -0.1333328336 0.5371373892 4289358666
-0.2773060203 -0.1327635497 0.5372487307 4289424459
-0.2773632407 -0.1321939081 0.5373596549 4289490250
-0.2778684497 -0.1318365633 0.5383384228 4289556043
-0.2779253423 -0.1312652975 0.5384486318 4289687631
-0.2779819965 -0.1306936741 0.5385584235 4289753424
-0.2780384421 -0.1301217228 0.5386677384 4289753424
-0.2785432041 -0.1297583580 0.5396456718 4289687631
-0.2785992920 -0.1291847825 0.5397543311 4289687629
-0.2791038752 -0.1288179606 0.5407319069 4289556043
-0.2796083987 -0.1284489334 0.5417093635 4289425227
-0.2796639800 -0.1278724819 0.5418170094 4289556813
-0.2801683247 -0.1274999976 0.5427941084 4289688399
-0.2802235186 -0.1269219220 0.5429010987 4289819985
-0.2807276845 -0.1265459806 0.5438778400 4290148180
-0.2807825208 -0.1259662956 0.5439840555 4290148180
-0.2812864482 -0.1255868822 0.5449604392 4290147923
-0.2813409269 -0.1250056028 0.5450659394 4290082130
-0.2822941840 -0.1248214915 0.5469127893 4289885008
-0.2827979624 -0.1244354993 0.5478887558 4289753422
-0.2833016813 -0.1240473166 0.5488646626 4290281049
-0.2838053107 -0.1236569285 0.5498404503 4290741600
-0.2838590443 -0.1230693161 0.5499445200 4290347869
-0.2843624949 -0.1226754710 0.5509198904 4290413662
-0.2848658562 -0.1222794279 0.5518950820 4290414175
-0.2858192623 -0.1220734343 0.5537422299 4290414175
-0.2863225639 -0.1216720715 0.5547173023 4290610014
-0.2863755226 -0.1210781336 0.5548199415 4290741600
-0.2868786156 -0.1206733063 0.5557945967 4290742369
-0.2878320515 -0.1204547808 0.5576418042 4290808162
-0.2883350849 -0.1200446263 0.5586162806 4290612324
-0.2892886102 -0.1198189035 0.5604636669 4290941289
-0.2902422249 -0.1195891127 0.5623112321 4290878327
-0.2911959291 -0.1193552464 0.5641589165 4291141499
-0.2921497226 -0.1191173047 0.5660067201 4290683784
-0.2931035757 -0.1188752875 0.5678547025 4291407507
-0.2945084870 -0.1188111454 0.5705766082 4291870896
-0.2959136665 -0.1187410355 0.5732989311 4291936689
-0.2977702022 -0.1188450456 0.5768957734 4292202698
-0.3327329755 -0.2048633397 0.6460222602 4290030249
-0.3319370449 -0.2036572248 0.6444769502 4285819497
-0.3320223093 -0.2029932886 0.6446424723 4288247143
-0.3312252462 -0.2017914504 0.6430948973 4288049764
-0.3299863040 -0.2003248185 0.6406894922 4287851092
-0.3278639615 -0.1983291209 0.6365687847 4287587920
-0.3239746988 -0.1952775717 0.6290175319 4287784274
-0.3086043596 -0.1853472888 0.5991750360 4287586895
-0.2932260036 -0.1754785180 0.5693169832 4287651913
-0.2888825536 -0.1722560376 0.5608838797 4287717706
-0.2867458165 -0.1703633666 0.5567352772 4287651913
-0.2854916453 -0.1690023541 0.5543001890 4287454534
-0.2842366099 -0.1676462442 0.5518634915 4287322948
-0.2834228575 -0.1665548831 0.5502835512 4287322948
-0.2826084495 -0.1654666513 0.5487022996 4287388223
-0.2817934155 -0.1643815637 0.5471198559 4287322430
-0.2814202309 -0.1635567844 0.5463953018 4287387966
-0.2806040049 -0.1624770910 0.5448105931 4287256380
-0.2793444693 -0.1611451805 0.5423650742 4287190587
-0.2798553109 -0.1608361602 0.5433568954 4287059001
-0.2785944939 -0.1595105529 0.5409089327 4286993208
-0.2782188654 -0.1586953104 0.5401796699 4287059001
-0.2773996890 -0.1576296538 0.5385891795 4287189815
-0.2779096067 -0.1573198885 0.5395792127 4287124022
-0.2770894766 -0.1562578827 0.5379868746 4286927161
-0.2767121792 -0.1554481983 0.5372543335 4286992954
-0.2763344646 -0.1546398997 0.5365209579 4286993208
-0.2759563327 -0.1538329870 0.5357868075 4286993208
-0.2755777836 -0.1530274898 0.5350518227 4287058231
-0.2747549415 -0.1519778669 0.5334542394 4287124024
-0.2752634287 -0.1516653150 0.5344414711 4287255610
-0.2748837173 -0.1508631259 0.5337042809 4287321403
-0.2745036185 -0.1500623524 0.5329662561 4287255608
-0.2745673954 -0.1495049000 0.5330900550 4287321401
-0.2741865516 -0.1487060636 0.5323506594 4287386935
-0.2742497921 -0.1481487453 0.5324734449 4287452728
-0.2738682330 -0.1473518312 0.5317326784 4287715386
-0.2739309669 -0.1467946619 0.5318544507 4287781179
-0.2739934921 -0.1462370902 0.5319758058 4287847486
-0.2736108899 -0.1454426646 0.5312330127 4287913279
-0.2736729085 -0.1448852420 0.5313533545 4288174911
-0.2737346888 -0.1443274468 0.5314733386 4288240704
-0.2737962604 -0.1437692791 0.5315929055 4288175168
-0.2738576233 -0.1432107240 0.5317120552 4288240961
-0.2739187777 -0.1426518112 0.5318307877 4288372547
-0.2739797235 -0.1420925111 0.5319491029 4288504133
-0.2740404606 -0.1415328383 0.5320670009 4288569668
-0.2741009593 -0.1409728080 0.5321844816 4288635461
-0.2741612792 -0.1404123902 0.5323015451 4288635459
-0.2742213607 -0.1398516148 0.5324182510 4288503873
-0.2747272253 -0.1395169497 0.5334004164 4288504388
-0.2747869790 -0.1389545202 0.5335164070 4288635974
-0.2748464942 -0.1383917332 0.5336320400 4288701765
-0.2749058306 -0.1378285736 0.5337471962 4288767558
-0.2754113078 -0.1374878734 0.5347286463 4288832838
-0.2754702866 -0.1369230747 0.5348431468 4288701252
-0.2759756148 -0.1365789026 0.5358242989 4288963906
-0.2760342658 -0.1360124648 0.5359381437 4288963906
-0.2760927081 -0.1354456693 0.5360515714 4289029699
-0.2761509120 -0.1348785013 0.5361645818 4289161285
-0.2766558230 -0.1345283091 0.5371449590 4289227078
-0.2767136991 -0.1339595169 0.5372572541 4289292871
-0.2767713368 -0.1333903670 0.5373691916 4289293126
-0.2768287361 -0.1328208596 0.5374806523 4289358919
-0.2768859565 -0.1322509944 0.5375916958 4289424712
-0.2773903310 -0.1318935156 0.5385710001 4289424712
-0.2774471641 -0.1313220263 0.5386813283 4289490505
-0.2775037885 -0.1307501942 0.5387912989 4289490505
-0.2775601745 -0.1301780045 0.5389007926 4289621578
-0.2780641019 -0.1298145056 0.5398792028 4289621578
-0.2781201303 -0.1292407066 0.5399879813 4289621578
-0.2786239088 -0.1288737506 0.5409660339 4289621578
-0.2786795795 -0.1282983273 0.5410741568 4289424712
-0.2791831493 -0.1279278994 0.5420518517 4289490505
-0.2796866596 -0.1275552809 0.5430294871 4289556298
-0.2797418237 -0.1269769669 0.5431365967 4289753677
-0.2802451551 -0.1266008914 0.5441138148 4290082129
-0.2802999616 -0.1260209680 0.5442202091 4290213715
-0.2808030844 -0.1256414205 0.5451970696 4290147922
-0.2813061476 -0.1252596825 0.5461738110 4290147922
-0.2818091810 -0.1248757392 0.5471504927 4289884750
-0.2823121250 -0.1244896054 0.5481269956 4289753164
-0.2828150094 -0.1241012663 0.5491033792 4290017877
-0.2833178639 -0.1237107366 0.5500796437 4290478428
-0.2838206291 -0.1233180091 0.5510558486 4290347869
-0.2838741541 -0.1227288842 0.5511597395 4290413662
-0.2843767107 -0.1223326921 0.5521354675 4290545248
-0.2848791778 -0.1219343022 0.5531110764 4290413662
-0.2853815854 -0.1215337142 0.5540865660 4290413149
-0.2858839333 -0.1211309284 0.5550618768 4290544735
-0.2863861918 -0.1207259446 0.5560370684 4290677089
-0.2873380482 -0.1205073521 0.5578851104 4290808675
-0.2878402472 -0.1200970337 0.5588601828 4290809962
-0.2887921929 -0.1198712289 0.5607084632 4291138927
-0.2901941240 -0.1198271364 0.5634304285 4290944636
-0.2906963229 -0.1194074079 0.5644054413 4291142015
-0.2920985818 -0.1193532869 0.5671280622 4291013008
-0.2930509448 -0.1191102415 0.5689770579 4291605145
-0.2944535911 -0.1190451533 0.5717003942 4291870897
-0.2958564460 -0.1189740971 0.5744241476 4291607725
-0.2977099419 -0.1190772206 0.5780228376 4292071114
-0.3308346272 -0.2041347325 0.6437246799 4290490799
-0.3300398290 -0.2029308081 0.6421781778 4286214254
-0.3301246762 -0.2022692859 0.6423432231 4288312936
-0.3297689855 -0.2013384402 0.6416512132 4288115557
-0.3289724588 -0.2001409233 0.6401013136 4287917909
-0.3259727359 -0.1976112276 0.6342645884 4287457358
-0.3220899701 -0.1945611089 0.6267096996 4287719249
-0.3085089922 -0.1856904328 0.6002843380 4287390284
-0.2944800258 -0.1766098291 0.5729873180 4287717960
-0.2892627120 -0.1728554815 0.5628357530 4287717960
-0.2866889238 -0.1706976593 0.5578277111 4287652167
-0.2849959135 -0.1690735072 0.5545335412 4287520581
-0.2841843963 -0.1679776907 0.5529545546 4287454788
-0.2829308510 -0.1666250676 0.5505154133 4287388995
-0.2821179330 -0.1655364186 0.5489336848 4287388223
-0.2813043594 -0.1644508988 0.5473506451 4287388223
-0.2809318602 -0.1636258066 0.5466259122 4287453759
-0.2801171541 -0.1625456959 0.5450406075 4287322173
-0.2793017626 -0.1614687443 0.5434541106 4287190585
-0.2798118889 -0.1611587256 0.5444466472 4287124792
-0.2785534263 -0.1598317027 0.5419979692 4287124792
-0.2781786025 -0.1590152532 0.5412687063 4287058999
-0.2769186497 -0.1576963663 0.5388171673 4287189815
-0.2774277329 -0.1573865116 0.5398076773 4287124022
-0.2766090930 -0.1563240886 0.5382148027 4286992954
-0.2762325108 -0.1555140913 0.5374820828 4286992954
-0.2758555114 -0.1547054648 0.5367485285 4287059001
-0.2754780948 -0.1538982540 0.5360141397 4286993208
-0.2751002312 -0.1530924439 0.5352789760 4287124024
-0.2747219801 -0.1522880346 0.5345429778 4287124024
-0.2743433118 -0.1514850259 0.5338061452 4287255610
-0.2744075656 -0.1509272456 0.5339311361 4287321403
-0.2740281522 -0.1501261592 0.5331929326 4287321401
-0.2740918696 -0.1495685130 0.5333169103 4287321401
-0.2737117410 -0.1487693638 0.5325772762 4287386935
-0.2733312249 -0.1479716152 0.5318368673 4287386935
-0.2733941078 -0.1474146247 0.5319591761 4287583801
-0.2734567821 -0.1468572319 0.5320811272 4287715387
-0.2735192478 -0.1462994516 0.5322026610 4287847486
-0.2731373608 -0.1455047131 0.5314596295 4288044865
-0.2731992900 -0.1449470818 0.5315801501 4288306496
-0.2732610404 -0.1443890780 0.5317003131 4288240703
-0.2733225524 -0.1438307017 0.5318199992 4288240703
-0.2733838558 -0.1432719380 0.5319392681 4288306496
-0.2734449804 -0.1427128017 0.5320581794 4288438082
-0.2735058665 -0.1421532929 0.5321766734 4288503875
-0.2735665143 -0.1415934116 0.5322946906 4288569666
-0.2736269832 -0.1410331577 0.5324123502 4288569666
-0.2736872435 -0.1404725313 0.5325295925 4288635459
-0.2737472653 -0.1399115473 0.5326464176 4288503873
-0.2738071084 -0.1393501759 0.5327628255 4288569666
-0.2743120193 -0.1390141249 0.5337452292 4288635459
-0.2743715048 -0.1384511143 0.5338609815 4288635459
-0.2744307816 -0.1378877312 0.5339763165 4288767045
-0.2749354243 -0.1375469267 0.5349582434 4288963908
-0.2749943733 -0.1369819045 0.5350729227 4288832322
-0.2754988670 -0.1366376132 0.5360546112 4288898368
-0.2755574584 -0.1360709518 0.5361686349 4288898368
-0.2756158412 -0.1355039328 0.5362821817 4288964161
-0.2756740153 -0.1349365562 0.5363953710 4289095747
-0.2761781216 -0.1345862448 0.5373762250 4289161540
-0.2762359083 -0.1340172142 0.5374886990 4289227333
-0.2762935162 -0.1334478408 0.5376007557 4289358404
-0.2763508856 -0.1328781247 0.5377123952 4289358404
-0.2764080167 -0.1323080361 0.5378235579 4289358404
-0.2769115865 -0.1319504231 0.5388033390 4289358404
-0.2769683599 -0.1313787103 0.5389138460 4289358404
-0.2774717510 -0.1310176253 0.5398933291 4289424197
-0.2775281966 -0.1304442883 0.5400031209 4289555783
-0.2775844038 -0.1298706084 0.5401124954 4289489990
-0.2780874670 -0.1295047849 0.5410913825 4289490244
-0.2781433165 -0.1289294809 0.5412000418 4289556037
-0.2786462009 -0.1285602003 0.5421785116 4289358917
-0.2787016928 -0.1279832721 0.5422865152 4289424710
-0.2787569463 -0.1274060160 0.5423940420 4289555783
-0.2792595029 -0.1270319819 0.5433718562 4289753162
-0.2797620296 -0.1266557574 0.5443496704 4290081870
-0.2798167765 -0.1260756105 0.5444561839 4290147663
-0.2803190649 -0.1256959140 0.5454335213 4290147409
-0.2808213234 -0.1253140271 0.5464107990 4290081616
-0.2813235223 -0.1249299422 0.5473879576 4289818957
-0.2818256617 -0.1245436594 0.5483649969 4289753164
-0.2823277414 -0.1241551787 0.5493419170 4289885777
-0.2828297615 -0.1237644926 0.5503187180 4290346328
-0.2833316922 -0.1233716160 0.5512953997 4290347611
-0.2842819691 -0.1231708080 0.5531443954 4290544990
-0.2838869095 -0.1223859116 0.5523756742 4290545503
-0.2848371267 -0.1221797839 0.5542246103 4290348124
-0.2853388190 -0.1217781007 0.5552007556 4290282076
-0.2858404219 -0.1213742271 0.5561767220 4290347869
-0.2863419354 -0.1209681481 0.5571525693 4290545761
-0.2868433893 -0.1205598712 0.5581282973 4290874726
-0.2877937257 -0.1203371286 0.5599774718 4290876271
-0.2882951200 -0.1199235171 0.5609530210 4291271029
-0.2892455459 -0.1196935624 0.5628023148 4291076481
-0.2906453013 -0.1196444482 0.5655258894 4291339653
-0.2915959656 -0.1194054037 0.5673756599 4291210902
-0.2929961085 -0.1193453148 0.5700999498 4291803039
-0.2943964601 -0.1192792729 0.5728247166 4291871413
-0.2953475118 -0.1190260947 0.5746752620 4291213483
-0.2971978486 -0.1191292927 0.5782755613 4292268751
-0.3285009861 -0.2031338066 0.6405683160 4291214522
-0.3281464875 -0.2022036314 0.6398770213 4287003770
-0.3277915120 -0.2012747079 0.6391848326 4288511083
-0.3274360597 -0.2003470510 0.6384917498 4287918946
-0.3266405463 -0.1991526186 0.6369404793 4287786580
-0.3249648809 -0.1974269003 0.6336729527 4287589201
-0.3210888505 -0.1943764240 0.6261147857 4287785299
-0.3114911020 -0.1878914088 0.6073994637 4287456334
-0.2948471010 -0.1772129536 0.5749441385 4287783753
-0.2896392047 -0.1734552979 0.5647888184 4287717960
-0.2866298556 -0.1710321158 0.5589206815 4287652167
-0.2844995856 -0.1691445857 0.5547667146 4287586374
-0.2832490206 -0.1677874029 0.5523281693 4287651397
-0.2824382186 -0.1666951925 0.5507470965 4287585604
-0.2816267610 -0.1656061262 0.5491647720 4287454016
-0.2808146775 -0.1645201892 0.5475812554 4287454016
-0.2804428935 -0.1636947691 0.5468562841 4287585345
-0.2796296477 -0.1626142412 0.5452704430 4287387966
-0.2792569101 -0.1617924571 0.5445436239 4287256378
-0.2788837552 -0.1609720439 0.5438160300 4287256378
-0.2780688107 -0.1598992050 0.5422268510 4287322171
-0.2776947021 -0.1590824425 0.5414974093 4287256378
-0.2768785954 -0.1580150425 0.5399060249 4287255608
-0.2765035629 -0.1572019458 0.5391746759 4287189815
-0.2761281133 -0.1563902348 0.5384425521 4286927672
-0.2757522166 -0.1555799097 0.5377095938 4286993465
-0.2753759325 -0.1547709852 0.5369758010 4287059001
-0.2749992311 -0.1539634615 0.5362412333 4287059001
-0.2746220827 -0.1531573385 0.5355058908 4286993208
-0.2738022208 -0.1521068811 0.5339071155 4286993208
-0.2743090391 -0.1517941356 0.5348954201 4287255610
-0.2734882236 -0.1507473886 0.5332948565 4287321403
-0.2731094360 -0.1499468982 0.5325562358 4287321401
-0.2731730044 -0.1493899375 0.5326801538 4287255608
-0.2732363343 -0.1488326043 0.5328036547 4287320888
-0.2728565335 -0.1480345577 0.5320630670 4287386681
-0.2729193568 -0.1474773437 0.5321855545 4287518521
-0.2729819715 -0.1469197422 0.5323076248 4287715900
-0.2730443776 -0.1463617682 0.5324293375 4287913025
-0.2726632059 -0.1455667168 0.5316860676 4288176197
-0.2727251053 -0.1450088769 0.5318067670 4288372287
-0.2727867663 -0.1444506645 0.5319270492 4288306494
-0.2728482485 -0.1438920647 0.5320469141 4288306494
-0.2729094923 -0.1433330923 0.5321663618 4288372287
-0.2729705572 -0.1427737474 0.5322853923 4288438080
-0.2730313838 -0.1422140300 0.5324040055 4288372287
-0.2730920017 -0.1416539401 0.5325222015 4288569150
-0.2731524110 -0.1410934627 0.5326400399 4288634943
-0.2732126117 -0.1405326277 0.5327574015 4288700736
-0.2732726038 -0.1399714202 0.5328743458 4288700736
-0.2733323574 -0.1394098401 0.5329909325 4288700734
-0.2738364637 -0.1390736699 0.5339738727 4288700734
-0.2738958895 -0.1385104507 0.5340898037 4288832063
-0.2739551067 -0.1379468590 0.5342052579 4288897856
-0.2740141153 -0.1373828948 0.5343202949 4288963649
-0.2745178342 -0.1370406896 0.5353025198 4288963649
-0.2750215232 -0.1366962790 0.5362847447 4288832573
-0.2750800550 -0.1361293942 0.5363988876 4288898366
-0.2755835950 -0.1357815117 0.5373807549 4288964159
-0.2756417990 -0.1352129877 0.5374942422 4289095745
-0.2756997645 -0.1346441060 0.5376073122 4289095745
-0.2757575214 -0.1340748668 0.5377199054 4289161538
-0.2758150697 -0.1335052848 0.5378321409 4289226818
-0.2758723795 -0.1329353303 0.5379438996 4289292611
-0.2763752341 -0.1325788647 0.5389244556 4289292611
-0.2764322162 -0.1320072860 0.5390355587 4289292611
-0.2764889598 -0.1314353496 0.5391461849 4289292865
-0.2769915164 -0.1310741305 0.5401261449 4289424451
-0.2770479023 -0.1305005699 0.5402361155 4289490244
-0.2775502801 -0.1301358938 0.5412157774 4289490244
-0.2776063085 -0.1295607090 0.5413250327 4289490244
-0.2781085074 -0.1291925460 0.5423042774 4289556037
-0.2781641781 -0.1286157519 0.5424128175 4289490244
-0.2782196105 -0.1280386001 0.5425209403 4289556037
-0.2782748342 -0.1274611056 0.5426285863 4289621576
-0.2787765563 -0.1270869374 0.5436069965 4289753162
-0.2792782485 -0.1267105788 0.5445852280 4290016077
-0.2797798812 -0.1263320148 0.5455633998 4290016077
-0.2798344493 -0.1257503629 0.5456697941 4289950284
-0.2803358734 -0.1253683269 0.5466476083 4289884491
-0.2808372378 -0.1249841005 0.5476252437 4289818698
-0.2813385725 -0.1245976686 0.5486028194 4289884491
-0.2818398178 -0.1242090389 0.5495802164 4289951054
-0.2823410034 -0.1238182038 0.5505575538 4290345812
-0.2828421295 -0.1234251782 0.5515347123 4290412632
-0.2833431959 -0.1230299473 0.5525117517 4290610011
-0.2838441730 -0.1226325184 0.5534887314 4290742367
-0.2843451202 -0.1222328842 0.5544654727 4290544988
-0.2852938473 -0.1220226139 0.5563154817 4289954393
-0.2857947052 -0.1216176450 0.5572921634 4290085979
-0.2862954736 -0.1212104782 0.5582686663 4290349409
-0.2867962122 -0.1208011061 0.5592450500 4290744167
-0.2872968316 -0.1203895286 0.5602212548 4290877043
-0.2882456779 -0.1201626360 0.5620715022 4291271801
-0.2891946137 -0.1199316606 0.5639218688 4291142789
-0.2901436090 -0.1196966022 0.5657724142 4291405961
-0.2910926938 -0.1194574684 0.5676230788 4291079833
-0.2924904525 -0.1193973795 0.5703486800 4291935142
-0.2938884199 -0.1193313226 0.5730746984 4291674549
-0.2952866554 -0.1192593053 0.5758011937 4291082412
-0.3274880052 -0.2029469311 0.6399790049 4292201417
-0.3266955316 -0.2017464936 0.6384304166 4287924872
-0.3263410330 -0.2008190006 0.6377376318 4288840307
-0.3255473077 -0.1996237338 0.6361865401 4287787619
-0.3247529268 -0.1984314919 0.6346341372 4287589716
-0.3230799139 -0.1967077553 0.6313647628 4287787095
-0.3200885355 -0.1941914558 0.6255189776 4287982678
-0.3113858998 -0.1882356405 0.6085122228 4287785299
-0.2899388671 -0.1746411771 0.5666003227 4287980364
-0.2952848971 -0.1772201359 0.5770475268 4287782985
-0.2865686417 -0.1713667214 0.5600141883 4287717190
-0.2840026021 -0.1692156047 0.5549996495 4287717190
-0.2831940353 -0.1681189537 0.5534195304 4287717190
-0.2819449604 -0.1667652577 0.5509785414 4287585604
-0.2811349928 -0.1656757593 0.5493957400 4287585345
-0.2807644606 -0.1648477763 0.5486716032 4287453759
-0.2799533010 -0.1637636721 0.5470864773 4287651138
-0.2795818150 -0.1629393101 0.5463604927 4287453759
-0.2787695229 -0.1618606299 0.5447730422 4287518780
-0.2783970535 -0.1610399038 0.5440452695 4287518780
-0.2780241966 -0.1602205485 0.5433166027 4287584573
-0.2772102058 -0.1591495574 0.5417258739 4287518780
-0.2759547532 -0.1578296274 0.5392724872 4287387194
-0.2764621675 -0.1575195640 0.5402640700 4287255608
-0.2756465077 -0.1564563215 0.5386700630 4287059001
-0.2752713263 -0.1556456834 0.5379369259 4286993208
-0.2744545043 -0.1545879245 0.5363406539 4286993208
-0.2745197415 -0.1540286094 0.5364681482 4286993208
-0.2741433382 -0.1532221735 0.5357325673 4287059001
-0.2733249366 -0.1521713138 0.5341332555 4287124794
-0.2733892798 -0.1516135186 0.5342589617 4287321401
-0.2730116248 -0.1508112997 0.5335209370 4287321401
-0.2726335526 -0.1500104964 0.5327821374 4287387194
-0.2726970315 -0.1494533420 0.5329062343 4287387194
-0.2727603316 -0.1488957852 0.5330298543 4287518267
-0.2723812163 -0.1480974257 0.5322890282 4287584060
-0.2724439800 -0.1475400180 0.5324116945 4287649853
-0.2725065351 -0.1469822079 0.5325339437 4287847232
-0.2725689113 -0.1464240253 0.5326557755 4288044865
-0.2721884549 -0.1456286460 0.5319123268 4288242244
-0.2722502947 -0.1450706124 0.5320331454 4288503357
-0.2723119259 -0.1445121765 0.5321536064 4288503357
-0.2723733187 -0.1439533830 0.5322735906 4288503355
-0.2724345326 -0.1433942020 0.5323932171 4288569148
-0.2724955082 -0.1428346485 0.5325124264 4288569148
-0.2725563049 -0.1422747076 0.5326311588 4288503355
-0.2726168633 -0.1417144090 0.5327495337 4288503355
-0.2726772130 -0.1411537230 0.5328674912 4288569148
-0.2727373540 -0.1405926794 0.5329850316 4288634683
-0.2727972865 -0.1400312483 0.5331021547 4288766269
-0.2728570104 -0.1394694597 0.5332188010 4288766269
-0.2733602822 -0.1391331702 0.5342023373 4288766269
-0.2734196484 -0.1385697275 0.5343183875 4288832062
-0.2734788358 -0.1380059123 0.5344340205 4288832062
-0.2735377848 -0.1374417394 0.5345491767 4288832062
-0.2740406692 -0.1370994151 0.5355319381 4288897855
-0.2740992904 -0.1365335882 0.5356464982 4288898368
-0.2746020257 -0.1361877769 0.5366289616 4288964161
-0.2746602893 -0.1356203258 0.5367428064 4289029954
-0.2751628757 -0.1352710277 0.5377249718 4289029954
-0.2752208114 -0.1347019374 0.5378381610 4289029952
-0.2752785087 -0.1341324747 0.5379509330 4289095745
-0.2753359973 -0.1335626543 0.5380632877 4289161538
-0.2753932774 -0.1329924911 0.5381752253 4289227331
-0.2754503191 -0.1324219704 0.5382866859 4289292611
-0.2759522200 -0.1320640892 0.5392675400 4289292611
-0.2760089040 -0.1314919293 0.5393782854 4289358404
-0.2765106559 -0.1311305910 0.5403587818 4289424197
-0.2765669823 -0.1305568069 0.5404688716 4289424197
-0.2770685554 -0.1301919818 0.5414490700 4289489990
-0.2771245241 -0.1296165735 0.5415584445 4289555783
-0.2776259184 -0.1292482764 0.5425382257 4289621576
-0.2776815295 -0.1286712587 0.5426469445 4289556037
-0.2781827152 -0.1282994896 0.5436263680 4289556037
-0.2782379687 -0.1277208477 0.5437343121 4289621830
-0.2782929838 -0.1271418482 0.5438418388 4289753416
-0.2787938416 -0.1267653406 0.5448206663 4289950282
-0.2792946696 -0.1263866425 0.5457993150 4289950282
-0.2797954082 -0.1260057241 0.5467779040 4289884489
-0.2798497975 -0.1254225820 0.5468841791 4289818696
-0.2803503275 -0.1250382066 0.5478623509 4289884748
-0.2808508277 -0.1246516332 0.5488404036 4289950541
-0.2813512683 -0.1242628545 0.5498183370 4290016847
-0.2818516195 -0.1238718703 0.5507961512 4290214226
-0.2827986777 -0.1236740723 0.5526469350 4290149460
-0.2832990289 -0.1232777536 0.5536246300 4290478425
-0.2833523452 -0.1226857305 0.5537288785 4290808160
-0.2838524580 -0.1222859472 0.5547061563 4290676574
-0.2847995758 -0.1220756024 0.5565570593 4290020184
-0.2852995992 -0.1216704771 0.5575342178 4290217563
-0.2862468362 -0.1214529201 0.5593852997 4290415972
-0.2862994671 -0.1208536178 0.5594881773 4290810730
-0.2872467041 -0.1206297800 0.5613392591 4290943607
-0.2877465189 -0.1202149093 0.5623160005 4291338365
-0.2886938453 -0.1199838519 0.5641673207 4291339915
-0.2896412611 -0.1197487190 0.5660187006 4291537294
-0.2910364866 -0.1196936369 0.5687452555 4291276958
-0.2924319506 -0.1196326017 0.5714722872 4292132267
-0.2938276529 -0.1195655987 0.5741997957 4291346100
-0.2952235639 -0.1194926202 0.5769276619 4291017135
-0.3252469599 -0.2012888342 0.6369821429 4288714902
-0.3244550526 -0.2000927329 0.6354312301 4288841079
-0.3241004348 -0.1991688013 0.6347367167 4287854184
-0.3233072758 -0.1979778707 0.6331833601 4287458646
-0.3220752478 -0.1965226084 0.6307705045 4287721818
-0.3190890849 -0.1940061897 0.6249222159 4287918170
-0.3117169142 -0.1888456196 0.6104841232 4287654998
-0.2973242700 -0.1794792265 0.5822967291 4288046157
-0.2903809845 -0.1746560633 0.5686986446 4287782985
-0.2865052223 -0.1717014760 0.5611081719 4287717190
-0.2839438915 -0.1695486158 0.5560918450 4287717190
-0.2826979160 -0.1681894809 0.5536516905 4287848263
-0.2818901837 -0.1670955271 0.5520697832 4287782470
-0.2806425989 -0.1657453328 0.5496264100 4287651138
-0.2802727818 -0.1649170369 0.5489021540 4287453759
-0.2794631124 -0.1638325155 0.5473164320 4287781954
-0.2790923119 -0.1630078405 0.5465902686 4287716161
-0.2787211239 -0.1621845365 0.5458632708 4287650366
-0.2779097557 -0.1611076891 0.5442742705 4287584573
-0.2775376141 -0.1602880359 0.5435454249 4287715646
-0.2767250836 -0.1592166275 0.5419541597 4287584060
-0.2759119272 -0.1581483930 0.5403616428 4287518267
-0.2764186263 -0.1578373313 0.5413539410 4287518267
-0.2751642764 -0.1565223336 0.5388973951 4287124794
-0.2743494511 -0.1554618627 0.5373016000 4287059001
-0.2739744782 -0.1546532214 0.5365672112 4286993208
-0.2735990882 -0.1538459659 0.5358320475 4287059001
-0.2732232809 -0.1530401260 0.5350960493 4287321401
-0.2728470564 -0.1522356868 0.5343592167 4287452987
-0.2724704444 -0.1514326483 0.5336216092 4287584060
-0.2725344002 -0.1508751512 0.5337468386 4287518267
-0.2721570432 -0.1500740498 0.5330078006 4287518521
-0.2717792690 -0.1492743492 0.5322679877 4287518521
-0.2718423903 -0.1487174928 0.5323916078 4287584314
-0.2719053030 -0.1481602490 0.5325148106 4287650107
-0.2719680369 -0.1476026177 0.5326376557 4287715387
-0.2715889215 -0.1468058974 0.5318951607 4287912766
-0.2716511190 -0.1462484151 0.5320169926 4288110144
-0.2717131078 -0.1456905454 0.5321384072 4288241730
-0.2713329792 -0.1448962986 0.5313938856 4288503355
-0.2713944316 -0.1443385780 0.5315142870 4288503355
-0.2718977928 -0.1440146416 0.5325000882 4288503355
-0.2719589472 -0.1434552521 0.5326198936 4288569148
-0.2720198929 -0.1428954750 0.5327392220 4288569403
-0.2720806003 -0.1423353404 0.5328581333 4288569403
-0.2716986239 -0.1415442824 0.5321100354 4288503610
-0.2717588246 -0.1409843117 0.5322279334 4288503610
-0.2718188167 -0.1404239535 0.5323454142 4288503610
-0.2723214030 -0.1400910318 0.5333297253 4288700989
-0.2723810673 -0.1395290196 0.5334465504 4288766267
-0.2728835046 -0.1391926110 0.5344305634 4288700474
-0.2729428113 -0.1386289597 0.5345467329 4288700474
-0.2730019391 -0.1380649358 0.5346625447 4288700474
-0.2730608284 -0.1375005394 0.5347778797 4288700474
-0.2735629082 -0.1371580809 0.5357611179 4288832060
-0.2736214697 -0.1365920454 0.5358758569 4288963906
-0.2741233706 -0.1362461150 0.5368587971 4288963906
-0.2741816044 -0.1356784403 0.5369728208 4288964161
-0.2742395997 -0.1351103932 0.5370864272 4288964161
-0.2747412324 -0.1347597092 0.5380688310 4289029954
-0.2747988701 -0.1341900229 0.5381817818 4289161540
-0.2748563290 -0.1336199939 0.5382942557 4289161540
-0.2749135494 -0.1330496073 0.5384063125 4289161540
-0.2749705315 -0.1324788481 0.5385179520 4289161540
-0.2750273049 -0.1319077462 0.5386291146 4289161540
-0.2755282521 -0.1315484643 0.5396102071 4289358404
-0.2755846679 -0.1309757382 0.5397207141 4289489990
-0.2760854661 -0.1306129843 0.5407014489 4289489990
-0.2765862048 -0.1302480251 0.5416821241 4289489990
-0.2766421139 -0.1296723932 0.5417916775 4289555783
-0.2771426737 -0.1293039620 0.5427719951 4289489990
-0.2771982551 -0.1287267059 0.5428808331 4289424708
-0.2776986063 -0.1283548027 0.5438607335 4289358915
-0.2777538300 -0.1277759373 0.5439688563 4289556037
-0.2782540023 -0.1274005622 0.5449484587 4289753416
-0.2783088386 -0.1268200725 0.5450558662 4289950284
-0.2788088024 -0.1264412105 0.5460350513 4290016077
-0.2793087363 -0.1260601729 0.5470141172 4289884491
-0.2798086107 -0.1256769150 0.5479931235 4289752905
-0.2798627913 -0.1250922680 0.5480992198 4289950541
-0.2803624570 -0.1247055456 0.5490778089 4289950541
-0.2808620632 -0.1243166178 0.5500562191 4290016847
-0.2818075120 -0.1241218895 0.5519078374 4290214226
-0.2823070884 -0.1237276271 0.5528862476 4290149460
-0.2828065753 -0.1233311594 0.5538644791 4290478425
-0.2833060026 -0.1229324862 0.5548425913 4290677087
-0.2838053703 -0.1225316152 0.5558205843 4290677087
-0.2843046486 -0.1221285388 0.5567983985 4290349662
-0.2848038673 -0.1217232570 0.5577760935 4290481248
-0.2857495248 -0.1215056255 0.5596280694 4290679146
-0.2862486541 -0.1210950017 0.5606056452 4291073904
-0.2871943712 -0.1208701506 0.5624577999 4291272318
-0.2876934707 -0.1204541773 0.5634352565 4291601283
-0.2886392772 -0.1202221066 0.5652875304 4291406224
-0.2895851433 -0.1199859455 0.5671400428 4291603603
-0.2909780741 -0.1199299246 0.5698680282 4291540645
-0.2923712432 -0.1198679358 0.5725964904 4292198575
-0.2937646508 -0.1197999790 0.5753253698 4291083186
-0.2951582670 -0.1197260544 0.5780547261 4291346358
-0.3238007426 -0.2008306384 0.6355321407 4289504934
-0.3230100572 -0.1996358484 0.6339803338 4288710265
-0.3226559162 -0.1987133473 0.6332852244 4288381300
-0.3218640089 -0.1975237280 0.6317309141 4287657054
-0.3206339777 -0.1960696727 0.6293166876 4287525468
-0.3176529109 -0.1935540140 0.6234657168 4287787613
-0.3120441735 -0.1894559711 0.6124572158 4287458648
-0.2989903688 -0.1808784157 0.5868362188 4288243534
-0.2907463014 -0.1752570122 0.5706554055 4287980362
-0.2864396572 -0.1720363945 0.5622026324 4287914310
-0.2838829756 -0.1698817760 0.5571845770 4287914310
-0.2822011709 -0.1682599485 0.5538836122 4287980103
-0.2813948989 -0.1671655625 0.5523011684 4287980103
-0.2805880010 -0.1660743356 0.5507174134 4287782724
-0.2797804773 -0.1649862379 0.5491324663 4287651138
-0.2794109285 -0.1641589999 0.5484071374 4287782724
-0.2786022127 -0.1630763113 0.5468198061 4287782724
-0.2782317102 -0.1622526944 0.5460926294 4287847486
-0.2774218321 -0.1611754298 0.5445030928 4287715900
-0.2770503759 -0.1603554487 0.5437740684 4287715900
-0.2766785324 -0.1595368534 0.5430442095 4287650107
-0.2763062418 -0.1587196440 0.5423135161 4287584314
-0.2754941583 -0.1576523781 0.5407196283 4287584314
-0.2746814489 -0.1565883011 0.5391244888 4287584060
-0.2738681138 -0.1555274129 0.5375280976 4287452474
-0.2734938562 -0.1547184587 0.5367935300 4287321401
-0.2731191814 -0.1539108902 0.5360581875 4287387194
-0.2727440894 -0.1531047374 0.5353219509 4287649853
-0.2719285786 -0.1520539522 0.5337213278 4287781439
-0.2724327743 -0.1517417878 0.5347109437 4287846972
-0.2720565498 -0.1509389579 0.5339725018 4287781179
-0.2716799080 -0.1501375288 0.5332332850 4287912251
-0.2713028789 -0.1493375301 0.5324932337 4287912251
-0.2713659406 -0.1487804651 0.5326170325 4287781179
-0.2709881663 -0.1479823887 0.5318755507 4287846972
-0.2710507214 -0.1474254578 0.5319983363 4288043835
-0.2706722319 -0.1466293335 0.5312554836 4288241214
-0.2707342803 -0.1460725516 0.5313772559 4288503873
-0.2707960904 -0.1455153674 0.5314986110 4288503873
-0.2708577216 -0.1449578255 0.5316195488 4288504127
-0.2709191144 -0.1443998814 0.5317400694 4288438334
-0.2709803283 -0.1438415647 0.5318601727 4288569148
-0.2710413337 -0.1432828754 0.5319799185 4288569148
-0.2711021006 -0.1427238137 0.5320991874 4288569148
-0.2711626887 -0.1421643645 0.5322180986 4288569148
-0.2712230384 -0.1416045427 0.5323365331 4288569148
-0.2712831795 -0.1410443634 0.5324546099 4288503355
-0.2713431418 -0.1404837966 0.5325722694 4288503355
-0.2718448639 -0.1401507407 0.5335570574 4288634941
-0.2719044983 -0.1395885348 0.5336740613 4288635196
-0.2724061012 -0.1392519921 0.5346585512 4288569403
-0.2724653780 -0.1386881322 0.5347748995 4288569403
-0.2725244462 -0.1381238848 0.5348908305 4288503610
-0.2725832760 -0.1375592798 0.5350063443 4288569403
-0.2730845213 -0.1372167021 0.5359901190 4288700989
-0.2731430233 -0.1366504580 0.5361049771 4288963906
-0.2736441195 -0.1363043934 0.5370884538 4288963906
-0.2737022936 -0.1357365102 0.5372026563 4288964161
-0.2737602293 -0.1351682395 0.5373163819 4289029954
-0.2742610276 -0.1348174214 0.5382993221 4289161027
-0.2743186355 -0.1342475265 0.5384123921 4289226820
-0.2743760347 -0.1336772740 0.5385249853 4289226820
-0.2744331956 -0.1331066638 0.5386372209 4289226820
-0.2744901478 -0.1325356960 0.5387489796 4289226820
-0.2745468616 -0.1319643706 0.5388603210 4289292613
-0.2750469744 -0.1316049546 0.5398418903 4289424197
-0.2751033604 -0.1310320050 0.5399525762 4289489990
-0.2756032944 -0.1306691170 0.5409338474 4289555783
-0.2756593227 -0.1300945282 0.5410437584 4289555783
-0.2761591077 -0.1297281682 0.5420246720 4289555783
-0.2766588330 -0.1293596029 0.5430055261 4289424197
-0.2767143548 -0.1287821233 0.5431144834 4289293894
-0.2772138715 -0.1284100860 0.5440949202 4289293894
-0.2772690356 -0.1278309822 0.5442032218 4289556296
-0.2777684033 -0.1274554580 0.5451833010 4289753675
-0.2782676816 -0.1270777434 0.5461632609 4289884748
-0.2783223391 -0.1264957488 0.5462705493 4289950541
-0.2788214386 -0.1261145622 0.5472501516 4289884748
-0.2793204784 -0.1257311553 0.5482296348 4289753162
-0.2798194885 -0.1253455579 0.5492089987 4289885261
-0.2798734605 -0.1247594133 0.5493149757 4289951054
-0.2803722322 -0.1243703365 0.5502939224 4290017617
-0.2813160717 -0.1241755411 0.5521464348 4290083410
-0.2822600305 -0.1239766777 0.5539991260 4290084439
-0.2827588022 -0.1235791296 0.5549780726 4290479197
-0.2832574844 -0.1231793687 0.5559569001 4290545760
-0.2837561071 -0.1227774099 0.5569355488 4290611553
-0.2842546403 -0.1223732457 0.5579140186 4290612836
-0.2851987481 -0.1221577451 0.5597670674 4290876008
-0.2848058343 -0.1213683560 0.5589958429 4291008370
-0.2857498527 -0.1211475059 0.5608487129 4291337335
-0.2866939902 -0.1209225804 0.5627017617 4291338626
-0.2876381874 -0.1206935644 0.5645549893 4291733384
-0.2885824740 -0.1204604730 0.5664083362 4291538325
-0.2895268202 -0.1202232912 0.5682618618 4291735704
-0.2904712558 -0.1199820191 0.5701155663 4291606954
-0.2918620408 -0.1199200228 0.5728452802 4292133298
-0.2932530642 -0.1198520586 0.5755754709 4290952115
-0.2950907350 -0.1199595928 0.5791823268 4291939010
-0.3219206631 -0.2001007795 0.6332225204 4290294963
-0.3220037818 -0.1994487047 0.6333859563 4288710780
-0.3212137818 -0.1982573718 0.6318320632 4288908159
-0.3208596408 -0.1973375529 0.6311354637 4287986790
-0.3191950917 -0.1956162155 0.6278612614 4287394653
-0.3166559041 -0.1933680326 0.6228666306 4287919457
-0.3010087907 -0.1831551790 0.5920885801 4287458906
-0.3120098114 -0.1891670823 0.6137276888 4288178511
-0.2862997949 -0.1729537696 0.5631557703 4288046925
-0.2911812067 -0.1752662510 0.5727576017 4287980360
-0.2842572331 -0.1704773605 0.5591380000 4287980360
-0.2821412385 -0.1685917228 0.5549758077 4288177480
-0.2808990180 -0.1672355384 0.5525323749 4288111687
-0.2800936103 -0.1661438793 0.5509480834 4287914310
-0.2792875469 -0.1650553644 0.5493625402 4287782724
-0.2784808278 -0.1639699936 0.5477757454 4287980101
-0.2781114578 -0.1631447077 0.5470491648 4287914308
-0.2777416706 -0.1623207778 0.5463218093 4287782206
-0.2773714662 -0.1614982188 0.5455936193 4287584827
-0.2770008445 -0.1606770456 0.5448645949 4287715900
-0.2761914134 -0.1596039087 0.5432723761 4287715900
-0.2758198380 -0.1587863863 0.5425415039 4287584827
-0.2750092447 -0.1577187032 0.5409470797 4287584827
-0.2746367455 -0.1569048464 0.5402143598 4287846973
-0.2733861804 -0.1555929035 0.5377544761 4287781180
-0.2730126083 -0.1547836363 0.5370196700 4287650107
-0.2726386487 -0.1539757699 0.5362840891 4287715900
-0.2722642720 -0.1531693041 0.5355476737 4287846973
-0.2714502513 -0.1521180868 0.5339464545 4287978559
-0.2723929882 -0.1520510763 0.5358008146 4288109628
-0.2711386681 -0.1507583410 0.5333335996 4288043835
-0.2712022066 -0.1502009630 0.5334585905 4288240701
-0.2708258629 -0.1494006366 0.5327183008 4288174908
-0.2708888650 -0.1488433778 0.5328422785 4288175421
-0.2705118358 -0.1480450034 0.5321005583 4288241214
-0.2705743313 -0.1474878639 0.5322235227 4288504127
-0.2701965570 -0.1466914266 0.5314804316 4288767299
-0.2702585161 -0.1461344361 0.5316023231 4288963906
-0.2703202963 -0.1455770433 0.5317238569 4288832320
-0.2703818679 -0.1450192779 0.5318449736 4288569666
-0.2704432309 -0.1444611400 0.5319656134 4288503873
-0.2705043554 -0.1439026147 0.5320858955 4288700736
-0.2705653012 -0.1433437169 0.5322057605 4288634943
-0.2706260383 -0.1427844316 0.5323252082 4288503357
-0.2706865370 -0.1422247887 0.5324442983 4288503357
-0.2707468569 -0.1416647583 0.5325629115 4288438334
-0.2708069384 -0.1411043555 0.5326811075 4288372541
-0.2708668411 -0.1405435801 0.5327988863 4288306748
-0.2709265053 -0.1399824321 0.5329162478 4288372541
-0.2714273036 -0.1396479756 0.5339013338 4288504125
-0.2719281018 -0.1393113285 0.5348864198 4288504125
-0.2719873190 -0.1387472451 0.5350028872 4288438331
-0.2720463276 -0.1381828040 0.5351189971 4288372538
-0.2721051276 -0.1376179755 0.5352346301 4288438332
-0.2726055086 -0.1372752786 0.5362189412 4288569918
-0.2726639807 -0.1367088109 0.5363339186 4288897855
-0.2731642425 -0.1363626271 0.5373179317 4288963648
-0.2732223570 -0.1357945204 0.5374322534 4289095234
-0.2732802331 -0.1352260411 0.5375460982 4289095234
-0.2733379304 -0.1346572042 0.5376595855 4289161025
-0.2738377750 -0.1343049854 0.5386427641 4289226818
-0.2738951147 -0.1337345093 0.5387555361 4289292613
-0.2739522159 -0.1331636757 0.5388678908 4289292613
-0.2744517922 -0.1328066885 0.5398505330 4289292613
-0.2745085359 -0.1322342157 0.5399621725 4289424199
-0.2745651007 -0.1316613853 0.5400733948 4289424197
-0.2746213973 -0.1310882121 0.5401841998 4289424197
-0.2751205266 -0.1307251900 0.5411660075 4289556037
-0.2756196260 -0.1303599626 0.5421476960 4289621830
-0.2756754458 -0.1297838837 0.5422574878 4289555783
-0.2761743367 -0.1294151843 0.5432388186 4289489990
-0.2762297988 -0.1288374811 0.5433479548 4289491273
-0.2767285407 -0.1284652948 0.5443289280 4289491273
-0.2767836452 -0.1278859675 0.5444373488 4289687882
-0.2772821486 -0.1275103092 0.5454179049 4289819468
-0.2777806222 -0.1271324605 0.5463984609 4289884748
-0.2782790661 -0.1267523915 0.5473788381 4289950541
-0.2783335149 -0.1261688918 0.5474859476 4289885263
-0.2788317204 -0.1257853508 0.5484659672 4289819470
-0.2793298960 -0.1253996193 0.5494458675 4289951056
-0.2798280120 -0.1250116676 0.5504256487 4290016849
-0.2803260386 -0.1246215105 0.5514053106 4290148949
-0.2808240056 -0.1242291555 0.5523847938 4290148949
-0.2817663550 -0.1240302250 0.5542384386 4290216025
-0.2822642922 -0.1236325204 0.5552178621 4290610783
-0.2827621698 -0.1232326105 0.5561971664 4290611553
-0.2832599580 -0.1228304952 0.5571763515 4290808932
-0.2837576866 -0.1224261746 0.5581553578 4290613350
-0.2847001851 -0.1222105995 0.5600092411 4290942315
-0.2843079865 -0.1214208975 0.5592378378 4291140215
-0.2852503955 -0.1211999655 0.5610916018 4291403387
-0.2861929238 -0.1209749579 0.5629455447 4291273349
-0.2871355116 -0.1207458675 0.5647996068 4291602314
-0.2885234654 -0.1206989512 0.5675297379 4291669657
-0.2894662917 -0.1204607487 0.5693842769 4291867036
-0.2904092073 -0.1202184558 0.5712389946 4291607212
-0.2917976975 -0.1201555058 0.5739701986 4292067763
-0.2931863964 -0.1200865880 0.5767017603 4290886838
-0.2945753336 -0.1200116947 0.5794338584 4292400077
-0.3200445473 -0.1993701756 0.6309104562 4290953930
-0.3201272190 -0.1987205148 0.6310734749 4288515982
-0.3202096820 -0.1980703473 0.6312360168 4288713361
-0.3189845979 -0.1966138780 0.6288209558 4288643446
-0.3177585900 -0.1951622367 0.6264041662 4287853930
-0.3156597316 -0.1931817681 0.6222665906 4287983452
-0.3030929863 -0.1848271489 0.5974935889 4287588694
-0.3114579916 -0.1892459542 0.6139836311 4288310869
-0.2923384011 -0.1769883484 0.5762928128 4288113490
-0.2867384255 -0.1729699671 0.5652534366 4288177741
-0.2841912210 -0.1708109379 0.5602321029 4287980362
-0.2825157940 -0.1691851467 0.5569292903 4288110919
-0.2808392942 -0.1675660610 0.5536243320 4288176712
-0.2800354362 -0.1664730906 0.5520397425 4288242505
-0.2792309821 -0.1653832495 0.5504538417 4288176712
-0.2784258723 -0.1642965674 0.5488667488 4288045894
-0.2776201069 -0.1632130444 0.5472783446 4287980101
-0.2772510350 -0.1623888016 0.5465507507 4287782720
-0.2768815458 -0.1615659446 0.5458223820 4287519548
-0.2760741115 -0.1604901105 0.5442306399 4287715899
-0.2757036686 -0.1596708894 0.5435004234 4287650106
-0.2753328085 -0.1588530540 0.5427693129 4287912251
-0.2745237052 -0.1577849537 0.5411742926 4288043837
-0.2737139761 -0.1567200422 0.5395780802 4288109630
-0.2733416557 -0.1559081823 0.5388441086 4288043837
-0.2725307643 -0.1548487544 0.5372456312 4287978044
-0.2721575201 -0.1540405750 0.5365098119 4287912251
-0.2717838585 -0.1532337964 0.5357732177 4287912251
-0.2714097798 -0.1524284333 0.5350357890 4287978044
-0.2710353136 -0.1516244709 0.5342975855 4288043837
-0.2706604004 -0.1508219242 0.5335584879 4288175423
-0.2702850997 -0.1500207931 0.5328186750 4288175421
-0.2703482509 -0.1494636983 0.5329431891 4288438593
-0.2699722350 -0.1486645043 0.5322018862 4288372800
-0.2695958018 -0.1478667259 0.5314598083 4288241214
-0.2696581185 -0.1473102868 0.5315827131 4288570179
-0.2697202563 -0.1467534602 0.5317052007 4288767558
-0.2697821856 -0.1461962610 0.5318272710 4288635972
-0.2698439062 -0.1456386596 0.5319489241 4288635972
-0.2699054182 -0.1450807005 0.5320701599 4288570179
-0.2699666917 -0.1445223391 0.5321910381 4288504386
-0.2700277865 -0.1439636052 0.5323114395 4288504386
-0.2700886726 -0.1434044987 0.5324314833 4288372800
-0.2701493502 -0.1428450048 0.5325510502 4288307007
-0.2702098191 -0.1422851533 0.5326702595 4288372800
-0.2702700496 -0.1417248994 0.5327890515 4288372798
-0.2703301013 -0.1411642879 0.5329073668 4288307005
-0.2703899443 -0.1406033039 0.5330253243 4288307005
-0.2704495490 -0.1400419474 0.5331428647 4288307005
-0.2709495127 -0.1397073865 0.5341284275 4288307005
-0.2710088193 -0.1391443610 0.5342453122 4288307005
-0.2715086341 -0.1388063133 0.5352306366 4288438591
-0.2715676129 -0.1382416487 0.5353468657 4288438591
-0.2716263533 -0.1376766115 0.5354626775 4288372798
-0.2721258998 -0.1373337954 0.5364475250 4288438591
-0.2721843123 -0.1367671192 0.5365626216 4288700736
-0.2726837397 -0.1364208013 0.5375471711 4288898115
-0.2727417946 -0.1358524710 0.5376616120 4289029699
-0.2727996409 -0.1352837831 0.5377756357 4289029699
-0.2728572786 -0.1347147226 0.5378892422 4289095492
-0.2733562887 -0.1343623698 0.5388729572 4289161285
-0.2734135687 -0.1337916851 0.5389859080 4289161285
-0.2734706402 -0.1332206279 0.5390983820 4289095492
-0.2739693820 -0.1328635067 0.5400815606 4289161540
-0.2740260959 -0.1322908252 0.5401933193 4289293126
-0.2740825713 -0.1317177713 0.5403047204 4289424712
-0.2741388381 -0.1311443746 0.5404156446 4289358919
-0.2746371329 -0.1307812184 0.5413979292 4289358919
-0.2751353979 -0.1304158717 0.5423801541 4289490505
-0.2756336033 -0.1300483048 0.5433622599 4289622091
-0.2756892443 -0.1294707209 0.5434719920 4289556298
-0.2761872709 -0.1290996820 0.5444537401 4289687884
-0.2762425542 -0.1285204738 0.5445626974 4289819470
-0.2767404020 -0.1281459481 0.5455440879 4289885259
-0.2767952979 -0.1275651157 0.5456523895 4289819466
