VERSION 0.7
FIELDS x y z rgba
SIZE 4 4 4 4
TYPE F F F U
COUNT 1 1 1 1
WIDTH 920
HEIGHT 1
VIEWPOINT 0.0 0.0 0.0 1.0 0.0 0.0 0.0
POINTS 920
DATA ascii
-0.3146479726 -0.1491076201 0.5536059737 4290217566
-0.3147153258 -0.1485243142 0.5537244678 4290545760
-0.3147824407 -0.1479406208 0.5538425446 4290677346
-0.3148493171 -0.1473565698 0.5539602637 4290874979
-0.3149159551 -0.1467721462 0.5540775061 4291072358
-0.3149823546 -0.1461873502 0.5541943312 4290940772
-0.3155302703 -0.1458248049 0.5551583171 4291203944
-0.3151144683 -0.1450166404 0.5544267893 4291598702
-0.3151801527 -0.1444307417 0.5545423627 4291861874
-0.3152456284 -0.1438444704 0.5546575189 4291994489
-0.3157929480 -0.1434768885 0.5556205511 4292191868
-0.3158580363 -0.1428889930 0.5557350516 4292192642
-0.3154405355 -0.1420834810 0.5550004840 4292587400
-0.3155050278 -0.1414957494 0.5551139712 4292653708
-0.3155693114 -0.1409076750 0.5552270412 4292719501
-0.3156332970 -0.1403192431 0.5553396344 4293048213
-0.3152143657 -0.1395167857 0.5546025634 4293377178
-0.3157606125 -0.1391412914 0.5555636287 4293377694
-0.3158238828 -0.1385517716 0.5556749701 4293443487
-0.3158869445 -0.1379619241 0.5557858944 4293640868
-0.3160122931 -0.1367811412 0.5560064316 4294035888
-0.3155913055 -0.1359819770 0.5552657247 4294233267
-0.3156532645 -0.1353916228 0.5553747416 4294167992
-0.3161984682 -0.1350073516 0.5563340187 4294167992
-0.3162600398 -0.1344153881 0.5564423800 4294233532
-0.3163213730 -0.1338230819 0.5565502644 4294233532
-0.3163824379 -0.1332304329 0.5566577315 4294299325
-0.3164432645 -0.1326374412 0.5567647219 4294430911
-0.3169878125 -0.1322460175 0.5577228069 4294300350
-0.3170482218 -0.1316514313 0.5578291416 4294300350
-0.3171083927 -0.1310565174 0.5579349995 4294234298
-0.3176525533 -0.1306604445 0.5588923693 4293905333
-0.3177123070 -0.1300639361 0.5589975715 4293707439
-0.3177718222 -0.1294670999 0.5591022372 4293641646
-0.3178310990 -0.1288699210 0.5592065454 4293378728
-0.3178901076 -0.1282724142 0.5593103766 4292983970
-0.3184335232 -0.1278692037 0.5602664948 4292655005
-0.3184921443 -0.1272701174 0.5603696108 4292391833
-0.3185504675 -0.1266707033 0.5604722500 4292062098
-0.3186085522 -0.1260709614 0.5605744123 4291272582
-0.3186663985 -0.1254708916 0.5606761575 4290351228
-0.3187239766 -0.1248705015 0.5607774854 4289824884
-0.3182960749 -0.1240806356 0.5600246191 4289628277
-0.3188383579 -0.1236687452 0.5609787703 4289628277
-0.3047896922 -0.1554645598 0.5373108983 4288120961
-0.3077308238 -0.1563619971 0.5424957871 4288117867
-0.3111517131 -0.1574907452 0.5485264659 4288052074
-0.3126586974 -0.1576411128 0.5511831045 4288903772
-0.3136872053 -0.1575452536 0.5529962182 4289035358
-0.3142368793 -0.1572058201 0.5539652705 4289625690
-0.3143074214 -0.1566254795 0.5540896058 4289691483
-0.3143777251 -0.1560447514 0.5542135835 4289625436
-0.3144478202 -0.1554636210 0.5543370843 4289493850
-0.3145176768 -0.1548821181 0.5544602275 4289297242
-0.3141077459 -0.1540649980 0.5537375808 4289428828
-0.3141770065 -0.1534836143 0.5538597107 4289625690
-0.3147258461 -0.1531352699 0.5548272133 4289559897
-0.3143149018 -0.1523196697 0.5541027784 4289887833
-0.3143834770 -0.1517371237 0.5542236567 4290085212
-0.3139717579 -0.1509234309 0.5534978509 4289888860
-0.3140397668 -0.1503410041 0.5536177754 4290020446
-0.3141075373 -0.1497582197 0.5537372231 4290151773
-0.3141750991 -0.1491750479 0.5538563132 4290283359
-0.3142423928 -0.1485915035 0.5539749861 4290677346
-0.3143094778 -0.1480075866 0.5540932417 4290808932
-0.3143763244 -0.1474232972 0.5542110801 4291006052
-0.3144429326 -0.1468386203 0.5543285012 4291071845
-0.3145093024 -0.1462535858 0.5544455051 4291006565
-0.3145754337 -0.1456681788 0.5545620918 4291269737
-0.3146413267 -0.1450824142 0.5546782017 4291533423
-0.3142257631 -0.1442753226 0.5539456606 4291862388
-0.3142910898 -0.1436897069 0.5540608168 4292060027
-0.3148375750 -0.1433228850 0.5550242066 4292125820
-0.3149025142 -0.1427356452 0.5551386476 4292258178
-0.3149672151 -0.1421480477 0.5552527308 4292784522
-0.3145499527 -0.1413436383 0.5545171499 4292785041
-0.3146140873 -0.1407562196 0.5546302199 4292785041
-0.3146779537 -0.1401684284 0.5547428131 4293048213
-0.3147415817 -0.1395802945 0.5548549891 4293508764
-0.3148050010 -0.1389918029 0.5549667478 4293706143
-0.3148681521 -0.1384029537 0.5550780892 4293771936
-0.3149310350 -0.1378137469 0.5551889539 4293838762
-0.3149937093 -0.1372241974 0.5552994609 4294299313
-0.3150561452 -0.1366342902 0.5554094911 4294235325
-0.3151183128 -0.1360440254 0.5555191040 4294695876
-0.3146975636 -0.1352459937 0.5547773838 4294762445
-0.3152419329 -0.1348624676 0.5557370186 4294762445
-0.3157862127 -0.1344767958 0.5566965342 4294828240
-0.3158475161 -0.1338842362 0.5568045974 4294828240
-0.3154255152 -0.1330875307 0.5560606718 4294893517
-0.3159693480 -0.1326981038 0.5570193529 4294893517
-0.3160298765 -0.1321045309 0.5571261048 4294826695
-0.3165735006 -0.1317116916 0.5580844283 4294826695
-0.3161502182 -0.1309163421 0.5573382378 4294695109
-0.3166935146 -0.1305210143 0.5582960248 4294497730
-0.3167531788 -0.1299251765 0.5584011674 4294300350
-0.3168125451 -0.1293289959 0.5585058928 4294300350
-0.3173554540 -0.1289290190 0.5594629645 4294037178
-0.3174144328 -0.1283312589 0.5595669150 4293708213
-0.3174731731 -0.1277331710 0.5596704483 4293444782
-0.3180156648 -0.1273285449 0.5606268644 4292984231
-0.3180739880 -0.1267288774 0.5607296228 4292654751
-0.3181320429 -0.1261288822 0.5608319640 4292259993
-0.3181898296 -0.1255285591 0.5609338880 4291930258
-0.3182473779 -0.1249279156 0.5610353351 4291338121
-0.3183046579 -0.1243269369 0.5611363053 4290548859
-0.3178771138 -0.1235373244 0.5603826046 4289825136
-0.3184184730 -0.1231240183 0.5613369346 4289367934
-0.3179902434 -0.1223355904 0.5605820417 4290025864
-0.3085582554 -0.1583011150 0.5450215936 4288512110
-0.3081512749 -0.1574875563 0.5443027020 4288248938
-0.3091774285 -0.1574052274 0.5461152792 4288641631
-0.3111597598 -0.1578037888 0.5496167541 4288839010
-0.3126646280 -0.1579533666 0.5522748828 4289559643
-0.3132135570 -0.1576159745 0.5532444715 4289625436
-0.3137624860 -0.1572764367 0.5542140603 4289822040
-0.3138329685 -0.1566958576 0.5543385744 4289756247
-0.3143817484 -0.1563528776 0.5553079247 4289625436
-0.3139732778 -0.1555335373 0.5545864105 4289428057
-0.3140430748 -0.1549517959 0.5547097325 4289231449
-0.3141126633 -0.1543696672 0.5548326373 4289297242
-0.3141820133 -0.1537871659 0.5549551249 4289428057
-0.3142511249 -0.1532042623 0.5550771952 4289362264
-0.3138408661 -0.1523883194 0.5543525219 4289690454
-0.3139094114 -0.1518055499 0.5544735789 4289953626
-0.3134983480 -0.1509915143 0.5537475348 4289888862
-0.3135663271 -0.1504088640 0.5538676381 4289888862
-0.3136340678 -0.1498258412 0.5539872646 4290019933
-0.3137015700 -0.1492424309 0.5541064739 4290151519
-0.3132890761 -0.1484313458 0.5533778667 4290611553
-0.3138358891 -0.1480744928 0.5543437600 4290874725
-0.3139026761 -0.1474899650 0.5544617176 4291071847
-0.3139692545 -0.1469050646 0.5545793176 4291071847
-0.3135554194 -0.1460960656 0.5538483262 4291006311
-0.3141016662 -0.1457341462 0.5548132062 4291203690
-0.3141675293 -0.1451481432 0.5549295545 4291401839
-0.3137526512 -0.1443407238 0.5541967154 4291730804
-0.3138179481 -0.1437548697 0.5543120503 4291928443
-0.3143636584 -0.1433878988 0.5552759767 4291928443
-0.3144285679 -0.1428004205 0.5553905964 4291928959
-0.3140123487 -0.1419951320 0.5546554327 4292521096
-0.3140766621 -0.1414078325 0.5547690392 4292785040
-0.3141407371 -0.1408201754 0.5548822284 4292653454
-0.3142045736 -0.1402321458 0.5549950004 4292851603
-0.3137869239 -0.1394299120 0.5542572141 4293377947
-0.3143315315 -0.1390550286 0.5552192330 4293641379
-0.3143946528 -0.1384659410 0.5553306937 4293772965
-0.3144575059 -0.1378764957 0.5554417372 4293905841
-0.3145201504 -0.1372866929 0.5555523634 4294432185
-0.3145825267 -0.1366965473 0.5556625724 4294302145
-0.3141628206 -0.1358976066 0.5549212098 4294828489
-0.3142246306 -0.1353076696 0.5550304055 4294961620
-0.3147682250 -0.1349239945 0.5559905767 4294962648
-0.3148296177 -0.1343324482 0.5560989976 4294963423
-0.3148907721 -0.1337405592 0.5562070608 4294963680
-0.3149516881 -0.1331483275 0.5563146472 4294962652
-0.3154947460 -0.1327587366 0.5572738647 4294699223
-0.3155552745 -0.1321649104 0.5573807359 4294960083
-0.3156155348 -0.1315707415 0.5574871898 4294959826
-0.3156755269 -0.1309762299 0.5575932264 4294959313
-0.3157353103 -0.1303813905 0.5576987863 4294827470
-0.3162776828 -0.1299846470 0.5586568117 4294827211
-0.3158540726 -0.1291906834 0.5579085946 4294761418
-0.3163961470 -0.1287914515 0.5588660240 4294629316
-0.3164549768 -0.1281943619 0.5589699745 4294300351
-0.3165135980 -0.1275969297 0.5590735078 4294168251
-0.3170552552 -0.1271930486 0.5600302815 4293839286
-0.3171134293 -0.1265940517 0.5601330400 4293444782
-0.3171713650 -0.1259947121 0.5602353811 4293050024
-0.3172290325 -0.1253950447 0.5603372455 4292524189
-0.3172864616 -0.1247950569 0.5604386330 4291997845
-0.3173436224 -0.1241947412 0.5605396628 4291209099
-0.3174005449 -0.1235941052 0.5606401563 4290616962
-0.3174571991 -0.1229931414 0.5607402325 4290418561
-0.3175135851 -0.1223918572 0.5608398318 4289958010
-0.3170856535 -0.1216045991 0.5600839257 4289171582
-0.3171414435 -0.1210035980 0.5601825118 4289632133
-0.3104753196 -0.1595977396 0.5494858027 4289034588
-0.3119776845 -0.1597565413 0.5521447062 4289231967
-0.3125261962 -0.1594228745 0.5531154871 4289494621
-0.3125974536 -0.1588445306 0.5532416105 4289428828
-0.3136942089 -0.1581681520 0.5551826358 4289493591
-0.3138355613 -0.1570051759 0.5554327965 4289296212
-0.3134281039 -0.1561850011 0.5547116995 4289362265
-0.3134981096 -0.1556034237 0.5548355579 4289164886
-0.3136374056 -0.1544390917 0.5550820827 4289099863
-0.3127502799 -0.1533872634 0.5535120964 4289230678
-0.3132974505 -0.1530395597 0.5544804931 4289230678
-0.3128877580 -0.1522241831 0.5537554026 4289558868
-0.3129561543 -0.1516420543 0.5538764596 4289756247
-0.3125456870 -0.1508285701 0.5531499982 4289823069
-0.3130922616 -0.1504766792 0.5541173220 4289691483
-0.3126811385 -0.1496642232 0.5533896685 4289756763
-0.3128156066 -0.1484983563 0.5536277294 4290216796
-0.3128825128 -0.1479148567 0.5537461042 4290611554
-0.3129491806 -0.1473309845 0.5538640618 4291006054
-0.3125362396 -0.1465220153 0.5531332493 4291006054
-0.3130817711 -0.1461621225 0.5540987849 4290874468
-0.3131477237 -0.1455771476 0.5542154908 4291006054
-0.3132134378 -0.1449917853 0.5543317795 4291007082
-0.3127991557 -0.1441849321 0.5535985827 4291336047
-0.3133441508 -0.1438199878 0.5545631051 4291599480
-0.3134091496 -0.1432335377 0.5546781421 4291533687
-0.3134739101 -0.1426467150 0.5547927618 4291468410
-0.3130582869 -0.1418419778 0.5540571809 4291994754
-0.3131224811 -0.1412553340 0.5541707873 4292455303
-0.3131864071 -0.1406683326 0.5542839170 4292257924
-0.3127696812 -0.1398661286 0.5535463691 4292390283
-0.3133135736 -0.1394932568 0.5545089841 4293048213
-0.3133767843 -0.1389051825 0.5546209216 4293115807
-0.3135025203 -0.1377279609 0.5548433661 4293446061
-0.3135650158 -0.1371388286 0.5549539924 4293972405
-0.3136272430 -0.1365493387 0.5550641418 4294170559
-0.3136892617 -0.1359594911 0.5551738739 4294565317
-0.3137510121 -0.1353693008 0.5552831888 4294698446
-0.3142938614 -0.1349854767 0.5562438965 4294895825
-0.3143552244 -0.1343936920 0.5563524961 4294896856
-0.3139348328 -0.1335966438 0.5556085110 4294963677
-0.3144772053 -0.1332090646 0.5565684438 4294964195
-0.3150195181 -0.1328193247 0.5575281978 4294963424
-0.3151402175 -0.1316308379 0.5577418208 4294765531
-0.3152002096 -0.1310360879 0.5578479767 4294764502
-0.3157419860 -0.1306404322 0.5588068366 4294501330
-0.3153194189 -0.1298455447 0.5580589771 4294762447
-0.3158608675 -0.1294474155 0.5590172410 4294762447
-0.3159199357 -0.1288503855 0.5591217875 4294958282
-0.3159787357 -0.1282530427 0.5592258573 4294957768
-0.3160373271 -0.1276553571 0.5593295097 4294628545
-0.3160956204 -0.1270573437 0.5594327450 4294431166
-0.3161536753 -0.1264590025 0.5595355034 4293971124
-0.3162114918 -0.1258603185 0.5596377850 4293510573
-0.3167518973 -0.1254525632 0.5605942011 4293116328
-0.3168092966 -0.1248523146 0.5606957674 4292655777
-0.3168664277 -0.1242517456 0.5607969165 4291932822
-0.3169232905 -0.1236508489 0.5608975887 4291538064
-0.3164967299 -0.1228620559 0.5601425767 4291602317
-0.3165529966 -0.1222614348 0.5602422357 4290878594
-0.3161256611 -0.1214747503 0.5594859123 4289761660
-0.3161813319 -0.1208744124 0.5595844388 4289498488
-0.3162367642 -0.1202737540 0.5596825480 4289173383
-0.3116194010 -0.1629572362 0.5525968671 4289041287
-0.3093844354 -0.1605693400 0.5486335158 4288051813
-0.3118364215 -0.1612275243 0.5529816747 4287854434
-0.3104797304 -0.1599143445 0.5505758524 4289296212
-0.3110273480 -0.1595835984 0.5515469909 4289625177
-0.3120514154 -0.1594941914 0.5533629060 4289625177
-0.3121226132 -0.1589156240 0.5534892082 4289362005
-0.3121936023 -0.1583366692 0.5536150932 4289296214
-0.3127411008 -0.1579981595 0.5545859337 4289296214
-0.3128117323 -0.1574175209 0.5547112226 4289099092
-0.3133591115 -0.1570755690 0.5556818843 4289033299
-0.3134293854 -0.1564932615 0.5558065176 4289034070
-0.3130222857 -0.1556732506 0.5550845861 4288902484
-0.3130919933 -0.1550910473 0.5552082062 4288836691
-0.3126841187 -0.1542729288 0.5544849038 4289034070
-0.3127532601 -0.1536908448 0.5546075106 4289296214
-0.3123446107 -0.1528746188 0.5538828373 4289362007
-0.3124131858 -0.1522926390 0.5540044904 4289624661
-0.3124815524 -0.1517102867 0.5541256666 4289756247
-0.3120717704 -0.1508964747 0.5533990264 4289757022
-0.3121395409 -0.1503142565 0.5535192490 4289691229
-0.3122071028 -0.1497316509 0.5536389947 4289690972
-0.3117962182 -0.1489202678 0.5529103875 4289690972
-0.3118631840 -0.1483378112 0.5530291796 4289953626
-0.3119299412 -0.1477549672 0.5531474948 4290348384
-0.3119964600 -0.1471717656 0.5532654524 4290742627
-0.3120627403 -0.1465881765 0.5533829927 4290874213
-0.3121287823 -0.1460042149 0.5535001159 4290742627
-0.3121945858 -0.1454198956 0.5536168218 4290742627
-0.3122601509 -0.1448352039 0.5537331104 4290677863
-0.3123255074 -0.1442501396 0.5538489819 4290941035
-0.3123905957 -0.1436647177 0.5539644361 4291270515
-0.3124554455 -0.1430789232 0.5540794134 4291336308
-0.3125200868 -0.1424927562 0.5541940331 4291205238
-0.3125844598 -0.1419062465 0.5543081760 4291665789
-0.3126485944 -0.1413193643 0.5544219613 4291994238
-0.3122328818 -0.1405162662 0.5536847711 4291796859
-0.3122964501 -0.1399295628 0.5537974834 4291797633
-0.3123597801 -0.1393425167 0.5539097786 4292389770
-0.3124228716 -0.1387550980 0.5540216565 4292522902
-0.3124857247 -0.1381673217 0.5541330576 4292720281
-0.3125483096 -0.1375792027 0.5542441010 4292918947
-0.3126106858 -0.1369907260 0.5543546677 4293445291
-0.3126727939 -0.1364018917 0.5544648170 4293774772
-0.3127346635 -0.1358127147 0.5545745492 4294235323
-0.3132767975 -0.1354309022 0.5555359125 4294433731
-0.3133382499 -0.1348401159 0.5556449294 4294433731
-0.3133994937 -0.1342489868 0.5557535291 4294106311
-0.3134604990 -0.1336575150 0.5558616519 4294632655
-0.3135212362 -0.1330656856 0.5559693575 4294963167
-0.3140626848 -0.1326767057 0.5569295287 4294964195
-0.3141230345 -0.1320832968 0.5570365787 4294964965
-0.3141831160 -0.1314895302 0.5571431518 4294965222
-0.3142429888 -0.1308954358 0.5572492480 4294964452
-0.3143025935 -0.1303009987 0.5573549271 4294700766
-0.3148433566 -0.1299048662 0.5583139062 4294764502
-0.3144210279 -0.1291111261 0.5575649738 4294435537
-0.3149614930 -0.1287124902 0.5585233569 4294695884
-0.3150201738 -0.1281158030 0.5586274266 4294630091
-0.3150786161 -0.1275187731 0.5587310791 4294957768
-0.3151367903 -0.1269214153 0.5588342547 4294760389
-0.3151947260 -0.1263237298 0.5589370131 4294299578
-0.3152524233 -0.1257257164 0.5590392947 4293839027
-0.3157919943 -0.1253187060 0.5599961281 4293444267
-0.3153670430 -0.1245287135 0.5592425466 4292917923
-0.3159062564 -0.1241192147 0.5601987839 4292522649
-0.3159630299 -0.1235189810 0.5602993965 4292325270
-0.3160195351 -0.1229184270 0.5603995919 4292128661
-0.3160757720 -0.1223175526 0.5604993701 4291733903
-0.3156491220 -0.1215305254 0.5597427487 4291010952
-0.3157047629 -0.1209299266 0.5598414540 4290418815
-0.3157601655 -0.1203290150 0.5599396825 4289303420
-0.3158152997 -0.1197277829 0.5600374341 4289171834
-0.3101941943 -0.1625320613 0.5511550307 4288315503
-0.3078907728 -0.1607173234 0.5470623374 4287789159
-0.3098632991 -0.1611352563 0.5505671501 4288312667
-0.3104104102 -0.1608069539 0.5515392423 4288378460
-0.3109574914 -0.1604764909 0.5525112748 4289230678
-0.3115045726 -0.1601438671 0.5534833670 4289362264
-0.3115759790 -0.1595654786 0.5536102057 4289362005
-0.3116471469 -0.1589866728 0.5537366867 4289230419
-0.3117180765 -0.1584074795 0.5538626909 4289295442
-0.3122648001 -0.1580688655 0.5548341274 4289163856
-0.3123354018 -0.1574879885 0.5549595952 4288901454
-0.3128820062 -0.1571459174 0.5559307337 4288769868
-0.3124759197 -0.1563250870 0.5552092195 4288967507
-0.3125458062 -0.1557430476 0.5553334355 4288901714
-0.3121389449 -0.1549240798 0.5546104908 4288836437
-0.3122082949 -0.1543421596 0.5547336936 4288968023
-0.3118006289 -0.1535250843 0.5540093780 4289296214
-0.3118694127 -0.1529432684 0.5541315675 4289296214
-0.3119379580 -0.1523610651 0.5542533994 4289558355
-0.3115291893 -0.1515464038 0.5535271168 4289624148
-0.3115971684 -0.1509643346 0.5536478758 4289559644
-0.3111876249 -0.1501515806 0.5529202223 4289559644
-0.3117324412 -0.1497990489 0.5538882017 4289625179
-0.3113222122 -0.1489873230 0.5531593561 4289559386
-0.3113891780 -0.1484046280 0.5532782674 4289755993
-0.3114558756 -0.1478215605 0.5533968210 4290019165
-0.3115223348 -0.1472381055 0.5535148978 4290347869
-0.3115885854 -0.1466542929 0.5536326170 4290545248
-0.3116545975 -0.1460701078 0.5537499189 4290545248
-0.3117203712 -0.1454855502 0.5538667440 4290545248
-0.3117858768 -0.1449006200 0.5539832115 4290348898
-0.3118511736 -0.1443153173 0.5540992022 4290546277
-0.3114378452 -0.1435092092 0.5533647537 4290876271
-0.3119810522 -0.1431436241 0.5543299913 4291073650
-0.3120456338 -0.1425572187 0.5544447303 4291139445
-0.3121100068 -0.1419704705 0.5545590520 4291468410
-0.3116953075 -0.1411664933 0.5538222194 4291665790
-0.3117590547 -0.1405799091 0.5539355278 4291534204
-0.3118225932 -0.1399929672 0.5540484190 4291600254
-0.3114067912 -0.1391915381 0.5533096194 4291995012
-0.3119489253 -0.1388180107 0.5542728901 4292192652
-0.3120117486 -0.1382300109 0.5543844700 4292455824
-0.3120743036 -0.1376416385 0.5544956326 4292589211
-0.3121366203 -0.1370529234 0.5546063781 4293115555
-0.3121986985 -0.1364638507 0.5547166467 4293247914
-0.3122605383 -0.1358744204 0.5548265576 4293774258
-0.3123221397 -0.1352846473 0.5549359918 4294169532
-0.3128633499 -0.1349014342 0.5558975935 4294235325
-0.3129245341 -0.1343100667 0.5560063124 4293841597
-0.3129854798 -0.1337183416 0.5561146140 4294170562
-0.3125660717 -0.1329220980 0.5553693771 4294697424
-0.3131066561 -0.1325338632 0.5563299060 4294961110
-0.3136471808 -0.1321434677 0.5572903752 4294699483
-0.3137072623 -0.1315494776 0.5573970675 4294962912
-0.3137670755 -0.1309551299 0.5575033426 4294964196
-0.3138266206 -0.1303604394 0.5576092005 4294964196
-0.3138859570 -0.1297654212 0.5577145815 4294963682
-0.3139450252 -0.1291700602 0.5578195453 4294963168
-0.3144846857 -0.1287712604 0.5587784052 4294962397
-0.3145433366 -0.1281743199 0.5588826537 4294962397
-0.3146017492 -0.1275770515 0.5589864254 4294962908
-0.3146599233 -0.1269794405 0.5590897799 4294963165
-0.3147177994 -0.1263815165 0.5591926575 4294961877
-0.3147754669 -0.1257832497 0.5592950583 4294631113
-0.3148328662 -0.1251846552 0.5593970418 4293840051
-0.3148899972 -0.1245857254 0.5594986081 4292918949
-0.3149468899 -0.1239864826 0.5595996976 4292785821
-0.3154851794 -0.1235755756 0.5605561137 4292917407
-0.3155416548 -0.1229747683 0.5606564879 4292983716
-0.3155978620 -0.1223736331 0.5607563257 4292128407
-0.3151719272 -0.1215862706 0.5599995255 4291536523
-0.3152275383 -0.1209854186 0.5600983500 4291404937
-0.3148007989 -0.1202001721 0.5593401194 4290682755
-0.3153380156 -0.1197827607 0.5602945685 4290090618
-0.3153928518 -0.1191809550 0.5603920221 4289107583
-0.3154474497 -0.1185788438 0.5604890585 4289304962
-0.3106684685 -0.1631024480 0.5530892015 4287590234
-0.3107409477 -0.1625258178 0.5532182455 4288050785
-0.3112877011 -0.1621960551 0.5541916490 4289100122
-0.3113598228 -0.1616177410 0.5543200970 4288968536
-0.3114317358 -0.1610390395 0.5544481277 4289100120
-0.3115034103 -0.1604599357 0.5545757413 4289034327
-0.3115748763 -0.1598804295 0.5547029376 4289230421
-0.3116461039 -0.1593005210 0.5548297167 4289098835
-0.3117171228 -0.1587202102 0.5549561381 4289163597
-0.3117879033 -0.1581395119 0.5550821424 4289032011
-0.3118584454 -0.1575584263 0.5552077889 4288966218
-0.3119287491 -0.1569769382 0.5553329587 4288966218
-0.3119988441 -0.1563950628 0.5554577112 4288835920
-0.3115929961 -0.1555752754 0.5547351837 4288835920
-0.3111867011 -0.1547568589 0.5540118814 4288770644
-0.3112559021 -0.1541755944 0.5541350245 4288836437
-0.3113248646 -0.1535939276 0.5542578101 4289032787
-0.3109174669 -0.1527779251 0.5535325408 4289032787
-0.3105096221 -0.1519633085 0.5528064370 4289229390
-0.3105776608 -0.1513822675 0.5529276133 4289229390
-0.3106454909 -0.1508008540 0.5530483723 4289296472
-0.3107131124 -0.1502190679 0.5531687140 4289296472
-0.3107804656 -0.1496368945 0.5532886386 4289296214
-0.3103708327 -0.1488257200 0.5525593758 4289230421
-0.3109144866 -0.1484714150 0.5535272360 4289492821
-0.3105041981 -0.1476612836 0.5527967811 4289690200
-0.3110476136 -0.1473044306 0.5537642241 4289953111
-0.3106366396 -0.1464953423 0.5530325770 4290216283
-0.3107025027 -0.1459118128 0.5531498194 4290282331
-0.3107681274 -0.1453279108 0.5532666445 4290348124
-0.3108335137 -0.1447436363 0.5533830523 4290085726
-0.3104210794 -0.1439375579 0.5526488423 4290217312
-0.3109635711 -0.1435739994 0.5536146164 4290547306
-0.3110282719 -0.1429886371 0.5537297726 4290810478
-0.3110927045 -0.1424029022 0.5538445115 4290942064
-0.3111568987 -0.1418167949 0.5539588332 4291271029
-0.3107428253 -0.1410133988 0.5532215834 4291271550
-0.3108064532 -0.1404274702 0.5533348918 4291139964
-0.3108698428 -0.1398411989 0.5534477234 4291271291
-0.3109329939 -0.1392545551 0.5535601377 4291468670
-0.3109959066 -0.1386675686 0.5536721349 4291600769
-0.3110585809 -0.1380802244 0.5537837148 4291798148
-0.3111209869 -0.1374925077 0.5538948774 4292127890
-0.3111831844 -0.1369044632 0.5540055633 4292720027
-0.3117239773 -0.1365257651 0.5549683571 4292918695
-0.3117857575 -0.1359360963 0.5550783873 4293510832
-0.3118473291 -0.1353460848 0.5551880002 4293840826
-0.3119086325 -0.1347557157 0.5552971363 4294038205
-0.3119696975 -0.1341650039 0.5554058552 4293972413
-0.3125098348 -0.1337791234 0.5563674569 4294103999
-0.3125705123 -0.1331868172 0.5564754605 4294236355
-0.3126309216 -0.1325941682 0.5565830469 4294367941
-0.3126911223 -0.1320011616 0.5566901565 4294695373
-0.3127510548 -0.1314078271 0.5567969084 4294958802
-0.3132905066 -0.1310147792 0.5577572584 4294960602
-0.3133500218 -0.1304198503 0.5578632951 4294961116
-0.3129293621 -0.1296257675 0.5571143627 4294700512
-0.3134683371 -0.1292289644 0.5580738783 4294832098
-0.3135271072 -0.1286330223 0.5581785440 4294636261
-0.3135856390 -0.1280367374 0.5582827330 4294767847
-0.3136439323 -0.1274401397 0.5583865047 4294965992
-0.3141823709 -0.1270374358 0.5593450665 4294966249
-0.3142402470 -0.1264392436 0.5594481230 4294965988
-0.3138172626 -0.1256483197 0.5586950779 4294964960
-0.3143552244 -0.1252418756 0.5596528053 4294961870
-0.3144123256 -0.1246427074 0.5597544909 4294368962
-0.3144691885 -0.1240432113 0.5598556995 4294169783
-0.3145257831 -0.1234433874 0.5599564910 4294038197
-0.3150631487 -0.1230310723 0.5609131455 4293773745
-0.3146382272 -0.1222427636 0.5601566434 4293181608
-0.3146940768 -0.1216419786 0.5602560639 4292654488
-0.3142683804 -0.1208557934 0.5594982505 4292193937
-0.3148049712 -0.1204394400 0.5604535341 4291931279
-0.3143786192 -0.1196544617 0.5596944690 4291799693
-0.3149148524 -0.1192356423 0.5606491566 4290290568
-0.3144878149 -0.1184518710 0.5598888993 4289172087
-0.3111391962 -0.1636732221 0.5550247431 4288509022
-0.3108104765 -0.1622682363 0.5544383526 4289230681
-0.3108825386 -0.1616897136 0.5545669198 4289099095
-0.3109543920 -0.1611107886 0.5546951294 4288967249
-0.3110260367 -0.1605314463 0.5548229218 4288901456
-0.3110974431 -0.1599517167 0.5549502969 4288835663
-0.3111686409 -0.1593715847 0.5550772548 4288769870
-0.3107651472 -0.1585489959 0.5543575287 4288769870
-0.3108357787 -0.1579689533 0.5544834733 4288769870
-0.3109061718 -0.1573885232 0.5546090603 4288966477
-0.3109763265 -0.1568076909 0.5547342300 4289032270
-0.3110462725 -0.1562264711 0.5548589826 4288900684
-0.3106409907 -0.1554072350 0.5541360378 4288966477
-0.3107103705 -0.1548261195 0.5542597771 4288900686
-0.3103043139 -0.1540087759 0.5535354614 4288900686
-0.3103731275 -0.1534277648 0.5536582470 4288966479
-0.3099663258 -0.1526123136 0.5529325008 4289032272
-0.3101025820 -0.1514501721 0.5531755686 4289032013
-0.3096946478 -0.1506371349 0.5524479151 4289426258
-0.3097620904 -0.1500560045 0.5525681973 4289492051
-0.3098293245 -0.1494744867 0.5526881218 4289492310
-0.3099630475 -0.1483103335 0.5529267192 4289492823
-0.3100295961 -0.1477276832 0.5530453920 4289624409
-0.3100958765 -0.1471446604 0.5531636477 4289887320
-0.3101619184 -0.1465612799 0.5532814860 4290018906
-0.3102277517 -0.1459775120 0.5533988476 4290282078
-0.3098166883 -0.1451700330 0.5526655912 4290216285
-0.3103586733 -0.1448088735 0.5536324382 4290216798
-0.3104237914 -0.1442240030 0.5537486076 4290348384
-0.3104886711 -0.1436387599 0.5538643003 4290545763
-0.3105533123 -0.1430531442 0.5539796352 4290677349
-0.3101405799 -0.1422483325 0.5532433987 4290874726
-0.3102046549 -0.1416628957 0.5533576608 4291203691
-0.3103320599 -0.1404909492 0.5535849333 4291139956
-0.3103954196 -0.1399044245 0.5536979437 4290942836
-0.3104585409 -0.1393175572 0.5538105369 4291271801
-0.3105213940 -0.1387303174 0.5539227128 4291338365
-0.3101685047 -0.1373431534 0.5532931685 4291601798
-0.3107085824 -0.1369664818 0.5542565584 4291930763
-0.3107704818 -0.1363778263 0.5543670058 4292128918
-0.3108321428 -0.1357888281 0.5544770360 4292786848
-0.3108935654 -0.1351994723 0.5545865893 4293182637
-0.3109547496 -0.1346097738 0.5546957254 4293511602
-0.3110156953 -0.1340197325 0.5548044443 4293511862
-0.3115549684 -0.1336346120 0.5557664037 4293775034
-0.3116154969 -0.1330429614 0.5558744073 4294104515
-0.3116757870 -0.1324509680 0.5559819341 4294236101
-0.3117358387 -0.1318586320 0.5560891032 4294104776
-0.3117956519 -0.1312659532 0.5561957359 4294302155
-0.3123342395 -0.1308736652 0.5571565628 4294433995
-0.3123936355 -0.1302793920 0.5572624803 4294828753
-0.3124527931 -0.1296847910 0.5573680401 4294631374
-0.3125117123 -0.1290898472 0.5574730635 4294631374
-0.3125703633 -0.1284945607 0.5575777292 4294499788
-0.3126287758 -0.1278989464 0.5576819181 4294433995
-0.3126869202 -0.1273030043 0.5577856302 4294565579
-0.3127448261 -0.1267067194 0.5578889251 4294960337
-0.3132822514 -0.1263035238 0.5588476062 4294961620
-0.3133397400 -0.1257056743 0.5589501858 4294962391
-0.3138768971 -0.1252990812 0.5599083900 4294962134
-0.3139339685 -0.1246996522 0.5600101948 4294960849
-0.3139908016 -0.1240999028 0.5601115823 4294631370
-0.3140473664 -0.1234998256 0.5602124929 4294302405
-0.3141036928 -0.1228994206 0.5603129268 4294693558
-0.3141597509 -0.1222986951 0.5604129434 4293706663
-0.3137350976 -0.1215115711 0.5596554279 4293180830
-0.3137905598 -0.1209111214 0.5597543716 4293180830
-0.3138457835 -0.1203103587 0.5598528981 4292590235
-0.3143814504 -0.1198926046 0.5608084202 4292129684
-0.3144362271 -0.1192902923 0.5609061122 4291210900
-0.3144907355 -0.1186876595 0.5610033870 4290684556
-0.3141179681 -0.1173018292 0.5603384376 4289567882
-0.3095695674 -0.1644003689 0.5533210635 4287655774
-0.3105878532 -0.1643243432 0.5551411510 4287721567
-0.3101878464 -0.1634966880 0.5544261336 4288574041
-0.3102603257 -0.1629187465 0.5545557141 4288639834
-0.3108056486 -0.1625878662 0.5555304289 4288703822
-0.3108778000 -0.1620082259 0.5556593537 4288506443
-0.3104764223 -0.1611824781 0.5549419522 4288243526
-0.3105480373 -0.1606029272 0.5550699234 4288309319
-0.3106193841 -0.1600229740 0.5551974773 4288375112
-0.3106905222 -0.1594426036 0.5553246140 4288506698
-0.3107614517 -0.1588618606 0.5554513931 4288572491
-0.3103582859 -0.1580394208 0.5547308326 4288638284
-0.3104286492 -0.1574587673 0.5548565388 4288900684
-0.3104987741 -0.1568777114 0.5549818873 4288900684
-0.3105686605 -0.1562962532 0.5551068187 4288834891
-0.3106383383 -0.1557144076 0.5552313328 4288769098
-0.3102334142 -0.1548953354 0.5545076132 4288703307
-0.3103025258 -0.1543136090 0.5546311140 4288703307
-0.3098967969 -0.1534964293 0.5539059639 4288834891
-0.3094906807 -0.1526806355 0.5531800389 4288900684
-0.3095588684 -0.1520995200 0.5533019304 4288900427
-0.3096268475 -0.1515180320 0.5534234643 4288768841
-0.3096945882 -0.1509361565 0.5535445213 4289097806
-0.3092870116 -0.1501232833 0.5528160334 4289295185
-0.3093541861 -0.1495415419 0.5529360771 4289492823
-0.3094211221 -0.1489594281 0.5530557632 4289558616
-0.3094878495 -0.1483769268 0.5531749725 4289624409
-0.3095543385 -0.1477940381 0.5532938242 4289624409
-0.3096205592 -0.1472107917 0.5534121990 4289689943
-0.3096866012 -0.1466271728 0.5535302162 4289755736
-0.3092765510 -0.1458188295 0.5527973175 4289821527
-0.3093419969 -0.1452353597 0.5529143214 4289821527
-0.3094072044 -0.1446515173 0.5530308485 4289755993
-0.3094721735 -0.1440673023 0.5531469584 4289953372
-0.3100131154 -0.1437034756 0.5541138649 4290150751
-0.3100777268 -0.1431176364 0.5542293191 4290216544
-0.3101420999 -0.1425314248 0.5543443561 4290414177
-0.3097296953 -0.1417268068 0.5536072850 4290874728
-0.3097935021 -0.1411407739 0.5537213087 4290613353
-0.3098570406 -0.1405543685 0.5538348556 4291008111
-0.3099203706 -0.1399676204 0.5539480448 4291008370
-0.3095065355 -0.1391660720 0.5532083511 4291337335
-0.3100462556 -0.1387930214 0.5541731119 4291469181
-0.3101088405 -0.1382052004 0.5542849898 4291534974
-0.3096940219 -0.1374052912 0.5535435081 4291272833
-0.3097560406 -0.1368176490 0.5536543131 4291404419
-0.3098178208 -0.1362296641 0.5537647605 4291536523
-0.3103568256 -0.1358503252 0.5547281504 4291931281
-0.3104181886 -0.1352607310 0.5548378825 4292326812
-0.3104793429 -0.1346707940 0.5549471378 4292721570
-0.3105402291 -0.1340804994 0.5550560355 4292985260
-0.3106009066 -0.1334898621 0.5551644564 4293445811
-0.3111392558 -0.1331033409 0.5561266541 4293840827
-0.3111995161 -0.1325110942 0.5562343597 4293972413
-0.3112595081 -0.1319185197 0.5563416481 4294170310
-0.3113192916 -0.1313255876 0.5564484596 4294433482
-0.3113788068 -0.1307323277 0.5565548539 4294630345
-0.3119164705 -0.1303386241 0.5575158596 4294959824
-0.3114970922 -0.1295447797 0.5567662716 4294959567
-0.3115558624 -0.1289505064 0.5568713546 4294959567
-0.3116143942 -0.1283558905 0.5569759607 4294630859
-0.3121514320 -0.1279571950 0.5579358935 4294565066
-0.3122095764 -0.1273609996 0.5580397248 4294170308
-0.3117884994 -0.1265700310 0.5572871566 4294104515
-0.3123250604 -0.1261675954 0.5582461953 4294169792
-0.3128615320 -0.1257629991 0.5592050552 4294169792
-0.3129187524 -0.1251645684 0.5593073368 4294367170
-0.3129757047 -0.1245658025 0.5594091415 4294498756
-0.3135117888 -0.1241565570 0.5603672862 4294432964
-0.3135682940 -0.1235562265 0.5604683757 4294367171
-0.3136245906 -0.1229555681 0.5605689287 4294628278
-0.3136806190 -0.1223545894 0.5606690645 4293772969
-0.3137363791 -0.1217532903 0.5607687831 4293180832
-0.3133120835 -0.1209664270 0.5600104332 4292983453
-0.3138471544 -0.1205497310 0.5609667897 4292589209
-0.3139021695 -0.1199474782 0.5610650778 4292589209
-0.3139569163 -0.1193449050 0.5611629486 4291998872
-0.3140113950 -0.1187420189 0.5612603426 4291406735
-0.3140656352 -0.1181388199 0.5613572598 4291144594
-0.3145999312 -0.1177150235 0.5623122454 4290486664
-0.3146537244 -0.1171102822 0.5624083877 4289765002
-0.3147072494 -0.1165052280 0.5625041127 4289896588
-0.3094907701 -0.1653012931 0.5542805791 4287525219
-0.3100357652 -0.1649754494 0.5552566051 4287982932
-0.3096367419 -0.1641469896 0.5545420051 4288114518
-0.3101815283 -0.1638185680 0.5555176735 4288638544
-0.3102540672 -0.1632395238 0.5556476116 4288506958
-0.3107987344 -0.1629076451 0.5566230416 4288571208
-0.3103984892 -0.1620802134 0.5559062362 4288373829
-0.3099978268 -0.1612541378 0.5551886559 4288046147
-0.3100693524 -0.1606743485 0.5553168058 4288111940
-0.3106134534 -0.1603382081 0.5562912226 4288243526
-0.3102117777 -0.1595135927 0.5555718541 4288309319
-0.3102826476 -0.1589326113 0.5556987524 4288440905
-0.3098801672 -0.1581098437 0.5549779534 4288506698
-0.3094772696 -0.1572884470 0.5542563796 4288637512
-0.3095472455 -0.1567080468 0.5543817282 4288637512
-0.3096169829 -0.1561272591 0.5545065999 4288637512
-0.3092129827 -0.1553082466 0.5537830591 4288440133
-0.3097558022 -0.1549645066 0.5547552109 4288440133
-0.3093511164 -0.1541464925 0.5540304780 4288571719
-0.3089460135 -0.1533298641 0.5533049107 4288703048
-0.3090143800 -0.1527489126 0.5534273982 4288703048
-0.3090825379 -0.1521675587 0.5535494685 4288637253
-0.3086763322 -0.1513533443 0.5528219342 4288439874
-0.3087439239 -0.1507721394 0.5529429913 4288769098
-0.3083369136 -0.1499598324 0.5522140861 4288900684
-0.3084039390 -0.1493787467 0.5523341298 4289163856
-0.3084707558 -0.1487972885 0.5524537563 4289295442
-0.3085373044 -0.1482154429 0.5525729656 4289492564
-0.3086036444 -0.1476332396 0.5526918173 4289492564
-0.3086697459 -0.1470506489 0.5528101921 4289558357
-0.3087356389 -0.1464676857 0.5529281497 4289624150
-0.3088012636 -0.1458843499 0.5530456901 4289821786
-0.3088666499 -0.1453006417 0.5531628132 4289821786
-0.3089318275 -0.1447165608 0.5532795191 4289755993
-0.3089967668 -0.1441321224 0.5533958077 4290019165
-0.3090614676 -0.1435473114 0.5535116792 4290019165
-0.3091259301 -0.1429621279 0.5536271334 4289755993
-0.3091901243 -0.1423765868 0.5537421703 4290084701
-0.3092541099 -0.1417906731 0.5538567305 4290611045
-0.3093178868 -0.1412044019 0.5539709330 4290612583
-0.3093813956 -0.1406177580 0.5540846586 4290941548
-0.3089685738 -0.1398153305 0.5533453822 4291073136
-0.3090315163 -0.1392288804 0.5534580946 4291402101
-0.3090942204 -0.1386420727 0.5535703301 4291271289
-0.3091566861 -0.1380549073 0.5536822081 4291402875
-0.3092188835 -0.1374673843 0.5537936687 4291337597
-0.3092808723 -0.1368795037 0.5539046526 4291403390
-0.3093425930 -0.1362912804 0.5540152192 4291601546
-0.3094041049 -0.1357026994 0.5541253090 4291733132
-0.3094653487 -0.1351137757 0.5542350411 4291865748
-0.3095263541 -0.1345244944 0.5543442965 4292260506
-0.3100641370 -0.1341412365 0.5553074479 4292589730
-0.3101247549 -0.1335503459 0.5554159880 4293181867
-0.3101851344 -0.1329591274 0.5555241108 4293708983
-0.3102452457 -0.1323675513 0.5556318164 4293906362
-0.3103051484 -0.1317756325 0.5557390451 4293775034
-0.3108422756 -0.1313851923 0.5567010045 4293972413
-0.3109017611 -0.1307916790 0.5568075180 4294169279
-0.3109609783 -0.1301978379 0.5569136143 4294564037
-0.3110199571 -0.1296036392 0.5570192933 4294629830
-0.3110786974 -0.1290091127 0.5571244955 4294695623
-0.3111371994 -0.1284142584 0.5572292209 4294564550
-0.3111954629 -0.1278190464 0.5573335290 4294498757
-0.3112534583 -0.1272235215 0.5574374199 4294893515
-0.3113111854 -0.1266276538 0.5575408340 4294564550
-0.3118469715 -0.1262250543 0.5585004091 4294235327
-0.3119043112 -0.1256276220 0.5586031079 4293906362
-0.3119613826 -0.1250298470 0.5587053299 4293774776
-0.3120182157 -0.1244317517 0.5588070750 4293840569
-0.3125534356 -0.1240232512 0.5597656369 4293709240
-0.3126098514 -0.1234235838 0.5598666668 4293511861
-0.3126660287 -0.1228235960 0.5599672794 4293970864
-0.3127219379 -0.1222232804 0.5600673556 4293312934
-0.3127775788 -0.1216226444 0.5601670742 4292851867
-0.3133120537 -0.1212070212 0.5611242652 4292457109
-0.3128881156 -0.1204204187 0.5603650212 4292391314
-0.3134222329 -0.1200023144 0.5613216162 4292720279
-0.3134769499 -0.1193994880 0.5614196062 4292588691
-0.3140108287 -0.1189779937 0.5623757243 4291996554
-0.3140650988 -0.1183736101 0.5624729395 4291799943
-0.3141191304 -0.1177689210 0.5625696778 4291470978
-0.3141728938 -0.1171639115 0.5626659989 4290288509
-0.3142263889 -0.1165586039 0.5627618432 4290091130
-0.3098804653 -0.1664571613 0.5560846329 4287852636
-0.3100272417 -0.1652997136 0.5563480258 4288310095
-0.3101002872 -0.1647203863 0.5564790964 4288310095
-0.3101731241 -0.1641406417 0.5566098094 4288571721
-0.3097742498 -0.1633119136 0.5558940172 4288374342
-0.3098465204 -0.1627322286 0.5560237169 4288439876
-0.3099185824 -0.1621521562 0.5561529994 4288374083
-0.3099904060 -0.1615716666 0.5562819242 4288046147
-0.3095900714 -0.1607457250 0.5555635095 4288046147
-0.3096613288 -0.1601653248 0.5556914210 4288111940
-0.3092602193 -0.1593412459 0.5549715757 4288243526
-0.3093309402 -0.1587609202 0.5550984740 4288375112
-0.3089290559 -0.1579387039 0.5543773174 4288440905
-0.3089992106 -0.1573584825 0.5545032024 4288571719
-0.3090691268 -0.1567778587 0.5546286702 4288505926
-0.3087355196 -0.1553774923 0.5540300012 4288439874
-0.3088046610 -0.1547965854 0.5541540384 4288439874
-0.3084005415 -0.1539791226 0.5534288883 4288439874
-0.3084691167 -0.1533983201 0.5535519719 4288439874
-0.3085374534 -0.1528171301 0.5536745787 4288374081
-0.3081322610 -0.1520020813 0.5529474616 4288373568
-0.3082000315 -0.1514210105 0.5530690551 4288373568
-0.3077940643 -0.1506078690 0.5523405671 4288440387
-0.3078612983 -0.1500269324 0.5524611473 4288440387
-0.3079282641 -0.1494456232 0.5525813699 4288637255
-0.3080615401 -0.1482818574 0.5528205633 4288966220
-0.3081278503 -0.1476994157 0.5529395342 4289163599
-0.3081938922 -0.1471165866 0.5530580878 4289426771
-0.3082597256 -0.1465333849 0.5531761646 4289624150
-0.3083253205 -0.1459498256 0.5532938838 4289755993
-0.3079162538 -0.1451422423 0.5525597930 4289821786
-0.3079812527 -0.1445588320 0.5526764989 4289690200
-0.3080460429 -0.1439750493 0.5527927279 4289821786
-0.3081105947 -0.1433908939 0.5529085994 4289689943
-0.3086497784 -0.1430264264 0.5538761020 4289163599
-0.3087139428 -0.1424406469 0.5539913177 4289492564
-0.3083028495 -0.1416362524 0.5532535911 4290084701
-0.3083664775 -0.1410506517 0.5533677340 4290480484
-0.3084298372 -0.1404646784 0.5534814596 4290875242
-0.3084929585 -0.1398783475 0.5535947680 4290875757
-0.3085558712 -0.1392916590 0.5537075996 4291073136
-0.3086185157 -0.1387045979 0.5538200140 4291073652
-0.3082053065 -0.1379043907 0.5530785322 4291271031
-0.3087431192 -0.1375294328 0.5540436506 4291337597
-0.3088050485 -0.1369413286 0.5541547537 4291666562
-0.3088667393 -0.1363528520 0.5542654991 4291601287
-0.3089281917 -0.1357640326 0.5543757677 4291798666
-0.3089894056 -0.1351748556 0.5544856191 4291733903
-0.3090503812 -0.1345853359 0.5545950532 4292062868
-0.3091111183 -0.1339954734 0.5547040105 4292326301
-0.3096479774 -0.1336107999 0.5556674004 4292786852
-0.3097083271 -0.1330193281 0.5557757020 4293379246
-0.3097684085 -0.1324275136 0.5558835268 4293642418
-0.3098282516 -0.1318353564 0.5559909344 4293511604
-0.3098878562 -0.1312428415 0.5560978651 4293577397
-0.3099471927 -0.1306499988 0.5562043786 4293643190
-0.3100063205 -0.1300568134 0.5563104749 4293906362
-0.3100651801 -0.1294633001 0.5564160943 4293972155
-0.3101237714 -0.1288694292 0.5565212369 4294235327
-0.3106593490 -0.1284725815 0.5574823618 4294367170
-0.3102402687 -0.1276807040 0.5567302704 4294367170
-0.3107755184 -0.1272813529 0.5576907992 4294564550
-0.3108332157 -0.1266852319 0.5577943921 4294630343
-0.3108906746 -0.1260887980 0.5578974485 4294630342
-0.3109478951 -0.1254920214 0.5580001473 4294301377
-0.3114825785 -0.1250867695 0.5589596629 4293972413
-0.3115393817 -0.1244884133 0.5590615869 4293972413
-0.3115959167 -0.1238897368 0.5591630340 4293840827
-0.3116522133 -0.1232907400 0.5592640638 4293380276
-0.3121863306 -0.1228795871 0.5602225661 4293313447
-0.3122422099 -0.1222790256 0.5603228211 4292787103
-0.3127760887 -0.1218644679 0.5612808466 4292457107
-0.3123531938 -0.1210769266 0.5605219603 4291996556
-0.3128867149 -0.1206598878 0.5614793897 4291930502
-0.3129416406 -0.1200571209 0.5615779757 4292193674
-0.3129963279 -0.1194540411 0.5616760850 4292259720
-0.3135294318 -0.1190323681 0.5626327395 4291864962
-0.3135836720 -0.1184277311 0.5627300739 4291799167
-0.3136376739 -0.1178227812 0.5628269911 4291535995
-0.3136914074 -0.1172175184 0.5629233718 4291142013
-0.3137448728 -0.1166119426 0.5630193353 4290944634
-0.3137980998 -0.1160060614 0.5631148815 4289567623
-0.3133718967 -0.1152236909 0.5623500347 4289699209
-0.3084590733 -0.1660245508 0.5546393991 4287851346
-0.3090026379 -0.1656997800 0.5556167364 4287851346
-0.3095461726 -0.1653728336 0.5565940738 4288309064
-0.3096191883 -0.1647932827 0.5567253828 4288243271
-0.3096919656 -0.1642133147 0.5568562150 4288374342
-0.3092937768 -0.1633842438 0.5561402440 4288242756
-0.3093659878 -0.1628043503 0.5562701225 4288111170
-0.3094379902 -0.1622240394 0.5563995838 4288176963
-0.3090386987 -0.1613972932 0.5556815863 4287980354
-0.3091101348 -0.1608170718 0.5558100343 4288046147
-0.3087100387 -0.1599921733 0.5550906658 4288111938
-0.3087809384 -0.1594120264 0.5552181005 4288111938
-0.3088515997 -0.1588314772 0.5553451777 4288308547
-0.3084504008 -0.1580089331 0.5546237826 4288308547
-0.3080487549 -0.1571877599 0.5539016128 4288308547
-0.3081185222 -0.1566077918 0.5540270209 4288242754
-0.3081880808 -0.1560274363 0.5541520715 4288505667
-0.3077853322 -0.1552086473 0.5534279346 4288439874
-0.3083264828 -0.1548655629 0.5544009805 4288374081
-0.3079230785 -0.1540477574 0.5536755919 4288308288
-0.3075192273 -0.1532313526 0.5529494286 4288373568
-0.3075874150 -0.1526508331 0.5530720353 4288307775
-0.3076553941 -0.1520699263 0.5531942844 4288439361
-0.3072504401 -0.1512559354 0.5524660945 4288570947
-0.3073178530 -0.1506751478 0.5525873303 4288900425
-0.3073850274 -0.1500939876 0.5527080894 4288900425
-0.3074519634 -0.1495124400 0.5528284907 4288900425
-0.3075186610 -0.1489305198 0.5529484153 4289032011
-0.3075851500 -0.1483482122 0.5530679822 4289294670
-0.3076514006 -0.1477655321 0.5531870723 4289426256
-0.3077174127 -0.1471824795 0.5533058047 4289689430
-0.3077832162 -0.1465990543 0.5534240603 4289886809
-0.3078487515 -0.1460152566 0.5535419583 4289953115
-0.3074403405 -0.1452073455 0.5528076291 4289887322
-0.3075053394 -0.1446236968 0.5529244542 4289558357
-0.3075700700 -0.1440396756 0.5530408621 4289689943
-0.3076345921 -0.1434552968 0.5531568527 4289492564
-0.3076988757 -0.1428705454 0.5532724857 4288966220
-0.3082371354 -0.1425046623 0.5542402864 4289426258
-0.3078267276 -0.1416999400 0.5535023212 4290084188
-0.3078902960 -0.1411140859 0.5536166430 4290283105
-0.3079536259 -0.1405278891 0.5537304878 4290743656
-0.3080167174 -0.1399413198 0.5538439751 4290678378
-0.3080795705 -0.1393543929 0.5539569855 4290941550
-0.3081421852 -0.1387670934 0.5540695786 4291007859
-0.3082045615 -0.1381794512 0.5541817546 4291271031
-0.3077917099 -0.1373794526 0.5534393787 4291337084
-0.3078535199 -0.1367920041 0.5535504818 4291666049
-0.3083902597 -0.1364143789 0.5545156002 4291469701
-0.3084516525 -0.1358253211 0.5546260476 4291798666
-0.3085128367 -0.1352359056 0.5547360182 4291799696
-0.3085737824 -0.1346461475 0.5548456311 4292128661
-0.3086344600 -0.1340560317 0.5549547076 4292392094
-0.3086948991 -0.1334655732 0.5550634265 4292721059
-0.3087550998 -0.1328747720 0.5551716685 4293050281
-0.3088150620 -0.1322836131 0.5552794933 4293247660
-0.3093506992 -0.1318950355 0.5562425852 4293380018
-0.3094102740 -0.1313022822 0.5563496947 4293248432
-0.3094695807 -0.1307091862 0.5564563870 4293248432
-0.3095286489 -0.1301157624 0.5565626025 4293248432
-0.3095874786 -0.1295219958 0.5566683412 4293313970
-0.3096460402 -0.1289278865 0.5567736626 4293642935
-0.3097043931 -0.1283334345 0.5568785667 4294037948
-0.3097624779 -0.1277386546 0.5569829941 4293774776
-0.3098202944 -0.1271435469 0.5570870042 4293050798
-0.3103546202 -0.1267427802 0.5580477118 4293577142
-0.3104120493 -0.1261460930 0.5581510067 4294038206
-0.3104692101 -0.1255490631 0.5582538247 4293972413
-0.3105261326 -0.1249517053 0.5583561659 4293906620
-0.3105828166 -0.1243540272 0.5584580302 4293972413
-0.3111163974 -0.1239461154 0.5594174862 4293840827
-0.3111726642 -0.1233468652 0.5595186353 4293380276
-0.3112286627 -0.1227472872 0.5596193671 4293312934
-0.3112844229 -0.1221473888 0.5597196221 4292786590
-0.3118174374 -0.1217335835 0.5606780052 4292325519
-0.3118727505 -0.1211321205 0.5607774854 4291864968
-0.3124604225 -0.1201118976 0.5618341565 4291536256
-0.3125150502 -0.1195085496 0.5619324446 4291537026
-0.3125694394 -0.1189048961 0.5620301962 4291471233
-0.3126235902 -0.1183009222 0.5621275306 4291864962
-0.3131555617 -0.1178766042 0.5630841255 4291799169
-0.3132092655 -0.1172710881 0.5631806850 4291733636
-0.3127844334 -0.1164871380 0.5624167919 4291536257
-0.3133158684 -0.1160591170 0.5633723736 4290092421
-0.3133687973 -0.1154526621 0.5634675622 4289763456
-0.3088442981 -0.1671827734 0.5564432740 4287326807
-0.3089179099 -0.1666042209 0.5565759540 4287915596
-0.3089913130 -0.1660252661 0.5567081571 4287915596
-0.3095341921 -0.1656973362 0.5576862693 4288046147
-0.3096072674 -0.1651166826 0.5578179359 4288046147
-0.3092101812 -0.1642859280 0.5571025014 4288308549
-0.3088126481 -0.1634565443 0.5563862920 4288176963
-0.3088848293 -0.1628764123 0.5565163493 4287979585
-0.3084865212 -0.1620488614 0.5557987094 4287979585
-0.3085581660 -0.1614688039 0.5559277534 4287980354
-0.3081590831 -0.1606431007 0.5552087426 4288046147
-0.3082301617 -0.1600631177 0.5553368330 4288242756
-0.3083010018 -0.1594827473 0.5554644465 4288176963
-0.3079008162 -0.1586593837 0.5547434688 4288111168
-0.3075002134 -0.1578373909 0.5540216565 4288111168
-0.3075701594 -0.1572575867 0.5541476607 4288176961
-0.3076398671 -0.1566774100 0.5542733073 4288242754
-0.3072381616 -0.1558577865 0.5535495281 4288439876
-0.3073073328 -0.1552776992 0.5536741614 4288439876
-0.3073762655 -0.1546972245 0.5537983179 4288505154
-0.3069734275 -0.1538799852 0.5530725718 4288439361
-0.3070417941 -0.1532996148 0.5531957746 4288505154
-0.3071099520 -0.1527188718 0.5533185601 4288505154
-0.3071778715 -0.1521377265 0.5534409285 4288570947
-0.3067736030 -0.1513234079 0.5527125597 4288768326
-0.3068409860 -0.1507423967 0.5528339148 4288703048
-0.3069081008 -0.1501609981 0.5529548526 4288834634
-0.3065027297 -0.1493491083 0.5522245169 4289031498
-0.3065693080 -0.1487678438 0.5523444414 4289031498
-0.3066356480 -0.1481862068 0.5524639487 4289031498
-0.3067017496 -0.1476041973 0.5525830388 4289031498
-0.3067676127 -0.1470218003 0.5527017713 4289163086
-0.3068332374 -0.1464390457 0.5528200269 4289360465
-0.3068986535 -0.1458559036 0.5529378653 4289492564
-0.3069638312 -0.1452723891 0.5530552864 4289492564
-0.3070287704 -0.1446885169 0.5531722903 4289294670
-0.3070934713 -0.1441042572 0.5532888770 4289360463
-0.3071579337 -0.1435196400 0.5534049869 4289426256
-0.3072221875 -0.1429346502 0.5535207391 4289163084
-0.3072861731 -0.1423493028 0.5536360741 4289426258
-0.3073499501 -0.1417635828 0.5537509322 4290018395
-0.3069398105 -0.1409599632 0.5530119538 4290151519
-0.3070029914 -0.1403744221 0.5531258583 4290612070
-0.3070659339 -0.1397885233 0.5532392263 4290546790
-0.3071286678 -0.1392022669 0.5533522367 4290875755
-0.3071911335 -0.1386156380 0.5534648299 4291007859
-0.3072533906 -0.1380286664 0.5535769463 4291205238
-0.3073153794 -0.1374413222 0.5536886454 4291074425
-0.3073771298 -0.1368536353 0.5537999272 4291271804
-0.3074386716 -0.1362655908 0.5539107919 4291404421
