VERSION 0.7
FIELDS x y z rgba
SIZE 4 4 4 4
TYPE F F F U
COUNT 1 1 1 1
WIDTH 920
HEIGHT 1
VIEWPOINT 0.0 0.0 0.0 1.0 0.0 0.0 0.0
POINTS 920
DATA ascii
-0.2948944569 -0.0931418687 0.5500207543 4291535744
-0.2949364781 -0.0925439447 0.5500991940 4291403130
-0.2949782312 -0.0919457674 0.5501770973 4290876786
-0.2954872847 -0.0914920941 0.5511265397 4290486413
-0.2959962189 -0.0910362825 0.5520757437 4293315512
-0.3673723936 -0.1918008327 0.6866250634 4290227887
-0.3669976592 -0.1908430755 0.6859246492 4285096033
-0.3666224480 -0.1898866296 0.6852233410 4285222983
-0.3657883704 -0.1886950284 0.6836644411 4286736222
-0.3644950986 -0.1872709692 0.6812472939 4287653713
-0.3632009625 -0.1858518273 0.6788285375 4287324748
-0.3614472151 -0.1842038482 0.6755507588 4288637514
-0.3023434877 -0.1534550488 0.5650849342 4288374342
-0.2959859371 -0.1496136189 0.5532025695 4288111685
-0.2932972908 -0.1476455033 0.5481774211 4288045892
-0.2924435735 -0.1466084570 0.5465818644 4288110657
-0.2915892601 -0.1455746442 0.5449850559 4288044864
-0.2907342911 -0.1445440650 0.5433871150 4288372798
-0.2907975018 -0.1439716220 0.5435052514 4288504384
-0.2904009819 -0.1431722641 0.5427641869 4288504384
-0.2900040448 -0.1423743367 0.5420223475 4288307005
-0.2900663912 -0.1418025941 0.5421388149 4288110398
-0.2901284993 -0.1412304640 0.5422549248 4288110398
-0.2897305191 -0.1404350698 0.5415110588 4288372541
-0.2897920609 -0.1398631334 0.5416261554 4288240955
-0.2898534238 -0.1392908245 0.5417407751 4288305718
-0.2894543409 -0.1384979635 0.5409949422 4288239925
-0.2895151377 -0.1379258335 0.5411085486 4288109880
-0.2895756960 -0.1373533607 0.5412217379 4288044087
-0.2896360457 -0.1367805153 0.5413345098 4288109367
-0.2892355919 -0.1359907687 0.5405860543 4288043574
-0.2888347208 -0.1352024972 0.5398368239 4288042806
-0.2888941765 -0.1346304119 0.5399479866 4288108599
-0.2889534235 -0.1340579689 0.5400586724 4287911736
-0.2890124321 -0.1334851831 0.5401690006 4287780150
-0.2886101902 -0.1327000707 0.5394171476 4288042806
-0.2886686325 -0.1321274936 0.5395264030 4287977013
-0.2887268662 -0.1315545738 0.5396352410 4287713579
-0.2887848616 -0.1309813112 0.5397436619 4287581993
-0.2888426483 -0.1304076910 0.5398516059 4287977003
-0.2889001667 -0.1298337430 0.5399591327 4288305968
-0.2884958982 -0.1290529519 0.5392035246 4288503346
-0.2885528803 -0.1284792274 0.5393100381 4288766518
-0.2886096239 -0.1279051751 0.5394161344 4288965178
-0.2886661589 -0.1273307800 0.5395217538 4289228350
-0.2882604897 -0.1265532374 0.5387635827 4289492037
-0.2883164585 -0.1259790808 0.5388681889 4289689416
-0.2883721888 -0.1254045963 0.5389723182 4289755723
-0.2884276807 -0.1248297766 0.5390760899 4289887309
-0.2880206406 -0.1240555048 0.5383152962 4289953616
-0.2880755663 -0.1234809533 0.5384179950 4290019409
-0.2876678109 -0.1227087826 0.5376558304 4289953362
-0.2877222002 -0.1221344993 0.5377574563 4289755983
-0.2873136699 -0.1213644519 0.5369939804 4290019155
-0.2873675227 -0.1207904369 0.5370945930 4289953362
-0.2869582772 -0.1200225204 0.5363296866 4289953877
-0.2865486145 -0.1192561314 0.5355640650 4290480221
-0.2866015732 -0.1186830103 0.5356630087 4290546528
-0.2866542935 -0.1181095690 0.5357615352 4290414942
-0.2867067754 -0.1175358146 0.5358596444 4290284899
-0.2862957418 -0.1167727932 0.5350914598 4290482278
-0.2863476872 -0.1161993369 0.5351884961 4290547558
-0.2863993645 -0.1156255752 0.5352851152 4290547558
-0.2864508033 -0.1150515005 0.5353812575 4290942575
-0.2860384285 -0.1142918766 0.5346105099 4291534712
-0.2860893011 -0.1137181148 0.5347056389 4291864709
-0.2861399651 -0.1131440476 0.5348002911 4292193674
-0.2861903906 -0.1125696748 0.5348945260 4292522900
-0.2862405479 -0.1119949967 0.5349882841 4292720279
-0.2862904966 -0.1114200205 0.5350816250 4292523416
-0.2863401771 -0.1108447462 0.5351744890 4292720795
-0.2863896489 -0.1102691740 0.5352669358 4293050275
-0.2869031131 -0.1098710820 0.5362265706 4293379240
-0.2874164879 -0.1094708294 0.5371860862 4293642672
-0.2879297733 -0.1090684161 0.5381454825 4293511086
-0.2879785001 -0.1084888503 0.5382364988 4293445033
-0.2880269885 -0.1079090014 0.5383271575 4293181861
-0.2880752087 -0.1073288471 0.5384172797 4292983967
-0.2885879278 -0.1069205850 0.5393755436 4292852381
-0.2886357605 -0.1063389257 0.5394649506 4292786588
-0.2886833251 -0.1057569683 0.5395538807 4292786588
-0.2887306809 -0.1051747277 0.5396423340 4292655002
-0.2887777686 -0.1045922041 0.5397303700 4292391830
-0.2888246179 -0.1040093973 0.5398179293 4292326291
-0.2888711989 -0.1034263000 0.5399050117 4292326291
-0.2893828154 -0.1030085385 0.5408611894 4292457107
-0.2894289792 -0.1024239436 0.5409474969 4292391314
-0.2894749045 -0.1018390730 0.5410333276 4292391314
-0.2895205915 -0.1012539193 0.5411187410 4292325521
-0.2900315523 -0.1008303389 0.5420737267 4292062349
-0.2900768220 -0.1002436951 0.5421583056 4291733384
-0.2901218235 -0.0996567756 0.5422424078 4292060031
-0.2901665866 -0.0990695879 0.5423260927 4291994238
-0.2902110815 -0.0984821245 0.5424092412 4291797633
-0.2902553380 -0.0978943929 0.5424919724 4291863426
-0.2912312746 -0.0976187736 0.5443159938 4291601537
-0.2922072411 -0.0973391160 0.5461401343 4291601537
-0.2922510207 -0.0967468023 0.5462219119 4291798399
-0.2927607298 -0.0963075832 0.5471745729 4291864192
-0.2928040624 -0.0957138017 0.5472555757 4291797886
-0.2933134437 -0.0952712223 0.5482076406 4291863679
-0.2928899527 -0.0945254490 0.5474161506 4291732355
-0.2938654423 -0.0942300186 0.5492392778 4291600769
-0.2939078808 -0.0936333016 0.5493186116 4291666562
-0.2948832512 -0.0933316723 0.5511416197 4291666562
-0.2944586575 -0.0925858095 0.5503480434 4291468923
-0.2949671149 -0.0921331570 0.5512983799 4291139958
-0.2954754531 -0.0916783437 0.5522484183 4290353797
-0.2959836423 -0.0912213847 0.5531982780 4291998622
-0.3653141260 -0.1918831766 0.6841983795 4291480274
-0.3653974533 -0.1911665797 0.6843544841 4286805111
-0.3650231063 -0.1902111322 0.6836532950 4284239184
-0.3641907275 -0.1890195310 0.6820943952 4286209105
-0.3633576632 -0.1878310442 0.6805341244 4287130207
-0.3616084754 -0.1861743331 0.6772580147 4287720529
-0.3594003320 -0.1842895895 0.6731224060 4287588943
-0.3567329347 -0.1821795106 0.6681266427 4288505928
-0.2963511646 -0.1507265270 0.5550373793 4288440135
-0.2941261530 -0.1489828080 0.5508701205 4288242243
-0.2923581600 -0.1474788934 0.5475588441 4288110657
-0.2910474539 -0.1462120712 0.5451040268 4288045118
-0.2906528115 -0.1454089880 0.5443649292 4288045118
-0.2897992134 -0.1443788856 0.5427662134 4288176704
-0.2899251282 -0.1432349831 0.5430020094 4288571462
-0.2895289063 -0.1424367428 0.5422598720 4288308290
-0.2895911932 -0.1418647617 0.5423765779 4288373570
-0.2891942263 -0.1410685033 0.5416330695 4288176191
-0.2887968123 -0.1402736902 0.5408887863 4288110396
-0.2888582349 -0.1397024393 0.5410038233 4287978810
-0.2889194489 -0.1391308159 0.5411184430 4287913017
-0.2889804244 -0.1385588199 0.5412326455 4288176189
-0.2885816395 -0.1377671063 0.5404857397 4287912765
-0.2886420488 -0.1371953040 0.5405989289 4288110144
-0.2882425487 -0.1364055872 0.5398506522 4288109628
-0.2887622118 -0.1360506266 0.5408239961 4287978042
-0.2883620560 -0.1352620274 0.5400745273 4287978040
-0.2879614830 -0.1344749033 0.5393242836 4287912247
-0.2880205810 -0.1339031458 0.5394349694 4287780915
-0.2880794406 -0.1333310455 0.5395452380 4287846708
-0.2876778245 -0.1325465143 0.5387930274 4287780655
-0.2877361476 -0.1319746375 0.5389022231 4287912241
-0.2877942324 -0.1314024031 0.5390110612 4287977515
-0.2878520787 -0.1308298260 0.5391194224 4287582757
-0.2879097164 -0.1302568913 0.5392273664 4287056154
-0.2879671156 -0.1296836287 0.5393348336 4286858775
-0.2880243063 -0.1291100085 0.5394419432 4286990618
-0.2880812585 -0.1285360605 0.5395485759 4287319583
-0.2881379426 -0.1279617697 0.5396547914 4287910952
-0.2881944478 -0.1273871362 0.5397605896 4288568882
-0.2882506847 -0.1268121749 0.5398659110 4289030201
-0.2883066833 -0.1262368709 0.5399708152 4289753924
-0.2883624732 -0.1256612241 0.5400753021 4289295426
-0.2884180248 -0.1250852644 0.5401793718 4289558598
-0.2880117893 -0.1243097410 0.5394184589 4289822542
-0.2876051366 -0.1235357374 0.5386568904 4290019921
-0.2876597941 -0.1229606196 0.5387592316 4289888850
-0.2872523963 -0.1221887246 0.5379962325 4290086229
-0.2873065174 -0.1216138825 0.5380976200 4289954128
-0.2868984044 -0.1208441108 0.5373332500 4289822542
-0.2864898741 -0.1200758740 0.5365681052 4290151507
-0.2865431011 -0.1195019111 0.5366678238 4290283093
-0.2861338556 -0.1187358052 0.5359013081 4290743389
-0.2857241929 -0.1179712415 0.5351340771 4291006561
-0.2857765555 -0.1173981726 0.5352321267 4290678627
-0.2858286798 -0.1168247983 0.5353297591 4290415455
-0.2858805656 -0.1162511036 0.5354269147 4290612836
-0.2859322131 -0.1156771034 0.5355236530 4290678629
-0.2855208516 -0.1149165407 0.5347532630 4290613610
-0.2855719626 -0.1143428460 0.5348489285 4291008368
-0.2851598859 -0.1135844588 0.5340771675 4291338618
-0.2852104306 -0.1130110845 0.5341718197 4291799169
-0.2852607071 -0.1124374047 0.5342659950 4292194701
-0.2853107750 -0.1118634194 0.5343597531 4292523666
-0.2853605747 -0.1112891361 0.5344530344 4292392343
-0.2854101658 -0.1107145548 0.5345458984 4292523929
-0.2854594886 -0.1101396680 0.5346382856 4293050532
-0.2859720886 -0.1097423583 0.5355983377 4293445290
-0.2864845991 -0.1093428731 0.5365582108 4293446060
-0.2865333557 -0.1087652370 0.5366495848 4293709232
-0.2870456278 -0.1083623618 0.5376089811 4293512113
-0.2875578105 -0.1079573259 0.5385681987 4293117355
-0.2876060009 -0.1073769331 0.5386584997 4292853924
-0.2876539528 -0.1067962497 0.5387483239 4292656545
-0.2877016664 -0.1062152758 0.5388376713 4292655774
-0.2882132530 -0.1058043987 0.5397958159 4292655774
-0.2882605493 -0.1052219123 0.5398844481 4292589211
-0.2878433466 -0.1044706404 0.5391030312 4292391832
-0.2883544266 -0.1040560827 0.5400602221 4292193683
-0.2884009778 -0.1034727395 0.5401474237 4292259476
-0.2884473205 -0.1028891206 0.5402342081 4292390801
-0.2884933650 -0.1023052186 0.5403204560 4292390801
-0.2890038490 -0.1018848419 0.5412765145 4292390031
-0.2890494764 -0.1012994424 0.5413619876 4292390031
-0.2890948653 -0.1007137671 0.5414470434 4292389261
-0.2891400158 -0.1001278162 0.5415315628 4292257675
-0.2891849279 -0.0995415896 0.5416156650 4291995267
-0.2896945775 -0.0991141796 0.5425702333 4291929474
-0.2897390425 -0.0985264704 0.5426535010 4291863938
-0.2897832692 -0.0979384854 0.5427362919 4291863938
-0.2902924418 -0.0975065008 0.5436899662 4291732352
-0.2908015251 -0.0970723554 0.5446434021 4291666559
-0.2913104892 -0.0966360494 0.5455965996 4291863166
-0.2913538814 -0.0960441679 0.5456779599 4291797373
-0.2918625474 -0.0956045017 0.5466306210 4291731580
-0.2923710942 -0.0951626748 0.5475830436 4291665787
-0.2928795218 -0.0947186947 0.5485352874 4291797373
-0.2924564183 -0.0939732864 0.5477429032 4291928959
-0.2929644585 -0.0935268924 0.5486943722 4291863166
-0.2934723794 -0.0930783525 0.5496456623 4291863166
-0.2939801812 -0.0926276520 0.5505967140 4291928445
-0.2944878638 -0.0921747983 0.5515475869 4291731066
-0.2949953973 -0.0917197987 0.5524981618 4290877044
-0.2955028117 -0.0912626386 0.5534484982 4290942837
-0.2960101068 -0.0908033326 0.5543985963 4291543488
-0.3628868461 -0.1910055429 0.6810690165 4288387486
-0.3625131249 -0.1900528967 0.6803676486 4285159510
-0.3612255752 -0.1886246502 0.6779512167 4284567373
-0.3599371612 -0.1872012913 0.6755330563 4286405709
-0.3581909537 -0.1855461746 0.6722558141 4287063639
-0.3038910925 -0.1567846537 0.5703453422 4287720013
-0.3546952903 -0.1822561175 0.6656950712 4287654220
-0.2985409796 -0.1527793258 0.5603041649 4288440135
-0.2949491441 -0.1503261477 0.5535630584 4288374342
-0.2931850553 -0.1488156766 0.5502521396 4288308036
-0.2918773890 -0.1475432813 0.5477979183 4288110657
-0.2905689180 -0.1462759376 0.5453421474 4288044864
-0.2901749611 -0.1454725415 0.5446028113 4288044864
-0.2897806168 -0.1446705610 0.5438627005 4288242754
-0.2893858552 -0.1438700259 0.5431217551 4288571719
-0.2889906466 -0.1430709213 0.5423800349 4288571462
-0.2890531123 -0.1424991041 0.5424972773 4288308290
-0.2886571586 -0.1417019814 0.5417541862 4288307777
-0.2882608175 -0.1409063041 0.5410102606 4288176191
-0.2883223891 -0.1403351873 0.5411258936 4287978812
-0.2883837819 -0.1397636980 0.5412410498 4287978812
-0.2884449363 -0.1391918510 0.5413558483 4288045118
-0.2885058522 -0.1386196315 0.5414701700 4288176704
-0.2881077826 -0.1378275901 0.5407230854 4287912765
-0.2881681621 -0.1372555643 0.5408363938 4287978558
-0.2877693474 -0.1364655346 0.5400879383 4288109628
-0.2878291905 -0.1358937025 0.5402002335 4288043835
-0.2874296308 -0.1351056993 0.5394503474 4287978294
-0.2874889076 -0.1345340759 0.5395615697 4287780915
-0.2870886326 -0.1337480992 0.5388103127 4287780401
-0.2871473432 -0.1331766844 0.5389205813 4287780401
-0.2872058749 -0.1326049119 0.5390303731 4287714862
-0.2868045270 -0.1318215430 0.5382770896 4287780655
-0.2868624628 -0.1312499940 0.5383858681 4287977002
-0.2869201899 -0.1306781024 0.5384942293 4287713830
-0.2869777083 -0.1301058680 0.5386021137 4287385119
-0.2870349586 -0.1295332909 0.5387096405 4286990361
-0.2870920002 -0.1289603561 0.5388166904 4286792982
-0.2876089811 -0.1285928488 0.5397869349 4286727189
-0.2872053981 -0.1278134882 0.5390294790 4286726678
-0.2877220809 -0.1274434626 0.5399992466 4286989850
-0.2877782881 -0.1268682629 0.5401046872 4287977515
-0.2878342569 -0.1262927204 0.5402097702 4289359168
-0.2878900170 -0.1257168502 0.5403143764 4289031486
-0.2879455090 -0.1251406521 0.5404185653 4289492037
-0.2880007923 -0.1245641112 0.5405222774 4289756494
-0.2875949442 -0.1237888634 0.5397605896 4289690701
-0.2871886790 -0.1230151281 0.5389980674 4289691471
-0.2872430682 -0.1224394515 0.5391001701 4290020436
-0.2868360579 -0.1216678321 0.5383363366 4290020436
-0.2864286602 -0.1208977476 0.5375717282 4289888850
-0.2860208750 -0.1201291829 0.5368063450 4289953873
-0.2860740423 -0.1195549890 0.5369061828 4290019666
-0.2856655121 -0.1187885627 0.5361394286 4290480219
-0.2852565646 -0.1180236787 0.5353718996 4290743391
-0.2853088975 -0.1174503788 0.5354701281 4290547039
-0.2853609622 -0.1168767586 0.5355678797 4290547039
-0.2854128182 -0.1163028330 0.5356651545 4290678629
-0.2850025296 -0.1155413315 0.5348951221 4290744422
-0.2850537896 -0.1149677113 0.5349913836 4290547558
-0.2846427858 -0.1142083779 0.5342199206 4290679144
-0.2846935093 -0.1136350706 0.5343151689 4290811502
-0.2847439945 -0.1130614579 0.5344099402 4291140467
-0.2843319178 -0.1123049334 0.5336365104 4291536256
-0.2843818665 -0.1117316410 0.5337302685 4291996807
-0.2844315767 -0.1111580506 0.5338235497 4292193935
-0.2849436104 -0.1107639745 0.5347844958 4292457107
-0.2849929035 -0.1101888567 0.5348770618 4292918687
-0.2850419581 -0.1096134335 0.5349691510 4293247652
-0.2860164046 -0.1093917340 0.5367980003 4293445544
-0.2856022418 -0.1086377800 0.5360206962 4293840302
-0.2865765989 -0.1084108204 0.5378493667 4293446061
-0.2866249382 -0.1078314111 0.5379400849 4293314475
-0.2871361673 -0.1074249819 0.5388995409 4293117095
-0.2871840894 -0.1068440527 0.5389894843 4292853923
-0.2872317731 -0.1062628403 0.5390789509 4292655774
-0.2872791886 -0.1056813300 0.5391680002 4292524188
-0.2873263955 -0.1050995365 0.5392565727 4292457623
-0.2873733342 -0.1045174599 0.5393446684 4292194451
-0.2874200344 -0.1039351001 0.5394322872 4292127631
-0.2874664962 -0.1033524498 0.5395194888 4292127631
-0.2875126898 -0.1027695239 0.5396062136 4292061834
-0.2880224586 -0.1023511291 0.5405629277 4291996041
-0.2880682349 -0.1017667055 0.5406488776 4292126600
-0.2881137729 -0.1011819988 0.5407343507 4292192393
-0.2881590724 -0.1005970165 0.5408193469 4292257673
-0.2886682153 -0.1001728028 0.5417749286 4292060294
-0.2887130976 -0.0995863304 0.5418591499 4291863681
-0.2887577116 -0.0989995822 0.5419428945 4291797888
-0.2892663777 -0.0985707864 0.5428975821 4291732352
-0.2888461947 -0.0978252739 0.5421089530 4291732352
-0.2902834117 -0.0977067128 0.5448063612 4291732095
-0.2903272510 -0.0971160531 0.5448885560 4291600509
-0.2908354104 -0.0966795683 0.5458422899 4291665787
-0.2908788025 -0.0960874259 0.5459237695 4291599994
-0.2913866639 -0.0956475735 0.5468769073 4291599994
-0.2914296091 -0.0950539634 0.5469574928 4291534201
-0.2919371724 -0.0946107432 0.5479100943 4291534201
-0.2919796705 -0.0940156654 0.5479899049 4291665787
-0.2924869359 -0.0935690850 0.5489419103 4291731580
-0.2925289869 -0.0929725394 0.5490208268 4291731580
-0.2930359244 -0.0925225988 0.5499722958 4291731064
-0.2935427427 -0.0920705050 0.5509234667 4291599478
-0.2940494418 -0.0916162580 0.5518744588 4290942837
-0.2945559919 -0.0911598578 0.5528251529 4290811251
-0.2950624228 -0.0907013044 0.5537756085 4290817446
-0.2960341871 -0.0903827101 0.5555994511 4293712338
-0.3608377278 -0.1910777539 0.6786379218 4291477954
-0.3604647815 -0.1901270151 0.6779364944 4285951342
-0.3600913286 -0.1891775876 0.6772341132 4284697670
-0.3519668579 -0.1841738373 0.6619541645 4284895049
-0.3584309816 -0.1868073344 0.6741114259 4286536264
-0.3566875458 -0.1851533353 0.6708325148 4287391573
-0.3540305495 -0.1830343306 0.6658354402 4287850314
-0.2934184670 -0.1510846615 0.5518405437 4287389763
-0.2962226868 -0.1519095898 0.5571145415 4287979584
-0.2926364541 -0.1494589895 0.5503697991 4288111170
-0.2917881608 -0.1484160125 0.5487744212 4288045377
-0.2909392715 -0.1473762691 0.5471778512 4287847998
-0.2900897264 -0.1463397592 0.5455800891 4287650619
-0.2896964848 -0.1455360353 0.5448405147 4287650619
-0.2893028557 -0.1447337419 0.5441001654 4287847998
-0.2889087796 -0.1439328790 0.5433590412 4288111170
-0.2885142863 -0.1431334615 0.5426170826 4288110657
-0.2881193757 -0.1423354745 0.5418743491 4287913278
-0.2881814539 -0.1417639703 0.5419911742 4287979071
-0.2877857983 -0.1409679651 0.5412470698 4288044864
-0.2873897254 -0.1401734203 0.5405021310 4287781946
-0.2874509692 -0.1396026164 0.5406172872 4287781946
-0.2875119746 -0.1390314549 0.5407320261 4287979325
-0.2875727415 -0.1384599209 0.5408463478 4287781946
-0.2876332998 -0.1378880441 0.5409602523 4287847226
-0.2876936495 -0.1373157948 0.5410736799 4287978812
-0.2872955501 -0.1365254372 0.5403249860 4288044603
-0.2868970335 -0.1357365549 0.5395754576 4287978810
-0.2869564891 -0.1351650506 0.5396872759 4287978294
-0.2865572274 -0.1343781948 0.5389364362 4287846708
-0.2866161466 -0.1338068992 0.5390472412 4287780401
-0.2866748273 -0.1332352608 0.5391575694 4287780401
-0.2862745225 -0.1324509978 0.5384047031 4287714862
-0.2863326669 -0.1318795681 0.5385140777 4287649069
-0.2863905728 -0.1313077956 0.5386229753 4287779624
-0.2864482403 -0.1307356805 0.5387314558 4287582245
-0.2865056992 -0.1301632077 0.5388395190 4287384865
-0.2865629196 -0.1295903921 0.5389471650 4287187486
-0.2866199315 -0.1290172487 0.5390543342 4286924314
-0.2866766751 -0.1284437478 0.5391610861 4286792728
-0.2867332101 -0.1278699189 0.5392674208 4287121436
-0.2872491181 -0.1274997443 0.5402376652 4286529299
-0.2873052955 -0.1269243062 0.5403432846 4287319072
-0.2873612046 -0.1263485402 0.5404484868 4288832311
-0.2874169052 -0.1257724315 0.5405532718 4288899132
-0.2874723673 -0.1251959950 0.5406575799 4289096511
-0.2875275910 -0.1246192232 0.5407614112 4289295173
-0.2871224582 -0.1238436550 0.5399994850 4289689931
-0.2871771455 -0.1232671440 0.5401023030 4289888082
-0.2867712677 -0.1224936843 0.5393390059 4290019668
-0.2868253887 -0.1219174415 0.5394407511 4289954645
-0.2864187956 -0.1211461052 0.5386760831 4289757266
-0.2860117853 -0.1203763038 0.5379105806 4289757266
-0.2856043875 -0.1196080223 0.5371443629 4290086231
-0.2851965427 -0.1188412830 0.5363773704 4290414942
-0.2852491438 -0.1182671338 0.5364763141 4290612321
-0.2848406136 -0.1175025403 0.5357079506 4290744161
-0.2848926485 -0.1169286892 0.5358058214 4290875747
-0.2849444747 -0.1163545251 0.5359032154 4290875493
-0.2845348716 -0.1155927032 0.5351328850 4290941286
-0.2841248810 -0.1148324236 0.5343618393 4291007594
-0.2841758132 -0.1142591909 0.5344576240 4291007594
-0.2842265069 -0.1136856452 0.5345529318 4290810989
-0.2842769623 -0.1131117940 0.5346478820 4290810989
-0.2838656008 -0.1123549491 0.5338742137 4291074422
-0.2839155197 -0.1117814258 0.5339680910 4291666559
-0.2839651704 -0.1112075970 0.5340614915 4292061834
-0.2840146124 -0.1106334701 0.5341544151 4292456592
-0.2845256627 -0.1102380008 0.5351155996 4292851865
-0.2845746875 -0.1096623391 0.5352078080 4292983451
-0.2855475843 -0.1094405577 0.5370375514 4292918428
-0.2860584259 -0.1090385914 0.5379983187 4293247393
-0.2861069739 -0.1084592342 0.5380895734 4293445290
-0.2866175473 -0.1080538705 0.5390498638 4293511083
-0.2866656780 -0.1074729934 0.5391404033 4293379751
-0.2867135704 -0.1068918183 0.5392304659 4292984993
-0.2868086100 -0.1057286114 0.5394092202 4292392343
-0.2868557572 -0.1051465720 0.5394979119 4292391314
-0.2869026661 -0.1045642495 0.5395861268 4292193935
-0.2869493365 -0.1039816439 0.5396738648 4292258699
-0.2869957685 -0.1033987477 0.5397611856 4292127113
-0.2870419323 -0.1028155759 0.5398480296 4292126598
-0.2875508964 -0.1023970097 0.5408052802 4291929219
-0.2875966728 -0.1018123329 0.5408912897 4291863426
-0.2876421809 -0.1012273803 0.5409768820 4291995012
-0.2876874208 -0.1006421521 0.5410619974 4292192134
-0.2881957889 -0.1002177671 0.5420180559 4291994755
-0.2882406116 -0.0996310413 0.5421023965 4291863681
-0.2887486815 -0.0992032737 0.5430579185 4291797888
-0.2887930870 -0.0986150652 0.5431414247 4291797888
-0.2893008590 -0.0981839299 0.5440964103 4291732095
-0.2898085117 -0.0977506265 0.5450512171 4291600509
-0.2903160751 -0.0973151773 0.5460057855 4291600509
-0.2898958623 -0.0965685397 0.5452154875 4291599994
-0.2908669412 -0.0962842256 0.5470418334 4291599994
-0.2909101248 -0.0956906229 0.5471230149 4291534201
-0.2914170921 -0.0952484235 0.5480764508 4291534201
-0.2914597988 -0.0946533531 0.5481568575 4291468408
-0.2919664681 -0.0942077860 0.5491096973 4291599994
-0.2920087576 -0.0936112404 0.5491892695 4291731580
-0.2925150990 -0.0931623206 0.5501415133 4291731580
-0.2930212915 -0.0927112401 0.5510935783 4291534455
-0.2935273945 -0.0922579989 0.5520454049 4291468662
-0.2940333486 -0.0918026119 0.5529969931 4291074423
-0.2945391834 -0.0913450643 0.5539483428 4290942837
-0.2950448990 -0.0908853635 0.5548993945 4290419591
-0.2960151732 -0.0905656889 0.5567242503 4292919725
-0.3592476249 -0.1913861930 0.6770616174 4291874773
-0.3593303859 -0.1906778365 0.6772176027 4288187787
-0.3585029244 -0.1894880682 0.6756581664 4284898137
-0.3576748073 -0.1883013844 0.6740974188 4285354309
-0.3573011756 -0.1873564869 0.6733931899 4285485895
-0.3546507359 -0.1852240562 0.6683980227 4286996553
-0.3515434265 -0.1828650534 0.6625417471 4287588690
-0.3457015753 -0.1791023612 0.6515318751 4287652678
-0.2993108928 -0.1544413418 0.5641009212 4287126334
-0.2948211432 -0.1515073329 0.5556392670 4287716410
-0.2907849252 -0.1488242298 0.5480323434 4287913789
-0.2899378240 -0.1477835476 0.5464358330 4287913789
-0.2890900671 -0.1467460841 0.5448380709 4287650617
-0.2886977494 -0.1459424198 0.5440987349 4287387445
-0.2883050442 -0.1451401711 0.5433585644 4287321652
-0.2879118919 -0.1443393677 0.5426176190 4287584567
-0.2880373001 -0.1431959420 0.5428539515 4287518774
-0.2876431048 -0.1423976421 0.5421110392 4287518774
-0.2877051532 -0.1418258995 0.5422279835 4287584567
-0.2873101830 -0.1410295814 0.5414836407 4287847739
-0.2869148254 -0.1402347088 0.5407384634 4287715899
-0.2869760096 -0.1396636963 0.5408537984 4287584313
-0.2865799069 -0.1388708204 0.5401072502 4287650106
-0.2866405249 -0.1382999718 0.5402215719 4287321141
-0.2867009640 -0.1377287805 0.5403354168 4287518774
-0.2867611349 -0.1371572167 0.5404488444 4287913532
-0.2868210971 -0.1365852952 0.5405618548 4288110398
-0.2864232957 -0.1357960850 0.5398120880 4287847226
-0.2864827216 -0.1352243572 0.5399240851 4287781431
-0.2860841751 -0.1344371736 0.5391729474 4287847224
-0.2861430347 -0.1338656545 0.5392839313 4287846708
-0.2857437432 -0.1330805123 0.5385314226 4287715122
-0.2858020663 -0.1325092167 0.5386413336 4287714608
-0.2858601809 -0.1319375485 0.5387508273 4287648815
-0.2859180272 -0.1313655525 0.5388599038 4287582504
-0.2859756649 -0.1307931989 0.5389685035 4287385125
-0.2860330939 -0.1302205026 0.5390766859 4287319075
-0.2860902548 -0.1296474636 0.5391844511 4287319075
-0.2861472070 -0.1290740818 0.5392917991 4287384866
-0.2862039506 -0.1285003573 0.5393987298 4287450659
-0.2862604260 -0.1279262900 0.5395051837 4287450146
-0.2867755294 -0.1275559813 0.5404759645 4287318560
-0.2868316472 -0.1269803047 0.5405817032 4287055901
-0.2868875265 -0.1264043152 0.5406870842 4287187487
-0.2869431973 -0.1258279681 0.5407919288 4287911723
-0.2869985998 -0.1252512932 0.5408964157 4288701239
-0.2870537937 -0.1246742979 0.5410004258 4288636475
-0.2871087492 -0.1240969598 0.5411039591 4289031233
-0.2867040038 -0.1233216599 0.5403411984 4288901187
-0.2867583930 -0.1227445826 0.5404437184 4289230152
-0.2863529325 -0.1219714060 0.5396795273 4289362767
-0.2859470546 -0.1211997494 0.5389145613 4289428560
-0.2855407596 -0.1204296201 0.5381488204 4289625939
-0.2851340771 -0.1196610183 0.5373823643 4290086490
-0.2851869464 -0.1190860271 0.5374820232 4290086490
-0.2847795188 -0.1183195785 0.5367141962 4290283869
-0.2848318517 -0.1177448779 0.5368127823 4290480989
-0.2844237089 -0.1169805750 0.5360435843 4290546782
-0.2844754755 -0.1164061725 0.5361410975 4290349149
-0.2840666175 -0.1156440303 0.5353705287 4290546528
-0.2836573422 -0.1148834378 0.5345991850 4290941801
-0.2837082148 -0.1143099666 0.5346951485 4291139180
-0.2832982242 -0.1135515496 0.5339224339 4291008109
-0.2833485603 -0.1129783913 0.5340172648 4290613351
-0.2833986580 -0.1124049351 0.5341117382 4290350440
-0.2834485471 -0.1118311659 0.5342056751 4290942577
-0.2834981680 -0.1112571061 0.5342991948 4291534716
-0.2835475504 -0.1106827334 0.5343922973 4291995267
-0.2835966945 -0.1101080701 0.5344849229 4292456078
-0.2845680118 -0.1098893136 0.5363155603 4292587664
-0.2846168578 -0.1093121767 0.5364075899 4292588178
-0.2851268053 -0.1089109853 0.5373686552 4292917143
-0.2851752341 -0.1083323210 0.5374599695 4293049760
-0.2856849432 -0.1079277247 0.5384205580 4293247139
-0.2861945629 -0.1075209677 0.5393810272 4293181859
-0.2862424254 -0.1069395542 0.5394712090 4292787101
-0.2862900198 -0.1063578501 0.5395609736 4292392084
-0.2863374054 -0.1057758555 0.5396502018 4292194705
-0.2863845229 -0.1051935703 0.5397390127 4292193933
-0.2864314020 -0.1046110019 0.5398274064 4292062347
-0.2864780128 -0.1040281504 0.5399152637 4292127111
-0.2865244150 -0.1034450084 0.5400027037 4292127111
-0.2865705490 -0.1028615907 0.5400896072 4292126340
-0.2870787084 -0.1024428532 0.5410473943 4291797375
-0.2871244550 -0.1018579304 0.5411335230 4291665789
-0.2871699035 -0.1012727320 0.5412192345 4291797375
-0.2872151434 -0.1006872505 0.5413044691 4291928959
-0.2877227068 -0.1002626866 0.5422610641 4291928959
-0.2877674997 -0.0996757150 0.5423454642 4291797886
-0.2878120542 -0.0990884677 0.5424294472 4291732093
-0.2878563404 -0.0985009521 0.5425129533 4291666300
-0.2883632481 -0.0980705768 0.5434682965 4291600507
-0.2888700664 -0.0976380482 0.5444234610 4291534714
-0.2893767655 -0.0972033516 0.5453783870 4291534714
-0.2898833454 -0.0967665017 0.5463331342 4291468921
-0.2899266481 -0.0961738601 0.5464147925 4291468921
-0.2904329300 -0.0957336351 0.5473689437 4291403126
-0.2904758155 -0.0951395109 0.5474497676 4291403126
-0.2909817994 -0.0946959183 0.5484033823 4291468919
-0.2914876640 -0.0942501724 0.5493567586 4291600505
-0.2915299237 -0.0936533734 0.5494363904 4291600505
-0.2920354605 -0.0932042524 0.5503891706 4291534712
-0.2925408781 -0.0927529857 0.5513417125 4291468662
-0.2930461764 -0.0922995582 0.5522940755 4291468662
-0.2935513556 -0.0918439701 0.5532461405 4291074423
-0.2940563858 -0.0913862288 0.5541979671 4291074423
-0.2940974236 -0.0907831416 0.5542753339 4290680183
-0.2941382229 -0.0901798084 0.5543521643 4292193422
-0.3572888076 -0.1907419115 0.6747823358 4289242025
-0.3573711514 -0.1900359839 0.6749379039 4285751899
-0.3565448523 -0.1888484061 0.6733773351 4284567625
-0.3552635610 -0.1874242872 0.6709575057 4285683011
-0.3539813757 -0.1860050559 0.6685359478 4286077769
-0.3463352025 -0.1812605113 0.6540952325 4287588173
-0.2982248664 -0.1554553360 0.5632331371 4287390794
-0.3023846149 -0.1569891572 0.5710892677 4287191614
-0.2960851789 -0.1530973762 0.5591920614 4287125821
-0.2934220135 -0.1511046141 0.5541623831 4287387188
-0.2912124097 -0.1493556648 0.5499892831 4287452981
-0.2899118364 -0.1480802745 0.5475329757 4287387188
-0.2890656590 -0.1470414847 0.5459348559 4287189809
-0.2886741459 -0.1462365985 0.5451954603 4287058223
-0.2882822454 -0.1454331279 0.5444552898 4287124016
-0.2878898978 -0.1446310878 0.5437142849 4287321395
-0.2874971330 -0.1438304931 0.5429725647 4287452981
-0.2871039808 -0.1430313438 0.5422299504 4287452981
-0.2876220047 -0.1426858753 0.5432083607 4287387188
-0.2867722809 -0.1416625679 0.5416035056 4287386675
-0.2868339419 -0.1410911530 0.5417200327 4287584054
-0.2864392996 -0.1402959675 0.5409746766 4287584054
-0.2865004241 -0.1397247165 0.5410901308 4287518261
-0.2861050367 -0.1389315277 0.5403433442 4287518261
-0.2861656249 -0.1383604556 0.5404577851 4287255089
-0.2862259746 -0.1377890259 0.5405718088 4287190066
-0.2862861156 -0.1372172385 0.5406853557 4287847996
-0.2858893573 -0.1364271641 0.5399360061 4287913532
-0.2859489322 -0.1358555704 0.5400485992 4287387188
-0.2855514288 -0.1350675076 0.5392978191 4287387188
-0.2856104672 -0.1344961077 0.5394093394 4287716153
-0.2852122486 -0.1337100863 0.5386571884 4287912247
-0.2852707505 -0.1331389099 0.5387676954 4287714868
-0.2853290141 -0.1325673759 0.5388777852 4287649329
-0.2853870690 -0.1319954842 0.5389873981 4287649329
-0.2854448855 -0.1314232647 0.5390965939 4287583022
-0.2855024636 -0.1308506876 0.5392053723 4287385643
-0.2855598330 -0.1302777529 0.5393137336 4287385129
-0.2856169939 -0.1297044903 0.5394216180 4287385129
-0.2856738865 -0.1291308701 0.5395290852 4287516713
-0.2857305706 -0.1285569221 0.5396361351 4287648299
-0.2857870162 -0.1279826164 0.5397427678 4287648038
-0.2858432233 -0.1274079829 0.5398489237 4287713831
-0.2863573730 -0.1270362735 0.5408199430 4287187487
-0.2864132226 -0.1264600307 0.5409254432 4286595350
-0.2864688337 -0.1258834749 0.5410304666 4287253280
-0.2865242064 -0.1253065616 0.5411350727 4287713831
-0.2865793705 -0.1247293279 0.5412392020 4287385895
-0.2866342664 -0.1241517514 0.5413429141 4287517481
-0.2866889536 -0.1235738471 0.5414461493 4287453228
-0.2862845957 -0.1227988228 0.5406824946 4288374330
-0.2858798504 -0.1220253184 0.5399180651 4288901703
-0.2859336436 -0.1214482859 0.5400196910 4289099082
-0.2855281532 -0.1206769124 0.5392538905 4288968009
-0.2846631408 -0.1197139770 0.5376201868 4289296974
-0.2847159803 -0.1191387549 0.5377199650 4289428562
-0.2843092680 -0.1183719784 0.5369518995 4289889113
-0.2839021683 -0.1176067442 0.5361829996 4290283356
-0.2839541435 -0.1170324236 0.5362811685 4290283356
-0.2835462987 -0.1162693426 0.5355108976 4289954904
-0.2831380665 -0.1155078113 0.5347399116 4290086490
-0.2831891775 -0.1149344146 0.5348364115 4290415457
-0.2832400203 -0.1143607050 0.5349324346 4290678629
-0.2828307450 -0.1136019677 0.5341594815 4290678374
-0.2828810513 -0.1130285710 0.5342544913 4290217823
-0.2824710608 -0.1122720242 0.5334801674 4289823837
-0.2825208008 -0.1116989553 0.5335741043 4290087009
-0.2830305099 -0.1113065705 0.5345367789 4290284647
-0.2830798626 -0.1107319668 0.5346300006 4290745198
-0.2831289768 -0.1101570651 0.5347227454 4291337337
-0.2840987444 -0.1099382266 0.5365542769 4291732095
-0.2841475308 -0.1093608513 0.5366464257 4292192391
-0.2846567035 -0.1089594886 0.5376080275 4292652942
-0.2847051024 -0.1083805934 0.5376994014 4292456596
-0.2852140069 -0.1079758331 0.5386605263 4292851354
-0.2857228220 -0.1075689048 0.5396215320 4292982938
-0.2857706547 -0.1069872454 0.5397118330 4292785559
-0.2858182192 -0.1064053029 0.5398016572 4292456594
-0.2858655453 -0.1058230624 0.5398910642 4292259215
-0.2859126329 -0.1052405387 0.5399799943 4292061834
-0.2859594822 -0.1046577245 0.5400684476 4291864455
-0.2860060632 -0.1040746197 0.5401564837 4292060805
-0.2860524058 -0.1034912392 0.5402439833 4292192391
-0.2860985100 -0.1029075757 0.5403310657 4292126340
-0.2861443758 -0.1023236290 0.5404176712 4291665789
-0.2866515815 -0.1019034907 0.5413755774 4291468408
-0.2866970301 -0.1013180465 0.5414614081 4291468408
-0.2867422104 -0.1007323191 0.5415467620 4291534201
-0.2872489691 -0.1003075764 0.5425038338 4291599994
-0.2872937322 -0.0997203588 0.5425884128 4291534714
-0.2878002226 -0.0992922410 0.5435449481 4291534714
-0.2878445685 -0.0987035260 0.5436286926 4291534714
-0.2878886461 -0.0981145427 0.5437119603 4291468921
-0.2883946598 -0.0976818278 0.5446676016 4291468921
-0.2889005542 -0.0972469524 0.5456230640 4291403128
-0.2889440358 -0.0966552719 0.5457051396 4291337335
-0.2894496322 -0.0962170213 0.5466600657 4291271542
-0.2894926667 -0.0956238583 0.5467413068 4291271540
-0.2899979651 -0.0951822400 0.5476956367 4291271540
-0.2905031443 -0.0947384611 0.5486497283 4291402869
-0.2905455530 -0.0941426158 0.5487298369 4291468662
-0.2910504341 -0.0936954692 0.5496833920 4291468662
-0.2910923958 -0.0930981487 0.5497626066 4291402869
-0.2915969789 -0.0926476419 0.5507155657 4291337076
-0.2921014130 -0.0921949670 0.5516682267 4291271283
-0.2926057279 -0.0917401388 0.5526207089 4290877044
-0.2931098938 -0.0912831575 0.5535728931 4291008630
-0.2936139703 -0.0908240229 0.5545248985 4291204720
-0.2936547101 -0.0902204216 0.5546018481 4291599478
-0.2946216762 -0.0898992717 0.5564280748 4292003260
-0.3557046056 -0.1910433173 0.6732025743 4289636522
-0.3557869494 -0.1903394014 0.6733584404 4285359977
-0.3554157019 -0.1893934160 0.6726557612 4285159502
-0.3545905352 -0.1882080734 0.6710940599 4285027916
-0.3524040580 -0.1863065064 0.6669559479 4286077252
-0.3493089676 -0.1839356869 0.6610982418 4286340424
-0.3453046679 -0.1811010391 0.6535197496 4287455558
-0.2990898490 -0.1562339365 0.5660541058 4287192386
-0.2923480570 -0.1520975232 0.5532946587 4287190844
-0.2942300737 -0.1524579674 0.5568565726 4286730293
-0.2920252681 -0.1507014483 0.5526837707 4286860844
-0.2893649340 -0.1487200856 0.5476488471 4286795051
-0.2907924652 -0.1488422900 0.5503505468 4286795051
-0.2885846198 -0.1471053809 0.5461720824 4286795051
-0.2881938517 -0.1463001668 0.5454324484 4286860844
-0.2878026366 -0.1454963684 0.5446920395 4287058223
-0.2874110043 -0.1446940154 0.5439508557 4287189809
-0.2870189548 -0.1438931078 0.5432088971 4287189809
-0.2866264880 -0.1430936307 0.5424661040 4287452468
-0.2871437371 -0.1427480429 0.5434449911 4287189296
-0.2862954438 -0.1417243183 0.5418395996 4287123503
-0.2863570750 -0.1411526650 0.5419562459 4287255089
-0.2859631479 -0.1403571665 0.5412106514 4287255089
-0.2860242128 -0.1397856921 0.5413262248 4287189296
-0.2856295407 -0.1389921755 0.5405792594 4287255089
-0.2856900692 -0.1384208947 0.5406938195 4287255089
-0.2857503891 -0.1378492415 0.5408080220 4287190066
-0.2853546441 -0.1370582879 0.5400590301 4287847996
-0.2854144275 -0.1364868283 0.5401721597 4287716410
-0.2850179374 -0.1356978863 0.5394217968 4286926894
-0.2850771844 -0.1351266205 0.5395338535 4286992430
-0.2846799493 -0.1343397200 0.5387821198 4287387188
-0.2847386301 -0.1337686628 0.5388931632 4287518259
-0.2847971022 -0.1331972480 0.5390037894 4287518259
-0.2843988240 -0.1324129552 0.5382500291 4287714868
-0.2844567299 -0.1318417639 0.5383596420 4287649075
-0.2845144272 -0.1312702149 0.5384688377 4287517489
-0.2845718861 -0.1306983232 0.5385775566 4287385903
-0.2846291065 -0.1301260889 0.5386858582 4287319851
-0.2846861184 -0.1295535117 0.5387937427 4287254058
-0.2851999402 -0.1291876286 0.5397661924 4287384874
-0.2852565646 -0.1286134422 0.5398733616 4287384874
-0.2853129804 -0.1280389130 0.5399801135 4287516965
-0.2853691280 -0.1274640411 0.5400864482 4287122207
-0.2854250669 -0.1268888414 0.5401923060 4287121953
-0.2859382927 -0.1265157163 0.5411636233 4286858781
-0.2859938741 -0.1259389222 0.5412687659 4286661402
-0.2860491872 -0.1253617853 0.5413734913 4286200851
-0.2861042917 -0.1247843131 0.5414777994 4285675277
-0.2861591578 -0.1242065057 0.5415816307 4285346312
-0.2862137854 -0.1236283705 0.5416850448 4285149962
-0.2862682045 -0.1230498999 0.5417879820 4286926373
-0.2854061425 -0.1220792010 0.5401564837 4288769349
-0.2854599059 -0.1215019301 0.5402582288 4289756244
-0.2850551307 -0.1207302287 0.5394921303 4289033804
-0.2846499681 -0.1199600622 0.5387253165 4289099597
-0.2842443883 -0.1191914305 0.5379577279 4288968525
-0.2838383913 -0.1184243411 0.5371893644 4289297490
-0.2834320068 -0.1176587865 0.5364202857 4289691732
-0.2830252349 -0.1168947741 0.5356503725 4289889111
-0.2830768228 -0.1163208261 0.5357480645 4289954904
-0.2826693058 -0.1155589819 0.5349767804 4289889111
-0.2822614014 -0.1147986799 0.5342047811 4289889881
-0.2823121548 -0.1142256707 0.5343008041 4290087260
-0.2823626399 -0.1136523485 0.5343963504 4290152030
-0.2824128866 -0.1130787134 0.5344914794 4289823065
-0.2820036411 -0.1123218462 0.5337169170 4289626456
-0.2820533216 -0.1117485464 0.5338109732 4289692249
-0.2821027935 -0.1111749336 0.5339046121 4289823837
-0.2826115787 -0.1107811630 0.5348674655 4290087009
-0.2826606333 -0.1102060154 0.5349603891 4290416231
-0.2836288512 -0.1099870950 0.5367928147 4290745196
-0.2836776078 -0.1094094887 0.5368850827 4291139443
-0.2841859758 -0.1090079620 0.5378471613 4291402615
-0.2842343152 -0.1084288210 0.5379387140 4291666562
-0.2847424448 -0.1080238968 0.5389003754 4292192906
-0.2847903669 -0.1074432284 0.5389910936 4292653457
-0.2852982283 -0.1070349067 0.5399522781 4292587664
-0.2853457630 -0.1064527184 0.5400422215 4292521358
-0.2853930593 -0.1058702320 0.5401317477 4292258186
-0.2854401171 -0.1052874625 0.5402207971 4291995012
-0.2854869068 -0.1047044024 0.5403093696 4291797633
-0.2855334878 -0.1041210592 0.5403974652 4291863681
-0.2855798006 -0.1035374328 0.5404851437 4292126853
-0.2856258750 -0.1029535234 0.5405723453 4292060545
-0.2856716812 -0.1023693234 0.5406590700 4291665787
-0.2861781120 -0.1019490212 0.5416174531 4291402615
-0.2862235010 -0.1013633236 0.5417034030 4291336822
-0.2862686515 -0.1007773504 0.5417888761 4291271283
-0.2867746353 -0.1003524363 0.5427464247 4291337076
-0.2868193388 -0.0997649655 0.5428311229 4291468408
-0.2873250246 -0.0993366688 0.5437881351 4291468408
-0.2873693407 -0.0987477079 0.5438719988 4291468662
-0.2878747284 -0.0983160287 0.5448284745 4291402869
-0.2883800268 -0.0978821889 0.5457847714 4291402869
-0.2884237170 -0.0972905234 0.5458675027 4291337076
-0.2889286876 -0.0968533084 0.5468232036 4291271283
-0.2889719605 -0.0962601528 0.5469051003 4291271283
-0.2894766629 -0.0958195627 0.5478602648 4291205490
-0.2895194590 -0.0952249393 0.5479413271 4291139697
-0.2900238633 -0.0947809666 0.5488958955 4291270511
-0.2905281186 -0.0943348408 0.5498502851 4291336304
-0.2905703187 -0.0937375352 0.5499301553 4291402097
-0.2910742760 -0.0932880342 0.5508839488 4291402097
-0.2911160290 -0.0926892608 0.5509629250 4291336304
-0.2911575139 -0.0920902193 0.5510414839 4291270511
-0.2916609645 -0.0916361511 0.5519942641 4290942066
-0.2921642959 -0.0911799297 0.5529468656 4290942066
-0.2926674783 -0.0907215476 0.5538992286 4291270766
-0.2927081287 -0.0901186392 0.5539761782 4291073387
-0.2941359580 -0.0899397284 0.5566784143 4291145887
-0.2946388125 -0.0894739255 0.5576301217 4294435537
-0.3545752168 -0.1915850639 0.6724786758 4289769399
-0.3542052805 -0.1906387955 0.6717770696 4286279535
-0.3542873561 -0.1899364144 0.6719327569 4284700503
-0.3534640074 -0.1887501776 0.6703712344 4285947474
-0.3521873057 -0.1873262674 0.6679497957 4286144853
-0.3500041366 -0.1854275167 0.6638092399 4286734407
-0.3451023102 -0.1821033806 0.6545125842 4286471235
-0.3048644960 -0.1602282971 0.5781985521 4286994748
-0.2936062515 -0.1536925882 0.5568464398 4287060541
-0.2950322330 -0.1538173258 0.5595508814 4287255608
-0.2928321958 -0.1520532519 0.5553783774 4286663471
-0.2910843194 -0.1505322754 0.5520633459 4286926383
-0.2888818979 -0.1487845778 0.5478863120 4286860590
-0.2898534536 -0.1486741900 0.5497289896 4286795310
-0.2881029844 -0.1471692175 0.5464090705 4286926896
-0.2877129018 -0.1463636756 0.5456692576 4287124275
-0.2873224020 -0.1455595791 0.5449286699 4287255861
-0.2869314849 -0.1447568983 0.5441872478 4287452981
-0.2865401506 -0.1439556628 0.5434450507 4287321395
-0.2861483991 -0.1431558579 0.5427020192 4287057710
-0.2862105072 -0.1425838321 0.5428198576 4286728745
-0.2858180106 -0.1417860091 0.5420754552 4286860844
-0.2858795822 -0.1412141472 0.5421922207 4287124016
-0.2854863703 -0.1404183060 0.5414464474 4286992430
-0.2855474055 -0.1398466229 0.5415621996 4286926637
-0.2851534188 -0.1390527785 0.5408149958 4287057710
-0.2847590148 -0.1382604092 0.5400670171 4287189296
-0.2848191857 -0.1376894414 0.5401811004 4287387186
-0.2848791480 -0.1371181160 0.5402948260 4287979323
-0.2849388719 -0.1365464330 0.5404080749 4287782203
-0.2845430970 -0.1357571781 0.5396574736 4287190066
-0.2846022844 -0.1351856887 0.5397697091 4287058223
-0.2842057943 -0.1343984753 0.5390177369 4287058223
-0.2838088870 -0.1336127222 0.5382649302 4287123501
-0.2838671803 -0.1330420077 0.5383755565 4287189294
-0.2839252949 -0.1324709356 0.5384857059 4287517489
-0.2839831412 -0.1318995059 0.5385954976 4287385903
-0.2840407789 -0.1313277483 0.5387048125 4287254317
-0.2840982080 -0.1307556331 0.5388136506 4287188524
-0.2841553688 -0.1301831603 0.5389221311 4287188267
-0.2842123210 -0.1296103597 0.5390301347 4287122474
-0.2842690647 -0.1290372014 0.5391377211 4287187497
-0.2847819328 -0.1286699176 0.5401104689 4287121704
-0.2848382890 -0.1280951649 0.5402173400 4287122723
-0.2848944366 -0.1275200546 0.5403237939 4286925344
-0.2849503160 -0.1269446313 0.5404298306 4287188518
-0.2850059867 -0.1263688505 0.5405353904 4286859553
-0.2850614190 -0.1257927418 0.5406405330 4286727197
-0.2851166427 -0.1252162904 0.5407451987 4286464025
-0.2856286168 -0.1248392537 0.5417162180 4286266646
-0.2856834233 -0.1242612153 0.5418202281 4285213958
-0.2857380211 -0.1236828491 0.5419237614 4284359424
-0.2857923806 -0.1231041476 0.5420268178 4285083142
-0.2853891551 -0.1223290712 0.5412620902 4286334751
-0.2849855125 -0.1215555295 0.5404965281 4288374334
-0.2850389779 -0.1209776998 0.5405979753 4288704326
-0.2846346200 -0.1202062815 0.5398310423 4289625428
-0.2842298448 -0.1194364056 0.5390633941 4289429076
-0.2838246822 -0.1186680570 0.5382949114 4288639560
-0.2834191024 -0.1179012582 0.5375257134 4289033802
-0.2830131054 -0.1171359941 0.5367557406 4289296974
-0.2826067209 -0.1163722798 0.5359849930 4289297744
-0.2821999490 -0.1156101078 0.5352135301 4289166158
-0.2822509408 -0.1150362417 0.5353102684 4289297744
-0.2818434536 -0.1142762452 0.5345373750 4289626709
-0.2818939090 -0.1137026846 0.5346331000 4289691734
-0.2814856768 -0.1129448712 0.5338588357 4289494355
-0.2815355957 -0.1123716310 0.5339534879 4289296976
-0.2815852463 -0.1117980927 0.5340476632 4289428562
-0.2816346884 -0.1112242490 0.5341414213 4289494869
-0.2821426392 -0.1108303145 0.5351048112 4289692248
-0.2826505303 -0.1104342118 0.5360680819 4289889627
-0.2831583321 -0.1100359336 0.5370311737 4290021213
-0.2832070291 -0.1094580814 0.5371235609 4290217823
-0.2832555175 -0.1088799313 0.5372154713 4290283616
-0.2837629020 -0.1084770188 0.5381777883 4290679152
-0.2838110030 -0.1078973413 0.5382689834 4291139703
-0.2843181491 -0.1074910164 0.5392308235 4291599997
-0.2843658030 -0.1069098189 0.5393212438 4291731583
-0.2844132185 -0.1063283235 0.5394111872 4291731583
-0.2844603956 -0.1057465374 0.5395006537 4291665790
-0.2849669755 -0.1053343564 0.5404613614 4291534201
-0.2850137353 -0.1047510505 0.5405500531 4291402615
-0.2850602567 -0.1041674614 0.5406383276 4291534714
-0.2851065397 -0.1035835892 0.5407260656 4291732093
-0.2856124938 -0.1031655595 0.5416857004 4291797373
-0.2856583595 -0.1025801748 0.5417726636 4291534201
-0.2857039869 -0.1019945145 0.5418591499 4291337076
-0.2857493460 -0.1014085710 0.5419452190 4291205490
-0.2862546742 -0.1009847075 0.5429036021 4291139695
-0.2862996161 -0.1003972590 0.5429888964 4291205488
-0.2868046761 -0.0999700055 0.5439467430 4291402101
-0.2868492007 -0.0993810669 0.5440312028 4291402101
-0.2873539925 -0.0989504308 0.5449885130 4291336306
-0.2878586650 -0.0985176265 0.5459456444 4291270513
-0.2879025638 -0.0979259759 0.5460289717 4291336306
-0.2884069383 -0.0974897966 0.5469855666 4291336306
-0.2884504199 -0.0968966559 0.5470679998 4291270513
-0.2884936333 -0.0963032544 0.5471499562 4291336306
-0.2889975309 -0.0958624780 0.5481056571 4291270000
-0.2890403271 -0.0952676013 0.5481867790 4291204207
-0.2895439267 -0.0948234424 0.5491418839 4291138668
-0.2895862758 -0.0942270905 0.5492222309 4291072875
-0.2900895476 -0.0937795639 0.5501767397 4291401070
-0.2905927002 -0.0933298841 0.5511310101 4291466863
-0.2901731133 -0.0925836489 0.5503352284 4291336047
-0.2911372781 -0.0922777876 0.5521638393 4291270254
-0.2916399837 -0.0918225795 0.5531172752 4291203693
-0.2921425998 -0.0913652107 0.5540704727 4291269486
-0.2921834588 -0.0907622948 0.5541480184 4291138667
-0.2931473851 -0.0904439911 0.5559761524 4291007081
-0.2941113114 -0.0901216269 0.5578042865 4290813573
-0.3529952765 -0.1918794215 0.6708953977 4290886850
-0.3526262045 -0.1909341663 0.6701939106 4286018168
-0.3522566557 -0.1899902076 0.6694915891 4285488991
-0.3523383439 -0.1892902553 0.6696468592 4286475886
-0.3506124914 -0.1876226664 0.6663667560 4286407510
-0.3493374586 -0.1862026751 0.6639434695 4286473303
-0.3471575081 -0.1843076348 0.6598002315 4286799685
-0.3386463821 -0.1790739447 0.6436242461 4286668099
-0.2957612872 -0.1557720304 0.5621176958 4287060026
-0.2994471490 -0.1570809782 0.5691229701 4286862647
-0.2931807637 -0.1531747133 0.5572131872 4287123252
-0.2900790572 -0.1509416550 0.5513181686 4287189045
-0.2878810167 -0.1491899937 0.5471405983 4286992689
-0.2888509333 -0.1490826756 0.5489840508 4286926896
-0.2875568271 -0.1478075236 0.5465244651 4286926896
-0.2871677876 -0.1470011473 0.5457850695 4287058482
-0.2867783010 -0.1461961865 0.5450448394 4287124275
-0.2868415713 -0.1456227154 0.5451650620 4287255861
-0.2864513397 -0.1448197216 0.5444234014 4287386934
-0.2860607207 -0.1440181732 0.5436810255 4287386934
-0.2856696546 -0.1432180405 0.5429377556 4286729258
-0.2857317328 -0.1426457912 0.5430557728 4286334500
-0.2853399515 -0.1418476552 0.5423111320 4286926637
-0.2854014933 -0.1412755698 0.5424280763 4287321395
-0.2850089669 -0.1404794157 0.5416820645 4287058223
-0.2850699425 -0.1399074942 0.5417979360 4286926637
-0.2846766710 -0.1391133517 0.5410504937 4287057710
-0.2842829823 -0.1383206546 0.5403022766 4287189296
-0.2843431234 -0.1377494633 0.5404165983 4287518772
-0.2844030261 -0.1371779144 0.5405304432 4288045116
-0.2840082943 -0.1363877803 0.5397801995 4288176704
-0.2845221460 -0.1360337436 0.5407568216 4287847739
-0.2836721838 -0.1350283325 0.5391414165 4287518774
-0.2837309837 -0.1344571710 0.5392531753 4287058223
-0.2833347917 -0.1336711049 0.5385001898 4286925352
-0.2833930552 -0.1331001669 0.5386109352 4286925352
-0.2834511101 -0.1325288713 0.5387212038 4287056938
-0.2835089266 -0.1319572181 0.5388311148 4287056938
-0.2835665345 -0.1313852221 0.5389406085 4287056940
-0.2836238742 -0.1308128834 0.5390496254 4287056940
-0.2836810350 -0.1302401870 0.5391582251 4287122220
-0.2837379277 -0.1296671480 0.5392663479 4287056427
-0.2837946117 -0.1290937811 0.5393741131 4287056681
-0.2843066752 -0.1287263483 0.5403473377 4286990888
-0.2839072943 -0.1279459894 0.5395882726 4286991139
-0.2844190896 -0.1275760382 0.5405609608 4286793760
-0.2844749391 -0.1270003617 0.5406671166 4286793506
-0.2845305502 -0.1264243573 0.5407727957 4286596127
-0.2845859528 -0.1258480102 0.5408781171 4286793506
-0.2846411169 -0.1252713352 0.5409829021 4286793506
