VERSION 0.7
FIELDS x y z rgba
SIZE 4 4 4 4
TYPE F F F U
COUNT 1 1 1 1
WIDTH 920
HEIGHT 1
VIEWPOINT 0.0 0.0 0.0 1.0 0.0 0.0 0.0
POINTS 920
DATA ascii
-0.2955451608 -0.0980104730 0.5864665508 4291405448
-0.2964781821 -0.0976662114 0.5883179307 4291340695
-0.2974111736 -0.0973178446 0.5901693106 4291603867
-0.2987894416 -0.0971100777 0.5929043293 4291343529
-0.3001677990 -0.0968962684 0.5956394672 4292856768
-0.3174491227 -0.1665326506 0.6313231587 4292071890
-0.3162072897 -0.1651824862 0.6288534999 4289045412
-0.3154020607 -0.1640649438 0.6272521019 4288516748
-0.3137211204 -0.1624973416 0.6239091754 4287858818
-0.3116015494 -0.1607109457 0.6196938753 4287790191
-0.3072920442 -0.1578092873 0.6111234426 4288119156
-0.3016669154 -0.1542539299 0.5999364853 4288512625
-0.2977907956 -0.1516139060 0.5922278762 4287591523
-0.2947887480 -0.1494341195 0.5862576365 4288575068
-0.2926614285 -0.1477090567 0.5820268989 4287390794
-0.2914093137 -0.1464332044 0.5795367956 4287390535
-0.2901564240 -0.1451624930 0.5770451427 4287390535
-0.2889027297 -0.1438969076 0.5745518804 4287323970
-0.2885252535 -0.1430713534 0.5738011599 4287718728
-0.2881473303 -0.1422472596 0.5730496049 4288047434
-0.2877689898 -0.1414246261 0.5722972155 4288113227
-0.2869514823 -0.1403888017 0.5706713796 4288179018
-0.2861333787 -0.1393563002 0.5690443516 4287652674
-0.2857536376 -0.1385399401 0.5682891607 4286994744
-0.2853734493 -0.1377250552 0.5675330758 4286863158
-0.2854320109 -0.1371226162 0.5676494837 4287586621
-0.2850511074 -0.1363097578 0.5668919683 4288376137
-0.2846697867 -0.1354984045 0.5661336184 4288309828
-0.2847274542 -0.1348967105 0.5662482977 4287586105
-0.2839058936 -0.1338801533 0.5646144748 4286731827
-0.2839629352 -0.1332795918 0.5647279024 4287389757
-0.2835800648 -0.1324732900 0.5639664531 4287455808
-0.2840762734 -0.1320773810 0.5649533272 4287784773
-0.2836927474 -0.1312722117 0.5641905665 4288180562
-0.2833088338 -0.1304685622 0.5634270906 4287391046
-0.2829245031 -0.1296664029 0.5626627207 4285419315
-0.2820996642 -0.1286650449 0.5610223413 4284761385
-0.2817144394 -0.1278668642 0.5602562428 4283776556
-0.2813287973 -0.1270701885 0.5594893098 4282789661
-0.2809427381 -0.1262750477 0.5587215424 4281739291
-0.2805562913 -0.1254814267 0.5579530001 4281278740
-0.2801694572 -0.1246893257 0.5571836829 4281148185
-0.2797822058 -0.1238987669 0.5564135313 4282332459
-0.2789538503 -0.1229155585 0.5547661781 4283056182
-0.2790064812 -0.1223222464 0.5548708439 4282793010
-0.2790588737 -0.1217285991 0.5549750328 4283055412
-0.2786701024 -0.1209432483 0.5542018414 4282989619
-0.2787219584 -0.1203498766 0.5543049574 4282661424
-0.2787735462 -0.1197561771 0.5544075966 4281937701
-0.2788249254 -0.1191621423 0.5545097589 4282135078
-0.2788760364 -0.1185677797 0.5546114445 4283253559
-0.2789269388 -0.1179730892 0.5547126532 4283121198
-0.2789776027 -0.1173780784 0.5548133850 4283844921
-0.2794695199 -0.1169675291 0.5557916760 4285158720
-0.2795197666 -0.1163709238 0.5558916330 4286211408
-0.2795698047 -0.1157740057 0.5559911132 4286669641
-0.2800613046 -0.1153587177 0.5569686294 4285945918
-0.2805527449 -0.1149412245 0.5579459667 4286470973
-0.2806021869 -0.1143414602 0.5580443144 4287128903
-0.2806514204 -0.1137413755 0.5581421852 4287917129
-0.2811424434 -0.1133191586 0.5591186881 4288246094
-0.2816333771 -0.1128947288 0.5600950122 4288439614
-0.2821242213 -0.1124680936 0.5610711575 4288110649
-0.2821726799 -0.1118639186 0.5611675978 4288242235
-0.2822209001 -0.1112594381 0.5612635016 4288373821
-0.2827113271 -0.1108280793 0.5622387528 4288702016
-0.2836441398 -0.1105670184 0.5640938878 4288636223
-0.2841344178 -0.1101303026 0.5650689602 4288570430
-0.2846246064 -0.1096913889 0.5660438538 4288965188
-0.2846719921 -0.1090806201 0.5661380291 4288570430
-0.2851619124 -0.1086382493 0.5671123266 4287320363
-0.2856517136 -0.1081936657 0.5680864453 4288570945
-0.2861414254 -0.1077468768 0.5690603852 4289689426
-0.2866310179 -0.1072978899 0.5700340271 4290150490
-0.2871205211 -0.1068466976 0.5710075498 4290150490
-0.2871667445 -0.1062293649 0.5710994601 4290545761
-0.2876559496 -0.1057747230 0.5720723271 4290545761
-0.2877017260 -0.1051558405 0.5721634030 4290678627
-0.2881906331 -0.1046977416 0.5731357336 4290810213
-0.2886794209 -0.1042374447 0.5741077662 4290876522
-0.2887246013 -0.1036157757 0.5741975904 4291271280
-0.2887694836 -0.1029938161 0.5742868781 4291337333
-0.2892577946 -0.1025288254 0.5752580166 4291337333
-0.2897459567 -0.1020616293 0.5762288570 4291468660
-0.2897902429 -0.1014368981 0.5763168931 4291402867
-0.2907219529 -0.1011206433 0.5781698227 4291402352
-0.2912097573 -0.1006468460 0.5791399479 4291139180
-0.2916974425 -0.1001708508 0.5801098347 4291139697
-0.2926290333 -0.0998441651 0.5819625258 4290876525
-0.2931165397 -0.0993628204 0.5829319954 4289693286
-0.2936038673 -0.0988792703 0.5839012265 4290811767
-0.2945353389 -0.0985421538 0.5857536793 4291273864
-0.2954668105 -0.0982009172 0.5876061320 4291734415
-0.2963982522 -0.0978555605 0.5894585252 4291473056
-0.2977741361 -0.0976518393 0.5921947956 4291275677
-0.2987056375 -0.0972972810 0.5940473080 4291541682
-0.3005262315 -0.0972262546 0.5976679921 4293581265
-0.3156420887 -0.1652522534 0.6291190386 4289703342
-0.3148383498 -0.1641342491 0.6275171041 4288648334
-0.3135972619 -0.1627927572 0.6250434518 4287924611
-0.3114815950 -0.1610047072 0.6208266020 4287593582
-0.3076169193 -0.1583258361 0.6131237745 4287725168
-0.3033132255 -0.1554390937 0.6045459509 4288183917
-0.2985702753 -0.1523472816 0.5950925350 4287197022
-0.2955739498 -0.1501638293 0.5891204476 4287785552
-0.2930133939 -0.1482140869 0.5840169191 4287061829
-0.2913263440 -0.1467155814 0.5806543827 4287719246
-0.2900758386 -0.1454434246 0.5781619549 4288114004
-0.2892621458 -0.1443948746 0.5765401125 4287522121
-0.2884478569 -0.1433496177 0.5749171376 4287390535
-0.2880707681 -0.1425242722 0.5741655231 4287784775
-0.2872553468 -0.1414847076 0.5725403428 4287718982
-0.2868773341 -0.1406632364 0.5717868805 4287916361
-0.2860608399 -0.1396293938 0.5701594949 4287521603
-0.2856819034 -0.1388117820 0.5694041848 4287061050
-0.2848643064 -0.1377836615 0.5677745938 4286797878
-0.2849227786 -0.1371809840 0.5678911805 4287258171
-0.2845425904 -0.1363678128 0.5671334267 4287916101
-0.2837235034 -0.1353469491 0.5655007958 4287981379
-0.2842196226 -0.1349542141 0.5664896965 4287389242
-0.2838383019 -0.1341445893 0.5657296777 4286731827
-0.2838953733 -0.1335428506 0.5658434033 4287323964
-0.2839521766 -0.1329407692 0.5659566522 4287390785
-0.2835698128 -0.1321337670 0.5651944876 4287588164
-0.2831870317 -0.1313282847 0.5644315481 4288181078
-0.2832429707 -0.1307269782 0.5645430684 4288246871
-0.2828594446 -0.1299235821 0.5637786984 4286472262
-0.2811576128 -0.1285192519 0.5603866577 4284959023
-0.2820912004 -0.1283213049 0.5622474551 4284434486
-0.2808275223 -0.1271245629 0.5597287416 4283052833
-0.2808817625 -0.1265271157 0.5598368645 4281739291
-0.2804961503 -0.1257322282 0.5590682626 4281739291
-0.2796703875 -0.1247427464 0.5574223995 4282003494
-0.2792838514 -0.1239518672 0.5566520095 4282793010
-0.2788969278 -0.1231625229 0.5558808446 4282793523
-0.2785096169 -0.1223747134 0.5551088452 4282069800
-0.2785619497 -0.1217808276 0.5552131534 4282069287
-0.2786140740 -0.1211866140 0.5553170443 4282529838
-0.2782257199 -0.1204015538 0.5545429587 4282727730
-0.2782772779 -0.1198076159 0.5546457171 4282267179
-0.2783285975 -0.1192133501 0.5547479987 4282069285
-0.2788201571 -0.1188064367 0.5557277799 4282793008
-0.2788710892 -0.1182105690 0.5558292866 4283713335
-0.2789217532 -0.1176143810 0.5559303164 4284437058
-0.2789722085 -0.1170178652 0.5560308695 4285553478
-0.2794632316 -0.1166049466 0.5570095181 4286737752
-0.2795132697 -0.1160068437 0.5571092963 4286736204
-0.2800040543 -0.1155904457 0.5580874085 4285946688
-0.2800537050 -0.1149907634 0.5581864119 4286668352
-0.2805442214 -0.1145708933 0.5591640472 4287326282
-0.2805934548 -0.1139696315 0.5592622161 4288312400
-0.2810837328 -0.1135462970 0.5602393746 4288115021
-0.2811325490 -0.1129434481 0.5603367090 4288045369
-0.2816225886 -0.1125166491 0.5613133907 4288242748
-0.2821124792 -0.1120876446 0.5622898936 4288440127
-0.2821607590 -0.1114819646 0.5623860359 4288637506
-0.2830920517 -0.1112230048 0.5642422438 4288571713
-0.2835816741 -0.1107873842 0.5652181506 4288440127
-0.2840712070 -0.1103495434 0.5661938787 4288571713
-0.2845606506 -0.1099095047 0.5671694279 4288637506
-0.2850500047 -0.1094672605 0.5681447387 4288637251
-0.2850972116 -0.1088540405 0.5682388544 4288308286
-0.2855862677 -0.1084083319 0.5692135692 4288835143
-0.2860752046 -0.1079604179 0.5701881647 4289098315
-0.2865640521 -0.1075102985 0.5711624622 4289822038
-0.2870528102 -0.1070579737 0.5721365809 4290151003
-0.2875414193 -0.1066034362 0.5731105208 4290414175
-0.2875874937 -0.1059836522 0.5732023120 4290677347
-0.2880758345 -0.1055256650 0.5741756558 4290612321
-0.2881214619 -0.1049043313 0.5742666125 4290743907
-0.2886094749 -0.1044428870 0.5752393007 4290744937
-0.2886546850 -0.1038200110 0.5753293633 4291073902
-0.2886996269 -0.1031968370 0.5754189491 4291074161
-0.2891871631 -0.1027306989 0.5763906837 4291008368
-0.2896745801 -0.1022623554 0.5773621798 4291073904
-0.2906048596 -0.1019472256 0.5792163610 4291008111
-0.2910920978 -0.1014735252 0.5801874995 4290875755
-0.2911360860 -0.1008441299 0.5802751184 4290941548
-0.2916229963 -0.1003669798 0.5812456608 4290810993
-0.2925530374 -0.1000392064 0.5830993652 4291074165
-0.2930397689 -0.0995566994 0.5840694904 4290747005
-0.2939697504 -0.0992216542 0.5859230757 4291010177
-0.2948997319 -0.0988824815 0.5877766609 4290879880
-0.2958297133 -0.0985391885 0.5896302462 4291603603
-0.2967596948 -0.0981917754 0.5914837718 4291343013
-0.2981332839 -0.0979860500 0.5942215919 4291211427
-0.2995069921 -0.0977742746 0.5969595909 4292200642
-0.3138380647 -0.1639757603 0.6269111633 4288714129
-0.3125991225 -0.1626346558 0.6244363785 4287990406
-0.3109233081 -0.1610727012 0.6210888028 4288777602
-0.3083741367 -0.1590676904 0.6159966588 4287724914
-0.3045147657 -0.1564010829 0.6082873344 4287394401
-0.2997807264 -0.1533042938 0.5988307595 4287854952
-0.2967902124 -0.1511162668 0.5928570032 4287720530
-0.2937981188 -0.1489407271 0.5868801475 4287062600
-0.2916777730 -0.1472184658 0.5826446414 4286931014
-0.2904297411 -0.1459439546 0.5801516175 4287786323
-0.2896177471 -0.1448931396 0.5785296559 4288510046
-0.2888051569 -0.1438456178 0.5769064426 4288312667
-0.2879919708 -0.1428014040 0.5752819777 4288114771
-0.2871781588 -0.1417605132 0.5736563802 4288312150
-0.2863637805 -0.1407229304 0.5720295906 4288246355
-0.2855487764 -0.1396886855 0.5704016089 4288114769
-0.2851705551 -0.1388707459 0.5696460605 4287916877
-0.2852294147 -0.1382663548 0.5697636604 4287653705
-0.2848504782 -0.1374504417 0.5690066814 4287587910
-0.2844711244 -0.1366360337 0.5682488680 4287653703
-0.2836536169 -0.1356138140 0.5666158795 4287653703
-0.2837111652 -0.1350116581 0.5667307973 4287587910
-0.2833305597 -0.1342017055 0.5659705997 4286929980
-0.2833875716 -0.1335997432 0.5660844445 4286864187
-0.2834443450 -0.1329974234 0.5661978126 4287062079
-0.2835008800 -0.1323947459 0.5663107634 4287456837
-0.2831189036 -0.1315879971 0.5655477643 4287852367
-0.2827365398 -0.1307827681 0.5647839308 4288247125
-0.2823537588 -0.1299790442 0.5640193224 4286735434
-0.2819705606 -0.1291768253 0.5632538795 4284498472
-0.2811483741 -0.1281761676 0.5616114736 4282724383
-0.2807642817 -0.1273779273 0.5608442426 4282592797
-0.2803798020 -0.1265812069 0.5600762367 4282200357
-0.2799949050 -0.1257860065 0.5593073964 4282529322
-0.2796096206 -0.1249923408 0.5585377216 4282530096
-0.2792239189 -0.1242002025 0.5577672720 4282661682
-0.2788378000 -0.1234096065 0.5569959879 4282924596
-0.2784512937 -0.1226205379 0.5562239289 4282858803
-0.2785036862 -0.1220254824 0.5563285947 4282594862
-0.2781164646 -0.1212385669 0.5555550456 4283252792
-0.2781682909 -0.1206437796 0.5556585789 4283714113
-0.2782198787 -0.1200486645 0.5557616353 4283516734
-0.2782712281 -0.1194532141 0.5558642149 4282990389
-0.2783223391 -0.1188574433 0.5559663177 4283187768
-0.2788130045 -0.1184481680 0.5569464564 4284305472
-0.2788637280 -0.1178507954 0.5570477843 4284173886
-0.2789142132 -0.1172530949 0.5571486354 4284501560
-0.2789644599 -0.1166550741 0.5572490096 4286541143
-0.2794545591 -0.1162397861 0.5582279563 4286867790
-0.2795043886 -0.1156401783 0.5583275557 4285946688
-0.2799942493 -0.1152214184 0.5593060255 4287128644
-0.2800436914 -0.1146202236 0.5594047904 4287457609
-0.2805332839 -0.1141979918 0.5603827834 4288310604
-0.2805823088 -0.1135952175 0.5604807734 4288573776
-0.2810716629 -0.1131695062 0.5614582896 4287913783
-0.2815609276 -0.1127415970 0.5624355674 4289098057
-0.2816093862 -0.1121359840 0.5625323653 4289295693
-0.2825391591 -0.1118791401 0.5643896461 4289032521
-0.2830281258 -0.1114445999 0.5653663874 4288769349
-0.2835170031 -0.1110078543 0.5663429499 4288703556
-0.2840057909 -0.1105688959 0.5673193336 4288966729
-0.2844944596 -0.1101277322 0.5682955384 4288703557
-0.2849830389 -0.1096843556 0.5692714453 4288637764
-0.2854714990 -0.1092387736 0.5702472329 4288506178
-0.2859598696 -0.1087909862 0.5712227821 4288637764
-0.2864481509 -0.1083409861 0.5721980929 4288703557
-0.2864948511 -0.1077228040 0.5722914338 4289098315
-0.2869828343 -0.1072693393 0.5732662082 4289493073
-0.2874706984 -0.1068136767 0.5742407441 4290018906
-0.2879584432 -0.1063558012 0.5752150416 4290742629
-0.2880043685 -0.1057335511 0.5753067732 4290875495
-0.2884918153 -0.1052722186 0.5762805343 4291007081
-0.2885372937 -0.1046484262 0.5763713717 4291008111
-0.2890244424 -0.1041836366 0.5773444772 4291205490
-0.2890694737 -0.1035583019 0.5774344206 4290942836
-0.2895563245 -0.1030900627 0.5784069300 4290745457
-0.2900430560 -0.1026196182 0.5793792009 4290745200
-0.2909718752 -0.1023024395 0.5812345147 4290679407
-0.2914583981 -0.1018266305 0.5822064281 4290745200
-0.2915024757 -0.1011950597 0.5822944641 4291008372
-0.2919887006 -0.1007158011 0.5832657218 4290943866
-0.2924748063 -0.1002343446 0.5842367411 4291404417
-0.2934032977 -0.0999013558 0.5860914588 4291077259
-0.2943317890 -0.0995642543 0.5879462361 4290748294
-0.2952602804 -0.0992230251 0.5898009539 4290749583
-0.2961887717 -0.0988776758 0.5916556716 4291407513
-0.2971172631 -0.0985281989 0.5935103297 4291014568
-0.2984885871 -0.0983204767 0.5962496400 4291540912
-0.2998600304 -0.0981066972 0.5989891887 4293056980
-0.3128385842 -0.1638170034 0.6263042688 4289898405
-0.3116018474 -0.1624762863 0.6238282919 4288056201
-0.3107995987 -0.1613666266 0.6222221851 4289041287
-0.3086905479 -0.1595849693 0.6179998517 4288383357
-0.3052738607 -0.1571395844 0.6111595631 4287526757
-0.3014198244 -0.1544852555 0.6034438014 4287197792
-0.2979995012 -0.1520694047 0.5965963602 4287654994
-0.2950132489 -0.1498892903 0.5906177759 4287062857
-0.2924612761 -0.1479421556 0.5855087638 4286602821
-0.2907798588 -0.1464448124 0.5821425915 4287194958
-0.2899695635 -0.1453917176 0.5805203915 4288313185
-0.2891586721 -0.1443419307 0.5788969398 4288905322
-0.2879109383 -0.1430786699 0.5763989687 4288707682
-0.2870987654 -0.1420364380 0.5747729540 4288049752
-0.2867223620 -0.1412124485 0.5740194321 4288378457
-0.2863455713 -0.1403899342 0.5732650757 4288312664
-0.2855317891 -0.1393558234 0.5716358423 4288246871
-0.2851540744 -0.1385371834 0.5708796978 4288049492
-0.2843391597 -0.1375088096 0.5692482591 4287720527
-0.2839605212 -0.1366940588 0.5684902072 4287259976
-0.2835814953 -0.1358808130 0.5677313805 4287259976
-0.2832020521 -0.1350690424 0.5669717193 4287523148
-0.2832593024 -0.1344662905 0.5670863986 4287457609
-0.2828791440 -0.1336565912 0.5663252473 4286339128
-0.2829358578 -0.1330540329 0.5664387941 4286535735
-0.2829923332 -0.1324511021 0.5665518641 4287193665
-0.2826111019 -0.1316440403 0.5657886863 4287457609
-0.2826670408 -0.1310413480 0.5659006238 4288115539
-0.2822850645 -0.1302363575 0.5651359558 4287195985
-0.2814649642 -0.1292319149 0.5634940863 4285156402
-0.2810820937 -0.1284309030 0.5627276301 4282856998
-0.2806988358 -0.1276313961 0.5619602799 4283120170
-0.2803151608 -0.1268334240 0.5611922145 4282727475
-0.2799310982 -0.1260369718 0.5604233146 4283056440
-0.2795466185 -0.1252420545 0.5596535802 4283122235
-0.2791617513 -0.1244486570 0.5588830113 4282859063
-0.2787764668 -0.1236568019 0.5581117272 4282923826
-0.2783907950 -0.1228664815 0.5573395491 4282858033
-0.2784431875 -0.1222702563 0.5574445128 4283120179
-0.2784953713 -0.1216736883 0.5575489402 4283185972
-0.2785473168 -0.1210767850 0.5576529503 4283186486
-0.2781602740 -0.1202898249 0.5568780899 4283120693
-0.2782116532 -0.1196931973 0.5569809675 4282923826
-0.2782628238 -0.1190962493 0.5570833683 4282331689
-0.2787527144 -0.1186858714 0.5580641627 4283580979
-0.2788034678 -0.1180873215 0.5581657290 4284896839
-0.2788539827 -0.1174884439 0.5582668781 4284962111
-0.2789042592 -0.1168892384 0.5583675504 4286277971
-0.2793935835 -0.1164728478 0.5593472123 4286604618
-0.2794434726 -0.1158720553 0.5594470501 4285880895
-0.2794931233 -0.1152709350 0.5595464110 4287587912
-0.2799820304 -0.1148498058 0.5605252981 4288180049
-0.2800312638 -0.1142471060 0.5606238246 4288835663
-0.2805199623 -0.1138224974 0.5616021752 4288506698
-0.2810085416 -0.1133956760 0.5625803471 4289031751
-0.2814970315 -0.1129666492 0.5635582805 4289952853
-0.2819854319 -0.1125354096 0.5645360947 4289558608
-0.2824737430 -0.1121019572 0.5655136704 4289492815
-0.2829619646 -0.1116662994 0.5664911270 4289558353
-0.2834500968 -0.1112284288 0.5674682856 4289295181
-0.2839381099 -0.1107883453 0.5684453249 4289492560
-0.2844260335 -0.1103460565 0.5694221258 4289360974
-0.2844734788 -0.1097316965 0.5695171356 4289229388
-0.2849611342 -0.1092859358 0.5704934001 4289163595
-0.2858891785 -0.1090059280 0.5723513961 4289360974
-0.2863766849 -0.1085548028 0.5733273625 4289295181
-0.2864234149 -0.1079354063 0.5734209418 4288966218
-0.2869106233 -0.1074808165 0.5743963718 4289360976
-0.2869569361 -0.1068598628 0.5744890571 4290018393
-0.2874438763 -0.1064018086 0.5754638910 4290347358
-0.2879306674 -0.1059415415 0.5764384866 4290480995
-0.2884173691 -0.1054790691 0.5774128437 4290875753
-0.2884628773 -0.1048540622 0.5775039196 4291205751
-0.2889492512 -0.1043881327 0.5784776807 4291534716
-0.2889943123 -0.1037615836 0.5785679221 4291272572
-0.2894804180 -0.1032921970 0.5795410275 4291075193
-0.2904077172 -0.1029771045 0.5813975334 4291206009
-0.2908936143 -0.1025023460 0.5823702812 4291074423
-0.2913793921 -0.1020253822 0.5833428502 4291009400
-0.2918650508 -0.1015462205 0.5843151212 4291140986
-0.2923505902 -0.1010648459 0.5852871537 4290944897
-0.2928359807 -0.1005812734 0.5862588882 4291273862
-0.2937629819 -0.1002462357 0.5881147981 4290749323
-0.2946899831 -0.0999070778 0.5899706483 4290486151
-0.2956170142 -0.0995637923 0.5918265581 4290948247
-0.2965439856 -0.0992163867 0.5936824083 4291343005
-0.2974709868 -0.0988648459 0.5955381989 4291146412
-0.2988400161 -0.0986551195 0.5982790589 4292264893
-0.3106054664 -0.1623176485 0.6232192516 4288583316
-0.3098045886 -0.1612084806 0.6216123700 4288120961
-0.3085685074 -0.1598773897 0.6191322207 4288186754
-0.3064622283 -0.1581028551 0.6149060130 4287396462
-0.3026155829 -0.1554437429 0.6071878076 4286870118
-0.2992018759 -0.1530232280 0.6003383398 4287262043
-0.2957864404 -0.1506170332 0.5934853554 4286735699
-0.2932394147 -0.1486663371 0.5883748531 4286603339
-0.2911261916 -0.1469459683 0.5841347575 4286537546
-0.2898823321 -0.1456718892 0.5816389918 4287325771
-0.2890730500 -0.1446207613 0.5800151825 4287852115
-0.2878277004 -0.1433560699 0.5775164366 4288048715
-0.2870171070 -0.1423124820 0.5758900642 4288048715
-0.2866415381 -0.1414872557 0.5751364827 4288247123
-0.2862655818 -0.1406634897 0.5743821263 4288312916
-0.2854533792 -0.1396280229 0.5727524757 4288182102
-0.2846405804 -0.1385958940 0.5711216331 4288116309
-0.2842631936 -0.1377784312 0.5703644156 4287918671
-0.2838853896 -0.1369624287 0.5696063638 4287326534
-0.2830710113 -0.1359384656 0.5679723024 4287063100
-0.2831285298 -0.1353349090 0.5680877566 4287194686
-0.2827495039 -0.1345233917 0.5673272014 4287654986
-0.2828064859 -0.1339200288 0.5674415827 4287128642
-0.2824267149 -0.1331105828 0.5666795373 4286272563
-0.2824831307 -0.1325074285 0.5667927861 4286996286
-0.2825393379 -0.1319039166 0.5669055581 4287786572
-0.2821585238 -0.1310971081 0.5661414266 4288115537
-0.2817772925 -0.1302918047 0.5653765202 4287589713
-0.2813956439 -0.1294880211 0.5646107793 4286471232
-0.2810136080 -0.1286857426 0.5638442636 4282525971
-0.2806311846 -0.1278849989 0.5630768538 4283381280
-0.2802483141 -0.1270857602 0.5623087287 4282397221
-0.2794277966 -0.1260907352 0.5606623292 4281673498
-0.2790440619 -0.1252954900 0.5598923564 4282069545
-0.2790973783 -0.1246972308 0.5599993467 4282332717
-0.2787128985 -0.1239041165 0.5592279434 4282135338
-0.2783280313 -0.1231125370 0.5584557056 4282201131
-0.2783804834 -0.1225151345 0.5585609674 4283253045
-0.2784326971 -0.1219173968 0.5586656928 4282331943
-0.2780468166 -0.1211285666 0.5578914285 4282397482
-0.2785364091 -0.1207209080 0.5588738322 4282858033
-0.2785879076 -0.1201221645 0.5589771271 4282857776
-0.2786391675 -0.1195230931 0.5590800047 4282791983
-0.2786901891 -0.1189236864 0.5591824055 4282791465
-0.2787409723 -0.1183239594 0.5592842698 4284304704
-0.2787915468 -0.1177238971 0.5593857169 4285487687
-0.2788418531 -0.1171235144 0.5594866276 4286671961
-0.2793304324 -0.1167060137 0.5604669452 4286867020
-0.2793803215 -0.1161040366 0.5605670810 4285880125
-0.2794300020 -0.1155017391 0.5606667399 4286668093
-0.2794794440 -0.1148991138 0.5607659221 4287852367
-0.2799674273 -0.1144756079 0.5617451072 4288377680
-0.2804553509 -0.1140498817 0.5627241135 4288048715
-0.2805042267 -0.1134444177 0.5628221035 4289098835
-0.2814309299 -0.1131918058 0.5646815300 4289888351
-0.2819185555 -0.1127594486 0.5656599998 4289953372
-0.2824061215 -0.1123248786 0.5666382313 4290019165
-0.2828935683 -0.1118880957 0.5676162839 4290215770
-0.2833809257 -0.1114491075 0.5685941577 4289886805
-0.2838681936 -0.1110078990 0.5695718527 4289689426
-0.2843553424 -0.1105644852 0.5705493093 4289360461
-0.2844028473 -0.1099489257 0.5706446171 4289426254
-0.2848897278 -0.1095020398 0.5716215372 4289360461
-0.2853764892 -0.1090529412 0.5725982189 4289492047
-0.2863029540 -0.1087687090 0.5744571090 4289952598
-0.2863497436 -0.1081481129 0.5745509863 4289821527
-0.2868361771 -0.1076923832 0.5755270123 4289755734
-0.2868825197 -0.1070702299 0.5756199956 4289756765
-0.2873686850 -0.1066110358 0.5765954852 4289559386
-0.2878547311 -0.1061496288 0.5775706768 4289690194
-0.2883406579 -0.1056860164 0.5785456896 4290150745
-0.2883861959 -0.1050597951 0.5786370635 4290678378
-0.2888718247 -0.1045927256 0.5796114802 4291402101
-0.2897977531 -0.1042819247 0.5814692974 4291600258
-0.2902832031 -0.1038094759 0.5824433565 4291666051
-0.2907685339 -0.1033348218 0.5834171772 4291403908
-0.2912537456 -0.1028579548 0.5843906999 4291338115
-0.2917388380 -0.1023788825 0.5853639841 4291009150
-0.2922237813 -0.1018976048 0.5863370299 4290745978
-0.2927086055 -0.1014141217 0.5873098373 4290418040
-0.2931933105 -0.1009284258 0.5882823467 4291010177
-0.2941188216 -0.1005913392 0.5901393890 4290420358
-0.2950443327 -0.1002501249 0.5919964314 4290617737
-0.2959698439 -0.0999047831 0.5938534141 4291475620
-0.2968953550 -0.0995553061 0.5957103968 4291738792
-0.2982620597 -0.0993486717 0.5984526277 4290821307
-0.2996288836 -0.0991359800 0.6011951566 4292992476
-0.3096099198 -0.1621587723 0.6226091981 4289768360
-0.3092441857 -0.1612762809 0.6218737960 4287594617
-0.3080103993 -0.1599446386 0.6193926930 4288120961
-0.3063418865 -0.1583937556 0.6160373688 4287659634
-0.3033703566 -0.1561795026 0.6100618243 4287725427
-0.2999631464 -0.1537552178 0.6032100916 4287919973
-0.2969884276 -0.1515668631 0.5972280502 4286998871
-0.2940121293 -0.1493910104 0.5912429094 4286800718
-0.2919030786 -0.1476671696 0.5870016813 4286537546
-0.2902273238 -0.1461709887 0.5836318731 4286602048
-0.2894197404 -0.1451175958 0.5820078254 4286667841
-0.2881768644 -0.1438505501 0.5795084834 4286930493
-0.2873679698 -0.1428046972 0.5778818727 4287127872
-0.2865585089 -0.1417621821 0.5762540102 4287391814
-0.2857484221 -0.1407229751 0.5746250153 4287589193
-0.2849377394 -0.1396871060 0.5729947686 4287721551
-0.2845615745 -0.1388668865 0.5722383261 4287918930
-0.2837497890 -0.1378367543 0.5706058741 4287852878
-0.2833727300 -0.1370204538 0.5698475838 4287326534
-0.2829952240 -0.1362056285 0.5690885186 4287194686
-0.2826173306 -0.1353922933 0.5683285594 4287326272
-0.2826745808 -0.1347881258 0.5684437156 4288048715
-0.2822959721 -0.1339768469 0.5676823258 4287522371
-0.2823526561 -0.1333729029 0.5677962899 4286338356
-0.2824091017 -0.1327685863 0.5679098368 4286798907
-0.2824653387 -0.1321638972 0.5680229068 4287588425
-0.2820853293 -0.1313558370 0.5672587752 4287983183
-0.2817049325 -0.1305492818 0.5664938092 4287655506
-0.2813241184 -0.1297442466 0.5657280087 4287129162
-0.2809429169 -0.1289407164 0.5649613738 4282854678
-0.2805612981 -0.1281387061 0.5641939640 4284038952
-0.2801792622 -0.1273382157 0.5634257197 4282856998
-0.2797968388 -0.1265392601 0.5626567006 4282133275
-0.2789774239 -0.1255453527 0.5610088706 4282002724
-0.2785941064 -0.1247503832 0.5602380633 4283186998
-0.2786471248 -0.1241515502 0.5603446960 4282595632
-0.2782630920 -0.1233587116 0.5595723987 4281411358
-0.2783155739 -0.1227601394 0.5596779585 4283187252
-0.2783678174 -0.1221612170 0.5597829819 4283121459
-0.2779827416 -0.1213711351 0.5590086579 4282594602
-0.2780344188 -0.1207724884 0.5591125488 4282791981
-0.2785231173 -0.1203624606 0.5600953102 4283712567
-0.2785744071 -0.1197622046 0.5601984859 4284173118
-0.2786254585 -0.1191616207 0.5603011250 4284172858
-0.2786762714 -0.1185607091 0.5604033470 4284172858
-0.2787268758 -0.1179594621 0.5605050325 4285421635
-0.2787772119 -0.1173578948 0.5606063008 4285684807
-0.2792650163 -0.1169392914 0.5615872741 4286735175
-0.2793149650 -0.1163361296 0.5616877079 4287524691
-0.2798025310 -0.1159140393 0.5626681447 4288377939
-0.2798520923 -0.1153092906 0.5627678037 4288246353
-0.2799013853 -0.1147042140 0.5628669262 4288376909
-0.2803885341 -0.1142773777 0.5638465881 4288640081
-0.2813137770 -0.1140259430 0.5657072067 4289164628
-0.2813625932 -0.1134170666 0.5658053160 4289690972
-0.2818494737 -0.1129835919 0.5667844415 4289953626
-0.2823362648 -0.1125479043 0.5677633286 4290216798
-0.2828229368 -0.1121100038 0.5687420368 4290347356
-0.2833095491 -0.1116698906 0.5697205663 4290149977
-0.2837960422 -0.1112275571 0.5706989169 4289360716
-0.2842824459 -0.1107830182 0.5716770291 4288702786
-0.2843299508 -0.1101662517 0.5717725754 4288636223
-0.2848160863 -0.1097182408 0.5727501512 4288899395
-0.2853021026 -0.1092680097 0.5737274885 4288768579
-0.2857879996 -0.1088155732 0.5747045875 4289031751
-0.2862738073 -0.1083609238 0.5756815076 4289492562
-0.2867594957 -0.1079040542 0.5766582489 4289689941
-0.2868058681 -0.1072806939 0.5767514706 4289624407
-0.2872912586 -0.1068203598 0.5777275562 4289755993
-0.2873371840 -0.1061954349 0.5778199434 4289756245
-0.2878222764 -0.1057316363 0.5787954330 4290151003
-0.2883072495 -0.1052656323 0.5797706842 4290217827
-0.2892316878 -0.1049569175 0.5816296935 4290546792
-0.2897164822 -0.1044855341 0.5826045871 4290876535
-0.2902011871 -0.1040119380 0.5835793018 4291205500
-0.2906857431 -0.1035361290 0.5845537186 4291074689
-0.2911701798 -0.1030581146 0.5855278969 4291206275
-0.2916544974 -0.1025778875 0.5865018368 4290614652
-0.2921386957 -0.1020954549 0.5874755383 4290877824
-0.2930627763 -0.1017636135 0.5893338323 4290616194
-0.2935467958 -0.1012758017 0.5903071165 4290945159
-0.2944708169 -0.1009366587 0.5921652913 4290552717
-0.2953948379 -0.1005933881 0.5940234661 4291605405
-0.2963188589 -0.1002459824 0.5958815813 4292726205
-0.2976832092 -0.1000424400 0.5986252427 4292528826
-0.2990477085 -0.0998328403 0.6013691425 4291743179
-0.3078171909 -0.1608914286 0.6203898191 4288516750
-0.3074515760 -0.1600118428 0.6196529269 4287135097
-0.3057861328 -0.1584603339 0.6162963510 4288120444
-0.3036864996 -0.1566922218 0.6120646000 4288646788
-0.3007190526 -0.1544877142 0.6060838103 4289104760
-0.2977500260 -0.1522956938 0.6000999212 4287986279
-0.2947794795 -0.1501161903 0.5941129327 4287853406
-0.2926745713 -0.1483888775 0.5898706317 4287524441
-0.2910021842 -0.1468893290 0.5864999890 4287062599
-0.2897626162 -0.1456147581 0.5840017200 4286865220
-0.2885222435 -0.1443453431 0.5815017819 4287325251
-0.2872810960 -0.1430810988 0.5790003538 4287720009
-0.2864732146 -0.1420372277 0.5773720741 4287523402
-0.2856647372 -0.1409966797 0.5757426620 4287654988
-0.2848556638 -0.1399594694 0.5741119981 4287787346
-0.2840459943 -0.1389255822 0.5724802017 4287918932
-0.2836701572 -0.1381065398 0.5717226863 4287852624
-0.2832939029 -0.1372889727 0.5709643364 4287392073
-0.2829172313 -0.1364728957 0.5702052116 4287260481
-0.2825401723 -0.1356583089 0.5694452524 4287392067
-0.2825974524 -0.1350529939 0.5695607066 4288047944
-0.2822196484 -0.1342404634 0.5687992573 4287587393
-0.2822763622 -0.1336353421 0.5689135790 4286469429
-0.2823328674 -0.1330298483 0.5690274239 4286864187
-0.2819539905 -0.1322199553 0.5682638884 4287720011
-0.2820099294 -0.1316146851 0.5683766007 4288443734
-0.2816303670 -0.1308068782 0.5676115751 4288313179
-0.2812503576 -0.1300005764 0.5668457150 4287852628
-0.2808699906 -0.1291957945 0.5660790801 4286800714
-0.2804891765 -0.1283925325 0.5653115511 4286142784
-0.2801079750 -0.1275907904 0.5645433068 4283973935
-0.2797263563 -0.1267905682 0.5637741685 4283118626
-0.2793443501 -0.1259918809 0.5630042553 4283252016
-0.2789619267 -0.1251947284 0.5622335076 4283580981
-0.2785791159 -0.1243990958 0.5614619851 4282792240
-0.2781959176 -0.1236050054 0.5606896281 4281607966
-0.2782484293 -0.1230052486 0.5607954264 4283186739
-0.2783007026 -0.1224051565 0.5609008074 4284107841
-0.2779164314 -0.1216138080 0.5601263642 4282396707
-0.2779681683 -0.1210139841 0.5602306128 4281738777
-0.2784560919 -0.1206028610 0.5612140298 4283909431
-0.2785074115 -0.1200014278 0.5613174438 4285225291
-0.2785584927 -0.1193996593 0.5614204407 4286474582
-0.2786093652 -0.1187975630 0.5615229011 4286869340
-0.2786599696 -0.1181951389 0.5616248846 4287920739
-0.2791471779 -0.1177766994 0.5626068711 4287197016
-0.2791973948 -0.1171726808 0.5627080798 4287786835
-0.2796843648 -0.1167507544 0.5636895299 4287984214
-0.2797341943 -0.1161451340 0.5637899637 4287785289
-0.2797837555 -0.1155391932 0.5638898611 4287324738
-0.2798330784 -0.1149329245 0.5639892220 4287521341
-0.2807568014 -0.1146836132 0.5658509731 4287784513
-0.2812431753 -0.1142525002 0.5668312311 4288112451
-0.2817294598 -0.1138191745 0.5678113103 4288704588
-0.2817781270 -0.1132078469 0.5679093599 4289822040
-0.2822641432 -0.1127710342 0.5688889623 4290677349
-0.2827500999 -0.1123320162 0.5698683262 4290676834
-0.2832359076 -0.1118907779 0.5708475113 4290084697
-0.2837216556 -0.1114473194 0.5718264580 4288308028
-0.2842072845 -0.1110016555 0.5728052258 4287057961
-0.2842548192 -0.1103836894 0.5729010701 4286333468
-0.2847401798 -0.1099345461 0.5738793015 4286399261
-0.2852254510 -0.1094831824 0.5748572946 4286663203
-0.2857105732 -0.1090296134 0.5758350492 4286926375
-0.2861956060 -0.1085738242 0.5768126249 4287124012
-0.2866805494 -0.1081158221 0.5777899623 4287847735
-0.2867269218 -0.1074912548 0.5778834820 4288374340
-0.2867730856 -0.1068663746 0.5779764652 4288703305
-0.2872575223 -0.1064036489 0.5789528489 4288900936
-0.2877418399 -0.1059387103 0.5799289942 4289427280
-0.2882260680 -0.1054715514 0.5809049010 4289428057
-0.2887101769 -0.1050021872 0.5818805695 4289559643
-0.2896329761 -0.1046892330 0.5837404132 4289758311
-0.2901169062 -0.1042144895 0.5847157836 4289955690
-0.2910396755 -0.1038942412 0.5865755677 4289890929
-0.2915234268 -0.1034141108 0.5875505209 4290351480
-0.2920070291 -0.1029317752 0.5885252357 4290220925
-0.2924905121 -0.1024472266 0.5894996524 4290878855
-0.2934131324 -0.1021133289 0.5913591385 4290749326
-0.2943357229 -0.1017753035 0.5932185650 4290880912
-0.2948189378 -0.1012822017 0.5941925049 4290949024
-0.2957414687 -0.1009368747 0.5960518122 4292593849
-0.2971034944 -0.1007364243 0.5987968445 4293648339
-0.2984656394 -0.1005299166 0.6015421748 4292924616
-0.3072569370 -0.1609589010 0.6206499934 4290293933
-0.3064598143 -0.1598535180 0.6190397739 4287399041
-0.3052296937 -0.1585268378 0.6165549755 4287397493
-0.3014042079 -0.1558635384 0.6088275909 4288318595
-0.3040646613 -0.1565569043 0.6142016053 4289236605
-0.2985062301 -0.1530250311 0.6029737592 4288578675
-0.2959741056 -0.1510627121 0.5978589654 4288577386
-0.2934406698 -0.1491110772 0.5927414894 4287919456
-0.2913387418 -0.1473891437 0.5884956717 4287326284
-0.2901016474 -0.1461122036 0.5859968066 4287194698
-0.2888637781 -0.1448404342 0.5834963322 4287785804
-0.2876251340 -0.1435738355 0.5809942484 4288246355
-0.2868189514 -0.1425276995 0.5793657899 4288181078
-0.2860121727 -0.1414848864 0.5777361393 4288181078
-0.2852047980 -0.1404453963 0.5761052966 4288116311
-0.2843968570 -0.1394092441 0.5744732618 4288247897
-0.2835882902 -0.1383764297 0.5728399754 4288181589
-0.2832128704 -0.1375576109 0.5720816255 4287721038
-0.2828370035 -0.1367402822 0.5713224411 4287457607
-0.2824607491 -0.1359244436 0.5705624223 4287457607
-0.2825180888 -0.1353179663 0.5706781745 4287784773
-0.2821410894 -0.1345041841 0.5699166656 4287587394
-0.2821978629 -0.1338979006 0.5700313449 4286996286
-0.2822543681 -0.1332912445 0.5701454878 4286996286
-0.2818763554 -0.1324800998 0.5693818927 4286865218
-0.2819323242 -0.1318736523 0.5694949627 4287523148
-0.2815535665 -0.1310645938 0.5687298775 4287852628
-0.2816089690 -0.1304583549 0.5688418150 4287523663
-0.2807947993 -0.1294510067 0.5671972632 4287194956
-0.2804148495 -0.1286464781 0.5664296746 4286273854
-0.2804692984 -0.1280419976 0.5665397048 4285091127
-0.2800885737 -0.1272395849 0.5657706857 4283775267
-0.2797074914 -0.1264386922 0.5650008917 4284566587
-0.2788908780 -0.1254436374 0.5633513927 4283513899
-0.2785089016 -0.1246467531 0.5625797510 4282857004
-0.2785617411 -0.1240452304 0.5626865029 4283054383
-0.2786143720 -0.1234433576 0.5627928376 4282528809
-0.2786667645 -0.1228411496 0.5628986359 4283910462
-0.2782834172 -0.1220476031 0.5621243119 4283120428
-0.2783352435 -0.1214456558 0.5622289777 4282396705
-0.2783868313 -0.1208433732 0.5623332262 4284435515
-0.2788739502 -0.1204289347 0.5633171201 4285619789
-0.2789251506 -0.1198250428 0.5634205341 4287460446
-0.2789761126 -0.1192208156 0.5635234714 4288710513
-0.2790268362 -0.1186162680 0.5636259317 4289367156
-0.2790772915 -0.1180113852 0.5637279153 4288906605
-0.2795636952 -0.1175896227 0.5647103786 4289628526
-0.2796137631 -0.1169831380 0.5648115277 4289694319
-0.2800998986 -0.1165578887 0.5657935143 4289430114
-0.2801495790 -0.1159498096 0.5658938885 4289627493
-0.2806354463 -0.1155210659 0.5668753386 4289955682
-0.2806847095 -0.1149113998 0.5669748187 4289955682
-0.2811703384 -0.1144791692 0.5679557920 4289757792
-0.2816558480 -0.1140447259 0.5689365268 4289955171
-0.2821412981 -0.1136080623 0.5699170828 4290480999
-0.2821898162 -0.1129942685 0.5700150728 4290875757
-0.2826749682 -0.1125541255 0.5709950924 4290874726
-0.2831600606 -0.1121117622 0.5719749331 4290282589
-0.2836450338 -0.1116671860 0.5729545951 4288637506
-0.2841298878 -0.1112203896 0.5739340186 4288111162
-0.2846146524 -0.1107713804 0.5749132037 4288571200
-0.2846620381 -0.1101509482 0.5750089288 4288702786
-0.2851465344 -0.1096984595 0.5759875774 4289360974
-0.2856309116 -0.1092437506 0.5769659877 4289229388
-0.2856777012 -0.1086204872 0.5770605206 4288045629
-0.2861617804 -0.1081623062 0.5780383348 4287190320
-0.2862081230 -0.1075374782 0.5781319737 4286532906
-0.2862542272 -0.1069123521 0.5782250762 4286203941
-0.2867378294 -0.1064494401 0.5792019963 4286401318
-0.2872213423 -0.1059843078 0.5801786184 4286993455
-0.2877047062 -0.1055169702 0.5811550021 4287126072
-0.2886259556 -0.1052070633 0.5830159187 4287323451
-0.2895472050 -0.1048930362 0.5848767757 4287521351
-0.2900303602 -0.1044171378 0.5858527422 4287916109
-0.2909515500 -0.1040958017 0.5877135992 4288509794
-0.2914345264 -0.1036145240 0.5886891484 4289694068
-0.2923556864 -0.1032858863 0.5905498862 4290813838
-0.2932768762 -0.1029531136 0.5924106240 4291471768
-0.2937595844 -0.1024632752 0.5933856964 4291342755
-0.3054689169 -0.1596949250 0.6184256673 4289307555
-0.3046725690 -0.1585932821 0.6168134212 4286542444
-0.3017174006 -0.1563763320 0.6108306050 4286542444
-0.3035097420 -0.1566225737 0.6144592762 4288053103
-0.2992570102 -0.1537548602 0.6058495641 4288382068
-0.2967298627 -0.1517889798 0.6007332802 4288643949
-0.2942013443 -0.1498337835 0.5956143141 4287591261
-0.2921035886 -0.1481083632 0.5913674235 4286931526
-0.2904368937 -0.1466099769 0.5879931450 4286799940
-0.2892014980 -0.1453358382 0.5854920745 4287062597
-0.2879653573 -0.1440668702 0.5829894543 4287391562
-0.2867284119 -0.1428030729 0.5804852247 4287721042
-0.2863557935 -0.1419733912 0.5797309279 4287523663
-0.2851174772 -0.1407181025 0.5772238970 4287589456
-0.2843111157 -0.1396806091 0.5755914450 4287918421
-0.2835041881 -0.1386464536 0.5739578009 4288181078
-0.2831295729 -0.1378263831 0.5731993914 4287917906
-0.2827545702 -0.1370078027 0.5724401474 4287720009
-0.2823791206 -0.1361907125 0.5716800690 4287456837
-0.2824364603 -0.1355830580 0.5717961788 4287127359
-0.2820603251 -0.1347680241 0.5710346103 4287258945
-0.2821170986 -0.1341605783 0.5711495876 4287785804
-0.2817402184 -0.1333476007 0.5703865886 4287851597
-0.2817964554 -0.1327403486 0.5705004334 4286602046
-0.2818524539 -0.1321327388 0.5706138015 4286865218
-0.2814745009 -0.1313224137 0.5698486567 4287918421
-0.2810961604 -0.1305136085 0.5690827370 4288444765
-0.2811512947 -0.1299067885 0.5691943169 4288773730
-0.2807722390 -0.1291000843 0.5684269071 4287655249
-0.2803927362 -0.1282948852 0.5676586628 4287129679
-0.2800128758 -0.1274912208 0.5668895841 4285419061
-0.2796325982 -0.1266890764 0.5661196709 4285157693
-0.2792519033 -0.1258884519 0.5653489828 4283644454
-0.2788708210 -0.1250893772 0.5645774603 4282593313
-0.2784893215 -0.1242918298 0.5638051629 4283448622
-0.2785419822 -0.1236887798 0.5639117360 4282462500
-0.2785944045 -0.1230853945 0.5640178323 4283120430
-0.2786465883 -0.1224816665 0.5641235113 4284567103
-0.2786985338 -0.1218776032 0.5642286539 4284501310
-0.2787502408 -0.1212731972 0.5643333197 4285158463
-0.2788017094 -0.1206684560 0.5644375682 4286211151
-0.2788529396 -0.1200633869 0.5645412803 4287591259
-0.2789039314 -0.1194579825 0.5646444559 4288446568
-0.2789546847 -0.1188522428 0.5647472143 4288181851
-0.2794404626 -0.1184306443 0.5657306910 4287852886
-0.2794907987 -0.1178233027 0.5658326149 4288839008
-0.2799763381 -0.1173982173 0.5668156147 4289431145
-0.2800262868 -0.1167892739 0.5669167042 4289627493
-0.2805115581 -0.1163606867 0.5678991675 4289890665
-0.2805610895 -0.1157501489 0.5679994226 4290284906
-0.2810461223 -0.1153180748 0.5689814091 4290482285
-0.2815310657 -0.1148837805 0.5699631572 4290679152
-0.2820158899 -0.1144472733 0.5709447265 4290679152
-0.2820646763 -0.1138326004 0.5710434914 4290744687
-0.2825492620 -0.1133925989 0.5720245242 4290810480
-0.2830337286 -0.1129503772 0.5730053186 4290809964
-0.2830819190 -0.1123328581 0.5731028914 4290086241
-0.2835661471 -0.1118871495 0.5740832090 4288966729
-0.2840502262 -0.1114392281 0.5750632882 4289032522
-0.2845342457 -0.1109890863 0.5760431290 4290282589
-0.2845816612 -0.1103674546 0.5761391521 4290085210
-0.2850653827 -0.1099138260 0.5771184564 4290151005
-0.2855489850 -0.1094579920 0.5780975223 4290743142
-0.2855958045 -0.1088335216 0.5781922936 4291598969
-0.2856423557 -0.1082087457 0.5782865286 4291862141
-0.2861254811 -0.1077481657 0.5792646408 4291467640
-0.2861716151 -0.1071218252 0.5793580413 4291665019
-0.2866544425 -0.1066577733 0.5803355575 4291270002
-0.2871371806 -0.1061915010 0.5813128352 4290677865
-0.2880569100 -0.1058836952 0.5831748247 4290021224
-0.2885394692 -0.1054120362 0.5841517448 4290087017
-0.2890219092 -0.1049381644 0.5851284862 4290087795
-0.2899415493 -0.1046198830 0.5869902968 4290285174
-0.2908611894 -0.1042974591 0.5888521075 4290615429
-0.2913433909 -0.1038150266 0.5898283124 4291273359
-0.2927004993 -0.1036402136 0.5925758481 4291275420
-0.2931825817 -0.1031514332 0.5935518146 4291604385
-0.3036839664 -0.1584349275 0.6161975265 4287924615
-0.3028884232 -0.1573370397 0.6145833135 4285227102
-0.3012303710 -0.1557966471 0.6112189889 4286540893
-0.2991402745 -0.1540412605 0.6069780588 4287527788
-0.2974801660 -0.1525157243 0.6036095619 4288446828
-0.2953878343 -0.1507770717 0.5993641019 4287525726
-0.2928630412 -0.1488280743 0.5942410827 4286865991
-0.2907682955 -0.1471080482 0.5899906754 4286668612
-0.2895354033 -0.1458315551 0.5874890685 4286734147
-0.2883017361 -0.1445602179 0.5849858522 4286865733
-0.2870672941 -0.1432940662 0.5824810863 4287523408
-0.2862638235 -0.1422476321 0.5808507800 4287194443
-0.2841641903 -0.1405636668 0.5765904784 4287128905
-0.2855190337 -0.1405901611 0.5793395042 4287326284
-0.2838498950 -0.1391283572 0.5759527087 4287720013
-0.2830440700 -0.1380952746 0.5743176341 4287785806
-0.2826698720 -0.1372754425 0.5735583901 4287785291
-0.2822952569 -0.1364571005 0.5727982521 4287587912
-0.2823526263 -0.1358482838 0.5729146600 4287128390
-0.2819772959 -0.1350319982 0.5721530914 4286931011
-0.2820341289 -0.1344233751 0.5722683668 4287786320
-0.2816580534 -0.1336091459 0.5715053082 4288115285
-0.2817143202 -0.1330007315 0.5716195107 4286931011
-0.2813375294 -0.1321885735 0.5708549619 4286733632
-0.2809603214 -0.1313779354 0.5700895786 4287325769
-0.2810157239 -0.1307702959 0.5702019930 4287852113
-0.2806378007 -0.1299617589 0.5694351196 4288510045
-0.2806926370 -0.1293543428 0.5695464015 4288115287
-0.2803139687 -0.1285478920 0.5687780976 4288510816
-0.2803682685 -0.1279406995 0.5688882470 4287984472
-0.2799888849 -0.1271363646 0.5681184530 4286669389
-0.2796091139 -0.1263335496 0.5673478246 4286406217
-0.2792289257 -0.1255322695 0.5665764213 4284762422
-0.2788483500 -0.1247325242 0.5658041835 4284630836
-0.2789011002 -0.1241273582 0.5659112930 4283645485
-0.2789536417 -0.1235218495 0.5660178661 4283711278
-0.2790059447 -0.1229160056 0.5661239624 4285290049
-0.2790579796 -0.1223098189 0.5662295818 4285487428
-0.2791098058 -0.1217032894 0.5663347244 4286078020
-0.2791613936 -0.1210964248 0.5664393902 4287196501
-0.2792127132 -0.1204892248 0.5665435791 4287984471
-0.2792638242 -0.1198816895 0.5666472316 4288445022
-0.2793146670 -0.1192738190 0.5667504668 4288247125
-0.2793653011 -0.1186656207 0.5668531656 4288049746
-0.2798502147 -0.1182406992 0.5678371191 4288641111
-0.2803350687 -0.1178135499 0.5688208938 4288970076
-0.2808198333 -0.1173841804 0.5698044896 4289167196
-0.2808697224 -0.1167718321 0.5699057579 4289627747
-0.2809193730 -0.1161591485 0.5700064898 4290284907
-0.2809687555 -0.1155461445 0.5701066852 4290679665
-0.2814529240 -0.1151107326 0.5710890889 4290548081
-0.2819370031 -0.1146731079 0.5720713139 4290548081
-0.2824209929 -0.1142332479 0.5730533600 4290679152
-0.2829048634 -0.1137911752 0.5740351677 4290679152
-0.2829533219 -0.1131727695 0.5741335750 4290810478
-0.2834369540 -0.1127272099 0.5751148462 4290086755
-0.2834849954 -0.1121072173 0.5752123594 4289230417
-0.2839683294 -0.1116581634 0.5761930346 4288835659
-0.2844515741 -0.1112068966 0.5771735907 4289954140
-0.2849346995 -0.1107534021 0.5781538486 4290019933
-0.2849819660 -0.1101292968 0.5782498121 4290217827
-0.2854647934 -0.1096723229 0.5792295337 4290546792
-0.2855116427 -0.1090466455 0.5793245435 4290876273
-0.2855582237 -0.1084206626 0.5794190764 4290942066
-0.2856045663 -0.1077943742 0.5795130730 4290876274
-0.2860867381 -0.1073313951 0.5804914832 4291205239
-0.2865688205 -0.1068662032 0.5814696550 4291007089
-0.2866145372 -0.1062370911 0.5815623999 4291072882
-0.2875325978 -0.1059291586 0.5834252238 4291205759
-0.2880143225 -0.1054573208 0.5844026804 4291666310
-0.2889323831 -0.1051420793 0.5862655044 4291141514
-0.2894139290 -0.1046648473 0.5872426033 4290878342
-0.2903319299 -0.1043423042 0.5891053081 4291011217
-0.2912499607 -0.1040156260 0.5909680128 4291669147
-0.2926047146 -0.1038397923 0.5937169194 4291604644
-0.3019021153 -0.1571789235 0.6139656901 4286674805
-0.3011073768 -0.1560847908 0.6123494506 4285751635
-0.2990212739 -0.1543277800 0.6081070900 4286343772
-0.2977946997 -0.1530218422 0.6056126356 4287394653
-0.2961368859 -0.1515008509 0.6022411585 4287131481
-0.2940475643 -0.1497675627 0.5979922414 4286866761
-0.2919570804 -0.1480431259 0.5937409401 4286800968
-0.2902961671 -0.1465449929 0.5903632045 4286997064
-0.2886343002 -0.1450538635 0.5869835019 4287062857
-0.2874023318 -0.1437853575 0.5844781399 4287852373
-0.2861696184 -0.1425220072 0.5819711685 4287589201
-0.2857982516 -0.1416912824 0.5812159181 4287391564
-0.2845641375 -0.1404364705 0.5787062049 4287128392
-0.2837605178 -0.1393986940 0.5770719051 4286996290
-0.2833876312 -0.1385751963 0.5763136148 4287193669
-0.2830143571 -0.1377531886 0.5755544305 4287784521
-0.2826406658 -0.1369326562 0.5747944713 4287981900
-0.2822665572 -0.1361136138 0.5740336776 4287128650
-0.2818920314 -0.1352960765 0.5732720494 4287391822
-0.2819488943 -0.1346862912 0.5733876824 4287983185
-0.2815736532 -0.1338708103 0.5726245642 4287325255
-0.2816299498 -0.1332612187 0.5727390647 4286074673
-0.2812539935 -0.1324478090 0.5719744563 4285745708
-0.2808776200 -0.1316359192 0.5712090135 4285745708
-0.2809330225 -0.1310271025 0.5713217258 4286074673
-0.2805559337 -0.1302172989 0.5705548525 4287062083
-0.2806107998 -0.1296087205 0.5706664324 4287785806
-0.2802329659 -0.1288010031 0.5698980689 4288444252
-0.2802872658 -0.1281926483 0.5700085163 4288115287
-0.2799087167 -0.1273870468 0.5692386627 4286470720
-0.2795297801 -0.1265829802 0.5684679747 4287852373
-0.2791504264 -0.1257804334 0.5676965117 4287194704
-0.2792035341 -0.1251734942 0.5678045154 4286668360
-0.2792564034 -0.1245662123 0.5679120421 4285683777
-0.2793090343 -0.1239585876 0.5680191517 4285749570
-0.2793614566 -0.1233506128 0.5681256652 4285946434
-0.2794136107 -0.1227423027 0.5682317615 4286275399
-0.2794655561 -0.1221336499 0.5683373809 4287194955
-0.2795172334 -0.1215246618 0.5684425235 4287984471
-0.2795686722 -0.1209153309 0.5685471296 4288509012
-0.2796199024 -0.1203056648 0.5686512589 4288772184
-0.2796708643 -0.1196956709 0.5687549114 4288969046
-0.2797215879 -0.1190853342 0.5688580871 4289166425
-0.2797720730 -0.1184746772 0.5689607263 4289363804
-0.2806899846 -0.1182291508 0.5708274841 4289363804
-0.2807401419 -0.1176159307 0.5709294677 4289495390
-0.2812240422 -0.1171832308 0.5719135404 4290021734
-0.2812737823 -0.1165684089 0.5720147491 4290416493
-0.2813232839 -0.1159532592 0.5721154213 4290416493
-0.2818067670 -0.1155157834 0.5730986595 4290942324
-0.2818558514 -0.1148990393 0.5731984973 4290679152
-0.2823390663 -0.1144580692 0.5741811395 4290810738
-0.2828221917 -0.1140148714 0.5751636624 4290679152
-0.2828706801 -0.1133952662 0.5752622485 4290744685
-0.2833535373 -0.1129485741 0.5762442350 4290152548
-0.2838362753 -0.1124996617 0.5772259235 4289559382
-0.2838841677 -0.1118772030 0.5773233771 4288046143
-0.2843666375 -0.1114248037 0.5783045292 4287914557
-0.2848489881 -0.1109701768 0.5792855024 4288835659
-0.2848962843 -0.1103448719 0.5793816447 4289954655
-0.2853783667 -0.1098867580 0.5803620219 4290612585
-0.2854252160 -0.1092598736 0.5804573298 4290415722
-0.2854718268 -0.1086326838 0.5805521011 4290547308
-0.2855181992 -0.1080051810 0.5806463957 4290876274
-0.2859995961 -0.1075410619 0.5816254616 4290810481
-0.2869162858 -0.1072374508 0.5834896564 4290876020
-0.2869620919 -0.1066061705 0.5835828185 4291073399
-0.2878786922 -0.1062962115 0.5854468346 4290943617
