VERSION 0.7
FIELDS x y z rgba
SIZE 4 4 4 4
TYPE F F F U
COUNT 1 1 1 1
WIDTH 920
HEIGHT 1
VIEWPOINT 0.0 0.0 0.0 1.0 0.0 0.0 0.0
POINTS 920
DATA ascii
-0.2800515592 -0.1647133827 0.5606644750 4288977838
-0.2792553306 -0.1636239141 0.5590703487 4285881691
-0.2788908482 -0.1627899855 0.5583406687 4287131758
-0.2793909311 -0.1624604315 0.5593418479 4287788623
-0.2790258229 -0.1616274714 0.5586109161 4287064900
-0.2790929973 -0.1610455662 0.5587453842 4288313940
-0.2791599631 -0.1604632586 0.5588794947 4288050768
-0.2796596289 -0.1601283997 0.5598797798 4287326785
-0.2797262669 -0.1595443487 0.5600132346 4288313680
-0.2797926962 -0.1589598805 0.5601462126 4287853388
-0.2798589170 -0.1583749950 0.5602788329 4287261251
-0.2803582549 -0.1580339521 0.5612784624 4287983953
-0.2804241478 -0.1574473232 0.5614103675 4287852367
-0.2804898322 -0.1568602920 0.5615419149 4287916359
-0.2805553079 -0.1562728435 0.5616729856 4288508496
-0.2810542881 -0.1559256166 0.5626718998 4288839010
-0.2811194360 -0.1553364396 0.5628023148 4287128392
-0.2811843455 -0.1547468603 0.5629323125 4288381049
-0.2812490463 -0.1541568637 0.5630618334 4291933871
-0.2813135386 -0.1535664648 0.5631909370 4290099902
-0.2818120420 -0.1532117277 0.5641888976 4290165695
-0.2818761766 -0.1526196152 0.5643173456 4289770937
-0.2819401026 -0.1520270854 0.5644453168 4290034109
-0.2820038199 -0.1514341533 0.5645728707 4289770939
-0.2820672989 -0.1508408338 0.5647000074 4289902525
-0.2821305692 -0.1502470970 0.5648266673 4290165186
-0.2821936309 -0.1496529728 0.5649528503 4290099393
-0.2822564542 -0.1490584463 0.5650786757 4290033598
-0.2823190391 -0.1484635174 0.5652039647 4286809741
-0.2823814452 -0.1478682011 0.5653288364 4287467924
-0.2824435830 -0.1472724974 0.5654532909 4284967790
-0.2825055122 -0.1466763914 0.5655772686 4284507235
-0.2825672328 -0.1460798979 0.5657008290 4285099372
-0.2821932137 -0.1452588439 0.5649520755 4285823095
-0.2822543979 -0.1446624845 0.5650745034 4286086267
-0.2827509940 -0.1442880780 0.5660687685 4285756534
-0.2832475603 -0.1439114213 0.5670628548 4287335566
-0.2833082378 -0.1433120668 0.5671843290 4289309356
-0.2833687067 -0.1427123249 0.5673053861 4289177770
-0.2834289074 -0.1421122104 0.5674259067 4290296251
-0.2834888995 -0.1415116936 0.5675460100 4290625216
-0.2835486531 -0.1409108192 0.5676656365 4290691263
-0.2836081982 -0.1403095424 0.5677848458 4290164919
-0.2836675048 -0.1397079080 0.5679035783 4285230190
-0.2837265730 -0.1391058862 0.5680218339 4282861642
-0.2837854028 -0.1385034919 0.5681396127 4283124563
-0.2842806876 -0.1381128728 0.5691311955 4283650907
-0.2843391597 -0.1375088096 0.5692482591 4287401110
-0.2843973935 -0.1369043589 0.5693648458 4290493381
-0.2844553888 -0.1362995505 0.5694809556 4290690762
-0.2845131755 -0.1356943697 0.5695965886 4290559176
-0.2845706940 -0.1350888163 0.5697118044 4289638588
-0.2846280038 -0.1344829053 0.5698264837 4285098871
-0.2846850753 -0.1338766217 0.5699407458 4283256668
-0.2847419083 -0.1332699656 0.5700545311 4283980391
-0.2847985029 -0.1326629668 0.5701678395 4286875536
-0.2848548591 -0.1320555955 0.5702806711 4289573049
-0.2849109769 -0.1314478666 0.5703930259 4289769910
-0.2849668562 -0.1308397800 0.5705049038 4288848808
-0.2850224972 -0.1302313358 0.5706163049 4288190875
-0.2850779295 -0.1296225339 0.5707272291 4288717219
-0.2851330936 -0.1290133744 0.5708376765 4289243565
-0.2851880193 -0.1284038723 0.5709476471 4290098874
-0.2852427065 -0.1277940124 0.5710571408 4290427840
-0.2852971554 -0.1271837950 0.5711661577 4290756805
-0.2853513956 -0.1265732348 0.5712746978 4290690501
-0.2854053676 -0.1259623319 0.5713827610 4290624708
-0.2854591012 -0.1253510714 0.5714903474 4290690762
-0.2855125666 -0.1247394830 0.5715974569 4290493383
-0.2855658233 -0.1241275445 0.5717040300 4290362563
-0.2856188416 -0.1235152632 0.5718101859 4289375668
-0.2856715918 -0.1229026392 0.5719158053 4287467924
-0.2857241333 -0.1222896799 0.5720209479 4287533717
-0.2862153947 -0.1218632907 0.5730044246 4288323231
-0.2862674892 -0.1212487146 0.5731087923 4289310126
-0.2863193750 -0.1206338033 0.5732126236 4290033596
-0.2863709927 -0.1200185567 0.5733159781 4290625733
-0.2864223719 -0.1194029823 0.5734188557 4290494410
-0.2864735126 -0.1187870726 0.5735211968 4289968066
-0.2865243852 -0.1181708351 0.5736230612 4289705664
-0.2865750194 -0.1175542697 0.5737244487 4289705664
-0.2866254151 -0.1169373840 0.5738253593 4289902271
-0.2866755724 -0.1163201705 0.5739257336 4290033857
-0.2867254615 -0.1157026291 0.5740256310 4289836995
-0.2876547873 -0.1154377908 0.5758861303 4289705409
-0.2877043486 -0.1148177162 0.5759853125 4289705664
-0.2877536416 -0.1141973212 0.5760840178 4289771457
-0.2878026962 -0.1135766059 0.5761822462 4289837250
-0.2878514826 -0.1129555777 0.5762799382 4289837250
-0.2879000306 -0.1123342291 0.5763771534 4289903043
-0.2879483402 -0.1117125750 0.5764738321 4290232008
-0.3065460026 -0.1861651093 0.6150740385 4289508555
-0.3057615161 -0.1850070506 0.6135000587 4288654016
-0.3041148484 -0.1833327413 0.6101960540 4288785602
-0.3016054034 -0.1811475605 0.6051609516 4289113787
-0.2978014946 -0.1781990081 0.5975285769 4288784822
-0.2827874422 -0.1685844362 0.5674033165 4288523968
-0.2970862687 -0.1764464080 0.5960934758 4288195003
-0.2807702422 -0.1661300212 0.5633559227 4288586928
-0.2799762487 -0.1650360525 0.5617627501 4286942103
-0.2791815996 -0.1639452577 0.5601683855 4287194455
-0.2788179517 -0.1631101221 0.5594387054 4289234038
-0.2784538567 -0.1622763723 0.5587081909 4289891699
-0.2785211802 -0.1616946906 0.5588432550 4289036390
-0.2785882950 -0.1611125916 0.5589779019 4289957741
-0.2786552012 -0.1605300605 0.5591121316 4290155120
-0.2791540027 -0.1601950973 0.5601130128 4289168995
-0.2792205811 -0.1596108377 0.5602465868 4290682234
-0.2792869508 -0.1590261459 0.5603797436 4289959540
-0.2793531120 -0.1584410518 0.5605124831 4288906852
-0.2798516154 -0.1580998898 0.5615127087 4290088808
-0.2799174488 -0.1575130671 0.5616447926 4289891429
-0.2799830437 -0.1569258124 0.5617764592 4289164123
-0.2804813087 -0.1565797925 0.5627761483 4290019432
-0.2805466056 -0.1559908092 0.5629071593 4290415469
-0.2806116641 -0.1554014087 0.5630377531 4287783749
-0.2806765139 -0.1548116058 0.5631678700 4287983458
-0.2807411551 -0.1542214006 0.5632975698 4292194210
-0.2808055878 -0.1536307782 0.5634268522 4290034109
-0.2813032269 -0.1532759368 0.5644253492 4290099902
-0.2813673317 -0.1526835859 0.5645539165 4289836730
-0.2814311981 -0.1520908475 0.5646820664 4289836730
-0.2814948261 -0.1514977068 0.5648097992 4289836732
-0.2815582752 -0.1509041488 0.5649370551 4289770939
-0.2816214859 -0.1503102034 0.5650638938 4289902012
-0.2816844583 -0.1497158557 0.5651902556 4289836219
-0.2817472219 -0.1491211057 0.5653162003 4289770424
-0.2818097770 -0.1485259533 0.5654416680 4287138704
-0.2818720937 -0.1479304135 0.5655667186 4287928475
-0.2819341719 -0.1473344862 0.5656912923 4285757306
-0.2819960415 -0.1467381567 0.5658154488 4284573028
-0.2820577025 -0.1461414397 0.5659391880 4284967786
-0.2816844285 -0.1453200728 0.5651901960 4285493612
-0.2817455232 -0.1447234899 0.5653128028 4286283128
-0.2822413146 -0.1443489343 0.5663075447 4285690995
-0.2827370167 -0.1439721584 0.5673022270 4287072648
-0.2827976346 -0.1433725804 0.5674238205 4288059028
-0.2828580439 -0.1427726150 0.5675449967 4287466891
-0.2829181850 -0.1421722621 0.5676656961 4287729034
-0.2829781175 -0.1415715218 0.5677859783 4289768617
-0.2830378115 -0.1409704089 0.5679057240 4290821307
-0.2830972970 -0.1403689086 0.5680250525 4287202692
-0.2831565440 -0.1397670358 0.5681439638 4282137147
-0.2832155526 -0.1391647905 0.5682623386 4282795077
-0.2832743526 -0.1385621727 0.5683802962 4283189837
-0.2837688029 -0.1381714046 0.5693724155 4283255630
-0.2838272154 -0.1375671029 0.5694895983 4284111712
-0.2838853896 -0.1369624287 0.5696063638 4288980394
-0.2839433253 -0.1363573819 0.5697225928 4290692557
-0.2840010524 -0.1357519776 0.5698384047 4290560971
-0.2840585113 -0.1351461858 0.5699537396 4290888909
-0.2841157615 -0.1345400363 0.5700685978 4287401880
-0.2841727734 -0.1339335144 0.5701829791 4283585368
-0.2842295468 -0.1333266348 0.5702968836 4284309091
-0.2842861116 -0.1327193975 0.5704103708 4285624176
-0.2843424082 -0.1321117878 0.5705233216 4286676864
-0.2843984663 -0.1315038204 0.5706358552 4285820010
-0.2844543159 -0.1308954954 0.5707478523 4288188558
-0.2845098972 -0.1302868128 0.5708594322 4288518293
-0.2845652699 -0.1296777725 0.5709704757 4289110430
-0.2846203744 -0.1290683746 0.5710811019 4289440683
-0.2846752703 -0.1284586340 0.5711911917 4289901234
-0.2847298980 -0.1278485358 0.5713008046 4290099902
-0.2847842872 -0.1272380799 0.5714100003 4290428867
-0.2848384678 -0.1266272813 0.5715186596 4290363592
-0.2848923802 -0.1260161400 0.5716268420 4290297799
-0.2849460542 -0.1254046410 0.5717345476 4290756300
-0.2849995196 -0.1247928068 0.5718417764 4290953679
-0.2850527167 -0.1241806224 0.5719485283 4290494149
-0.2851056755 -0.1235681027 0.5720548034 4289573047
-0.2851583660 -0.1229552403 0.5721605420 4287534228
-0.2852108479 -0.1223420352 0.5722658634 4287731607
-0.2857012749 -0.1219154820 0.5732498765 4288454819
-0.2857533395 -0.1213006601 0.5733543038 4288849577
-0.2858051658 -0.1206855029 0.5734583139 4289573560
-0.2858567238 -0.1200700179 0.5735617876 4290099904
-0.2859080732 -0.1194541901 0.5736647844 4290166213
-0.2859591544 -0.1188380420 0.5737673044 4289376697
-0.2860099971 -0.1182215586 0.5738692880 4289245113
-0.2860605717 -0.1176047474 0.5739707947 4290034629
-0.2861109376 -0.1169876084 0.5740718246 4289836480
-0.2861610353 -0.1163701490 0.5741723180 4290165445
-0.2866498530 -0.1159298941 0.5751531124 4289837761
-0.2871385813 -0.1154874265 0.5761337280 4289771968
-0.2871880829 -0.1148670986 0.5762330890 4289639871
-0.2872373164 -0.1142464578 0.5763319135 4289639871
-0.2872863412 -0.1136254892 0.5764302015 4289639871
-0.2873350978 -0.1130042076 0.5765280724 4289968836
-0.2873835862 -0.1123826131 0.5766253471 4289903556
-0.2874318361 -0.1117607057 0.5767222047 4290298314
-0.3051296175 -0.1857188195 0.6135995984 4289442501
-0.3043464124 -0.1845621169 0.6120246053 4288522428
-0.3027026057 -0.1828889400 0.6087189913 4288654014
-0.3001975417 -0.1807046831 0.6036814451 4288652982
-0.2869362235 -0.1720809042 0.5770136714 4288652982
-0.2822740376 -0.1686542183 0.5676382184 4287799732
-0.2801916897 -0.1667840183 0.5634506941 4286681251
-0.2793996036 -0.1656882614 0.5618578792 4286808975
-0.2786068916 -0.1645956635 0.5602637529 4285295736
-0.2786749601 -0.1640132517 0.5604006648 4286798153
-0.2783120275 -0.1631778032 0.5596708059 4288903529
-0.2783795893 -0.1625954360 0.5598067045 4290809453
-0.2784469426 -0.1620126367 0.5599421263 4289559386
-0.2785140872 -0.1614294201 0.5600771904 4289362005
-0.2785810232 -0.1608457863 0.5602117777 4289559384
-0.2786477506 -0.1602617353 0.5603459477 4288573778
-0.2787142694 -0.1596772522 0.5604797006 4289955431
-0.2792121172 -0.1593386382 0.5614808798 4289759594
-0.2792783380 -0.1587524116 0.5616139770 4288904285
-0.2793443203 -0.1581657827 0.5617467165 4289693793
-0.2794100642 -0.1575787365 0.5618789196 4289562207
-0.2794756293 -0.1569912732 0.5620107651 4288901466
-0.2799730301 -0.1566451341 0.5630109906 4289362017
-0.2800382674 -0.1560559273 0.5631421804 4289692520
-0.2805355191 -0.1557062417 0.5641421676 4287389765
-0.2806004286 -0.1551153064 0.5642726421 4287457375
-0.2806650996 -0.1545239687 0.5644027591 4291602334
-0.2807295620 -0.1539322287 0.5645323396 4289836217
-0.2807938159 -0.1533400714 0.5646615624 4289836217
-0.2808578312 -0.1527475119 0.5647903085 4289705146
-0.2809216380 -0.1521545500 0.5649185777 4289770939
-0.2814181745 -0.1517947167 0.5659171343 4289836221
-0.2814816236 -0.1512000263 0.5660447478 4289967807
-0.2815448642 -0.1506049484 0.5661718845 4290296002
-0.2816078961 -0.1500094533 0.5662986636 4290361795
-0.2812373638 -0.1491837054 0.5655534863 4290230207
-0.2812998295 -0.1485883445 0.5656791329 4288322210
-0.2817956209 -0.1482206136 0.5666761398 4288059291
-0.2818577588 -0.1476235241 0.5668011308 4285888122
-0.2819196582 -0.1470260620 0.5669255853 4283388240
-0.2819813490 -0.1464281976 0.5670496225 4283848791
-0.2820428014 -0.1458299458 0.5671732426 4284374874
-0.2821040452 -0.1452312917 0.5672963858 4286414457
-0.2821650505 -0.1446322650 0.5674190521 4285428337
-0.2822258472 -0.1440328360 0.5675413013 4286020474
-0.2822864056 -0.1434330344 0.5676630735 4286611582
-0.2823467255 -0.1428328305 0.5677843690 4283848276
-0.2824068367 -0.1422322541 0.5679052472 4282596923
-0.2824667096 -0.1416312903 0.5680256486 4285360229
-0.2825263441 -0.1410299540 0.5681455731 4289438371
-0.2825857699 -0.1404282302 0.5682650805 4286017135
-0.2826449573 -0.1398261189 0.5683841109 4282990659
-0.2827039063 -0.1392236352 0.5685026646 4283648589
-0.2827626467 -0.1386207789 0.5686207414 4283583825
-0.2828211188 -0.1380175501 0.5687384009 4282925895
-0.2833145857 -0.1376253515 0.5697306991 4282664266
-0.2833727300 -0.1370204538 0.5698475838 4287927706
-0.2834306061 -0.1364151686 0.5699640512 4290232006
-0.2834882736 -0.1358095258 0.5700799823 4290495178
-0.2835457027 -0.1352034956 0.5701954365 4290494151
-0.2836028934 -0.1345971227 0.5703104734 4287401880
-0.2836598456 -0.1339903623 0.5704249740 4283979613
-0.2837165594 -0.1333832443 0.5705390573 4283848027
-0.2837730646 -0.1327757686 0.5706526637 4284505181
-0.2838293016 -0.1321679205 0.5707657933 4284505181
-0.2838853300 -0.1315597296 0.5708783865 4283780427
-0.2839410901 -0.1309511662 0.5709905624 4287135870
-0.2839966416 -0.1303422451 0.5711022615 4288781465
-0.2840519547 -0.1297329664 0.5712134838 4289242016
-0.2845434248 -0.1293216795 0.5722018480 4289505963
-0.2845983505 -0.1287107617 0.5723122358 4290098100
-0.2842164338 -0.1279030144 0.5715442896 4290099644
-0.2842707634 -0.1272923201 0.5716535449 4290428609
-0.2843248844 -0.1266812831 0.5717623830 4290297797
-0.2848155797 -0.1262635440 0.5727491379 4290429383
-0.2848693132 -0.1256508827 0.5728571415 4290494151
-0.2844857872 -0.1248460859 0.5720859170 4290691530
-0.2845389247 -0.1242336631 0.5721927881 4290231488
-0.2850289941 -0.1238107905 0.5731782913 4289113007
-0.2850817442 -0.1231967360 0.5732843876 4287665560
-0.2851342559 -0.1225823537 0.5733899474 4287468181
-0.2851864994 -0.1219676211 0.5734950304 4288126111
-0.2856760025 -0.1215386838 0.5744794011 4288784041
-0.2857278585 -0.1209223419 0.5745836496 4289376178
-0.2857794464 -0.1203056574 0.5746874213 4289705143
-0.2858308256 -0.1196886450 0.5747907162 4288719019
-0.2858819366 -0.1190713048 0.5748935342 4287534745
-0.2859328091 -0.1184536293 0.5749958158 4288324007
-0.2859834135 -0.1178356260 0.5750976205 4290034625
-0.2860338092 -0.1172172949 0.5751988888 4289903043
-0.2860839367 -0.1165986359 0.5752996802 4289903043
-0.2865719795 -0.1161572635 0.5762811899 4289771968
-0.2866216898 -0.1155370101 0.5763811469 4289771968
-0.2866711617 -0.1149164364 0.5764805675 4289640384
-0.2867203653 -0.1142955422 0.5765795112 4289640384
-0.2867693305 -0.1136743277 0.5766779780 4289771202
-0.2872565985 -0.1132256612 0.5776578784 4289968581
-0.2873051167 -0.1126028597 0.5777554512 4289771715
-0.2869146764 -0.1118087843 0.5769703388 4290298059
-0.3037156761 -0.1852720231 0.6121234298 4289376705
-0.3025046587 -0.1838558763 0.6096826792 4288456633
-0.3008635938 -0.1821847409 0.6063751578 4288654012
-0.2987921238 -0.1802613139 0.6022002101 4288916154
-0.2950017452 -0.1773139834 0.5945609212 4288784568
-0.2864846289 -0.1715531349 0.5773950815 4287732912
-0.2813999653 -0.1678781956 0.5671471953 4287206568
-0.2797503471 -0.1662676185 0.5638225079 4287991707
-0.2789593339 -0.1651728153 0.5622282624 4285886331
-0.2781676948 -0.1640811712 0.5606327653 4286798155
-0.2778054774 -0.1632454246 0.5599027276 4287390292
-0.2778729796 -0.1626628339 0.5600387454 4288374083
-0.2779402733 -0.1620798409 0.5601744056 4287913532
-0.2780073583 -0.1614964157 0.5603095889 4287979071
-0.2780742049 -0.1609125584 0.5604443550 4287979071
-0.2781408727 -0.1603282988 0.5605787039 4286927672
-0.2782073319 -0.1597436070 0.5607126355 4288046153
-0.2787043452 -0.1594048738 0.5617143512 4287719246
-0.2787704766 -0.1588184536 0.5618476272 4287390281
-0.2788363695 -0.1582316011 0.5619804263 4287523398
-0.2789020836 -0.1576443315 0.5621128678 4286799675
-0.2789675891 -0.1570566595 0.5622448921 4286602057
-0.2794641256 -0.1567104012 0.5632456541 4287128401
-0.2795292735 -0.1561210006 0.5633769631 4287591008
-0.2800257206 -0.1557711959 0.5643774867 4286867285
-0.2800905406 -0.1551800370 0.5645081401 4287460723
-0.2801551521 -0.1545884907 0.5646383762 4290684580
-0.2802195549 -0.1539965272 0.5647681355 4290230977
-0.2802837193 -0.1534041464 0.5648975372 4289967805
-0.2803477049 -0.1528113782 0.5650264025 4289967807
-0.2804114223 -0.1522181928 0.5651549101 4289902014
-0.2809071243 -0.1518582404 0.5661539435 4290032830
-0.2805382609 -0.1510306150 0.5654104948 4290296002
-0.2810336947 -0.1506680250 0.5664090514 4290492868
-0.2810966671 -0.1500723213 0.5665359497 4290427075
-0.2811594009 -0.1494762003 0.5666623712 4289769399
-0.2807892561 -0.1486506611 0.5659164190 4287532437
-0.2812842131 -0.1482827961 0.5669139028 4286084988
-0.2813462913 -0.1476854980 0.5670390129 4283913819
-0.2814081311 -0.1470877975 0.5671637058 4281742389
-0.2814697623 -0.1464897096 0.5672878623 4282005561
-0.2815311551 -0.1458912343 0.5674116015 4282597950
-0.2815923393 -0.1452923715 0.5675349236 4285163877
-0.2816532850 -0.1446931064 0.5676577687 4285099372
-0.2817139924 -0.1440934539 0.5677801371 4285296751
-0.2817744911 -0.1434934139 0.5679020882 4283716433
-0.2818347812 -0.1428930014 0.5680235624 4281742643
-0.2818948030 -0.1422921866 0.5681445599 4282924605
-0.2819546163 -0.1416909993 0.5682651401 4283253570
-0.2820142210 -0.1410894245 0.5683852434 4287858053
-0.2820735872 -0.1404874772 0.5685048699 4287331709
-0.2821327150 -0.1398851424 0.5686240196 4283910219
-0.2821916044 -0.1392824352 0.5687427521 4283910219
-0.2822502851 -0.1386793405 0.5688610077 4283779664
-0.2827430367 -0.1382883042 0.5698541403 4283713871
-0.2828013301 -0.1376835406 0.5699716210 4283847514
-0.2828594148 -0.1370784044 0.5700886250 4289505712
-0.2829172313 -0.1364728957 0.5702052116 4290954700
-0.2829748392 -0.1358670145 0.5703213215 4290757321
-0.2830322087 -0.1352607608 0.5704369545 4290624454
-0.2830893397 -0.1346541494 0.5705521107 4286545288
-0.2831462622 -0.1340471506 0.5706667900 4283057998
-0.2832029164 -0.1334398091 0.5707809925 4283452756
-0.2832593620 -0.1328320950 0.5708947182 4284373082
-0.2833155394 -0.1322240084 0.5710079670 4284175703
-0.2833715081 -0.1316155791 0.5711207390 4284372051
-0.2834272385 -0.1310067773 0.5712330937 4286609013
-0.2834827304 -0.1303976178 0.5713449121 4288320143
-0.2835379839 -0.1297881007 0.5714562535 4289109659
-0.2840286195 -0.1293766648 0.5724451542 4289572010
-0.2840834856 -0.1287655085 0.5725557208 4290229940
-0.2841380835 -0.1281539947 0.5726658106 4290297021
-0.2837565839 -0.1273465008 0.5718969107 4290757572
-0.2838106453 -0.1267352253 0.5720058680 4290429637
-0.2843005061 -0.1263173372 0.5729931593 4290298051
-0.2843541801 -0.1257044226 0.5731012821 4290691781
-0.2844076157 -0.1250911653 0.5732089877 4290691781
-0.2840244770 -0.1242866442 0.5724368095 4290099902
-0.2845137119 -0.1238636076 0.5734228492 4288652456
-0.2845664024 -0.1232493222 0.5735290647 4288126112
-0.2846188545 -0.1226346865 0.5736347437 4287402389
-0.2846710682 -0.1220197156 0.5737400055 4287863193
-0.2851597369 -0.1215906143 0.5747248530 4288389537
-0.2852115333 -0.1209740266 0.5748292208 4288521121
-0.2852630913 -0.1203570962 0.5749331713 4288521121
-0.2853144109 -0.1197398454 0.5750365853 4287798168
-0.2853654623 -0.1191222519 0.5751395226 4287534996
-0.2854162753 -0.1185043305 0.5752419233 4288521639
-0.2854668498 -0.1178860813 0.5753438473 4289903292
-0.2855171859 -0.1172675043 0.5754452944 4289903041
-0.2860045731 -0.1168272346 0.5764275789 4289771455
-0.2860544920 -0.1162070557 0.5765281916 4289706177
-0.2861041427 -0.1155865565 0.5766282678 4289771970
-0.2861535549 -0.1149657294 0.5767278671 4289640384
-0.2862027287 -0.1143445820 0.5768269300 4289640384
-0.2862516344 -0.1137231216 0.5769255161 4289771715
-0.2863003016 -0.1131013408 0.5770235658 4289903301
-0.2867865562 -0.1126512289 0.5780035853 4289771715
-0.2868347764 -0.1120278612 0.5781008005 4290429645
-0.3023042083 -0.1848247200 0.6106455326 4289245632
-0.3010952473 -0.1834098250 0.6082034707 4288785083
-0.2998854220 -0.1819998324 0.6057596803 4288916669
-0.2995317578 -0.1811129451 0.6050453186 4289047481
-0.2974631786 -0.1791945696 0.6008668542 4289244860
-0.2936784029 -0.1762554795 0.5932217240 4289179326
-0.2851743400 -0.1705116034 0.5760437250 4289442498
-0.2792394459 -0.1663363129 0.5640554428 4289703093
-0.2784499526 -0.1652410924 0.5624606609 4286873994
-0.2785181105 -0.1646564454 0.5625983477 4286801502
-0.2772983015 -0.1633129567 0.5601344109 4286735709
-0.2773657441 -0.1627301723 0.5602706075 4287654998
-0.2774329484 -0.1621469706 0.5604063869 4287983963
-0.2774999738 -0.1615633368 0.5605417490 4287852375
-0.2775667608 -0.1609792709 0.5606766939 4288049754
-0.2780631483 -0.1606430858 0.5616793633 4287063372
-0.2781296372 -0.1600572765 0.5618136525 4288247646
-0.2781959176 -0.1594710499 0.5619475245 4289368435
-0.2782619596 -0.1588844210 0.5620809793 4289763193
-0.2783278227 -0.1582973599 0.5622140169 4288975217
-0.2783934474 -0.1577098817 0.5623465776 4287790943
-0.2788892686 -0.1573648304 0.5633481145 4289173134
-0.2789545953 -0.1567756236 0.5634800196 4290094236
-0.2794502676 -0.1564270258 0.5644813180 4290030241
-0.2795152366 -0.1558360755 0.5646125674 4289964448
-0.2795800269 -0.1552447081 0.5647433996 4289768110
-0.2796445787 -0.1546529382 0.5648737550 4290491833
-0.2797088921 -0.1540607512 0.5650037527 4289967805
-0.2797730267 -0.1534681618 0.5651332140 4289638840
-0.2798369229 -0.1528751701 0.5652623177 4289901244
-0.2799005806 -0.1522817761 0.5653909445 4289901244
-0.2803954184 -0.1519216895 0.5663905144 4289967037
-0.2800273001 -0.1510937512 0.5656468868 4290098623
-0.2805218995 -0.1507310420 0.5666459203 4289834938
-0.2805847824 -0.1501351148 0.5667729974 4289571766
-0.2806474566 -0.1495387852 0.5668995976 4288321440
-0.2807099223 -0.1489420533 0.5670257807 4287137166
-0.2807721496 -0.1483449340 0.5671514869 4286282110
-0.2808341682 -0.1477473974 0.5672767162 4283979355
-0.2808959484 -0.1471494883 0.5674015284 4282926147
-0.2809575200 -0.1465511769 0.5675258636 4282728768
-0.2810188532 -0.1459524781 0.5676497817 4282794559
-0.2810799778 -0.1453533769 0.5677732229 4284505177
-0.2811408639 -0.1447538882 0.5678962469 4284571999
-0.2816341221 -0.1443757862 0.5688926578 4284900964
-0.2816946805 -0.1437745988 0.5690149069 4284242005
-0.2813221812 -0.1429530978 0.5682624578 4282465594
-0.2813821435 -0.1423520744 0.5683836341 4282331955
-0.2814418972 -0.1417506486 0.5685043335 4283582022
-0.2815014422 -0.1411488503 0.5686246157 4288712848
-0.2815607488 -0.1405466646 0.5687444210 4287528574
-0.2816198170 -0.1399441063 0.5688636899 4284303948
-0.2816786468 -0.1393411756 0.5689826012 4284106569
-0.2821707129 -0.1389513016 0.5699765086 4283844426
-0.2822291851 -0.1383466721 0.5700946450 4284370770
-0.2827210426 -0.1379532665 0.5710881948 4285227623
-0.2827791572 -0.1373469681 0.5712055564 4290754235
-0.2828370035 -0.1367402822 0.5713224411 4290953158
-0.2824607491 -0.1359244436 0.5705624223 4290755779
-0.2825180888 -0.1353179663 0.5706781745 4290821574
-0.2830092311 -0.1349180490 0.5716702938 4288979370
-0.2830661535 -0.1343098879 0.5717852712 4285030760
-0.2831228375 -0.1337013692 0.5718998313 4283451728
-0.2831793129 -0.1330924928 0.5720138550 4284569432
-0.2828011215 -0.1322800517 0.5712499619 4284635225
-0.2828570306 -0.1316713691 0.5713629127 4285029721
-0.2833473086 -0.1312636584 0.5723531842 4285885030
-0.2834028006 -0.1306533366 0.5724653006 4287464062
-0.2834580839 -0.1300426424 0.5725769997 4287924613
-0.2835131288 -0.1294316053 0.5726881623 4288452499
-0.2835679352 -0.1288201958 0.5727989078 4289702566
-0.2836225033 -0.1282084435 0.5729091167 4289703855
-0.2836768329 -0.1275963336 0.5730188489 4290098613
-0.2837309241 -0.1269838810 0.5731281042 4290033849
-0.2837847769 -0.1263710707 0.5732368827 4290362814
-0.2838383913 -0.1257579178 0.5733451843 4290757319
-0.2838917673 -0.1251444221 0.5734530091 4290757319
-0.2839449048 -0.1245305762 0.5735602975 4289902010
-0.2839977741 -0.1239163801 0.5736671686 4287599255
-0.2840504348 -0.1233018488 0.5737735033 4287599255
-0.2845385671 -0.1228751466 0.5747595429 4286743946
-0.2845908105 -0.1222589910 0.5748650432 4286810505
-0.2846428156 -0.1216424927 0.5749700665 4287007884
-0.2846945524 -0.1210256591 0.5750746131 4286415745
-0.2847460508 -0.1204084903 0.5751786232 4285955194
-0.2852334678 -0.1199744344 0.5761631727 4286679687
-0.2852845490 -0.1193556562 0.5762664080 4288850856
-0.2853353918 -0.1187365428 0.5763691068 4289705913
-0.2858223915 -0.1182977036 0.5773527622 4289771706
-0.2854363620 -0.1174973249 0.5765730143 4289639869
-0.2854864597 -0.1168772206 0.5766742229 4289705662
-0.2855363190 -0.1162567958 0.5767749548 4289640382
-0.2855859399 -0.1156360507 0.5768752098 4289771968
-0.2856352925 -0.1150149778 0.5769748688 4289706177
-0.2856844068 -0.1143935844 0.5770741105 4289706177
-0.2857332826 -0.1137718707 0.5771728158 4289771715
-0.2857818902 -0.1131498367 0.5772709846 4289837508
-0.2858302593 -0.1125274897 0.5773687363 4289771715
-0.2858783901 -0.1119048223 0.5774658918 4290561231
-0.3008951545 -0.1843769103 0.6091660261 4289179839
-0.2975506783 -0.1816582531 0.6023951173 4289047994
-0.2993357480 -0.1820747405 0.6060090065 4289179580
-0.2959887087 -0.1793730557 0.5992328525 4289704635
-0.2802324891 -0.1691942364 0.5673341751 4289770428
-0.2922844291 -0.1758132875 0.5917334557 4290099652
-0.2842238247 -0.1703253984 0.5754147172 4290099652
-0.2787279189 -0.1664049327 0.5642881989 4290165186
-0.2770833969 -0.1647998691 0.5609588027 4288717740
-0.2780080140 -0.1647244543 0.5628306866 4289175969
-0.2767904997 -0.1633804440 0.5603657961 4289833899
-0.2768578529 -0.1627974510 0.5605022311 4290490540
-0.2769250274 -0.1622140259 0.5606381893 4290556333
-0.2769919634 -0.1616301835 0.5607736707 4290753445
-0.2770586908 -0.1610459089 0.5609087944 4289305999
-0.2771252394 -0.1604612321 0.5610435009 4288516471
-0.2776206434 -0.1601236016 0.5620464683 4289963917
-0.2776868343 -0.1595371664 0.5621805191 4289438078
-0.2777528465 -0.1589503139 0.5623140931 4290161801
-0.2778186202 -0.1583630443 0.5624473095 4289505159
-0.2783136964 -0.1580192149 0.5634495616 4288057713
-0.2783791721 -0.1574302018 0.5635821223 4290098102
-0.2784444094 -0.1568407714 0.5637142062 4290690239
-0.2789392471 -0.1564920545 0.5647159815 4290230458
-0.2790041566 -0.1559008956 0.5648474097 4290493630
-0.2790688574 -0.1553093195 0.5649784207 4290427588
-0.2791333497 -0.1547173262 0.5651089549 4290098623
-0.2791976035 -0.1541249305 0.5652390718 4289836219
-0.2792616785 -0.1535321176 0.5653687119 4289638840
-0.2793254852 -0.1529389024 0.5654979944 4289901244
-0.2793891132 -0.1523452848 0.5656267405 4289769658
-0.2794525027 -0.1517512649 0.5657551289 4289572279
-0.2799463868 -0.1513897479 0.5667549372 4289309107
-0.2800094187 -0.1507939994 0.5668826103 4288716457
-0.2800722718 -0.1501978487 0.5670098066 4288058527
-0.2801348865 -0.1496012956 0.5671365857 4286150784
-0.2801972628 -0.1490043402 0.5672628880 4285953405
-0.2802594602 -0.1484069973 0.5673887730 4287466384
-0.2803213894 -0.1478092521 0.5675141811 4286611075
-0.2803831100 -0.1472111046 0.5676391125 4285097316
-0.2804446220 -0.1466125697 0.5677636266 4284636765
-0.2805058956 -0.1460136473 0.5678877234 4284044626
-0.2805669606 -0.1454143226 0.5680113435 4283584075
-0.2806277871 -0.1448146105 0.5681344867 4283584077
-0.2811202109 -0.1444363892 0.5691313744 4283978835
-0.2811806798 -0.1438349634 0.5692538023 4285426022
-0.2808089256 -0.1430131495 0.5685011744 4286873468
-0.2808688581 -0.1424118876 0.5686224699 4287464064
-0.2809285522 -0.1418102384 0.5687433481 4287924615
-0.2809880078 -0.1412082165 0.5688637495 4289568411
-0.2810472548 -0.1406058073 0.5689836740 4287792000
-0.2811062634 -0.1400030106 0.5691031814 4284172617
-0.2811650634 -0.1393998414 0.5692222118 4284304203
-0.2816562653 -0.1390098333 0.5702166557 4283778374
-0.2817146778 -0.1384049803 0.5703349113 4284370511
-0.2822057009 -0.1380114257 0.5713289976 4286147181
-0.2822637260 -0.1374048889 0.5714464784 4291608000
-0.2823215425 -0.1367979944 0.5715635419 4291148221
-0.2823791206 -0.1361907125 0.5716800690 4291016635
-0.2820032835 -0.1353751123 0.5709192157 4291017923
-0.2824935913 -0.1349750459 0.5719118118 4291544267
-0.2825504541 -0.1343666613 0.5720269680 4288450965
-0.2826071084 -0.1337579042 0.5721416473 4284700764
-0.2826635242 -0.1331487894 0.5722558498 4284502609
-0.2827197015 -0.1325393021 0.5723695755 4284765781
-0.2823419273 -0.1317271143 0.5716047883 4285160278
-0.2828313410 -0.1313192546 0.5725955963 4285818208
-0.2828868032 -0.1307086796 0.5727078915 4286147171
-0.2829420269 -0.1300977618 0.5728196502 4285818206
-0.2829970121 -0.1294864714 0.5729309916 4286280301
-0.2830517590 -0.1288748384 0.5730418563 4288188298
-0.2831062973 -0.1282628477 0.5731522441 4288255378
-0.2831605673 -0.1276504993 0.5732620955 4288189585
-0.2832145989 -0.1270378083 0.5733715296 4288914339
-0.2832683921 -0.1264247596 0.5734804273 4290295992
-0.2833219469 -0.1258113682 0.5735888481 4290296772
-0.2833752632 -0.1251976192 0.5736967921 4290625737
-0.2834283412 -0.1245835349 0.5738042593 4289573047
-0.2834811807 -0.1239691004 0.5739111900 4286349190
-0.2835337818 -0.1233543307 0.5740177035 4286086271
-0.2840210795 -0.1229274645 0.5750042200 4285165169
-0.2840732634 -0.1223110631 0.5751098990 4285296753
-0.2841252089 -0.1216943190 0.5752150416 4285559925
-0.2841769159 -0.1210772470 0.5753197074 4286613126
-0.2842283845 -0.1204598323 0.5754238963 4287665814
-0.2847149372 -0.1200256124 0.5764089227 4289178799
-0.2852014005 -0.1195891574 0.5773937702 4290626245
-0.2852522731 -0.1189688519 0.5774968266 4290494662
-0.2853029072 -0.1183482185 0.5775992870 4290034111
-0.2849176228 -0.1175475121 0.5768193007 4289903039
-0.2849676907 -0.1169271618 0.5769206882 4289968832
-0.2850174904 -0.1163064912 0.5770215392 4289771455
-0.2850670815 -0.1156854928 0.5771218538 4289903041
-0.2851163745 -0.1150641739 0.5772216916 4289837248
-0.2851654589 -0.1144425273 0.5773210526 4289837248
-0.2852142751 -0.1138205677 0.5774198771 4289837250
-0.2852628231 -0.1131982878 0.5775181651 4289968836
-0.2853111625 -0.1125756875 0.5776160359 4289903043
-0.2853592336 -0.1119527742 0.5777133107 4290626766
-0.2994886041 -0.1839285940 0.6076848507 4289049021
-0.2970035672 -0.1817328632 0.6026425362 4289310906
-0.2966512442 -0.1808484942 0.6019276381 4289376699
-0.2945906818 -0.1789281815 0.5977466106 4290296000
-0.2797173858 -0.1692638397 0.5675675869 4290164414
-0.2913200855 -0.1756281406 0.5911102891 4290296000
-0.2832742333 -0.1701389253 0.5747846961 4290032828
-0.2786431313 -0.1667292118 0.5653877854 4290231236
-0.2774292529 -0.1653774381 0.5629248023 4290099650
-0.2770697176 -0.1645384580 0.5621952415 4290100420
-0.2762820721 -0.1634478569 0.5605970025 4290166213
-0.2763493657 -0.1628646553 0.5607335567 4290690758
-0.2768443227 -0.1625322253 0.5617378950 4290427586
-0.2769113183 -0.1619472653 0.5618738532 4289177762
-0.2769780755 -0.1613618881 0.5620093346 4288059281
-0.2770446539 -0.1607760936 0.5621443987 4289439628
-0.2771109939 -0.1601898670 0.5622790456 4289571214
-0.2771771550 -0.1596032083 0.5624132156 4287202398
-0.2772430778 -0.1590161473 0.5625470281 4289176188
-0.2777374089 -0.1586735249 0.5635500550 4289308295
-0.2778030038 -0.1580847204 0.5636831522 4288124021
-0.2782972157 -0.1577385515 0.5646859407 4290230209
-0.2783625126 -0.1571479887 0.5648183823 4290427588
-0.2784275711 -0.1565570235 0.5649504066 4289902012
-0.2784924209 -0.1559656411 0.5650820136 4290099391
-0.2785570621 -0.1553738564 0.5652131438 4290230207
-0.2786214650 -0.1547816545 0.5653439164 4290164414
-0.2791150808 -0.1544266194 0.5663454533 4289770426
-0.2791791856 -0.1538326740 0.5664755106 4289704633
-0.2792430520 -0.1532383263 0.5666050911 4289704633
-0.2793067098 -0.1526435763 0.5667342544 4289375668
-0.2793701291 -0.1520484090 0.5668629408 4289177521
-0.2794333398 -0.1514528543 0.5669912100 4288980142
-0.2794963419 -0.1508568823 0.5671190619 4288453798
-0.2795591056 -0.1502605081 0.5672463775 4287795868
-0.2796216607 -0.1496637464 0.5673733354 4286413956
-0.2796839774 -0.1490665674 0.5674998164 4284176994
-0.2801764905 -0.1486974210 0.5684990883 4284176734
-0.2802384496 -0.1480985284 0.5686248541 4285624180
-0.2798696458 -0.1472726762 0.5678765178 4284571742
-0.2799310982 -0.1466739178 0.5680012107 4284440156
-0.2799923122 -0.1460747570 0.5681254268 4284834912
-0.2800532877 -0.1454752088 0.5682491660 4284834912
-0.2805450261 -0.1450981647 0.5692468882 4285031010
-0.2806056440 -0.1444969177 0.5693699121 4284044115
-0.2806660533 -0.1438952833 0.5694925189 4284175185
-0.2802950144 -0.1430731416 0.5687396526 4287399042
-0.2803548872 -0.1424716562 0.5688611269 4288253580
-0.2804145217 -0.1418697834 0.5689821243 4287793029
-0.2804739475 -0.1412675232 0.5691027045 4288449160
-0.2805331349 -0.1406648904 0.5692227483 4286804335
-0.2805920839 -0.1400618702 0.5693423748 4283909184
-0.2806508243 -0.1394584626 0.5694615245 4284501321
-0.2811411619 -0.1390683204 0.5704565048 4283975236
-0.2811995149 -0.1384632289 0.5705749393 4284172615
-0.2816897035 -0.1380695403 0.5715695024 4286081129
-0.2817476690 -0.1374627799 0.5716871619 4291476155
-0.2818054259 -0.1368556321 0.5718043447 4290818225
-0.2818629444 -0.1362481266 0.5719211102 4290818225
-0.2819202542 -0.1356402487 0.5720373392 4290951099
-0.2819772959 -0.1350319982 0.5721530914 4291674822
-0.2820341289 -0.1344233751 0.5722683668 4290818738
-0.2820906937 -0.1338143796 0.5723832250 4287002744
-0.2821470499 -0.1332050264 0.5724975467 4284435785
-0.2822031677 -0.1325953156 0.5726114511 4284764750
-0.2822590768 -0.1319852322 0.5727248192 4285093455
-0.2823147178 -0.1313747913 0.5728377104 4285422420
-0.2823701203 -0.1307639778 0.5729501843 4285159761
-0.2824252844 -0.1301528215 0.5730621219 4285488726
-0.2824802399 -0.1295413077 0.5731735826 4285752926
-0.2829682827 -0.1291271746 0.5741638541 4286739821
-0.2825894058 -0.1283171922 0.5733950734 4286806904
-0.2826436162 -0.1277046204 0.5735051036 4286872697
-0.2831311822 -0.1272865981 0.5744944215 4288650908
-0.2831850052 -0.1266723722 0.5746036768 4290558905
-0.2832386196 -0.1260578036 0.5747123957 4290690762
-0.2832919657 -0.1254428774 0.5748206377 4291085520
-0.2833450437 -0.1248276085 0.5749284029 4290164414
-0.2833979130 -0.1242119893 0.5750356317 4286743178
-0.2834505439 -0.1235960275 0.5751424432 4285888122
-0.2835029364 -0.1229797304 0.5752487183 4284967020
-0.2835550606 -0.1223630831 0.5753545165 4284836202
-0.2836069465 -0.1217461005 0.5754597783 4285559925
-0.2836586237 -0.1211287826 0.5755646229 4288126112
-0.2837100029 -0.1205111220 0.5756689310 4290099902
-0.2841957211 -0.1200767308 0.5766544342 4290428869
-0.2842467129 -0.1194574609 0.5767579079 4290297283
-0.2842974663 -0.1188378558 0.5768609047 4290165443
-0.2843479812 -0.1182179227 0.5769633651 4289968064
-0.2843982279 -0.1175976545 0.5770653486 4289770685
-0.2844482362 -0.1169770584 0.5771668553 4289968064
-0.2844980061 -0.1163561419 0.5772678256 4289903039
-0.2845475376 -0.1157348901 0.5773682594 4290034625
-0.2845968008 -0.1151133254 0.5774682760 4289837248
-0.2846458256 -0.1144914329 0.5775676966 4289837248
-0.2851299047 -0.1140433326 0.5785499811 4289903043
-0.2851784825 -0.1134198457 0.5786485672 4289968836
-0.2852268517 -0.1127960458 0.5787466764 4289903043
-0.2852749228 -0.1121719256 0.5788442492 4290626766
-0.2980844975 -0.1834797710 0.6062019467 4289245883
-0.2973076701 -0.1823298484 0.6046221852 4289508283
-0.2956781089 -0.1806623936 0.6013082266 4289574076
-0.2931951582 -0.1784828007 0.5962587595 4290230209
-0.2898581922 -0.1757964641 0.5894724727 4290427588
-0.2826820016 -0.1708054394 0.5748785734 4290624195
-0.2793402672 -0.1681550741 0.5680826306 4290426816
-0.2781295478 -0.1667978019 0.5656204224 4290230209
-0.2773446441 -0.1657004207 0.5640242100 4290296002
-0.2765591443 -0.1646062136 0.5624267459 4289969349
-0.2757729888 -0.1635151953 0.5608279705 4289640384
-0.2762672305 -0.1631840020 0.5618330836 4290229696
-0.2763343453 -0.1625992507 0.5619695783 4289769145
-0.2764012516 -0.1620140970 0.5621056557 4287269766
-0.2764679492 -0.1614284962 0.5622413158 4288651419
-0.2765344679 -0.1608424932 0.5623765588 4289439628
-0.2766007483 -0.1602560580 0.5625113845 4286742115
-0.2766668200 -0.1596691906 0.5626457334 4286609230
-0.2767326832 -0.1590819210 0.5627796650 4289767294
-0.2772261500 -0.1587391943 0.5637832284 4288847231
-0.2772916853 -0.1581501663 0.5639165044 4287333992
-0.2773570120 -0.1575607210 0.5640493631 4289374902
-0.2778502703 -0.1572131068 0.5650524497 4290230211
-0.2779152691 -0.1566219330 0.5651846528 4290033857
-0.2779800594 -0.1560303271 0.5653163791 4289968064
-0.2780446112 -0.1554383188 0.5654476881 4290164154
-0.2781089842 -0.1548459083 0.5655785799 4290164154
-0.2786017358 -0.1544907540 0.5665807128 4289902012
-0.2786657512 -0.1538966000 0.5667108893 4289836219
-0.2787295580 -0.1533020288 0.5668406487 4289902012
-0.2787931561 -0.1527070552 0.5669699311 4289836219
-0.2788565159 -0.1521116793 0.5670988560 4289835451
-0.2789196670 -0.1515159011 0.5672272444 4290098623
-0.2789825797 -0.1509197056 0.5673552155 4290032830
-0.2790453136 -0.1503231227 0.5674827695 4289374900
-0.2791077793 -0.1497261226 0.5676098466 4289506484
-0.2791700661 -0.1491287351 0.5677364469 4285887869
-0.2796616852 -0.1487594545 0.5687362552 4282729545
-0.2797236145 -0.1481603384 0.5688621998 4284111198
-0.2793555260 -0.1473341733 0.5681136847 4284242523
-0.2794169188 -0.1467351913 0.5682384968 4283847765
-0.2794780731 -0.1461358070 0.5683628321 4286348410
-0.2795389891 -0.1455360502 0.5684867501 4288453786
-0.2800298631 -0.1451588571 0.5694850087 4288650654
-0.2800904512 -0.1445573866 0.5696082115 4287729552
-0.2801508009 -0.1439555287 0.5697309375 4286083698
-0.2802109122 -0.1433532685 0.5698531866 4285491561
-0.2798402905 -0.1425313503 0.5690994859 4283977035
-0.2798998654 -0.1419292539 0.5692206621 4283253312
-0.2799592316 -0.1413267702 0.5693413615 4285488216
-0.2800183594 -0.1407238990 0.5694615841 4285488216
-0.2800772488 -0.1401206553 0.5695813894 4283974464
-0.2801358998 -0.1395170242 0.5697006583 4284106050
-0.2806254327 -0.1391267329 0.5706961751 4283711551
-0.2806837261 -0.1385214329 0.5708147287 4284369481
-0.2807417810 -0.1379157305 0.5709328055 4286212200
-0.2812309563 -0.1375205964 0.5719276667 4290357159
-0.2812886536 -0.1369132251 0.5720449686 4288252297
-0.2813461125 -0.1363054812 0.5721618533 4287265402
-0.2814033628 -0.1356973648 0.5722782612 4288648598
-0.2814603448 -0.1350888759 0.5723941326 4290885560
-0.2815171182 -0.1344800293 0.5725095868 4291410874
-0.2815736532 -0.1338708103 0.5726245642 4288450189
-0.2816299498 -0.1332612187 0.5727390647 4284764493
-0.2816860080 -0.1326512694 0.5728530884 4284764493
-0.2817418575 -0.1320409477 0.5729665756 4285158989
-0.2817974389 -0.1314302683 0.5730796456 4285290575
-0.2818527818 -0.1308192313 0.5731922388 4285488467
-0.2819079161 -0.1302078366 0.5733042955 4287528050
-0.2819627821 -0.1295960695 0.5734159350 4288384133
-0.2824499905 -0.1291817874 0.5744066834 4288515719
-0.2825044692 -0.1285683811 0.5745175481 4287793286
-0.2825587392 -0.1279546171 0.5746278763 4286872184
-0.2826127410 -0.1273405105 0.5747377276 4288649879
-0.2826665044 -0.1267260462 0.5748470426 4290557876
-0.2827200592 -0.1261112243 0.5749559402 4289967807
-0.2827733457 -0.1254960597 0.5750643015 4289836221
-0.2828263938 -0.1248805448 0.5751721859 4289045933
-0.2828792036 -0.1242646873 0.5752795935 4286611592
-0.2829317749 -0.1236484870 0.5753865242 4286085502
-0.2829841077 -0.1230319440 0.5754929185 4285493365
-0.2830362022 -0.1224150583 0.5755988955 4284967790
-0.2830880582 -0.1217978299 0.5757042766 4286283650
-0.2831396461 -0.1211802661 0.5758092403 4289244593
-0.2836246789 -0.1207469925 0.5767956376 4290428867
-0.2836758792 -0.1201278120 0.5768997669 4290363076
-0.2837268114 -0.1195082888 0.5770033598 4290363076
-0.2837775052 -0.1188884377 0.5771064758 4290033859
-0.2838279605 -0.1182682589 0.5772090554 4288981171
-0.2838781774 -0.1176477447 0.5773111582 4288587181
-0.2839281261 -0.1170269027 0.5774127841 4289705662
-0.2839778662 -0.1164057329 0.5775138736 4289837248
-0.2840273380 -0.1157842427 0.5776144862 4290100420
-0.2840765417 -0.1151624247 0.5777145624 4289968834
-0.2841255069 -0.1145402864 0.5778141618 4289837248
-0.2846087515 -0.1140920073 0.5787969232 4289903043
-0.2846572995 -0.1134682745 0.5788956285 4290034629
-0.2847056091 -0.1128442287 0.5789938569 4289968836
-0.2847536504 -0.1122198552 0.5790916085 4290758352
-0.2966828644 -0.1830304414 0.6047173738 4289443001
-0.2942067087 -0.1808365732 0.5996703506 4289639867
-0.2951311469 -0.1807364225 0.6015546322 4289705660
-0.2922274768 -0.1782964468 0.5956361890 4290296004
-0.2884711921 -0.1753513217 0.5879798532 4290427590
-0.2817336917 -0.1706178039 0.5742470622 4290557634
-0.2788237631 -0.1682241261 0.5683158636 4290689220
-0.2776153386 -0.1668663323 0.5658527613 4290426046
-0.2768319547 -0.1657685339 0.5642560124 4290360253
-0.2768999338 -0.1651821584 0.5643945932 4290099393
-0.2756893933 -0.1638356894 0.5619272590 4289770428
-0.2757566571 -0.1632511616 0.5620643497 4290690241
-0.2758237123 -0.1626662165 0.5622010231 4288584865
-0.2758905590 -0.1620808393 0.5623372793 4287597703
-0.2759571970 -0.1614950448 0.5624730587 4289703079
-0.2760236263 -0.1609088182 0.5626084805 4289307529
-0.2765165865 -0.1605699658 0.5636132360 4287728497
-0.2765826881 -0.1599819958 0.5637480021 4288516457
-0.2766485810 -0.1593935937 0.5638822913 4289898110
-0.2767142653 -0.1588047743 0.5640161633 4289504902
-0.2767797410 -0.1582155526 0.5641496181 4286873182
-0.2768450081 -0.1576258987 0.5642826557 4288388521
-0.2769100666 -0.1570358276 0.5644152761 4289704381
-0.2774023116 -0.1566867679 0.5654186010 4289706175
-0.2774670422 -0.1560949534 0.5655505061 4289771968
-0.2775315344 -0.1555027366 0.5656819940 4290099642
-0.2775958478 -0.1549101025 0.5658130646 4289836470
-0.2780877352 -0.1545548290 0.5668156743 4289836219
-0.2781516910 -0.1539604515 0.5669460297 4289770426
-0.2782154381 -0.1533656716 0.5670759678 4289901244
-0.2782789469 -0.1527704895 0.5672054291 4289967037
-0.2783422768 -0.1521748900 0.5673344731 4289967037
-0.2784053385 -0.1515788883 0.5674630404 4290164416
-0.2784682214 -0.1509824842 0.5675911903 4290032830
-0.2789593637 -0.1506170332 0.5685923100 4289045935
-0.2785932720 -0.1497884542 0.5678461194 4287269524
-0.2786554992 -0.1491908431 0.5679728985 4285493113
-0.2787174582 -0.1485928297 0.5680992603 4284045406
-0.2792081237 -0.1482221037 0.5690993071 4285229680
-0.2788407803 -0.1473956108 0.5683505535 4284769382
-0.2789020836 -0.1467964053 0.5684755445 4283650901
-0.2789631784 -0.1461967975 0.5686000586 4288453786
-0.2790240645 -0.1455968171 0.5687241554 4290164404
-0.2795140743 -0.1452195048 0.5697228909 4290164406
-0.2795745730 -0.1446177959 0.5698462725 4289967027
-0.2796348631 -0.1440157145 0.5699691176 4289439656
-0.2796949446 -0.1434132308 0.5700915456 4285623662
-0.2797547877 -0.1428103596 0.5702135563 4283384129
-0.2793845534 -0.1419886649 0.5694589615 4283713094
-0.2794438601 -0.1413859576 0.5695797801 4285027152
-0.2799329162 -0.1409994513 0.5705766678 4285421910
-0.2795617580 -0.1401793957 0.5698201060 4284565318
-0.2796203792 -0.1395755410 0.5699395537 4284302146
-0.2796787620 -0.1389712989 0.5700585842 4284237636
-0.2801672518 -0.1385795623 0.5710542798 4285158738
-0.2802252769 -0.1379736364 0.5711725354 4286146405
-0.2802830637 -0.1373673528 0.5712903142 4288843918
-0.2807712257 -0.1369707584 0.5722853541 4286147432
-0.2808286548 -0.1363627762 0.5724023581 4285094744
-0.2808858156 -0.1357544363 0.5725188851 4287003773
-0.2809427679 -0.1351457089 0.5726349354 4290161837
-0.2809994817 -0.1345366240 0.5727505684 4290555565
-0.2810559571 -0.1339271665 0.5728656650 4289108119
-0.2811121941 -0.1333173513 0.5729802847 4285685593
-0.2811681926 -0.1327071637 0.5730944276 4284501319
-0.2812239826 -0.1320966184 0.5732081532 4284895817
-0.2812795043 -0.1314857006 0.5733213425 4284961610
-0.2813348174 -0.1308744252 0.5734340549 4285685846
-0.2813898623 -0.1302627921 0.5735462904 4288449152
-0.2814446986 -0.1296507865 0.5736580491 4290028444
-0.2819310427 -0.1292363554 0.5746493340 4290225823
-0.2819854915 -0.1286227107 0.5747603178 4288582545
-0.2824715972 -0.1282047331 0.5757511258 4285424481
-0.2825256288 -0.1275894493 0.5758612752 4286412917
-0.2825794518 -0.1269737929 0.5759709477 4288781465
-0.2826330066 -0.1263577938 0.5760800838 4287270292
-0.2822540700 -0.1255491823 0.5753077865 4286414983
-0.2823070884 -0.1249334365 0.5754157901 4285756283
-0.2823598385 -0.1243173331 0.5755233169 4284637802
-0.2824123502 -0.1237008944 0.5756303668 4285033328
-0.2824646533 -0.1230841056 0.5757369399 4285099121
-0.2825166881 -0.1224669740 0.5758429766 4284507496
-0.2825684547 -0.1218495071 0.5759485960 4286152321
-0.2830528319 -0.1214173511 0.5769358277 4288060318
-0.2831042111 -0.1207982600 0.5770405531 4288849834
-0.2831553519 -0.1201788336 0.5771448016 4289047216
-0.2836392820 -0.1197418869 0.5781311393 4289441974
-0.2836900055 -0.1191208363 0.5782345533 4289178548
-0.2837404907 -0.1184994653 0.5783374310 4288257446
-0.2837907374 -0.1178777516 0.5784398317 4287731874
-0.2838407159 -0.1172557175 0.5785417557 4288192425
-0.2838904560 -0.1166333482 0.5786431432 4289574076
-0.2839399576 -0.1160106584 0.5787439942 4290100420
-0.2839891911 -0.1153876409 0.5788443685 4289969349
-0.2840381861 -0.1147643030 0.5789442658 4289837763
-0.2840869427 -0.1141406447 0.5790436268 4289903556
-0.2841354311 -0.1135166585 0.5791425109 4289969349
-0.2841837108 -0.1128923595 0.5792408586 4289968836
-0.2842316926 -0.1122677401 0.5793386698 4290889938
-0.2952837050 -0.1825806051 0.6032311916 4289705409
-0.2923876345 -0.1801262349 0.5973148346 4289901760
-0.2933101058 -0.1800287813 0.5991992950 4289901760
-0.2912607193 -0.1781097949 0.5950126648 4290361797
-0.2875113487 -0.1751644015 0.5873531103 4290559176
-0.2812110782 -0.1706877351 0.5744823813 4290099139
-0.2783066034 -0.1682931036 0.5685489178 4290362311
-0.2771004736 -0.1669347733 0.5660849214 4290427586
-0.2758935094 -0.1655814350 0.5636191964 4290361793
-0.2756035924 -0.1641563177 0.5630269647 4290427067
-0.2752454877 -0.1633182615 0.5622953773 4290427586
-0.2753124833 -0.1627331078 0.5624321699 4288256417
-0.2753792405 -0.1621475220 0.5625686049 4286941058
-0.2754458189 -0.1615615189 0.5627046227 4287796367
-0.2755121887 -0.1609750837 0.5628401637 4288585864
-0.2760042548 -0.1606361270 0.5638454556 4288914829
-0.2760702968 -0.1600479335 0.5639803410 4288914305
-0.2761361301 -0.1594593376 0.5641148686 4289901200
-0.2762017548 -0.1588703096 0.5642489195 4289506969
-0.2762671709 -0.1582808644 0.5643824935 4287072628
-0.2763323486 -0.1576909870 0.5645157099 4287468181
-0.2763973475 -0.1571007073 0.5646484494 4289770936
-0.2768887281 -0.1567515433 0.5656523705 4289968067
-0.2769533992 -0.1561595201 0.5657844543 4289836481
-0.2770178318 -0.1555670798 0.5659160614 4290032058
-0.2770820558 -0.1549742222 0.5660472512 4290097851
-0.2775731087 -0.1546188295 0.5670503974 4289770685
-0.2776370049 -0.1540242434 0.5671809316 4289968064
-0.2777006626 -0.1534292549 0.5673110485 4290033600
-0.2777641416 -0.1528338343 0.5674406886 4290033600
-0.2778273821 -0.1522380263 0.5675698519 4290033600
-0.2778903842 -0.1516418010 0.5676985979 4290428358
-0.2779531777 -0.1510451734 0.5678268671 4289770428
-0.2780157626 -0.1504481435 0.5679547191 4287138708
-0.2780781388 -0.1498507112 0.5680821538 4285361779
-0.2781402767 -0.1492528766 0.5682091117 4284967021
-0.2782022059 -0.1486546397 0.5683355927 4285097834
