VERSION 0.7
FIELDS x y z rgba
SIZE 4 4 4 4
TYPE F F F U
COUNT 1 1 1 1
WIDTH 920
HEIGHT 1
VIEWPOINT 0.0 0.0 0.0 1.0 0.0 0.0 0.0
POINTS 920
DATA ascii
-0.3148838580 -0.1430108696 0.5444456339 4289242277
-0.3149492145 -0.1424355209 0.5445586443 4289505965
-0.3145259619 -0.1416398585 0.5438267589 4289834930
-0.3141022325 -0.1408456415 0.5430941582 4290030510
-0.3136780858 -0.1400528401 0.5423608422 4289833131
-0.3132535219 -0.1392614841 0.5416266918 4290226347
-0.3128284812 -0.1384715736 0.5408918262 4290226347
-0.3124030232 -0.1376830935 0.5401561856 4290292660
-0.3119771481 -0.1368960589 0.5394198298 4290095281
-0.3115508258 -0.1361104697 0.5386826992 4290030001
-0.3111240566 -0.1353263408 0.5379447937 4290161587
-0.3111861646 -0.1347555220 0.5380521417 4289833133
-0.3107586205 -0.1339734048 0.5373129249 4289898926
-0.3103306592 -0.1331927329 0.5365729928 4289439143
-0.3099022806 -0.1324135214 0.5358322859 4289636522
-0.3094734550 -0.1316357702 0.5350908637 4288716701
-0.3090442121 -0.1308594793 0.5343486667 4288321943
-0.3086145222 -0.1300846636 0.5336056948 4288059028
-0.3081844151 -0.1293113232 0.5328620076 4287335305
-0.3077538610 -0.1285394579 0.5321176052 4287992976
-0.3073229194 -0.1277690530 0.5313724875 4288058769
-0.3073817492 -0.1272030175 0.5314742327 4288715671
-0.3069500327 -0.1264346838 0.5307277441 4289110429
-0.3070083261 -0.1258689016 0.5308285356 4288979623
-0.3065758348 -0.1251026243 0.5300807357 4289703346
-0.3061429262 -0.1243378520 0.5293322206 4289900470
-0.3057096004 -0.1235745624 0.5285829902 4289900470
-0.3052758276 -0.1228127703 0.5278329849 4289110956
-0.3053325415 -0.1222490147 0.5279310942 4288847784
-0.3048980534 -0.1214893162 0.5271797776 4288584610
-0.3044631183 -0.1207311153 0.5264278054 4289637298
-0.3045189381 -0.1201682389 0.5265243053 4289374639
-0.3035919964 -0.1192192361 0.5249215961 4289769397
-0.3036471605 -0.1186575592 0.5250169635 4289506225
-0.3032106459 -0.1179044843 0.5242621899 4289374639
-0.3027736843 -0.1171529293 0.5235067010 4289440434
-0.3028279543 -0.1165921614 0.5236005187 4289637813
-0.3023902774 -0.1158427373 0.5228437781 4288716711
-0.3024439514 -0.1152822822 0.5229365826 4289966778
-0.3020055294 -0.1145349890 0.5221785307 4291217872
-0.3020586371 -0.1139748469 0.5222703218 4290823114
-0.3021115065 -0.1134144217 0.5223617554 4289506484
-0.3016720116 -0.1126698926 0.5216018558 4289506484
-0.3012320995 -0.1119268984 0.5208412409 4289637561
-0.3007917702 -0.1111854464 0.5200799108 4289637561
-0.3003510535 -0.1104455367 0.5193178654 4288980659
-0.2999098897 -0.1097071618 0.5185551047 4288980659
-0.2994683385 -0.1089703366 0.5177916288 4289375930
-0.2995190024 -0.1084133759 0.5178792477 4288718000
-0.2990767062 -0.1076787338 0.5171145201 4288652721
-0.2991268039 -0.1071221232 0.5172011256 4287665826
-0.2991766632 -0.1065652296 0.5172873139 4287730851
-0.2992262840 -0.1060080603 0.5173730850 4288191402
-0.2997686863 -0.1056243405 0.5183109641 4288520371
-0.3003109992 -0.1052385122 0.5192486644 4289178301
-0.3008532524 -0.1048505679 0.5201861858 4290033346
-0.3009021282 -0.1042895392 0.5202707052 4290428104
-0.3014441133 -0.1038982868 0.5212078094 4290822862
-0.3014925718 -0.1033357978 0.5212916136 4291086034
-0.3020343184 -0.1029412448 0.5222283006 4291414999
-0.3020823598 -0.1023772955 0.5223113298 4291678171
-0.3026238084 -0.1019794345 0.5232475996 4291612632
-0.3026714325 -0.1014140248 0.5233299136 4291349460
-0.3032126427 -0.1010128632 0.5242656469 4291152081
-0.3037537634 -0.1006095931 0.5252012610 4291349460
-0.3042947650 -0.1002042145 0.5261366963 4291546837
-0.3043416142 -0.0996349752 0.5262176991 4291546837
-0.3048823476 -0.0992262959 0.5271526575 4291481044
-0.3054229617 -0.0988155007 0.5280873775 4291481044
-0.3054692149 -0.0982436314 0.5281673670 4291546837
-0.3060095608 -0.0978295431 0.5291016102 4291612630
-0.3065497875 -0.0974133462 0.5300357342 4291678421
-0.3070899248 -0.0969950408 0.5309696198 4291546835
-0.3071353734 -0.0964193642 0.5310481787 4291612628
-0.3140383363 -0.1549903750 0.5440284014 4288324261
-0.3175068796 -0.1560911089 0.5500372052 4288455077
-0.3180631697 -0.1557523906 0.5510008931 4288389284
-0.3181337416 -0.1551746130 0.5511232018 4288585636
-0.3186899126 -0.1548324823 0.5520866513 4288783015
-0.3187601268 -0.1542530507 0.5522083044 4289308588
-0.3188301027 -0.1536732465 0.5523295403 4289571760
-0.3184137344 -0.1528596729 0.5516082048 4289834162
-0.3179969192 -0.1520475000 0.5508860946 4289899955
-0.3175796568 -0.1512367129 0.5501632690 4289899955
-0.3176483810 -0.1506580561 0.5502823591 4289834162
-0.3172303438 -0.1498491764 0.5495581031 4289966000
-0.3168118298 -0.1490416974 0.5488331318 4289966000
-0.3163928986 -0.1482356340 0.5481073856 4290097586
-0.3160406649 -0.1468539834 0.5474972129 4287860111
-0.3161076009 -0.1462766379 0.5476131439 4288452248
-0.3156870902 -0.1454744339 0.5468846560 4287793548
-0.3152661622 -0.1446736306 0.5461554527 4287135618
-0.3148447871 -0.1438742578 0.5454254746 4287267202
-0.3149104416 -0.1432981342 0.5455392599 4287859339
-0.3144882917 -0.1425007135 0.5448079109 4288583062
-0.3140656948 -0.1417047232 0.5440758467 4289306785
-0.3136426806 -0.1409101635 0.5433430076 4289898922
-0.3132191896 -0.1401170343 0.5426093936 4290030508
-0.3127953112 -0.1393253356 0.5418750048 4290030508
-0.3123709559 -0.1385350823 0.5411399007 4290162094
-0.3119461834 -0.1377462745 0.5404040813 4289965235
-0.3115209639 -0.1369588971 0.5396674275 4289767856
-0.3110953271 -0.1361729801 0.5389300585 4289438892
-0.3106692433 -0.1353885084 0.5381919742 4289899443
-0.3107313216 -0.1348174661 0.5382994413 4289767856
-0.3098157942 -0.1338239163 0.5367134809 4289899442
-0.3098771870 -0.1332539916 0.5368198156 4289965489
-0.3094494641 -0.1324744523 0.5360788703 4289702317
-0.3090213239 -0.1316963583 0.5353371501 4289637035
-0.3085927665 -0.1309197396 0.5345947146 4289373863
-0.3081637621 -0.1301445961 0.5338515639 4289111205
-0.3077343404 -0.1293709278 0.5331076384 4288584861
-0.3073045015 -0.1285987198 0.5323629379 4288716960
-0.3073636293 -0.1280318648 0.5324654579 4288190616
-0.3069330156 -0.1272617131 0.5317194462 4288124564
-0.3065019846 -0.1264930516 0.5309727192 4287992978
-0.3065602183 -0.1259270161 0.5310736299 4288387484
-0.3061284423 -0.1251604259 0.5303255916 4289308586
-0.3056962192 -0.1243953109 0.5295768380 4288716451
-0.3052635789 -0.1236316934 0.5288273692 4289440174
-0.3048304915 -0.1228695661 0.5280771255 4289703346
-0.3048871756 -0.1223055720 0.5281752944 4289571760
-0.3044533730 -0.1215455383 0.5274237990 4289440174
-0.3040191233 -0.1207870096 0.5266715288 4289505967
-0.3040749133 -0.1202238947 0.5267681479 4289374381
-0.3036399186 -0.1194674671 0.5260145664 4289703346
-0.3032045066 -0.1187125519 0.5252602696 4289440432
-0.3027686775 -0.1179591566 0.5245052576 4289440432
-0.3028232157 -0.1173975393 0.5245997906 4289440432
-0.3023866415 -0.1166462600 0.5238434672 4289506225
-0.3024406135 -0.1160849556 0.5239369869 4288716711
-0.3020032942 -0.1153358072 0.5231793523 4290229950
-0.3015655577 -0.1145881861 0.5224210620 4291217872
-0.3016186357 -0.1140278056 0.5225130320 4290362563
-0.3016714752 -0.1134671345 0.5226045847 4288388775
-0.3012326658 -0.1127222776 0.5218443871 4287796638
-0.3007934690 -0.1119789630 0.5210834742 4287270294
-0.3003538251 -0.1112371832 0.5203219056 4287072915
-0.2999137938 -0.1104969382 0.5195595622 4287402139
-0.2994733155 -0.1097582430 0.5187965631 4288454827
-0.2995242774 -0.1092004031 0.5188848376 4289704895
-0.2990831137 -0.1084638834 0.5181205273 4289968067
-0.2991335094 -0.1079063937 0.5182078481 4290231239
-0.2986915708 -0.1071720645 0.5174422860 4289836481
-0.2987414002 -0.1066149324 0.5175285935 4290296778
-0.2987909913 -0.1060575247 0.5176144838 4291086294
-0.2993326485 -0.1056736410 0.5185528398 4291416031
-0.2998742461 -0.1052876413 0.5194910765 4291284445
-0.2999232411 -0.1047275662 0.5195759535 4291415253
-0.3004645705 -0.1043382585 0.5205137730 4291415253
-0.3010058105 -0.1039468423 0.5214514136 4291349460
-0.3015469909 -0.1035533100 0.5223888755 4291020495
-0.3015952408 -0.1029893830 0.5224725008 4290757321
-0.3021361530 -0.1025925428 0.5234094858 4290428356
-0.3021839857 -0.1020271480 0.5234923959 4289770426
-0.3027246296 -0.1016270071 0.5244289637 4289112496
-0.3027720451 -0.1010601595 0.5245111585 4289046703
-0.3033124208 -0.1006567180 0.5254472494 4290428356
-0.3038526773 -0.1002511606 0.5263831615 4291481042
-0.3038994968 -0.0996816680 0.5264642835 4291546835
-0.3044394851 -0.0992728099 0.5273997784 4291415249
-0.3049793839 -0.0988618433 0.5283350348 4291546835
-0.3050256073 -0.0982897133 0.5284150839 4291546835
-0.3055652082 -0.0978754461 0.5293498635 4291415249
-0.3061046898 -0.0974590704 0.5302844644 4291678421
-0.3066440821 -0.0970405787 0.5312188864 4291546835
-0.3066895008 -0.0964646414 0.5312975645 4291481042
-0.3155147731 -0.1560192555 0.5476398468 4288520870
-0.3171103001 -0.1555851400 0.5504092574 4288389284
-0.3176657259 -0.1552450359 0.5513732433 4288586150
-0.3177360296 -0.1546666324 0.5514953136 4288586150
-0.3178060949 -0.1540878564 0.5516169071 4288914600
-0.3183612525 -0.1537430733 0.5525804758 4289177772
-0.3184309602 -0.1531626433 0.5527014732 4289374638
-0.3185004294 -0.1525818408 0.5528220534 4289572017
-0.3180840611 -0.1517689377 0.5520993471 4289703604
-0.3171814978 -0.1507266313 0.5505328178 4289703604
-0.3172499835 -0.1501473486 0.5506516695 4289769135
-0.3168322444 -0.1493386477 0.5499266386 4289769135
-0.3169001341 -0.1487594992 0.5500444770 4289835443
-0.3164816499 -0.1479527205 0.5493180752 4288914341
-0.3155764639 -0.1469209641 0.5477469563 4288453279
-0.3156433403 -0.1463433951 0.5478630066 4289440174
-0.3152235150 -0.1455408484 0.5471343398 4289044387
-0.3148032725 -0.1447397172 0.5464048982 4288386457
-0.3148692250 -0.1441628188 0.5465193987 4288121741
-0.3144482076 -0.1433636397 0.5457885861 4287463811
-0.3140267134 -0.1425658762 0.5450570583 4287069051
-0.3136048019 -0.1417695582 0.5443247557 4287661188
-0.3131824732 -0.1409746557 0.5435916781 4288780441
-0.3127596676 -0.1401811838 0.5428578258 4289306785
-0.3123364449 -0.1393891573 0.5421232581 4289176484
-0.3119128048 -0.1385985613 0.5413879156 4289900207
-0.3114886880 -0.1378094107 0.5406517982 4289768370
-0.3110641837 -0.1370217055 0.5399149060 4288913061
-0.3106392026 -0.1362354606 0.5391772985 4288978854
-0.3102138042 -0.1354506463 0.5384389758 4289702577
-0.3102758229 -0.1348793656 0.5385466218 4289636784
-0.3093617260 -0.1338853985 0.5369600058 4289768370
-0.3089350164 -0.1331049502 0.5362193584 4289965235
-0.3089960515 -0.1325353533 0.5363252759 4289833649
-0.3085685968 -0.1317569315 0.5355833769 4289899442
-0.3081406951 -0.1309799850 0.5348407030 4289702063
-0.3077124059 -0.1302044988 0.5340972543 4289505967
-0.3072836399 -0.1294304878 0.5333530903 4289177002
-0.3068544865 -0.1286579520 0.5326081514 4289111466
-0.3069136143 -0.1280908585 0.5327107906 4288387743
-0.3069724739 -0.1275234371 0.5328129530 4287927705
-0.3065422177 -0.1267535388 0.5320661664 4287532947
-0.3061115444 -0.1259851158 0.5313186049 4287532175
-0.3056804240 -0.1252181828 0.5305703282 4288255898
-0.3052488863 -0.1244527400 0.5298213363 4288124312
-0.3053061962 -0.1238873228 0.5299208164 4288913828
-0.3048739135 -0.1231239662 0.5291704535 4288321691
-0.3044411838 -0.1223620996 0.5284194350 4288387484
-0.3040080667 -0.1216017380 0.5276676416 4289374379
-0.3035745025 -0.1208428741 0.5269150734 4289111207
-0.3036302626 -0.1202795208 0.5270118713 4289505967
-0.3031959534 -0.1195227653 0.5262580514 4289637553
-0.3027612269 -0.1187675223 0.5255035162 4289439919
-0.3028160632 -0.1182050630 0.5255987048 4289637298
-0.3023805916 -0.1174519360 0.5248428583 4289571505
-0.3024348915 -0.1168897748 0.5249370337 4289505712
-0.3019986749 -0.1161387786 0.5241799355 4288781989
-0.3020523787 -0.1155769303 0.5242731571 4290492607
-0.3016154170 -0.1148280725 0.5235146880 4291546069
-0.3011780381 -0.1140807346 0.5227555633 4290953932
-0.3012308478 -0.1135198250 0.5228472352 4289507256
-0.3007927537 -0.1127746403 0.5220867991 4289638842
-0.3008449972 -0.1122140512 0.5221774578 4289574076
-0.2999152541 -0.1112888828 0.5205637217 4289705662
-0.2994759083 -0.1105483174 0.5198011398 4290034629
-0.2995271683 -0.1099896058 0.5198901296 4290758352
-0.2990870774 -0.1092512161 0.5191262960 4291415000
-0.2991377711 -0.1086928472 0.5192142725 4291415000
-0.2986969650 -0.1079566404 0.5184491277 4291283414
-0.2987470925 -0.1073986292 0.5185361505 4291349207
-0.2987969518 -0.1068403348 0.5186226964 4291283927
-0.2988466024 -0.1062817574 0.5187088847 4290823376
-0.2988960147 -0.1057229117 0.5187945962 4290495440
-0.2994368374 -0.1053367481 0.5197333694 4290034889
-0.2999776006 -0.1049484760 0.5206719041 4289705146
-0.3000264168 -0.1043869555 0.5207566619 4289376181
-0.3005669117 -0.1039953679 0.5216948390 4288981423
-0.3011073470 -0.1036016718 0.5226328373 4288586665
-0.3016476631 -0.1032058522 0.5235706568 4288455079
-0.3016957343 -0.1026404798 0.5236541033 4288718251
-0.3022357821 -0.1022413597 0.5245915055 4288849324
-0.3027757704 -0.1018401235 0.5255287290 4288586152
-0.3023308516 -0.1011074334 0.5247564912 4289441461
-0.3028704524 -0.1007038131 0.5256931186 4290757321
-0.3034099936 -0.1002980769 0.5266295671 4291678423
-0.3034567833 -0.0997283384 0.5267107487 4291546837
-0.3039960265 -0.0993193015 0.5276467204 4291283665
-0.3045351803 -0.0989081562 0.5285825133 4291415251
-0.3045813739 -0.0983357728 0.5286627412 4291481042
-0.3051202297 -0.0979213268 0.5295979977 4291415249
-0.3056589961 -0.0975047648 0.5305331349 4291612630
-0.3061976135 -0.0970860943 0.5314680338 4291612630
-0.3067361712 -0.0966653079 0.5324028134 4291349458
-0.3131133020 -0.1551308036 0.5445213318 4288586663
-0.3165717721 -0.1562326103 0.5505357981 4288586663
-0.3166424036 -0.1556556374 0.5506586432 4288520870
-0.3171970546 -0.1553153992 0.5516232252 4288651943
-0.3177516758 -0.1549730152 0.5525877476 4288651943
-0.3178218305 -0.1543931216 0.5527097583 4288783529
-0.3178917468 -0.1538128555 0.5528312922 4288849322
-0.3179614246 -0.1532322019 0.5529524684 4289046187
-0.3175460398 -0.1524184495 0.5522301197 4289243566
-0.3176151514 -0.1518379301 0.5523502827 4289506738
-0.3171989918 -0.1510260850 0.5516266227 4289638324
-0.3167824149 -0.1502156407 0.5509021282 4289703603
-0.3163653910 -0.1494066119 0.5501769185 4289769396
-0.3159479201 -0.1485989690 0.5494508743 4289835189
-0.3160154223 -0.1480201185 0.5495682955 4288848294
-0.3151116371 -0.1469879150 0.5479965210 4288914088
-0.3156641126 -0.1466356963 0.5489573479 4289769397
-0.3147593141 -0.1456072181 0.5473838449 4289834160
-0.3143397570 -0.1448057443 0.5466542244 4289636781
-0.3144056797 -0.1442286223 0.5467688441 4289503653
-0.3139853179 -0.1434291005 0.5460378528 4288516758
-0.3140506744 -0.1428521425 0.5461514592 4287858569
-0.3131432831 -0.1418343484 0.5445734859 4287924362
-0.3127216399 -0.1410391033 0.5438401699 4288451219
-0.3122995198 -0.1402453035 0.5431061387 4288253840
-0.3118769825 -0.1394529343 0.5423712730 4288123281
-0.3114539981 -0.1386620104 0.5416356921 4289570727
-0.3110305965 -0.1378725320 0.5408993959 4289505197
-0.3106067479 -0.1370844841 0.5401622653 4288189337
-0.3101824522 -0.1362978965 0.5394244194 4288913060
-0.3097577393 -0.1355127543 0.5386858582 4289899955
-0.3098197281 -0.1349412352 0.5387936234 4289374381
-0.3093942702 -0.1341581047 0.5380536914 4289177002
-0.3084810078 -0.1331660599 0.5364655256 4289505197
-0.3085420132 -0.1325962096 0.5365716219 4289768369
-0.3081152439 -0.1318174601 0.5358294249 4289636783
-0.3076880276 -0.1310401708 0.5350865126 4289636783
-0.3072603941 -0.1302643567 0.5343428254 4289702577
-0.3068323433 -0.1294900179 0.5335984230 4289702577
-0.3064038455 -0.1287171543 0.5328532457 4289637811
-0.3064629436 -0.1281498224 0.5329560041 4289308846
-0.3065217733 -0.1275821626 0.5330583453 4289309359
-0.3060922027 -0.1268119216 0.5323112607 4289177773
-0.3056622148 -0.1260431707 0.5315634608 4288782242
-0.3052317798 -0.1252759099 0.5308149457 4288519070
-0.3048009276 -0.1245101318 0.5300656557 4288255896
-0.3048582077 -0.1239444837 0.5301653147 4288519068
-0.3044266105 -0.1231807917 0.5294147134 4287861138
-0.3039945960 -0.1224185973 0.5286633968 4287992724
-0.3040509522 -0.1218538061 0.5287614465 4288782242
-0.3031292856 -0.1208987087 0.5271585584 4288519070
-0.3031849861 -0.1203351170 0.5272554755 4289374381
-0.3027513623 -0.1195780337 0.5265013576 4289637553
-0.3023173511 -0.1188224554 0.5257465839 4289505712
-0.3023721576 -0.1182597578 0.5258418918 4289637298
-0.3019373715 -0.1175063029 0.5250858068 4289571505
-0.3019916415 -0.1169439033 0.5251801610 4289505712
-0.3015561104 -0.1161925793 0.5244227052 4288782244
-0.3016097844 -0.1156304851 0.5245161057 4290492862
-0.3011735082 -0.1148812994 0.5237573981 4291282897
-0.3007368147 -0.1141336411 0.5229979753 4291875034
-0.3007896245 -0.1135724783 0.5230897665 4291349458
-0.3003521860 -0.1128269732 0.5223290324 4291349458
-0.3004043996 -0.1122661382 0.5224198699 4291349458
-0.2994760871 -0.1113405675 0.5208054781 4291546837
-0.2990374267 -0.1105996743 0.5200425982 4291217874
-0.2985983491 -0.1098603234 0.5192790627 4290757323
-0.2986492813 -0.1093019992 0.5193675756 4290428104
-0.2986999452 -0.1087433919 0.5194556713 4290033346
-0.2982597947 -0.1080068573 0.5186902881 4289637819
-0.2983098924 -0.1074486002 0.5187774301 4289506233
-0.2983597517 -0.1068900600 0.5188640952 4288980659
-0.2984093726 -0.1063312441 0.5189504027 4288125350
-0.2984587550 -0.1057721525 0.5190362334 4287862691
-0.2989988327 -0.1053858250 0.5199754834 4287994277
-0.2995388508 -0.1049973890 0.5209146142 4288191653
-0.3000787795 -0.1046068296 0.5218535662 4288652204
-0.3001273870 -0.1040438712 0.5219381452 4289244341
-0.3006670773 -0.1036500037 0.5228766799 4289770685
-0.3012066483 -0.1032540202 0.5238150358 4290296772
-0.3012546897 -0.1026884019 0.5238985419 4290823116
-0.3017940223 -0.1022891030 0.5248364806 4291152081
-0.3023332357 -0.1018876955 0.5257741809 4291152081
-0.3018890023 -0.1011546776 0.5250016451 4291217874
-0.3029196262 -0.1009147018 0.5267940164 4291415253
-0.3029666543 -0.1003449708 0.5268757939 4291481046
-0.3035053313 -0.0999369547 0.5278126001 4291481046
-0.3035519421 -0.0993657708 0.5278936028 4291546069
-0.3040903509 -0.0989544392 0.5288299322 4291546069
-0.3046286404 -0.0985409990 0.5297660232 4291611862
-0.3046746254 -0.0979671776 0.5298460126 4291743448
-0.3052126467 -0.0975504369 0.5307816267 4291612630
-0.3057505488 -0.0971315876 0.5317170620 4291678423
-0.3062883317 -0.0967106149 0.5326523185 4291217872
-0.3136163056 -0.1556807160 0.5464515686 4288651945
-0.3151365817 -0.1558253020 0.5491005182 4288651943
-0.3166572750 -0.1559642106 0.5517502427 4288717736
-0.3172113001 -0.1556229740 0.5527155399 4288651943
-0.3172816336 -0.1550432295 0.5528380871 4288783529
-0.3173517287 -0.1544631124 0.5529602170 4288783529
-0.3174215853 -0.1538825929 0.5530819893 4288783529
-0.3170072436 -0.1530680209 0.5523599982 4288849322
-0.3170765340 -0.1524876356 0.5524807572 4288915115
-0.3166614175 -0.1516749412 0.5517574549 4289112494
-0.3162458539 -0.1508636624 0.5510333180 4289309873
-0.3163142204 -0.1502839029 0.5511524677 4289769399
-0.3158978820 -0.1494745314 0.5504270196 4289900985
-0.3154810667 -0.1486665606 0.5497007966 4289966776
-0.3160332739 -0.1483149379 0.5506629348 4289177260
-0.3146461546 -0.1470548362 0.5482460260 4289308845
-0.3151978850 -0.1467024833 0.5492073298 4289637810
-0.3147795200 -0.1458983570 0.5484783649 4289571760
-0.3143607080 -0.1450956613 0.5477486253 4289703346
-0.3139414787 -0.1442943811 0.5470181704 4289899955
-0.3135218024 -0.1434945315 0.5462869406 4289702576
-0.3135871291 -0.1429173350 0.5464007258 4289504938
-0.3126811385 -0.1418990940 0.5448220968 4288912801
-0.3122601509 -0.1411035210 0.5440886021 4288319379
-0.3118387163 -0.1403093934 0.5433542728 4287529863
-0.3114168644 -0.1395166814 0.5426192284 4287793289
-0.3109945655 -0.1387254298 0.5418834090 4289438114
-0.3105718493 -0.1379356086 0.5411468148 4289109408
-0.3101486862 -0.1371472329 0.5404095054 4288188306
-0.3102113008 -0.1365743726 0.5405186415 4288978592
-0.3097873628 -0.1357879937 0.5397799611 4289965487
-0.3093630075 -0.1350030750 0.5390405655 4289110437
-0.3089382052 -0.1342196018 0.5383003354 4288781472
-0.3085129857 -0.1334375888 0.5375594497 4289505965
-0.3080873191 -0.1326570362 0.5368177891 4289703344
-0.3076612353 -0.1318779588 0.5360753536 4289703346
-0.3072347343 -0.1311003417 0.5353321433 4289703346
-0.3068077862 -0.1303241998 0.5345882177 4289702577
-0.3063803911 -0.1295495182 0.5338435769 4289636784
-0.3059526086 -0.1287763119 0.5330981612 4289702577
-0.3064989448 -0.1284129024 0.5340501070 4289505198
-0.3060704768 -0.1276408583 0.5333035588 4289571505
-0.3056415915 -0.1268702894 0.5325562358 4289571505
-0.3052122593 -0.1261011958 0.5318081975 4289900723
-0.3052701652 -0.1255341321 0.5319091082 4289045414
-0.3048401177 -0.1247671247 0.5311597586 4288453277
-0.3044096231 -0.1240016073 0.5304096341 4288584863
-0.3039787114 -0.1232375875 0.5296587944 4287926933
-0.3035473526 -0.1224750578 0.5289072394 4288255898
-0.3036037087 -0.1219100356 0.5290054083 4288650658
-0.3031716347 -0.1211496070 0.5282525420 4287203212
-0.3027391136 -0.1203906834 0.5274989009 4289045161
-0.3023061752 -0.1196332648 0.5267446041 4289571505
-0.3018728495 -0.1188773662 0.5259895325 4289571507
-0.3019276261 -0.1183144227 0.5260849595 4289571507
-0.3014935255 -0.1175606400 0.5253285766 4289439921
-0.3015477657 -0.1169980019 0.5254231095 4289571507
-0.3011129200 -0.1162463501 0.5246654153 4288913575
-0.3006776571 -0.1154962182 0.5239070058 4290558400
-0.3007310033 -0.1149344966 0.5239999294 4291283667
-0.3002949953 -0.1141865104 0.5232402682 4290691530
-0.3003477454 -0.1136251092 0.5233321786 4289836219
-0.2999110222 -0.1128792763 0.5225712061 4289967805
-0.2999632061 -0.1123182029 0.5226621032 4289967035
-0.2990362942 -0.1113922149 0.5210470557 4289111726
-0.2985983491 -0.1106509939 0.5202839375 4288256419
-0.2981599569 -0.1099113226 0.5195201039 4287730075
-0.2982108295 -0.1093527600 0.5196087956 4287401626
-0.2982614934 -0.1087939069 0.5196970105 4287993763
-0.2978220284 -0.1080570444 0.5189313293 4288586414
-0.2978721261 -0.1074985489 0.5190185905 4288783793
-0.2979219556 -0.1069397703 0.5191053748 4289178038
-0.2979715168 -0.1063807085 0.5191918015 4289507003
-0.2980208695 -0.1058213711 0.5192777514 4289835453
-0.2990504801 -0.1056080088 0.5210717320 4290493383
-0.2995898128 -0.1052184850 0.5220115185 4290954448
-0.2996386588 -0.1046555489 0.5220966339 4291283413
-0.2996872663 -0.1040923446 0.5221813321 4291546585
-0.3002261817 -0.1036983132 0.5231203437 4291612378
-0.3007650077 -0.1033021584 0.5240592360 4291612378
-0.3008130491 -0.1027362868 0.5241429210 4291546585
-0.3013516068 -0.1023368239 0.5250813365 4291546585
-0.3013992012 -0.1017694920 0.5251642466 4291546585
-0.3019375205 -0.1013667211 0.5261021852 4291809243
-0.3024757206 -0.1009618267 0.5270400047 4291414485
-0.3030138314 -0.1005548164 0.5279775858 4291348692
-0.3030606508 -0.0999836475 0.5280591846 4291611864
-0.3035984933 -0.0995733291 0.5289963484 4291677657
-0.3041362166 -0.0991609022 0.5299332738 4291611864
-0.3041824400 -0.0985870883 0.5300137997 4291546071
-0.3047198951 -0.0981713533 0.5309502482 4291546071
-0.3047656715 -0.0975960866 0.5310300589 4291612628
-0.3053028286 -0.0971770510 0.5319659710 4291744214
-0.3058398664 -0.0967558995 0.5329017639 4291152077
-0.3161167502 -0.1566130370 0.5518764257 4288586152
-0.3166701198 -0.1562729478 0.5528424978 4288651945
-0.3172234595 -0.1559307128 0.5538085103 4288586150
-0.3172938526 -0.1553498507 0.5539314151 4288717736
-0.3173640370 -0.1547686160 0.5540539026 4288652458
-0.3169507980 -0.1539523005 0.5533325076 4288652458
-0.3170204163 -0.1533711851 0.5534540415 4288718249
-0.3166064024 -0.1525567621 0.5527312160 4288784042
-0.3161919415 -0.1517437398 0.5520076752 4288915115
-0.3162606359 -0.1511632502 0.5521275997 4289112494
-0.3158454001 -0.1503521353 0.5514026880 4289637559
-0.3159134984 -0.1497717798 0.5515215993 4289769145
-0.3150135875 -0.1487341076 0.5499505401 4289834677
-0.3151482344 -0.1475750804 0.5501855612 4289703346
-0.3147310019 -0.1467692107 0.5494571924 4289637553
-0.3143133223 -0.1459647715 0.5487279892 4289506224
-0.3138952255 -0.1451617330 0.5479980707 4289703603
-0.3134766519 -0.1443601102 0.5472673178 4289637811
-0.3135422766 -0.1437821537 0.5473818779 4289703604
-0.3131229281 -0.1429824829 0.5466498137 4289834677
-0.3127031624 -0.1421842575 0.5459169745 4289637298
-0.3122829795 -0.1413874477 0.5451834202 4289832879
-0.3113773167 -0.1403734386 0.5436022878 4289306535
-0.3109561205 -0.1395803988 0.5428670049 4288582551
-0.3110197186 -0.1390056610 0.5429780483 4288253586
-0.3105977774 -0.1382146031 0.5422413945 4288253327
-0.3096899986 -0.1372099370 0.5406565666 4287792776
-0.3097525835 -0.1366368383 0.5407658815 4288056461
-0.3093293309 -0.1358501315 0.5400269628 4288714391
-0.3089056611 -0.1350648701 0.5392872691 4287794318
-0.3084815443 -0.1342810690 0.5385468602 4287794318
-0.3080570102 -0.1334987283 0.5378056765 4289703344
-0.3076320291 -0.1327178478 0.5370637774 4289703344
-0.3072066307 -0.1319384277 0.5363211036 4289769139
-0.3062946200 -0.1309526116 0.5347289443 4289703346
-0.3063545227 -0.1303839982 0.5348335505 4289702576
-0.3059278429 -0.1296089888 0.5340886116 4289636783
-0.3055007160 -0.1288354546 0.5333429575 4289833650
-0.3060463071 -0.1284718961 0.5342954397 4289899443
-0.3056185246 -0.1276995093 0.5335486531 4290031029
-0.3051903248 -0.1269286126 0.5328010917 4289965236
-0.3047617078 -0.1261591911 0.5320527554 4289703346
-0.3048195839 -0.1255918890 0.5321538448 4289571760
-0.3043901920 -0.1248245537 0.5314041972 4289308588
-0.3039603829 -0.1240587011 0.5306538343 4289505967
-0.3035301566 -0.1232943460 0.5299027562 4288519072
-0.3030995131 -0.1225314960 0.5291509628 4288716451
-0.3031558394 -0.1219662279 0.5292492509 4289374126
-0.3027244210 -0.1212054715 0.5284961462 4287202957
-0.3022926152 -0.1204462200 0.5277422667 4288781991
-0.3018603623 -0.1196884736 0.5269876719 4289505714
-0.3014277220 -0.1189322397 0.5262323022 4289637300
-0.3014824688 -0.1183690578 0.5263279080 4289571507
-0.3010490835 -0.1176149473 0.5255712867 4289374128
-0.3011032641 -0.1170520708 0.5256658792 4289571507
-0.3006691337 -0.1163000837 0.5249079466 4289045163
-0.3002345562 -0.1155496314 0.5241492987 4290689988
-0.3002878726 -0.1149876714 0.5242423415 4291481555
-0.2998525500 -0.1142393574 0.5234823823 4289705144
-0.2999052703 -0.1136777177 0.5235744715 4288257187
-0.2994692326 -0.1129315495 0.5228132010 4288849324
-0.2990327775 -0.1121869236 0.5220512152 4289572277
-0.2990846038 -0.1116262302 0.5221416950 4289243312
-0.2986474335 -0.1108837724 0.5213784575 4289243312
-0.2982098162 -0.1101428568 0.5206145048 4289309105
-0.2977718115 -0.1094034836 0.5198498368 4289902271
-0.2978224158 -0.1088443920 0.5199381709 4290231236
-0.2978727818 -0.1082850173 0.5200260878 4290560973
-0.2974337041 -0.1075484678 0.5192595720 4290232008
-0.2974835038 -0.1069894433 0.5193465352 4289968067
-0.2975330651 -0.1064301431 0.5194330215 4289639102
-0.2975823879 -0.1058705598 0.5195191503 4289375416
-0.2981210053 -0.1054839045 0.5204594135 4290559690
-0.2991491258 -0.1052674279 0.5222543478 4291414999
-0.2991979420 -0.1047042459 0.5223395824 4291612378
-0.2992465198 -0.1041407958 0.5224243402 4291546585
-0.2997846901 -0.1037465930 0.5233638883 4291480792
-0.3003227711 -0.1033502668 0.5243033171 4291611864
-0.3008607626 -0.1029518321 0.5252425075 4291677657
-0.3009085953 -0.1023845151 0.5253260136 4291677655
-0.3014463186 -0.1019827649 0.5262647867 4291743448
-0.3014937341 -0.1014139876 0.5263475180 4291546069
-0.3020311892 -0.1010089219 0.5272858143 4291480276
-0.3025685549 -0.1006017402 0.5282239914 4291611862
-0.3031058013 -0.1001924425 0.5291619301 4291677655
-0.3031524420 -0.0996198282 0.5292433500 4291611862
-0.3036894202 -0.0992072150 0.5301808119 4291677655
-0.3042263091 -0.0987924933 0.5311180949 4291677655
-0.3042722940 -0.0982172340 0.5311983824 4291480276
-0.3048089147 -0.0977992043 0.5321351886 4291612628
-0.3048544824 -0.0972224921 0.5322147608 4291810007
-0.3053907752 -0.0968011618 0.5331510305 4291020491
-0.3146118224 -0.1567817181 0.5503161550 4288520618
-0.3157168329 -0.1561052203 0.5522490740 4288586152
-0.3162693381 -0.1557637304 0.5532155037 4288586150
-0.3168218136 -0.1554200947 0.5541818738 4288717736
-0.3168919384 -0.1548386216 0.5543045402 4288652458
-0.3169618249 -0.1542567611 0.5544267893 4288652458
-0.3170314729 -0.1536745131 0.5545486212 4288718249
-0.3166182637 -0.1528588682 0.5538257957 4288718249
-0.3166873455 -0.1522767544 0.5539466739 4288784042
-0.3162733316 -0.1514630169 0.5532224774 4288915628
-0.3158589005 -0.1506506652 0.5524975657 4289506227
-0.3159270585 -0.1500691921 0.5526167750 4289506227
-0.3150286674 -0.1490301937 0.5510452986 4289571505
-0.3150961697 -0.1484497339 0.5511633754 4289703091
-0.3141966760 -0.1474153250 0.5495899916 4289768884
-0.3147469759 -0.1470618248 0.5505526066 4289768884
-0.3138464987 -0.1460311264 0.5489774942 4289834677
-0.3134290576 -0.1452277601 0.5482473373 4289834677
-0.3134949803 -0.1446490288 0.5483626127 4289703604
-0.3130767643 -0.1438475996 0.5476310849 4289769397
-0.3126581311 -0.1430476010 0.5468987823 4289900470
-0.3122390211 -0.1422490329 0.5461657047 4289834677
-0.3118195236 -0.1414518952 0.5454319119 4289965748
-0.3113995492 -0.1406561881 0.5446972847 4290031541
-0.3109791577 -0.1398619264 0.5439619422 4289834162
-0.3100738227 -0.1388521343 0.5423783660 4289505197
-0.3101370633 -0.1382777095 0.5424889922 4288845977
-0.3097153604 -0.1374877691 0.5417513251 4287859082
-0.3092932403 -0.1366992742 0.5410129428 4287859080
-0.3088706732 -0.1359122247 0.5402737856 4288122252
-0.3079626858 -0.1349141747 0.5386855602 4287595910
-0.3080242574 -0.1343424916 0.5387932658 4287727496
-0.3076003790 -0.1335598230 0.5380518436 4289307559
-0.3071760833 -0.1327785999 0.5373096466 4289702317
-0.3067513704 -0.1319988519 0.5365667939 4289899955
-0.3058407605 -0.1310126185 0.5349739194 4289899955
-0.3059006631 -0.1304437518 0.5350787044 4290031028
-0.3054746687 -0.1296684146 0.5343335271 4289899442
-0.3055339754 -0.1290998012 0.5344372988 4289702064
-0.3051072359 -0.1283265054 0.5336908102 4289833650
-0.3046800494 -0.1275546998 0.5329436064 4289833909
-0.3047384620 -0.1269869059 0.5330457687 4289768116
-0.3043105304 -0.1262171566 0.5322972536 4289636784
-0.3043683767 -0.1256496161 0.5323984027 4289965749
-0.3039396703 -0.1248819456 0.5316485167 4289570991
-0.3035105467 -0.1241157651 0.5308979154 4289702577
-0.3030810058 -0.1233510822 0.5301465988 4289702323
-0.3026510477 -0.1225878969 0.5293945074 4289570737
-0.3027073443 -0.1220223904 0.5294929743 4289505714
-0.3022766411 -0.1212612987 0.5287395716 4288255647
-0.3018454909 -0.1205017194 0.5279854536 4288979370
-0.3014139533 -0.1197436452 0.5272305608 4289571507
-0.3009819984 -0.1189870909 0.5264750123 4289571507
-0.3010367155 -0.1184236705 0.5265707374 4289571507
-0.3006040156 -0.1176692247 0.5258138180 4289505714
-0.3006581664 -0.1171061099 0.5259085894 4289571507
-0.3002247214 -0.1163537949 0.5251503587 4289045165
-0.2997908294 -0.1156030148 0.5243914723 4290755783
-0.2998441160 -0.1150408089 0.5244846344 4291677906
-0.2994095087 -0.1142921671 0.5237243772 4291414734
-0.2994621992 -0.1137302890 0.5238165855 4290625733
-0.2995146513 -0.1131681129 0.5239083171 4290494147
-0.2990789711 -0.1124222428 0.5231462717 4290559942
-0.2986428738 -0.1116779149 0.5223834515 4290428356
-0.2982063890 -0.1109351218 0.5216199160 4290296770
-0.2977694571 -0.1101938859 0.5208556652 4289704633
-0.2973321378 -0.1094541848 0.5200907588 4289178291
-0.2973827422 -0.1088948548 0.5201792121 4288915119
-0.2974330783 -0.1083352342 0.5202672482 4288783792
-0.2969947159 -0.1075983569 0.5195004940 4288717999
-0.2970444858 -0.1070390940 0.5195875168 4288389035
-0.2975826561 -0.1066546813 0.5205289125 4288060070
-0.2976320088 -0.1060939357 0.5206152797 4288191656
-0.2976811528 -0.1055329069 0.5207011700 4289836481
-0.2987078130 -0.1053163409 0.5224969983 4291414999
-0.2987565994 -0.1047529206 0.5225823522 4291546585
-0.2988051474 -0.1041892245 0.5226672888 4291612378
-0.2993425727 -0.1037948504 0.5236073732 4291546585
-0.2998799086 -0.1033983603 0.5245472789 4291677657
-0.3004171550 -0.1029997468 0.5254870057 4291677657
-0.3004649580 -0.1024321839 0.5255706310 4291546069
-0.3010019362 -0.1020302624 0.5265098810 4291546069
-0.3015388250 -0.1016262174 0.5274490118 4291480276
-0.3020756245 -0.1012200490 0.5283879638 4291611862
-0.3026123047 -0.1008117646 0.5293267369 4291743448
-0.3026591539 -0.1002391577 0.5294086933 4291677655
-0.3031955659 -0.0998275653 0.5303469896 4291611862
-0.3032419980 -0.0992535055 0.5304281712 4291743448
-0.3037781119 -0.0988385975 0.5313659906 4291875032
-0.3043141365 -0.0984215736 0.5323035717 4291743446
-0.3043599427 -0.0978448763 0.5323836803 4291678423
-0.3048956990 -0.0974245444 0.5333207846 4291810009
-0.3049410582 -0.0968463942 0.5334001780 4290888907
-0.3146232367 -0.1570926011 0.5514073968 4288520618
-0.3156562746 -0.1569937468 0.5532179475 4288455079
-0.3157269657 -0.1564140916 0.5533418059 4288389286
-0.3157973886 -0.1558340490 0.5534652472 4288455077
-0.3163491189 -0.1554902792 0.5544321537 4288586663
-0.3164191842 -0.1549085826 0.5545549989 4288652972
-0.3164890409 -0.1543264836 0.5546774268 4288652972
-0.3165586591 -0.1537440121 0.5547994375 4288653226
-0.3161461055 -0.1529280394 0.5540763736 4288587433
-0.3162151575 -0.1523456872 0.5541974306 4288718248
-0.3158018291 -0.1515316069 0.5534729958 4288784041
-0.3153880537 -0.1507189125 0.5527478456 4289045673
-0.3154562116 -0.1501372010 0.5528672338 4289177259
-0.3145591915 -0.1490977556 0.5512951612 4289176747
-0.3146266639 -0.1485170722 0.5514134169 4289703091
-0.3137285709 -0.1474822313 0.5498394370 4289571507
-0.3142781258 -0.1471285820 0.5508025289 4289703093
-0.3133790493 -0.1460974514 0.5492268205 4289966263
-0.3129622936 -0.1452937424 0.5484964252 4289768884
-0.3130281568 -0.1447147876 0.5486118793 4289965748
-0.3126106262 -0.1439130157 0.5478801131 4289702576
-0.3121926785 -0.1431126893 0.5471475720 4289702576
-0.3117742538 -0.1423137784 0.5464143157 4289965748
-0.3113554120 -0.1415163130 0.5456802249 4289834932
-0.3109361529 -0.1407202631 0.5449454188 4289769139
-0.3105164468 -0.1399256587 0.5442098379 4289704117
-0.3096125126 -0.1389154345 0.5426256657 4289638324
-0.3096757233 -0.1383407712 0.5427364111 4289702313
-0.3092547059 -0.1375504881 0.5419985056 4287728523
-0.3088332415 -0.1367616653 0.5412598848 4288385424
-0.3084113598 -0.1359742880 0.5405204892 4288253838
-0.3075048029 -0.1349758059 0.5389316678 4287726983
-0.3075663149 -0.1344038844 0.5390394926 4287529604
-0.3071431518 -0.1336208731 0.5382978320 4287727244
-0.3067195415 -0.1328393370 0.5375553966 4288582553
-0.3062955141 -0.1320592463 0.5368122458 4289701293
-0.3058710694 -0.1312806308 0.5360683799 4289898672
-0.3054461777 -0.1305034906 0.5353237391 4290162614
-0.3050208688 -0.1297278106 0.5345783234 4290096821
-0.3045951128 -0.1289536208 0.5338321924 4289570991
-0.3051391840 -0.1285897791 0.5347856879 4289702577
-0.3042275608 -0.1276132017 0.5331879854 4289703093
-0.3042859733 -0.1270451695 0.5332903266 4289703093
-0.3038586974 -0.1262750924 0.5325415134 4289965749
-0.3039165139 -0.1257073134 0.5326428413 4289570991
-0.3034885228 -0.1249393076 0.5318927169 4289768116
-0.3030600846 -0.1241727918 0.5311418772 4289768116
-0.3026312292 -0.1234077811 0.5303902626 4289833909
-0.3026878238 -0.1228414401 0.5304894447 4289768116
-0.3022582233 -0.1220785230 0.5297365189 4289570737
-0.3018282056 -0.1213171035 0.5289828777 4289636530
-0.3013977706 -0.1205571964 0.5282285213 4289439921
-0.3009669185 -0.1197987944 0.5274733901 4289703093
-0.3005356491 -0.1190419048 0.5267175436 4289505714
-0.3005903363 -0.1184782460 0.5268133879 4289637300
-0.3001583219 -0.1177234724 0.5260562301 4289637300
-0.2997258902 -0.1169702262 0.5252983570 4289637300
-0.2997796834 -0.1164074764 0.5253926516 4288979372
-0.2998332381 -0.1158444211 0.5254865289 4290624197
-0.2993997335 -0.1150939241 0.5247267485 4291677134
-0.2989658117 -0.1143449545 0.5239663124 4290756032
-0.2990185022 -0.1137828305 0.5240585804 4289440945
-0.2990709245 -0.1132204160 0.5241504908 4288848808
-0.2986359298 -0.1124742180 0.5233881474 4288322980
-0.2982005477 -0.1117295623 0.5226250291 4287928222
-0.2977647185 -0.1109864488 0.5218612552 4288191394
-0.2973285019 -0.1102448851 0.5210967660 4288125601
-0.2968918979 -0.1095048636 0.5203315020 4288716968
-0.2969424427 -0.1089452878 0.5204201341 4289374898
-0.2969927490 -0.1083854213 0.5205082893 4289835451
-0.2965550721 -0.1076482236 0.5197412372 4290493381
-0.2966048419 -0.1070887148 0.5198284388 4290560204
-0.2971422672 -0.1067041382 0.5207703114 4290560204
-0.2971915901 -0.1061431468 0.5208567977 4290494411
-0.2972407043 -0.1055818796 0.5209428072 4291152341
-0.2982658744 -0.1053652316 0.5227395296 4291415000
-0.2983146310 -0.1048015580 0.5228250027 4291480793
-0.2983631790 -0.1042376161 0.5229100585 4291546586
-0.2988998294 -0.1038430780 0.5238506198 4291480793
-0.2989479601 -0.1032776609 0.5239349604 4291414999
-0.2994843721 -0.1028798074 0.5248751044 4291414999
-0.3000206947 -0.1024798304 0.5258150697 4291546585
-0.3005569279 -0.1020777300 0.5267548561 4291612378
-0.3010930717 -0.1016735137 0.5276944637 4291414999
-0.3016290963 -0.1012671739 0.5286339521 4291414999
-0.3021650314 -0.1008587107 0.5295732021 4291481046
-0.3027008772 -0.1004481316 0.5305123329 4291612632
-0.3027475476 -0.0998740867 0.5305941105 4291612632
-0.3032830954 -0.0994601920 0.5315327048 4291612632
-0.3033293188 -0.0988846868 0.5316137075 4291546839
-0.3038645983 -0.0984674841 0.5325518250 4291415253
-0.3043997586 -0.0980481580 0.5334897637 4291678423
-0.3044453561 -0.0974700078 0.5335696936 4291875802
-0.3044907153 -0.0968916044 0.5336491466 4290757321
-0.3152544200 -0.1564845890 0.5535911918 4288191907
-0.3153248131 -0.1559043229 0.5537148118 4288520872
-0.3158757687 -0.1555604339 0.5546823144 4288652458
-0.3159458041 -0.1549784988 0.5548052788 4288718251
-0.3160156310 -0.1543961763 0.5549278855 4288652458
-0.3156040907 -0.1535793543 0.5542052388 4288718251
-0.3156733215 -0.1529971510 0.5543268323 4288849837
-0.3152610064 -0.1521822214 0.5536028147 4288849837
-0.3148482740 -0.1513686925 0.5528780222 4288718251
-0.3149166107 -0.1507871300 0.5529980063 4288915115
-0.3145030737 -0.1499755085 0.5522718430 4288454564
-0.3140890896 -0.1491652876 0.5515449047 4288651947
-0.3141565025 -0.1485843807 0.5516632795 4288849326
-0.3137417734 -0.1477760822 0.5509349704 4289374900
-0.3133265674 -0.1469692141 0.5502058864 4289835451
-0.3129109442 -0.1461637467 0.5494760275 4289900983
-0.3124948740 -0.1453596950 0.5487453938 4289835190
-0.3125607073 -0.1447805017 0.5488610268 4289769396
-0.3121438622 -0.1439784020 0.5481290221 4290098361
-0.3112440407 -0.1429560930 0.5465489030 4290295483
-0.3113088608 -0.1423784941 0.5466627479 4290032311
-0.3108907044 -0.1415806711 0.5459284782 4290294713
-0.3104721010 -0.1407842934 0.5451934338 4289965748
-0.3100530803 -0.1399893612 0.5444576144 4289834162
-0.3091505766 -0.1389787048 0.5428727865 4290097334
-0.3092137277 -0.1384038031 0.5429836512 4289834163
-0.3087933958 -0.1376131922 0.5422455668 4288320924
-0.3083726466 -0.1368240267 0.5415067077 4288978340
-0.3079514503 -0.1360363066 0.5407670736 4288846754
-0.3070462942 -0.1350373924 0.5391775966 4288911518
-0.3071077764 -0.1344652474 0.5392855406 4288122002
-0.3066852689 -0.1336819082 0.5385437012 4287727242
-0.3062623739 -0.1329000294 0.5378010273 4287464070
-0.3058390319 -0.1321196109 0.5370576382 4287464322
-0.3054152429 -0.1313406676 0.5363134742 4288122252
-0.3049910665 -0.1305631846 0.5355685949 4288385936
-0.3045664132 -0.1297871768 0.5348229408 4288912280
-0.3041413724 -0.1290126592 0.5340765715 4289045412
-0.3046846986 -0.1286486685 0.5350306034 4289769135
-0.3037744761 -0.1276716590 0.5334323049 4289440691
-0.3038328290 -0.1271033883 0.5335347652 4289440691
-0.3034062684 -0.1263329834 0.5327857137 4289833909
-0.3034640551 -0.1257649660 0.5328871608 4289768116
-0.3030367494 -0.1249966323 0.5321367979 4289768116
-0.3026089966 -0.1242297888 0.5313856602 4289768116
-0.3026658893 -0.1236626282 0.5314855576 4289768116
-0.3022373915 -0.1228978708 0.5307331681 4289768116
-0.3018085063 -0.1221346185 0.5299799442 4289702323
-0.3013791740 -0.1213728711 0.5292260647 4289768116
-0.3009494245 -0.1206126362 0.5284714103 4289702323
-0.3010047376 -0.1200475320 0.5285685658 4289702323
-0.3000886738 -0.1190966889 0.5269599557 4289768116
-0.3001433313 -0.1185327843 0.5270559192 4289833909
-0.2997120023 -0.1177776903 0.5262985229 4289833909
-0.2992802560 -0.1170241162 0.5255403519 4289702323
-0.2993340492 -0.1164611280 0.5256348252 4289176233
-0.2993875742 -0.1158978343 0.5257288218 4290952644
-0.2989547551 -0.1151470020 0.5249688029 4291678423
-0.2985215485 -0.1143977121 0.5242080092 4289902012
-0.2985741794 -0.1138353497 0.5243004560 4288915117
-0.2986265719 -0.1132726893 0.5243924856 4289638840
-0.2981922925 -0.1125261635 0.5236298442 4289836219
-0.2977575958 -0.1117811799 0.5228664875 4290033598
-0.2973224819 -0.1110377461 0.5221024752 4290296772
-0.2968869507 -0.1102958545 0.5213376880 4290823116
-0.2964510322 -0.1095555052 0.5205721855 4291086034
-0.2965015471 -0.1089956909 0.5206608772 4291414999
-0.2965518236 -0.1084355861 0.5207492113 4291546585
-0.2966018915 -0.1078751981 0.5208370686 4291283413
-0.2966516912 -0.1073145270 0.5209245086 4291546071
-0.2967012525 -0.1067535728 0.5210115910 4291809243
-0.2967505455 -0.1061923429 0.5210981369 4291611609
-0.2972869873 -0.1058042794 0.5220401287 4291611609
-0.2978233397 -0.1054140925 0.5229819417 4291414999
-0.2983595729 -0.1050217822 0.5239236355 4291480792
-0.2984081507 -0.1044566706 0.5240089297 4291546585
-0.2984564900 -0.1038912833 0.5240938067 4291546585
-0.2989923358 -0.1034944504 0.5250347257 4291678425
-0.2995280623 -0.1030955017 0.5259755254 4291612632
-0.3000637293 -0.1026944295 0.5269161463 4291414999
-0.3001112938 -0.1021251753 0.5269996524 4291283413
-0.3006466925 -0.1017207801 0.5279397964 4291546585
-0.3011819720 -0.1013142690 0.5288798213 4291480792
-0.3017171621 -0.1009056345 0.5298196077 4291481046
-0.3022522628 -0.1004948765 0.5307592154 4291546839
-0.3027872443 -0.1000819951 0.5316986442 4291546839
-0.3028336763 -0.0995065048 0.5317802429 4291546839
-0.3033683896 -0.0990903080 0.5327191949 4291612632
-0.3039029837 -0.0986719951 0.5336579680 4291546839
-0.3039488196 -0.0980938524 0.5337384343 4291678936
-0.3039943874 -0.0975154564 0.5338184237 4291744729
-0.3045285344 -0.0970926359 0.5347563624 4290691528
-0.3141602278 -0.1574744731 0.5527478456 4288652458
-0.3151904047 -0.1573747098 0.5545603633 4288520872
-0.3147812486 -0.1565550566 0.5538404584 4288323493
-0.3153315485 -0.1562123299 0.5548087358 4288520359
-0.3154017925 -0.1556305438 0.5549322963 4288651945
-0.3154717684 -0.1550483853 0.5550554395 4288652458
-0.3155415654 -0.1544658244 0.5551782250 4288718251
-0.3156110942 -0.1538828909 0.5553005338 4288718251
-0.3151999116 -0.1530662328 0.5545771122 4288849837
-0.3152688742 -0.1524834037 0.5546984076 4288915117
-0.3153375983 -0.1519002169 0.5548193455 4288915117
-0.3149252832 -0.1510859579 0.5540939569 4288849324
-0.3145125508 -0.1502731144 0.5533677340 4288520359
-0.3140993714 -0.1494616717 0.5526407361 4288388003
-0.3132716715 -0.1478430033 0.5511844754 4288980140
-0.3128571510 -0.1470357925 0.5504551530 4289111726
-0.3129236400 -0.1464553028 0.5505720973 4289506225
-0.3125083447 -0.1456500292 0.5498414636 4289572018
-0.3120926023 -0.1448461711 0.5491099954 4290164155
-0.3116764426 -0.1440437436 0.5483777523 4289900983
-0.3107780218 -0.1430210024 0.5467970371 4290032056
-0.3108428121 -0.1424431503 0.5469110608 4290097849
-0.3104253411 -0.1416450143 0.5461765528 4290032056
-0.3100074530 -0.1408482939 0.5454412103 4289900470
-0.3091068864 -0.1398348659 0.5438567400 4289899955
-0.3086879849 -0.1390419304 0.5431197286 4289899955
-0.3087511063 -0.1384667903 0.5432307720 4289768884
-0.3083314598 -0.1376758516 0.5424924493 4288387231
-0.3079113960 -0.1368863434 0.5417533517 4289636270
-0.3074908853 -0.1360982955 0.5410134792 4290096821
-0.3070699573 -0.1353117079 0.5402728915 4290096051
-0.3066485822 -0.1345265806 0.5395315289 4289701293
-0.3067097962 -0.1339538544 0.5396391749 4289174688
-0.3058045506 -0.1329606771 0.5380464792 4288648344
-0.3053818941 -0.1321799308 0.5373028517 4287333249
-0.3049588203 -0.1314006597 0.5365584493 4286872698
-0.3050186932 -0.1308301836 0.5366638303 4287201662
-0.3045948446 -0.1300529391 0.5359181166 4287793799
-0.3041705787 -0.1292771846 0.5351716280 4287860624
-0.3037458956 -0.1285029054 0.5344244242 4289110691
-0.3033207953 -0.1277301013 0.5336764455 4289769399
-0.3033790886 -0.1271615922 0.5337790251 4289440434
-0.3034371734 -0.1265927553 0.5338812470 4289768370
-0.3025269210 -0.1256216019 0.5322796702 4289768370
-0.3025843501 -0.1250539273 0.5323807001 4289768370
-0.3021573126 -0.1242867559 0.5316293240 4289768370
-0.3022141457 -0.1237193495 0.5317294002 4289768370
-0.3017863631 -0.1229542717 0.5309767127 4289768370
-0.3018426299 -0.1223871335 0.5310757160 4289768370
-0.3009295166 -0.1214286089 0.5294690728 4289768370
-0.3005004525 -0.1206680462 0.5287141800 4289637298
-0.3005557358 -0.1201026961 0.5288115144 4289637298
-0.3001259267 -0.1193442419 0.5280552506 4289571505
-0.2996957302 -0.1185873002 0.5272983313 4289637298
-0.2992650867 -0.1178318784 0.5265406370 4289637298
-0.2988340259 -0.1170779765 0.5257822275 4289571505
-0.2988877892 -0.1165147424 0.5258768201 4289045161
-0.2989412844 -0.1159512103 0.5259709358 4290821572
-0.2989945412 -0.1153873727 0.5260646343 4291546069
-0.2985621095 -0.1146368384 0.5253037810 4291348690
-0.2981292307 -0.1138878316 0.5245422125 4291414481
-0.2981816232 -0.1133249328 0.5246343613 4291743446
-0.2977480292 -0.1125780791 0.5238714218 4291809239
-0.2973140180 -0.1118327752 0.5231078267 4292006618
-0.2968795896 -0.1110890135 0.5223435163 4291809241
-0.2964447737 -0.1103467941 0.5215784311 4291480276
-0.2964955866 -0.1097861007 0.5216678977 4291480278
-0.2960600257 -0.1090460643 0.5209015608 4291743450
-0.2961103022 -0.1084857211 0.5209899545 4291743448
-0.2961603105 -0.1079250872 0.5210779905 4291611862
-0.2962100804 -0.1073641777 0.5211655498 4291546071
-0.2962596118 -0.1068029776 0.5212526917 4291414485
-0.2963089049 -0.1062415019 0.5213394165 4291151827
-0.2963579595 -0.1056797430 0.5214257240 4291414999
-0.2968934476 -0.1052903160 0.5223678946 4291480793
-0.2974288762 -0.1048987657 0.5233099461 4291546586
-0.2979642153 -0.1045050919 0.5242518783 4291612378
-0.2984994650 -0.1041092947 0.5251935720 4291612378
-0.2985476255 -0.1035424620 0.5252782702 4291612378
-0.2990826070 -0.1031433344 0.5262196064 4291678171
-0.2996174991 -0.1027420908 0.5271607041 4291678171
-0.3001523018 -0.1023387238 0.5281016827 4291809757
-0.3001996875 -0.1017680243 0.5281850100 4291349206
-0.3007342219 -0.1013613418 0.5291255116 4291283413
-0.3012686670 -0.1009525284 0.5300658345 4291546069
-0.3018029928 -0.1005415916 0.5310059786 4291546069
-0.3018496037 -0.0999670401 0.5310879350 4291480276
-0.3028713763 -0.0997133628 0.5328857303 4291546069
-0.3029175997 -0.0991364196 0.5329670906 4291743448
-0.3034514487 -0.0987179279 0.5339063406 4291743448
-0.3034972548 -0.0981395245 0.5339869261 4291678936
-0.3035428226 -0.0975608677 0.5340670943 4291678936
-0.3040761948 -0.0971378684 0.5350055099 4290559942
-0.3136872053 -0.1575452536 0.5529962182 4288586663
-0.3142368793 -0.1572058201 0.5539652705 4288520357
-0.3147865534 -0.1568642408 0.5549342632 4288388771
-0.3148569763 -0.1562826186 0.5550584197 4288322978
-0.3149271607 -0.1557006091 0.5551821589 4288454564
-0.3149971068 -0.1551182121 0.5553054810 4288651943
-0.3150668442 -0.1545354277 0.5554283857 4288849322
-0.3151363432 -0.1539522558 0.5555508733 4288915115
