VERSION 0.7
FIELDS x y z rgba
SIZE 4 4 4 4
TYPE F F F U
COUNT 1 1 1 1
WIDTH 920
HEIGHT 1
VIEWPOINT 0.0 0.0 0.0 1.0 0.0 0.0 0.0
POINTS 920
DATA ascii
-0.3189074695 -0.1405617446 0.5176064372 4288783531
-0.3194847405 -0.1402400434 0.5185433626 4288651945
-0.3185281456 -0.1392457187 0.5169907808 4288651945
-0.3185936511 -0.1386998296 0.5170971155 4288651945
-0.3181474507 -0.1379318535 0.5163729191 4288717738
-0.3182124197 -0.1373861730 0.5164783597 4288717736
-0.3177654445 -0.1366201639 0.5157529116 4288586150
-0.3178298473 -0.1360746920 0.5158573985 4288717222
-0.3173820972 -0.1353106499 0.5151306987 4288783015
-0.3174459338 -0.1347654015 0.5152342916 4288848808
-0.3169974089 -0.1340033412 0.5145063400 4288783015
-0.3170606792 -0.1334583163 0.5146089792 4288783015
-0.3171237111 -0.1329129636 0.5147112608 4288783015
-0.3166740835 -0.1321534365 0.5139815211 4288717222
-0.3162240088 -0.1313953698 0.5132510662 4288651429
-0.3162861466 -0.1308508068 0.5133518577 4288783014
-0.3163480163 -0.1303059310 0.5134523511 4288980393
-0.3158968687 -0.1295504272 0.5127200484 4289111979
-0.3159582019 -0.1290057898 0.5128195882 4289111979
-0.3155670166 -0.1277079284 0.5121846795 4288914600
-0.3156275153 -0.1271632314 0.5122829080 4288651428
-0.3156878054 -0.1266182363 0.5123807192 4288256670
-0.3157478571 -0.1260729134 0.5124782324 4288256670
-0.3152941465 -0.1253231764 0.5117418170 4288059291
-0.3148400187 -0.1245749071 0.5110047460 4287927705
-0.3148991764 -0.1240304410 0.5111007094 4287993498
-0.3149580657 -0.1234856620 0.5111963153 4288058778
-0.3150167465 -0.1229405850 0.5112915635 4288124571
-0.3145611882 -0.1221955344 0.5105521679 4288519329
-0.3146192729 -0.1216507405 0.5106464624 4288979880
-0.3146771491 -0.1211056411 0.5107403398 4289703603
-0.3147347569 -0.1205602437 0.5108338594 4290295740
-0.3147921264 -0.1200145483 0.5109270215 4290756291
-0.3148492873 -0.1194685549 0.5110197663 4291151049
-0.3149061799 -0.1189222634 0.5111120939 4291019463
-0.3154774904 -0.1185690984 0.5120393634 4292072151
-0.3155339956 -0.1180213243 0.5121310949 4292400859
-0.3166199327 -0.1178565249 0.5138936043 4292071894
-0.3171910644 -0.1174971163 0.5148206353 4292335066
-0.3172471225 -0.1169457808 0.5149115920 4292466652
-0.3178180456 -0.1165831015 0.5158382058 4292466652
-0.3189040720 -0.1164063960 0.5176009536 4292466652
-0.3194749653 -0.1160386577 0.5185275078 4292466397
-0.3200457692 -0.1156688333 0.5194540024 4292466397
-0.3206165135 -0.1152969301 0.5203803182 4292465883
-0.3211871684 -0.1149229407 0.5213065743 4292005332
-0.3212421238 -0.1143632978 0.5213957429 4291808979
-0.3218125701 -0.1139860377 0.5223215818 4291282635
-0.3223829269 -0.1136066914 0.5232473016 4291348169
-0.3229531944 -0.1132252663 0.5241729617 4291348169
-0.3235234022 -0.1128417552 0.5250983834 4290756032
-0.3240935206 -0.1124561578 0.5260237455 4290821825
-0.3241474330 -0.1118903086 0.5261111856 4291084997
-0.3247172832 -0.1115014404 0.5270361304 4290821825
-0.3252870739 -0.1111104935 0.5279609561 4291676364
-0.3258567750 -0.1107174605 0.5288856030 4291807950
-0.3264263868 -0.1103223413 0.5298101306 4291478985
-0.3269959390 -0.1099251434 0.5307345390 4291939536
-0.3280820251 -0.1096986085 0.5324973464 4292400087
-0.3286514580 -0.1092963368 0.5334215164 4292663259
-0.3292207718 -0.1088919789 0.5343455672 4292334296
-0.3297900259 -0.1084855348 0.5352694988 4292400089
-0.3303591609 -0.1080770046 0.5361932516 4292269020
-0.3314452767 -0.1078346148 0.5379560590 4292663778
-0.3320142925 -0.1074210107 0.5388796329 4292269531
-0.3325831890 -0.1070053205 0.5398030281 4292137945
-0.3331519961 -0.1065875441 0.5407261848 4292204250
-0.3342381120 -0.1063322797 0.5424889922 4288454049
-0.3348067701 -0.1059094220 0.5434120297 4287972419
-0.3358928859 -0.1056472659 0.5451748371 4291262069
-0.3364614248 -0.1052193344 0.5460976362 4293245115
-0.3375475705 -0.1049502790 0.5478604436 4290547602
-0.3381159306 -0.1045172587 0.5487830043 4289092186
-0.3392020762 -0.1042413041 0.5505458117 4289947495
-0.3397702873 -0.1038032100 0.5514680743 4290930802
-0.3408564031 -0.1035203487 0.5532309413 4292773006
-0.3414244652 -0.1030771658 0.5541529059 4288565328
-0.3425105512 -0.1027873978 0.5559157133 4292907666
-0.3430784345 -0.1023391336 0.5568373799 4292662748
-0.3441644907 -0.1020424590 0.5586001873 4292136404
-0.3192358017 -0.1432674825 0.5190750957 4288782761
-0.3193030059 -0.1427207887 0.5191843510 4288980140
-0.3193699718 -0.1421737522 0.5192932487 4288980140
-0.3184161186 -0.1411738843 0.5177423358 4288717738
-0.3184824288 -0.1406279057 0.5178501010 4288586152
-0.3186143339 -0.1395349354 0.5180645585 4288651945
-0.3181692362 -0.1387652159 0.5173408389 4288586152
-0.3177236915 -0.1379968971 0.5166164041 4288651945
-0.3182995319 -0.1376719624 0.5175527334 4288717738
-0.3173423111 -0.1366846412 0.5159962773 4288586152
-0.3174066842 -0.1361389309 0.5161009431 4288717736
-0.3169595897 -0.1353745610 0.5153740048 4288717736
-0.3170233965 -0.1348290741 0.5154777169 4288651943
-0.3165755272 -0.1340666711 0.5147495270 4288651943
-0.3166387677 -0.1335214227 0.5148523450 4288586150
-0.3167017698 -0.1329758316 0.5149547458 4288520357
-0.3162527978 -0.1322159767 0.5142247677 4288520357
-0.3163152337 -0.1316706240 0.5143262744 4288717736
-0.3158655167 -0.1309127808 0.5135949850 4288848554
-0.3159273565 -0.1303676665 0.5136955976 4288716968
-0.3159889877 -0.1298222393 0.5137957931 4288651175
-0.3155381680 -0.1290669590 0.5130627751 4288782761
-0.3155992329 -0.1285217851 0.5131620169 4288782761
-0.3151476085 -0.1277685314 0.5124277472 4288716968
-0.3152081072 -0.1272235960 0.5125260949 4288848554
-0.3152683675 -0.1266783625 0.5126240849 4288980140
-0.3153283894 -0.1261328161 0.5127216578 4288651175
-0.3148753643 -0.1253827363 0.5119850636 4288585382
-0.3144218922 -0.1246341392 0.5112476945 4288519589
-0.3144810200 -0.1240894273 0.5113438368 4288453796
-0.3145398796 -0.1235444173 0.5114395618 4288519843
-0.3145985305 -0.1229991019 0.5115349293 4288651429
-0.3141436279 -0.1222537160 0.5107952356 4288651429
-0.3142017126 -0.1217086837 0.5108897090 4288454050
-0.3142595589 -0.1211633459 0.5109837651 4288190877
-0.3143171370 -0.1206177101 0.5110774040 4288454049
-0.3143745065 -0.1200717762 0.5111706257 4288519842
-0.3144316375 -0.1195255443 0.5112635493 4289111979
-0.3144885004 -0.1189790145 0.5113559961 4289704116
-0.3145451546 -0.1184321865 0.5114480853 4291546320
-0.3151156008 -0.1180776805 0.5123756528 4292203737
-0.3162001371 -0.1179128289 0.5141391158 4292072151
-0.3167705536 -0.1175532714 0.5150666237 4292006101
-0.3173409402 -0.1171916276 0.5159940720 4292335066
-0.3173968196 -0.1166388541 0.5160849094 4292466652
-0.3179669678 -0.1162739396 0.5170120001 4292203480
-0.3190516531 -0.1160941869 0.5187756419 4292006101
-0.3196217716 -0.1157242060 0.5197026730 4292071894
-0.3201918006 -0.1153521463 0.5206295252 4291939539
-0.3202469051 -0.1147934347 0.5207191110 4291150023
-0.3208166957 -0.1144180968 0.5216456056 4291281860
-0.3219014704 -0.1142234355 0.5234094262 4290360758
-0.3224712312 -0.1138430312 0.5243358612 4290689210
-0.3225256801 -0.1132795811 0.5244243741 4291215554
-0.3230951726 -0.1128958985 0.5253503919 4290821055
-0.3236645758 -0.1125101373 0.5262762904 4291150020
-0.3242339194 -0.1121222898 0.5272020102 4291676881
-0.3242876232 -0.1115550026 0.5272893310 4291545295
-0.3248566985 -0.1111638844 0.5282146335 4291742160
-0.3254257143 -0.1107706800 0.5291398168 4292268504
-0.3259946108 -0.1103753895 0.5300648808 4292267990
-0.3265634477 -0.1099780127 0.5309897661 4292465369
-0.3271321952 -0.1095785499 0.5319145322 4292201168
-0.3277008235 -0.1091770083 0.5328391194 4291345859
-0.3287855089 -0.1089444011 0.5346028209 4290161585
-0.3293540478 -0.1085377783 0.5355272889 4289832620
-0.3299224675 -0.1081290692 0.5364515185 4291935689
-0.3310072124 -0.1078865826 0.5382152796 4292922584
-0.3315755129 -0.1074727923 0.5391393900 4292333013
-0.3326602876 -0.1072234139 0.5409032106 4292596185
-0.3332284689 -0.1068045422 0.5418270826 4292334035
-0.3337965608 -0.1063835844 0.5427507758 4288057490
-0.3343645334 -0.1059605405 0.5436742902 4288621615
-0.3354492486 -0.1056982726 0.5454380512 4292634988
-0.3360171020 -0.1052701473 0.5463613272 4293966009
-0.3371018469 -0.1050009802 0.5481251478 4291136910
-0.3376695216 -0.1045677662 0.5490481853 4288699481
-0.3387542665 -0.1042916924 0.5508119464 4289160032
-0.3398390412 -0.1040117070 0.5525757670 4291855502
-0.3404065073 -0.1035704166 0.5534985065 4293631913
-0.3414912522 -0.1032835245 0.5552623272 4289091161
-0.3420585692 -0.1028371453 0.5561847091 4292315018
-0.3426257372 -0.1023886725 0.5571069717 4292793565
-0.3437104225 -0.1020918712 0.5588706136 4292398807
-0.3198274672 -0.1437926888 0.5209779739 4288651943
-0.3193854690 -0.1430159360 0.5202580094 4288980910
-0.3189430237 -0.1422405690 0.5195372701 4288849324
-0.3190097213 -0.1416929513 0.5196459293 4288849324
-0.3185665011 -0.1409195215 0.5189239383 4288783531
-0.3181228340 -0.1401475072 0.5182012320 4288915115
-0.3181886375 -0.1396006197 0.5183084607 4288849322
-0.3178094625 -0.1382838786 0.5176907778 4288915115
-0.3178744614 -0.1377368569 0.5177966356 4289046187
-0.3174289167 -0.1369692832 0.5170708895 4288848808
-0.3169829249 -0.1362031549 0.5163443685 4288914601
-0.3170470297 -0.1356568933 0.5164488554 4288914601
-0.3166002631 -0.1348927170 0.5157210827 4288256670
-0.3166638017 -0.1343466789 0.5158246160 4287796119
-0.3162162602 -0.1335844994 0.5150955915 4287664020
-0.3162792325 -0.1330386847 0.5151981711 4287466641
-0.3158309460 -0.1322785020 0.5144678950 4287137676
-0.3158933520 -0.1317329109 0.5145695806 4287137676
-0.3159555197 -0.1311870068 0.5146708488 4287072137
-0.3155061007 -0.1304293871 0.5139387846 4287203723
-0.3160791695 -0.1300942302 0.5148722529 4287664020
-0.3151175380 -0.1291281134 0.5133058429 4287927192
-0.3151785731 -0.1285826862 0.5134052634 4288783014
-0.3147276342 -0.1278291047 0.5126706958 4289046186
-0.3152999580 -0.1274909079 0.5136029720 4288914600
-0.3148483336 -0.1267384738 0.5128673315 4289046186
-0.3143962920 -0.1259874851 0.5121309757 4288848808
-0.3144559562 -0.1254422814 0.5122281313 4288651429
-0.3140031397 -0.1246933416 0.5114905834 4288783531
-0.3140622377 -0.1241483986 0.5115868449 4288651945
-0.3141210973 -0.1236031502 0.5116826892 4288651945
-0.3141797483 -0.1230575964 0.5117781758 4288783531
-0.3137255013 -0.1223118827 0.5110382438 4288520357
-0.3137835562 -0.1217666119 0.5111328363 4288783529
-0.3138413727 -0.1212210357 0.5112270117 4288520359
-0.3138989508 -0.1206751615 0.5113208294 4288586152
-0.3139562905 -0.1201289818 0.5114141703 4288782250
-0.3140133619 -0.1195825115 0.5115072131 4289242801
-0.3140702248 -0.1190357357 0.5115998387 4289900731
-0.3141268492 -0.1184886694 0.5116920471 4291940314
-0.3146966100 -0.1181340218 0.5126201510 4292532190
-0.3152662814 -0.1177772880 0.5135481358 4292532190
-0.3163494766 -0.1176093966 0.5153125525 4292661978
-0.3169191480 -0.1172476038 0.5162404776 4292333013
-0.3174887300 -0.1168837175 0.5171683431 4292070611
-0.3175444603 -0.1163295209 0.5172591209 4292070611
-0.3186277449 -0.1161497012 0.5190237164 4291414221
-0.3191971481 -0.1157795638 0.5199512243 4291545807
-0.3207946718 -0.1157784238 0.5225535035 4291282887
-0.3203357458 -0.1150330231 0.5218059421 4290953922
-0.3214192092 -0.1148403734 0.5235708356 4291284166
-0.3214740455 -0.1142781451 0.5236601233 4290363064
-0.3220430911 -0.1138975769 0.5245870948 4291805129
-0.3226120472 -0.1135149151 0.5255138874 4292199887
-0.3231809139 -0.1131301746 0.5264405608 4291613911
-0.3237497211 -0.1127433404 0.5273671150 4291811290
-0.3238036633 -0.1121760830 0.5274549127 4292596702
-0.3243722022 -0.1117859781 0.5283810496 4292333530
-0.3244257271 -0.1112172529 0.5284682512 4292465882
-0.3249940276 -0.1108238772 0.5293939710 4292334296
-0.3255622387 -0.1104284152 0.5303195119 4291933883
-0.3261303604 -0.1100308672 0.5312449336 4291473332
-0.3266983628 -0.1096312255 0.5321702361 4293299617
-0.3272663057 -0.1092295051 0.5330953598 4289615209
-0.3283496201 -0.1089968085 0.5348600149 4288823121
-0.3289174438 -0.1085900068 0.5357849598 4289020500
-0.3294851780 -0.1081811115 0.5367097855 4291787142
-0.3305685222 -0.1079385281 0.5384744406 4294948033
-0.3311361372 -0.1075245515 0.5393990278 4292597209
-0.3317036331 -0.1071084961 0.5403234959 4292268244
-0.3327869773 -0.1068560183 0.5420882106 4292727251
-0.3333543539 -0.1064348742 0.5430124402 4287398018
-0.3339216411 -0.1060116366 0.5439364314 4288686900
-0.3350049853 -0.1057492569 0.5457011461 4291910757
-0.3355720937 -0.1053209454 0.5466249585 4293963440
-0.3366554677 -0.1050516590 0.5483896732 4291594892
-0.3372224271 -0.1046182513 0.5493132472 4289946216
-0.3383058012 -0.1043420658 0.5510779619 4290209388
-0.3393891752 -0.1040619612 0.5528427362 4292710552
-0.3404726088 -0.1037779450 0.5546075702 4294552756
-0.3410393298 -0.1033334509 0.5555307269 4290209901
-0.3421227336 -0.1030425206 0.5572955012 4291986312
-0.3426892757 -0.1025929376 0.5582183599 4292465370
-0.3427387476 -0.1019874364 0.5582989454 4292136405
-0.3188900054 -0.1436310858 0.5203924179 4288783529
-0.3189572692 -0.1430830508 0.5205021501 4288980910
-0.3190242946 -0.1425346881 0.5206115246 4288783531
-0.3185821474 -0.1417595148 0.5198900104 4289046703
-0.3181395829 -0.1409857571 0.5191678405 4288849324
-0.3187148273 -0.1406628042 0.5201065540 4288783529
-0.3177623749 -0.1396662891 0.5185522437 4288783529
-0.3178279102 -0.1391188353 0.5186591744 4288783529
-0.3173837960 -0.1383489668 0.5179344416 4288783529
-0.3179583251 -0.1380228996 0.5188720226 4288980394
-0.3175135255 -0.1372541338 0.5181461573 4288914601
-0.3170683086 -0.1364867687 0.5174196362 4288651429
-0.3166226447 -0.1357208490 0.5166923404 4287467155
-0.3166864812 -0.1351740211 0.5167965293 4286875018
-0.3162400424 -0.1344100684 0.5160679817 4287203983
-0.3163033426 -0.1338634640 0.5161712766 4287532947
-0.3158561289 -0.1331015080 0.5154414773 4288125084
-0.3154084682 -0.1323409826 0.5147109628 4288454049
-0.3154708445 -0.1317951679 0.5148127675 4288717221
-0.3155330122 -0.1312490255 0.5149141550 4288322463
-0.3150842488 -0.1304910779 0.5141818523 4288322463
-0.3151458502 -0.1299451739 0.5142823458 4287861912
-0.3146963120 -0.1291892380 0.5135487914 4287861912
-0.3148181140 -0.1280976087 0.5137475729 4287796120
-0.3148786724 -0.1275513321 0.5138463378 4288256670
-0.3144277036 -0.1267985553 0.5131104589 4288914600
-0.3144876957 -0.1262525320 0.5132083297 4288783015
-0.3140359819 -0.1255017966 0.5124711990 4288914601
-0.3135838211 -0.1247525215 0.5117333531 4288848554
-0.3136428893 -0.1242073476 0.5118297338 4288782761
-0.3137017190 -0.1236618608 0.5119257569 4288783531
-0.3137603402 -0.1231160685 0.5120213628 4288717738
-0.3133067489 -0.1223700196 0.5112811923 4288586150
-0.3133647740 -0.1218245104 0.5113759041 4288651943
-0.3134225905 -0.1212786958 0.5114701986 4288586405
-0.3134801388 -0.1207325831 0.5115641356 4288717991
-0.3135374486 -0.1201861724 0.5116576552 4288651943
-0.3135945201 -0.1196394563 0.5117508173 4288980908
-0.3136513531 -0.1190924421 0.5118435621 4289769910
-0.3137079477 -0.1185451373 0.5119358897 4291743700
-0.3142769933 -0.1181903407 0.5128645301 4292466650
-0.3148459792 -0.1178334579 0.5137930512 4292532443
-0.3154149055 -0.1174744889 0.5147214532 4292334037
-0.3164967299 -0.1173035577 0.5164868832 4291215556
-0.3170656264 -0.1169395223 0.5174152255 4290821055
-0.3176344633 -0.1165734008 0.5183435082 4291018434
-0.3182032108 -0.1162051857 0.5192716718 4290887618
-0.3187719285 -0.1158348918 0.5201997161 4291019204
-0.3193405569 -0.1154625118 0.5211276412 4291084995
-0.3204225898 -0.1152727678 0.5228934288 4291413960
-0.3199639916 -0.1145276502 0.5221450329 4291743438
-0.3215596676 -0.1145157665 0.5247489810 4291743438
-0.3221280873 -0.1141341329 0.5256766081 4293120989
-0.3221825957 -0.1135692745 0.5257655382 4292989403
-0.3227507770 -0.1131843701 0.5266927481 4292598496
-0.3233188689 -0.1127973720 0.5276198387 4292598496
-0.3238868713 -0.1124082804 0.5285467505 4292462284
-0.3239406347 -0.1118395850 0.5286344290 4292396491
-0.3245083988 -0.1114472225 0.5295609832 4293642444
-0.3245616853 -0.1108770519 0.5296480060 4293050307
-0.3251292109 -0.1104814187 0.5305740833 4290151816
-0.3256966174 -0.1100836992 0.5315000415 4289822851
-0.3262639344 -0.1096838862 0.5324258208 4292311433
-0.3268311620 -0.1092819870 0.5333514810 4287969095
-0.3273983002 -0.1088780016 0.5342770219 4287834172
-0.3279653490 -0.1084719226 0.5352023840 4288228930
-0.3290472329 -0.1082331389 0.5369678736 4289418081
-0.3301291764 -0.1079904512 0.5387334824 4294944693
-0.3306961060 -0.1075762957 0.5396586061 4292989655
-0.3312629163 -0.1071600541 0.5405836105 4292529104
-0.3318296075 -0.1067417189 0.5415083766 4292529872
-0.3329115510 -0.1064861417 0.5432739854 4287003260
-0.3334780931 -0.1060627177 0.5441985726 4288754492
-0.3345600665 -0.1058002263 0.5459641814 4291320419
-0.3351264894 -0.1053717211 0.5468885303 4294027950
-0.3362084329 -0.1051023230 0.5486541390 4291593609
-0.3372904658 -0.1048290133 0.5504198670 4290143083
-0.3378566802 -0.1043924093 0.5513439178 4290472048
-0.3389386833 -0.1041121930 0.5531095862 4292843165
-0.3400207162 -0.1038280502 0.5548753738 4294619576
-0.3405867219 -0.1033833548 0.5557990074 4289948784
-0.3416687548 -0.1030923054 0.5575647354 4291527816
-0.3422345817 -0.1026425138 0.5584881306 4292399577
-0.3428003192 -0.1021906361 0.5594113469 4292070612
-0.3184612393 -0.1436984092 0.5206363797 4288849324
-0.3185284436 -0.1431501508 0.5207462311 4288980910
-0.3180873096 -0.1423741132 0.5200250745 4288849324
-0.3176457584 -0.1415994912 0.5193031430 4289177519
-0.3177120686 -0.1410519481 0.5194115639 4289045933
-0.3177781701 -0.1405040622 0.5195196271 4288848554
-0.3173354864 -0.1397319138 0.5187959075 4289045933
-0.3174009919 -0.1391842365 0.5189030170 4288980140
-0.3174662888 -0.1386362016 0.5190097690 4288848554
-0.3175313473 -0.1380878389 0.5191161633 4288914601
-0.3170872331 -0.1373187304 0.5183900595 4288848808
-0.3161335886 -0.1363315135 0.5168309808 4287467155
-0.3161976337 -0.1357847750 0.5169357061 4287532948
-0.3157522082 -0.1350199431 0.5162074566 4288585636
-0.3158156872 -0.1344734430 0.5163112879 4289309359
-0.3153694570 -0.1337105930 0.5155817866 4289309359
-0.3154323995 -0.1331643164 0.5156846642 4289177773
-0.3149853945 -0.1324034631 0.5149539113 4289046186
-0.3145379722 -0.1316440403 0.5142224431 4288914600
-0.3146000206 -0.1310985535 0.5143238306 4288980393
-0.3146618009 -0.1305527389 0.5144248605 4289111979
-0.3147233725 -0.1300066113 0.5145254731 4289243566
-0.3147846758 -0.1294601560 0.5146257281 4288651429
-0.3143354952 -0.1287044436 0.5138913989 4288256671
-0.3143962622 -0.1281582415 0.5139907002 4287664534
-0.3144567609 -0.1276117265 0.5140896440 4287532948
-0.3140064776 -0.1268586218 0.5133535266 4288322464
-0.3140664399 -0.1263123602 0.5134515166 4288519843
-0.3141261637 -0.1257657856 0.5135491490 4288980394
-0.3136747777 -0.1250152886 0.5128111839 4288848808
-0.3132229447 -0.1242662668 0.5120725632 4288848808
-0.3132817447 -0.1237205490 0.5121687055 4288914601
-0.3133403361 -0.1231745183 0.5122644305 4288783015
-0.3133986890 -0.1226281822 0.5123598576 4288848808
-0.3129454255 -0.1218823865 0.5116188526 4288783015
-0.3130032122 -0.1213363409 0.5117132664 4288783014
-0.3130607307 -0.1207899898 0.5118073225 4288914600
-0.3131180108 -0.1202433333 0.5119010210 4288717991
-0.3131750822 -0.1196963787 0.5119943023 4288915370
-0.3137437105 -0.1193438172 0.5129238963 4289769909
-0.3138003647 -0.1187953725 0.5130165815 4291677906
-0.3138568103 -0.1182466373 0.5131087899 4292400857
-0.3144250810 -0.1178896055 0.5140378475 4292466650
-0.3149932921 -0.1175304875 0.5149667859 4292203991
-0.3160737455 -0.1173594892 0.5167331696 4291019717
-0.3166419268 -0.1169952974 0.5176620483 4290888388
-0.3172100484 -0.1166290194 0.5185908675 4290822595
-0.3177781105 -0.1162606552 0.5195195079 4291217096
-0.3183460832 -0.1158902049 0.5204480886 4291677647
-0.3189139962 -0.1155176610 0.5213765502 4291743438
-0.3199946582 -0.1153278500 0.5231432915 4291875024
-0.3195367455 -0.1145823896 0.5223946571 4292925150
-0.3216433227 -0.1147535443 0.5258385539 4292859357
-0.3222111166 -0.1143708453 0.5267668366 4293644253
-0.3227788508 -0.1139860526 0.5276950002 4293052116
-0.3233464956 -0.1135991737 0.5286229849 4293056477
-0.3234007061 -0.1130307913 0.5287116766 4292727512
-0.3239681125 -0.1126406342 0.5296392441 4291075488
-0.3240219057 -0.1120707765 0.5297272205 4290483351
-0.3245890439 -0.1116773412 0.5306544304 4294818234
-0.3246424496 -0.1111060157 0.5307416916 4294423476
-0.3246955574 -0.1105344072 0.5308285356 4289948008
-0.3252622783 -0.1101365089 0.5317550302 4290013801
-0.3258288801 -0.1097365245 0.5326813459 4292836231
-0.3263954222 -0.1093344465 0.5336075425 4288362307
-0.3269618452 -0.1089302823 0.5345335603 4289938267
-0.3275281787 -0.1085240319 0.5354594588 4290201439
-0.3280944228 -0.1081156880 0.5363851786 4288364112
-0.3296892345 -0.1080423594 0.5389924645 4293956517
-0.3302554190 -0.1076280251 0.5399181247 4293841366
-0.3308215439 -0.1072115973 0.5408436060 4293380815
-0.3313875198 -0.1067930758 0.5417689085 4292462282
-0.3324680626 -0.1065373868 0.5435354114 4287133049
-0.3330339193 -0.1061137766 0.5444605350 4289876312
-0.3341144919 -0.1058511809 0.5462270975 4290336863
-0.3346801996 -0.1054224819 0.5471519232 4294290095
-0.3357607722 -0.1051529646 0.5489185452 4291526789
-0.3368414044 -0.1048795432 0.5506851673 4290471278
-0.3379220366 -0.1046022028 0.5524518490 4290602864
-0.3384875357 -0.1041624025 0.5533763766 4292647328
-0.3395681679 -0.1038781404 0.5551430583 4294555325
-0.3401334882 -0.1034332514 0.5560672283 4290016119
-0.3412141204 -0.1031420678 0.5578339100 4291331979
-0.3417792320 -0.1026920751 0.5587577820 4292333784
-0.3423442543 -0.1022399962 0.5596815348 4291741647
-0.3175246119 -0.1435364187 0.5200494528 4288783531
-0.3180990517 -0.1432172209 0.5209902525 4288915117
-0.3176585734 -0.1424408555 0.5202687979 4288849324
-0.3177252114 -0.1418925524 0.5203779340 4288980140
-0.3177916110 -0.1413439065 0.5204867125 4289045933
-0.3168422580 -0.1403450966 0.5189318061 4288980140
-0.3169079721 -0.1397975236 0.5190395117 4289111726
-0.3170387447 -0.1387013495 0.5192536712 4288914347
-0.3171038032 -0.1381527632 0.5193601847 4288980140
-0.3166603148 -0.1373833120 0.5186338425 4288651175
-0.3162164092 -0.1366152912 0.5179067850 4287467155
-0.3157720566 -0.1358486861 0.5171790123 4288717222
-0.3153272569 -0.1350835264 0.5164505243 4289243566
-0.3153907359 -0.1345367879 0.5165544748 4289046187
-0.3154539764 -0.1339897066 0.5166580677 4288914601
-0.3150080740 -0.1332270801 0.5159277916 4288783015
-0.3145617545 -0.1324658990 0.5151967406 4288651429
-0.3146240711 -0.1319196224 0.5152988434 4287927706
-0.3146861792 -0.1313730031 0.5154005885 4288125085
-0.3142387569 -0.1306143850 0.5146677494 4287861913
-0.3143002987 -0.1300680190 0.5147685409 4289177773
-0.3138520718 -0.1293114126 0.5140344501 4288848808
-0.3139130473 -0.1287652850 0.5141342878 4288980394
-0.3134640753 -0.1280107051 0.5133990049 4289177773
-0.3135244846 -0.1274648309 0.5134978890 4288651429
-0.3130747676 -0.1267122775 0.5127613544 4287993499
-0.3131345809 -0.1261666715 0.5128593445 4288256671
-0.3131941855 -0.1256207526 0.5129569173 4288651429
-0.3132535517 -0.1250745207 0.5130541921 4288914601
-0.3133126795 -0.1245279834 0.5131509900 4288980394
-0.3128611743 -0.1237792075 0.5124115348 4288848808
-0.3129197359 -0.1232329458 0.5125074387 4288783015
-0.3129780591 -0.1226863712 0.5126029849 4288914601
-0.3130361438 -0.1221394911 0.5126980543 4288848808
-0.3125832081 -0.1213939562 0.5119562745 4288848807
-0.3126407266 -0.1208473668 0.5120504498 4288914600
-0.3126980066 -0.1203004718 0.5121442676 4288783529
-0.3127550185 -0.1197532862 0.5122376680 4288915115
-0.3133229613 -0.1194005758 0.5131678581 4290097334
-0.3133795857 -0.1188518927 0.5132606030 4291873745
-0.3134360015 -0.1183029115 0.5133529902 4292793307
-0.3140035868 -0.1179457307 0.5142825842 4292859100
-0.3150825799 -0.1177776530 0.5160498023 4292661978
-0.3156501353 -0.1174153984 0.5169793367 4291872462
-0.3162176013 -0.1170510575 0.5179087520 4292201170
-0.3167850077 -0.1166846231 0.5188381076 4292069584
-0.3173523545 -0.1163161024 0.5197672844 4292463059
-0.3179196417 -0.1159454957 0.5206964016 4292857817
-0.3184868395 -0.1155727953 0.5216253996 4292858071
-0.3190540075 -0.1151980013 0.5225542784 4292792278
-0.3196210563 -0.1148211211 0.5234830379 4292990171
-0.3201880455 -0.1144421473 0.5244116783 4291542725
-0.3207549751 -0.1140610874 0.5253401995 4291792546
-0.3213218153 -0.1136779413 0.5262686014 4292055718
-0.3224011362 -0.1134730950 0.5280362964 4292922574
-0.3229679167 -0.1130848601 0.5289645791 4292922574
-0.3230218589 -0.1125159413 0.5290529728 4290411647
-0.3235884011 -0.1121244207 0.5299808383 4288766822
-0.3236419261 -0.1115540266 0.5300685167 4294222754
-0.3242082000 -0.1111592352 0.5309959054 4294880684
-0.3247743547 -0.1107623503 0.5319232345 4290799467
-0.3248272836 -0.1101893038 0.5320098996 4290865260
-0.3253931999 -0.1097891405 0.5329367518 4292835716
-0.3259590268 -0.1093868911 0.5338634849 4289085515
-0.3265247345 -0.1089825481 0.5347900391 4292703628
-0.3270903826 -0.1085761189 0.5357164741 4292703628
-0.3281694651 -0.1083371341 0.5374838114 4289284957
-0.3292486370 -0.1080942526 0.5392513275 4293298330
-0.3298141360 -0.1076797321 0.5401774645 4294495186
-0.3308933377 -0.1074299365 0.5419450402 4294297807
-0.3314586878 -0.1070103198 0.5428709984 4292525506
-0.3320239484 -0.1065886170 0.5437967777 4287393652
-0.3331031501 -0.1063289046 0.5455643535 4291195254
-0.3336682916 -0.1059021056 0.5464898944 4289550429
-0.3347474933 -0.1056354865 0.5482574701 4294224302
-0.3353124857 -0.1052035913 0.5491827726 4291263617
-0.3363916874 -0.1049300507 0.5509503484 4290472560
-0.3374709487 -0.1046525910 0.5527179837 4290143595
-0.3385502398 -0.1043712124 0.5544856787 4292319392
-0.3391149640 -0.1039282158 0.5554106236 4294358975
-0.3396795690 -0.1034831181 0.5563353300 4290213498
-0.3407588005 -0.1031918153 0.5581029058 4291595151
-0.3413232267 -0.1027416214 0.5590273738 4292531163
-0.3418875337 -0.1022893339 0.5599516034 4291741647
-0.3170953393 -0.1436035782 0.5202927589 4288783531
-0.3171623945 -0.1430557370 0.5204027891 4288915117
-0.3172292113 -0.1425075531 0.5205124617 4288915117
-0.3172958195 -0.1419590265 0.5206217170 4288980140
-0.3168552220 -0.1411842555 0.5198988318 4289111726
-0.3169212639 -0.1406359226 0.5200071931 4288915117
-0.3164798915 -0.1398631036 0.5192829370 4288915117
-0.3165453672 -0.1393149495 0.5193904042 4288849324
-0.3161032200 -0.1385440826 0.5186648965 4288915117
-0.3161681294 -0.1379961371 0.5187714100 4288915117
-0.3157252073 -0.1372272372 0.5180446506 4288125601
-0.3157895505 -0.1366795003 0.5181502700 4287862429
-0.3153458536 -0.1359125674 0.5174221992 4288980910
-0.3149017394 -0.1351470649 0.5166934729 4288849322
-0.3149651587 -0.1346001029 0.5167976022 4288586150
-0.3150283694 -0.1340527982 0.5169013143 4288915115
-0.3150913715 -0.1335051656 0.5170046687 4288849322
-0.3146457970 -0.1327427626 0.5162735581 4288059806
-0.3141997755 -0.1319818050 0.5155417323 4285230707
-0.3142618537 -0.1314349622 0.5156435966 4286151809
-0.3138150871 -0.1306760013 0.5149105191 4284967535
-0.3138765991 -0.1301293969 0.5150114894 4286875532
-0.3134290576 -0.1293724626 0.5142771602 4289244080
-0.3134900033 -0.1288261116 0.5143771172 4288849322
-0.3135507107 -0.1282794327 0.5144767761 4288717736
-0.3131020963 -0.1275250912 0.5137406588 4288849322
-0.3131622374 -0.1269786656 0.5138393044 4288783529
-0.3127128184 -0.1262263507 0.5131019354 4288059806
-0.3127723932 -0.1256801933 0.5131996870 4288125599
-0.3123222291 -0.1249299347 0.5124610662 4288849322
-0.3128908277 -0.1245869547 0.5133939981 4288980908
-0.3129497170 -0.1240398735 0.5134906173 4288848808
-0.3119887710 -0.1230902225 0.5119138956 4288980394
-0.3120469451 -0.1225443035 0.5120093822 4288914601
-0.3115949333 -0.1217987388 0.5112677217 4288848808
-0.3121626377 -0.1214515567 0.5121991634 4288914090
-0.3122201264 -0.1209047213 0.5122935176 4288914090
-0.3122773767 -0.1203575954 0.5123874545 4288914601
-0.3128447235 -0.1200059280 0.5133183599 4289111980
-0.3129015863 -0.1194573045 0.5134116411 4290228408
-0.3129582107 -0.1189083830 0.5135045648 4291939026
-0.3135252297 -0.1185522452 0.5144349337 4292596955
-0.3140921891 -0.1181940138 0.5153651834 4292531162
-0.3146590889 -0.1178336963 0.5162953734 4292204250
-0.3152258992 -0.1174712926 0.5172253847 4291941078
-0.3157926798 -0.1171067953 0.5181553960 4292335064
-0.3163593709 -0.1167402044 0.5190852284 4292466650
-0.3169260025 -0.1163715273 0.5200149417 4292595926
-0.3174925745 -0.1160007641 0.5209445953 4292530133
-0.3180590868 -0.1156278998 0.5218741298 4292269271
-0.3191369474 -0.1154379472 0.5236427188 4292335064
-0.3186803460 -0.1146918163 0.5228934884 4292988367
-0.3197581768 -0.1144967750 0.5246619582 4289435545
-0.3203243911 -0.1141155511 0.5255910158 4289938268
-0.3208905160 -0.1137322336 0.5265199542 4291319921
-0.3214565814 -0.1133468300 0.5274487138 4292919489
-0.3225345016 -0.1131389141 0.5292174220 4293577419
-0.3225884438 -0.1125697345 0.5293059349 4291196026
-0.3231542408 -0.1121780500 0.5302342772 4288432720
-0.3232077658 -0.1116074026 0.5303220749 4293432214
-0.3242856264 -0.1113884076 0.5320906639 4294945967
-0.3248511553 -0.1109904423 0.5330185890 4291128181
-0.3249041438 -0.1104162335 0.5331055522 4290930802
-0.3254694343 -0.1100149900 0.5340331197 4292637312
-0.3260346353 -0.1096116602 0.5349604487 4289676627
-0.3265997469 -0.1092062294 0.5358876586 4293761706
-0.3271647394 -0.1087987125 0.5368147492 4294090671
-0.3277296424 -0.1083891019 0.5377416611 4290535282
-0.3282944560 -0.1079774052 0.5386683941 4292772244
-0.3293721974 -0.1077314168 0.5404367447 4294952140
-0.3299368918 -0.1073146164 0.5413632989 4294820297
-0.3310146630 -0.1070617139 0.5431317091 4292981693
-0.3315792084 -0.1066398248 0.5440580845 4287849839
-0.3326570094 -0.1063800082 0.5458265543 4291789703
-0.3332214355 -0.1059530228 0.5467526317 4289157983
-0.3342992365 -0.1056862846 0.5485211015 4293830313
-0.3353771269 -0.1054156274 0.5502896905 4290803835
-0.3359413445 -0.1049805358 0.5512154698 4290474352
-0.3370192051 -0.1047029644 0.5529840589 4289882215
-0.3380970955 -0.1044214666 0.5547526479 4292516257
-0.3386611342 -0.1039782688 0.5556781292 4294555840
-0.3392250240 -0.1035329700 0.5566033721 4290147448
-0.3403028548 -0.1032415405 0.5583719015 4291858066
-0.3408665657 -0.1027911454 0.5592968464 4292399577
-0.3414301574 -0.1023386568 0.5602216125 4291478475
-0.3166654110 -0.1436707079 0.5205360055 4288783531
-0.3167324662 -0.1431226432 0.5206462145 4288980910
-0.3173053265 -0.1428019851 0.5215879083 4288849324
-0.3163596690 -0.1417986006 0.5200333595 4288915119
-0.3159196079 -0.1410243809 0.5193100572 4288980912
-0.3164919019 -0.1407018006 0.5202507973 4288915117
-0.3160511851 -0.1399286538 0.5195263624 4288915117
-0.3161166310 -0.1393802762 0.5196338892 4288849324
-0.3156751692 -0.1386090666 0.5189082026 4289046703
-0.3162468374 -0.1382825077 0.5198479295 4288717738
-0.3158046901 -0.1375123858 0.5191211104 4287599257
-0.3153620958 -0.1367436945 0.5183935761 4288322980
-0.3149190545 -0.1359764338 0.5176653266 4288915117
-0.3149828017 -0.1354286820 0.5177701116 4288915117
-0.3145390153 -0.1346633881 0.5170406103 4288915117
-0.3146021962 -0.1341158599 0.5171444416 4288783529
-0.3141576350 -0.1333525628 0.5164136887 4288849322
-0.3142202497 -0.1328052580 0.5165166259 4289112494
-0.3137749135 -0.1320439577 0.5157845616 4286151809
-0.3138369620 -0.1314968914 0.5158865452 4285756537
-0.3138987720 -0.1309494823 0.5159881711 4285953916
-0.3134523332 -0.1301907599 0.5152543187 4286414981
-0.3130054474 -0.1294334829 0.5145197511 4289046701
-0.3125581443 -0.1286776662 0.5137844682 4288651943
-0.3126187325 -0.1281316429 0.5138840675 4288915115
-0.3126790822 -0.1275853068 0.5139832497 4288915115
-0.3127391934 -0.1270386577 0.5140820742 4288717736
-0.3122904599 -0.1262860149 0.5133444071 4288388771
-0.3123500049 -0.1257396191 0.5134423375 4287862427
-0.3119005263 -0.1249890178 0.5127034187 4288651943
-0.3119595051 -0.1244428977 0.5128003955 4288980908
-0.3120182455 -0.1238964647 0.5128969550 4288783529
-0.3115676641 -0.1231485009 0.5121562481 4288915115
-0.3116258383 -0.1226023510 0.5122519135 4288783531
-0.3116837740 -0.1220558882 0.5123471618 4288783531
-0.3117414713 -0.1215091273 0.5124419928 4288914347
-0.3117989302 -0.1209620610 0.5125364661 4288848554
-0.3118561506 -0.1204146892 0.5126305223 4288849322
-0.3124228120 -0.1200628802 0.5135619640 4288980908
-0.3124796450 -0.1195140183 0.5136554241 4290228920
-0.3130460978 -0.1191589236 0.5145865083 4291873745
-0.3131025434 -0.1186085641 0.5146793127 4292466650
-0.3136687875 -0.1182501838 0.5156100988 4292335064
-0.3142349720 -0.1178897172 0.5165408254 4292007637
-0.3148010969 -0.1175271571 0.5174713731 4291810258
-0.3153671324 -0.1171625108 0.5184018612 4291147190
-0.3159331381 -0.1167957634 0.5193322897 4290226088
-0.3164990544 -0.1164269298 0.5202625394 4290288030
-0.3170649111 -0.1160560101 0.5211927295 4291011753
-0.3176307082 -0.1156829894 0.5221227407 4292134084
-0.3187071979 -0.1154929623 0.5238922834 4293055186
-0.3182512522 -0.1147464961 0.5231428146 4293511626
-0.3193276525 -0.1145513803 0.5249121785 4288577151
-0.3198931515 -0.1141699925 0.5258417726 4289405243
-0.3204585910 -0.1137865111 0.5267712474 4291181654
-0.3210239410 -0.1134009436 0.5277005434 4293114299
-0.3215892017 -0.1130132750 0.5286297202 4293772229
-0.3221543729 -0.1126235127 0.5295587778 4291784311
-0.3227194846 -0.1122316569 0.5304877162 4288099903
-0.3232845068 -0.1118377149 0.5314164758 4292312193
-0.3233378232 -0.1112656146 0.5315040946 4294944684
-0.3239025772 -0.1108683869 0.5324324369 4290864500
-0.3244672418 -0.1104690656 0.5333606601 4290930293
-0.3250318170 -0.1100676507 0.5342887044 4293227907
-0.3255963027 -0.1096641421 0.5352166295 4290398808
-0.3261606991 -0.1092585400 0.5361443758 4293372083
-0.3267249763 -0.1088508442 0.5370719433 4294293185
-0.3272891641 -0.1084410548 0.5379993916 4290997889
-0.3278532624 -0.1080291718 0.5389266610 4291655819
-0.3289296329 -0.1077830791 0.5406959653 4294950599
-0.3294936121 -0.1073661000 0.5416229963 4294621120
-0.3305699825 -0.1071130931 0.5433923602 4293240243
-0.3311338127 -0.1066910177 0.5443192124 4288700526
-0.3322102427 -0.1064310893 0.5460886359 4292578964
-0.3327739239 -0.1060039103 0.5470152497 4289091935
-0.3338503540 -0.1057370603 0.5487846732 4293567141
-0.3349268138 -0.1054662913 0.5505541563 4290540663
-0.3360033333 -0.1051916108 0.5523236990 4290738805
-0.3365668058 -0.1047533154 0.5532499552 4289554531
-0.3376432955 -0.1044716984 0.5550194979 4292909473
-0.3382066190 -0.1040282995 0.5559455156 4294817470
-0.3392830789 -0.1037397534 0.5577149987 4290146163
-0.3398462236 -0.1032912508 0.5586407185 4292383125
-0.3404092491 -0.1028406471 0.5595661998 4292465370
-0.3409721255 -0.1023879573 0.5604915023 4291412682
-0.3157297671 -0.1435081959 0.5199472308 4288783533
-0.3157966435 -0.1429607868 0.5200573802 4289046703
-0.3158633113 -0.1424130201 0.5201671720 4288849324
-0.3159297705 -0.1418649107 0.5202766061 4288915119
-0.3159959614 -0.1413164586 0.5203856230 4288849326
-0.3155562580 -0.1405424327 0.5196614861 4288915119
-0.3156219125 -0.1399941742 0.5197696090 4288915119
-0.3152464926 -0.1386740357 0.5191513896 4288849326
-0.3153113425 -0.1381256282 0.5192582011 4288454566
-0.3153759837 -0.1375768781 0.5193645954 4287533464
-0.3154403567 -0.1370278001 0.5194706321 4288980910
-0.3149980903 -0.1362593174 0.5187423229 4288783531
-0.3145553768 -0.1354922801 0.5180132985 4288980140
-0.3146188855 -0.1349439621 0.5181178451 4288980140
-0.3141753972 -0.1341788918 0.5173875093 4289045933
-0.3142383397 -0.1336307973 0.5174911618 4288980140
-0.3137940764 -0.1328677237 0.5167595744 4289111980
-0.3133494258 -0.1321060956 0.5160272717 4286414467
-0.3134114444 -0.1315587908 0.5161293745 4285032814
-0.3134732246 -0.1310111582 0.5162311792 4285888123
-0.3130274415 -0.1302520931 0.5154970288 4287072396
-0.3125812411 -0.1294944882 0.5147622228 4289046186
-0.3121345937 -0.1287383288 0.5140267015 4289243566
-0.3116875291 -0.1279836297 0.5132904649 4289046187
-0.3122554719 -0.1276455075 0.5142257810 4288783529
-0.3118077517 -0.1268919557 0.5134884119 4289178287
-0.3118675053 -0.1263456494 0.5135868192 4288783531
-0.3119270205 -0.1257990152 0.5136848688 4287928222
-0.3114781976 -0.1250480860 0.5129457116 4288322980
-0.3115371466 -0.1245017275 0.5130428076 4288915117
-0.3115958869 -0.1239550561 0.5131394863 4288849324
-0.3111459613 -0.1232067645 0.5123985410 4288849324
-0.3112041056 -0.1226603761 0.5124943256 4288915119
-0.3112620115 -0.1221136749 0.5125896931 4288915119
-0.3113196790 -0.1215666756 0.5126847029 4288653487
-0.3108683527 -0.1208216250 0.5119414330 4288521901
-0.3109254539 -0.1202749163 0.5120354295 4288849835
-0.3114913106 -0.1199238524 0.5129672885 4288849835
-0.3120570779 -0.1195707023 0.5138990283 4290294454
-0.3126228154 -0.1192154661 0.5148307085 4291873486
-0.3131884933 -0.1188581288 0.5157622695 4292728023
-0.3132447898 -0.1183063388 0.5158549547 4292662230
-0.3138102591 -0.1179457158 0.5167861581 4292792015
-0.3148851693 -0.1177735776 0.5185563564 4291410362
-0.3154506087 -0.1174078733 0.5194875598 4289029745
-0.3155062795 -0.1168513000 0.5195792317 4287253334
-0.3160715103 -0.1164823100 0.5205100179 4288296779
-0.3166366518 -0.1161112338 0.5214406848 4289810018
-0.3172017336 -0.1157380566 0.5223712921 4293036956
-0.3177667260 -0.1153627858 0.5233017802 4294948294
-0.3183316886 -0.1149854213 0.5242320895 4294033604
-0.3188965321 -0.1146059632 0.5251623392 4288572785
-0.3194613159 -0.1142244115 0.5260924101 4289405753
-0.3200260401 -0.1138407737 0.5270224214 4290721613
-0.3205906749 -0.1134550273 0.5279522538 4292850100
-0.3211552203 -0.1130671948 0.5288819671 4293639616
-0.3217197061 -0.1126772687 0.5298115611 4291915125
-0.3222841024 -0.1122852489 0.5307409763 4287638580
-0.3228484094 -0.1118911281 0.5316702724 4291386980
-0.3234126270 -0.1114949137 0.5325994492 4294942629
-0.3239767551 -0.1110966057 0.5335284472 4290863469
-0.3245407939 -0.1106962040 0.5344573259 4291521399
-0.3245935738 -0.1101202890 0.5345442295 4294147978
-0.3251573443 -0.1097166091 0.5354726911 4291253086
-0.3257210255 -0.1093108281 0.5364009142 4292979892
-0.3262845874 -0.1089029536 0.5373290777 4294098373
-0.3268480897 -0.1084929854 0.5382570028 4291131532
-0.3274114728 -0.1080809161 0.5391848087 4290342016
-0.3284864128 -0.1078347266 0.5409550071 4293633453
-0.3290496767 -0.1074175611 0.5418826342 4292317593
-0.3301246464 -0.1071644500 0.5436528921 4292709535
-0.3311997056 -0.1069074199 0.5454232693 4289880436
-0.3317627907 -0.1064821482 0.5463505983 4293432481
-0.3328378499 -0.1062181965 0.5481210351 4289287522
-0.3334008157 -0.1057878211 0.5490481257 4293566114
-0.3344758749 -0.1055169404 0.5508185625 4290539636
-0.3355509639 -0.1052421331 0.5525890589 4291001462
-0.3366261125 -0.1049634069 0.5543595552 4289422430
-0.3371888399 -0.1045219079 0.5552862883 4292973726
-0.3382639587 -0.1042362452 0.5570567846 4294881723
-0.3388265371 -0.1037896425 0.5579832196 4289818481
-0.3393889666 -0.1033409387 0.5589094758 4292779166
-0.3404639959 -0.1030453295 0.5606798530 4292399577
-0.3405134380 -0.1024372429 0.5607612729 4291149510
-0.3147948682 -0.1433454454 0.5193575621 4288717740
-0.3153662086 -0.1430275291 0.5203002095 4289046703
-0.3154328465 -0.1424795389 0.5204101205 4288849324
-0.3154992461 -0.1419312060 0.5205196738 4288849583
-0.3155654371 -0.1413825154 0.5206288695 4288717997
-0.3156313896 -0.1408334970 0.5207377076 4288915376
-0.3151920140 -0.1400596648 0.5200127959 4288849583
-0.3152574003 -0.1395108402 0.5201206803 4288717740
-0.3148172200 -0.1387389600 0.5193944573 4288586154
-0.3148820400 -0.1381903291 0.5195014477 4288257187
-0.3149466515 -0.1376413554 0.5196080208 4287796636
-0.3145053685 -0.1368719935 0.5188799500 4288717738
-0.3145694137 -0.1363232285 0.5189856291 4288783531
-0.3141273558 -0.1355558485 0.5182563066 4289045933
-0.3141908348 -0.1350072920 0.5183610320 4288585382
-0.3137480319 -0.1342418939 0.5176304579 4288848554
-0.3138109148 -0.1336935610 0.5177342296 4288914347
-0.3138735890 -0.1331449151 0.5178376436 4289111726
-0.3134296834 -0.1323820651 0.5171052217 4287664280
-0.3129853308 -0.1316206604 0.5163721442 4287072397
-0.3130470812 -0.1310727894 0.5164740682 4285953916
-0.3126019835 -0.1303133965 0.5157396793 4288454049
-0.3126631677 -0.1297657788 0.5158406496 4288914600
-0.3122172952 -0.1290083975 0.5151050091 4289506737
-0.3117709756 -0.1282524914 0.5143687129 4288848807
-0.3118312955 -0.1277056783 0.5144681931 4289046701
-0.3113842010 -0.1269517988 0.5137305856 4288915115
-0.3114439547 -0.1264052540 0.5138291121 4288915117
-0.3115034401 -0.1258583963 0.5139272809 4288059808
-0.3115627170 -0.1253112108 0.5140250921 4287928222
-0.3111142218 -0.1245605350 0.5132851005 4288783531
-0.3111729026 -0.1240136251 0.5133819580 4288915117
-0.3112313747 -0.1234664172 0.5134783983 4288717738
-0.3107817769 -0.1227183715 0.5127366781 4288915376
-0.3108396530 -0.1221714392 0.5128321648 4288981169
-0.3108973205 -0.1216242015 0.5129272938 4288915376
-0.3109547496 -0.1210766584 0.5130220056 4288783790
-0.3110119104 -0.1205288097 0.5131163597 4288980908
-0.3110688627 -0.1199806631 0.5132102966 4288915115
-0.3111255467 -0.1194322184 0.5133038163 4290294711
-0.3121989369 -0.1192719787 0.5150747895 4291807950
-0.3122553527 -0.1187211424 0.5151678324 4292400855
-0.3128201663 -0.1183624640 0.5160996914 4292335062
-0.3133849204 -0.1180016920 0.5170314312 4292727504
-0.3139496148 -0.1176388264 0.5179630518 4290227370
-0.3150231838 -0.1174636334 0.5197342634 4287317327
-0.3150788248 -0.1169068143 0.5198260546 4286922569
-0.3156433403 -0.1165376753 0.5207573771 4288425280
-0.3162077665 -0.1161664352 0.5216886401 4288556866
-0.3167721331 -0.1157931015 0.5226197243 4291718780
-0.3178457916 -0.1156029329 0.5243911147 4294946492
-0.3173911870 -0.1148557886 0.5236410499 4293899964
-0.3184648156 -0.1146605238 0.5254123211 4288307559
-0.3190288842 -0.1142788157 0.5263429880 4288949052
-0.3195928931 -0.1138950065 0.5272734761 4289672775
-0.3201568127 -0.1135090962 0.5282038450 4292389295
-0.3207206428 -0.1131210998 0.5291340947 4293507776
-0.3212844133 -0.1127310023 0.5300642252 4292047994
-0.3218480647 -0.1123388112 0.5309941769 4287574070
-0.3224116564 -0.1119445264 0.5319240093 4290461511
-0.3229751885 -0.1115481406 0.5328536630 4294939547
-0.3235386014 -0.1111496612 0.5337831974 4290796646
-0.3241019249 -0.1107490808 0.5347126126 4291783541
-0.3246651590 -0.1103464141 0.5356418490 4294212741
-0.3252283037 -0.1099416390 0.5365709662 4291581021
-0.3263019919 -0.1097064614 0.5383423567 4292849846
-0.3268650174 -0.1092965901 0.5392712951 4293836741
-0.3279387653 -0.1090544909 0.5410427451 4290935438
-0.3274798989 -0.1083016023 0.5402857065 4289553785
-0.3280425668 -0.1078863516 0.5412139893 4291397261
-0.3286051154 -0.1074690074 0.5421421528 4288962920
-0.3296786845 -0.1072157845 0.5439133644 4291589260
-0.3307523131 -0.1069586501 0.5456846356 4290273400
-0.3318260014 -0.1066975966 0.5474560261 4293497249
-0.3323883712 -0.1062691286 0.5483838320 4289483876
-0.3334620595 -0.1060011387 0.5501552820 4293630367
-0.3340242803 -0.1055675671 0.5510827899 4290735475
-0.3350979686 -0.1052926481 0.5528542399 4291395193
-0.3361717165 -0.1050137952 0.5546256900 4289355610
-0.3372454941 -0.1047310308 0.5563972592 4292972443
-0.3378074467 -0.1042863205 0.5573244095 4294814647
-0.3388811946 -0.1039966047 0.5590959191 4289490543
-0.3394429982 -0.1035467833 0.5600227714 4293043365
-0.3400046825 -0.1030948684 0.5609494448 4292531163
-0.3405662179 -0.1026408523 0.5618758798 4291149510
-0.3143645227 -0.1434122920 0.5195997357 4288717738
-0.3144312501 -0.1428653002 0.5197100043 4288915117
-0.3144977689 -0.1423179507 0.5198199153 4288849324
-0.3150681555 -0.1419974566 0.5207626820 4288980394
-0.3151342869 -0.1414485574 0.5208720565 4289177773
-0.3152002394 -0.1408993006 0.5209810138 4289111726
-0.3147614896 -0.1401251405 0.5202558637 4289045933
-0.3148268461 -0.1395760775 0.5203638673 4288717738
-0.3143873513 -0.1388038695 0.5196374655 4288717738
-0.3144521415 -0.1382550001 0.5197445750 4287928220
-0.3145167232 -0.1377058029 0.5198512673 4288257185
-0.3140761256 -0.1369360983 0.5191230178 4288651943
-0.3141401112 -0.1363871098 0.5192288160 4288783529
-0.3136987388 -0.1356193870 0.5184992552 4288651945
-0.3137621880 -0.1350706071 0.5186040998 4288059808
-0.3133200407 -0.1343048811 0.5178732872 4288059808
-0.3133828938 -0.1337563097 0.5179772377 4287665050
-0.3134455383 -0.1332074255 0.5180807710 4288586150
-0.3130022883 -0.1324442476 0.5173481107 4287994013
-0.3130643666 -0.1318955868 0.5174507499 4289243314
-0.3126203418 -0.1311344057 0.5167168379 4288716970
-0.3126818538 -0.1305859834 0.5168185234 4289243312
-0.3122370839 -0.1298268288 0.5160833597 4288716968
-0.3117918670 -0.1290691197 0.5153474808 4288848554
-0.3113462031 -0.1283128709 0.5146108866 4289045933
-0.3119128346 -0.1279735863 0.5155473948 4289111728
-0.3114665151 -0.1272184700 0.5148097277 4289111728
-0.3110197783 -0.1264648288 0.5140713453 4288782763
-0.3110792637 -0.1259177327 0.5141696334 4288519591
-0.3111385107 -0.1253703237 0.5142675638 4287861659
-0.3106906712 -0.1246193126 0.5135273337 4289111726
-0.3107493520 -0.1240721717 0.5136243105 4289111726
-0.3108077645 -0.1235247254 0.5137209296 4289045933
-0.3108659685 -0.1229769662 0.5138170719 4289045935
-0.3104167283 -0.1222291812 0.5130745173 4289045935
-0.3104743361 -0.1216817051 0.5131698251 4288914090
-0.3105317354 -0.1211339235 0.5132646561 4289111469
-0.3105888963 -0.1205858365 0.5133591294 4288980140
-0.3111534119 -0.1202335954 0.5142921805 4289045933
-0.3112101555 -0.1196840107 0.5143859982 4290230199
-0.3112666905 -0.1191341281 0.5144794583 4291546059
-0.3118308485 -0.1187773943 0.5154119134 4292072152
-0.3123949468 -0.1184185669 0.5163443089 4292203738
-0.3129589856 -0.1180576459 0.5172765851 4292859096
-0.3140311241 -0.1178853810 0.5190486312 4290227376
-0.3145951331 -0.1175193712 0.5199808478 4288299084
-0.3146507442 -0.1169623137 0.5200728178 4289154393
-0.3152145445 -0.1165930107 0.5210046768 4290533993
-0.3157782555 -0.1162216142 0.5219364166 4288757582
-0.3163419068 -0.1158481166 0.5228680372 4290861928
-0.3174141645 -0.1156578809 0.5246403217 4294944949
-0.3169602454 -0.1149104014 0.5238900781 4293768632
-0.3180324435 -0.1147150695 0.5256622434 4288044641
-0.3185957968 -0.1143331900 0.5265934467 4289675344
-0.3191590905 -0.1139492169 0.5275244713 4289477965
-0.3197222948 -0.1135631502 0.5284553766 4292975264
-0.3202854395 -0.1131749824 0.5293861032 4294949054
-0.3208484650 -0.1127847135 0.5303167701 4291592322
-0.3214114308 -0.1123923585 0.5312472582 4287118398
-0.3219743073 -0.1119978949 0.5321776271 4289077805
-0.3225370944 -0.1116013452 0.5331078172 4294934667
-0.3230998218 -0.1112026870 0.5340378881 4291250778
-0.3241721392 -0.1109764278 0.5358102918 4292237673
-0.3242249489 -0.1103990898 0.5358976126 4294016918
-0.3247873783 -0.1099941432 0.5368272066 4291056233
-0.3253497183 -0.1095871031 0.5377566814 4293438899
-0.3259119689 -0.1091779619 0.5386859775 4294688966
-0.3264741004 -0.1087667271 0.5396150947 4291068043
-0.3270361423 -0.1083533913 0.5405440927 4289028460
-0.3275980949 -0.1079379544 0.5414729118 4291002767
-0.3281599283 -0.1075204238 0.5424015522 4289357942
-0.3292320967 -0.1072671041 0.5441736579 4291784836
-0.3297938108 -0.1068444699 0.5451021194 4290337390
-0.3313765824 -0.1067486927 0.5477182269 4292706191
-0.3319382370 -0.1063200384 0.5486465693 4289416541
-0.3330105245 -0.1060519367 0.5504189134 4293234588
-0.3340828717 -0.1057799160 0.5521913171 4290339696
-0.3346443176 -0.1053431332 0.5531193614 4291328380
-0.3357166648 -0.1050641686 0.5548917651 4289157211
-0.3367890120 -0.1047812775 0.5566642284 4294086296
