VERSION 0.7
FIELDS x y z rgba
SIZE 4 4 4 4
TYPE F F F U
COUNT 1 1 1 1
WIDTH 920
HEIGHT 1
VIEWPOINT 0.0 0.0 0.0 1.0 0.0 0.0 0.0
POINTS 920
DATA ascii
-0.2955515683 -0.1284958422 0.6010508537 4290758352
-0.2964728475 -0.1282264888 0.6029244065 4290758352
-0.2960936129 -0.1273934394 0.6021531820 4290824145
-0.2961475849 -0.1267475039 0.6022629738 4290889938
-0.2962013185 -0.1261012107 0.6023722291 4290889938
-0.2958210111 -0.1252709031 0.6015987992 4291218903
-0.2958741486 -0.1246248558 0.6017068624 4291679454
-0.2954930961 -0.1237966791 0.6009319425 4291745247
-0.2955456376 -0.1231508926 0.6010388136 4291745247
-0.2955979109 -0.1225047633 0.6011450887 4292008419
-0.2952158153 -0.1216793507 0.6003680229 4292337384
-0.2957017124 -0.1212114766 0.6013562083 4292732138
-0.2953189313 -0.1203872859 0.6005777717 4293192689
-0.2953701019 -0.1197407469 0.6006818414 4293850873
-0.2940109372 -0.2173370868 0.5992713571 4293389816
-0.2940971851 -0.2167348117 0.5994471312 4293324024
-0.2941832542 -0.2161320001 0.5996225476 4293258231
-0.2942691147 -0.2155286670 0.5997975469 4293192438
-0.2943547666 -0.2149247974 0.5999721885 4293192438
-0.2948596776 -0.2146257013 0.6010013223 4293060852
-0.2945255637 -0.2137154937 0.6003202200 4292995059
-0.2946106493 -0.2131100446 0.6004936695 4292929266
-0.2946955562 -0.2125040889 0.6006667614 4292929266
-0.2943603396 -0.2115957439 0.5999835134 4292731887
-0.2944447398 -0.2109895945 0.6001555324 4292534508
-0.2949491143 -0.2106830478 0.6011835933 4292402922
-0.2950332463 -0.2100749910 0.6013550162 4292337129
-0.2951171696 -0.2094664127 0.6015261412 4292139750
-0.2952009141 -0.2088573277 0.6016967893 4291942371
-0.2952844501 -0.2082477212 0.6018670797 4291679199
-0.2953678071 -0.2076375782 0.6020369530 4291416027
-0.2954509556 -0.2070269436 0.6022064090 4291481305
-0.2955338955 -0.2064157873 0.6023755074 4291283926
-0.2956166267 -0.2058041096 0.6025441885 4291218133
-0.2952779531 -0.2048996240 0.6018538475 4291086547
-0.2953602076 -0.2042877972 0.6020214558 4290757582
-0.2954422235 -0.2036754638 0.6021886468 4290560203
-0.2955240607 -0.2030626088 0.6023554802 4290297801
-0.2956056893 -0.2024492621 0.6025218368 4290166215
-0.2956871092 -0.2018353939 0.6026878357 4289968836
-0.2957683504 -0.2012210339 0.6028533578 4289705664
-0.2958493531 -0.2006061524 0.6030185223 4289442492
-0.2959301770 -0.1999907792 0.6031832695 4289179320
-0.2960107923 -0.1993748844 0.6033475399 4288916661
-0.2960911989 -0.1987584978 0.6035114527 4289048247
-0.2961713970 -0.1981416196 0.6036748886 4288850866
-0.2962513864 -0.1975242198 0.6038379669 4287995557
-0.2963311970 -0.1969063282 0.6040006280 4285039498
-0.2959879339 -0.1960079372 0.6033009291 4283526259
-0.2960671782 -0.1953899413 0.6034625173 4279730561
-0.2957231700 -0.1944931895 0.6027613282 4279796354
-0.2962250710 -0.1941524446 0.6037843227 4278223753
-0.2963037193 -0.1935329586 0.6039445996 4278222982
-0.2959587276 -0.1926373839 0.6032414436 4278224272
-0.2960368395 -0.1920178086 0.6034006476 4278222473
-0.2961147428 -0.1913977265 0.6035594344 4278949271
-0.2957686782 -0.1905042380 0.6028540730 4281449405
-0.2954221964 -0.1896120310 0.6021478176 4281186746
-0.2950752676 -0.1887211204 0.6014407277 4280331437
-0.2951519787 -0.1881017685 0.6015970707 4280659122
-0.2952284813 -0.1874819249 0.6017529964 4280527536
-0.2953047752 -0.1868616194 0.6019085050 4279872691
-0.2953808308 -0.1862408221 0.6020635366 4279346347
-0.2954567075 -0.1856195331 0.6022181511 4281969326
-0.2955323458 -0.1849977821 0.6023723483 4282890428
-0.2956077754 -0.1843755543 0.6025261283 4283346872
-0.2961078286 -0.1840168536 0.6035453081 4282623149
-0.2961829305 -0.1833927780 0.6036984324 4283081130
-0.2962578237 -0.1827682257 0.6038510203 4283739060
-0.2963324785 -0.1821431965 0.6040032506 4285443768
-0.2959816754 -0.1812572777 0.6032881737 4286891214
-0.2960557938 -0.1806322038 0.6034392715 4288462284
-0.2957042158 -0.1797480285 0.6027227044 4288001733
-0.2957777977 -0.1791229248 0.6028726697 4289247944
-0.2958511710 -0.1784973592 0.6030222178 4283523953
-0.2959243059 -0.1778713167 0.6031712890 4280430904
-0.2959972322 -0.1772448123 0.6033198833 4281680971
-0.2960699201 -0.1766178459 0.6034680605 4282203461
-0.2957162857 -0.1757372022 0.6027473211 4281413945
-0.2957884371 -0.1751102209 0.6028943658 4281086009
-0.2958603799 -0.1744827777 0.6030409336 4281546560
-0.2955056727 -0.1736043692 0.6023179889 4288652204
-0.2951505184 -0.1727273166 0.6015940905 4292205026
-0.2935150862 -0.1711055189 0.5982606411 4292533991
-0.2927320600 -0.1699861139 0.5966646075 4292205026
-0.2919483781 -0.1688698828 0.5950673223 4292336612
-0.2920179367 -0.1682488024 0.5952090621 4292336612
-0.2920872867 -0.1676272750 0.5953504443 4292139233
-0.2921563983 -0.1670053005 0.5954912901 4292073440
-0.2922252715 -0.1663828939 0.5956317186 4291942624
-0.2922939360 -0.1657600403 0.5957716703 4291942624
-0.2923623919 -0.1651367545 0.5959111452 4291876831
-0.2928581238 -0.1647535414 0.5969216228 4291876831
-0.2929262221 -0.1641284674 0.5970603824 4291811038
-0.2929940820 -0.1635029465 0.5971986651 4291745245
-0.2926338613 -0.1626392305 0.5964645147 4291941856
-0.2927011847 -0.1620137691 0.5966016650 4292073442
-0.2927682400 -0.1613878757 0.5967383981 4292402407
-0.2928350866 -0.1607615501 0.5968746543 4292402407
-0.2929016948 -0.1601348072 0.5970104337 4292139235
-0.2929680943 -0.1595076323 0.5971457362 4291941856
-0.2930342555 -0.1588800251 0.5972805619 4291941856
-0.2926716506 -0.1580206305 0.5965415239 4292007649
-0.2927372456 -0.1573930979 0.5966752172 4292073442
-0.2928026021 -0.1567651480 0.5968084335 4292007649
-0.2928677499 -0.1561367661 0.5969411731 4292007649
-0.2929326296 -0.1555079818 0.5970734954 4292007649
-0.2925683260 -0.1546519995 0.5963308811 4291941856
-0.2926326692 -0.1540233046 0.5964620113 4292007649
-0.2926967442 -0.1533941925 0.5965926647 4292073442
-0.2923313677 -0.1525406539 0.5958479047 4292073442
-0.2923949063 -0.1519116461 0.5959774256 4292008417
-0.2920287549 -0.1510600597 0.5952311158 4292008417
-0.2920917273 -0.1504311562 0.5953594446 4291942622
-0.2921544611 -0.1498018354 0.5954873562 4291942622
-0.2922169566 -0.1491721123 0.5956147313 4292073694
-0.2922792435 -0.1485419869 0.5957416892 4292073694
-0.2923412621 -0.1479114592 0.5958681107 4292139233
-0.2924030423 -0.1472805291 0.5959940553 4292139233
-0.2924646139 -0.1466492116 0.5961195230 4292205026
-0.2925259173 -0.1460174769 0.5962444544 4292205026
-0.2925870121 -0.1453853548 0.5963689685 4292139487
-0.2926478386 -0.1447528452 0.5964929461 4292139487
-0.2927084267 -0.1441199332 0.5966164470 4292204767
-0.2927687764 -0.1434866339 0.5967394710 4292204767
-0.2928288877 -0.1428529322 0.5968620181 4292270560
-0.2928887606 -0.1422188431 0.5969840288 4292336353
-0.2929483950 -0.1415843815 0.5971056223 4292271073
-0.2925769091 -0.1407422423 0.5963483453 4292336866
-0.2926359475 -0.1401079297 0.5964687467 4292336866
-0.2931258380 -0.1396786422 0.5974672437 4292402659
-0.2931844890 -0.1390426308 0.5975868106 4292402405
-0.2932429016 -0.1384062469 0.5977059007 4292468198
-0.2933010757 -0.1377694756 0.5978244543 4292468198
-0.2933589816 -0.1371323168 0.5979424715 4292468198
-0.2934166789 -0.1364948004 0.5980600715 4292533991
-0.2934741080 -0.1358568966 0.5981771350 4292599784
-0.2935312986 -0.1352186203 0.5982936621 4292665577
-0.2940199673 -0.1347778887 0.5992897153 4292731370
-0.2936449051 -0.1339409500 0.5985252857 4292666349
-0.2937013507 -0.1333015710 0.5986403227 4292666349
-0.2937575281 -0.1326618046 0.5987548232 4292666349
-0.2938134968 -0.1320216805 0.5988688469 4292666349
-0.2938691676 -0.1313811988 0.5989823937 4292600556
-0.2934923768 -0.1305480897 0.5982143879 4292534763
-0.2935474813 -0.1299078166 0.5983266830 4292468970
-0.2936023474 -0.1292671859 0.5984385014 4292468970
-0.2936569452 -0.1286261976 0.5985498428 4292468970
-0.2941438854 -0.1281733364 0.5995423198 4292403177
-0.2946307063 -0.1277182400 0.6005346179 4292205798
-0.2942520082 -0.1268876940 0.5997626781 4292205798
-0.2943056822 -0.1262443364 0.5998721123 4292271591
-0.2943591177 -0.1256006360 0.5999810100 4292008419
-0.2939793169 -0.1247728243 0.5992068648 4292205798
-0.2940321565 -0.1241293699 0.5993145704 4292271591
-0.2936516404 -0.1233037114 0.5985389948 4291679454
-0.2937038839 -0.1226605102 0.5986455083 4291153110
-0.2933226228 -0.1218370050 0.5978683829 4291679454
-0.2933743000 -0.1211940795 0.5979737043 4292600556
-0.2938591242 -0.1207288727 0.5989618897 4292995564
-0.2934768498 -0.1199072003 0.5981827378 4293653494
-0.2946342528 -0.2022417933 0.6019043922 4293390072
-0.2943753600 -0.2007277459 0.6013755202 4293258486
-0.2944560647 -0.2001144290 0.6015403867 4293193206
-0.2953793108 -0.2000714093 0.6034264565 4292995827
-0.2946168482 -0.1988862604 0.6018688679 4292798448
-0.2946969569 -0.1982714385 0.6020324826 4292930034
-0.2947768569 -0.1976560950 0.6021957397 4292403177
-0.2948565185 -0.1970402747 0.6023585200 4291218903
-0.2949360013 -0.1964239329 0.6025208831 4288128434
-0.2950152755 -0.1958070993 0.6026828289 4286483609
-0.2950943410 -0.1951897740 0.6028442979 4282621342
-0.2947509289 -0.1942936033 0.6021427512 4282423963
-0.2948294580 -0.1936761737 0.6023032069 4279145621
-0.2953302860 -0.1933348328 0.6033263206 4278816656
-0.2949858904 -0.1924398243 0.6026228070 4279211161
-0.2946410775 -0.1915460974 0.6019183397 4278882196
-0.2951415181 -0.1912015229 0.6029406786 4279870631
-0.2947960496 -0.1903085858 0.6022349596 4281976007
-0.2944501638 -0.1894169599 0.6015283465 4281252284
-0.2945269942 -0.1887978762 0.6016852856 4280594354
-0.2941803634 -0.1879079342 0.6009771228 4280659636
-0.2942566574 -0.1872887760 0.6011330485 4280528050
-0.2947562635 -0.1869377196 0.6021536589 4279741870
-0.2948322594 -0.1863167137 0.6023089290 4279412905
-0.2949080467 -0.1856952161 0.6024637222 4282296502
-0.2949835956 -0.1850732565 0.6026180983 4282888639
-0.2950589657 -0.1844508052 0.6027719975 4283542970
-0.2951340973 -0.1838278770 0.6029255390 4283279798
-0.2952089906 -0.1832044870 0.6030785441 4283540652
-0.2952837050 -0.1825806051 0.6032311916 4284001203
-0.2953581810 -0.1819562614 0.6033833623 4285902517
-0.2954324484 -0.1813314408 0.6035350561 4287613135
-0.2955065072 -0.1807061583 0.6036863327 4288594889
-0.2951556444 -0.1798216552 0.6029695868 4287805373
-0.2952291667 -0.1791963279 0.6031197309 4288854976
-0.2948775589 -0.1783135980 0.6024014354 4283130985
-0.2949505150 -0.1776882410 0.6025505066 4281087039
-0.2950232327 -0.1770624220 0.6026991010 4281942348
-0.2950957716 -0.1764361411 0.6028472185 4281942603
-0.2947427332 -0.1755560637 0.6021260619 4280889915
-0.2948147058 -0.1749297678 0.6022731066 4281414977
-0.2948864698 -0.1743030101 0.6024196744 4282533458
-0.2945323586 -0.1734251827 0.6016962528 4289704894
-0.2937521040 -0.1722989976 0.6001023054 4292402407
-0.2925453782 -0.1709271818 0.5976371169 4292797165
-0.2917637527 -0.1698082536 0.5960403085 4292599786
-0.2914075255 -0.1689394861 0.5953125954 4292994545
-0.2914770246 -0.1683181822 0.5954545736 4293126131
-0.2915462852 -0.1676964313 0.5955960751 4292862958
-0.2916153371 -0.1670742333 0.5957370996 4292402407
-0.2916841507 -0.1664516032 0.5958777070 4292533991
-0.2917527556 -0.1658285260 0.5960178375 4292468198
-0.2922477424 -0.1654465348 0.5970290303 4292270819
-0.2923159897 -0.1648216695 0.5971684456 4292468198
-0.2923839986 -0.1641963720 0.5973073840 4292336614
-0.2924517989 -0.1635706425 0.5974459052 4292336614
-0.2920923233 -0.1627065837 0.5967115164 4292402405
-0.2921595573 -0.1620808989 0.5968489051 4292205026
-0.2922265530 -0.1614547819 0.5969857574 4292402405
-0.2922933400 -0.1608282328 0.5971221924 4292336612
-0.2923598886 -0.1602012515 0.5972581506 4292073440
-0.2924261987 -0.1595738381 0.5973935723 4292139233
-0.2920646667 -0.1587136239 0.5966550112 4292139233
-0.2921304107 -0.1580862850 0.5967893600 4292139233
-0.2921959460 -0.1574585140 0.5969232321 4292007647
-0.2922612429 -0.1568303406 0.5970566273 4292073440
-0.2923263013 -0.1562017351 0.5971895456 4292205026
-0.2923911512 -0.1555726975 0.5973219872 4291876061
-0.2920275331 -0.1547164023 0.5965791941 4292139487
-0.2920918167 -0.1540874690 0.5967105031 4292336866
-0.2921558619 -0.1534581184 0.5968413353 4292073694
-0.2917911708 -0.1526042670 0.5960963368 4292139487
-0.2918546498 -0.1519750059 0.5962260365 4292270819
-0.2914892435 -0.1511231065 0.5954794884 4291941854
-0.2915521562 -0.1504939646 0.5956079960 4292205026
-0.2911859751 -0.1496440172 0.5948599577 4292205026
-0.2912483215 -0.1490149796 0.5949873328 4292073440
-0.2913104296 -0.1483855546 0.5951142311 4292139233
-0.2913722992 -0.1477557123 0.5952406526 4292073440
-0.2914339602 -0.1471254677 0.5953665376 4292270819
-0.2914953530 -0.1464948356 0.5954920053 4292402146
-0.2915565073 -0.1458638012 0.5956169367 4292402146
-0.2916174531 -0.1452323645 0.5957413912 4292336353
-0.2916781306 -0.1446005404 0.5958653688 4292204767
-0.2917385697 -0.1439683288 0.5959888697 4292336353
-0.2917987704 -0.1433357149 0.5961118340 4292336353
-0.2918587327 -0.1427027136 0.5962343812 4292007388
-0.2919184566 -0.1420693099 0.5963563919 4292138974
-0.2919779420 -0.1414355338 0.5964778662 4292139487
-0.2920371890 -0.1408013701 0.5965989232 4292073694
-0.2916660011 -0.1399603784 0.5958406329 4292270560
-0.2917246819 -0.1393263787 0.5959604383 4292402146
-0.2922134399 -0.1388965547 0.5969589949 4292336353
-0.2922717333 -0.1382608563 0.5970780253 4292467939
-0.2923297584 -0.1376247853 0.5971965790 4292271073
-0.2923875153 -0.1369883269 0.5973145962 4292271073
-0.2924450636 -0.1363514811 0.5974321365 4292139233
-0.2925023437 -0.1357142776 0.5975492001 4292205026
-0.2925593853 -0.1350766867 0.5976657271 4292270819
-0.2926161885 -0.1344387382 0.5977817178 4292270819
-0.2926727235 -0.1338004172 0.5978972316 4292402405
-0.2922979295 -0.1329656094 0.5971315503 4292336612
-0.2923538983 -0.1323274821 0.5972458720 4292599784
-0.2924095988 -0.1316889971 0.5973597169 4292599784
-0.2924650908 -0.1310501397 0.5974730253 4292402405
-0.2925203145 -0.1304109246 0.5975858569 4292533991
-0.2925752699 -0.1297713518 0.5976981521 4292468198
-0.2921983898 -0.1289409548 0.5969282389 4292468198
-0.2926844954 -0.1284911186 0.5979212523 4292599784
-0.2931704819 -0.1280390322 0.5989140868 4292731370
-0.2932245135 -0.1273970902 0.5990245342 4292797163
-0.2932783365 -0.1267547756 0.5991344452 4292862956
-0.2928998768 -0.1259263903 0.5983612537 4293060335
-0.2929530740 -0.1252843291 0.5984699726 4292928749
-0.2925738990 -0.1244580746 0.5976953506 4292797933
-0.2926265299 -0.1238162592 0.5978028774 4292732140
-0.2922465801 -0.1229921654 0.5970267057 4292534761
-0.2922986448 -0.1223506108 0.5971330404 4291876831
-0.2923504412 -0.1217087135 0.5972388387 4292403175
-0.2924019694 -0.1210664809 0.5973441005 4293061105
-0.2924532592 -0.1204239056 0.5974488854 4293587701
-0.2920715809 -0.1196038052 0.5966691971 4293719287
-0.2905682623 -0.2177522182 0.5949479342 4293324024
-0.2910712659 -0.2174669951 0.5959779024 4293192438
-0.2911571860 -0.2168688327 0.5961538553 4293126900
-0.2912429571 -0.2162701339 0.5963293910 4293126900
-0.2913285196 -0.2156709135 0.5965046287 4293192951
-0.2914139032 -0.2150711715 0.5966794491 4293258744
-0.2934641540 -0.1965557784 0.6008774042 4293126900
-0.2935433090 -0.1959410012 0.6010394692 4291025634
-0.2936222553 -0.1953257322 0.6012011766 4289907153
-0.2937010229 -0.1947099566 0.6013624072 4286368458
-0.2937795818 -0.1940937042 0.6015232205 4285052598
-0.2938579023 -0.1934769452 0.6016836166 4281902759
-0.2939360440 -0.1928596944 0.6018435955 4281113243
-0.2940139771 -0.1922419518 0.6020031571 4280063389
-0.2940916717 -0.1916237175 0.6021623015 4279273873
-0.2941691875 -0.1910050064 0.6023209691 4279411111
-0.2938243151 -0.1901126504 0.6016148925 4281319108
-0.2939012945 -0.1894938350 0.6017724872 4280991686
-0.2935556769 -0.1886031777 0.6010648012 4280728514
-0.2940546274 -0.1882547587 0.6020864248 4280595132
-0.2937083542 -0.1873649210 0.6013774276 4280266167
-0.2937843800 -0.1867450625 0.6015330553 4279872691
-0.2942830026 -0.1863925308 0.6025540233 4279806898
-0.2943587005 -0.1857708246 0.6027089953 4281905596
-0.2944341898 -0.1851486415 0.6028635502 4282497733
-0.2945094407 -0.1845259815 0.6030176878 4283413442
-0.2945845127 -0.1839028448 0.6031713486 4283216063
-0.2946593463 -0.1832792312 0.6033245921 4283606704
-0.2947339714 -0.1826551408 0.6034774184 4284001462
-0.2948083878 -0.1820305735 0.6036297679 4286165691
-0.2948825657 -0.1814055294 0.6037816405 4287547344
-0.2949565351 -0.1807800233 0.6039330959 4288594121
-0.2946063876 -0.1798952073 0.6032161713 4288199363
-0.2946798205 -0.1792696565 0.6033665538 4288658113
-0.2947530448 -0.1786436439 0.6035164595 4283197294
-0.2948260307 -0.1780171692 0.6036658883 4281284931
-0.2948988080 -0.1773902327 0.6038148999 4282140240
-0.2941224873 -0.1762541533 0.6022254229 4282140239
-0.2941946089 -0.1756280810 0.6023730636 4281021758
-0.2938418984 -0.1747490317 0.6016508341 4281349183
-0.2934887409 -0.1738713384 0.6009277105 4283059801
-0.2935599685 -0.1732457131 0.6010736227 4288783792
-0.2927811146 -0.1721200049 0.5994789004 4290428617
-0.2915765941 -0.1707485616 0.5970125794 4290494408
-0.2907963693 -0.1696301103 0.5954150558 4290625994
-0.2908660173 -0.1690090299 0.5955576301 4291218133
-0.2909354270 -0.1683875024 0.5956997871 4292336614
-0.2910046279 -0.1677655280 0.5958414674 4292533991
-0.2910735905 -0.1671431065 0.5959826708 4292468198
-0.2915679812 -0.1667636931 0.5969949365 4292665577
-0.2916366160 -0.1661394835 0.5971354842 4292599784
-0.2917050123 -0.1655148417 0.5972754955 4292665831
-0.2921991348 -0.1651304513 0.5982872248 4292797417
-0.2922671735 -0.1645040214 0.5984265208 4292731370
-0.2919088304 -0.1636382490 0.5976928473 4292862956
-0.2919763327 -0.1630118489 0.5978310704 4292599786
-0.2916172445 -0.1621479541 0.5970958471 4292665579
-0.2916841805 -0.1615216136 0.5972328782 4292665579
-0.2917509079 -0.1608948261 0.5973694324 4292468200
-0.2918173671 -0.1602676213 0.5975055695 4292270821
-0.2918836176 -0.1596399844 0.5976412296 4292533993
-0.2915228009 -0.1587794423 0.5969024301 4292599786
-0.2915885150 -0.1581518650 0.5970369577 4292533993
-0.2916539609 -0.1575238705 0.5971710086 4292468198
-0.2917191982 -0.1568954587 0.5973045230 4292402405
-0.2917841971 -0.1562666148 0.5974376202 4292139233
-0.2918489575 -0.1556373686 0.5975702405 4291941854
-0.2914860845 -0.1547807306 0.5968272686 4292336612
-0.2915503085 -0.1541515589 0.5969586968 4292205026
-0.2916142642 -0.1535219848 0.5970897079 4292468198
-0.2912503183 -0.1526677907 0.5963445306 4292270819
-0.2913137376 -0.1520383060 0.5964743495 4292205026
-0.2909490466 -0.1511860788 0.5957276225 4292073440
-0.2910118997 -0.1505566984 0.5958563089 4292073440
-0.2906464636 -0.1497064233 0.5951080918 4292007647
-0.2907087505 -0.1490771621 0.5952355862 4291941854
-0.2907707989 -0.1484474838 0.5953626633 4292139233
-0.2908326089 -0.1478174180 0.5954892039 4292139233
-0.2908941805 -0.1471869349 0.5956152678 4292205026
-0.2909555137 -0.1465560645 0.5957409143 4292138976
-0.2910166085 -0.1459247917 0.5958660245 4292204769
-0.2910774648 -0.1452931166 0.5959905982 4292204769
-0.2907093167 -0.1444480121 0.5952368379 4292073183
-0.2911984921 -0.1440286040 0.5962383747 4292007390
-0.2908296883 -0.1431845576 0.5954832435 4292073183
-0.2908895016 -0.1425522417 0.5956057310 4292007388
-0.2909490764 -0.1419195533 0.5957276821 4291941595
-0.2910084128 -0.1412864625 0.5958491564 4291942108
-0.2910675108 -0.1406529844 0.5959701538 4292007901
-0.2911263406 -0.1400191188 0.5960906744 4291941595
-0.2911849618 -0.1393848807 0.5962106586 4292073181
-0.2912433147 -0.1387502551 0.5963301659 4292270560
-0.2913014591 -0.1381152421 0.5964491963 4292336353
-0.2913593352 -0.1374798566 0.5965676904 4292336866
-0.2914169729 -0.1368440986 0.5966857076 4292271073
-0.2914743423 -0.1362079531 0.5968032479 4292007647
-0.2915315032 -0.1355714351 0.5969202518 4292073440
-0.2915883958 -0.1349345446 0.5970367193 4292205026
-0.2916450500 -0.1342972815 0.5971527696 4292205026
-0.2917014658 -0.1336596459 0.5972682238 4292402405
-0.2913272977 -0.1328254491 0.5965021253 4292270819
-0.2913831472 -0.1321880221 0.5966164470 4292336612
-0.2914387286 -0.1315502226 0.5967302918 4292139233
-0.2914940417 -0.1309120655 0.5968435407 4292205026
-0.2915491462 -0.1302735507 0.5969563723 4292270819
-0.2916039824 -0.1296346635 0.5970686674 4292336612
-0.2916585803 -0.1289954185 0.5971804261 4292402405
-0.2917129099 -0.1283558309 0.5972917080 4292468198
-0.2917670012 -0.1277158707 0.5974024534 4292533991
-0.2918208539 -0.1270755529 0.5975126624 4292533991
-0.2918744385 -0.1264348924 0.5976223946 4292468198
-0.2919277549 -0.1257938743 0.5977315903 4292468198
-0.2919808626 -0.1251524985 0.5978403091 4292468198
-0.2916023135 -0.1243268698 0.5970652699 4292599784
-0.2912233770 -0.1235027909 0.5962893367 4292797163
-0.2912755609 -0.1228622720 0.5963962078 4292731370
-0.2913274765 -0.1222214177 0.5965024829 4292336612
-0.2913791537 -0.1215802208 0.5966082811 4292797163
-0.2914305627 -0.1209386811 0.5967135429 4293191921
-0.2914817035 -0.1202968061 0.5968183279 4293192691
-0.2911007106 -0.1194773242 0.5960382223 4293258484
-0.2911512852 -0.1188357249 0.5961417556 4293455861
-0.2912016213 -0.1181937903 0.5962448120 4293653240
-0.2912516892 -0.1175515279 0.5963472724 4293784826
-0.2917336822 -0.1170823872 0.5973342061 4293784826
-0.2939973176 -0.1106337160 0.6019690633 4293653493
-0.2940443754 -0.1099824905 0.6020653844 4293850872
-0.2891897857 -0.2172131538 0.5934751034 4293061620
-0.2896916568 -0.2169295847 0.5945050716 4292732655
-0.2897772491 -0.2163329422 0.5946807265 4292535276
-0.2898626626 -0.2157357931 0.5948560238 4292403690
-0.2899478972 -0.2151380926 0.5950309634 4292600556
-0.2904496491 -0.2148481309 0.5960606337 4292600556
-0.2905346155 -0.2142485231 0.5962350368 4292666349
-0.2906194031 -0.2136483938 0.5964090228 4292666349
-0.2907040119 -0.2130477428 0.5965826511 4292732142
-0.2903712094 -0.2121417671 0.5958997011 4292797935
-0.2904553115 -0.2115409225 0.5960722566 4292863728
-0.2905392349 -0.2109395564 0.5962444544 4292929521
-0.2910405099 -0.2106398940 0.5972731709 4292995314
-0.2911241651 -0.2100366205 0.5974448323 4293061107
-0.2912076116 -0.2094328403 0.5976161361 4293126645
-0.2917087972 -0.2091281563 0.5986446142 4293192438
-0.2909559011 -0.2079249769 0.5970995426 4293258231
-0.2910386622 -0.2073205113 0.5972693563 4293324024
-0.2926522195 -0.1951241642 0.6005807519 4293651962
-0.2927307785 -0.1945090741 0.6007419825 4291226095
-0.2928091288 -0.1938934922 0.6009027362 4290107614
-0.2928872705 -0.1932774186 0.6010631323 4288468444
-0.2925442755 -0.1923840344 0.6003592610 4288139479
-0.2926219106 -0.1917678565 0.6005185246 4285843153
-0.2926993072 -0.1911511868 0.6006773710 4284329914
-0.2927765250 -0.1905340403 0.6008358002 4281249204
-0.2928535044 -0.1899163872 0.6009938121 4281380790
-0.2929303050 -0.1892982721 0.6011514068 4279544239
-0.2930068672 -0.1886796504 0.6013085246 4279017895
-0.2930832207 -0.1880605519 0.6014652252 4278885280
-0.2927375734 -0.1871712655 0.6007558703 4278951073
-0.2928133905 -0.1865520924 0.6009114981 4279214497
-0.2933110297 -0.1862003654 0.6019327641 4279346083
-0.2933865488 -0.1855793297 0.6020877361 4281183411
-0.2934618592 -0.1849578321 0.6022422910 4281775548
-0.2935369313 -0.1843358427 0.6023963690 4283348673
-0.2936117947 -0.1837133914 0.6025499701 4283480259
-0.2936864495 -0.1830904484 0.6027032137 4283869876
-0.2937608957 -0.1824670434 0.6028559804 4284198841
-0.2938351035 -0.1818431616 0.6030082703 4286756547
-0.2939091325 -0.1812188029 0.6031601429 4287743442
-0.2935599089 -0.1803341359 0.6024435163 4289053646
-0.2940564752 -0.1799686849 0.6034625769 4288593095
-0.2937066257 -0.1790848672 0.6027445793 4288853695
-0.2937796414 -0.1784595400 0.6028944254 4284050806
-0.2938524485 -0.1778337359 0.6030438542 4281941321
-0.2939250469 -0.1772074699 0.6031928062 4282862423
-0.2939974070 -0.1765807569 0.6033413410 4282730834
-0.2936458290 -0.1757000238 0.6026198268 4281809732
-0.2928699553 -0.1745680273 0.6010276079 4281481537
-0.2929413617 -0.1739426255 0.6011741161 4283455327
-0.2925885022 -0.1730659604 0.6004499793 4287995044
-0.2922351956 -0.1721906364 0.5997248888 4287271321
-0.2910329700 -0.1708186716 0.5972577333 4287008149
-0.2906786203 -0.1699479073 0.5965304971 4288850353
-0.2903238237 -0.1690784991 0.5958024263 4288849583
-0.2903931737 -0.1684567481 0.5959447622 4290823373
-0.2904622853 -0.1678345501 0.5960865617 4291349971
-0.2909559608 -0.1674563587 0.5970996618 4291481557
-0.2910247147 -0.1668323725 0.5972408056 4291547350
-0.2910932600 -0.1662079394 0.5973814726 4291547350
-0.2911615968 -0.1655830592 0.5975217223 4291678936
-0.2916548550 -0.1651985496 0.5985339284 4291810522
-0.2917228341 -0.1645718813 0.5986734629 4291810522
-0.2917905748 -0.1639447808 0.5988124609 4292007901
-0.2914326489 -0.1630791724 0.5980778933 4292336614
-0.2914998233 -0.1624521017 0.5982158184 4292336614
-0.2911411524 -0.1615883708 0.5974797010 4292205028
-0.2912077904 -0.1609613597 0.5976164937 4291941856
-0.2912741899 -0.1603339165 0.5977527499 4291941856
-0.2913403809 -0.1597060561 0.5978885889 4292336614
-0.2914063334 -0.1590777636 0.5980239511 4292533991
-0.2910459340 -0.1582173854 0.5972843170 4292205026
-0.2911113203 -0.1575891674 0.5974184871 4291876061
-0.2911764681 -0.1569605172 0.5975522399 4291349717
-0.2912414074 -0.1563314497 0.5976854563 4291481303
-0.2913061082 -0.1557019502 0.5978182554 4291415510
-0.2909439802 -0.1548449993 0.5970750451 4292336612
-0.2910081148 -0.1542155892 0.5972067118 4292533991
-0.2910720110 -0.1535857767 0.5973378420 4292862956
-0.2911356688 -0.1529555470 0.5974684954 4292731370
-0.2907721400 -0.1521015465 0.5967224240 4292797163
-0.2908352613 -0.1514714211 0.5968519449 4292731370
-0.2904709578 -0.1506193727 0.5961043835 4292665577
-0.2905335128 -0.1499893516 0.5962327123 4292468198
-0.2905958295 -0.1493589133 0.5963606238 4292468198
-0.2902304530 -0.1485093683 0.5956107974 4292533991
-0.2902922034 -0.1478790492 0.5957375169 4292533991
-0.2903537154 -0.1472483426 0.5958637595 4292533991
-0.2904149890 -0.1466172338 0.5959895253 4292599527
-0.2904760242 -0.1459857225 0.5961148143 4292599527
-0.2905368507 -0.1453538090 0.5962395668 4292599527
-0.2901694179 -0.1445083767 0.5954855680 4292467941
-0.2906577289 -0.1440888047 0.5964876413 4292270562
-0.2902896404 -0.1432444453 0.5957322717 4292336355
-0.2903493941 -0.1426118910 0.5958549380 4292467941
-0.2904089093 -0.1419789493 0.5959770679 4292270562
-0.2904681861 -0.1413456202 0.5960986614 4292271073
-0.2905272245 -0.1407119036 0.5962198377 4292468452
-0.2905860245 -0.1400777996 0.5963404775 4292138974
-0.2906445563 -0.1394433081 0.5964606404 4292138974
-0.2907028794 -0.1388084441 0.5965803266 4292204767
-0.2907609344 -0.1381731927 0.5966994762 4292138974
-0.2903898358 -0.1373347044 0.5959378481 4292271073
-0.2904473245 -0.1366996318 0.5960558653 4292139487
-0.2905045748 -0.1360641867 0.5961733460 4291876061
-0.2905615568 -0.1354283690 0.5962902904 4291678682
-0.2906183302 -0.1347921640 0.5964068174 4291810268
-0.2906748354 -0.1341556013 0.5965227485 4291876061
-0.2907311022 -0.1335186660 0.5966382623 4292270819
-0.2907871306 -0.1328813583 0.5967531800 4292336612
-0.2904132903 -0.1320483387 0.5959860086 4292468198
-0.2904687524 -0.1314112395 0.5960997939 4292336612
-0.2905239463 -0.1307737827 0.5962131023 4292270562
-0.2905789018 -0.1301359534 0.5963258743 4292204769
-0.2910635173 -0.1296893358 0.5973204374 4292270562
-0.2906880379 -0.1288592219 0.5965498686 4292336355
-0.2907422483 -0.1282203197 0.5966610909 4292336355
-0.2907962203 -0.1275810599 0.5967718363 4292270562
-0.2908499241 -0.1269414425 0.5968820453 4292336355
-0.2909033597 -0.1263014674 0.5969917774 4292270562
-0.2909565866 -0.1256611496 0.5971009731 4292270819
-0.2910095453 -0.1250204742 0.5972096324 4292139233
-0.2906316817 -0.1241954640 0.5964341760 4292270819
-0.2906840444 -0.1235550418 0.5965416431 4292336612
-0.2903054357 -0.1227321848 0.5957646966 4292336612
-0.2903572321 -0.1220920235 0.5958709717 4292139233
-0.2904087603 -0.1214515194 0.5959767103 4292731370
-0.2904600501 -0.1208106801 0.5960819721 4292928749
-0.2905111015 -0.1201694980 0.5961866975 4292862958
-0.2901307642 -0.1193506420 0.5954062343 4292797165
-0.2901812196 -0.1187097356 0.5955097675 4292862956
-0.2902314067 -0.1180685014 0.5956127644 4292928749
-0.2902813554 -0.1174269393 0.5957152247 4292862956
-0.2903310359 -0.1167850420 0.5958172083 4292928749
-0.2903804481 -0.1161428168 0.5959186554 4292928749
-0.2904296219 -0.1155002639 0.5960195661 4292862956
-0.2904785573 -0.1148573831 0.5961199403 4292994542
-0.2905272245 -0.1142141819 0.5962197781 4293060335
-0.2905756235 -0.1135706604 0.5963191390 4293126382
-0.2914874256 -0.1132624075 0.5981903672 4293192175
-0.2915354669 -0.1126163229 0.5982889533 4293126382
-0.2915832400 -0.1119699255 0.5983869433 4293126382
-0.2916307449 -0.1113232151 0.5984844565 4292994796
-0.2921101153 -0.1108401492 0.5994682312 4292665831
-0.2921571732 -0.1101918444 0.5995647907 4292468449
-0.2922039628 -0.1095432341 0.5996608138 4293323758
-0.2882291079 -0.2169861645 0.5928549170 4293193206
-0.2883145511 -0.2163915932 0.5930306911 4292995827
-0.2883998156 -0.2157964855 0.5932060480 4292732655
-0.2884848714 -0.2152008563 0.5933810472 4292601069
-0.2885697782 -0.2146046907 0.5935556293 4292797935
-0.2890703976 -0.2143163830 0.5945854187 4292797935
-0.2891550362 -0.2137183100 0.5947594643 4292732142
-0.2892394960 -0.2131197155 0.5949332118 4292732142
-0.2893237472 -0.2125205994 0.5951064825 4292732142
-0.2889914215 -0.2116160393 0.5944229364 4292732142
-0.2890751958 -0.2110167295 0.5945951939 4292732142
-0.2891587615 -0.2104169130 0.5947671533 4292666349
-0.2896589339 -0.2101189047 0.5957959294 4292732655
-0.2897422314 -0.2095171809 0.5959672928 4292798448
-0.2898253500 -0.2089149356 0.5961382389 4292798193
-0.2899082899 -0.2083121687 0.5963088274 4292798193
-0.2895737886 -0.2074100226 0.5956207514 4292798193
-0.2896561921 -0.2068071067 0.5957903266 4292732400
-0.2901559174 -0.2065007836 0.5968182087 4292732400
-0.2902380824 -0.2058959603 0.5969871879 4292732400
-0.2903200388 -0.2052906305 0.5971558094 4292469481
-0.2904018164 -0.2046847790 0.5973239541 4292601067
-0.2904833853 -0.2040784210 0.5974917412 4292732655
-0.2901466787 -0.2031787783 0.5967991948 4292798448
-0.2910641432 -0.2031560540 0.5986862779 4292930034
-0.2898903191 -0.2016742378 0.5962718129 4292930034
-0.2903892994 -0.2013577372 0.5972982049 4292930291
-0.2904697657 -0.2007497102 0.5974637270 4293061877
-0.2905500233 -0.2001411766 0.5976288319 4293193463
-0.2902113199 -0.1992446333 0.5969321132 4293127670
-0.2902910709 -0.1986359656 0.5970962048 4293062648
-0.2903706431 -0.1980268061 0.5972598195 4293062648
-0.2904499769 -0.1974171400 0.5974230170 4292865269
-0.2909483612 -0.1970909685 0.5984481573 4292865269
-0.2910274267 -0.1964794397 0.5986107588 4292931062
-0.2911062837 -0.1958673894 0.5987730026 4292931062
-0.2911849618 -0.1952548623 0.5989347696 4293324792
-0.2912634015 -0.1946418285 0.5990961194 4293719550
-0.2913416624 -0.1940283030 0.5992571115 4292735735
-0.2918395996 -0.1936929673 0.6002813578 4291485668
-0.2919175625 -0.1930775791 0.6004416347 4290369244
-0.2915751636 -0.1921847612 0.5997374058 4290303451
-0.2912323475 -0.1912932247 0.5990322232 4289124064
-0.2913094461 -0.1906781346 0.5991908312 4288729306
-0.2913863361 -0.1900625378 0.5993490219 4286566360
-0.2914630175 -0.1894464642 0.5995067358 4285974223
-0.2915395200 -0.1888299137 0.5996640325 4284530376
-0.2916157842 -0.1882128716 0.5998209119 4283938239
-0.2916918397 -0.1875953376 0.5999773741 4283673780
-0.2917676866 -0.1869773269 0.6001334190 4283279022
-0.2922644615 -0.1866277605 0.6011552215 4282752417
-0.2923399806 -0.1860078871 0.6013105512 4282291866
-0.2924153209 -0.1853875369 0.6014655232 4283409325
-0.2924904227 -0.1847667247 0.6016200185 4283672497
-0.2925653160 -0.1841454208 0.6017740369 4284721589
-0.2926400006 -0.1835236400 0.6019276381 4284918968
-0.2927144766 -0.1829013824 0.6020808220 4284588459
-0.2927887142 -0.1822786629 0.6022335291 4284720045
-0.2928627729 -0.1816554517 0.6023858190 4286951868
-0.2929365933 -0.1810317785 0.6025376916 4288004556
-0.2930101752 -0.1804076433 0.6026890874 4289514196
-0.2930835783 -0.1797830164 0.6028400064 4288922059
-0.2927343249 -0.1788997799 0.6021216512 4288854978
-0.2928071618 -0.1782751381 0.6022714972 4284644226
-0.2928797901 -0.1776500195 0.6024208665 4282009423
-0.2929521799 -0.1770244390 0.6025698185 4283062111
-0.2930243909 -0.1763983965 0.6027182937 4282733657
-0.2926734090 -0.1755182594 0.6019963622 4282075727
-0.2923220098 -0.1746394634 0.6012735963 4281876295
-0.2919701636 -0.1737620085 0.6005498767 4284179050
-0.2916179299 -0.1728859246 0.5998253226 4288718765
-0.2912652493 -0.1720111966 0.5990999341 4287863456
-0.2904886901 -0.1708887219 0.5975025892 4287008147
-0.2901350260 -0.1700176150 0.5967752337 4289245109
-0.2897809744 -0.1691478938 0.5960469842 4288520872
-0.2898502350 -0.1685259193 0.5961894393 4290626248
-0.2903431654 -0.1681489646 0.5972033143 4290823627
-0.2904120684 -0.1675251871 0.5973450541 4291021006
-0.2904807925 -0.1669009775 0.5974863768 4291021004
-0.2905492485 -0.1662763059 0.5976272225 4291021004
-0.2906175256 -0.1656512171 0.5977676511 4291152590
-0.2906855345 -0.1650256664 0.5979075432 4291086797
-0.2907533348 -0.1643996835 0.5980470181 4291152077
-0.2908209264 -0.1637732685 0.5981860161 4291152077
-0.2908882797 -0.1631464213 0.5983245373 4291152338
-0.2909553945 -0.1625191271 0.5984625816 4291152338
-0.2905974388 -0.1616550684 0.5977263451 4291086545
-0.2906640172 -0.1610278338 0.5978632569 4291152338
-0.2907303572 -0.1604001671 0.5979996920 4291152338
-0.2907964587 -0.1597720683 0.5981357098 4291349717
-0.2908623517 -0.1591435373 0.5982711911 4291547096
-0.2909280062 -0.1585145891 0.5984062552 4290954959
-0.2909934223 -0.1578852087 0.5985407829 4289639353
-0.2910585999 -0.1572554111 0.5986748934 4288784044
-0.2911235690 -0.1566251814 0.5988085270 4289705146
-0.2911882997 -0.1559945494 0.5989416242 4289441974
-0.2908269763 -0.1551363319 0.5981984735 4290889420
-0.2908911407 -0.1545057744 0.5983304381 4291876315
-0.2905290723 -0.1536495090 0.5975857377 4291942108
-0.2905926704 -0.1530190408 0.5977165699 4292139487
-0.2906560600 -0.1523881555 0.5978468657 4292204769
-0.2902929187 -0.1515343487 0.5970999599 4292270562
-0.2903557122 -0.1509035826 0.5972291827 4292204769
-0.2899918556 -0.1500517279 0.5964806676 4292270562
-0.2904806435 -0.1496407986 0.5974860787 4292336355
-0.2901161015 -0.1487899870 0.5967362523 4292270562
-0.2901778817 -0.1481585205 0.5968633294 4292336355
-0.2902394235 -0.1475266367 0.5969899297 4292402148
-0.2903007269 -0.1468943506 0.5971159935 4292665320
-0.2903617918 -0.1462616771 0.5972416401 4292665320
-0.2899955213 -0.1454144418 0.5964882374 4292533991
-0.2900560200 -0.1447819024 0.5966126919 4292665577
-0.2901162803 -0.1441489607 0.5967366695 4292534245
-0.2901763022 -0.1435156316 0.5968601108 4292073694
-0.2898086309 -0.1426714808 0.5961038470 4291942108
-0.2898680866 -0.1420382857 0.5962261558 4291744729
-0.2899273038 -0.1414047182 0.5963479280 4291678425
-0.2899862826 -0.1407707632 0.5964692235 4292138976
-0.2900449932 -0.1401364207 0.5965900421 4292731113
-0.2901034951 -0.1395016909 0.5967103243 4292665320
-0.2901617587 -0.1388665736 0.5968301296 4292533734
-0.2902197540 -0.1382310838 0.5969494581 4292402148
-0.2898493707 -0.1373922676 0.5961876512 4292533991
-0.2899067998 -0.1367569566 0.5963057876 4292533991
-0.2899639904 -0.1361212581 0.5964233875 4291086545
-0.2900209427 -0.1354852021 0.5965405107 4289968064
-0.2900776565 -0.1348487586 0.5966571569 4289639353
-0.2901341021 -0.1342119426 0.5967732668 4290034111
-0.2901903093 -0.1335747540 0.5968888998 4291349971
-0.2898175418 -0.1327408403 0.5961222053 4292336866
-0.2898731828 -0.1321038604 0.5962366462 4292468452
-0.2899285853 -0.1314665228 0.5963505507 4292139487
-0.2904126942 -0.1310223490 0.5973463058 4292402148
-0.2904676497 -0.1303833276 0.5974593759 4292336355
-0.2905223966 -0.1297439486 0.5975719690 4292336355
-0.2901476622 -0.1289135069 0.5968011618 4292336355
-0.2902018130 -0.1282743514 0.5969125628 4292270562
-0.2902556956 -0.1276348382 0.5970234275 4292270562
-0.2903093696 -0.1269949824 0.5971337557 4292205026
-0.2903627455 -0.1263547540 0.5972436070 4292205026
-0.2904159129 -0.1257141829 0.5973529220 4292270819
-0.2900391221 -0.1248882413 0.5965779424 4292205026
-0.2900916934 -0.1242479160 0.5966860652 4292139233
-0.2897141576 -0.1234241202 0.5959095359 4291941854
-0.2897661626 -0.1227840558 0.5960164666 4291810268
-0.2898178995 -0.1221436411 0.5961229205 4291810268
-0.2898693979 -0.1215028912 0.5962287784 4292665577
-0.2899206281 -0.1208617911 0.5963341594 4292994542
-0.2899715900 -0.1202203631 0.5964390635 4292797163
-0.2895920277 -0.1194011718 0.5956583023 4292797163
-0.2892120481 -0.1185835525 0.5948767662 4292797163
-0.2892621160 -0.1179430187 0.5949797034 4292731370
-0.2893119454 -0.1173021495 0.5950821638 4292731370
-0.2893615067 -0.1166609526 0.5951841474 4292731370
-0.2894107997 -0.1160194278 0.5952855349 4292665577
-0.2894598544 -0.1153775752 0.5953864455 4292533991
-0.2895086408 -0.1147353947 0.5954868197 4292534245
-0.2899880707 -0.1142626703 0.5964729190 4292600038
-0.2900364399 -0.1136188880 0.5965723991 4292600038
-0.2900845110 -0.1129747853 0.5966713428 4292600038
-0.2901323736 -0.1123303622 0.5967697501 4292468452
-0.2906111181 -0.1118515730 0.5977544785 4292336866
-0.2906585038 -0.1112055629 0.5978519320 4292139487
-0.2907056510 -0.1105592325 0.5979489088 4291547350
-0.2907525301 -0.1099125892 0.5980452895 4291284175
-0.2907991409 -0.1092656329 0.5981411934 4292863207
-0.2876091599 -0.2143800557 0.5929343700 4293258999
-0.2876936495 -0.2137840539 0.5931085348 4293258999
-0.2877779603 -0.2131875157 0.5932823420 4293193206
-0.2882774472 -0.2128972262 0.5943121314 4293127413
-0.2883615196 -0.2122987807 0.5944854021 4293127413
-0.2884453535 -0.2116998136 0.5946582556 4293061620
-0.2881132960 -0.2107961476 0.5939736366 4292930034
-0.2877807915 -0.2098936886 0.5932881832 4292864241
-0.2878638506 -0.2092948854 0.5934594274 4292798448
-0.2879467010 -0.2086955756 0.5936302543 4292732655
-0.2884456217 -0.2083964497 0.5946587920 4292732655
-0.2885282040 -0.2077952325 0.5948290825 4292732655
-0.2881941497 -0.2068945169 0.5941403508 4292798193
-0.2882762551 -0.2062931359 0.5943096280 4292798193
-0.2887748778 -0.2059884816 0.5953375697 4292863986
-0.2888567150 -0.2053852081 0.5955062509 4292863986
-0.2889383435 -0.2047814131 0.5956745744 4292995827
-0.2890197933 -0.2041771114 0.5958424807 4292930034
-0.2891010344 -0.2035723031 0.5960099697 4292864241
-0.2891820967 -0.2029669881 0.5961771011 4292864241
-0.2892629504 -0.2023611516 0.5963438153 4292732912
-0.2889260948 -0.2014636844 0.5956493020 4292732912
-0.2890064418 -0.2008577138 0.5958149433 4292732913
-0.2890865803 -0.2002512366 0.5959801674 4292667120
-0.2891665399 -0.1996442676 0.5961450338 4292667890
-0.2892462909 -0.1990367919 0.5963094234 4292404718
-0.2893258333 -0.1984288096 0.5964734554 4292404718
-0.2894051969 -0.1978203207 0.5966370106 4292338925
-0.2894843519 -0.1972113401 0.5968002081 4291944167
-0.2895632982 -0.1966018528 0.5969629884 4291615202
-0.2900606096 -0.1962751001 0.5979882479 4291286496
-0.2901392579 -0.1956637353 0.5981504321 4291089117
-0.2902177274 -0.1950518787 0.5983121395 4290828768
-0.2902959883 -0.1944395304 0.5984734893 4291157733
-0.2903740406 -0.1938266754 0.5986344218 4290829795
-0.2904518843 -0.1932133436 0.5987948775 4290500830
-0.2905295193 -0.1925995052 0.5989549756 4290435039
-0.2910262942 -0.1922622174 0.5999791026 4290435039
-0.2906841934 -0.1913703680 0.5992738008 4290303712
-0.2903416455 -0.1904798001 0.5985676050 4290237919
-0.2904183269 -0.1898648888 0.5987257361 4290042597
-0.2904948294 -0.1892495006 0.5988834500 4289911011
-0.2905711234 -0.1886336207 0.5990406871 4290239463
-0.2906472087 -0.1880172640 0.5991975665 4290042084
-0.2907230556 -0.1874004155 0.5993539691 4290040541
-0.2907987237 -0.1867830902 0.5995099545 4289777369
-0.2912945151 -0.1864342988 0.6005320549 4289252051
-0.2913698554 -0.1858151257 0.6006873846 4288923086
-0.2914449871 -0.1851954609 0.6008422971 4288333521
-0.2915199101 -0.1845753193 0.6009967327 4287609798
-0.2915946245 -0.1839546859 0.6011507511 4287214527
-0.2916691303 -0.1833335906 0.6013043523 4286951355
-0.2917433977 -0.1827120185 0.6014574766 4285900718
-0.2918174565 -0.1820899844 0.6016101837 4285571753
-0.2918913066 -0.1814674586 0.6017624140 4287148216
-0.2919649482 -0.1808444709 0.6019142270 4288069318
-0.2920383811 -0.1802210063 0.6020656228 4289251024
-0.2921115756 -0.1795970798 0.6022164822 4288922059
-0.2921845615 -0.1789726764 0.6023669839 4289118666
-0.2922573090 -0.1783478111 0.6025170088 4285368465
-0.2923298776 -0.1777224690 0.6026665568 4281812045
-0.2924022079 -0.1770966798 0.6028156877 4283193698
-0.2920522690 -0.1762157679 0.6020942330 4282799197
-0.2921240628 -0.1755899489 0.6022422314 4282272853
-0.2921956182 -0.1749636531 0.6023897529 4281810502
-0.2918446064 -0.1740849912 0.6016661525 4283784292
-0.2914931774 -0.1732076705 0.6009415984 4288060837
-0.2907187641 -0.1720815897 0.5993450880 4289903041
-0.2899437249 -0.1709586829 0.5977472663 4289245111
-0.2895908058 -0.1700872630 0.5970196724 4290100420
-0.2892374396 -0.1692172140 0.5962912440 4289441974
-0.2893066406 -0.1685950160 0.5964338779 4290692041
-0.2897986770 -0.1682179421 0.5974482894 4290692041
-0.2898675501 -0.1675939411 0.5975902081 4290757834
-0.2899361849 -0.1669695079 0.5977317095 4290823627
-0.2900045812 -0.1663446128 0.5978727341 4290955213
-0.2900727689 -0.1657192856 0.5980132818 4290955213
-0.2901407182 -0.1650935262 0.5981534123 4290955213
-0.2902084589 -0.1644673198 0.5982930660 4291086284
-0.2902759612 -0.1638406664 0.5984321833 4290888905
-0.2903432250 -0.1632135957 0.5985708833 4290954959
-0.2904102802 -0.1625860780 0.5987091660 4290889166
-0.2900530696 -0.1617216915 0.5979726911 4291218131
-0.2901195586 -0.1610942185 0.5981097817 4291612889
-0.2901858389 -0.1604663283 0.5982463956 4291284178
-0.2902518809 -0.1598380059 0.5983825326 4291086799
-0.2903176844 -0.1592092514 0.5985181928 4291152592
-0.2903832495 -0.1585800648 0.5986534357 4290626248
-0.2904486060 -0.1579504609 0.5987881422 4289047216
-0.2905137241 -0.1573204249 0.5989224315 4288652458
-0.2905786335 -0.1566899717 0.5990561843 4289770939
-0.2906432748 -0.1560591012 0.5991894603 4289310388
-0.2907077074 -0.1554277986 0.5993223190 4290560455
-0.2903468013 -0.1545697749 0.5985782743 4291415764
-0.2904106677 -0.1539385617 0.5987099409 4291284178
-0.2904742956 -0.1533069313 0.5988411307 4291284178
-0.2901123166 -0.1524513662 0.5980948210 4291415253
-0.2901753783 -0.1518198401 0.5982248783 4291283667
-0.2898126543 -0.1509662122 0.5974770784 4291283667
-0.2898751497 -0.1503347903 0.5976059437 4291546839
-0.2899374366 -0.1497029662 0.5977343321 4291612630
-0.2895736396 -0.1488518268 0.5969842672 4291481044
-0.2896353304 -0.1482201219 0.5971115232 4291612630
-0.2896968126 -0.1475879997 0.5972382426 4291744216
-0.2897580564 -0.1469554901 0.5973644853 4291678423
-0.2898190618 -0.1463225633 0.5974902511 4291810009
-0.2898798287 -0.1456892490 0.5976155400 4291613143
-0.2895139754 -0.1448422223 0.5968613029 4291810522
-0.2895741761 -0.1442090422 0.5969853997 4291613143
-0.2896341085 -0.1435754746 0.5971090198 4290428869
-0.2896938324 -0.1429415196 0.5972321033 4289507767
-0.2897533178 -0.1423071623 0.5973547697 4289441974
-0.2893857360 -0.1414637566 0.5965969563 4289836221
-0.2894446552 -0.1408295631 0.5967183709 4290362565
-0.2895033062 -0.1401949823 0.5968393683 4292073440
-0.2895617485 -0.1395600140 0.5969597697 4292336612
-0.2896199226 -0.1389246583 0.5970797539 4292270819
-0.2896778882 -0.1382889152 0.5971992016 4292402405
-0.2897355855 -0.1376527995 0.5973181725 4292402405
-0.2893656194 -0.1368142217 0.5965554714 4292468198
-0.2894227505 -0.1361782849 0.5966732502 4292139233
-0.2894796431 -0.1355419755 0.5967904925 4290494408
-0.2895362675 -0.1349052936 0.5969072580 4289902525
-0.2895926833 -0.1342682242 0.5970235467 4290099904
-0.2892209888 -0.1334334165 0.5962572694 4291415764
-0.2897047400 -0.1329929978 0.5972545743 4292534245
-0.2897603810 -0.1323548257 0.5973693132 4292863210
-0.2898158133 -0.1317162961 0.5974835753 4292797417
-0.2898709774 -0.1310773939 0.5975973010 4292796906
-0.2899259031 -0.1304381341 0.5977105498 4292796906
-0.2899805605 -0.1297985017 0.5978232622 4292731370
-0.2900349796 -0.1291585118 0.5979354382 4292797163
-0.2896606624 -0.1283283383 0.5971637368 4292797163
-0.2897145152 -0.1276885718 0.5972747207 4292731370
-0.2897681296 -0.1270484626 0.5973852277 4292731370
-0.2898214757 -0.1264079809 0.5974951982 4292797163
-0.2898745537 -0.1257671565 0.5976046920 4292599784
-0.2894985080 -0.1249408871 0.5968294144 4292599784
-0.2895510495 -0.1243003160 0.5969377160 4292599784
-0.2891742587 -0.1234761924 0.5961609483 4292205026
-0.2892262042 -0.1228358746 0.5962679982 4291876061
-0.2888486981 -0.1220139116 0.5954897404 4291810268
-0.2889000475 -0.1213738546 0.5955956578 4292731370
-0.2889511585 -0.1207334623 0.5957009792 4293060335
-0.2890020013 -0.1200927272 0.5958058238 4292862956
-0.2890526056 -0.1194516495 0.5959101319 4292928749
-0.2886733711 -0.1186337024 0.5951283574 4292928749
-0.2887233794 -0.1179929152 0.5952314734 4292862956
-0.2887731493 -0.1173517928 0.5953340530 4292797163
-0.2888226807 -0.1167103425 0.5954360962 4292731370
-0.2888719141 -0.1160685644 0.5955376625 4292665577
-0.2889209390 -0.1154264510 0.5956386924 4292599784
-0.2889696658 -0.1147840172 0.5957391858 4292600038
-0.2890181541 -0.1141412631 0.5958391428 4292534245
-0.2890664041 -0.1134981811 0.5959385633 4292468452
-0.2891143560 -0.1128547788 0.5960375071 4292402659
-0.2891620994 -0.1122110561 0.5961358547 4292271073
-0.2892095447 -0.1115670130 0.5962337255 4292139487
-0.2892567515 -0.1109226570 0.5963310003 4291744729
-0.2893036902 -0.1102779880 0.5964277983 4290955213
-0.2893503904 -0.1096329987 0.5965240598 4290955464
-0.2893968225 -0.1089877039 0.5966197848 4292929254
-0.2867350876 -0.2069777548 0.5924890041 4293193206
-0.2868170440 -0.2063784450 0.5926583409 4293193206
-0.2868988216 -0.2057785988 0.5928273201 4293061620
-0.2869803905 -0.2051782608 0.5929958820 4292995827
-0.2874778211 -0.2048738897 0.5940237045 4292930034
-0.2875591218 -0.2042716444 0.5941917300 4292798193
-0.2876402438 -0.2036688924 0.5943593979 4292732400
-0.2877211869 -0.2030656338 0.5945265889 4292666607
-0.2878018916 -0.2024618685 0.5946934223 4292666607
-0.2878824472 -0.2018575966 0.5948598385 4292600814
-0.2879627943 -0.2012528032 0.5950258374 4292666607
-0.2876260877 -0.2003571540 0.5943300724 4292601327
-0.2877058983 -0.1997522265 0.5944950581 4292535534
-0.2877855301 -0.1991468072 0.5946595669 4292601327
-0.2878649831 -0.1985408813 0.5948237181 4292469741
-0.2879441977 -0.1979344636 0.5949874520 4292535534
-0.2880232632 -0.1973275393 0.5951507688 4292469741
-0.2881020904 -0.1967201084 0.5953136683 4292140776
-0.2881807387 -0.1961122006 0.5954761505 4291943397
-0.2882591486 -0.1955037713 0.5956382751 4291614948
-0.2887552679 -0.1951773167 0.5966634154 4291351776
-0.2888334394 -0.1945670247 0.5968248844 4291287527
-0.2889113724 -0.1939562410 0.5969859362 4291024355
-0.2894073427 -0.1936247498 0.5980107188 4290237149
-0.2894849777 -0.1930120885 0.5981711745 4289908184
-0.2895624340 -0.1923989356 0.5983312130 4289579990
-0.2896396518 -0.1917852908 0.5984908342 4289316818
-0.2897166908 -0.1911711693 0.5986499786 4289184718
-0.2897935212 -0.1905565411 0.5988087654 4289184718
-0.2894512713 -0.1896669418 0.5981014967 4289775826
-0.2895275652 -0.1890522391 0.5982591510 4289710033
-0.2896036506 -0.1884370446 0.5984163880 4290038737
-0.2896795273 -0.1878213584 0.5985732079 4289775565
-0.2897552252 -0.1872051954 0.5987296104 4289645262
-0.2898306847 -0.1865885407 0.5988855362 4289842641
