VERSION 0.7
FIELDS x y z rgba
SIZE 4 4 4 4
TYPE F F F U
COUNT 1 1 1 1
WIDTH 920
HEIGHT 1
VIEWPOINT 0.0 0.0 0.0 1.0 0.0 0.0 0.0
POINTS 920
DATA ascii
-0.2880854011 -0.1651400477 0.5819240212 4280427050
-0.2877237499 -0.1642869711 0.5811934471 4280427050
-0.2873616517 -0.1634352952 0.5804620385 4280295718
-0.2869991362 -0.1625849903 0.5797297955 4280427304
-0.2874969542 -0.1622217745 0.5807353854 4280558890
-0.2871338129 -0.1613724381 0.5800018311 4280558890
-0.2872008085 -0.1607655287 0.5801371932 4280558890
-0.2872675955 -0.1601581872 0.5802720785 4280558890
-0.2873341739 -0.1595504135 0.5804065466 4280493097
-0.2874005139 -0.1589422375 0.5805405378 4280427304
-0.2870356441 -0.1580962539 0.5798035264 4280493096
-0.2883946896 -0.1581975371 0.5825487375 4280427303
-0.2884605527 -0.1575862765 0.5826817751 4280493096
-0.2880949080 -0.1567399502 0.5819432139 4280493096
-0.2890229821 -0.1565961987 0.5838178992 4280427303
-0.2890882790 -0.1559827626 0.5839498043 4280427303
-0.2891533375 -0.1553689241 0.5840811729 4280427304
-0.2892181575 -0.1547546536 0.5842121840 4280427304
-0.2897145450 -0.1543700397 0.5852147937 4280296232
-0.2897790074 -0.1537540257 0.5853450298 4280230439
-0.2894113064 -0.1529093832 0.5846022964 4280230439
-0.2899072766 -0.1525207758 0.5856041312 4280230439
-0.2899710536 -0.1519035548 0.5857329369 4280164646
-0.2896023691 -0.1510604471 0.5849882364 4280098853
-0.2892332375 -0.1502187699 0.5842426419 4280098853
-0.2897285819 -0.1498257816 0.5852431655 4280098853
-0.2902238667 -0.1494305581 0.5862436295 4279834913
-0.2902864814 -0.1488112956 0.5863701701 4280163878
-0.2899161577 -0.1479707956 0.5856221318 4281677117
-0.2891126275 -0.1469117999 0.5839989781 4283387735
-0.2891742587 -0.1462941319 0.5841234922 4288191394
-0.2888026834 -0.1454579830 0.5833729506 4289507254
-0.2884306908 -0.1446232796 0.5826215148 4289112498
-0.2876251340 -0.1435738355 0.5809942484 4289573049
-0.2876854837 -0.1429582834 0.5811161399 4289046962
-0.2873122394 -0.1421279907 0.5803622007 4289112755
-0.2873720229 -0.1415126175 0.5804830194 4289244343
-0.2874315679 -0.1408968419 0.5806033015 4289310136
-0.2874908745 -0.1402806938 0.5807231069 4289245113
-0.2875499725 -0.1396641582 0.5808424354 4289310906
-0.2876088023 -0.1390472502 0.5809612870 4289508285
-0.2876674235 -0.1384299695 0.5810796618 4289639871
-0.2877257764 -0.1378123015 0.5811976194 4289574076
-0.2877839208 -0.1371942610 0.5813150406 4289574076
-0.2878417969 -0.1365758479 0.5814319849 4289639869
-0.2883337140 -0.1361621320 0.5824255943 4289771455
-0.2883912027 -0.1355420351 0.5825417042 4289903041
-0.2884484828 -0.1349215806 0.5826573968 4290034627
-0.2885054946 -0.1343007535 0.5827726126 4290034627
-0.2876931131 -0.1332769096 0.5811315775 4290034627
-0.2890534699 -0.1332583874 0.5838795304 4290166213
-0.2891098559 -0.1326355189 0.5839934349 4290232006
-0.2896008492 -0.1322108060 0.5849851966 4290363592
-0.2896568179 -0.1315862834 0.5850982666 4290429385
-0.2901475728 -0.1311580241 0.5860895514 4290495178
-0.2906382382 -0.1307275444 0.5870806575 4290429385
-0.2906936705 -0.1301000565 0.5871925950 4290495178
-0.2907488346 -0.1294722110 0.5873040557 4290560971
-0.2912390828 -0.1290368885 0.5882943869 4290232006
-0.2912938595 -0.1284073889 0.5884050131 4290232006
-0.2917838693 -0.1279685348 0.5893948078 4290297799
-0.2918381989 -0.1273373812 0.5895045996 4290495178
-0.2923279703 -0.1268949956 0.5904938579 4290889936
-0.2923819125 -0.1262622029 0.5906028152 4291284694
-0.2933072150 -0.1260035187 0.5924719572 4291679450
-0.2937967181 -0.1255544275 0.5934606791 4292008415
-0.2942861021 -0.1251030862 0.5944492221 4292732905
-0.3015629649 -0.2010660172 0.6105179787 4292337639
-0.3016444445 -0.2004418373 0.6106829643 4288916146
-0.3017257154 -0.1998171508 0.6108475327 4284902773
-0.3005315661 -0.1983503103 0.6084299088 4282796627
-0.2997616827 -0.1971679032 0.6068713069 4281809732
-0.2989911437 -0.1959885508 0.6053113341 4281875525
-0.2982199490 -0.1948122084 0.6037499905 4282467662
-0.2970225513 -0.1933618933 0.6013258696 4282072904
-0.2962498963 -0.1921925247 0.5997616649 4281283388
-0.2959023714 -0.1913014650 0.5990580320 4281217595
-0.2951285243 -0.1901373267 0.5974913836 4281546560
-0.2956319749 -0.1897966713 0.5985106230 4281480510
-0.2944310606 -0.1883634031 0.5960793495 4281480510
-0.2940816581 -0.1874783784 0.5953720212 4281546301
-0.2937318385 -0.1865946501 0.5946637988 4281612094
-0.2938080132 -0.1859821528 0.5948179960 4281612094
-0.2938839793 -0.1853691936 0.5949718356 4281546301
-0.2931064367 -0.1842194498 0.5933976769 4281480508
-0.2927550077 -0.1833400428 0.5926861763 4281480508
-0.2924031615 -0.1824619621 0.5919738412 4281414715
-0.2911969125 -0.1810542494 0.5895317793 4281217336
-0.2899897993 -0.1796514243 0.5870879889 4281085750
-0.2887818217 -0.1782534868 0.5846424103 4280954164
-0.2892821729 -0.1779116392 0.5856553912 4280888371
-0.2876455188 -0.1762580425 0.5823419690 4280756785
-0.2881453633 -0.1759161800 0.5833538771 4280756785
-0.2882175744 -0.1753119528 0.5835000873 4280690992
-0.2882895768 -0.1747072786 0.5836458802 4280559406
-0.2887892127 -0.1743604690 0.5846573710 4280427820
-0.2892888188 -0.1740113944 0.5856688619 4280362025
-0.2885043025 -0.1728905439 0.5840805769 4280296232
-0.2894317508 -0.1727952957 0.5859582424 4280230439
-0.2890746295 -0.1719318479 0.5852352381 4280230439
-0.2900021970 -0.1718312055 0.5871130824 4280427304
-0.2887876034 -0.1704619527 0.5846541524 4280427304
-0.2892864645 -0.1701056957 0.5856640935 4280427050
-0.2884992659 -0.1689938754 0.5840703845 4280427050
-0.2881402373 -0.1681354195 0.5833435059 4280427050
-0.2882096767 -0.1675276458 0.5834841132 4280492843
-0.2878498733 -0.1666710228 0.5827556849 4280492843
-0.2879187763 -0.1660632789 0.5828951597 4280427050
-0.2871290445 -0.1649619192 0.5812963843 4280427304
-0.2867679894 -0.1641094387 0.5805653930 4280427304
-0.2864065170 -0.1632583439 0.5798336267 4280493097
-0.2864741385 -0.1626524925 0.5799704790 4280558890
-0.2861119211 -0.1618032604 0.5792371631 4280624683
-0.2866086662 -0.1614394933 0.5802428722 4280624683
-0.2871054113 -0.1610734910 0.5812485218 4280624682
-0.2867423296 -0.1602247953 0.5805134177 4280558889
-0.2868088186 -0.1596168131 0.5806480646 4280493096
-0.2873052061 -0.1592468023 0.5816529989 4280361510
-0.2873713374 -0.1586370617 0.5817868710 4280427301
-0.2870069742 -0.1577903330 0.5810492039 4280493094
-0.2870725989 -0.1571806669 0.5811820626 4280493096
-0.2875684500 -0.1568053216 0.5821859241 4280493096
-0.2880643010 -0.1564277261 0.5831897855 4280493096
-0.2881294191 -0.1558149755 0.5833216310 4280493096
-0.2877635360 -0.1549698263 0.5825808644 4280493096
-0.2882589996 -0.1545882374 0.5835839510 4280493096
-0.2874614894 -0.1535139382 0.5819693804 4280362280
-0.2883876562 -0.1533598602 0.5838444233 4280296487
-0.2880204916 -0.1525167227 0.5831010938 4280296232
-0.2885154188 -0.1521298289 0.5841030478 4280296232
-0.2885789275 -0.1515142024 0.5842316747 4280296232
-0.2882107794 -0.1506726146 0.5834863186 4280230439
-0.2878422141 -0.1498324573 0.5827401876 4280230439
-0.2883365154 -0.1494411826 0.5837408900 4280230439
-0.2883990109 -0.1488248706 0.5838674307 4279834913
-0.2884612978 -0.1482081413 0.5839934945 4280492843
-0.2880914211 -0.1473700851 0.5832446814 4280954164
-0.2877211273 -0.1465334743 0.5824950337 4282927954
-0.2873504460 -0.1456983238 0.5817445517 4288783531
-0.2869793177 -0.1448646188 0.5809932351 4288520359
-0.2866077721 -0.1440323740 0.5802410245 4288915119
-0.2866682112 -0.1434179246 0.5803633928 4289046705
-0.2862959206 -0.1425876915 0.5796096921 4288717997
-0.2863557935 -0.1419733912 0.5797309279 4288783790
-0.2864154279 -0.1413586885 0.5798516273 4288652976
-0.2864748240 -0.1407436281 0.5799719095 4288718769
-0.2865340114 -0.1401281655 0.5800916553 4288718769
-0.2865929306 -0.1395123303 0.5802109838 4288850355
-0.2866516411 -0.1388961226 0.5803298354 4288981941
-0.2867100835 -0.1382795274 0.5804482102 4289047734
-0.2863351405 -0.1374546140 0.5796890855 4288981939
-0.2863930464 -0.1368381977 0.5798062682 4289113525
-0.2864507139 -0.1362214088 0.5799230337 4289245111
-0.2869415581 -0.1358094066 0.5809168220 4289376697
-0.2869988382 -0.1351909488 0.5810327530 4289508283
-0.2870558798 -0.1345721185 0.5811482072 4289639869
-0.2862452567 -0.1335482299 0.5795071125 4289705662
-0.2871692479 -0.1333333552 0.5813777447 4289639869
-0.2872255445 -0.1327134222 0.5814917088 4289508283
-0.2877155840 -0.1322926581 0.5824838281 4289639869
-0.2877714932 -0.1316710711 0.5825970173 4289837248
-0.2882613242 -0.1312467754 0.5835886598 4290034627
-0.2883168459 -0.1306235194 0.5837010145 4290100420
-0.2883720994 -0.1299999058 0.5838129520 4290100420
-0.2884271443 -0.1293759197 0.5839243531 4290166213
-0.2889163792 -0.1289454997 0.5849148631 4290297799
-0.2889710069 -0.1283198744 0.5850254297 4290560203
-0.2890253961 -0.1276938915 0.5851355195 4290494410
-0.2895142436 -0.1272586435 0.5861251950 4290494410
-0.2895682156 -0.1266310215 0.5862344503 4290560203
-0.2896219194 -0.1260030419 0.5863432288 4290560203
-0.2896754146 -0.1253747195 0.5864514709 4290560203
-0.2901636660 -0.1249333471 0.5874399543 4290560201
-0.2902167141 -0.1243033856 0.5875473619 4290560201
-0.2907047272 -0.1238584965 0.5885353088 4290297799
-0.2916278839 -0.1235958487 0.5904043317 4290495178
-0.2873269916 -0.1211267635 0.5816971064 4290758348
-0.2921681404 -0.1225104257 0.5914980769 4291087313
-0.2922202647 -0.1218749657 0.5916035771 4291547864
-0.2927077115 -0.1214198470 0.5925904512 4292074208
-0.2931950688 -0.1209625006 0.5935770869 4292600806
-0.3002401292 -0.1999582946 0.6092097759 4292995056
-0.3003211021 -0.1993351579 0.6093740463 4291087315
-0.2999775708 -0.1984308511 0.6086769700 4288915378
-0.2987847626 -0.1969682425 0.6062567234 4285428349
-0.2980155945 -0.1957893223 0.6046959758 4282467662
-0.2972457707 -0.1946134269 0.6031339765 4281612353
-0.2964752614 -0.1934405863 0.6015705466 4281546560
-0.2957041264 -0.1922707856 0.6000058651 4281612353
-0.2957822680 -0.1916547716 0.6001644135 4281546560
-0.2945849299 -0.1902148128 0.5977349281 4281217595
-0.2950875163 -0.1898740828 0.5987547040 4281480767
-0.2938888669 -0.1884402633 0.5963225365 4281414974
-0.2939656079 -0.1878267378 0.5964782834 4281414717
-0.2936166227 -0.1869418025 0.5957701206 4281480510
-0.2936928272 -0.1863282025 0.5959247947 4281480508
-0.2933430672 -0.1854449809 0.5952150822 4281546301
-0.2929928899 -0.1845630705 0.5945045352 4281546301
-0.2926422656 -0.1836824566 0.5937930942 4281546301
-0.2922912240 -0.1828031689 0.5930808187 4281612094
-0.2915135622 -0.1816595942 0.5915028453 4281480508
-0.2903089523 -0.1802544445 0.5890586376 4281414715
-0.2899562716 -0.1793817878 0.5883430243 4281348922
-0.2891766727 -0.1782475412 0.5867611766 4281283129
-0.2883964181 -0.1771164238 0.5851779580 4281283129
-0.2880422771 -0.1762495488 0.5844593644 4281283129
-0.2881145179 -0.1756442189 0.5846059918 4281283129
-0.2881865501 -0.1750384271 0.5847521424 4281151543
-0.2882583737 -0.1744321883 0.5848978758 4281019957
-0.2891843021 -0.1743405461 0.5867766142 4280954162
-0.2884013951 -0.1732183546 0.5851880312 4280822576
-0.2893272936 -0.1731221974 0.5870667696 4280625197
-0.2885435224 -0.1720027179 0.5854764581 4280559404
-0.2890418470 -0.1716481447 0.5864875913 4280493613
-0.2882571220 -0.1705322713 0.5848953724 4280427820
-0.2887551188 -0.1701759100 0.5859058499 4280427304
-0.2883973420 -0.1693148762 0.5851798654 4280427304
-0.2871831357 -0.1679545939 0.5827161670 4280427304
-0.2872523963 -0.1673474908 0.5828566551 4280427304
-0.2873214185 -0.1667399555 0.5829967260 4280493097
-0.2865336239 -0.1656368077 0.5813982487 4280427304
-0.2861736119 -0.1647835374 0.5806677341 4280427304
-0.2862416804 -0.1641774178 0.5808058977 4280427304
-0.2858809531 -0.1633259952 0.5800738931 4280361510
-0.2860157788 -0.1621134132 0.5803474784 4280493097
-0.2865117788 -0.1617486328 0.5813539028 4280493097
-0.2867120504 -0.1599225551 0.5817602277 4280493096
-0.2872076631 -0.1595515013 0.5827658772 4280427303
-0.2877032459 -0.1591781974 0.5837714672 4280361510
-0.2877693176 -0.1585659832 0.5839055181 4280427303
-0.2869759202 -0.1574818492 0.5822957158 4280493096
-0.2879007459 -0.1573403031 0.5841722488 4280493096
-0.2871065438 -0.1562589854 0.5825607181 4280624682
-0.2867415845 -0.1554139256 0.5818201900 4280624682
-0.2872362435 -0.1550344527 0.5828238726 4280493096
-0.2873007357 -0.1544215679 0.5829547644 4280493096
-0.2869348526 -0.1535780281 0.5822123289 4280296487
-0.2869988084 -0.1529652327 0.5823420882 4280296487
-0.2871260345 -0.1517384350 0.5826002955 4280362025
-0.2871893048 -0.1511244178 0.5827286839 4280427818
-0.2868216932 -0.1502843499 0.5819827318 4280362025
-0.2864536643 -0.1494457126 0.5812360048 4280362025
-0.2865160704 -0.1488323361 0.5813626051 4280362025
-0.2870091796 -0.1484414339 0.5823631883 4279967269
-0.2875022590 -0.1480482966 0.5833636522 4280362027
-0.2875641584 -0.1474318802 0.5834892392 4280493613
-0.2871946096 -0.1465949416 0.5827394128 4284901744
-0.2868246138 -0.1457594633 0.5819886923 4288586152
-0.2864542305 -0.1449254304 0.5812371373 4288783531
-0.2860834301 -0.1440928727 0.5804847479 4288454566
-0.2857122123 -0.1432617754 0.5797314644 4288586152
-0.2857722342 -0.1426476240 0.5798533559 4288454825
-0.2854002714 -0.1418185383 0.5790985823 4288389032
-0.2854597867 -0.1412045360 0.5792192817 4288324011
-0.2855190337 -0.1405901611 0.5793395042 4288389804
-0.2855780423 -0.1399753988 0.5794593096 4288455597
-0.2856368423 -0.1393602639 0.5795785785 4288521390
-0.2856953740 -0.1387447417 0.5796973705 4288521390
-0.2857536972 -0.1381288469 0.5798156857 4288521390
-0.2858117819 -0.1375125796 0.5799335241 4288521390
-0.2858696282 -0.1368959248 0.5800508857 4288652976
-0.2854946554 -0.1360727400 0.5792900920 4288784560
-0.2855519354 -0.1354562789 0.5794063210 4288784560
-0.2856089771 -0.1348394454 0.5795220733 4288850353
-0.2856658101 -0.1342222542 0.5796373487 4288981939
-0.2857223749 -0.1336046755 0.5797521472 4289047734
-0.2857787013 -0.1329867542 0.5798664093 4289113527
-0.2858347893 -0.1323684454 0.5799802542 4289113525
-0.2858906388 -0.1317497939 0.5800935626 4289245111
-0.2863795161 -0.1313294470 0.5810855031 4289442490
-0.2864349484 -0.1307091266 0.5811980367 4289574076
-0.2864901721 -0.1300884485 0.5813100338 4289574076
-0.2865451276 -0.1294674128 0.5814216137 4289574076
-0.2865998745 -0.1288460046 0.5815326571 4289705662
-0.2866543531 -0.1282242537 0.5816432238 4289771455
-0.2871423662 -0.1277952045 0.5826333761 4289968067
-0.2871964276 -0.1271717995 0.5827431083 4289902274
-0.2872502804 -0.1265480518 0.5828523636 4289968066
-0.2873038650 -0.1259239465 0.5829610825 4290099652
-0.2873572111 -0.1252994984 0.5830693245 4290165445
-0.2874103189 -0.1246747002 0.5831770897 4290297031
-0.2870289385 -0.1238621697 0.5824032426 4290428617
-0.2875157893 -0.1234240755 0.5833910704 4290428617
-0.2875681520 -0.1227982417 0.5834973454 4290362822
-0.2876202762 -0.1221720725 0.5836030841 4290494408
-0.2885412276 -0.1219127700 0.5854718089 4290297799
-0.2885929942 -0.1212840304 0.5855768919 4290232006
-0.2890792489 -0.1208366603 0.5865634680 4290166213
-0.2895653844 -0.1203870550 0.5875498652 4290100420
-0.2900514007 -0.1199352220 0.5885360837 4290166211
-0.2901024222 -0.1193022877 0.5886395574 4290297797
-0.2905881703 -0.1188469455 0.5896252394 4290823625
-0.2910738587 -0.1183893606 0.5906106830 4291284176
-0.2915593982 -0.1179295480 0.5915959477 4291744727
-0.2920448780 -0.1174675077 0.5925809741 4292205278
-0.2925302088 -0.1170032322 0.5935657620 4292731622
-0.2978087366 -0.1967682540 0.6056411862 4291612891
-0.2970409393 -0.1955897808 0.6040797234 4289112757
-0.2962724864 -0.1944143474 0.6025169492 4285428349
-0.2955033779 -0.1932419538 0.6009528637 4282072906
-0.2951576710 -0.1923489571 0.6002498269 4280822839
-0.2948115468 -0.1914572567 0.5995458961 4281217595
-0.2948892713 -0.1908414215 0.5997039676 4281480767
-0.2945424020 -0.1899514049 0.5989985466 4281349181
-0.2937705517 -0.1887898594 0.5974288583 4281283388
-0.2934226990 -0.1879032999 0.5967214108 4281348924
-0.2934991419 -0.1872890890 0.5968769193 4281414717
-0.2935753763 -0.1866743863 0.5970319510 4281414717
-0.2932264507 -0.1857899576 0.5963223577 4281414717
-0.2928770781 -0.1849068254 0.5956118703 4281414715
-0.2925272882 -0.1840250045 0.5949004889 4281480508
-0.2921770513 -0.1831444949 0.5941882133 4281414715
-0.2918263972 -0.1822653115 0.5934751034 4281414715
-0.2910497785 -0.1811226308 0.5918957591 4281414715
-0.2906981707 -0.1802469641 0.5911806822 4281348922
-0.2899203897 -0.1791096181 0.5895989537 4281348920
-0.2891419530 -0.1779753864 0.5880159140 4281414713
-0.2887888253 -0.1771054864 0.5872977376 4281480508
-0.2880092263 -0.1759766191 0.5857123137 4281414715
-0.2885074615 -0.1756291389 0.5867255330 4281414715
-0.2881531417 -0.1747623682 0.5860050321 4281348922
-0.2886511683 -0.1744121909 0.5870177746 4281348920
-0.2882962227 -0.1735463142 0.5862959623 4281348920
-0.2887940109 -0.1731934249 0.5873082876 4281217334
-0.2884384394 -0.1723284423 0.5865851641 4281085748
-0.2885092199 -0.1717188358 0.5867291093 4280954164
-0.2881529033 -0.1708556563 0.5860044956 4280888371
-0.2882231474 -0.1702460498 0.5861473083 4280822062
-0.2878660560 -0.1693847030 0.5854211450 4280822062
-0.2875085771 -0.1685246974 0.5846941471 4280822062
-0.2867233455 -0.1674165726 0.5830972791 4280756269
-0.2867923081 -0.1668088287 0.5832375288 4280756269
-0.2868610620 -0.1662006378 0.5833773017 4280690476
-0.2865019739 -0.1653452218 0.5826470256 4280690476
-0.2861424387 -0.1644911915 0.5819159150 4280624683
-0.2862103283 -0.1638835222 0.5820539594 4280427304
-0.2858500779 -0.1630313396 0.5813213587 4280427304
-0.2854894102 -0.1621805578 0.5805878639 4280427304
-0.2859845459 -0.1618156582 0.5815948248 4280493097
-0.2864796817 -0.1614484936 0.5826017261 4280493097
-0.2861181498 -0.1605982482 0.5818665028 4280493097
-0.2861846089 -0.1599889100 0.5820016265 4280493097
-0.2862508297 -0.1593791395 0.5821363330 4280493097
-0.2863168716 -0.1587689519 0.5822706223 4280361511
-0.2872400880 -0.1586318761 0.5841481686 4280427304
-0.2873058617 -0.1580190212 0.5842819214 4280493097
-0.2869424820 -0.1571708024 0.5835429430 4280558890
-0.2870077193 -0.1565580219 0.5836755633 4280624683
-0.2870726883 -0.1559448242 0.5838077664 4280624683
-0.2867082655 -0.1550990343 0.5830665827 4280493097
-0.2867726982 -0.1544859111 0.5831976533 4280493097
-0.2872663140 -0.1541027427 0.5842015147 4280230439
-0.2869009376 -0.1532584578 0.5834584236 4280296232
-0.2865351140 -0.1524156034 0.5827144384 4280296232
-0.2861688733 -0.1515741795 0.5819696188 4280296232
-0.2866617441 -0.1511875242 0.5829719901 4280362025
-0.2858650088 -0.1501213908 0.5813516974 4280427818
-0.2859275639 -0.1495081782 0.5814788938 4280427818
-0.2859899104 -0.1488945633 0.5816056728 4280427818
-0.2860520184 -0.1482805610 0.5817319751 4280296234
-0.2865441442 -0.1478881985 0.5827327967 4279901476
-0.2861755490 -0.1470513344 0.5819832087 4280099114
-0.2862369418 -0.1464361399 0.5821081400 4286415242
-0.2858676314 -0.1456012577 0.5813570023 4288125860
-0.2854978740 -0.1447678357 0.5806050897 4288389032
-0.2855584025 -0.1441533118 0.5807281733 4288191653
-0.2856187224 -0.1435383856 0.5808508396 4288652204
-0.2852478921 -0.1427074969 0.5800967216 4288060067
-0.2848766744 -0.1418780833 0.5793417692 4288125860
-0.2849361002 -0.1412638575 0.5794626474 4287995046
-0.2849952877 -0.1406492442 0.5795829892 4288126632
-0.2850542665 -0.1400342584 0.5797029138 4288192425
-0.2851129770 -0.1394188851 0.5798223615 4288192425
-0.2851714790 -0.1388031244 0.5799413323 4288192425
-0.2852297425 -0.1381869912 0.5800597668 4288126632
-0.2848561704 -0.1373623610 0.5793000460 4288257449
-0.2849138677 -0.1367464066 0.5794174075 4288323242
-0.2849713266 -0.1361300945 0.5795342326 4288324011
-0.2850285470 -0.1355133951 0.5796506405 4288389804
-0.2850855291 -0.1348963231 0.5797665119 4288455597
-0.2851422727 -0.1342788935 0.5798819065 4288587183
-0.2847666740 -0.1334585696 0.5791180730 4288849585
-0.2852550745 -0.1330429167 0.5801113248 4288981171
-0.2853111029 -0.1324243695 0.5802252889 4288783792
-0.2853668928 -0.1318054795 0.5803387165 4288849585
-0.2854224741 -0.1311862171 0.5804517269 4288981939
-0.2854777873 -0.1305665821 0.5805642009 4289113525
-0.2855328619 -0.1299466044 0.5806761980 4289047732
-0.2855876982 -0.1293262690 0.5807877183 4289047732
-0.2856422961 -0.1287055612 0.5808987617 4289310136
-0.2856966257 -0.1280845106 0.5810092688 4289310136
-0.2857507467 -0.1274631023 0.5811192989 4289375929
-0.2858045995 -0.1268413514 0.5812288523 4289375929
-0.2858582437 -0.1262192279 0.5813379288 4289441722
-0.2859116197 -0.1255967766 0.5814464688 4289573308
-0.2855314612 -0.1247846112 0.5806733966 4289704894
-0.2855842710 -0.1241624057 0.5807808042 4289836480
-0.2856368423 -0.1235398501 0.5808876753 4289902273
-0.2856891453 -0.1229169518 0.5809940696 4289902273
-0.2853076458 -0.1221081391 0.5802181959 4290033859
-0.2862267494 -0.1218547598 0.5820873380 4290099652
-0.2867121398 -0.1214135811 0.5830745101 4290165445
-0.2867636383 -0.1207874343 0.5831792355 4290231238
-0.2872487903 -0.1203427315 0.5841658711 4290231238
-0.2872998714 -0.1197149679 0.5842697024 4290231238
-0.2877847552 -0.1192667484 0.5852558017 4290297031
-0.2878354192 -0.1186373681 0.5853587985 4290428617
-0.2861489356 -0.1172956899 0.5819291472 4290362822
-0.2883702517 -0.1175546423 0.5864465237 4290494408
-0.2884202302 -0.1169233173 0.5865481496 4290494408
-0.2889043987 -0.1164668053 0.5875327587 4290428615
-0.2893884480 -0.1160080582 0.5885171890 4290494662
-0.2903069854 -0.1157203168 0.5903851986 4290626248
-0.2907909155 -0.1152561605 0.5913693309 4290955213
-0.2912747264 -0.1147897765 0.5923532248 4291349971
-0.2917584181 -0.1143211648 0.5933369398 4291810522
-0.2922420204 -0.1138503179 0.5943203568 4292271073
-0.2922905385 -0.1132087782 0.5944190621 4292863208
-0.2961462438 -0.1947714388 0.6036236286 4291547098
-0.2953787148 -0.1935977191 0.6020592451 4288915378
-0.2950338423 -0.1927035302 0.6013562679 4285099384
-0.2942651212 -0.1915350258 0.5997894406 4282072904
-0.2939192653 -0.1906442791 0.5990844965 4280691251
-0.2939966023 -0.1900286525 0.5992420912 4280954423
-0.2936500013 -0.1891395897 0.5985355973 4280954423
-0.2933029532 -0.1882518381 0.5978282690 4281151545
-0.2929554880 -0.1873653680 0.5971199870 4281217338
-0.2930316329 -0.1867504567 0.5972752571 4281217338
-0.2931075990 -0.1861350834 0.5974300504 4281151545
-0.2931833267 -0.1855192184 0.5975844264 4281151545
-0.2932588458 -0.1849028766 0.5977383852 4281217338
-0.2929096520 -0.1840193719 0.5970266461 4281283129
-0.2925600410 -0.1831371784 0.5963140130 4281348922
-0.2922099829 -0.1822562963 0.5956004858 4281414713
-0.2910098433 -0.1808487028 0.5931543112 4281348920
-0.2906587124 -0.1799722463 0.5924385786 4281283127
-0.2898820937 -0.1788349003 0.5908556581 4281348920
-0.2895300090 -0.1779620051 0.5901380181 4281414715
-0.2891775072 -0.1770904362 0.5894194841 4281414715
-0.2883991897 -0.1759606749 0.5878331065 4281283127
-0.2880457044 -0.1750926822 0.5871126056 4281348920
-0.2885429561 -0.1747415066 0.5881261230 4281348920
-0.2886145115 -0.1741312295 0.5882720351 4281348920
-0.2882600725 -0.1732645780 0.5875495672 4281414713
-0.2883311212 -0.1726543009 0.5876943469 4281348920
-0.2884019315 -0.1720435768 0.5878387094 4281283127
-0.2880464196 -0.1711791754 0.5871140957 4281348920
-0.2876904905 -0.1703161299 0.5863885880 4281348406
-0.2877604365 -0.1697058678 0.5865312219 4281414199
-0.2869773507 -0.1685941368 0.5849350691 4281414199
-0.2861936390 -0.1674855798 0.5833376050 4281348406
-0.2862625420 -0.1668776125 0.5834780335 4281282613
-0.2863312066 -0.1662692130 0.5836180449 4281151027
-0.2859728336 -0.1654134840 0.5828875899 4281019441
-0.2860409617 -0.1648051143 0.5830264688 4280953648
-0.2861088812 -0.1641962975 0.5831648707 4280953648
-0.2857494652 -0.1633429080 0.5824322701 4280887855
-0.2853896022 -0.1624908894 0.5816987753 4280756015
-0.2854566574 -0.1618826091 0.5818354487 4280690222
-0.2859509289 -0.1615153253 0.5828428864 4280558636
-0.2860176563 -0.1609052867 0.5829789042 4280427050
-0.2860841453 -0.1602948010 0.5831144452 4280295718
-0.2861503959 -0.1596839130 0.5832495093 4280295718
-0.2857886255 -0.1588348001 0.5825121403 4280164648
-0.2858543694 -0.1582239717 0.5826460719 4280296234
-0.2859198749 -0.1576127261 0.5827795863 4280362027
-0.2859851420 -0.1570010483 0.5829126835 4280362027
-0.2860502005 -0.1563889533 0.5830452442 4280362027
-0.2865433395 -0.1560096443 0.5840504169 4280362027
-0.2861796319 -0.1551635265 0.5833091140 4280427050
-0.2862440348 -0.1545501947 0.5834403038 4280492843
-0.2863081694 -0.1539364457 0.5835710764 4280427050
-0.2863720953 -0.1533222795 0.5837013721 4280558636
-0.2864358127 -0.1527077109 0.5838311911 4280492843
-0.2860703766 -0.1518650353 0.5830863714 4280427050
-0.2865625322 -0.1514773369 0.5840895176 4280492843
-0.2849092185 -0.1499581784 0.5807196498 4280558636
-0.2854008079 -0.1495705694 0.5817216039 4280558636
-0.2858923376 -0.1491807401 0.5827234983 4280558636
-0.2859544754 -0.1485655755 0.5828501582 4280098855
-0.2860164046 -0.1479500085 0.5829763412 4280033062
-0.2856485248 -0.1471128166 0.5822265148 4280757044
-0.2852802277 -0.1462770849 0.5814758539 4287204758
-0.2849115431 -0.1454428136 0.5807243586 4288389032
-0.2849722505 -0.1448284388 0.5808480978 4287994274
-0.2846028209 -0.1439961642 0.5800951123 4288323239
-0.2846629620 -0.1433819383 0.5802177191 4288323239
-0.2842928171 -0.1425516605 0.5794632435 4287862688
-0.2847825885 -0.1421523094 0.5804615617 4287928481
-0.2844117880 -0.1413231194 0.5797057152 4287797412
-0.2844709158 -0.1407082826 0.5798262358 4287863205
-0.2845298052 -0.1400930583 0.5799463391 4287863205
-0.2845884860 -0.1394774467 0.5800659060 4287928998
-0.2846469283 -0.1388614476 0.5801849961 4288060069
-0.2847051024 -0.1382450908 0.5803036094 4288125862
-0.2843322754 -0.1374201328 0.5795436502 4288060070
-0.2843899131 -0.1368039399 0.5796611309 4288060070
-0.2844473124 -0.1361873895 0.5797781348 4288060070
-0.2845044732 -0.1355704516 0.5798946619 4288125863
-0.2845614254 -0.1349531412 0.5800107121 4288257448
-0.2846181095 -0.1343354732 0.5801262856 4288323241
-0.2846745849 -0.1337174326 0.5802413821 4288323242
-0.2842993736 -0.1328973472 0.5794765949 4288323242
-0.2843552828 -0.1322795153 0.5795905590 4288257448
-0.2844109237 -0.1316613108 0.5797039866 4288323241
-0.2848980129 -0.1312416047 0.5806968212 4288454825
-0.2849532664 -0.1306217313 0.5808094144 4288586411
-0.2850082815 -0.1300015152 0.5809215903 4288586411
-0.2850630879 -0.1293809265 0.5810332298 4288652204
-0.2851176262 -0.1287599951 0.5811443925 4288783792
-0.2851718962 -0.1281386912 0.5812550783 4288783792
-0.2847937942 -0.1273238361 0.5804843903 4288784562
-0.2848475277 -0.1267027855 0.5805938840 4288850355
-0.2849010229 -0.1260813624 0.5807029605 4288850355
-0.2845218778 -0.1252692342 0.5799301267 4288850355
-0.2845747769 -0.1246480644 0.5800379515 4289047734
-0.2841948867 -0.1238380671 0.5792636871 4289179320
-0.2842472494 -0.1232171580 0.5793703794 4289376699
-0.2847320735 -0.1227825060 0.5803585649 4289442492
-0.2843512297 -0.1219743118 0.5795822740 4289508285
-0.2848357260 -0.1215370893 0.5805698633 4289508285
-0.2848871946 -0.1209138706 0.5806747079 4289639871
-0.2849383950 -0.1202903166 0.5807790756 4289771457
-0.2849893570 -0.1196664274 0.5808829665 4289902273
-0.2854732573 -0.1192231253 0.5818693042 4289902273
-0.2855238020 -0.1185976192 0.5819723010 4289968066
-0.2855740786 -0.1179717854 0.5820748210 4289968066
-0.2860575616 -0.1175236851 0.5830602646 4290033859
-0.2861074209 -0.1168962345 0.5831618905 4290297031
-0.2865906358 -0.1164446324 0.5841467977 4290494410
-0.2870737314 -0.1159907952 0.5851314664 4290494410
-0.2875567079 -0.1155347228 0.5861158967 4290428617
-0.2880395949 -0.1150764301 0.5871001482 4290362824
-0.2885223925 -0.1146159023 0.5880842209 4290297799
-0.2885711193 -0.1139817536 0.5881835222 4290429385
-0.2886196077 -0.1133472770 0.5882823467 4290363592
-0.2886678278 -0.1127124801 0.5883806348 4290495178
-0.2891499400 -0.1122459099 0.5893633366 4290560969
-0.2891977429 -0.1116095260 0.5894607306 4290692555
-0.2892452776 -0.1109728292 0.5895576477 4291021520
-0.2892925441 -0.1103358194 0.5896539688 4291416278
-0.2902084589 -0.1100279242 0.5915208459 4291876829
-0.2902553380 -0.1093883738 0.5916164517 4292337380
-0.2907365859 -0.1089113206 0.5925973058 4293060586
-0.2932177782 -0.1919518858 0.5990107059 4290362824
-0.2928728163 -0.1910613179 0.5983060002 4288191396
-0.2929501832 -0.1904468387 0.5984640121 4285230711
-0.2930273116 -0.1898318827 0.5986216068 4281875268
-0.2926813066 -0.1889433861 0.5979147553 4280822580
-0.2923348546 -0.1880562007 0.5972070098 4280821808
-0.2924111485 -0.1874415725 0.5973628759 4280953394
-0.2924872339 -0.1868264526 0.5975182652 4280821808
-0.2925631106 -0.1862108558 0.5976732969 4280821808
-0.2926387489 -0.1855947822 0.5978278518 4280953648
-0.2922905982 -0.1847105324 0.5971165895 4281151027
-0.2906708419 -0.1830271930 0.5938076377 4281283129
-0.2920168042 -0.1832118779 0.5965572596 4281217336
-0.2916674614 -0.1823306829 0.5958436131 4281085750
-0.2913177013 -0.1814507991 0.5951290727 4280954164
-0.2909674942 -0.1805722266 0.5944136381 4281019957
-0.2906168699 -0.1796949953 0.5936973691 4281019957
-0.2898414433 -0.1785576493 0.5921132565 4280954164
-0.2894898653 -0.1776839793 0.5913949609 4281019957
-0.2895624042 -0.1770712584 0.5915431976 4281282613
-0.2896347642 -0.1764580905 0.5916910172 4281282613
-0.2892820835 -0.1755866259 0.5909705758 4281348406
-0.2889290154 -0.1747165024 0.5902492404 4281348406
-0.2890004814 -0.1741037518 0.5903952718 4281348406
-0.2886466682 -0.1732354313 0.5896724463 4281414199
-0.2891428173 -0.1728769094 0.5906860232 4281414199
-0.2887883484 -0.1720094830 0.5899618864 4281348406
-0.2884334326 -0.1711434126 0.5892368555 4281348922
-0.2880781293 -0.1702786982 0.5885109901 4281283129
-0.2877223790 -0.1694153398 0.5877842307 4281283129
-0.2869404554 -0.1683036536 0.5861868858 4281348922
-0.2865837514 -0.1674439460 0.5854581594 4281348922
-0.2866525650 -0.1668335050 0.5855987668 4281348922
-0.2858690917 -0.1657286584 0.5839982033 4281348922
-0.2859372497 -0.1651191562 0.5841374397 4281283129
-0.2860051990 -0.1645092219 0.5842762589 4281283127
-0.2856465876 -0.1636545956 0.5835436583 4281217334
-0.2852875590 -0.1628013551 0.5828102231 4281151541
-0.2853546441 -0.1621919423 0.5829472542 4281019955
-0.2854215205 -0.1615820974 0.5830838680 4280822576
-0.2854881585 -0.1609718204 0.5832200050 4280822576
-0.2855545878 -0.1603611261 0.5833557248 4280690990
-0.2856208086 -0.1597500145 0.5834909678 4280427818
-0.2856867909 -0.1591384560 0.5836257339 4280558890
-0.2853254080 -0.1582895368 0.5828874707 4280493097
-0.2853908539 -0.1576780528 0.5830211639 4280558890
-0.2858833969 -0.1573012918 0.5840274096 4280558890
-0.2859484851 -0.1566880643 0.5841603279 4280427304
-0.2855858207 -0.1558411121 0.5834195018 4280361511
-0.2856503427 -0.1552279741 0.5835513473 4280361511
-0.2852869630 -0.1543829441 0.5828089118 4280361511
-0.2853509486 -0.1537698805 0.5829396844 4280492843
-0.2854147255 -0.1531564146 0.5830699205 4280427050
-0.2854782641 -0.1525425315 0.5831997395 4280361257
-0.2855415642 -0.1519282460 0.5833290815 4280361257
-0.2856046557 -0.1513135433 0.5834579468 4280295464
-0.2848109305 -0.1502465755 0.5818364620 4280361257
-0.2848733664 -0.1496329159 0.5819640756 4280492843
-0.2853640616 -0.1492429376 0.5829664469 4280492843
-0.2854261398 -0.1486275345 0.5830932856 4280164907
-0.2854879797 -0.1480117440 0.5832196474 4280033321
-0.2851208448 -0.1471742392 0.5824695826 4281612353
-0.2847532928 -0.1463381797 0.5817187428 4287731102
-0.2843853235 -0.1455035806 0.5809670091 4287665309
-0.2844459713 -0.1448889822 0.5810909271 4287665309
-0.2845064104 -0.1442739815 0.5812143683 4287994276
-0.2841373682 -0.1434419155 0.5804604888 4287994276
-0.2838274837 -0.1419970095 0.5798273683 4287862690
-0.2838867903 -0.1413823217 0.5799485445 4287731619
-0.2839458585 -0.1407672465 0.5800692439 4287797412
-0.2840047181 -0.1401517838 0.5801894665 4287863205
-0.2840633094 -0.1395359486 0.5803092122 4287797412
-0.2841216922 -0.1389197260 0.5804284215 4287797412
-0.2841798365 -0.1383031160 0.5805472136 4287797412
-0.2838077247 -0.1374778450 0.5797870755 4287863205
-0.2838653028 -0.1368614137 0.5799046755 4287994791
-0.2839226425 -0.1362446249 0.5800218582 4288060584
-0.2839797735 -0.1356274486 0.5801385045 4287994791
-0.2840366364 -0.1350099146 0.5802546740 4287994791
-0.2836628258 -0.1341883689 0.5794910789 4288126377
-0.2837191522 -0.1335710287 0.5796061158 4288323242
-0.2837752402 -0.1329533160 0.5797206759 4288257449
-0.2838310599 -0.1323352456 0.5798346996 4288520621
-0.2838866711 -0.1317168027 0.5799483061 4288718000
-0.2839420140 -0.1310980022 0.5800614357 4288652721
-0.2839971483 -0.1304788291 0.5801740289 4288389549
-0.2840520442 -0.1298593134 0.5802861452 4288586928
-0.2841066718 -0.1292394251 0.5803977847 4288389549
-0.2841610909 -0.1286191940 0.5805088878 4288915379
-0.2842152417 -0.1279985905 0.5806195736 4288783793
-0.2842691541 -0.1273776442 0.5807297230 4288587183
-0.2843228281 -0.1267563403 0.5808393359 4288652976
-0.2839447558 -0.1259432882 0.5800669789 4289112757
-0.2839978635 -0.1253222227 0.5801754594 4288981171
-0.2836190462 -0.1245113015 0.5794015527 4289310136
-0.2841033340 -0.1240790635 0.5803909898 4289375929
-0.2837238908 -0.1232693419 0.5796157718 4289442492
-0.2837759256 -0.1226478517 0.5797221065 4289508285
-0.2838277519 -0.1220260113 0.5798279643 4289179320
-0.2838793099 -0.1214038357 0.5799332857 4289245113
-0.2839306295 -0.1207813248 0.5800381303 4289310904
-0.2839817107 -0.1201584712 0.5801424980 4289245111
-0.2840325534 -0.1195352823 0.5802463293 4289442490
-0.2840831280 -0.1189117581 0.5803496838 4289903041
-0.2841334939 -0.1182879061 0.5804525018 4289508283
-0.2841835618 -0.1176637262 0.5805548429 4289968834
-0.2842334211 -0.1170392111 0.5806567073 4289770685
-0.2842830122 -0.1164143682 0.5807580352 4289968064
-0.2843323648 -0.1157892048 0.5808588266 4289902271
-0.2848142982 -0.1153389961 0.5818433762 4290231236
-0.2852961719 -0.1148865670 0.5828277469 4290560201
-0.2853448987 -0.1142585203 0.5829273462 4290297029
-0.2858264744 -0.1138025820 0.5839111209 4290626764
-0.2863079309 -0.1133444235 0.5848947167 4290560971
-0.2863560915 -0.1127135083 0.5849930644 4290495178
-0.2864039540 -0.1120822802 0.5850908756 4290363592
-0.2864516079 -0.1114507392 0.5851882100 4290363592
-0.2864989936 -0.1108188778 0.5852850080 4290297799
-0.2865461111 -0.1101867035 0.5853812695 4290297799
-0.2870265543 -0.1097199619 0.5863627791 4290363592
-0.2870732546 -0.1090862155 0.5864581466 4290560971
-0.2875533998 -0.1086159796 0.5874390006 4290626764
-0.2875996530 -0.1079806611 0.5875335336 4290626762
-0.2876456380 -0.1073450297 0.5876274705 4290955727
-0.2885592282 -0.1070309952 0.5894938111 4291350739
-0.2886048257 -0.1063928381 0.5895869732 4291745497
-0.2890842557 -0.1059134156 0.5905663967 4292140255
-0.2895635366 -0.1054317653 0.5915455222 4292666599
-0.2945676148 -0.1986351162 0.6031367779 4290626766
-0.2939644456 -0.1962221265 0.6019018292 4290691789
-0.2937795818 -0.1940937042 0.6015232205 4290757582
-0.2925930917 -0.1926441938 0.5990939140 4290231238
-0.2922491729 -0.1917528957 0.5983896852 4290231238
-0.2923266590 -0.1911386997 0.5985483527 4290033600
-0.2919819951 -0.1902490854 0.5978426337 4288980912
-0.2924809754 -0.1899088472 0.5988643169 4286546571
-0.2921356857 -0.1890200377 0.5981572866 4283717472
-0.2917899489 -0.1881325245 0.5974494219 4281743680
-0.2918661535 -0.1875176877 0.5976054668 4281151543
-0.2919421494 -0.1869023591 0.5977610350 4281019187
-0.2920179367 -0.1862865537 0.5979162455 4280821808
-0.2916707993 -0.1854015738 0.5972054601 4280690222
-0.2913232446 -0.1845178902 0.5964938402 4280821808
-0.2913981974 -0.1839024425 0.5966472626 4280822578
-0.2910498679 -0.1830205023 0.5959340930 4280954164
-0.2907011509 -0.1821398735 0.5952200294 4281217334
-0.2903519869 -0.1812605560 0.5945051312 4281217334
-0.2900023758 -0.1803825647 0.5937893391 4281085748
-0.2896523476 -0.1795059144 0.5930726528 4281085748
-0.2893019021 -0.1786305755 0.5923550725 4281085234
-0.2893747091 -0.1780172139 0.5925041437 4281151027
-0.2894473076 -0.1774033904 0.5926527381 4281414199
-0.2895196676 -0.1767891049 0.5928009748 4281348406
-0.2900158465 -0.1764322966 0.5938168764 4281282613
-0.2900878787 -0.1758161932 0.5939643979 4281216820
-0.2897354960 -0.1749434918 0.5932428837 4281216820
-0.2898070216 -0.1743273735 0.5933892727 4281216820
-0.2898783088 -0.1737107933 0.5935353041 4281282613
-0.2899493873 -0.1730937660 0.5936807990 4281282613
-0.2895956039 -0.1722237617 0.5929564238 4281414199
-0.2888166904 -0.1711034775 0.5913615823 4281414199
-0.2884619832 -0.1702370942 0.5906352997 4281348406
-0.2881068289 -0.1693720818 0.5899081230 4281348406
-0.2877512574 -0.1685084254 0.5891800523 4281414199
-0.2873952389 -0.1676461399 0.5884511471 4281414199
-0.2866135836 -0.1665381342 0.5868506432 4281479992
-0.2862566411 -0.1656795144 0.5861198306 4281479992
-0.2863247395 -0.1650675386 0.5862591863 4281283127
-0.2859670520 -0.1642107666 0.5855268240 4281348920
-0.2856089473 -0.1633553952 0.5847936273 4281348920
-0.2852503955 -0.1625013947 0.5840594769 4281283127
-0.2853173018 -0.1618904173 0.5841964483 4281217334
-0.2853839993 -0.1612790227 0.5843330026 4281283127
-0.2854504287 -0.1606671959 0.5844690800 4281283127
-0.2855166793 -0.1600549370 0.5846046805 4281283127
-0.2855826914 -0.1594422460 0.5847398639 4281414199
-0.2856484652 -0.1588291377 0.5848745704 4281348406
-0.2852876186 -0.1579794735 0.5841356516 4281216820
-0.2853528559 -0.1573664397 0.5842692256 4281085234
-0.2849912345 -0.1565186679 0.5835288167 4281019441
-0.2846935689 -0.1550598592 0.5829193592 4280822062
-0.2851846516 -0.1546785533 0.5839248896 4280822062
-0.2856757045 -0.1542949826 0.5849303007 4280624429
-0.2844582498 -0.1529902965 0.5824375153 4280558636
-0.2845847905 -0.1517635137 0.5826966166 4280361257
-0.2846477032 -0.1511495113 0.5828254223 4280361257
-0.2842829227 -0.1503090709 0.5820785165 4280295464
-0.2843452990 -0.1496951878 0.5822062492 4280295464
-0.2848351300 -0.1493050754 0.5832091570 4280361257
-0.2848971486 -0.1486894488 0.5833361745 4279967528
-0.2853867710 -0.1482957602 0.5843387246 4280033321
-0.2850204706 -0.1474570036 0.5835887194 4282665041
-0.2842257023 -0.1463992149 0.5819613338 4287862688
-0.2842865884 -0.1457838565 0.5820860863 4287533723
-0.2839190364 -0.1449494660 0.5813335180 4287665309
-0.2839794159 -0.1443342417 0.5814570785 4287731104
-0.2836111188 -0.1435018480 0.5807029605 4287796897
-0.2836709023 -0.1428867728 0.5808254480 4287599518
-0.2833018899 -0.1420563906 0.5800698400 4287665311
-0.2833611369 -0.1414414644 0.5801911354 4287600033
-0.2834201455 -0.1408261508 0.5803120136 4287600033
-0.2834789455 -0.1402104646 0.5804323554 4287665826
-0.2835374773 -0.1395943910 0.5805522203 4287731619
-0.2835958004 -0.1389779299 0.5806716681 4287665826
-0.2836538851 -0.1383610964 0.5807905793 4287665826
-0.2832825184 -0.1375354975 0.5800302029 4287797412
-0.2833400369 -0.1369188279 0.5801479816 4287797412
-0.2833973169 -0.1363018006 0.5802652836 4287797412
-0.2834543884 -0.1356844008 0.5803820491 4287731619
-0.2835111916 -0.1350666136 0.5804983974 4287797412
-0.2831381261 -0.1342447549 0.5797345638 4287928998
-0.2831943929 -0.1336271763 0.5798497200 4288060584
-0.2832504213 -0.1330092251 0.5799644589 4288060584
-0.2833061814 -0.1323909163 0.5800786614 4288520621
-0.2833617330 -0.1317722350 0.5801923871 4288652207
-0.2834170461 -0.1311531961 0.5803056359 4288126377
-0.2834721208 -0.1305337846 0.5804183483 4287863205
-0.2835269272 -0.1299140304 0.5805306435 4288060584
-0.2835815251 -0.1292939037 0.5806424022 4288192170
-0.2836358845 -0.1286734194 0.5807536840 4288586414
-0.2836899757 -0.1280525923 0.5808644891 4288257449
-0.2837438583 -0.1274313927 0.5809747577 4288323756
-0.2837974727 -0.1268098503 0.5810845494 4288192170
-0.2834201157 -0.1259964705 0.5803118944 4288389034
-0.2830423713 -0.1251846254 0.5795384645 4288586413
-0.2830950916 -0.1245639250 0.5796464086 4288454827
-0.2831476033 -0.1239428744 0.5797539353 4289046964
-0.2831998467 -0.1233214810 0.5798609257 4288981941
-0.2832518518 -0.1226997375 0.5799673796 4288916148
-0.2833036184 -0.1220776588 0.5800733566 4288784562
-0.2829238474 -0.1212703735 0.5792957544 4289047734
-0.2829750478 -0.1206485629 0.5794005990 4289047732
-0.2830259800 -0.1200264171 0.5795049071 4289113525
-0.2835082114 -0.1195859462 0.5804922581 4288916146
-0.2831271589 -0.1187811121 0.5797120333 4288850353
-0.2831773758 -0.1181579605 0.5798148513 4289113525
-0.2832273245 -0.1175344810 0.5799171925 4289310904
-0.2832770348 -0.1169106737 0.5800189972 4289639099
-0.2833265066 -0.1162865311 0.5801202655 4289704892
-0.2833757401 -0.1156620681 0.5802210569 4289441720
-0.2834247053 -0.1150372848 0.5803213120 4289836478
-0.2839055657 -0.1145865768 0.5813059211 4289639869
-0.2839541137 -0.1139601916 0.5814052820 4289837248
-0.2840024233 -0.1133334860 0.5815042257 4289968834
-0.2844828069 -0.1128780022 0.5824878216 4290034627
-0.2845306993 -0.1122497022 0.5825858712 4289968836
-0.2845783234 -0.1116210893 0.5826833844 4290034629
-0.2841931283 -0.1108234823 0.5818946958 4290166215
-0.2842401862 -0.1101951897 0.5819910169 4290232008
-0.2842869759 -0.1095665917 0.5820868015 4290363594
-0.2847662866 -0.1091035008 0.5830682516 4290429387
-0.2852455080 -0.1086381748 0.5840494633 4290429387
-0.2852916718 -0.1080067381 0.5841439962 4290429387
-0.2853375971 -0.1073749959 0.5842379928 4290560971
-0.2853832543 -0.1067429483 0.5843315125 4290560971
-0.2858617902 -0.1062716097 0.5853113532 4290560971
-0.2859070301 -0.1056379974 0.5854039788 4290495178
-0.2859520018 -0.1050040871 0.5854960084 4290429385
-0.2864300311 -0.1045280099 0.5864748359 4290429385
-0.2847409844 -0.1032638401 0.5830164552 4290692041
-0.2865188420 -0.1032567769 0.5866566300 4290823627
-0.2869963646 -0.1027759686 0.5876343846 4291415764
-0.2870401740 -0.1021386608 0.5877240896 4291744729
-0.2870837450 -0.1015010551 0.5878133178 4292205280
-0.2871270180 -0.1008631587 0.5879019499 4292731624
-0.2928555310 -0.2006017417 0.6009979844 4290560718
-0.2929359376 -0.1999888867 0.6011630297 4290363594
-0.2930161655 -0.1993755251 0.6013276577 4290297801
-0.2930961847 -0.1987616718 0.6014918089 4290099652
-0.2931759953 -0.1981473118 0.6016556025 4289770687
-0.2928354442 -0.1972494572 0.6009567976 4289770688
-0.2929147482 -0.1966349781 0.6011195183 4290033860
-0.2929938138 -0.1960199922 0.6012817621 4290231238
-0.2926522195 -0.1951241642 0.6005807519 4290099652
-0.2923101783 -0.1942296028 0.5998788476 4290165445
-0.2923884392 -0.1936149150 0.6000394225 4290099652
-0.2916248441 -0.1924443245 0.5984723568 4289704894
-0.2912814915 -0.1915535927 0.5977677703 4288981171
-0.2913587987 -0.1909400821 0.5979263783 4287533723
-0.2914358675 -0.1903260797 0.5980845690 4285691519
-0.2910914719 -0.1894374341 0.5973777771 4284704367
-0.2911680341 -0.1888233572 0.5975348949 4283651679
-0.2912443578 -0.1882087737 0.5976915359 4282796368
-0.2908988893 -0.1873222440 0.5969825983 4282270024
-0.2909747064 -0.1867076010 0.5971381664 4281677117
-0.2910503149 -0.1860924810 0.5972933173 4281150773
-0.2907037735 -0.1852080673 0.5965821743 4280953394
-0.2907788455 -0.1845928729 0.5967362523 4280821808
-0.2904315889 -0.1837101877 0.5960235596 4280756269
-0.2900838554 -0.1828288138 0.5953099728 4280558890
-0.2897357345 -0.1819487661 0.5945955515 4280624683
-0.2893871665 -0.1810700297 0.5938802361 4280558890
-0.2894607484 -0.1804560572 0.5940312147 4280493097
-0.2891114354 -0.1795790792 0.5933143497 4280690476
-0.2887617052 -0.1787034273 0.5925966501 4280953648
-0.2888344228 -0.1780898422 0.5927459002 4281216820
-0.2889069319 -0.1774758101 0.5928946733 4281348406
-0.2889792323 -0.1768613011 0.5930430889 4281282613
-0.2894745469 -0.1765043885 0.5940595269 4281282613
-0.2895465195 -0.1758880764 0.5942072272 4281282613
-0.2896182537 -0.1752712876 0.5943544507 4281348406
-0.2892662883 -0.1743987054 0.5936321020 4281282613
-0.2889138758 -0.1735274792 0.5929089189 4281282613
-0.2889847755 -0.1729111373 0.5930544138 4281348406
-0.2890554667 -0.1722943485 0.5931994915 4281282613
-0.2887019813 -0.1714253724 0.5924740434 4281348406
-0.2883480787 -0.1705577523 0.5917477608 4281282613
-0.2879937589 -0.1696915030 0.5910206437 4281282613
-0.2880632579 -0.1690756232 0.5911632776 4281282613
-0.2877081633 -0.1682112068 0.5904346108 4281348406
-0.2873526812 -0.1673481613 0.5897050500 4281348406
-0.2865722179 -0.1662402004 0.5881033540 4281414199
-0.2866404355 -0.1656261981 0.5882433653 4281479992
-0.2867084146 -0.1650117487 0.5883828998 4281545785
-0.2863513231 -0.1641533077 0.5876500607 4281545785
-0.2859938145 -0.1632962674 0.5869163871 4281479992
-0.2856359184 -0.1624406129 0.5861818790 4281479992
-0.2852775455 -0.1615863442 0.5854464769 4281479992
-0.2853440344 -0.1609733701 0.5855829120 4281479992
-0.2849849463 -0.1601209939 0.5848460197 4281611578
-0.2850508988 -0.1595080942 0.5849813223 4281545785
-0.2851166129 -0.1588947624 0.5851162076 4281545785
-0.2851821184 -0.1582810134 0.5852506161 4281414199
-0.2848216593 -0.1574315131 0.5845108628 4281348406
-0.2848865986 -0.1568178236 0.5846441388 4281348406
-0.2849513292 -0.1562037319 0.5847769976 4281348406
-0.2845897973 -0.1553566456 0.5840350389 4281216820
-0.2846539915 -0.1547426283 0.5841667652 4281216820
-0.2855703831 -0.1545896679 0.5860474110 4281150773
-0.2847816646 -0.1535133570 0.5844288468 4281019187
-0.2844187617 -0.1526692212 0.5836840272 4280821808
-0.2844819427 -0.1520544738 0.5838137269 4280756015
-0.2845449150 -0.1514393240 0.5839428902 4280756015
-0.2841809392 -0.1505976319 0.5831959844 4280690222
-0.2842433453 -0.1499825865 0.5833240747 4280624429
-0.2843055129 -0.1493671387 0.5834516287 4280690222
-0.2847944498 -0.1489746422 0.5844550133 4280230700
-0.2848562598 -0.1483574659 0.5845818520 4280164907
-0.2844906747 -0.1475183815 0.5838316083 4283849315
-0.2841246724 -0.1466807574 0.5830805302 4287731102
-0.2837582827 -0.1458445936 0.5823286176 4287336344
-0.2833914459 -0.1450098753 0.5815758109 4287665309
-0.2834517360 -0.1443944275 0.5816995502 4287533725
-0.2830841839 -0.1435617208 0.5809452534 4287599518
-0.2831439376 -0.1429464072 0.5810678601 4287402139
-0.2832034528 -0.1423307061 0.5811899900 4287467932
-0.2828348279 -0.1415005475 0.5804334879 4287402654
-0.2828937769 -0.1408850104 0.5805544853 4287468447
-0.2829525173 -0.1402690709 0.5806750059 4287468447
-0.2830109894 -0.1396527737 0.5807950497 4287534240
-0.2830692530 -0.1390360743 0.5809146166 4287534240
-0.2831272781 -0.1384190023 0.5810336471 4287468447
-0.2827566564 -0.1375930756 0.5802730322 4287665826
-0.2828141153 -0.1369761825 0.5803909898 4287600033
-0.2828713357 -0.1363589168 0.5805084109 4287534753
-0.2829283476 -0.1357412785 0.5806254148 4287600546
-0.2829850912 -0.1351232678 0.5807418823 4287731619
-0.2826127708 -0.1343010813 0.5799778104 4287863205
-0.2826689780 -0.1336832643 0.5800931454 4287928998
-0.2827249467 -0.1330650747 0.5802080035 4287994791
-0.2827806473 -0.1324465275 0.5803223252 4288257449
-0.2828361392 -0.1318276078 0.5804362297 4288125863
-0.2828913927 -0.1312083304 0.5805495977 4288191656
-0.2829464078 -0.1305886954 0.5806624889 4288323242
-0.2830011845 -0.1299686879 0.5807749033 4287994277
-0.2830557227 -0.1293483227 0.5808867812 4288125863
-0.2831099927 -0.1287276000 0.5809982419 4288389035
-0.2831640542 -0.1281065196 0.5811091661 4288586414
-0.2832178771 -0.1274850965 0.5812195539 4287863205
-0.2832714319 -0.1268633008 0.5813295245 4288060584
-0.2833247781 -0.1262411624 0.5814389586 4288125863
-0.2833778560 -0.1256186813 0.5815478563 4288323242
-0.2830005884 -0.1248061657 0.5807737112 4288257448
-0.2826229334 -0.1239951998 0.5799986720 4288849585
-0.2826751471 -0.1233735606 0.5801057816 4288455597
-0.2822967768 -0.1225647405 0.5793293118 4288455597
