VERSION 0.7
FIELDS x y z rgba
SIZE 4 4 4 4
TYPE F F F U
COUNT 1 1 1 1
WIDTH 920
HEIGHT 1
VIEWPOINT 0.0 0.0 0.0 1.0 0.0 0.0 0.0
POINTS 920
DATA ascii
-0.2860530317 -0.1622882932 0.5951774120 4288695328
-0.2861192822 -0.1616644561 0.5953153372 4288695328
-0.2861853540 -0.1610401869 0.5954527855 4288629535
-0.2862511873 -0.1604154855 0.5955897570 4288497949
-0.2863167822 -0.1597903520 0.5957262516 4288628765
-0.2863821685 -0.1591647863 0.5958622694 4288628765
-0.2864473164 -0.1585388035 0.5959978104 4288628765
-0.2865122259 -0.1579123884 0.5961328745 4288562972
-0.2865769267 -0.1572855413 0.5962675214 4288562970
-0.2866413891 -0.1566582918 0.5964016318 4288431384
-0.2867056131 -0.1560305953 0.5965352654 4288431384
-0.2867696285 -0.1554024965 0.5966684818 4288497177
-0.2872552276 -0.1550015658 0.5976787806 4288431384
-0.2873188555 -0.1543717086 0.5978112221 4288365591
-0.2878042758 -0.1539671719 0.5988211632 4288365591
-0.2878675461 -0.1533355415 0.5989528298 4288299798
-0.2883527577 -0.1529273987 0.5999624133 4288431639
-0.2884156704 -0.1522940099 0.6000933051 4288431639
-0.2884783149 -0.1516602039 0.6002236605 4288431639
-0.2885407507 -0.1510259956 0.6003535390 4288365846
-0.2886029482 -0.1503913701 0.6004829407 4288300053
-0.2886649072 -0.1497563273 0.6006118655 4288102674
-0.2887266278 -0.1491208822 0.6007403135 4288102674
-0.2883652747 -0.1482676268 0.5999884605 4288234260
-0.2884264588 -0.1476323009 0.6001157165 4288168467
-0.2880643606 -0.1467810422 0.5993623734 4288234260
-0.2881249785 -0.1461458355 0.5994884372 4288168467
-0.2881853282 -0.1455102414 0.5996140242 4288102674
-0.2882454395 -0.1448742449 0.5997391343 4288168467
-0.2883053422 -0.1442378461 0.5998637080 4288365846
-0.2883649766 -0.1436010599 0.5999878049 4288431639
-0.2884243727 -0.1429638714 0.6001114249 4288431639
-0.2889071703 -0.1425352991 0.6011159420 4288563225
-0.2889661789 -0.1418963820 0.6012386680 4288629018
-0.2890249491 -0.1412570924 0.6013609767 4288563225
-0.2899312079 -0.1410297751 0.6032466292 4288563225
-0.2899896801 -0.1403878182 0.6033682823 4288629018
-0.2904719412 -0.1399497986 0.6043716669 4288694811
-0.2905299962 -0.1393061280 0.6044924855 4288498717
-0.2905877829 -0.1386620849 0.6046127677 4288564510
-0.2906453609 -0.1380176395 0.6047325134 4288434725
-0.2911270559 -0.1375733763 0.6057347655 4288368932
-0.2911842167 -0.1369272321 0.6058536768 4288500524
-0.2912411094 -0.1362807155 0.6059721112 4288632110
-0.2912977934 -0.1356338263 0.6060900092 4288500528
-0.2909294963 -0.1347897798 0.6053236723 4288500528
-0.2909855545 -0.1341430694 0.6054403782 4288763189
-0.2910414040 -0.1334960014 0.6055565476 4288894775
-0.2910969853 -0.1328485459 0.6056721807 4289157165
-0.2911523283 -0.1322007328 0.6057873368 4288762407
-0.2912074029 -0.1315525472 0.6059019566 4288828454
-0.2912622392 -0.1309039891 0.6060160398 4288762661
-0.2913168371 -0.1302550733 0.6061296463 4288826397
-0.2913711667 -0.1296057850 0.6062426567 4288563225
-0.2909998298 -0.1287678778 0.6054700017 4288234775
-0.2910535634 -0.1281188130 0.6055818796 4288366361
-0.2911070585 -0.1274694055 0.6056931615 4289285404
-0.2907346487 -0.1266342252 0.6049183011 4289943334
-0.2907875776 -0.1259850413 0.6050283909 4289878582
-0.2904143929 -0.1251519918 0.6042519808 4290404926
-0.2908926308 -0.1246856153 0.6052470207 4291141526
-0.2909448147 -0.1240353808 0.6053555608 4294959319
-0.2909967005 -0.1233847961 0.6054635644 4293521130
-0.2910483479 -0.1227338612 0.6055710316 4293521130
-0.2915259600 -0.1222613305 0.6065647602 4293322478
-0.2915771604 -0.1216087490 0.6066712737 4293322478
-0.2924808562 -0.1213095039 0.6085515022 4293256685
-0.2929581106 -0.1208302155 0.6095445752 4293125099
-0.2934353054 -0.1203486696 0.6105374098 4292928488
-0.2934857607 -0.1196909100 0.6106424332 4292862695
-0.2939626575 -0.1192058176 0.6116346717 4292862695
-0.2940126657 -0.1185464188 0.6117387414 4293060074
-0.2940624654 -0.1178866923 0.6118422747 4293257453
-0.2808406651 -0.2046011686 0.5856858492 4293324279
-0.2809211910 -0.2040089071 0.5858537555 4293258486
-0.2810015380 -0.2034161538 0.5860213041 4293192693
-0.2810817063 -0.2028228790 0.5861884952 4293126900
-0.2815745473 -0.2025260627 0.5872163177 4293061107
-0.2812414467 -0.2016348094 0.5865216255 4293191923
-0.2817341387 -0.2013352364 0.5875491500 4293191923
-0.2822268903 -0.2010334134 0.5885767341 4293191923
-0.2818929851 -0.2001423985 0.5878803730 4293191923
-0.2823855579 -0.1998378038 0.5889076591 4293191923
-0.2824646235 -0.1992392540 0.5890725255 4293126130
-0.2825434804 -0.1986401975 0.5892370343 4293060337
-0.2826221585 -0.1980406344 0.5894010663 4292994544
-0.2822867334 -0.1971514970 0.5887015462 4292796652
-0.2823649049 -0.1965518147 0.5888645649 4292665066
-0.2824428678 -0.1959516406 0.5890271664 4292401894
-0.2825206518 -0.1953509748 0.5891893506 4292138722
-0.2825982273 -0.1947498024 0.5893511176 4292007390
-0.2826755941 -0.1941481382 0.5895125270 4291941597
-0.2827527821 -0.1935459822 0.5896734595 4291941597
-0.2828297615 -0.1929433346 0.5898340344 4291941597
-0.2829065621 -0.1923401952 0.5899941921 4292005850
-0.2825682163 -0.1914554238 0.5892885923 4292071643
-0.2826445103 -0.1908521801 0.5894476771 4292006107
-0.2827205658 -0.1902484596 0.5896062851 4291940314
-0.2827964425 -0.1896442473 0.5897645354 4292005850
-0.2828721404 -0.1890395582 0.5899223685 4292005850
-0.2829475999 -0.1884343773 0.5900797844 4292136664
-0.2830228806 -0.1878287047 0.5902367830 4292070871
-0.2830979526 -0.1872225553 0.5903933048 4292202198
-0.2831728160 -0.1866159290 0.5905494690 4292070612
-0.2832474709 -0.1860088110 0.5907051563 4291807440
-0.2833219469 -0.1854012311 0.5908604264 4291478475
-0.2829800546 -0.1845218092 0.5901474357 4291346118
-0.2830539942 -0.1839141548 0.5903016329 4291082946
-0.2831277251 -0.1833060235 0.5904554129 4290688188
-0.2832012475 -0.1826974154 0.5906087756 4290359223
-0.2832745910 -0.1820883453 0.5907616615 4290556082
-0.2833476961 -0.1814787984 0.5909141302 4290358703
-0.2834205925 -0.1808687747 0.5910661817 4290358703
-0.2834933102 -0.1802582741 0.5912178159 4290095531
-0.2835657895 -0.1796473265 0.5913689733 4289765537
-0.2836380601 -0.1790358871 0.5915197134 4289370779
-0.2832929194 -0.1781616062 0.5907999277 4288974994
-0.2833646834 -0.1775501519 0.5909495950 4288185478
-0.2834362388 -0.1769382209 0.5910987854 4287329655
-0.2835075557 -0.1763258427 0.5912475586 4286540139
-0.2835786939 -0.1757129878 0.5913958549 4285355349
-0.2832318544 -0.1748418063 0.5906725526 4283249973
-0.2833024263 -0.1742289364 0.5908197761 4283117874
-0.2829548717 -0.1733595431 0.5900949240 4282986288
-0.2826068699 -0.1724915057 0.5893691778 4283314224
-0.2826766074 -0.1718790829 0.5895146132 4283248431
-0.2827461660 -0.1712661982 0.5896596313 4283642413
-0.2828154564 -0.1706528813 0.5898042321 4283905585
-0.2828845680 -0.1700391024 0.5899482965 4284822047
-0.2825348973 -0.1691742390 0.5892190933 4285282598
-0.2826034725 -0.1685604751 0.5893620849 4287118875
-0.2830905914 -0.1681950837 0.5903779864 4287316254
-0.2831588387 -0.1675795168 0.5905202627 4287774224
-0.2836458087 -0.1672104895 0.5915358663 4287905810
-0.2837137282 -0.1665931195 0.5916774869 4287970833
-0.2842005789 -0.1662204713 0.5926928520 4287970833
-0.2842681408 -0.1656013131 0.5928336978 4287774485
-0.2847548723 -0.1652250439 0.5938487649 4287774485
-0.2848220766 -0.1646040827 0.5939889550 4287840278
-0.2853086591 -0.1642241776 0.5950036645 4287774485
-0.2853755355 -0.1636014283 0.5951431394 4287840017
-0.2858619690 -0.1632179171 0.5961575508 4287905810
-0.2859284878 -0.1625933796 0.5962963104 4287905812
-0.2855748236 -0.1617305577 0.5955587626 4287971605
-0.2856408060 -0.1611060649 0.5956963897 4287905812
-0.2857065499 -0.1604811400 0.5958334804 4287905812
-0.2853518426 -0.1596207023 0.5950937271 4287971603
-0.2854170501 -0.1589958370 0.5952297449 4288037396
-0.2854820192 -0.1583705395 0.5953652263 4288037396
-0.2859673202 -0.1579771340 0.5963773131 4288168982
-0.2860319614 -0.1573500633 0.5965120792 4288234775
-0.2860963345 -0.1567225754 0.5966463685 4288168982
-0.2861604989 -0.1560946554 0.5967801809 4288234775
-0.2862244546 -0.1554663330 0.5969135761 4288234775
-0.2862881720 -0.1548375636 0.5970464349 4288234775
-0.2863516510 -0.1542083919 0.5971788168 4288300568
-0.2868360877 -0.1538046449 0.5981891155 4288432154
-0.2868991792 -0.1531737149 0.5983207226 4288497947
-0.2873834670 -0.1527663618 0.5993306041 4288497947
-0.2874462008 -0.1521336585 0.5994614363 4288563740
-0.2875086963 -0.1515005529 0.5995917916 4288563740
-0.2875709534 -0.1508670300 0.5997216702 4288563740
-0.2876330018 -0.1502331048 0.5998510718 4288630046
-0.2876948118 -0.1495987624 0.5999799371 4288630046
-0.2877563536 -0.1489640027 0.6001083255 4288563999
-0.2873956859 -0.1481113583 0.5993561149 4288563999
-0.2874566913 -0.1474767327 0.5994833112 4288695585
-0.2875174582 -0.1468417048 0.5996100903 4288827171
-0.2871556878 -0.1459915638 0.5988556147 4288958757
-0.2872158885 -0.1453566700 0.5989812016 4288958757
-0.2872758806 -0.1447213739 0.5991062522 4289090343
-0.2877581418 -0.1442975551 0.6001120210 4289221929
-0.2878177166 -0.1436605304 0.6002362967 4289287722
-0.2878770828 -0.1430231035 0.6003600359 4289353515
-0.2883589864 -0.1425943673 0.6013650894 4288895033
-0.2884179354 -0.1419552267 0.6014879942 4289026619
-0.2884766459 -0.1413156837 0.6016104221 4289223485
-0.2889581621 -0.1408820301 0.6026146412 4289355071
-0.2890164852 -0.1402407736 0.6027362347 4289618496
-0.2890745401 -0.1395991296 0.6028573513 4289881668
-0.2895556986 -0.1391605586 0.6038607955 4290275650
-0.2896133661 -0.1385172009 0.6039810181 4290407236
-0.2896707654 -0.1378734708 0.6041007638 4290735429
-0.2897279561 -0.1372293532 0.6042200327 4290603843
-0.2897848785 -0.1365848482 0.6043387055 4290735431
-0.2898415625 -0.1359399706 0.6044569612 4290801224
-0.2898980081 -0.1352947056 0.6045746207 4290669385
-0.2895302773 -0.1344522238 0.6038077474 4290537799
-0.2900101244 -0.1340030730 0.6048085093 4290472008
-0.2900658250 -0.1333566904 0.6049246192 4290274629
-0.2901212573 -0.1327099353 0.6050402522 4290209855
-0.2901764810 -0.1320628226 0.6051553488 4289946683
-0.2902314067 -0.1314153224 0.6052699685 4289881403
-0.2902861238 -0.1307674646 0.6053840518 4289815610
-0.2899160981 -0.1299290061 0.6046123505 4289748016
-0.2903947532 -0.1294706613 0.6056106091 4289221672
-0.2900240719 -0.1286333799 0.6048375964 4288629794
-0.2900776863 -0.1279850155 0.6049494147 4288366622
-0.2901310623 -0.1273362935 0.6050606966 4289219870
-0.2901841700 -0.1266872138 0.6051714420 4289943593
-0.2898120880 -0.1258532554 0.6043955088 4290273855
-0.2898646295 -0.1252044141 0.6045050621 4290471234
-0.2899169028 -0.1245552227 0.6046140790 4291207064
-0.2899689376 -0.1239056885 0.6047225595 4294958550
-0.2900207043 -0.1232558042 0.6048305631 4293192165
-0.2900722325 -0.1226055697 0.6049379706 4293192165
-0.2901234925 -0.1219549850 0.6050449014 4293190892
-0.2905999720 -0.1214819252 0.6060386300 4293256685
-0.2915019095 -0.1211835295 0.6079195738 4293322478
-0.2915526330 -0.1205290556 0.6080253124 4293388271
-0.2920287848 -0.1200492382 0.6090183854 4293454064
-0.2920790911 -0.1193931252 0.6091232300 4293322478
-0.2925549448 -0.1189097688 0.6101156473 4292994281
-0.2926047742 -0.1182520241 0.6102195382 4292862695
-0.2926543653 -0.1175939441 0.6103229523 4292928743
-0.2809387445 -0.1999279708 0.5872505903 4293324279
-0.2809962034 -0.1960531920 0.5873706341 4293454582
-0.2810738385 -0.1954545826 0.5875329971 4293257203
-0.2811512947 -0.1948554665 0.5876948833 4292994031
-0.2812285721 -0.1942558736 0.5878564119 4292731113
-0.2813056409 -0.1936557740 0.5880175233 4292467941
-0.2813825011 -0.1930551827 0.5881781578 4292401378
-0.2814591825 -0.1924541146 0.5883384347 4292401378
-0.2815356553 -0.1918525398 0.5884982944 4292400865
-0.2811978161 -0.1909692287 0.5877920985 4292335072
-0.2812737823 -0.1903675646 0.5879508853 4292335072
-0.2817639112 -0.1900448948 0.5889754295 4292269279
-0.2818395793 -0.1894413680 0.5891336203 4292203227
-0.2819150686 -0.1888373643 0.5892913938 4292137434
-0.2815756500 -0.1879560500 0.5885819197 4292202457
-0.2816506326 -0.1873519570 0.5887386203 4292070871
-0.2817253768 -0.1867473871 0.5888949037 4291807953
-0.2817999423 -0.1861423403 0.5890507698 4291347402
-0.2822894454 -0.1858100593 0.5900739431 4290623679
-0.2823637128 -0.1852031648 0.5902292132 4289702577
-0.2824377716 -0.1845957786 0.5903840065 4288846755
-0.2825116217 -0.1839879155 0.5905384421 4287991446
-0.2821697295 -0.1831099093 0.5898237228 4287201930
-0.2822430730 -0.1825020015 0.5899770260 4286741379
-0.2823162079 -0.1818936020 0.5901299119 4286806142
-0.2823891342 -0.1812847555 0.5902823210 4286345591
-0.2824618518 -0.1806754172 0.5904343128 4286016624
-0.2825343609 -0.1800656170 0.5905858874 4285819245
-0.2826066613 -0.1794553399 0.5907370448 4285358437
-0.2826787531 -0.1788446158 0.5908877254 4284766300
-0.2823342085 -0.1779709160 0.5901675820 4284699478
-0.2824057937 -0.1773601472 0.5903171897 4284567892
-0.2824771404 -0.1767489016 0.5904663205 4284303950
-0.2825483084 -0.1761372089 0.5906150341 4284040778
-0.2826192379 -0.1755250543 0.5907633305 4284237898
-0.2826899588 -0.1749124378 0.5909112096 4283908933
-0.2823434174 -0.1740422845 0.5901868343 4283579455
-0.2819964588 -0.1731734723 0.5894615650 4283053111
-0.2820663452 -0.1725612879 0.5896076560 4282854962
-0.2821360230 -0.1719486564 0.5897532701 4282328618
-0.2822054923 -0.1713355631 0.5898984671 4282919206
-0.2818571627 -0.1704694778 0.5891703367 4283248171
-0.2819260955 -0.1698563993 0.5893144011 4284296221
-0.2819947898 -0.1692428589 0.5894580483 4284888358
-0.2820632756 -0.1686288863 0.5896012187 4286856479
-0.2821315527 -0.1680144519 0.5897439718 4287251237
-0.2821996212 -0.1673995703 0.5898862481 4288103450
-0.2826856375 -0.1670313478 0.5909021497 4288366622
-0.2831716537 -0.1666608453 0.5919180512 4288694558
-0.2832392454 -0.1660428196 0.5920593739 4288694558
-0.2837251127 -0.1656686962 0.5930749774 4288629281
-0.2837923765 -0.1650488675 0.5932155848 4288695074
-0.2842781246 -0.1646711230 0.5942308903 4288760867
-0.2843450308 -0.1640495062 0.5943707824 4288826660
-0.2848306000 -0.1636681408 0.5953857899 4288957730
-0.2848971784 -0.1630447209 0.5955249667 4289023523
-0.2849635482 -0.1624208689 0.5956636667 4289155109
-0.2850296795 -0.1617965847 0.5958019495 4289286695
-0.2850956023 -0.1611718684 0.5959396958 4289220902
-0.2851612866 -0.1605467200 0.5960770249 4289220902
-0.2852267325 -0.1599211395 0.5962138176 4289352488
-0.2848724127 -0.1590608656 0.5954732299 4289418281
-0.2849373221 -0.1584353447 0.5956088901 4289549867
-0.2854217589 -0.1580418199 0.5966215134 4289747246
-0.2854863107 -0.1574145257 0.5967563987 4289615660
-0.2855506241 -0.1567867994 0.5968908668 4289615660
-0.2851947248 -0.1559290141 0.5961468816 4289681453
-0.2852584720 -0.1553013772 0.5962802172 4289681453
-0.2853220403 -0.1546733081 0.5964130163 4289681451
-0.2853853405 -0.1540448219 0.5965453982 4289681451
-0.2858688235 -0.1536418796 0.5975559950 4289747244
-0.2859317660 -0.1530116349 0.5976876020 4289813037
-0.2864150703 -0.1526050568 0.5986978412 4289747762
-0.2864776552 -0.1519730687 0.5988286138 4289747762
-0.2865400016 -0.1513406485 0.5989589691 4289681969
-0.2866021097 -0.1507078260 0.5990887880 4289681969
-0.2866639793 -0.1500745863 0.5992181301 4289879348
-0.2871466577 -0.1496603936 0.6002271175 4289945141
-0.2872081697 -0.1490253955 0.6003556252 4289814068
-0.2868482172 -0.1481724232 0.5996032357 4289814068
-0.2869091630 -0.1475375593 0.5997306108 4289748275
-0.2869698405 -0.1469022930 0.5998575091 4289814068
-0.2866088450 -0.1460518390 0.5991028547 4289814068
-0.2866689861 -0.1454167068 0.5992285609 4289814068
-0.2867288888 -0.1447811574 0.5993537903 4289814070
-0.2867885530 -0.1441452205 0.5994784832 4289879863
-0.2868479788 -0.1435088962 0.5996027589 4289879863
-0.2869071662 -0.1428721696 0.5997264385 4289945656
-0.2873881161 -0.1424442232 0.6007317901 4289814330
-0.2874469161 -0.1418057680 0.6008546948 4289682744
-0.2875054777 -0.1411669254 0.6009771228 4289551927
-0.2875638008 -0.1405276954 0.6010990143 4289486134
-0.2880442142 -0.1400934905 0.6021032929 4289420852
-0.2881021500 -0.1394525468 0.6022243500 4289552438
-0.2881598175 -0.1388112158 0.6023448706 4289749556
-0.2882172465 -0.1381694973 0.6024649143 4289749556
-0.2886971235 -0.1377290636 0.6034680605 4289682993
-0.2887541652 -0.1370856315 0.6035872698 4289485614
-0.2888109386 -0.1364418268 0.6037059426 4289551155
-0.2888674736 -0.1357976496 0.6038241386 4289682741
-0.2885007560 -0.1349552125 0.6030575633 4289486394
-0.2885567248 -0.1343112141 0.6031745076 4289552187
-0.2886124253 -0.1336668581 0.6032910347 4289355583
-0.2890911698 -0.1332171708 0.6042917371 4289158204
-0.2891464829 -0.1325711161 0.6044073105 4289880637
-0.2892015278 -0.1319246888 0.6045224071 4289880637
-0.2892563343 -0.1312778890 0.6046369672 4289684541
-0.2888873219 -0.1304394752 0.6038656235 4289816127
-0.2889415622 -0.1297928989 0.6039789319 4289945656
-0.2889955342 -0.1291459501 0.6040918231 4289353519
-0.2894730866 -0.1286870688 0.6050900221 4288761382
-0.2891027331 -0.1278509945 0.6043159366 4288300831
-0.2891559899 -0.1272029728 0.6044271588 4288956701
-0.2892089486 -0.1265545934 0.6045379043 4289943596
-0.2888375521 -0.1257212460 0.6037615538 4290537029
-0.2888899446 -0.1250731051 0.6038711071 4290602822
-0.2889420986 -0.1244246215 0.6039801240 4291667617
-0.2889939845 -0.1237757877 0.6040886045 4294960094
-0.2890456319 -0.1231265962 0.6041965485 4293783534
-0.2890970409 -0.1224770620 0.6043039560 4293783534
-0.2891481519 -0.1218271852 0.6044108272 4293454066
-0.2896237075 -0.1213549003 0.6054049134 4293388273
-0.2900991440 -0.1208803654 0.6063987017 4293322478
-0.2905744910 -0.1204035729 0.6073923111 4293322478
-0.2906248271 -0.1197494566 0.6074975729 4293322478
-0.2910998762 -0.1192691177 0.6084905267 4292993513
-0.2911497653 -0.1186133698 0.6085948348 4292402144
-0.2911994159 -0.1179572865 0.6086986065 4292073179
-0.2912487984 -0.1173008606 0.6088018417 4292007641
-0.2917231619 -0.1168143973 0.6097934246 4292797157
-0.2797845006 -0.1943594366 0.5861988068 4293322996
-0.2798614502 -0.1937613934 0.5863600373 4293060078
-0.2799382210 -0.1931628734 0.5865208507 4292796906
-0.2800147831 -0.1925638616 0.5866812468 4292599527
-0.2800911367 -0.1919643432 0.5868412256 4292599527
-0.2801673114 -0.1913643479 0.5870008469 4292402146
-0.2802432775 -0.1907638609 0.5871599913 4292336353
-0.2803190351 -0.1901628822 0.5873187780 4292401376
-0.2803946137 -0.1895614266 0.5874770880 4292335583
-0.2804699838 -0.1889594793 0.5876349807 4292269533
-0.2805451751 -0.1883570403 0.5877925158 4292137947
-0.2806201279 -0.1877541244 0.5879495740 4292072154
-0.2806949019 -0.1871507317 0.5881062746 4292072154
-0.2807694674 -0.1865468472 0.5882624984 4291808980
-0.2808438540 -0.1859424859 0.5884183049 4291348429
-0.2809180319 -0.1853376478 0.5885736942 4290493120
-0.2809919715 -0.1847323179 0.5887286663 4289572018
-0.2814803123 -0.1843980998 0.5897517800 4288716196
-0.2815539539 -0.1837909371 0.5899061561 4287926680
-0.2816274166 -0.1831832826 0.5900600553 4287597201
-0.2812858224 -0.1823062748 0.5893443227 4287399822
-0.2813587487 -0.1816985756 0.5894971490 4287333769
-0.2814314961 -0.1810904145 0.5896495581 4287202183
-0.2815040350 -0.1804817766 0.5898014903 4286807425
-0.2815763354 -0.1798726618 0.5899530649 4286412667
-0.2816484571 -0.1792630851 0.5901041627 4286082932
-0.2817203701 -0.1786530316 0.5902547836 4285622381
-0.2817920744 -0.1780425161 0.5904050469 4285161315
-0.2814478278 -0.1771698445 0.5896837711 4284437592
-0.2815190256 -0.1765592992 0.5898329020 4284634714
-0.2815899849 -0.1759482920 0.5899816155 4284108370
-0.2816607356 -0.1753368229 0.5901298523 4284041805
-0.2817312777 -0.1747249067 0.5902776718 4283844426
-0.2813853621 -0.1738553345 0.5895528793 4283120446
-0.2810390294 -0.1729871184 0.5888272524 4282594102
-0.2811087370 -0.1723756343 0.5889732838 4282396723
-0.2811782062 -0.1717636883 0.5891188979 4282001965
-0.2812474966 -0.1711512953 0.5892640352 4282853413
-0.2808997929 -0.1702857912 0.5885355473 4283313964
-0.2809685469 -0.1696734130 0.5886795521 4284429094
-0.2810370624 -0.1690605730 0.5888231397 4285284403
-0.2811053693 -0.1684472859 0.5889662504 4287253809
-0.2811734974 -0.1678335518 0.5891089439 4287780153
-0.2812413573 -0.1672193706 0.5892512202 4288828978
-0.2817264199 -0.1668519378 0.5902674198 4289092150
-0.2817939520 -0.1662359536 0.5904089808 4289287983
-0.2822788656 -0.1658648998 0.5914249420 4289287983
-0.2823460996 -0.1652471274 0.5915657878 4289353517
-0.2828308642 -0.1648724377 0.5925814509 4289419310
-0.2833155990 -0.1644954830 0.5935971141 4289615660
-0.2833823562 -0.1638745666 0.5937369466 4289615660
-0.2834489048 -0.1632531881 0.5938763618 4289681193
-0.2835152149 -0.1626313925 0.5940153003 4289746986
-0.2835812867 -0.1620091498 0.5941537619 4289681199
-0.2836471498 -0.1613864899 0.5942917466 4289681199
-0.2837128043 -0.1607633829 0.5944293141 4289615406
-0.2837782204 -0.1601398438 0.5945663452 4289615406
-0.2838434279 -0.1595158726 0.5947029591 4289681199
-0.2839083970 -0.1588914841 0.5948390961 4289681199
-0.2839731276 -0.1582666636 0.5949747562 4289681969
-0.2844565809 -0.1578739136 0.5959876776 4289813555
-0.2845209837 -0.1572473198 0.5961225629 4289747762
-0.2845851183 -0.1566202939 0.5962569714 4289747762
-0.2846490741 -0.1559928358 0.5963909030 4289813555
-0.2847127616 -0.1553649753 0.5965244174 4289879348
-0.2843568325 -0.1545087993 0.5957786441 4289945141
-0.2844199836 -0.1538810134 0.5959109664 4289945141
-0.2849025130 -0.1534788460 0.5969219208 4289879348
-0.2849653065 -0.1528493017 0.5970534682 4289879348
-0.2854476273 -0.1524435133 0.5980640650 4289682484
-0.2855100334 -0.1518122107 0.5981948376 4289748277
-0.2855722308 -0.1511804909 0.5983251333 4289682484
-0.2856341898 -0.1505483687 0.5984549522 4289616691
-0.2861160338 -0.1501362920 0.5994645357 4289682484
-0.2861776352 -0.1495024115 0.5995935202 4289814070
-0.2858186364 -0.1486495286 0.5988414288 4289814070
-0.2858796716 -0.1480157673 0.5989692211 4289814070
-0.2859404385 -0.1473815888 0.5990965962 4289550898
-0.2860009968 -0.1467470229 0.5992234349 4289485105
-0.2860612869 -0.1461120397 0.5993497968 4289419569
-0.2857006192 -0.1452627331 0.5985941291 4289551155
-0.2857603729 -0.1446278989 0.5987192988 4289682741
-0.2858198583 -0.1439926475 0.5988439918 4289814327
-0.2858791351 -0.1433570236 0.5989681482 4289880122
-0.2859381735 -0.1427209973 0.5990918875 4289945915
-0.2859969735 -0.1420845687 0.5992150903 4290207545
-0.2860555351 -0.1414477527 0.5993377566 4290075959
-0.2865352333 -0.1410179287 0.6003428102 4289879350
-0.2865934074 -0.1403793991 0.6004647017 4289813557
-0.2866513431 -0.1397404820 0.6005860567 4289682741
-0.2871306539 -0.1393057257 0.6015903354 4289748534
-0.2871881723 -0.1386650950 0.6017108560 4289683513
-0.2872454822 -0.1380240768 0.6018308401 4289617720
-0.2873025239 -0.1373826861 0.6019504070 4289552185
-0.2873593271 -0.1367409080 0.6020693779 4289420599
-0.2874158621 -0.1360987425 0.6021878719 4289355326
-0.2874721885 -0.1354562044 0.6023058891 4289355326
-0.2875282466 -0.1348132789 0.6024233699 4289224000
-0.2875840664 -0.1341699958 0.6025403142 4289421379
-0.2876396477 -0.1335263252 0.6026567221 4289553224
-0.2881174386 -0.1330774128 0.6036577821 4289421638
-0.2881726027 -0.1324320585 0.6037733555 4289881152
-0.2878049016 -0.1315930933 0.6030029655 4289946945
-0.2878594995 -0.1309479475 0.6031173468 4289816127
-0.2879138291 -0.1303024441 0.6032311916 4289947713
-0.2879679203 -0.1296565682 0.6033445597 4290142520
-0.2880217731 -0.1290103197 0.6034573913 4289616176
-0.2880753875 -0.1283637285 0.6035696864 4289286441
-0.2877056301 -0.1275292188 0.6027949452 4288694304
-0.2877586484 -0.1268828511 0.6029060483 4289087774
-0.2878113985 -0.1262361258 0.6030166149 4290140462
-0.2878639400 -0.1255890429 0.6031266451 4290472010
-0.2879161835 -0.1249416023 0.6032361388 4291195733
-0.2879682183 -0.1242938116 0.6033451557 4292589750
-0.2880199850 -0.1236456782 0.6034535766 4294962924
-0.2876478434 -0.1228163093 0.6026739478 4294507775
-0.2876990438 -0.1221684366 0.6027811766 4294376189
-0.2881737649 -0.1216991767 0.6037757993 4294046203
-0.2882245183 -0.1210496575 0.6038821340 4293848824
-0.2886989415 -0.1205768511 0.6048761606 4293519859
-0.2891732752 -0.1201017871 0.6058699489 4293190894
-0.2892234027 -0.1194493324 0.6059749722 4292927720
-0.2896974385 -0.1189707220 0.6069681644 4292467169
-0.2897471189 -0.1183166280 0.6070722938 4291941079
-0.2897965610 -0.1176622063 0.6071758866 4291612114
-0.2898457646 -0.1170074418 0.6072789431 4291415504
-0.2903191149 -0.1165226996 0.6082707047 4292139227
-0.2903678715 -0.1158663183 0.6083728075 4293257708
-0.2770882845 -0.2039265186 0.5819038153 4293258999
-0.2775781453 -0.2036393583 0.5829325914 4293127413
-0.2772477865 -0.2027501017 0.5822388530 4292995827
-0.2773272693 -0.2021611333 0.5824057460 4292995827
-0.2774065733 -0.2015716583 0.5825722814 4293061365
-0.2774856687 -0.2009816766 0.5827383995 4293061365
-0.2775646150 -0.2003911883 0.5829041600 4292995827
-0.2776433527 -0.1998002082 0.5830695033 4293061620
-0.2781327069 -0.1995034069 0.5840972662 4293061620
-0.2782112062 -0.1989105344 0.5842620134 4293061620
-0.2782894671 -0.1983171701 0.5844264627 4293126900
-0.2783675790 -0.1977232993 0.5845904350 4293061107
-0.2784454823 -0.1971289217 0.5847540498 4292995314
-0.2789345980 -0.1968243569 0.5857812166 4292929521
-0.2790122330 -0.1962281168 0.5859442949 4292928751
-0.2790896893 -0.1956313848 0.5861068964 4292731372
-0.2791669369 -0.1950341463 0.5862691402 4292402407
-0.2788321078 -0.1941496283 0.5855660439 4292205028
-0.2789088786 -0.1935522854 0.5857272148 4292138976
-0.2789854109 -0.1929544508 0.5858879685 4292073183
-0.2790617943 -0.1923561096 0.5860483050 4292204769
-0.2791379392 -0.1917572916 0.5862082839 4292270562
-0.2792139053 -0.1911579818 0.5863678455 4292205026
-0.2792896926 -0.1905581802 0.5865269303 4292205026
-0.2793652713 -0.1899579018 0.5866856575 4292204769
-0.2794406414 -0.1893571317 0.5868439674 4292270562
-0.2791029215 -0.1884770542 0.5861347318 4292401378
-0.2791778147 -0.1878761947 0.5862919688 4292335585
-0.2796655595 -0.1875519007 0.5873163342 4292401376
-0.2797401547 -0.1869491935 0.5874729156 4292467169
-0.2798145115 -0.1863459945 0.5876291394 4292598755
-0.2794752717 -0.1854679585 0.5869166851 4292335583
-0.2795491517 -0.1848646998 0.5870718360 4292006618
-0.2800364494 -0.1845335364 0.5880951881 4291743446
-0.2801100314 -0.1839284301 0.5882496834 4291545810
-0.2801833749 -0.1833228469 0.5884037614 4291348431
-0.2802565396 -0.1827167869 0.5885574222 4291347916
-0.2799154222 -0.1818412691 0.5878410339 4291479502
-0.2799880803 -0.1812351495 0.5879936218 4291478988
-0.2800605297 -0.1806285679 0.5881457329 4291413195
-0.2801327705 -0.1800215244 0.5882974267 4291215815
-0.2802047729 -0.1794140041 0.5884487033 4290952643
-0.2802765965 -0.1788060218 0.5885995626 4290557885
-0.2803482115 -0.1781975627 0.5887499452 4290097334
-0.2804196477 -0.1775886416 0.5888999104 4289504684
-0.2804908454 -0.1769792587 0.5890494585 4288451996
-0.2805618346 -0.1763693988 0.5891985297 4287860113
-0.2806326151 -0.1757590920 0.5893471837 4287465355
-0.2807031870 -0.1751483232 0.5894953609 4287069827
-0.2803581953 -0.1742789000 0.5887708664 4286872448
-0.2804282308 -0.1736681014 0.5889179707 4286477175
-0.2800825238 -0.1728004813 0.5881919265 4286477175
-0.2801520526 -0.1721896827 0.5883379579 4286542968
-0.2802213430 -0.1715784371 0.5884835124 4286411382
-0.2798745930 -0.1707130820 0.5877552629 4286739318
-0.2799433768 -0.1701018363 0.5878997445 4287134076
-0.2800119221 -0.1694901437 0.5880436897 4287724924
-0.2800802886 -0.1688780040 0.5881872773 4288251268
-0.2801484168 -0.1682654023 0.5883303881 4289235843
-0.2806327343 -0.1679014862 0.5893474221 4289433222
-0.2807005346 -0.1672870815 0.5894898176 4289957761
-0.2807681262 -0.1666722447 0.5896317959 4289957761
-0.2808355093 -0.1660569608 0.5897732377 4290285182
-0.2813194394 -0.1656866968 0.5907895565 4290219389
-0.2813864648 -0.1650696248 0.5909303427 4290415994
-0.2818702757 -0.1646957248 0.5919463634 4290481787
-0.2819369733 -0.1640768498 0.5920864344 4290612599
-0.2824206054 -0.1636993438 0.5931020975 4290678392
-0.2824869752 -0.1630786657 0.5932414532 4290874743
-0.2821357548 -0.1622176021 0.5925039053 4290808950
-0.2826190293 -0.1618360281 0.5935187936 4290809726
-0.2822671831 -0.1609759182 0.5927798748 4290678140
-0.2823325694 -0.1603544354 0.5929172039 4290678140
-0.2828154564 -0.1599688083 0.5939313173 4290743933
-0.2824626565 -0.1591101587 0.5931903720 4290678140
-0.2829453051 -0.1587218344 0.5942039490 4290678140
-0.2830098569 -0.1580976993 0.5943395495 4290678653
-0.2830742300 -0.1574731469 0.5944747329 4290678653
-0.2831383348 -0.1568481624 0.5946093798 4290810239
-0.2832022607 -0.1562227607 0.5947436094 4290810239
-0.2832659185 -0.1555969417 0.5948773026 4290810239
-0.2833293676 -0.1549706906 0.5950105786 4290876032
-0.2833925784 -0.1543440223 0.5951433182 4290876032
-0.2838742733 -0.1539439857 0.5961548686 4290876032
-0.2839371264 -0.1533155590 0.5962868929 4290876032
-0.2844186425 -0.1529119164 0.5972980857 4290810239
-0.2844811082 -0.1522817165 0.5974292755 4291007618
-0.2845433652 -0.1516511142 0.5975600481 4291007618
-0.2846054137 -0.1510200948 0.5976902843 4291007618
-0.2846671939 -0.1503886580 0.5978200436 4290876032
-0.2847287655 -0.1497568190 0.5979493260 4290744446
-0.2847900987 -0.1491245627 0.5980781317 4290678653
-0.2848511934 -0.1484919041 0.5982064605 4290547326
-0.2844924331 -0.1476410925 0.5974530578 4290415740
-0.2845529616 -0.1470085531 0.5975801945 4290744705
-0.2846132815 -0.1463756114 0.5977068543 4290613119
-0.2846733332 -0.1457422674 0.5978329778 4290613119
-0.2847331762 -0.1451085210 0.5979586244 4290744705
-0.2847927809 -0.1444743872 0.5980837941 4290876291
-0.2844319940 -0.1436276883 0.5973261595 4290942084
-0.2844910324 -0.1429936886 0.5974501371 4291007877
-0.2845498323 -0.1423593014 0.5975736380 4291007877
-0.2846083939 -0.1417245120 0.5976966023 4290941833
-0.2850871980 -0.1412977427 0.5987021327 4290941833
-0.2851453722 -0.1406612396 0.5988242626 4290876292
-0.2852033079 -0.1400243491 0.5989459753 4290876292
-0.2852610052 -0.1393870562 0.5990670919 4290679682
-0.2857392728 -0.1389540434 0.6000715494 4290548096
-0.2857965827 -0.1383150518 0.6001918316 4290285182
-0.2858536243 -0.1376756728 0.6003116965 4290219389
-0.2859104574 -0.1370359063 0.6004309654 4290153339
-0.2859670222 -0.1363957673 0.6005498171 4290021753
-0.2860233486 -0.1357552558 0.6006680727 4290152311
-0.2860794365 -0.1351143569 0.6007858515 4289823346
-0.2861352861 -0.1344730854 0.6009031534 4289821286
-0.2861908674 -0.1338314414 0.6010199189 4289623907
-0.2866677940 -0.1333855689 0.6020214558 4289754204
-0.2867229879 -0.1327422410 0.6021373868 4289425239
-0.2867779434 -0.1320985258 0.6022527814 4290014541
-0.2868326306 -0.1314544529 0.6023676395 4289751369
-0.2864651978 -0.1306176335 0.6015959978 4289620038
-0.2865193188 -0.1299737692 0.6017096639 4289685831
-0.2865732014 -0.1293295473 0.6018227935 4290011449
-0.2866268158 -0.1286849529 0.6019354463 4289550898
-0.2866801918 -0.1280400008 0.6020475030 4289418029
-0.2867333293 -0.1273946911 0.6021590829 4288760099
-0.2863638401 -0.1265623569 0.6013831496 4288497179
-0.2864164114 -0.1259172708 0.6014935374 4289220902
-0.2864687145 -0.1252718419 0.6016033888 4289290052
-0.2865207791 -0.1246260703 0.6017127037 4291592807
-0.2865725756 -0.1239799336 0.6018214822 4293249226
-0.2866241336 -0.1233334541 0.6019297838 4294961643
-0.2870982587 -0.1228675768 0.6029254794 4293981691
-0.2867265046 -0.1220394447 0.6021447182 4293981691
-0.2867772877 -0.1213919222 0.6022514105 4293979897
-0.2868278325 -0.1207440570 0.6023575664 4293782518
-0.2873012722 -0.1202729866 0.6033517718 4293454066
-0.2877745926 -0.1197996587 0.6043457985 4293256687
-0.2878245115 -0.1191488579 0.6044506431 4293059306
-0.2882975340 -0.1186719835 0.6054440141 4292796134
-0.2883470356 -0.1180195510 0.6055479646 4292533216
-0.2883962691 -0.1173667833 0.6056513786 4292335837
-0.2884452641 -0.1167136803 0.6057542562 4292205020
-0.2889176309 -0.1162306741 0.6067462564 4292665571
-0.2889661789 -0.1155759469 0.6068482399 4293455087
-0.2771619558 -0.1960307807 0.5834193826 4293324279
-0.2772391737 -0.1954369843 0.5835819244 4293258486
-0.2773161829 -0.1948426813 0.5837439895 4293061107
-0.2773929834 -0.1942479014 0.5839056969 4292928751
-0.2774696350 -0.1936526150 0.5840669870 4292731372
-0.2775460482 -0.1930568367 0.5842279196 4292599784
-0.2776222825 -0.1924605817 0.5843883753 4292599784
-0.2776983380 -0.1918638200 0.5845484734 4292599784
-0.2777741849 -0.1912665814 0.5847081542 4292665577
-0.2778498530 -0.1906688362 0.5848673582 4292533994
-0.2779253125 -0.1900706142 0.5850262046 4292533994
-0.2780005634 -0.1894719005 0.5851846337 4292533481
-0.2780756354 -0.1888727099 0.5853426456 4292533481
-0.2777384222 -0.1879941076 0.5846328735 4292533480
-0.2778129876 -0.1873948276 0.5847898126 4292467687
-0.2782996595 -0.1870722175 0.5858142376 4292401894
-0.2783739269 -0.1864710897 0.5859705806 4292533480
-0.2784480155 -0.1858694851 0.5861265063 4292598757
-0.2785218656 -0.1852673888 0.5862819552 4292401378
-0.2785955369 -0.1846648306 0.5864370465 4292335072
-0.2786690295 -0.1840617806 0.5865917206 4292269279
-0.2791552544 -0.1837300509 0.5876151919 4292269279
-0.2792284191 -0.1831251532 0.5877692103 4292203486
-0.2793013752 -0.1825197935 0.5879228115 4292137947
-0.2789608836 -0.1816448420 0.5872060657 4292137947
-0.2790333331 -0.1810394228 0.5873585939 4292663778
-0.2791056037 -0.1804335415 0.5875107050 4292269020
-0.2791776359 -0.1798271835 0.5876623392 4292137434
-0.2792494893 -0.1792203486 0.5878135562 4292203227
-0.2793211043 -0.1786130518 0.5879643559 4292071641
-0.2793925405 -0.1780052930 0.5881147385 4291940055
-0.2794637680 -0.1773970723 0.5882646441 4291940053
-0.2791206539 -0.1765264720 0.5875424147 4291676881
-0.2791913450 -0.1759182066 0.5876912475 4291677136
-0.2792618573 -0.1753094941 0.5878396034 4291677136
-0.2793321311 -0.1747003198 0.5879875422 4291610573
-0.2794021964 -0.1740906835 0.5881350636 4291478987
-0.2790574133 -0.1732232124 0.5874093175 4291413192
-0.2791269720 -0.1726135612 0.5875557065 4291610571
-0.2787814438 -0.1717478782 0.5868284106 4291610571
-0.2788504958 -0.1711382419 0.5869736671 4291676364
-0.2789193094 -0.1705281436 0.5871185660 4291676881
-0.2785727382 -0.1696647406 0.5863890648 4291874260
-0.2786410153 -0.1690546423 0.5865327716 4291874515
-0.2787090838 -0.1684441119 0.5866760612 4291940308
-0.2791924179 -0.1680832505 0.5876934528 4292006101
-0.2792601585 -0.1674709022 0.5878360868 4291940308
-0.2793276906 -0.1668581218 0.5879782438 4292005846
-0.2798107862 -0.1664922833 0.5889950991 4292005846
-0.2798779905 -0.1658776999 0.5891366005 4291940053
-0.2803609371 -0.1655082256 0.5901531577 4291940053
-0.2804278135 -0.1648918390 0.5902939439 4291940308
-0.2804944515 -0.1642750204 0.5904342532 4292006101
-0.2809771597 -0.1639005691 0.5914502740 4292268244
-0.2810434699 -0.1632819474 0.5915898681 4292334037
-0.2811095715 -0.1626628935 0.5917289853 4292530646
-0.2811754346 -0.1620434076 0.5918676257 4292464853
-0.2812410891 -0.1614234746 0.5920058489 4292399830
-0.2813065052 -0.1608031243 0.5921435952 4292268244
-0.2813717127 -0.1601823270 0.5922808051 4292334037
-0.2814367115 -0.1595611125 0.5924175978 4292334037
-0.2815014720 -0.1589394510 0.5925539732 4292334037
-0.2819831371 -0.1585519165 0.5935678482 4292334037
-0.2820475399 -0.1579284817 0.5937034488 4292399830
-0.2821117342 -0.1573046297 0.5938385725 4292334037
-0.2821756899 -0.1566803455 0.5939731598 4292136915
-0.2822394371 -0.1560556442 0.5941073298 4292202708
-0.2823029459 -0.1554305106 0.5942410231 4292268501
-0.2823662162 -0.1548049599 0.5943742394 4292202708
-0.2824292779 -0.1541789919 0.5945069790 4292202708
-0.2824921012 -0.1535526067 0.5946392417 4292202708
-0.2825547159 -0.1529258043 0.5947709680 4292136915
-0.2830351591 -0.1525238752 0.5957823396 4292136915
-0.2830973864 -0.1518952996 0.5959133506 4292136658
-0.2831593752 -0.1512663215 0.5960438251 4292136658
-0.2832211554 -0.1506369412 0.5961738825 4292268244
-0.2828642726 -0.1497855484 0.5954226255 4292334037
-0.2829254866 -0.1491562724 0.5955514908 4292268244
-0.2834050953 -0.1487462968 0.5965610743 4292334037
-0.2834659517 -0.1481152624 0.5966891646 4292334294
-0.2835265696 -0.1474838406 0.5968167186 4292202708
-0.2831680477 -0.1466350853 0.5960620642 4292136915
-0.2832281291 -0.1460037678 0.5961884856 4292071122
-0.2832879424 -0.1453720629 0.5963144302 4292005329
-0.2833475173 -0.1447399557 0.5964398980 4292005329
-0.2834068835 -0.1441074461 0.5965648293 4291873743
-0.2834660113 -0.1434745491 0.5966892838 4291873743
-0.2835249007 -0.1428412497 0.5968132019 4291939536
-0.2835835516 -0.1422075629 0.5969366431 4292005329
-0.2836419642 -0.1415734738 0.5970596075 4291939279
-0.2841198146 -0.1411474943 0.5980654955 4292070865
-0.2841778398 -0.1405116916 0.5981876254 4292136656
-0.2842355967 -0.1398754865 0.5983092785 4292202449
-0.2842931449 -0.1392389089 0.5984303951 4292137167
-0.2843504548 -0.1386019439 0.5985510349 4292005581
-0.2844075263 -0.1379645914 0.5986711383 4291742925
-0.2844643593 -0.1373268664 0.5987907648 4291742925
-0.2849411964 -0.1368906498 0.5997945070 4291545030
-0.2849976420 -0.1362512112 0.5999132991 4291281858
-0.2850538194 -0.1356114000 0.6000315547 4291476665
-0.2846892476 -0.1347721219 0.5992641449 4291147700
-0.2847448587 -0.1341325045 0.5993812084 4291079330
-0.2852209210 -0.1336896867 0.6003832817 4290487193
-0.2852761149 -0.1330483705 0.6004995108 4290353289
-0.2853311002 -0.1324066669 0.6006152034 4289761152
-0.2853858173 -0.1317646056 0.6007304192 4290019434
-0.2854402959 -0.1311221868 0.6008450985 4289361504
-0.2850734293 -0.1302869469 0.6000728607 4289097814
-0.2851273417 -0.1296447217 0.6001863480 4289032021
-0.2851810157 -0.1290021539 0.6002992988 4289619785
-0.2852344215 -0.1283592135 0.6004117131 4289422406
-0.2852875888 -0.1277159154 0.6005236506 4289421379
-0.2853404880 -0.1270722598 0.6006350517 4288895035
-0.2853931785 -0.1264282316 0.6007459164 4288435764
-0.2854456007 -0.1257838607 0.6008562446 4288830522
-0.2854977548 -0.1251391470 0.6009660959 4289097049
-0.2855497003 -0.1244940609 0.6010753512 4292584078
-0.2860232294 -0.1240315661 0.6020721793 4293843935
-0.2860747278 -0.1233848333 0.6021805406 4294436072
-0.2857039571 -0.1225567237 0.6014001369 4293389554
-0.2857548892 -0.1219102517 0.6015073061 4293586933
-0.2858055532 -0.1212634370 0.6016139388 4293321967
-0.2858559787 -0.1206162721 0.6017200947 4293256174
-0.2859061360 -0.1199687719 0.6018257141 4293256428
-0.2863784432 -0.1194971725 0.6028198600 4293256428
-0.2868506312 -0.1190233305 0.6038138270 4293322221
-0.2869001925 -0.1183728948 0.6039181352 4293322221
-0.2869494855 -0.1177221239 0.6040219069 4293191146
-0.2869985402 -0.1170710176 0.6041251421 4293059560
-0.2870473266 -0.1164195761 0.6042278409 4293059559
-0.2870958745 -0.1157678068 0.6043300033 4293322731
-0.2767131925 -0.1883877665 0.5838397741 4293323510
-0.2763764858 -0.1875106245 0.5831292868 4293191923
-0.2764507532 -0.1869129390 0.5832859874 4293060337
-0.2769362926 -0.1865920126 0.5843104720 4292994544
-0.2770102620 -0.1859924644 0.5844665170 4292928751
-0.2770840228 -0.1853924394 0.5846221447 4292928492
-0.2771576047 -0.1847919375 0.5847774148 4292665320
-0.2772309780 -0.1841909587 0.5849322081 4292598244
-0.2773041427 -0.1835894883 0.5850865841 4292532451
-0.2777892649 -0.1832594573 0.5861101151 4292466912
-0.2778621316 -0.1826561540 0.5862638950 4292401119
-0.2779348195 -0.1820523739 0.5864172578 4292269533
-0.2780072987 -0.1814481169 0.5865701437 4292137947
-0.2780795395 -0.1808433980 0.5867226124 4292203229
-0.2781516016 -0.1802382022 0.5868746638 4292269022
-0.2778106928 -0.1793660223 0.5861552954 4292400608
-0.2778822184 -0.1787607819 0.5863062739 4292203229
-0.2779535651 -0.1781550795 0.5864567757 4292071643
-0.2780247033 -0.1775489151 0.5866069198 4292269022
-0.2780956328 -0.1769422889 0.5867565274 4292203227
-0.2781663537 -0.1763351858 0.5869057775 4291940055
-0.2782368660 -0.1757276356 0.5870545506 4292334811
-0.2783071697 -0.1751196086 0.5872029066 4292269018
-0.2783772647 -0.1745111346 0.5873507857 4292335066
-0.2780334353 -0.1736437976 0.5866252780 4292137687
-0.2781029940 -0.1730353087 0.5867720842 4292137687
-0.2781723738 -0.1724263579 0.5869184732 4292203480
-0.2778274715 -0.1715612710 0.5861907601 4292137687
-0.2778963149 -0.1709523201 0.5863360167 4292203480
-0.2779649496 -0.1703429222 0.5864808559 4292464590
-0.2776190341 -0.1694801152 0.5857509375 4292596176
-0.2776871324 -0.1688707173 0.5858946443 4292530642
-0.2777550220 -0.1682608873 0.5860378742 4292530642
-0.2778227031 -0.1676505953 0.5861806870 4292465621
-0.2783049345 -0.1672891676 0.5871981978 4292597207
-0.2783722878 -0.1666770875 0.5873402953 4292729054
-0.2784394324 -0.1660645455 0.5874819756 4292794847
-0.2789214253 -0.1656981558 0.5884988904 4292532445
-0.2789882421 -0.1650838256 0.5886398554 4292466652
-0.2794700861 -0.1647138000 0.5896565318 4292532445
-0.2795365751 -0.1640976667 0.5897967815 4292532445
-0.2796028256 -0.1634811014 0.5899366140 4292466652
-0.2796688676 -0.1628641039 0.5900759101 4292466652
-0.2801503539 -0.1624877453 0.5910918117 4292466652
-0.2802160382 -0.1618689448 0.5912304521 4292400859
-0.2802815139 -0.1612497121 0.5913685560 4292598234
-0.2803467810 -0.1606300622 0.5915062428 4292532441
-0.2804118097 -0.1600099653 0.5916435122 4292532441
-0.2800604999 -0.1591529548 0.5909022093 4292532441
-0.2801249921 -0.1585329175 0.5910383463 4292466648
-0.2806056142 -0.1581470966 0.5920523405 4292532441
-0.2806697488 -0.1575252861 0.5921877027 4292729306
-0.2807336748 -0.1569030583 0.5923225880 4292663513
-0.2807973623 -0.1562803984 0.5924569964 4292466134
-0.2812775671 -0.1558882594 0.5934700966 4292531927
-0.2809241116 -0.1550338119 0.5927243829 4292597720
-0.2809871137 -0.1544098854 0.5928573608 4292531927
-0.2810499370 -0.1537855417 0.5929898620 4292597720
-0.2811124921 -0.1531607807 0.5931218863 4292597720
-0.2811748385 -0.1525356025 0.5932533741 4292597718
-0.2816542387 -0.1521353871 0.5942648649 4292663511
-0.2817161977 -0.1515084505 0.5943956375 4292729306
-0.2813605070 -0.1506575793 0.5936451554 4292597720
-0.2814219296 -0.1500307471 0.5937747359 4292597720
-0.2814831436 -0.1494034976 0.5939038992 4292531927
-0.2815441191 -0.1487758458 0.5940325260 4292400341
-0.2820226848 -0.1483675987 0.5950422287 4292400341
-0.2820832729 -0.1477382034 0.5951700807 4292400341
-0.2821436524 -0.1471084058 0.5952974558 4292334548
-0.2822037637 -0.1464781910 0.5954243541 4292334548
-0.2822636664 -0.1458475888 0.5955507755 4292268755
-0.2823233604 -0.1452165842 0.5956766605 4292334548
-0.2823827863 -0.1445851773 0.5958020687 4292334548
-0.2824420035 -0.1439533681 0.5959269404 4292334548
-0.2825009525 -0.1433211714 0.5960513949 4292400341
-0.2825596929 -0.1426885724 0.5961753130 4292531927
-0.2826181948 -0.1420555860 0.5962987542 4292597720
-0.2826764584 -0.1414221972 0.5964216590 4292858839
-0.2827344835 -0.1407884210 0.5965440869 4292858839
-0.2832112014 -0.1403619051 0.5975499749 4292859096
-0.2832688391 -0.1397264153 0.5976715684 4292859096
-0.2829071283 -0.1388847679 0.5969083309 4292531673
-0.2829641998 -0.1382494569 0.5970287919 4292400087
-0.2830210328 -0.1376137435 0.5971487164 4292137945
-0.2830776274 -0.1369776577 0.5972681046 4292137945
-0.2835534513 -0.1365431696 0.5982720256 4292203480
-0.2836096287 -0.1359053850 0.5983905792 4291874515
-0.2836655974 -0.1352672130 0.5985086560 4292004298
-0.2837212980 -0.1346286535 0.5986261964 4291806919
-0.2837767899 -0.1339897364 0.5987432599 4291739326
-0.2838320136 -0.1333504319 0.5988597870 4291278775
-0.2838869989 -0.1327107698 0.5989758372 4291014317
-0.2839417458 -0.1320707202 0.5990912914 4290356387
-0.2839962542 -0.1314303130 0.5992063284 4290156945
-0.2840504944 -0.1307895333 0.5993207693 4289301636
-0.2841045260 -0.1301483959 0.5994347334 4288971897
-0.2837379277 -0.1293153018 0.5986613035 4288708725
-0.2842118144 -0.1288650036 0.5996611118 4289230697
-0.2842650712 -0.1282227784 0.5997735262 4289099111
-0.2843181193 -0.1275801808 0.5998854041 4289098340
-0.2843708992 -0.1269372255 0.5999968052 4288835168
-0.2844234407 -0.1262939125 0.6001076102 4288836447
-0.2844757140 -0.1256502420 0.6002179384 4289494377
-0.2845277488 -0.1250062287 0.6003277302 4290352521
-0.2845795453 -0.1243618503 0.6004370451 4293510585
-0.2850521505 -0.1239001378 0.6014341712 4293845995
-0.2846823931 -0.1230720431 0.6006540060 4293977581
-0.2847334146 -0.1224266216 0.6007617116 4293388524
-0.2847842276 -0.1217808574 0.6008688211 4293585903
-0.2848347425 -0.1211347431 0.6009755135 4293453807
-0.2848850489 -0.1204882860 0.6010816097 4293322221
-0.2849350870 -0.1198414862 0.6011871696 4293322221
-0.2849848866 -0.1191943437 0.6012921929 4293256428
-0.2854560614 -0.1187222302 0.6022863984 4293190635
-0.2855054140 -0.1180734634 0.6023905277 4293190635
-0.2855544984 -0.1174243540 0.6024941206 4293059560
-0.2856033444 -0.1167749092 0.6025971770 4292927974
-0.2860738933 -0.1162966639 0.6035899520 4293125352
-0.2861222923 -0.1156456023 0.6036920547 4293454317
-0.2757959068 -0.1843159646 0.5832711458 4293323761
-0.2758689821 -0.1837165654 0.5834257007 4293322478
-0.2763530612 -0.1833895892 0.5844495296 4293190892
-0.2764258385 -0.1827883571 0.5846034288 4293125353
-0.2764984369 -0.1821866333 0.5847569108 4293059560
-0.2765707970 -0.1815844476 0.5849099755 4292731109
-0.2766429782 -0.1809817851 0.5850626230 4292599523
-0.2767149508 -0.1803786606 0.5852147937 4293124331
-0.2767867148 -0.1797750592 0.5853666067 4292992745
-0.2768582702 -0.1791709810 0.5855179429 4292926952
-0.2769296467 -0.1785664409 0.5856688619 4292729573
-0.2765885890 -0.1776966155 0.5849475861 4292597985
-0.2766594291 -0.1770920455 0.5850974321 4292400606
-0.2767300606 -0.1764869988 0.5852468014 4292071641
-0.2768004835 -0.1758815050 0.5853957534 4292269020
-0.2764580846 -0.1750143319 0.5846716166 4292466910
-0.2765280008 -0.1744088084 0.5848194957 4292203738
-0.2765977085 -0.1738028377 0.5849668980 4292532445
-0.2766672075 -0.1731964052 0.5851138830 4292335066
-0.2767364979 -0.1725895107 0.5852604508 4292335064
-0.2768055797 -0.1719821692 0.5854065418 4292203478
-0.2768744528 -0.1713743806 0.5855521560 4292072405
-0.2769431174 -0.1707661152 0.5856974125 4292138198
-0.2765981257 -0.1699034572 0.5849677920 4292137432
-0.2770798206 -0.1695482582 0.5859864950 4292203225
-0.2767342031 -0.1686865091 0.5852555633 4292203225
-0.2768019140 -0.1680773646 0.5853987336 4292269018
-0.2768694162 -0.1674677879 0.5855414867 4292335326
-0.2769367099 -0.1668577492 0.5856838226 4292466912
-0.2774178386 -0.1664957702 0.5867013931 4292663778
-0.2774848044 -0.1658839434 0.5868430138 4292597985
-0.2779658139 -0.1655183285 0.5878602862 4292663262
-0.2780324519 -0.1649046987 0.5880011916 4292663262
-0.2785133421 -0.1645354778 0.5890181661 4292794588
-0.2785796225 -0.1639200449 0.5891584158 4292794588
-0.2786457241 -0.1633041799 0.5892981291 4292663002
-0.2787115872 -0.1626878679 0.5894374251 4292728795
-0.2787772417 -0.1620711386 0.5895763040 4292663261
-0.2784277201 -0.1612136960 0.5888370872 4292663261
-0.2784928381 -0.1605970114 0.5889748335 4292663259
-0.2789728642 -0.1602182984 0.5899900198 4292729052
-0.2790376544 -0.1595998257 0.5901269913 4292663259
-0.2791022062 -0.1589809209 0.5902635455 4292597466
-0.2791665196 -0.1583615988 0.5903995633 4292531673
-0.2792306244 -0.1577418298 0.5905351639 4292597466
-0.2792945206 -0.1571216434 0.5906702876 4292663259
-0.2797738910 -0.1567339152 0.5916841030 4292663259
-0.2794216275 -0.1558800042 0.5909390450 4292860379
-0.2799007297 -0.1554895788 0.5919523239 4292794586
-0.2795478404 -0.1546366662 0.5912059546 4292663000
-0.2796106040 -0.1540143639 0.5913387537 4292531414
-0.2796731293 -0.1533916444 0.5914710164 4292597207
