VERSION 0.7
FIELDS x y z rgba
SIZE 4 4 4 4
TYPE F F F U
COUNT 1 1 1 1
WIDTH 920
HEIGHT 1
VIEWPOINT 0.0 0.0 0.0 1.0 0.0 0.0 0.0
POINTS 920
DATA ascii
-0.3026162982 -0.1225317791 0.6112759709 4288501037
-0.3022318482 -0.1216978058 0.6104994416 4288238120
-0.3022838235 -0.1210402995 0.6106044054 4288106534
-0.3023355305 -0.1203824654 0.6107088327 4288106534
-0.3023869693 -0.1197242886 0.6108127236 4288040741
-0.3028751910 -0.1192378402 0.6117989421 4287843877
-0.3033632934 -0.1187491566 0.6127849221 4287778084
-0.3042884767 -0.1184283867 0.6146537662 4287449382
-0.3047764301 -0.1179342717 0.6156393886 4287252003
-0.3057015836 -0.1176061705 0.6175081730 4286922785
-0.3066267371 -0.1172739193 0.6193770170 4287054371
-0.3075519502 -0.1169375256 0.6212458611 4287383084
-0.3084771633 -0.1165969819 0.6231147647 4287777842
-0.3094023764 -0.1162522882 0.6249836683 4288435260
-0.3103275895 -0.1159034520 0.6268525720 4288632639
-0.3112528324 -0.1155504584 0.6287215352 4289749328
-0.3117402196 -0.1150317490 0.6297060847 4291130981
-0.3117895722 -0.1143502071 0.6298057437 4291677904
-0.3093945384 -0.1373890936 0.6263731122 4294105565
-0.3094527423 -0.1367188841 0.6264909506 4292526533
-0.3095107079 -0.1360482723 0.6266083121 4290747028
-0.3100031912 -0.1355674416 0.6276053786 4288312687
-0.3100607097 -0.1348951459 0.6277217865 4287846470
-0.3092480600 -0.1338459849 0.6260765791 4287846470
-0.3088698685 -0.1329875290 0.6253108978 4289420349
-0.3089263439 -0.1323169470 0.6254252195 4289551935
-0.3081121743 -0.1312751770 0.6237769723 4290208824
-0.3068621755 -0.1300523430 0.6212463379 4290274617
-0.3060467839 -0.1290183514 0.6195955276 4289881393
-0.3056662381 -0.1281703711 0.6188251376 4289618221
-0.3048497438 -0.1271422803 0.6171721816 4289749037
-0.3040327132 -0.1261176467 0.6155180335 4289749037
-0.3032150865 -0.1250964403 0.6138627529 4289615911
-0.3023968935 -0.1240786761 0.6122063398 4289155360
-0.3020139635 -0.1232421994 0.6114310622 4288829481
-0.3011947274 -0.1222303882 0.6097725034 4288632102
-0.3012468219 -0.1215739176 0.6098779440 4288368678
-0.3012986779 -0.1209171042 0.6099829078 4288171299
-0.3013502359 -0.1202599555 0.6100873351 4288039973
-0.3014015555 -0.1196024716 0.6101912260 4287974180
-0.3018888831 -0.1191167831 0.6111778021 4287908900
-0.3028123975 -0.1188000366 0.6130474806 4287908900
-0.3032995462 -0.1183089167 0.6140336990 4287712291
-0.3042230308 -0.1179848388 0.6159033179 4287712291
-0.3051465452 -0.1176566109 0.6177729964 4287449382
-0.3060700893 -0.1173242331 0.6196427345 4287252003
-0.3069936633 -0.1169877127 0.6215124726 4286857511
-0.3079172075 -0.1166470423 0.6233822703 4286989097
-0.3088408113 -0.1163022146 0.6252520680 4288371272
-0.3093274832 -0.1157896966 0.6262373924 4289950304
-0.3102510273 -0.1154375300 0.6281070709 4290343783
-0.3107374907 -0.1149195731 0.6290919781 4291659643
-0.3107867241 -0.1142387018 0.6291916370 4292336088
-0.3065447807 -0.1378125995 0.6220023632 4292859347
-0.3070367277 -0.1373415738 0.6230005622 4291148729
-0.3075285852 -0.1368682683 0.6239985824 4290088325
-0.3075865209 -0.1362006068 0.6241161227 4288246121
-0.3072102666 -0.1353414208 0.6233526468 4288041792
-0.3077015877 -0.1348641664 0.6243495941 4287844413
-0.3081927896 -0.1343846619 0.6253463030 4289221167
-0.3073814213 -0.1333379000 0.6236999631 4289615925
-0.3061352670 -0.1321071535 0.6211714149 4289879600
-0.3057569563 -0.1312545985 0.6204038262 4289813807
-0.3049438596 -0.1302180737 0.6187539697 4289749553
-0.3036957085 -0.1290004253 0.6162213683 4290012725
-0.3028813899 -0.1279716939 0.6145690680 4290012211
-0.3020664752 -0.1269463897 0.6129155159 4289749039
-0.3016856909 -0.1261062324 0.6121429205 4289682985
-0.3017393053 -0.1254483759 0.6122516394 4289419813
-0.3009229004 -0.1244305447 0.6105951667 4289025312
-0.3005408943 -0.1235950291 0.6098200083 4288959519
-0.3001584411 -0.1227610633 0.6090440154 4288762659
-0.3002106845 -0.1221056208 0.6091500521 4288631073
-0.3002626896 -0.1214498356 0.6092554927 4288368932
-0.3003143966 -0.1207937151 0.6093604565 4288303139
-0.3003658354 -0.1201372519 0.6094648242 4288303145
-0.3008524179 -0.1196536124 0.6104521751 4288303145
-0.3013388813 -0.1191677302 0.6114392281 4288172072
-0.3022607863 -0.1188508645 0.6133098006 4288172072
-0.3027470708 -0.1183595583 0.6142965555 4287909670
-0.3036689460 -0.1180353537 0.6161670685 4287843877
-0.3041550517 -0.1175386086 0.6171534657 4287384104
-0.3050768971 -0.1172070652 0.6190239191 4287055139
-0.3059987426 -0.1168713719 0.6208943725 4286661679
-0.3073565662 -0.1166970506 0.6236495376 4287188023
-0.3078424633 -0.1161875278 0.6246354580 4288570969
-0.3087643385 -0.1158393696 0.6265060306 4290281587
-0.3092500567 -0.1153244078 0.6274915934 4290216057
-0.3092993796 -0.1146455035 0.6275916696 4291926675
-0.3097847402 -0.1141270176 0.6285765171 4293189342
-0.3037031293 -0.1382159293 0.6176283360 4293447624
-0.3037614524 -0.1375561208 0.6177469492 4291473834
-0.3038195074 -0.1368959248 0.6178650260 4290021236
-0.3043102026 -0.1364294142 0.6188629270 4287850067
-0.3048007786 -0.1359606385 0.6198605895 4287518007
-0.3044252098 -0.1351052523 0.6190968156 4287978558
-0.3044823408 -0.1344426125 0.6192129850 4289421369
-0.3045391738 -0.1337796003 0.6193286180 4289552955
-0.3041625023 -0.1329268515 0.6185625196 4289944878
-0.3037853837 -0.1320756376 0.6177956462 4289813292
-0.3034078777 -0.1312259436 0.6170278788 4289485865
-0.3025964200 -0.1301912516 0.6153776646 4289288486
-0.3017843664 -0.1291599721 0.6137262583 4289552174
-0.3014054298 -0.1283167601 0.6129556298 4289946932
-0.3001585603 -0.1271077096 0.6104199290 4290012209
-0.3002124727 -0.1264521927 0.6105295420 4289485865
-0.2998321950 -0.1256145388 0.6097562313 4289222945
-0.2994515300 -0.1247784346 0.6089820266 4289222945
-0.2999385595 -0.1243036538 0.6099724770 4288698651
-0.2995572090 -0.1234687492 0.6091969609 4288435479
-0.2991754413 -0.1226354018 0.6084206104 4288631073
-0.2992275655 -0.1219806448 0.6085265875 4288762659
-0.2997137904 -0.1215016395 0.6095153689 4288631334
-0.2997654378 -0.1208452582 0.6096204519 4288565541
-0.2998168468 -0.1201885268 0.6097249985 4288303913
-0.3003025949 -0.1197047010 0.6107128263 4288303913
-0.3007882237 -0.1192186326 0.6117004156 4288107048
-0.3017084599 -0.1189016476 0.6135718226 4288107048
-0.3021939099 -0.1184101477 0.6145591140 4287646759
-0.3026792407 -0.1179164052 0.6155461073 4287580966
-0.3035994172 -0.1175888851 0.6174173951 4287318831
-0.3040845692 -0.1170897037 0.6184040308 4287384624
-0.3054398000 -0.1169213876 0.6211601496 4287255107
-0.3063600063 -0.1165814176 0.6230315566 4288044623
-0.3068450093 -0.1160726398 0.6240178347 4288836459
-0.3077651858 -0.1157253161 0.6258891821 4290152319
-0.3082499802 -0.1152110994 0.6268750429 4290548625
-0.3082991838 -0.1145328805 0.6269751191 4292588208
-0.3087836504 -0.1140151471 0.6279603839 4294042084
-0.3008109629 -0.1392533183 0.6131315231 4293321961
-0.3008695543 -0.1385990828 0.6132510304 4292725707
-0.3009279370 -0.1379444748 0.6133699417 4290422952
-0.3009860218 -0.1372894794 0.6134883761 4289230696
-0.3010438681 -0.1366340965 0.6136063337 4287651664
-0.3006694913 -0.1357832551 0.6128431559 4288631603
-0.3007267416 -0.1351280808 0.6129599214 4288697396
-0.3012159169 -0.1346657276 0.6139569283 4289617716
-0.3012727201 -0.1340088546 0.6140727401 4289683509
-0.3008969724 -0.1331602931 0.6133068800 4289749807
-0.3009532094 -0.1325036287 0.6134214997 4289618221
-0.3005767167 -0.1316571534 0.6126540899 4289683242
-0.3001997769 -0.1308121979 0.6118858457 4289617449
-0.3002550900 -0.1301563233 0.6119985580 4289813292
-0.2994446754 -0.1291268915 0.6103467345 4289681706
-0.2990665138 -0.1282865256 0.6095759273 4290141489
-0.2986879349 -0.1274477094 0.6088042259 4290009903
-0.2983089089 -0.1266104281 0.6080317497 4290010408
-0.2983625233 -0.1259574890 0.6081410050 4290010408
-0.2984158993 -0.1253042072 0.6082497835 4289616928
-0.2980358005 -0.1244696602 0.6074750423 4289353756
-0.2980885804 -0.1238166317 0.6075826287 4289091097
-0.2985744178 -0.1233422756 0.6085729003 4289091097
-0.2986267507 -0.1226876006 0.6086795926 4288959786
-0.2986788154 -0.1220325902 0.6087856889 4289091372
-0.2991642058 -0.1215533987 0.6097750068 4288763436
-0.2996494472 -0.1210719571 0.6107640862 4288434471
-0.2997008860 -0.1204140186 0.6108689308 4288040739
-0.2997520566 -0.1197557449 0.6109732389 4287843360
-0.3006706834 -0.1194418371 0.6128456593 4287581217
-0.3011554182 -0.1189523861 0.6138336658 4287581217
-0.3016400337 -0.1184606850 0.6148214340 4287910447
-0.3021245003 -0.1179667488 0.6158089042 4288107826
-0.3026088774 -0.1174705699 0.6167961955 4288372038
-0.3039615750 -0.1173073128 0.6195533276 4288701003
-0.3044458330 -0.1168047339 0.6205403805 4288178009
-0.3053643405 -0.1164655834 0.6224125624 4288572767
-0.3058484197 -0.1159575731 0.6233991981 4289167481
-0.3063323498 -0.1154473126 0.6243855953 4290680720
-0.3068161607 -0.1149348095 0.6253717542 4291669424
-0.3072998524 -0.1144200712 0.6263576150 4293643214
-0.3077833951 -0.1139030904 0.6273431778 4294961644
-0.2979855239 -0.1396110654 0.6087506413 4293518822
-0.2980441451 -0.1389620453 0.6088704467 4292526525
-0.2981025279 -0.1383126378 0.6089897156 4290355356
-0.2981606722 -0.1376628429 0.6091085076 4289361253
-0.2982185483 -0.1370126754 0.6092267632 4287848014
-0.2978451550 -0.1361650676 0.6084639430 4288434735
-0.2974713147 -0.1353189796 0.6077002287 4288895286
-0.2975282967 -0.1346695572 0.6078165770 4289945646
-0.2975850105 -0.1340197772 0.6079324484 4289879853
-0.2972100973 -0.1331763268 0.6071665883 4290274611
-0.2972662151 -0.1325267404 0.6072812080 4290143025
-0.2973220646 -0.1318767816 0.6073953509 4290143025
-0.2973777056 -0.1312264651 0.6075089574 4290208818
-0.2970013618 -0.1303862631 0.6067401767 4290405427
-0.2970563769 -0.1297361702 0.6068525314 4290339634
-0.2971111536 -0.1290857047 0.6069644690 4290273580
-0.2967337370 -0.1282481998 0.6061934233 4290141994
-0.2967879176 -0.1275979728 0.6063041091 4289879334
-0.2968418598 -0.1269473881 0.6064142585 4289879334
-0.2964633405 -0.1261126101 0.6056410670 4289749035
-0.2969489098 -0.1256451607 0.6066330075 4289749035
-0.2970020771 -0.1249935180 0.6067416072 4289421099
-0.2970549762 -0.1243415251 0.6068496704 4289355306
-0.2971076071 -0.1236891821 0.6069571972 4289157929
-0.2975925505 -0.1232155934 0.6079478860 4288960550
-0.2980773449 -0.1227397546 0.6089382768 4288959008
-0.2981293797 -0.1220844761 0.6090445518 4288761629
-0.2986139059 -0.1216050982 0.6100344062 4288565279
-0.2990983129 -0.1211234778 0.6110239625 4288302107
-0.2991496921 -0.1204652712 0.6111289263 4287711263
-0.2992008030 -0.1198067367 0.6112333536 4287579677
-0.2996847332 -0.1193202883 0.6122219563 4287449899
-0.3001685441 -0.1188315973 0.6132103205 4288042036
-0.3006522357 -0.1183406562 0.6141984463 4287977539
-0.3011357784 -0.1178474799 0.6151863337 4288701262
-0.3020525873 -0.1175206676 0.6170592308 4288440410
-0.3029694259 -0.1171897054 0.6189322472 4288769375
-0.3034527600 -0.1166878864 0.6199196577 4288115048
-0.3043695390 -0.1163495705 0.6217925549 4287983462
-0.3048526943 -0.1158423126 0.6227795482 4289302151
-0.3053357303 -0.1153328046 0.6237663031 4291868078
-0.3058186173 -0.1148210615 0.6247528195 4292922835
-0.3058675230 -0.1141451672 0.6248527169 4294107109
-0.2973203957 -0.1504384875 0.6087732315 4293122529
-0.2969546020 -0.1495778412 0.6080241799 4292791249
-0.2965883613 -0.1487186402 0.6072743535 4291738561
-0.2962217033 -0.1478608996 0.6065235734 4290819254
-0.2962833941 -0.1472176611 0.6066499352 4291345598
-0.2959159911 -0.1463619024 0.6058976054 4292529872
-0.2955481410 -0.1455076188 0.6051444411 4293582560
-0.2951682806 -0.1399486363 0.6043666601 4293450976
-0.2952269316 -0.1393048167 0.6044867635 4292262582
-0.2952853441 -0.1386606097 0.6046063304 4290091413
-0.2953434885 -0.1380160153 0.6047254205 4288573536
-0.2949714065 -0.1371711046 0.6039635539 4287586641
-0.2950289845 -0.1365266889 0.6040814519 4288107575
-0.2950862944 -0.1358819157 0.6041988134 4288370747
-0.2947131395 -0.1350396127 0.6034347415 4289814066
-0.2939092219 -0.1340026408 0.6017886996 4290274617
-0.2939655483 -0.1333595514 0.6019040346 4290667567
-0.2935911417 -0.1325217932 0.6011374593 4290338602
-0.2936469018 -0.1318789274 0.6012515426 4290011439
-0.2932717502 -0.1310432553 0.6004834175 4290011439
-0.2933269143 -0.1304005980 0.6005963683 4290143025
-0.2933818102 -0.1297575831 0.6007088423 4290274611
-0.2938673794 -0.1293037981 0.6017029881 4290405425
-0.2939218581 -0.1286591142 0.6018145680 4290339632
-0.2944071293 -0.1282017827 0.6028082371 4290273579
-0.2940300703 -0.1273686737 0.6020361781 4290141993
-0.2940838039 -0.1267229319 0.6021461487 4290076200
-0.2945685685 -0.1262616813 0.6031387448 4289944614
-0.2950532436 -0.1257981956 0.6041311026 4289748776
-0.2951063514 -0.1251494884 0.6042398810 4289748776
-0.2955907583 -0.1246824563 0.6052317023 4289683244
-0.2956434488 -0.1240321100 0.6053395867 4289617451
-0.2961275578 -0.1235615313 0.6063308120 4289223463
-0.2966115475 -0.1230887026 0.6073217988 4288894498
-0.2970954478 -0.1226136312 0.6083126068 4288761631
-0.2975792289 -0.1221363172 0.6093031764 4288564252
-0.2980628908 -0.1216567531 0.6102935076 4288236574
-0.2985464633 -0.1211749390 0.6112836003 4288104988
-0.2985977829 -0.1205164790 0.6113886833 4287908900
-0.2986488640 -0.1198576763 0.6114932299 4288369451
-0.2991319299 -0.1193710342 0.6124823689 4288569152
-0.2996148765 -0.1188821569 0.6134712100 4289095496
-0.2996653020 -0.1182204336 0.6135744452 4288833878
-0.3001479506 -0.1177280173 0.6145626903 4289031257
-0.3014956117 -0.1175707206 0.6173220873 4288704612
-0.3019781411 -0.1170719117 0.6183100939 4288967784
-0.3024605811 -0.1165708527 0.6192978621 4288181869
-0.3029428720 -0.1160675511 0.6202853918 4288510834
-0.3038578629 -0.1157268584 0.6221588850 4290553247
-0.3043399751 -0.1152181104 0.6231459975 4293316553
-0.3043889701 -0.1145441905 0.6232463121 4293318620
-0.3048707545 -0.1140319183 0.6242327690 4294239722
-0.2961513400 -0.1522143036 0.6077616215 4292992476
-0.2957871556 -0.1513527036 0.6070142388 4291347651
-0.2954225540 -0.1504925340 0.6062660217 4291142564
-0.2950575352 -0.1496338099 0.6055169702 4289629325
-0.2946920991 -0.1487765461 0.6047669649 4289030764
-0.2938984334 -0.1477057338 0.6031382084 4288438627
-0.2935320735 -0.1468522996 0.6023863554 4288240988
-0.2935932577 -0.1462134868 0.6025119424 4288504160
-0.2932261229 -0.1453620493 0.6017585397 4289161831
-0.2928585708 -0.1445120871 0.6010042429 4290082933
-0.2924906313 -0.1436636001 0.6002491117 4290941065
-0.2925505638 -0.1430259943 0.6003721356 4292256925
-0.2921818793 -0.1421795189 0.5996155143 4292066752
-0.2922412455 -0.1415420622 0.5997373462 4293185233
-0.2923004031 -0.1409042180 0.5998587012 4294170328
-0.2923592925 -0.1402659863 0.5999795794 4293380812
-0.2924179435 -0.1396273822 0.6000999212 4292455850
-0.2924763560 -0.1389883757 0.6002197862 4290284681
-0.2925345004 -0.1383489966 0.6003391743 4289096539
-0.2925924063 -0.1377092302 0.6004580259 4288241230
-0.2922209799 -0.1368681192 0.5996957421 4289027132
-0.2918491364 -0.1360284984 0.5989326835 4288961339
-0.2914768755 -0.1351903826 0.5981686711 4289617716
-0.2911041975 -0.1343537718 0.5974038839 4289946681
-0.2907311022 -0.1335186660 0.5966382623 4290339634
-0.2899280787 -0.1324888021 0.5949902534 4290208048
-0.2895540893 -0.1316576749 0.5942227840 4290403883
-0.2896093726 -0.1310224533 0.5943362117 4290535469
-0.2892346382 -0.1301934272 0.5935671926 4290143025
-0.2901490331 -0.1299434453 0.5954437256 4290077232
-0.2902036607 -0.1293062121 0.5955558419 4290208816
-0.2906880379 -0.1288592219 0.5965498686 4290208816
-0.2911723554 -0.1284099966 0.5975437760 4290274093
-0.2912263870 -0.1277697831 0.5976546407 4290274093
-0.2917104065 -0.1273170114 0.5986480117 4290207786
-0.2921943665 -0.1268619746 0.5996411443 4290010407
-0.2922478020 -0.1262188107 0.5997508168 4290010407
-0.2927314937 -0.1257602423 0.6007434130 4289944614
-0.2932150662 -0.1252994239 0.6017358303 4289748263
-0.2936985493 -0.1248363554 0.6027280092 4289879849
-0.2941819131 -0.1243710369 0.6037200093 4289682985
-0.2946652174 -0.1239034757 0.6047117710 4289419813
-0.2951483727 -0.1234336644 0.6057033539 4288959521
-0.2956314385 -0.1229616106 0.6066946983 4288564763
-0.2961144149 -0.1224873066 0.6076858640 4288235034
-0.2965972722 -0.1220107600 0.6086767912 4288498206
-0.2970800102 -0.1215319633 0.6096674800 4288894508
-0.2975626588 -0.1210509166 0.6106579304 4289420852
-0.2976138592 -0.1203931496 0.6107630134 4289291584
-0.2976647913 -0.1197350323 0.6108675599 4289752135
-0.2981469631 -0.1192491651 0.6118570566 4289556821
-0.2986289859 -0.1187610403 0.6128462553 4289425235
-0.2991108894 -0.1182706803 0.6138352752 4288900702
-0.2991610169 -0.1176083609 0.6139380932 4289032288
-0.3000743687 -0.1172832176 0.6158124804 4288640107
-0.3005559146 -0.1167861223 0.6168007255 4288969072
-0.3010373414 -0.1162867844 0.6177887321 4288248952
-0.3015186489 -0.1157851964 0.6187764406 4289367433
-0.3024318814 -0.1154462993 0.6206505299 4292001723
-0.3024808764 -0.1147753000 0.6207511425 4294238685
-0.3029617965 -0.1142669916 0.6217380762 4293911786
-0.2953440547 -0.1548460424 0.6074895859 4293977821
-0.2954082191 -0.1542045623 0.6076215506 4292596168
-0.2950457633 -0.1533410847 0.6068760157 4291868074
-0.2946828902 -0.1524790376 0.6061296463 4290223249
-0.2943195999 -0.1516184211 0.6053823829 4289562484
-0.2939558625 -0.1507592648 0.6046342850 4287851866
-0.2931649983 -0.1496836692 0.6030075550 4288896844
-0.2928003669 -0.1488283426 0.6022574902 4289094223
-0.2920083702 -0.1477584392 0.6006284356 4289813322
-0.2912158072 -0.1466918588 0.5989981890 4289681736
-0.2908497155 -0.1458427608 0.5982452035 4289747783
-0.2909103930 -0.1452083588 0.5983700156 4289681990
-0.2905435562 -0.1443612576 0.5976154804 4289615426
-0.2901763022 -0.1435156316 0.5968601108 4289352254
-0.2898086309 -0.1426714808 0.5961038470 4289026110
-0.2898680866 -0.1420382857 0.5962261558 4289486661
-0.2894996703 -0.1411961615 0.5954683423 4288898390
-0.2895585597 -0.1405631453 0.5955895185 4289424734
-0.2896172106 -0.1399297267 0.5957100987 4290082405
-0.2896756232 -0.1392959356 0.5958302617 4289556061
-0.2897337675 -0.1386617571 0.5959498882 4288961606
-0.2897917032 -0.1380272061 0.5960690379 4288435262
-0.2898493707 -0.1373922676 0.5961876512 4289221175
-0.2903350294 -0.1369589567 0.5971865654 4289813312
-0.2899639904 -0.1361212581 0.5964233875 4290470719
-0.2891641557 -0.1350849420 0.5947782397 4290404926
-0.2887922227 -0.1342512071 0.5940132141 4290077238
-0.2879913151 -0.1332207173 0.5923658013 4290011445
-0.2871898115 -0.1321936399 0.5907172561 4290011699
-0.2868164778 -0.1313663125 0.5899493098 4290077492
-0.2864427269 -0.1305405051 0.5891805887 4290339381
-0.2864974737 -0.1299107075 0.5892931223 4290339381
-0.2865519524 -0.1292805374 0.5894052386 4290143282
-0.2870352566 -0.1288426071 0.5903993249 4290143282
-0.2875184715 -0.1284024268 0.5913932323 4290143023
-0.2880015969 -0.1279600114 0.5923869610 4290077230
-0.2884846330 -0.1275153309 0.5933805108 4290208299
-0.2889675796 -0.1270684153 0.5943739414 4290208299
-0.2894504666 -0.1266192496 0.5953671336 4290273579
-0.2899332345 -0.1261678338 0.5963601470 4290076200
-0.2904159129 -0.1257141829 0.5973529220 4290010407
-0.2913281918 -0.1254432946 0.5992293954 4289944614
-0.2918107510 -0.1249841973 0.6002219915 4289682472
-0.2927230597 -0.1247059777 0.6020985246 4289616679
-0.2932055295 -0.1242414340 0.6030908823 4289353766
-0.2936878800 -0.1237746403 0.6040830016 4289090594
-0.2941701114 -0.1233056039 0.6050749421 4288762142
-0.2946522534 -0.1228343174 0.6060666442 4288696349
-0.2951343060 -0.1223607808 0.6070581675 4289156140
-0.2956162393 -0.1218850017 0.6080493927 4289419312
-0.2960980535 -0.1214069724 0.6090404391 4289618494
-0.2965797484 -0.1209266931 0.6100313067 4290013252
-0.2966308296 -0.1202696189 0.6101363301 4289752911
-0.2971122563 -0.1197858006 0.6111265421 4290016083
-0.2975935340 -0.1192997396 0.6121165156 4289492061
-0.2980747223 -0.1188114285 0.6131062508 4289294682
-0.2981249690 -0.1181501374 0.6132096052 4288770403
-0.2986058593 -0.1176582947 0.6141987443 4289362540
-0.2990866005 -0.1171642020 0.6151875854 4289233789
-0.2991361916 -0.1165000051 0.6152895689 4289431168
-0.2996166348 -0.1160023808 0.6162778139 4289368207
-0.3000969291 -0.1155025214 0.6172657609 4291013032
-0.3010083735 -0.1151654050 0.6191404462 4293055186
-0.3010571897 -0.1144960597 0.6192408204 4294436839
-0.2938122451 -0.1557416469 0.6057226062 4293648606
-0.2943019271 -0.1553270817 0.6067321301 4291740609
-0.2939407825 -0.1544631869 0.6059876084 4291337613
-0.2935791910 -0.1536007077 0.6052421331 4289692788
-0.2932172120 -0.1527396739 0.6044958830 4289358417
-0.2928547859 -0.1518800855 0.6037487388 4288700487
-0.2924919426 -0.1510219276 0.6030007005 4289224249
-0.2917028368 -0.1499463320 0.6013739109 4289092663
-0.2909131348 -0.1488740295 0.5997458100 4290009907
-0.2901228368 -0.1478050500 0.5981165767 4289944114
-0.2893319428 -0.1467393786 0.5964860320 4290008885
-0.2885404527 -0.1456770301 0.5948542953 4289811506
-0.2881746590 -0.1448322535 0.5941001773 4289419059
-0.2878084183 -0.1439889520 0.5933451653 4289419059
-0.2878682613 -0.1433595121 0.5934685469 4289746996
-0.2875013351 -0.1425182223 0.5927120447 4289944375
-0.2871339619 -0.1416784078 0.5919546485 4289682995
-0.2871929109 -0.1410496533 0.5920761824 4289748788
-0.2868247926 -0.1402118653 0.5913172960 4289615927
-0.2868832052 -0.1395832896 0.5914376974 4289418548
-0.2869413495 -0.1389543116 0.5915575624 4289484852
-0.2869992554 -0.1383249611 0.5916769505 4289287473
-0.2874840796 -0.1379001439 0.5926765203 4289154604
-0.2875415981 -0.1372690946 0.5927950740 4289351983
-0.2880262136 -0.1368406862 0.5937941670 4290272058
-0.2880833447 -0.1362079531 0.5939119458 4291061574
-0.2877127230 -0.1353736818 0.5931478143 4291259723
-0.2869140804 -0.1343407184 0.5915013552 4291128137
-0.2861148715 -0.1333111376 0.5898537040 4290340673
-0.2857428491 -0.1324832737 0.5890867710 4289880122
-0.2849425673 -0.1314595491 0.5874369144 4289814581
-0.2841417193 -0.1304392219 0.5857858658 4290011960
-0.2841963172 -0.1298132986 0.5858983994 4290142774
-0.2846787572 -0.1293815970 0.5868930221 4289945395
-0.2847329378 -0.1287540197 0.5870047212 4290077489
-0.2847868800 -0.1281260848 0.5871159434 4290077489
-0.2852689326 -0.1276895106 0.5881097317 4290011435
-0.2857508659 -0.1272507012 0.5891032815 4290011435
-0.2862327397 -0.1268096566 0.5900967121 4290274092
-0.2867145240 -0.1263663471 0.5910899639 4290274092
-0.2876248658 -0.1261087507 0.5929667354 4290207786
-0.2885352671 -0.1258469969 0.5948436260 4290076200
-0.2890169322 -0.1253950745 0.5958366394 4290010408
-0.2894985080 -0.1249408871 0.5968294144 4289813029
-0.2908379138 -0.1248527616 0.5995907784 4289484325
-0.2917485237 -0.1245753840 0.6014680266 4289286946
-0.2922300398 -0.1241116151 0.6024607420 4289090596
-0.2931406498 -0.1238268986 0.6043380499 4289287975
-0.2931927741 -0.1231773272 0.6044455171 4289551660
-0.2936739624 -0.1227068156 0.6054375768 4289814832
-0.2945845127 -0.1224124953 0.6073147058 4290340422
-0.2950655818 -0.1219365299 0.6083064675 4290537801
-0.2951169908 -0.1212817803 0.6084124446 4290342992
-0.2955977619 -0.1208022684 0.6094036102 4290540371
-0.2960784435 -0.1203205138 0.6103945971 4290083165
-0.2961291969 -0.1196628362 0.6104992032 4290148958
-0.2961796820 -0.1190048233 0.6106033325 4289756520
-0.2970898151 -0.1186899990 0.6124796271 4290085485
-0.2975699604 -0.1182002127 0.6134694815 4289495670
-0.2980499864 -0.1177081764 0.6144590974 4290219393
-0.2980997264 -0.1170449927 0.6145616770 4290090127
-0.2981491983 -0.1163814887 0.6146636605 4290484885
-0.2986287177 -0.1158846319 0.6156522036 4290948270
-0.2991080880 -0.1153855249 0.6166405082 4292593095
-0.2995873690 -0.1148841828 0.6176285744 4293910755
-0.2919233143 -0.1557657123 0.6032096148 4293319898
-0.2924119830 -0.1553551257 0.6042193174 4291144345
-0.2924761176 -0.1547177136 0.6043518186 4288249453
-0.2921154201 -0.1538562626 0.6036065221 4287981389
-0.2917542756 -0.1529962420 0.6028603315 4288112975
-0.2913927436 -0.1521376669 0.6021132469 4289883723
-0.2906059325 -0.1510596722 0.6004874706 4290212688
-0.2902434468 -0.1502048969 0.5997384787 4290801472
-0.2894555330 -0.1491325945 0.5981103182 4291064644
-0.2886669934 -0.1480636001 0.5964809656 4290996024
-0.2874526381 -0.1467807740 0.5939717293 4289482785
-0.2866628170 -0.1457193494 0.5923396945 4288825633
-0.2862978280 -0.1448765099 0.5915854573 4289023012
-0.2855069041 -0.1438208073 0.5899511576 4288959020
-0.2851409912 -0.1429818422 0.5891950727 4288959020
-0.2852003276 -0.1423568130 0.5893176794 4289286184
-0.2848336697 -0.1415198743 0.5885600448 4289483563
-0.2848924398 -0.1408950090 0.5886815190 4289418534
-0.2845250368 -0.1400600821 0.5879223347 4289352741
-0.2845832705 -0.1394353807 0.5880426168 4289483563
-0.2846412361 -0.1388103068 0.5881624222 4289549356
-0.2846989930 -0.1381848454 0.5882817507 4289483820
-0.2847565114 -0.1375589967 0.5884006023 4289483820
-0.2852401435 -0.1371377707 0.5893999338 4289549613
-0.2852972448 -0.1365102381 0.5895179510 4289681199
-0.2857806683 -0.1360854357 0.5905168653 4290273340
-0.2858373821 -0.1354562044 0.5906340480 4291391821
-0.2858938575 -0.1348266006 0.5907507539 4292313440
-0.2850965261 -0.1337960511 0.5891032219 4292247647
-0.2842985988 -0.1327688843 0.5874544382 4291524434
-0.2839270830 -0.1319435239 0.5866867304 4290603332
-0.2839821875 -0.1313171536 0.5868005753 4290274360
-0.2831827998 -0.1302973628 0.5851488113 4290274360
-0.2828100324 -0.1294765621 0.5843785405 4290339636
-0.2828641534 -0.1288519353 0.5844904184 4290273843
-0.2824906707 -0.1280332506 0.5837186575 4290143023
-0.2829717100 -0.1276016086 0.5847126245 4290143023
-0.2834526300 -0.1271677166 0.5857064128 4290208300
-0.2839334905 -0.1267315745 0.5866999626 4290142507
-0.2844142616 -0.1262931973 0.5876933932 4290273579
-0.2848949432 -0.1258525699 0.5886867046 4290076200
-0.2858034074 -0.1255977154 0.5905638337 4289681442
-0.2867119014 -0.1253387183 0.5924411416 4289549856
-0.2876204848 -0.1250755936 0.5943185687 4289549603
-0.2885291576 -0.1248083115 0.5961961150 4289483810
-0.2894378603 -0.1245368868 0.5980738401 4289352739
-0.2907748520 -0.1244445890 0.6008365154 4289484325
-0.2912554443 -0.1239815950 0.6018295884 4289616941
-0.2921643257 -0.1236977205 0.6037076116 4290077492
-0.2926447988 -0.1232292801 0.6047003865 4290472511
-0.2926965952 -0.1225791126 0.6048074365 4290801476
-0.2936053872 -0.1222856343 0.6066853404 4290473554
-0.2940855324 -0.1218104437 0.6076774597 4290670933
-0.2945655882 -0.1213330030 0.6086694002 4290344797
-0.2946166694 -0.1206776500 0.6087749600 4290476383
-0.2950963974 -0.1201966628 0.6097662449 4290150504
-0.2951470315 -0.1195396781 0.6098708510 4290216297
-0.2951974273 -0.1188823506 0.6099749804 4289758580
-0.2961058021 -0.1185683757 0.6118519902 4290350717
-0.2965850234 -0.1180793494 0.6128422022 4290681232
-0.2966348231 -0.1174181551 0.6129451394 4290878611
-0.2966843843 -0.1167566255 0.6130475402 4290880930
-0.2971630991 -0.1162627786 0.6140366793 4291407274
-0.2972121835 -0.1155996323 0.6141381264 4292067522
-0.2976905704 -0.1151022539 0.6151266694 4293251796
-0.2981688380 -0.1146026254 0.6161149144 4293977318
-0.2908857763 -0.1562384963 0.6024483442 4294370268
-0.2905265987 -0.1553770453 0.6017044783 4290554274
-0.2905906141 -0.1547425985 0.6018370390 4288639319
-0.2906543911 -0.1541077346 0.6019691229 4288047182
-0.2902941704 -0.1532487273 0.6012230515 4289098063
-0.2899335027 -0.1523911506 0.6004760861 4289953372
-0.2891484499 -0.1513131559 0.5988501310 4291396699
-0.2883627713 -0.1502384692 0.5972229838 4292054629
-0.2875765264 -0.1491670758 0.5955945849 4292381274
-0.2867896855 -0.1480989903 0.5939649343 4291854930
-0.2860022187 -0.1470342278 0.5923340917 4290403893
-0.2852141857 -0.1459727734 0.5907019973 4288627482
-0.2840010226 -0.1446983665 0.5881894231 4288496416
-0.2836363018 -0.1438598484 0.5874340534 4288430623
-0.2832711637 -0.1430228204 0.5866778493 4288234784
-0.2829056382 -0.1421872675 0.5859208107 4288629542
-0.2825396955 -0.1413531750 0.5851628780 4289484074
-0.2821733356 -0.1405205727 0.5844041109 4290076211
-0.2822315991 -0.1399001479 0.5845248103 4289749807
-0.2822896540 -0.1392793357 0.5846450329 4289815600
-0.2823474705 -0.1386581510 0.5847647786 4289024552
-0.2824050188 -0.1380365789 0.5848839879 4288498208
-0.2824623585 -0.1374146193 0.5850027800 4288432156
-0.2825194895 -0.1367922872 0.5851210356 4288695328
-0.2830018997 -0.1363746524 0.5861201882 4288891683
-0.2834842801 -0.1359547675 0.5871192217 4289154855
-0.2839665711 -0.1355326325 0.5881180763 4289681969
-0.2840229869 -0.1349059790 0.5882349014 4290076727
-0.2840791643 -0.1342789680 0.5883512497 4291786575
-0.2841350734 -0.1336515695 0.5884670615 4292510298
-0.2833386362 -0.1326249391 0.5868175626 4292707418
-0.2825416028 -0.1316017061 0.5851668715 4291917902
-0.2821702361 -0.1307794154 0.5843977332 4290865467
-0.2817984819 -0.1299586594 0.5836277604 4290075951
-0.2814263105 -0.1291394383 0.5828569531 4289879599
-0.2814802229 -0.1285164505 0.5829685926 4290340150
-0.2811073065 -0.1276993304 0.5821962953 4290143282
-0.2811606526 -0.1270765811 0.5823068023 4290011696
-0.2816404998 -0.1266453713 0.5833005905 4290010667
-0.2821202576 -0.1262119114 0.5842941999 4289879081
-0.2825999260 -0.1257762015 0.5852876306 4289878568
-0.2835064828 -0.1255272925 0.5871651769 4289615396
-0.2844130993 -0.1252742559 0.5890429020 4289286946
-0.2853198051 -0.1250170767 0.5909207463 4289221153
-0.2862265706 -0.1247557402 0.5927987695 4289418534
-0.2871334255 -0.1244902685 0.5946768522 4289747499
-0.2884676754 -0.1244049519 0.5974402428 4289945395
-0.2898021340 -0.1243135855 0.6002039909 4290274360
-0.2902817726 -0.1238513663 0.6011974216 4290538052
-0.2911889255 -0.1235683411 0.6030761600 4290801224
-0.2916684449 -0.1231006682 0.6040692925 4290868047
-0.2921478748 -0.1226307452 0.6050622463 4290999633
-0.2926271856 -0.1221585721 0.6060549617 4290540895
-0.2931064069 -0.1216841489 0.6070474386 4290672481
-0.2935855091 -0.1212074757 0.6080397367 4290215271
-0.2940645218 -0.1207285598 0.6090317369 4290346857
-0.2941152751 -0.1200726032 0.6091368794 4290152820
-0.2941657901 -0.1194163188 0.6092415452 4290679164
-0.2946443260 -0.1189325526 0.6102325320 4290484103
-0.2951227129 -0.1184465513 0.6112233400 4290813068
-0.2951726019 -0.1177873388 0.6113266349 4290420117
-0.2956506908 -0.1172977909 0.6123168468 4290420117
-0.2957001030 -0.1166369617 0.6124191880 4291277489
-0.2957492769 -0.1159757972 0.6125209928 4292395970
-0.2962268591 -0.1154814214 0.6135101318 4292858067
-0.2962755561 -0.1148186475 0.6136109829 4293779169
-0.2890684307 -0.1556203514 0.6000647545 4292395703
-0.2891324162 -0.1549879313 0.6001976132 4287987572
-0.2887733877 -0.1541294456 0.5994523168 4288110911
-0.2888368070 -0.1534971148 0.5995839834 4289689943
-0.2884770334 -0.1526405662 0.5988370776 4290677598
-0.2881168127 -0.1517854482 0.5980893373 4291006563
-0.2873330116 -0.1507098079 0.5964623094 4290936658
-0.2865486145 -0.1496374905 0.5948340297 4291594588
-0.2857636213 -0.1485684663 0.5932044983 4292250719
-0.2845546007 -0.1472835839 0.5906947255 4290934859
-0.2837683260 -0.1462221146 0.5890625119 4288825381
-0.2829814553 -0.1451639831 0.5874290466 4288299037
-0.2821939886 -0.1441091746 0.5857943892 4288428827
-0.2818297446 -0.1432731450 0.5850383043 4288428827
-0.2814650834 -0.1424385756 0.5842813253 4288561693
-0.2811000049 -0.1416054964 0.5835235119 4289482795
-0.2811586261 -0.1409865469 0.5836451054 4290667318
-0.2807928026 -0.1401554942 0.5828858018 4291391041
-0.2808508575 -0.1395366937 0.5830062628 4290803004
-0.2809086740 -0.1389175206 0.5831262469 4290934590
-0.2809662521 -0.1382979751 0.5832457542 4291262023
-0.2810235918 -0.1376780272 0.5833647847 4290406714
-0.2810806930 -0.1370577216 0.5834833384 4289286180
-0.2811375558 -0.1364370286 0.5836014152 4288562457
-0.2816189528 -0.1360211223 0.5846007466 4288561943
-0.2821002901 -0.1356029510 0.5855998993 4288430357
-0.2825815678 -0.1351825446 0.5865989327 4288628505
-0.2830627561 -0.1347598881 0.5875978470 4289220642
-0.2835438848 -0.1343349665 0.5885966420 4290339121
-0.2831745744 -0.1335068643 0.5878299475 4291523395
-0.2828048468 -0.1326802969 0.5870624781 4292772433
-0.2824347317 -0.1318552196 0.5862941742 4293035605
-0.2816387415 -0.1308340430 0.5846418142 4292312911
-0.2808422148 -0.1298162788 0.5829883218 4291062844
-0.2804706991 -0.1289976686 0.5822171569 4289618227
-0.2805244923 -0.1283753961 0.5823287368 4289684020
-0.2801522613 -0.1275589019 0.5815560818 4289749039
-0.2802054584 -0.1269368529 0.5816665292 4289551660
-0.2802584469 -0.1263144612 0.5817764997 4289484841
-0.2807371616 -0.1258827299 0.5827702880 4289353255
-0.2812158167 -0.1254487485 0.5837638974 4289287463
-0.2821205556 -0.1252016574 0.5856419802 4289287463
-0.2825991213 -0.1247622445 0.5866354108 4289419051
-0.2839302421 -0.1246950477 0.5893986225 4289550637
-0.2848351896 -0.1244355291 0.5912771821 4289879861
-0.2861666977 -0.1243571937 0.5940411687 4290406205
-0.2874984145 -0.1242728084 0.5968056321 4290801224
-0.2884036899 -0.1239989474 0.5986848474 4291064396
-0.2893090546 -0.1237209290 0.6005642414 4290999379
-0.2902144492 -0.1234387606 0.6024437547 4291065172
-0.2906930447 -0.1229718626 0.6034372449 4290934618
-0.2911715209 -0.1225027069 0.6044304967 4291066204
-0.2916499078 -0.1220313087 0.6054235697 4290870891
-0.2921282053 -0.1215576604 0.6064164042 4291068270
-0.2921791971 -0.1209049970 0.6065223217 4290939767
-0.2926571965 -0.1204277948 0.6075145602 4291071353
-0.2935623825 -0.1201232001 0.6093935966 4290483586
-0.2936128378 -0.1194666550 0.6094983220 4290615172
-0.2936630547 -0.1188097671 0.6096025109 4289696388
-0.2937129736 -0.1181525439 0.6097062230 4289104251
-0.2941902578 -0.1176660135 0.6106969714 4288381563
-0.2942397594 -0.1170071661 0.6107997298 4288842114
-0.2942889929 -0.1163479835 0.6109018922 4291080882
-0.2943379581 -0.1156884804 0.6110035777 4292857293
-0.2948145568 -0.1151958331 0.6119928956 4293385440
-0.2871913612 -0.1556310207 0.5975459218 4292929001
-0.2872552276 -0.1550015658 0.5976787806 4289895317
-0.2873188555 -0.1543717086 0.5978112221 4287066218
-0.2873822749 -0.1537414193 0.5979431272 4289491548
-0.2870233655 -0.1528858691 0.5971963406 4290083685
-0.2866640091 -0.1520317793 0.5964487195 4291662452
-0.2863042653 -0.1511791199 0.5957002044 4291201901
-0.2855217457 -0.1501058489 0.5940720439 4291198805
-0.2847386003 -0.1490359008 0.5924425721 4291856735
-0.2835323215 -0.1477490515 0.5899327397 4292906852
-0.2827478945 -0.1466866583 0.5883006454 4290735683
-0.2815401554 -0.1454092413 0.5857877731 4288367135
-0.2807544768 -0.1443544030 0.5841529965 4288038170
-0.2803910971 -0.1435193866 0.5833969712 4287709971
-0.2804503441 -0.1429013610 0.5835201740 4288236315
-0.2800862491 -0.1420683563 0.5827626586 4289419569
-0.2797217369 -0.1412368119 0.5820042491 4290801222
-0.2797800899 -0.1406195015 0.5821256638 4291524434
-0.2794148624 -0.1397899836 0.5813657045 4291458641
-0.2794726491 -0.1391728371 0.5814859867 4291590728
-0.2795302272 -0.1385553032 0.5816057920 4291722314
-0.2795875669 -0.1379373819 0.5817250609 4291788371
-0.2796446681 -0.1373190880 0.5818439126 4291656785
-0.2797015607 -0.1367004067 0.5819622278 4291853649
-0.2801820636 -0.1362875402 0.5829620361 4289879859
-0.2810864747 -0.1360776722 0.5848438144 4288695326
-0.2815669477 -0.1356593668 0.5858435035 4288300568
-0.2820473611 -0.1352387965 0.5868430138 4288563223
-0.2825276852 -0.1348159760 0.5878424644 4288497430
-0.2825836539 -0.1341894120 0.5879589319 4288957468
-0.2826393843 -0.1335624903 0.5880748630 4289681191
-0.2822704017 -0.1327355802 0.5873071551 4291062076
-0.2819010317 -0.1319102049 0.5865386128 4292706901
-0.2811066210 -0.1308886111 0.5848856568 4293495137
-0.2807363272 -0.1300672144 0.5841152668 4292771414
-0.2799408436 -0.1290515065 0.5824601650 4291914565
-0.2795696855 -0.1282341033 0.5816878676 4290730291
-0.2791981399 -0.1274182349 0.5809147954 4290074152
-0.2788261771 -0.1266039163 0.5801408887 4289810980
-0.2793040276 -0.1261752099 0.5811351538 4289483042
-0.2793566287 -0.1255531609 0.5812445879 4289548835
-0.2798342705 -0.1251209229 0.5822383761 4289550634
-0.2807371914 -0.1248756424 0.5841170549 4289353255
-0.2816401720 -0.1246262193 0.5859958529 4289880370
-0.2825432420 -0.1243726537 0.5878747702 4290275128
-0.2838719487 -0.1243012995 0.5906394124 4290211136
-0.2847752273 -0.1240384951 0.5925188065 4290408515
-0.2861043215 -0.1239559948 0.5952841640 4290672206
-0.2874336243 -0.1238674447 0.5980499983 4290935378
-0.2883372307 -0.1235902831 0.5999300480 4290739549
-0.2888149023 -0.1231273636 0.6009239554 4290805342
-0.2892924845 -0.1226621941 0.6019176245 4290674275
-0.2897699475 -0.1221947670 0.6029111147 4290871654
-0.2906735539 -0.1219038367 0.6047911644 4290412652
-0.2907246053 -0.1212531701 0.6048973799 4290807410
-0.2912017703 -0.1207790002 0.6058902144 4290874490
-0.2916788459 -0.1203025728 0.6068828106 4291006076
-0.2921557724 -0.1198238954 0.6078751683 4290416772
-0.2922060490 -0.1191689968 0.6079797745 4289429877
-0.2926827073 -0.1186867803 0.6089714766 4287327848
-0.2927325070 -0.1180302575 0.6090751290 4286867297
-0.2927820683 -0.1173733920 0.6091782451 4287330681
-0.2928313613 -0.1167161986 0.6092808247 4289567643
-0.2928803861 -0.1160586774 0.6093828678 4291674563
-0.2933561802 -0.1155690476 0.6103727818 4293187802
-0.2858035266 -0.1552377045 0.5960357189 4291876313
-0.2858671546 -0.1546098590 0.5961683989 4288579457
-0.2855094373 -0.1537548453 0.5954223871 4287329390
-0.2855724990 -0.1531270891 0.5955538750 4290347630
-0.2852140367 -0.1522740126 0.5948063135 4291137146
-0.2848551571 -0.1514223665 0.5940579176 4292126099
-0.2844958603 -0.1505721658 0.5933086276 4292520857
-0.2837145925 -0.1495012790 0.5916792750 4292980119
-0.2829327285 -0.1484336853 0.5900487304 4293309084
-0.2821502686 -0.1473694146 0.5884169340 4293176467
-0.2809453607 -0.1460891068 0.5859041810 4291136884
-0.2801616192 -0.1450324059 0.5842697024 4288175938
-0.2793772817 -0.1439790279 0.5826339722 4286070562
-0.2790144980 -0.1431455463 0.5818773508 4286331926
-0.2786512673 -0.1423135400 0.5811198950 4288239923
-0.2787099481 -0.1416977048 0.5812422037 4290868814
-0.2787683606 -0.1410814673 0.5813640952 4291526744
-0.2784041166 -0.1402520239 0.5806044340 4291722578
-0.2780394554 -0.1394240707 0.5798439384 4291788371
-0.2780970037 -0.1388085634 0.5799639821 4291854160
-0.2781543434 -0.1381926686 0.5800835490 4291722574
-0.2782114446 -0.1375763863 0.5802026391 4292248409
-0.2782683372 -0.1369597316 0.5803212523 4292379995
-0.2783249617 -0.1363427043 0.5804393888 4292248407
-0.2788044512 -0.1359315664 0.5814393163 4291524684
-0.2797070146 -0.1357235014 0.5833216310 4290274358
-0.2801864445 -0.1353069246 0.5843214989 4288300568
-0.2806658149 -0.1348880827 0.5853211880 4288102161
-0.2815685570 -0.1346694976 0.5872038007 4288496919
-0.2816243768 -0.1340436488 0.5873202085 4288496917
-0.2821035385 -0.1336180419 0.5883194804 4288957468
-0.2817353010 -0.1327908188 0.5875515342 4290009388
-0.2813666761 -0.1319651157 0.5867827535 4291127869
-0.2805737853 -0.1309431195 0.5851292610 4292311631
-0.2797803581 -0.1299245507 0.5834745765 4293101147
-0.2794103324 -0.1291052997 0.5827029347 4292836694
-0.2786158621 -0.1280926168 0.5810460448 4291191869
-0.2782449722 -0.1272773743 0.5802725554 4289482532
-0.2782979012 -0.1266567409 0.5803829432 4289482532
-0.2783505917 -0.1260357499 0.5804928541 4289812009
-0.2788274586 -0.1256055981 0.5814872980 4290140974
-0.2788797617 -0.1249829605 0.5815963745 4290208565
-0.2797809243 -0.1247385442 0.5834757090 4290340151
-0.2802575231 -0.1243016496 0.5844696760 4290735683
-0.2815834880 -0.1242372841 0.5872349143 4290933062
-0.2824848592 -0.1239804327 0.5891147256 4290737228
-0.2838111818 -0.1239049211 0.5918807387 4290737228
-0.2851377130 -0.1238233596 0.5946471691 4290738519
-0.2860394418 -0.1235521585 0.5965276957 4290870105
-0.2869412303 -0.1232767999 0.5984083414 4290805601
-0.2878430784 -0.1229972914 0.6002891064 4291200359
-0.2883197069 -0.1225328892 0.6012831330 4291331953
-0.2887962461 -0.1220662445 0.6022769809 4291463539
-0.2892726958 -0.1215973496 0.6032705903 4290939513
-0.2897490263 -0.1211261973 0.6042639613 4290873720
-0.2906508148 -0.1208297089 0.6061446071 4290546556
-0.2907013893 -0.1201771423 0.6062501073 4290151798
-0.2907516956 -0.1195242405 0.6063550115 4288575597
-0.2912275195 -0.1190450415 0.6073473692 4287522909
-0.2912774086 -0.1183905080 0.6074513793 4287328877
-0.2913270295 -0.1177356392 0.6075548530 4288907909
-0.2913763821 -0.1170804352 0.6076577902 4290423466
-0.2914254963 -0.1164249033 0.6077601910 4291739326
-0.2914743125 -0.1157690361 0.6078620553 4292793816
-0.2915229201 -0.1151128411 0.6079633236 4293780711
-0.2848383784 -0.1550726444 0.5954020023 4291086539
-0.2840614021 -0.1539899260 0.5937778950 4287658872
-0.2841244340 -0.1533642113 0.5939096808 4288251009
-0.2841872573 -0.1527380943 0.5940409899 4291533964
-0.2838293314 -0.1518865526 0.5932928324 4292257687
-0.2830504477 -0.1508123428 0.5916646719 4292326576
-0.2826915979 -0.1499646157 0.5909146070 4292129197
-0.2823323607 -0.1491183192 0.5901636481 4291735468
-0.2815518379 -0.1480521858 0.5885321498 4291669675
-0.2803497910 -0.1467689872 0.5860195160 4291999151
-0.2795680165 -0.1457104087 0.5843853354 4292591288
-0.2787856460 -0.1446551532 0.5827499032 4291932069
-0.2780026793 -0.1436032355 0.5811132789 4289695107
-0.2776404321 -0.1427713037 0.5803560615 4287849293
-0.2772777677 -0.1419408321 0.5795980096 4288573016
-0.2773362100 -0.1413266361 0.5797201395 4291331167
-0.2773943841 -0.1407120377 0.5798417926 4291199581
-0.2770307064 -0.1398841590 0.5790815353 4291460685
-0.2770883441 -0.1392697245 0.5792020559 4291987029
-0.2767239213 -0.1384438723 0.5784403086 4291788885
-0.2772029638 -0.1380397230 0.5794416070 4292117850
-0.2772599161 -0.1374241561 0.5795606375 4292314202
-0.2773166299 -0.1368082017 0.5796792507 4292379995
-0.2773731351 -0.1361918747 0.5797973275 4292314200
-0.2778516412 -0.1357815266 0.5807976127 4292379993
-0.2783301175 -0.1353689283 0.5817977190 4291787597
-0.2788085341 -0.1349540800 0.5827977657 4289353256
-0.2792868614 -0.1345369667 0.5837976336 4287970573
-0.2801877260 -0.1343201995 0.5856807232 4288628503
-0.2810887098 -0.1340993047 0.5875640512 4288232975
-0.2811442316 -0.1334728301 0.5876801014 4288627733
-0.2811995149 -0.1328459978 0.5877956748 4289482531
-0.2808316350 -0.1320199668 0.5870266557 4289943082
-0.2800403237 -0.1309975833 0.5853725672 4290732599
-0.2796715498 -0.1301755309 0.5846017003 4292311631
-0.2788791656 -0.1291590333 0.5829454064 4292903770
-0.2780862451 -0.1281459332 0.5812879205 4291916875
-0.2777161002 -0.1273303777 0.5805141926 4289877549
-0.2773455381 -0.1265163571 0.5797396302 4289811756
-0.2773981094 -0.1258960813 0.5798495412 4290273077
-0.2778740227 -0.1254667044 0.5808443427 4290602042
-0.2783498466 -0.1250350922 0.5818389654 4290734657
-0.2788256109 -0.1246012300 0.5828334689 4290997829
-0.2797251046 -0.1243535355 0.5847136378 4291065423
-0.2806246579 -0.1241016984 0.5865940452 4291065423
-0.2815243006 -0.1238457114 0.5884745717 4290935128
-0.2828480601 -0.1237711385 0.5912416577 4290935128
-0.2837479115 -0.1235058978 0.5931226015 4290870881
-0.2850720286 -0.1234201640 0.5958904028 4291068260
-0.2859720588 -0.1231456622 0.5977718234 4291069549
-0.2864477932 -0.1226852536 0.5987662077 4291661686
-0.2873478532 -0.1224033907 0.6006476879 4291793533
-0.2878234684 -0.1219375208 0.6016418338 4291596154
-0.2887235582 -0.1216482893 0.6035233140 4290612862
-0.2891990542 -0.1211769581 0.6045172215 4289757553
-0.2892496586 -0.1205263957 0.6046230197 4288574053
-0.2897248566 -0.1200515181 0.6056163311 4288179295
-0.2897750437 -0.1193993166 0.6057212353 4288510834
-0.2898249924 -0.1187467724 0.6058256030 4290024073
-0.2902996838 -0.1182670519 0.6068179011 4290948522
-0.2903491855 -0.1176128834 0.6069213748 4292132796
-0.2903984189 -0.1169583797 0.6070243120 4292267211
-0.2900221348 -0.1161332577 0.6062377691 4292793555
-0.2900708020 -0.1154790521 0.6063394547 4293124578
-0.2830355167 -0.1544497162 0.5930102468 4290822595
-0.2830986381 -0.1538251191 0.5931424499 4287659385
-0.2831614912 -0.1532001197 0.5932742357 4289435796
-0.2832241356 -0.1525747031 0.5934054852 4291995550
-0.2828668654 -0.1517237574 0.5926569104 4292258722
-0.2825092077 -0.1508742422 0.5919075012 4291998900
-0.2817312479 -0.1498029381 0.5902775526 4291406763
-0.2813726366 -0.1489572525 0.5895262361 4291210160
-0.2801735401 -0.1476702392 0.5870139003 4291407539
-0.2789736390 -0.1463883966 0.5844998956 4290882477
-0.2781932354 -0.1453312784 0.5828647614 4291014063
-0.2774122059 -0.1442774832 0.5812284350 4291999927
-0.2774714231 -0.1436623484 0.5813524723 4292197306
-0.2766894400 -0.1426133662 0.5797140598 4292259752
-0.2767480016 -0.1419993192 0.5798367858 4290614927
-0.2763856947 -0.1411700249 0.5790776610 4290808170
-0.2764437497 -0.1405561417 0.5791993141 4290808170
-0.2760806978 -0.1397288591 0.5784386396 4291462741
-0.2761381865 -0.1391151398 0.5785591602 4291462741
-0.2757744491 -0.1382899135 0.5777969956 4291724375
-0.2758314013 -0.1376763582 0.5779163241 4291790168
-0.2758881152 -0.1370624304 0.5780351758 4292117850
-0.2759445906 -0.1364481300 0.5781534910 4292052057
-0.2764222324 -0.1360408217 0.5791542530 4292249688
-0.2764783502 -0.1354248375 0.5792717934 4292249688
-0.2773773372 -0.1352194697 0.5811553001 4292511832
-0.2778547704 -0.1348053962 0.5821556449 4291130179
-0.2783321738 -0.1343890876 0.5831558704 4288496915
-0.2792312801 -0.1341731846 0.5850396752 4288233743
-0.2797086239 -0.1337514222 0.5860397816 4288364302
-0.2806078494 -0.1335281879 0.5879238248 4288693267
-0.2806630731 -0.1329011172 0.5880395770 4289547808
-0.2802959383 -0.1320747733 0.5872703195 4289876773
-0.2799283862 -0.1312499344 0.5865002871 4290074154
-0.2791381478 -0.1302296072 0.5848445296 4290929463
-0.2783473134 -0.1292127073 0.5831876397 4291718979
-0.2779784203 -0.1283943355 0.5824146867 4291850565
-0.2771865427 -0.1273833364 0.5807556510 4290602301
-0.2768167555 -0.1265689880 0.5799808502 4290602301
-0.2768692672 -0.1259484738 0.5800908208 4290932036
-0.2769215405 -0.1253276020 0.5802003741 4291063622
-0.2773964107 -0.1248967797 0.5811953545 4291064394
-0.2782941759 -0.1246531457 0.5830762982 4291459152
-0.2787689865 -0.1242168769 0.5840710998 4291329114
-0.2796667814 -0.1239658967 0.5859521627 4291263321
-0.2809878588 -0.1238973662 0.5887200236 4291002467
-0.2818858922 -0.1236371398 0.5906015635 4291068260
-0.2827839851 -0.1233727559 0.5924832225 4291069549
-0.2836821377 -0.1231042221 0.5943650603 4291332721
-0.2845803499 -0.1228315309 0.5962469578 4291465340
-0.2854786217 -0.1225546822 0.5981289744 4291860098
-0.2863769531 -0.1222736761 0.6000111699 4291465598
-0.2868516147 -0.1218085885 0.6010056734 4290873461
-0.2873261869 -0.1213412359 0.6019999981 4288969326
-0.2878006399 -0.1208716407 0.6029940844 4288442982
-0.2882750034 -0.1203997880 0.6039879322 4288641392
-0.2883252501 -0.1197495833 0.6040931940 4290286217
-0.2887993157 -0.1192741841 0.6050864458 4291669673
-0.2888491154 -0.1186223477 0.6051908135 4292722361
-0.2888986766 -0.1179701686 0.6052946448 4292791498
-0.2889479697 -0.1173176542 0.6053979397 4293581014
-0.2889970243 -0.1166648120 0.6055006385 4293057756
-0.2890457809 -0.1160116345 0.6056028605 4293584100
-0.2816553414 -0.1540550590 0.5914949775 4291085508
-0.2817181945 -0.1534320861 0.5916269422 4288712332
-0.2817808092 -0.1528087109 0.5917584896 4290620329
-0.2818431854 -0.1521849185 0.5918895006 4292063402
-0.2814864814 -0.1513355076 0.5911403894 4291866023
-0.2811293602 -0.1504875273 0.5903903842 4291933618
-0.2803527415 -0.1494176686 0.5887594819 4291933618
-0.2799946964 -0.1485735178 0.5880075693 4291933620
-0.2792170048 -0.1475093514 0.5863743424 4291867827
-0.2780193985 -0.1462279409 0.5838592649 4291604395
