VERSION 0.7
FIELDS x y z rgba
SIZE 4 4 4 4
TYPE F F F U
COUNT 1 1 1 1
WIDTH 920
HEIGHT 1
VIEWPOINT 0.0 0.0 0.0 1.0 0.0 0.0 0.0
POINTS 920
DATA ascii
-0.2918173969 -0.1260329336 0.5988675356 4293912452
-0.2918705046 -0.1253903657 0.5989764929 4293912452
-0.2919233739 -0.1247474402 0.5990849733 4293912452
-0.2919759750 -0.1241041794 0.5991929173 4293912452
-0.2920283079 -0.1234605610 0.5993003845 4293978246
-0.2920804322 -0.1228166074 0.5994073153 4293978246
-0.2921322584 -0.1221723035 0.5995137095 4293912199
-0.2921838462 -0.1215276569 0.5996195674 4293912199
-0.2922351956 -0.1208826676 0.5997248888 4293846410
-0.2927173674 -0.1204146892 0.6007144451 4293912203
-0.2927682698 -0.1197680756 0.6008188725 4293977996
-0.2928189039 -0.1191211194 0.6009228230 4293912203
-0.2928692997 -0.1184738353 0.6010262370 4293912203
-0.2929194272 -0.1178262159 0.6011291146 4293846410
-0.2929692864 -0.1171782613 0.6012314558 4293714824
-0.2930189073 -0.1165299863 0.6013332605 4293714824
-0.2930682600 -0.1158813760 0.6014345288 4293912203
-0.2926856577 -0.1150627285 0.6006493568 4293912203
-0.2927344143 -0.1144144237 0.6007494330 4293977996
-0.2927829325 -0.1137657911 0.6008489728 4293912203
-0.2932630777 -0.1132836789 0.6018343568 4293977996
-0.2933111191 -0.1126334518 0.6019329429 4293912203
-0.2933589220 -0.1119829044 0.6020310521 4293977996
-0.2934064567 -0.1113320440 0.6021285653 4293977996
-0.2934537232 -0.1106808633 0.6022256017 4293977992
-0.2935007215 -0.1100293696 0.6023220420 4293977992
-0.2935474813 -0.1093775630 0.6024180055 4293912201
-0.2935939431 -0.1087254509 0.6025133729 4293846408
-0.2936401665 -0.1080730259 0.6026082039 4293912201
-0.2941186428 -0.1075784937 0.6035901904 4293912201
-0.2941644192 -0.1069244966 0.6036840677 4293912201
-0.2942098975 -0.1062701941 0.6037774086 4293977994
-0.2942551374 -0.1056155860 0.6038702130 4293977994
-0.2943000793 -0.1049606726 0.6039624810 4293977994
-0.2943447828 -0.1043054685 0.6040542126 4294043787
-0.2943892181 -0.1036499664 0.6041454077 4294043787
-0.2948663533 -0.1031456217 0.6051245928 4294043789
-0.2949103415 -0.1024885625 0.6052148342 4294043789
-0.2949540317 -0.1018312126 0.6053044796 4294109582
-0.2949974537 -0.1011735648 0.6053935885 4294043789
-0.2950406075 -0.1005156338 0.6054821610 4293846924
-0.2950834930 -0.0998574123 0.6055701971 4293846924
-0.2951260805 -0.0991989076 0.6056576371 4293847438
-0.2951684296 -0.0985401124 0.6057445407 4293979024
-0.2952105105 -0.0978810415 0.6058309078 4294044817
-0.2956858873 -0.0973644480 0.6068063974 4294044817
-0.2957274616 -0.0967038423 0.6068917513 4293913490
-0.2957687974 -0.0960429609 0.6069765687 4293847697
-0.2958098352 -0.0953818038 0.6070608497 4293651088
-0.2958506346 -0.0947203711 0.6071445346 4293651088
-0.2963249981 -0.0941965804 0.6081179976 4293651347
-0.2967992127 -0.0936705768 0.6090911627 4293717140
-0.2968392670 -0.0930063948 0.6091734171 4293717140
-0.2968790829 -0.0923419371 0.6092550755 4293651347
-0.2969186008 -0.0916772187 0.6093361974 4293585556
-0.2969578505 -0.0910122320 0.6094167829 4293585556
-0.2969968319 -0.0903469846 0.6094967723 4293521042
-0.2970355451 -0.0896814689 0.6095761657 4293586835
-0.2975082695 -0.0891458392 0.6105463505 4293652117
-0.2975464761 -0.0884788409 0.6106247306 4293652117
-0.2975844145 -0.0878115892 0.6107025743 4293914006
-0.2971875668 -0.0870168582 0.6098881960 4293914006
-0.2980939746 -0.0866025537 0.6117482781 4294044563
-0.2981311083 -0.0859335661 0.6118245125 4294044563
-0.2981679738 -0.0852643251 0.6119002104 4294045074
-0.2982045710 -0.0845948458 0.6119752526 4294045074
-0.2982408702 -0.0839251131 0.6120498180 4293782681
-0.2982769012 -0.0832551345 0.6121237278 4293980060
-0.2987475097 -0.0827053040 0.6130895019 4293717932
-0.2987830341 -0.0820338726 0.6131623983 4293652139
-0.2992532253 -0.0814806297 0.6141273379 4293915584
-0.2992882431 -0.0808077455 0.6141992211 4294573514
-0.2998606563 -0.0782274008 0.6153739095 4293456342
-0.2998943031 -0.0775523782 0.6154429317 4291155628
-0.2999276817 -0.0768771246 0.6155114174 4290958249
-0.2995253801 -0.0760910511 0.6146858335 4291814571
-0.2995581329 -0.0754163340 0.6147530675 4291880364
-0.2991551459 -0.0746327639 0.6139259934 4292209078
-0.2996227443 -0.0740662441 0.6148856878 4292143285
-0.3000901937 -0.0734975412 0.6158449650 4292405451
-0.3001218438 -0.0728209764 0.6159098744 4292800209
-0.2874862254 -0.1921176463 0.5913268924 4292864983
-0.2879832387 -0.1917916685 0.5923492312 4292273345
-0.2872205675 -0.1906273365 0.5907804966 4291747001
-0.2868772447 -0.1897438616 0.5900743008 4291287201
-0.2861133814 -0.1885847598 0.5885031223 4290892443
-0.2857691050 -0.1877047569 0.5877949595 4290498691
-0.2854244113 -0.1868260503 0.5870859623 4290301312
-0.2854997516 -0.1862228960 0.5872409344 4290367091
-0.2855748832 -0.1856192648 0.5873954892 4290301298
-0.2852291167 -0.1847426891 0.5866842866 4290170213
-0.2848829329 -0.1838674098 0.5859722495 4289972834
-0.2841154337 -0.1827227324 0.5843935609 4289775702
-0.2837682962 -0.1818509698 0.5836794972 4289709909
-0.2838418484 -0.1812494397 0.5838308334 4289644367
-0.2834939659 -0.1803794056 0.5831152797 4289710160
-0.2835670114 -0.1797778308 0.5832655430 4289579849
-0.2836398482 -0.1791757941 0.5834153295 4289645642
-0.2837124765 -0.1785732955 0.5835647583 4289842251
-0.2842065692 -0.1782347709 0.5845810175 4289973837
-0.2842788994 -0.1776304543 0.5847297907 4290039626
-0.2843510211 -0.1770256758 0.5848781466 4290039626
-0.2844229043 -0.1764204204 0.5850260258 4290105672
-0.2844946086 -0.1758147329 0.5851734877 4290171465
-0.2849882841 -0.1754685193 0.5861889124 4290106177
-0.2850596607 -0.1748610139 0.5863357782 4290171970
-0.2851308286 -0.1742530316 0.5864821076 4290041148
-0.2852017879 -0.1736446172 0.5866280794 4290041148
-0.2852725089 -0.1730357409 0.5867735744 4290172218
-0.2853430510 -0.1724264026 0.5869186521 4290238011
-0.2849905193 -0.1715620756 0.5861935019 4290238010
-0.2854834497 -0.1712063849 0.5872074366 4290303803
-0.2855533361 -0.1705957055 0.5873511434 4290368066
-0.2856229842 -0.1699845791 0.5874944925 4290302273
-0.2852692008 -0.1691220850 0.5867667198 4290957383
-0.2853383422 -0.1685109735 0.5869089365 4292470622
-0.2854072452 -0.1678994149 0.5870506763 4293388905
-0.2850523889 -0.1670392007 0.5863207579 4293125733
-0.2851207554 -0.1664276719 0.5864614248 4293255015
-0.2851889133 -0.1658156961 0.5866016150 4293320808
-0.2852568626 -0.1652032882 0.5867413282 4293320040
-0.2853245735 -0.1645904481 0.5868806243 4293254247
-0.2853920758 -0.1639771610 0.5870194435 4293188199
-0.2854593396 -0.1633634418 0.5871578455 4293253992
-0.2855263948 -0.1627492905 0.5872957706 4293319528
-0.2855932415 -0.1621347070 0.5874332786 4293319528
-0.2856598496 -0.1615196913 0.5875703096 4293384807
-0.2857262492 -0.1609042436 0.5877068639 4293450600
-0.2857924104 -0.1602883786 0.5878429413 4293254497
-0.2858583629 -0.1596720815 0.5879786015 4293254497
-0.2859240770 -0.1590553522 0.5881137848 4293320036
-0.2859895825 -0.1584382057 0.5882484913 4293254243
-0.2860548496 -0.1578206271 0.5883827806 4293254245
-0.2861199081 -0.1572026312 0.5885165334 4293254245
-0.2861847281 -0.1565842181 0.5886498690 4293385318
-0.2866746485 -0.1561971158 0.5896576047 4293385318
-0.2863136828 -0.1553461254 0.5889151692 4293319525
-0.2868033648 -0.1549563557 0.5899223089 4293319525
-0.2868673801 -0.1543353498 0.5900539756 4293385572
-0.2869311571 -0.1537139267 0.5901851654 4293451365
-0.2869946957 -0.1530920863 0.5903158784 4293451363
-0.2870580256 -0.1524698287 0.5904461145 4293451363
-0.2871211171 -0.1518471688 0.5905759335 4293385569
-0.2871839702 -0.1512240916 0.5907052159 4293319776
-0.2872465849 -0.1506006122 0.5908340216 4293647715
-0.2873089910 -0.1499767303 0.5909623504 4293647715
-0.2873711586 -0.1493524313 0.5910902619 4293647715
-0.2874330878 -0.1487277448 0.5912176371 4293647715
-0.2874947786 -0.1481026411 0.5913445354 4293647461
-0.2875562608 -0.1474771351 0.5914709568 4293647461
-0.2876174748 -0.1468512267 0.5915969014 4293450852
-0.2876784801 -0.1462249309 0.5917223692 4293450852
-0.2877392471 -0.1455982327 0.5918473601 4293450852
-0.2877997756 -0.1449711323 0.5919718146 4293450852
-0.2878600657 -0.1443436444 0.5920958519 4293450852
-0.2879201174 -0.1437157542 0.5922193527 4293450852
-0.2879799306 -0.1430874765 0.5923424363 4293450852
-0.2880395055 -0.1424588114 0.5924649835 4293516645
-0.2880988419 -0.1418297589 0.5925869942 4293516645
-0.2881579399 -0.1412003040 0.5927085876 4293516645
-0.2882168293 -0.1405704767 0.5928296447 4293581670
-0.2887031436 -0.1401478797 0.5938299894 4293581670
-0.2887616158 -0.1395163536 0.5939502716 4293385059
-0.2888198495 -0.1388844252 0.5940700173 4293385059
-0.2888778448 -0.1382521242 0.5941892862 4293385059
-0.2885075510 -0.1374155581 0.5934276581 4293450852
-0.2885649502 -0.1367834359 0.5935457349 4293516645
-0.2886221409 -0.1361509413 0.5936633348 4293516645
-0.2891073823 -0.1357191354 0.5946614742 4293582440
-0.2891641557 -0.1350849420 0.5947782397 4293516647
-0.2892206907 -0.1344503909 0.5948945284 4293451111
-0.2892769873 -0.1338154525 0.5950102806 4293451111
-0.2893330157 -0.1331801564 0.5951255560 4293451113
-0.2893888354 -0.1325444877 0.5952403545 4293516906
-0.2894443870 -0.1319084466 0.5953546166 4293516907
-0.2899285853 -0.1314665228 0.5963505507 4293516907
-0.2904126942 -0.1310223490 0.5973463058 4293385321
-0.2904676497 -0.1303833276 0.5974593759 4293319528
-0.2900932431 -0.1295523047 0.5966892838 4293385320
-0.2901476622 -0.1289135069 0.5968011618 4293451113
-0.2902018130 -0.1282743514 0.5969125628 4293516906
-0.2902556956 -0.1276348382 0.5970234275 4293582699
-0.2903093696 -0.1269949824 0.5971337557 4293516904
-0.2903627455 -0.1263547540 0.5972436070 4293451111
-0.2904159129 -0.1257141829 0.5973529220 4293516647
-0.2904688120 -0.1250732541 0.5974617600 4293516647
-0.2905214727 -0.1244319901 0.5975700617 4293516647
-0.2905738652 -0.1237903684 0.5976778269 4293516647
-0.2906259894 -0.1231483966 0.5977850556 4293516393
-0.2906779051 -0.1225060895 0.5978918076 4293582186
-0.2907295227 -0.1218634322 0.5979980230 4293582186
-0.2907809317 -0.1212204322 0.5981037021 4293582186
-0.2912622690 -0.1207554638 0.5990937948 4293647980
-0.2913132310 -0.1201108396 0.5991986394 4293713773
-0.2913639247 -0.1194658726 0.5993028879 4293713773
-0.2914143801 -0.1188205704 0.5994066596 4293647980
-0.2914645374 -0.1181749329 0.5995098948 4293582700
-0.2915144861 -0.1175289676 0.5996125937 4293516907
-0.2915641665 -0.1168826669 0.5997147560 4293516907
-0.2916135788 -0.1162360385 0.5998163819 4293516907
-0.2916627228 -0.1155890822 0.5999175310 4293516907
-0.2917116284 -0.1149417982 0.6000180840 4293516907
-0.2921912372 -0.1144630164 0.6010046005 4293451373
-0.2922396958 -0.1138141230 0.6011042595 4293517166
-0.2922878861 -0.1131649166 0.6012033820 4293517166
-0.2923358083 -0.1125153825 0.6013019681 4293517166
-0.2923834920 -0.1118655354 0.6014000177 4293517166
-0.2924309075 -0.1112153679 0.6014975309 4293451373
-0.2924780548 -0.1105648875 0.6015945673 4293582709
-0.2925249338 -0.1099140868 0.6016910076 4293648502
-0.2925715744 -0.1092629805 0.6017869115 4293648503
-0.2926179469 -0.1086115614 0.6018822789 4293516917
-0.2926640511 -0.1079598367 0.6019771099 4293516663
-0.2927098870 -0.1073077992 0.6020714045 4293516663
-0.2931872606 -0.1068127677 0.6030532718 4293582710
-0.2932326198 -0.1061591655 0.6031466126 4293582710
-0.2932777405 -0.1055052578 0.6032394171 4293582710
-0.2933225930 -0.1048510447 0.6033316851 4293582710
-0.2933671772 -0.1041965336 0.6034233570 4293582710
-0.2934114933 -0.1035417318 0.6035145521 4293582710
-0.2938877344 -0.1030381545 0.6044940948 4293582456
-0.2939316034 -0.1023817882 0.6045843363 4293648249
-0.2939751744 -0.1017251387 0.6046739817 4293648251
-0.2940184772 -0.1010681912 0.6047630310 4293648251
-0.2940615416 -0.1004109532 0.6048516035 4293516914
-0.2941043079 -0.0997534320 0.6049395800 4293582707
-0.2941468358 -0.0990956202 0.6050270200 4293648500
-0.2941890657 -0.0984375253 0.6051139235 4293714293
-0.2942310274 -0.0977791473 0.6052002311 4293583479
-0.2942727506 -0.0971204937 0.6052860022 4293517686
-0.2947469950 -0.0966034085 0.6062614918 4293451893
-0.2947882116 -0.0959432274 0.6063462496 4293451893
-0.2948291600 -0.0952827632 0.6064305305 4293517944
-0.2948698401 -0.0946220309 0.6065141559 4293517944
-0.2953433096 -0.0940990001 0.6074880362 4293583737
-0.2953834832 -0.0934367478 0.6075707078 4293649530
-0.2958565950 -0.0929102674 0.6085438132 4293518714
-0.2958962917 -0.0922465101 0.6086254716 4293452921
-0.2959357202 -0.0915824845 0.6087065935 4293452667
-0.2959748805 -0.0909181982 0.6087871194 4293584253
-0.2960137725 -0.0902536437 0.6088671088 4293387385
-0.2960523665 -0.0895888358 0.6089465022 4293387385
-0.2960906923 -0.0889237598 0.6090253592 4293452667
-0.2965623140 -0.0883876532 0.6099954247 4293452667
-0.2966001630 -0.0877210945 0.6100732684 4293649278
-0.2962040305 -0.0869270116 0.6092584729 4293715071
-0.2971087396 -0.0865135118 0.6111193299 4293846396
-0.2971457839 -0.0858452171 0.6111955643 4293714810
-0.2971825600 -0.0851766765 0.6112712026 4293846649
-0.2972190678 -0.0845078900 0.6113462448 4293715063
-0.2972552776 -0.0838388577 0.6114207506 4293386874
-0.2972912192 -0.0831695795 0.6114946604 4293452667
-0.2977609336 -0.0826205015 0.6124608517 4293190285
-0.2977963686 -0.0819497630 0.6125337481 4293058699
-0.2982656658 -0.0813972726 0.6134990454 4293321630
-0.2983005941 -0.0807250813 0.6135708690 4293716388
-0.2987695038 -0.0801691785 0.6145353317 4293127351
-0.2988038957 -0.0794955418 0.6146061420 4293193144
-0.2988380492 -0.0788216665 0.6146762967 4292603313
-0.2988718748 -0.0781475678 0.6147459149 4291550625
-0.2989054322 -0.0774732381 0.6148149371 4288855154
-0.2989387214 -0.0767986849 0.6148834229 4289118326
-0.2985371649 -0.0760132596 0.6140574217 4290895490
-0.2985698283 -0.0753392428 0.6141246557 4291224455
-0.2986021936 -0.0746650025 0.6141912341 4291224206
-0.2986342907 -0.0739905462 0.6142572165 4291158413
-0.2991008461 -0.0734225884 0.6152168512 4291289757
-0.2991324067 -0.0727467164 0.6152818203 4291750308
-0.3000333607 -0.0722801387 0.6171349883 4292537791
-0.3004993200 -0.0717056468 0.6180934310 4293261514
-0.2883079648 -0.1957495362 0.5943750143 4292667350
-0.2879678011 -0.1948589683 0.5936737657 4291944379
-0.2872085571 -0.1936873347 0.5921084881 4291286449
-0.2868674397 -0.1928002089 0.5914052129 4290563738
-0.2865259051 -0.1919143349 0.5907011032 4290103187
-0.2861839235 -0.1910297573 0.5899960995 4289578102
-0.2858415246 -0.1901464611 0.5892902017 4289314930
-0.2854987085 -0.1892644465 0.5885834098 4289315921
-0.2847360969 -0.1881067008 0.5870112777 4289315921
-0.2843923271 -0.1872281581 0.5863025188 4289317175
-0.2836285233 -0.1860756427 0.5847278833 4289317175
-0.2841231525 -0.1857493222 0.5857475996 4289186342
-0.2837781906 -0.1848737895 0.5850363970 4289120549
-0.2834328115 -0.1839995682 0.5843244195 4289251365
-0.2830870152 -0.1831266433 0.5836114883 4289119779
-0.2823206782 -0.1819842160 0.5820316076 4289053736
-0.2828143537 -0.1816546470 0.5830494165 4289053736
-0.2824673951 -0.1807847768 0.5823341012 4289119278
-0.2825404704 -0.1801843643 0.5824847221 4289185071
-0.2826133370 -0.1795834750 0.5826349258 4288923429
-0.2826859653 -0.1789821237 0.5827847123 4288989222
-0.2835999727 -0.1789112091 0.5846689939 4289186344
-0.2828306556 -0.1777780354 0.5830829740 4289252137
-0.2833236754 -0.1774389446 0.5840994120 4289382953
-0.2833956182 -0.1768348515 0.5842477083 4289382953
-0.2834673226 -0.1762302965 0.5843955278 4289317678
-0.2835388482 -0.1756252944 0.5845429897 4289383471
-0.2836101353 -0.1750198156 0.5846899748 4289252145
-0.2841027379 -0.1746730506 0.5857055187 4289317938
-0.2845953405 -0.1743240356 0.5867210627 4289383479
-0.2846662104 -0.1737153977 0.5868672132 4289449272
-0.2847368717 -0.1731062979 0.5870128870 4289448761
-0.2848073244 -0.1724967659 0.5871580839 4289514554
-0.2848775685 -0.1718867570 0.5873029232 4289514808
-0.2849476039 -0.1712763160 0.5874472857 4289514808
-0.2850174010 -0.1706654131 0.5875911713 4289579831
-0.2846646309 -0.1698021442 0.5868639350 4289645624
-0.2843114734 -0.1689402312 0.5861358047 4290366014
-0.2843804061 -0.1683298051 0.5862779617 4292274011
-0.2844491601 -0.1677189469 0.5864197016 4293388390
-0.2845176756 -0.1671076268 0.5865609646 4292993632
-0.2845859826 -0.1664958745 0.5867017508 4293056864
-0.2842310965 -0.1656372100 0.5859701633 4293056864
-0.2842988670 -0.1650254875 0.5861098170 4292858974
-0.2843663990 -0.1644133329 0.5862491131 4292793181
-0.2848570049 -0.1640444845 0.5872604847 4292793183
-0.2849242091 -0.1634305567 0.5873990655 4292793183
-0.2849912047 -0.1628161818 0.5875371695 4292858463
-0.2850579619 -0.1622013748 0.5876747966 4292858463
-0.2851245105 -0.1615861356 0.5878120065 4293055326
-0.2851908207 -0.1609704643 0.5879487395 4293121119
-0.2852569222 -0.1603543758 0.5880849957 4292858974
-0.2853228152 -0.1597378552 0.5882207751 4292858974
-0.2849644125 -0.1588844657 0.5874819160 4292990301
-0.2850297391 -0.1582680047 0.5876166224 4292990301
-0.2850948572 -0.1576511264 0.5877508521 4292990299
-0.2851597369 -0.1570338309 0.5878846049 4292990299
-0.2852243781 -0.1564161032 0.5880178809 4292990554
-0.2857133448 -0.1560298055 0.5890259743 4292990554
-0.2853530347 -0.1551793963 0.5882831216 4292990554
-0.2858417332 -0.1547904164 0.5892906189 4292990554
-0.2859055698 -0.1541700959 0.5894222260 4292990299
-0.2859691978 -0.1535493731 0.5895534158 4293056092
-0.2860325873 -0.1529282331 0.5896840692 4293121885
-0.2860957384 -0.1523066759 0.5898143053 4293121885
-0.2865838706 -0.1519100964 0.5908206105 4293121887
-0.2862213850 -0.1510623246 0.5900732875 4293056094
-0.2862838507 -0.1504395455 0.5902020931 4293122397
-0.2863460779 -0.1498163491 0.5903304219 4293056604
-0.2864080966 -0.1491927505 0.5904582143 4292991324
-0.2864698768 -0.1485687494 0.5905855894 4292991324
-0.2865314186 -0.1479443312 0.5907124877 4292925531
-0.2865927219 -0.1473195255 0.5908388495 4292925531
-0.2866537869 -0.1466943175 0.5909647942 4292925531
-0.2867146432 -0.1460687220 0.5910902023 4292925531
-0.2867752612 -0.1454427093 0.5912151933 4292859739
-0.2868356407 -0.1448163092 0.5913396478 4292859739
-0.2868957520 -0.1441895068 0.5914636254 4292859739
-0.2869556546 -0.1435623169 0.5915871263 4292925532
-0.2870153189 -0.1429347396 0.5917100906 4292991325
-0.2870747745 -0.1423067749 0.5918326378 4292991325
-0.2875606120 -0.1418889314 0.5928342342 4292991325
-0.2876196504 -0.1412592381 0.5929559469 4292991325
-0.2876784503 -0.1406291723 0.5930771828 4293122657
-0.2877370119 -0.1399987191 0.5931979418 4293122657
-0.2877953351 -0.1393678635 0.5933181643 4293056866
-0.2878534198 -0.1387366503 0.5934379101 4293056866
-0.2879112661 -0.1381050348 0.5935571790 4293056866
-0.2879688740 -0.1374730617 0.5936759114 4293056866
-0.2880262136 -0.1368406862 0.5937941670 4293056866
-0.2880833447 -0.1362079531 0.5939119458 4293122659
-0.2881402373 -0.1355748326 0.5940291882 4293056866
-0.2881968617 -0.1349413395 0.5941459537 4293056866
-0.2882532477 -0.1343074739 0.5942621827 4292926048
-0.2883093953 -0.1336732507 0.5943779349 4292926048
-0.2887931466 -0.1332360208 0.5953752398 4292926046
-0.2892768085 -0.1327965558 0.5963723660 4292926046
-0.2893323898 -0.1321593225 0.5964869261 4292860508
-0.2893877327 -0.1315217316 0.5966010094 4292860508
-0.2894428074 -0.1308837831 0.5967146158 4292991839
-0.2894976437 -0.1302454621 0.5968276262 4292991839
-0.2895522416 -0.1296067834 0.5969401598 4292991839
-0.2896065712 -0.1289677322 0.5970522165 4292991839
-0.2896606624 -0.1283283383 0.5971637368 4293057634
-0.2897145152 -0.1276885718 0.5972747207 4293123427
-0.2897681296 -0.1270484626 0.5973852277 4293254245
-0.2898214757 -0.1264079809 0.5974951982 4293320038
-0.2898745537 -0.1257671565 0.5976046920 4293254247
-0.2899273932 -0.1251259893 0.5977136493 4293254247
-0.2899799943 -0.1244844645 0.5978220701 4293188454
-0.2900323570 -0.1238425896 0.5979299545 4293188454
-0.2900844216 -0.1232003719 0.5980373621 4293188452
-0.2901362777 -0.1225578040 0.5981442332 4293254245
-0.2901878655 -0.1219149008 0.5982505679 4293385318
-0.2902391851 -0.1212716475 0.5983564258 4293451111
-0.2902902663 -0.1206280589 0.5984617472 4293320038
-0.2903411090 -0.1199841276 0.5985664725 4293254245
-0.2903916538 -0.1193398610 0.5986707807 4293320038
-0.2904419899 -0.1186952591 0.5987744927 4293385831
-0.2909217775 -0.1182249486 0.5997636318 4293189222
-0.2909716368 -0.1175787225 0.5998664498 4293255015
-0.2910212576 -0.1169321686 0.5999687314 4293255274
-0.2910706401 -0.1162852794 0.6000705361 4293255274
-0.2911197543 -0.1156380698 0.6001717448 4293189481
-0.2915986776 -0.1151603758 0.6011591554 4293123688
-0.2916473448 -0.1145115569 0.6012594700 4292927079
-0.2916957438 -0.1138624102 0.6013592482 4292927079
-0.2917439044 -0.1132129356 0.6014584899 4292927592
-0.2917917669 -0.1125631481 0.6015572548 4292927592
-0.2918393910 -0.1119130403 0.6016554236 4292993385
-0.2918867767 -0.1112626120 0.6017530560 4292927592
-0.2919338644 -0.1106118634 0.6018501520 4293124716
-0.2919807136 -0.1099608094 0.6019467711 4293058923
-0.2920272946 -0.1093094423 0.6020427942 4293124205
-0.2920736074 -0.1086577624 0.6021382809 4293058412
-0.2921196818 -0.1080057696 0.6022332311 4293058412
-0.2921654582 -0.1073534712 0.6023276448 4293124205
-0.2922109962 -0.1067008674 0.6024215221 4293124464
-0.2922562659 -0.1060479581 0.6025148034 4293058671
-0.2923012674 -0.1053947508 0.6026076078 4293124464
-0.2923460007 -0.1047412381 0.6026998162 4293124464
-0.2932530046 -0.1043944731 0.6045696735 4293189998
-0.2932973206 -0.1037384346 0.6046610475 4293189998
-0.2933413982 -0.1030820981 0.6047519445 4293190000
-0.2933852077 -0.1024254709 0.6048422456 4293190000
-0.2929972410 -0.1016188860 0.6040424109 4293124466
-0.2930404544 -0.1009626389 0.6041314602 4293124466
-0.2930833995 -0.1003061011 0.6042200327 4293321586
-0.2935577631 -0.0997960344 0.6051979661 4293321586
-0.2936002314 -0.0991379619 0.6052855253 4293387125
-0.2936424315 -0.0984795988 0.6053725481 4293387125
-0.2936843634 -0.0978209525 0.6054589748 4293387125
-0.2937260270 -0.0971620232 0.6055448651 4293387125
-0.2937674224 -0.0965028182 0.6056301594 4293321845
-0.2938085198 -0.0958433300 0.6057149768 4293321845
-0.2942815125 -0.0953235477 0.6066900492 4293321847
-0.2943221629 -0.0946625397 0.6067738533 4293321847
-0.2943625152 -0.0940012634 0.6068570614 4293321847
-0.2944025993 -0.0933397114 0.6069396734 4293321847
-0.2948747873 -0.0928139836 0.6079131961 4293255799
-0.2949143946 -0.0921509266 0.6079947948 4293255799
-0.2949537337 -0.0914875939 0.6080759168 4293387385
-0.2949928045 -0.0908240080 0.6081564426 4293453178
-0.2954641879 -0.0902923569 0.6091282368 4293387898
-0.2955027521 -0.0896272659 0.6092077494 4293322105
-0.2955410480 -0.0889619216 0.6092866659 4293453439
-0.2955790460 -0.0882963166 0.6093650460 4293585025
-0.2956168056 -0.0876304582 0.6094428897 4293584514
-0.2956542671 -0.0869643390 0.6095200777 4293716100
-0.2961243689 -0.0864243209 0.6104893088 4293847936
-0.2965943217 -0.0858821049 0.6114581227 4293716350
-0.2961980402 -0.0850888863 0.6106411219 4293979775
-0.2962344289 -0.0844208002 0.6107162237 4293979775
-0.2962705791 -0.0837524608 0.6107906699 4293782911
-0.2967396080 -0.0832053497 0.6117576957 4293848704
-0.2967752516 -0.0825355500 0.6118311286 4293651590
-0.2972438931 -0.0819850266 0.6127973199 4293585797
-0.2972790003 -0.0813137665 0.6128696799 4293520012
-0.2973138392 -0.0806422755 0.6129415035 4293322633
-0.2982152998 -0.0802036971 0.6147999763 4291944328
-0.2982496917 -0.0795297772 0.6148708463 4291944328
-0.2982837856 -0.0788556263 0.6149411201 4291486597
-0.2983175814 -0.0781812444 0.6150107980 4290828667
-0.2983511090 -0.0775066316 0.6150799394 4287935821
-0.2979506552 -0.0767201185 0.6142543554 4288264786
-0.2979835868 -0.0760460421 0.6143222451 4290173032
-0.2980162203 -0.0753717348 0.6143894792 4290633583
-0.2980485559 -0.0746972114 0.6144561768 4290501748
-0.2980806231 -0.0740224719 0.6145222783 4290501748
-0.2981123924 -0.0733475089 0.6145877838 4290568568
-0.2985778749 -0.0727781132 0.6155474186 4290963326
-0.2990431488 -0.0722065419 0.6165066361 4291750550
-0.2990741432 -0.0715289786 0.6165705323 4292671652
-0.2874477804 -0.1982531399 0.5939616561 4292535266
-0.2871095836 -0.1973607391 0.5932628512 4292009672
-0.2871884108 -0.1967555732 0.5934256911 4291285949
-0.2868494689 -0.1958648115 0.5927253366 4290498190
-0.2860924602 -0.1946910918 0.5911611319 4289906053
-0.2857525647 -0.1938037425 0.5904588103 4289447004
-0.2854122221 -0.1929176599 0.5897555947 4289118039
-0.2850714922 -0.1920328587 0.5890514851 4288856635
-0.2847303152 -0.1911493391 0.5883464813 4288593463
-0.2843886912 -0.1902671009 0.5876406431 4288264751
-0.2840466797 -0.1893861443 0.5869338512 4288198958
-0.2841226757 -0.1887845099 0.5870909095 4288199207
-0.2837798893 -0.1879052520 0.5863826275 4288265000
-0.2834367156 -0.1870272756 0.5856735110 4288265250
-0.2826743126 -0.1858752370 0.5840981007 4288331043
-0.2823301554 -0.1850007474 0.5833870173 4288331043
-0.2824046016 -0.1844011694 0.5835407972 4288331043
-0.2820596993 -0.1835284084 0.5828281641 4288264739
-0.2817144096 -0.1826569438 0.5821146369 4288198946
-0.2817879915 -0.1820577234 0.5822666883 4288132901
-0.2814419568 -0.1811880171 0.5815516710 4288132901
-0.2815150321 -0.1805887371 0.5817026496 4288198694
-0.2815878987 -0.1799890101 0.5818532705 4288198694
-0.2816605866 -0.1793888211 0.5820034146 4288265761
-0.2817330360 -0.1787881553 0.5821531415 4288265761
-0.2822252810 -0.1784525812 0.5831702948 4288397089
-0.2822974324 -0.1778500974 0.5833193660 4288528675
-0.2823694050 -0.1772471517 0.5834680796 4288528673
-0.2824411392 -0.1766437590 0.5836163163 4288594466
-0.2833534777 -0.1765638143 0.5855014920 4288594466
-0.2825840116 -0.1754355729 0.5839114785 4288594466
-0.2830757499 -0.1750909537 0.5849276185 4288594725
-0.2831467390 -0.1744848192 0.5850743055 4288528932
-0.2836383879 -0.1741365939 0.5860902071 4288725799
-0.2837090790 -0.1735286415 0.5862362981 4288791592
-0.2837795615 -0.1729202420 0.5863819122 4288857640
-0.2838498354 -0.1723113805 0.5865271091 4288923433
-0.2839198709 -0.1717020720 0.5866718888 4288989224
-0.2839897275 -0.1710923165 0.5868161917 4288923431
-0.2840593457 -0.1704821140 0.5869600773 4289119017
-0.2841287851 -0.1698714644 0.5871034861 4289119017
-0.2837763131 -0.1690092385 0.5863752365 4289510186
-0.2834234238 -0.1681483686 0.5856460333 4291549769
-0.2834919989 -0.1675381958 0.5857877135 4292795477
-0.2835603356 -0.1669275761 0.5859289169 4292532305
-0.2836284637 -0.1663165241 0.5860697031 4292661585
-0.2836963832 -0.1657050252 0.5862100124 4292661585
-0.2837640643 -0.1650930792 0.5863499045 4292792403
-0.2838315368 -0.1644807011 0.5864893198 4292726610
-0.2838988006 -0.1638678908 0.5866283178 4292726612
-0.2839658260 -0.1632546484 0.5867668390 4292792405
-0.2840326428 -0.1626409739 0.5869048834 4292726610
-0.2840992510 -0.1620268524 0.5870425105 4292726610
-0.2841656208 -0.1614123136 0.5871796608 4292726610
-0.2842317820 -0.1607973427 0.5873163342 4292792403
-0.2842977047 -0.1601819396 0.5874525905 4292595802
-0.2843634188 -0.1595661044 0.5875883698 4292595802
-0.2844289243 -0.1589498520 0.5877236724 4292530261
-0.2840708196 -0.1580975503 0.5869837403 4292596054
-0.2841357589 -0.1574813724 0.5871179700 4292661587
-0.2842004895 -0.1568647623 0.5872516632 4292661587
-0.2842649817 -0.1562477350 0.5873849392 4292596303
-0.2843292356 -0.1556302756 0.5875177383 4292530510
-0.2848171294 -0.1552434266 0.5885258317 4292398924
-0.2848810256 -0.1546242237 0.5886579156 4292464717
-0.2849447131 -0.1540046036 0.5887895226 4292661587
-0.2850081623 -0.1533845663 0.5889206529 4292661587
-0.2850714028 -0.1527641267 0.5890513062 4292661334
-0.2855587006 -0.1523696631 0.5900582075 4292661334
-0.2856215835 -0.1517474651 0.5901881456 4292595802
-0.2856841981 -0.1511248499 0.5903175473 4292595802
-0.2853220403 -0.1502782106 0.5895691514 4292858196
-0.2853841186 -0.1496557146 0.5896974206 4292858196
-0.2854459584 -0.1490328163 0.5898252726 4292858196
-0.2855075896 -0.1484095007 0.5899525881 4292858196
-0.2855689526 -0.1477857977 0.5900794268 4292858196
-0.2856301069 -0.1471616775 0.5902057886 4292858196
-0.2856910527 -0.1465371698 0.5903316736 4292923989
-0.2857517302 -0.1459122598 0.5904570818 4292858196
-0.2858121991 -0.1452869475 0.5905820131 4292858196
-0.2858723998 -0.1446612477 0.5907064080 4292858196
-0.2859323919 -0.1440351456 0.5908303857 4292923989
-0.2859921455 -0.1434086412 0.5909538269 4292923989
-0.2860516608 -0.1427817643 0.5910768509 4292858196
-0.2865366936 -0.1423660219 0.5920791030 4292792403
-0.2865958214 -0.1417374313 0.5922012329 4292792403
-0.2866547108 -0.1411084384 0.5923229456 4292792403
-0.2867133617 -0.1404790580 0.5924441218 4292858199
-0.2867718041 -0.1398493052 0.5925648808 4292923992
-0.2868299782 -0.1392191648 0.5926850438 4292857945
-0.2868879139 -0.1385886371 0.5928047895 4292792152
-0.2869456112 -0.1379577219 0.5929239988 4292857945
-0.2870030701 -0.1373264343 0.5930427313 4292857945
-0.2870602906 -0.1366947740 0.5931609869 4292727129
-0.2871172428 -0.1360627264 0.5932787061 4292792922
-0.2871739864 -0.1354303062 0.5933959484 4292727127
-0.2872304916 -0.1347975135 0.5935126543 4292792920
-0.2872867286 -0.1341643482 0.5936288834 4292793175
-0.2873427272 -0.1335308105 0.5937446356 4292793175
-0.2882525921 -0.1332918406 0.5956246853 4292793173
-0.2883082628 -0.1326556802 0.5957397223 4292727380
-0.2883636951 -0.1320191473 0.5958542824 4292661839
-0.2884188890 -0.1313822567 0.5959683061 4292727632
-0.2884738445 -0.1307449937 0.5960818529 4292661585
-0.2885285616 -0.1301073730 0.5961948633 4292793171
-0.2885830104 -0.1294693947 0.5963073969 4292793173
-0.2886372209 -0.1288310438 0.5964193940 4292793173
-0.2886911631 -0.1281923354 0.5965309143 4292858713
-0.2887448668 -0.1275532842 0.5966418982 4292858713
-0.2887983322 -0.1269138604 0.5967523456 4292858715
-0.2888515592 -0.1262740940 0.5968623161 4292924508
-0.2889045179 -0.1256339699 0.5969717503 4293055326
-0.2889572382 -0.1249934882 0.5970807076 4293055326
-0.2890096903 -0.1243526638 0.5971890688 4293055326
-0.2894901335 -0.1238947660 0.5981818438 4292989533
-0.2895421684 -0.1232522875 0.5982893705 4292989531
-0.2895939648 -0.1226094738 0.5983964205 4292989531
-0.2896454930 -0.1219663098 0.5985028744 4292989531
-0.2896967828 -0.1213228106 0.5986088514 4293055324
-0.2897478044 -0.1206789613 0.5987142920 4292989531
-0.2897985876 -0.1200347766 0.5988191962 4292923738
-0.2898491025 -0.1193902567 0.5989235640 4292858715
-0.2898993790 -0.1187454015 0.5990274549 4292858715
-0.2899493873 -0.1181002110 0.5991308093 4292793435
-0.2899991274 -0.1174546853 0.5992335677 4292859228
-0.2904776931 -0.1169816181 0.6002224684 4292925021
-0.2905270159 -0.1163344756 0.6003243923 4292925021
-0.2905760705 -0.1156870052 0.6004257202 4292662878
-0.2906248569 -0.1150392070 0.6005265713 4292597085
-0.2906734049 -0.1143910810 0.6006268859 4292597085
-0.2907216847 -0.1137426347 0.6007266641 4292597085
-0.2907697260 -0.1130938604 0.6008259058 4292465756
-0.2908174992 -0.1124447659 0.6009246111 4292465756
-0.2908650041 -0.1117953584 0.6010227799 4292400733
-0.2909122407 -0.1111456305 0.6011204123 4292466526
-0.2909592390 -0.1104955897 0.6012174487 4292531039
-0.2910059392 -0.1098452285 0.6013140082 4292399453
-0.2910524309 -0.1091945544 0.6014100313 4292399453
-0.2910986245 -0.1085435748 0.6015055180 4292465246
-0.2911445796 -0.1078922898 0.6016004682 4292465246
-0.2911902368 -0.1072406918 0.6016948223 4292531039
-0.2912356555 -0.1065887883 0.6017886996 4292596834
-0.2912808061 -0.1059365794 0.6018819809 4292531041
-0.2917560339 -0.1054395810 0.6028639078 4292596834
-0.2922311127 -0.1049403548 0.6038455963 4292596834
-0.2922756076 -0.1042853147 0.6039375067 4292596834
-0.2923198342 -0.1036299765 0.6040289402 4292596834
-0.2923637927 -0.1029743478 0.6041197777 4292662627
-0.2924074829 -0.1023184136 0.6042100787 4292662627
-0.2924509346 -0.1016621888 0.6042997837 4292662373
-0.2920633256 -0.1008569226 0.6034988761 4292728166
-0.2925369740 -0.1003488749 0.6044776440 4292597859
-0.2925796211 -0.0996917784 0.6045657396 4292597859
-0.2926219702 -0.0990343988 0.6046532393 4292597859
-0.2926640809 -0.0983767360 0.6047402620 4292597859
-0.2927058935 -0.0977187902 0.6048266888 4292663654
-0.2927474380 -0.0970605612 0.6049125195 4292729447
-0.2927887440 -0.0964020565 0.6049978733 4292598374
-0.2932610214 -0.0958842784 0.6059737206 4292598374
-0.2937331498 -0.0953642800 0.6069493294 4292467047
-0.2937737405 -0.0947030038 0.6070331931 4292532840
-0.2933826447 -0.0939033628 0.6062250137 4292598633
-0.2938541472 -0.0933796316 0.6071993113 4292598633
-0.2938939035 -0.0927175432 0.6072815061 4292532842
-0.2939334214 -0.0920551792 0.6073631644 4292532842
-0.2944043279 -0.0915267617 0.6083362103 4292467819
-0.2944433689 -0.0908629000 0.6084168553 4292533612
-0.2944821119 -0.0901987702 0.6084969044 4292533871
-0.2945205867 -0.0895343795 0.6085764170 4292599664
-0.2945587635 -0.0888697356 0.6086553335 4292730738
-0.2945967019 -0.0882048309 0.6087336540 4292796531
-0.2946343422 -0.0875396654 0.6088114977 4293058935
-0.2951037884 -0.0870016366 0.6097815037 4293124728
-0.2955730557 -0.0864613950 0.6107511520 4293190519
-0.2956099808 -0.0857935250 0.6108275056 4293190519
-0.2956466377 -0.0851254016 0.6109032035 4292993393
-0.2956830263 -0.0844570398 0.6109783649 4293124979
-0.2961514592 -0.0839109197 0.6119462848 4293190257
-0.2961873114 -0.0832410827 0.6120204329 4293190257
-0.2962228954 -0.0825710073 0.6120939851 4293190257
-0.2966907024 -0.0820202529 0.6130605936 4293256050
-0.2967257798 -0.0813487172 0.6131330729 4293058671
-0.2967605889 -0.0806769431 0.6132050157 4292532327
-0.2972277701 -0.0801215619 0.6141703129 4290827112
-0.2976947427 -0.0795639828 0.6151352525 4290827112
-0.2977288067 -0.0788895488 0.6152056456 4290369383
-0.2973297834 -0.0781011954 0.6143811345 4289777246
-0.2973632216 -0.0774272829 0.6144502759 4286818105
-0.2973963916 -0.0767531469 0.6145187616 4287212863
-0.2974292636 -0.0760787800 0.6145867109 4288923218
-0.2970288992 -0.0752944350 0.6137593985 4289186390
-0.2970611453 -0.0746206120 0.6138260365 4289251678
-0.2970931232 -0.0739465654 0.6138921380 4289185885
-0.2979910970 -0.0734859258 0.6157476306 4288990290
-0.2980225980 -0.0728094876 0.6158127189 4289187669
-0.2984870374 -0.0722376779 0.6167724133 4289975404
-0.2985180318 -0.0715598240 0.6168364286 4291225471
-0.2854954004 -0.1986734420 0.5912843943 4292272100
-0.2855744660 -0.1980713308 0.5914481878 4290166968
-0.2856533527 -0.1974687278 0.5916115642 4289706417
-0.2857320607 -0.1968656182 0.5917745233 4289246867
-0.2853939235 -0.1959759295 0.5910742283 4288786316
-0.2854720950 -0.1953727007 0.5912361741 4288393564
-0.2847163677 -0.1942003220 0.5896709561 4288261978
-0.2839599550 -0.1930309683 0.5881044269 4288395573
-0.2840370834 -0.1924297959 0.5882641673 4288461366
-0.2836968303 -0.1915464550 0.5875594020 4288133917
-0.2833561301 -0.1906643808 0.5868538022 4288002331
-0.2830150127 -0.1897836030 0.5861473083 4287936283
-0.2830910087 -0.1891831309 0.5863047242 4287870490
-0.2827491462 -0.1883040369 0.5855966806 4287804699
-0.2828246355 -0.1877035052 0.5857530236 4287870492
-0.2824820578 -0.1868261099 0.5850434899 4287870490
-0.2817210555 -0.1856745332 0.5834674239 4287804697
-0.2817955911 -0.1850752085 0.5836217999 4287804697
-0.2814517319 -0.1842017174 0.5829096437 4287738904
-0.2811074555 -0.1833295375 0.5821965933 4287673111
-0.2807627320 -0.1824586540 0.5814827085 4287673111
-0.2808361650 -0.1818601340 0.5816347003 4287673113
-0.2809093595 -0.1812611222 0.5817863345 4287738906
-0.2805635929 -0.1803924143 0.5810702443 4287673113
-0.2806362808 -0.1797933728 0.5812208056 4287673113
-0.2807087600 -0.1791938692 0.5813708901 4287541786
-0.2807810605 -0.1785938889 0.5815206170 4287673372
-0.2812723219 -0.1782591194 0.5825380683 4287804701
-0.2813442945 -0.1776573211 0.5826870799 4287870494
-0.2818354368 -0.1773189455 0.5837043524 4288002080
-0.2819071114 -0.1767153293 0.5838527679 4288133666
-0.2819785774 -0.1761112511 0.5840007663 4288068384
-0.2820498347 -0.1755067259 0.5841483474 4288068384
-0.2825406790 -0.1751620024 0.5851649642 4288134177
-0.2826116383 -0.1745556593 0.5853118896 4288068384
-0.2826823592 -0.1739488542 0.5854583383 4288199459
-0.2827528715 -0.1733416021 0.5856043696 4288199459
-0.2828231752 -0.1727338880 0.5857499838 4288265250
-0.2828932703 -0.1721257269 0.5858951807 4288331043
-0.2833835781 -0.1717719585 0.5869106650 4288265761
-0.2834533453 -0.1711619943 0.5870551467 4288199968
-0.2835229039 -0.1705515683 0.5871992111 4288396587
-0.2831714749 -0.1696885675 0.5864713788 4288330794
-0.2832404971 -0.1690781564 0.5866143703 4288393253
-0.2833093107 -0.1684672982 0.5867568254 4290432836
-0.2833779156 -0.1678560078 0.5868989229 4291809873
-0.2830251157 -0.1669957489 0.5861682296 4291809873
-0.2830931544 -0.1663844734 0.5863091946 4292267348
-0.2827396393 -0.1655260772 0.5855770111 4292267348
-0.2828071415 -0.1649148315 0.5857168436 4292069971
-0.2832960188 -0.1645480096 0.5867293477 4292069971
-0.2833632231 -0.1639349759 0.5868684649 4292069971
-0.2834301889 -0.1633215100 0.5870071650 4292069971
-0.2834969163 -0.1627076119 0.5871453881 4291939153
-0.2835634351 -0.1620932817 0.5872831941 4291939153
-0.2836297452 -0.1614785194 0.5874205232 4291873871
-0.2836958468 -0.1608633250 0.5875573754 4291873871
-0.2837617099 -0.1602476984 0.5876937509 4292397394
-0.2838273346 -0.1596316546 0.5878297091 4292331601
-0.2838927507 -0.1590151638 0.5879651904 4292266062
-0.2835353911 -0.1581625491 0.5872250795 4292266062
-0.2836002707 -0.1575461477 0.5873594284 4292266061
-0.2836649120 -0.1569293141 0.5874933004 4292266061
-0.2837293446 -0.1563120484 0.5876267552 4292266313
-0.2837935388 -0.1556943804 0.5877597332 4292332106
-0.2838575244 -0.1550762802 0.5878922343 4292266313
-0.2839212716 -0.1544577777 0.5880242586 4292332106
-0.2839847803 -0.1538388580 0.5881558061 4292397647
-0.2844713926 -0.1534478515 0.5891636014 4292463440
-0.2845345736 -0.1528271735 0.5892944336 4292463187
-0.2845974863 -0.1522060931 0.5894247890 4292463187
-0.2846601903 -0.1515845805 0.5895546675 4292266580
-0.2847226858 -0.1509626806 0.5896840692 4292266580
-0.2847849131 -0.1503403485 0.5898129344 4292201296
-0.2848469317 -0.1497176290 0.5899413824 4292135503
-0.2849087119 -0.1490944922 0.5900693536 4292201295
-0.2849702835 -0.1484709531 0.5901968479 4292201295
-0.2850316167 -0.1478470117 0.5903238654 4292135245
-0.2850926816 -0.1472226679 0.5904503465 4292135245
-0.2851535380 -0.1465979218 0.5905764103 4292200783
-0.2852141857 -0.1459727734 0.5907019973 4292134990
-0.2852745652 -0.1453472376 0.5908270478 4292135245
-0.2853347361 -0.1447212845 0.5909516215 4292135245
-0.2853946388 -0.1440949589 0.5910757184 4292201036
-0.2854543328 -0.1434682310 0.5911993384 4292201036
-0.2855137885 -0.1428411007 0.5913224816 4292201036
-0.2859979570 -0.1424252242 0.5923252702 4292201036
-0.2860570252 -0.1417963803 0.5924475789 4292266831
-0.2861158550 -0.1411671638 0.5925694704 4292266831
-0.2857492268 -0.1403287202 0.5918101072 4292398162
-0.2858074903 -0.1396996677 0.5919308066 4292332369
-0.2858655453 -0.1390702128 0.5920509696 4292266578
-0.2859233320 -0.1384403855 0.5921706557 4292266578
-0.2859808803 -0.1378101707 0.5922898650 4292201298
-0.2860381901 -0.1371795833 0.5924085975 4292201298
-0.2860952616 -0.1365486234 0.5925267935 4292267089
-0.2861520946 -0.1359172761 0.5926444530 4292332882
-0.2866345942 -0.1354868710 0.5936437845 4292267089
-0.2871170044 -0.1350542158 0.5946428776 4292267089
-0.2871732712 -0.1344198585 0.5947594643 4292267089
-0.2872293293 -0.1337851435 0.5948755145 4292267089
-0.2872851193 -0.1331500411 0.5949910283 4292267088
-0.2873406410 -0.1325145811 0.5951060653 4292267088
-0.2873959541 -0.1318787485 0.5952206254 4292267342
-0.2878775001 -0.1314372718 0.5962179303 4292267342
-0.2879323661 -0.1307997704 0.5963315964 4292332882
-0.2879870236 -0.1301618963 0.5964447856 4292398675
-0.2880414128 -0.1295236647 0.5965574384 4292464468
-0.2880955637 -0.1288850754 0.5966695547 4292464468
-0.2881494761 -0.1282461286 0.5967811942 4292464468
-0.2882031202 -0.1276068240 0.5968923569 4292398675
-0.2882565260 -0.1269671470 0.5970029235 4292398677
-0.2883096933 -0.1263271272 0.5971130133 4292464470
-0.2883625925 -0.1256867498 0.5972226262 4292332884
-0.2884152532 -0.1250460297 0.5973317027 4292332884
-0.2884676754 -0.1244049519 0.5974402428 4292332884
-0.2885198295 -0.1237635240 0.5975482464 4292332884
-0.2889992297 -0.1233041584 0.5985411406 4292267091
-0.2890509665 -0.1226610914 0.5986483097 4292267091
-0.2891024649 -0.1220176741 0.5987549424 4292267091
-0.2891536951 -0.1213739142 0.5988610387 4292201298
-0.2892046571 -0.1207298189 0.5989665985 4292267091
-0.2892553806 -0.1200853810 0.5990716219 4292267091
-0.2893058360 -0.1194406077 0.5991761684 4292267091
-0.2893560529 -0.1187954918 0.5992801785 4292201298
-0.2894060314 -0.1181500480 0.5993835926 4292070223
-0.2894557118 -0.1175042614 0.5994865298 4292004430
-0.2899334431 -0.1170310155 0.6004759073 4291873358
-0.2899827063 -0.1163836196 0.6005779505 4291807565
-0.2900317013 -0.1157358885 0.6006794572 4292005457
-0.2900804579 -0.1150878295 0.6007804275 4291873871
-0.2901289463 -0.1144394502 0.6008808613 4291677262
-0.2901771665 -0.1137907431 0.6009807587 4291611469
-0.2902251482 -0.1131417155 0.6010801196 4291414603
-0.2902728617 -0.1124923602 0.6011789441 4291414603
-0.2903203368 -0.1118426919 0.6012772322 4291480653
-0.2903675437 -0.1111927032 0.6013749838 4291480653
-0.2904144824 -0.1105424017 0.6014721990 4291480393
-0.2904611528 -0.1098917872 0.6015688777 4291348807
-0.2905075550 -0.1092408523 0.6016650200 4291414341
-0.2905537188 -0.1085896119 0.6017606258 4291414341
-0.2905996144 -0.1079380587 0.6018556356 4291480134
-0.2906452417 -0.1072861999 0.6019501686 4291480134
-0.2906906307 -0.1066340283 0.6020441651 4291414600
-0.2907357216 -0.1059815586 0.6021375656 4291480393
-0.2912100852 -0.1054843664 0.6031199694 4291414602
-0.2916842997 -0.1049849465 0.6041021347 4291414602
-0.2917287648 -0.1043296382 0.6041942239 4291479882
-0.2917729616 -0.1036740392 0.6042857170 4291545675
-0.2913870811 -0.1028664187 0.6034865975 4291545675
-0.2914306819 -0.1022111848 0.6035768390 4291611468
-0.2914740145 -0.1015556678 0.6036666036 4291546188
-0.2915170491 -0.1008998528 0.6037557721 4291611981
-0.2919898927 -0.1003915966 0.6047350168 4291545422
-0.2920324802 -0.0997342393 0.6048232317 4291611215
-0.2920747995 -0.0990765914 0.6049108505 4291611215
-0.2921168506 -0.0984186605 0.6049979329 4291611215
-0.2921586335 -0.0977604464 0.6050844789 4291545937
-0.2922001481 -0.0971019492 0.6051704884 4291480144
-0.2922413647 -0.0964431763 0.6052559018 4291152208
-0.2927128077 -0.0959251896 0.6062322855 4291086415
-0.2931841016 -0.0954049826 0.6072083712 4290955856
-0.2932246625 -0.0947434306 0.6072923541 4291284821
-0.2928343117 -0.0939434618 0.6064838767 4291482714
-0.2933049500 -0.0934195146 0.6074586511 4291482714
-0.2933447063 -0.0927571505 0.6075409651 4291417180
-0.2933841646 -0.0920945182 0.6076226830 4291417180
-0.2938542366 -0.0915658846 0.6085962653 4291352157
-0.2938932180 -0.0909017473 0.6086769700 4291417950
-0.2939319313 -0.0902373418 0.6087571383 4291220319
-0.2939703465 -0.0895726830 0.6088367105 4291417698
-0.2940085232 -0.0889077634 0.6089157462 4291416417
-0.2940464020 -0.0882425830 0.6089942455 4291548003
-0.2945152223 -0.0877055600 0.6099652052 4292204906
-0.2945525944 -0.0870388895 0.6100426316 4292139113
-0.2950210273 -0.0864984319 0.6110127568 4291809889
-0.2950579226 -0.0858302861 0.6110891700 4291941475
-0.2950945497 -0.0851618871 0.6111649871 4292072030
-0.2951308787 -0.0844932422 0.6112402678 4292203616
-0.2955984473 -0.0839468986 0.6122086644 4292268896
-0.2956342995 -0.0832767859 0.6122828722 4292268896
-0.2956698537 -0.0826064274 0.6123565435 4292203103
-0.2961367965 -0.0820554420 0.6133236289 4292203103
-0.2961718440 -0.0813836306 0.6133962274 4292005983
-0.2966383994 -0.0808292329 0.6143624783 4291479639
-0.2966729403 -0.0801559612 0.6144340634 4289248071
-0.2971391082 -0.0795981511 0.6153994799 4289248071
-0.2971731126 -0.0789234340 0.6154699326 4288659535
-0.2972068489 -0.0782484859 0.6155397892 4288067398
-0.2968082726 -0.0774605572 0.6147143245 4285633833
-0.2968414128 -0.0767861381 0.6147829294 4286423349
-0.2968742549 -0.0761114955 0.6148509979 4288067394
-0.2969068289 -0.0754366219 0.6149184108 4288264773
-0.2965068817 -0.0746527091 0.6140900850 4288330065
-0.2965388298 -0.0739783794 0.6141562462 4288132686
-0.2974351346 -0.0735175535 0.6160125732 4287871555
-0.2974666059 -0.0728408247 0.6160777807 4287805762
-0.2979302108 -0.0722687766 0.6170379519 4288593491
-0.2979611754 -0.0715906397 0.6171020269 4290106730
-0.2841213346 -0.1981731057 0.5897952914 4292008922
-0.2842001021 -0.1975725591 0.5899587870 4290298805
-0.2842786610 -0.1969715059 0.5901219249 4289772461
-0.2843570411 -0.1963699609 0.5902845860 4289181073
-0.2840193808 -0.1954817176 0.5895836353 4288588936
-0.2836813033 -0.1945947260 0.5888818502 4288261211
-0.2833427787 -0.1937090009 0.5881791115 4287998039
-0.2830038369 -0.1928245574 0.5874755383 4287934519
-0.2826644778 -0.1919413954 0.5867710710 4288131898
-0.2823247015 -0.1910595000 0.5860657096 4287936036
-0.2819844782 -0.1901789010 0.5853595138 4287804450
-0.2820604742 -0.1895796061 0.5855172873 4287738403
-0.2821362913 -0.1889798194 0.5856745839 4287606817
-0.2817950249 -0.1881013066 0.5849661827 4287475485
-0.2818703055 -0.1875014454 0.5851225257 4287541278
-0.2815283239 -0.1866246313 0.5844125748 4287607322
-0.2816030979 -0.1860246956 0.5845677853 4287541529
-0.2804257572 -0.1846001893 0.5821238160 4287409939
-0.2809172273 -0.1842757910 0.5831440091 4287409939
-0.2801561356 -0.1831303686 0.5815641284 4287409939
-0.2802296579 -0.1825321019 0.5817167163 4287344146
-0.2798852324 -0.1816622317 0.5810018182 4287343896
-0.2799582481 -0.1810639203 0.5811533332 4287343896
-0.2800310850 -0.1804651320 0.5813044906 4287343898
-0.2805217505 -0.1801343411 0.5823230743 4287343898
-0.2805942595 -0.1795337349 0.5824735761 4287344148
-0.2806665599 -0.1789326668 0.5826237202 4287541527
-0.2807386816 -0.1783311367 0.5827733874 4287607068
-0.2812290490 -0.1779940128 0.5837913752 4287541275
-0.2817194462 -0.1776546240 0.5848093629 4287673376
-0.2813724577 -0.1767868251 0.5840889812 4287739169
-0.2818626463 -0.1764447242 0.5851065516 4287673372
-0.2819339335 -0.1758390814 0.5852545500 4287673372
-0.2820049822 -0.1752329916 0.5854020715 4287673113
-0.2824949920 -0.1748858988 0.5864192247 4287804699
-0.2825657427 -0.1742779911 0.5865660906 4287869979
-0.2826362848 -0.1736696213 0.5867125392 4287869979
-0.2827066183 -0.1730607897 0.5868585110 4287936287
-0.2827767134 -0.1724515110 0.5870040655 4288002080
-0.2828466296 -0.1718417704 0.5871492028 4288002337
-0.2829163373 -0.1712315977 0.5872938633 4288068130
-0.2829858065 -0.1706209630 0.5874381065 4288263458
-0.2830550671 -0.1700098813 0.5875818729 4288263458
-0.2831241190 -0.1693983376 0.5877252221 4288325403
-0.2831929624 -0.1687863618 0.5878680944 4290364986
-0.2828412950 -0.1679244190 0.5871381164 4291676230
-0.2829096019 -0.1673124582 0.5872799158 4291610437
-0.2829776704 -0.1667000651 0.5874212384 4291937096
-0.2830455601 -0.1660872102 0.5875621438 4291871303
-0.2831132114 -0.1654739380 0.5877025723 4292068169
-0.2827598453 -0.1646152437 0.5869690776 4292002376
-0.2828269601 -0.1640020013 0.5871083736 4291871303
-0.2833148241 -0.1636314541 0.5881211162 4291805510
-0.2833816111 -0.1630164236 0.5882597566 4291609412
-0.2834481597 -0.1624009460 0.5883978605 4291740998
-0.2835144997 -0.1617850512 0.5885356069 4291741509
-0.2835806012 -0.1611687094 0.5886728168 4291675716
-0.2836464942 -0.1605519503 0.5888096094 4291806280
-0.2837121487 -0.1599347591 0.5889459252 4291872073
-0.2833559513 -0.1590804160 0.5882064700 4292002889
-0.2834210694 -0.1584632844 0.5883416533 4292002889
