VERSION 0.7
FIELDS x y z rgba
SIZE 4 4 4 4
TYPE F F F U
COUNT 1 1 1 1
WIDTH 920
HEIGHT 1
VIEWPOINT 0.0 0.0 0.0 1.0 0.0 0.0 0.0
POINTS 920
DATA ascii
-0.3259030879 -0.1340728700 0.6438692808 4291614924
-0.3264050484 -0.1335628927 0.6448609829 4291943889
-0.3220524788 -0.1349056065 0.6376610994 4291811790
-0.3225536644 -0.1344059557 0.6386533976 4290760105
-0.3230547011 -0.1339040399 0.6396455169 4290233761
-0.3235556483 -0.1333998889 0.6406373382 4289839265
-0.3240564764 -0.1328934729 0.6416289806 4290891953
-0.3191557229 -0.1353941560 0.6333183050 4292799447
-0.3192139268 -0.1347150505 0.6334337592 4290959501
-0.3192718625 -0.1340355724 0.6335486770 4289775227
-0.3197717965 -0.1335404366 0.6345407367 4289645387
-0.3202716112 -0.1330430359 0.6355325580 4289513801
-0.3207713068 -0.1325433999 0.6365241408 4289710176
-0.3221559525 -0.1324052513 0.6392717957 4290828657
-0.3172074556 -0.1355657876 0.6308425665 4292668613
-0.3163831234 -0.1345143914 0.6292031407 4290760616
-0.3155581653 -0.1334663928 0.6275625825 4289644898
-0.3160569072 -0.1329789609 0.6285544038 4289710691
-0.3169970214 -0.1326740682 0.6304240227 4290106945
-0.3179371953 -0.1323650330 0.6322938204 4290106945
-0.3184357285 -0.1318689734 0.6332852840 4290171733
-0.3198176622 -0.1317345649 0.6360335350 4290829663
-0.3157038093 -0.1359209865 0.6292420626 4292797918
-0.3144408464 -0.1346808970 0.6267248392 4290498693
-0.3136176169 -0.1336337775 0.6250839829 4289577591
-0.3132343292 -0.1327767968 0.6243200898 4289843271
-0.3137319088 -0.1322929561 0.6253117919 4290106443
-0.3142293692 -0.1318068504 0.6263033152 4290304070
-0.3156083226 -0.1316863447 0.6290517449 4290369863
-0.3165465891 -0.1313768327 0.6309218407 4290236754
-0.3179258406 -0.1312452108 0.6336709261 4290828891
-0.3137632906 -0.1360816061 0.6267618537 4293325003
-0.3125028908 -0.1348413825 0.6242441535 4291088041
-0.3116813600 -0.1337951571 0.6226030588 4289773923
-0.3112989366 -0.1329400688 0.6218391061 4290168681
-0.3109160662 -0.1320865154 0.6210743189 4290565461
-0.3114124835 -0.1316062510 0.6220659614 4290302289
-0.3123487234 -0.1313086748 0.6239361167 4290500181
-0.3132849932 -0.1310069561 0.6258064508 4290565974
-0.3146614134 -0.1308841705 0.6285558939 4290236507
-0.3160380423 -0.1307553500 0.6313058138 4291026023
-0.3114466071 -0.1353771985 0.6235174537 4291877534
-0.3106269240 -0.1343299598 0.6218764782 4290166916
-0.3093678653 -0.1330973208 0.6193557978 4290431845
-0.3089858294 -0.1322456747 0.6185910106 4290958189
-0.3094813526 -0.1317693591 0.6195830107 4290827612
-0.3095377088 -0.1311048120 0.6196958423 4290827612
-0.3109112084 -0.1309949905 0.6224455833 4290894675
-0.3118457198 -0.1306950599 0.6243164539 4291026261
-0.3132195473 -0.1305741221 0.6270669103 4290564958
-0.3145935833 -0.1304471493 0.6298177838 4291486060
-0.3112667501 -0.1362944543 0.6245461106 4292140231
-0.3095733821 -0.1348628253 0.6211484075 4290692220
-0.3083170354 -0.1336281747 0.6186276078 4290889599
-0.3074979782 -0.1325876713 0.6169841886 4291745382
-0.3066783249 -0.1315505803 0.6153396368 4291679589
-0.3076108694 -0.1312648207 0.6172107458 4291550046
-0.3081052005 -0.1307889074 0.6182025671 4291484253
-0.3094761372 -0.1306809336 0.6209533215 4291091806
-0.3104088306 -0.1303827763 0.6228247881 4290894427
-0.3117801249 -0.1302637011 0.6255761385 4290959980
-0.3131515682 -0.1301385909 0.6283279657 4292144254
-0.3102104366 -0.1368284076 0.6238168478 4292797121
-0.3089576662 -0.1355855316 0.6212975979 4291152296
-0.3072670698 -0.1341570914 0.6178979278 4291152496
-0.3060127199 -0.1329256892 0.6153754592 4292007805
-0.3056321144 -0.1320774853 0.6146100760 4292666225
-0.3048137426 -0.1310427934 0.6129643917 4292732018
-0.3057444394 -0.1307597756 0.6148359179 4292141419
-0.3066751659 -0.1304726154 0.6167075634 4291680868
-0.3080435097 -0.1303665042 0.6194592714 4291156316
-0.3089744151 -0.1300701350 0.6213312745 4291222109
-0.3107808232 -0.1301362067 0.6249638796 4291485812
-0.3121497929 -0.1300120056 0.6277167797 4292735879
-0.3074688613 -0.1359227300 0.6196877360 4292072353
-0.3062179983 -0.1346840411 0.6171666980 4290756493
-0.3049663901 -0.1334506273 0.6146441698 4292007528
-0.3037140369 -0.1322225034 0.6121200919 4293257595
-0.3033338189 -0.1313777268 0.6113538146 4293782911
-0.3033897281 -0.1307225525 0.6114664674 4294111876
-0.3043186069 -0.1304413229 0.6133385897 4293192571
-0.3052475452 -0.1301559508 0.6152108312 4292468848
-0.3061765432 -0.1298664510 0.6170831323 4291418979
-0.3075424433 -0.1297571212 0.6198360324 4291616358
-0.3093454838 -0.1298251301 0.6234699488 4292339848
-0.3107118607 -0.1297027916 0.6262238622 4293589915
-0.3068531752 -0.1366435736 0.6198343635 4292403678
-0.3056051433 -0.1354019344 0.6173133850 4291939466
-0.3043563664 -0.1341655701 0.6147908568 4291544708
-0.3031068146 -0.1329344809 0.6122668386 4293058923
-0.3018565476 -0.1317086667 0.6097413301 4293914232
-0.3019124866 -0.1310554892 0.6098543406 4293979524
-0.3024039268 -0.1305901259 0.6108469963 4294308489
-0.3033310771 -0.1303097308 0.6127198339 4293849218
-0.3042583168 -0.1300252080 0.6145927906 4293257081
-0.3051855862 -0.1297365427 0.6164658666 4292009837
-0.3069850206 -0.1298125237 0.6201007366 4291944044
-0.3079125881 -0.1295136809 0.6219742894 4292733604
-0.3088401556 -0.1292107105 0.6238480210 4294180794
-0.3062366545 -0.1373645067 0.6199799180 4293061859
-0.3049914241 -0.1361199170 0.6174589992 4291482827
-0.3033109307 -0.1346876323 0.6140567660 4292136317
-0.3020641208 -0.1334545165 0.6115326285 4292728454
-0.3008165956 -0.1322266906 0.6090069413 4293650549
-0.3004378676 -0.1313844323 0.6082402468 4293847928
-0.3004936278 -0.1307328790 0.6083530784 4293781381
-0.3009840548 -0.1302692294 0.6093459725 4294044553
-0.3019094169 -0.1299906224 0.6112194061 4293980540
-0.3028348386 -0.1297078878 0.6130928993 4293783161
-0.3041954935 -0.1296064258 0.6158475876 4292995711
-0.3055563867 -0.1294989288 0.6186026931 4292469367
-0.3064821362 -0.1292018741 0.6204769015 4293127361
-0.3043768704 -0.1368379742 0.6176034808 4292469455
-0.3027000725 -0.1354017109 0.6142011285 4291087802
-0.3010223508 -0.1339726150 0.6107969284 4292531318
-0.3002113700 -0.1329348683 0.6091514230 4293649799
-0.2989659309 -0.1317093670 0.6066243052 4293913471
-0.2985877097 -0.1308695972 0.6058568358 4293781885
-0.2990772128 -0.1304098964 0.6068501472 4293978246
-0.3000007868 -0.1301362813 0.6087241173 4294044039
-0.3009244502 -0.1298585236 0.6105982661 4294111613
-0.3022824526 -0.1297630668 0.6133537889 4294243199
-0.3032062948 -0.1294761002 0.6152282953 4293850260
-0.3045646548 -0.1293695271 0.6179845333 4293126537
-0.3033287525 -0.1373601705 0.6168669462 4292600792
-0.3020883501 -0.1361158788 0.6143444180 4291745724
-0.3004143536 -0.1346828043 0.6109400392 4291153587
-0.2991723716 -0.1334500015 0.6084143519 4293320567
-0.2983627021 -0.1324146837 0.6067677140 4294044290
-0.2975524366 -0.1313827485 0.6051199436 4294044804
-0.2971747816 -0.1305445284 0.6043519378 4293913218
-0.2976633012 -0.1300865412 0.6053454280 4294175371
-0.2985850871 -0.1298147142 0.6072199941 4294306957
-0.2995069027 -0.1295387447 0.6090946794 4294308229
-0.3012958467 -0.1296316832 0.6127327681 4294702987
-0.3022179604 -0.1293455511 0.6146080494 4294046374
-0.3031401336 -0.1290552765 0.6164833903 4293783202
-0.3031451702 -0.1382743418 0.6178892851 4293061339
-0.3019077182 -0.1370261610 0.6153669953 4291942858
-0.3002374768 -0.1355881691 0.6119626760 4291153837
-0.2981342673 -0.1339631826 0.6076757312 4291417009
-0.2973264456 -0.1329268664 0.6060292125 4293715576
-0.2960858345 -0.1317016780 0.6035004854 4293978748
-0.2957091033 -0.1308644265 0.6027326584 4294175624
-0.2961967587 -0.1304094493 0.6037266254 4294109831
-0.2971168458 -0.1301416755 0.6056019664 4294306957
-0.2980369627 -0.1298697591 0.6074774265 4294372750
-0.2989571691 -0.1295936853 0.6093530059 4294307725
-0.3003101349 -0.1295000911 0.6121107340 4294768276
-0.3012305200 -0.1292147934 0.6139867306 4294242997
-0.3021509647 -0.1289253682 0.6158628464 4294440376
-0.3012934327 -0.1377415210 0.6155083776 4292993997
-0.2996269166 -0.1362995505 0.6121038795 4291809723
-0.2979594767 -0.1348647326 0.6086974740 4292465032
-0.2962911427 -0.1334370822 0.6052892804 4293254548
-0.2950532734 -0.1322098821 0.6027604342 4293782143
-0.2942460775 -0.1311803162 0.6011114120 4293782143
-0.2938698530 -0.1303455532 0.6003428698 4294240135
-0.2943564355 -0.1298932433 0.6013368964 4294240135
-0.2948429286 -0.1294386983 0.6023306847 4294503047
-0.2966246307 -0.1295475960 0.6059705019 4294832012
-0.2979748547 -0.1294609606 0.6087288857 4294439836
-0.2988933921 -0.1291815937 0.6106052995 4294505629
-0.2998180091 -0.1380607784 0.6138871312 4292864740
-0.2990155220 -0.1370109916 0.6122440100 4292401843
-0.2973518074 -0.1355722100 0.6088374853 4291809706
-0.2956871688 -0.1341405809 0.6054291129 4292991618
-0.2944521308 -0.1329104304 0.6029003263 4293583755
-0.2932163179 -0.1316855550 0.6003699899 4293782145
-0.2924104333 -0.1306584030 0.5987198949 4293782145
-0.2924654484 -0.1300176382 0.5988324881 4294174342
-0.2933818102 -0.1297575831 0.6007088423 4294240135
-0.2942982614 -0.1294934005 0.6025852561 4294700173
-0.2952147722 -0.1292250603 0.6044618487 4294963859
-0.2965624034 -0.1291403025 0.6072211266 4294570917
-0.2979102433 -0.1290494949 0.6099809408 4294636710
-0.2979739010 -0.1375243515 0.6115019321 4292402898
-0.2971727252 -0.1364769787 0.6098576784 4291940757
-0.2955118716 -0.1350404322 0.6064493656 4292072343
-0.2938501537 -0.1336110532 0.6030391455 4293649019
-0.2926171720 -0.1323832273 0.6005088687 4293977984
-0.2918132544 -0.1313541383 0.5988590121 4293847429
-0.2914386094 -0.1305209696 0.5980901718 4293847429
-0.2914934456 -0.1298809052 0.5982027650 4294174597
-0.2924081087 -0.1296216995 0.6000797749 4294371976
-0.2933228016 -0.1293583661 0.6019569039 4294832276
-0.2946677506 -0.1292796284 0.6047170162 4294964633
-0.2960129380 -0.1291948408 0.6074776053 4294571699
-0.2969279885 -0.1289171875 0.6093555093 4294703285
-0.2973617315 -0.1382349133 0.6116396785 4293126092
-0.2965624630 -0.1371856183 0.6099957228 4292007611
-0.2953340113 -0.1359424144 0.6074689031 4292072064
-0.2936760783 -0.1345081031 0.6040587425 4292598408
-0.2915883958 -0.1328855455 0.5997646451 4293977465
-0.2907863557 -0.1318554729 0.5981149077 4294109051
-0.2904126942 -0.1310223490 0.5973463058 4293781636
-0.2900386155 -0.1301907301 0.5965768695 4293781636
-0.2900932431 -0.1295523047 0.5966892838 4294306179
-0.2910060883 -0.1292949021 0.5985668898 4294503558
-0.2919189632 -0.1290333718 0.6004446149 4294767000
-0.2936906815 -0.1291453093 0.6040887833 4294964893
-0.2950333357 -0.1290614605 0.6068504453 4294571713
-0.2955237329 -0.1376950592 0.6092510223 4292664753
-0.2951535285 -0.1368464977 0.6084878445 4291743651
-0.2939272523 -0.1356046647 0.6059597135 4292728954
-0.2918443680 -0.1339752227 0.6016656160 4293386884
-0.2901884019 -0.1325503290 0.5982517004 4294109054
-0.2893877327 -0.1315217316 0.5966010094 4294174847
-0.2885864675 -0.1304965466 0.5949491858 4294044036
-0.2886411548 -0.1298601180 0.5950618982 4294044036
-0.2891238928 -0.1294150501 0.5960571170 4294503558
-0.2900349796 -0.1291585118 0.5979354382 4294700937
-0.2909461558 -0.1288978308 0.5998138785 4294636193
-0.2922859490 -0.1288218945 0.6025760174 4294965158
-0.2949127257 -0.1384027898 0.6093866825 4292994519
-0.2941167355 -0.1373539865 0.6077418923 4292269209
-0.2933201492 -0.1363085657 0.6060959101 4291874451
-0.2916689217 -0.1348716021 0.6026839018 4293255290
-0.2895896435 -0.1332452595 0.5983874798 4293913220
-0.2883636951 -0.1320191473 0.5958542824 4294240388
-0.2875643373 -0.1309929788 0.5942025185 4294306181
-0.2871917486 -0.1301639080 0.5934326053 4294306951
-0.2872461975 -0.1295291185 0.5935451388 4294241158
-0.2877279520 -0.1290857792 0.5945405960 4294700939
-0.2886372209 -0.1288310438 0.5964193940 4294898318
-0.2899742424 -0.1287620813 0.5991821885 4294636461
-0.2913115025 -0.1286870837 0.6019454002 4294965426
-0.2938749790 -0.1389092654 0.6086392403 4293389015
-0.2930808663 -0.1378594935 0.6069945097 4292270534
-0.2922861576 -0.1368130893 0.6053486466 4292136843
-0.2910647094 -0.1355715841 0.6028189659 4292465808
-0.2894163132 -0.1341378093 0.5994049311 4293780603
-0.2877669632 -0.1327111870 0.5959890485 4294175361
-0.2865431309 -0.1314874291 0.5934543610 4294175111
-0.2857450545 -0.1304636747 0.5918014646 4294306697
-0.2853729725 -0.1296371073 0.5910308361 4294503560
-0.2858537734 -0.1291977465 0.5920266509 4294569353
-0.2867612243 -0.1289480180 0.5939060450 4294767249
-0.2876687646 -0.1286941320 0.5957856178 4294964628
-0.2890032530 -0.1286261082 0.5985494256 4294571448
-0.2899110019 -0.1283629984 0.6004294753 4294966206
-0.2920459509 -0.1383630037 0.6062456965 4292993998
-0.2916783094 -0.1375160813 0.6054825187 4291809724
-0.2904597223 -0.1362716407 0.6029528975 4292399239
-0.2892403901 -0.1350324601 0.6004217267 4293254548
-0.2875948548 -0.1336009353 0.5970058441 4294174846
-0.2855229080 -0.1319798827 0.5927047729 4294240639
-0.2847267091 -0.1309551448 0.5910519958 4294175365
-0.2843556106 -0.1301286221 0.5902816653 4294241158
-0.2844098806 -0.1294974834 0.5903943181 4294503560
-0.2848897576 -0.1290588975 0.5913904309 4294635146
-0.2857954502 -0.1288100332 0.5932705402 4294898583
-0.2867012322 -0.1285570115 0.5951508284 4294964633
-0.2880331874 -0.1284899265 0.5979157090 4294571713
-0.2905877829 -0.1386620849 0.6046127677 4293125340
-0.2902210653 -0.1378161609 0.6038497090 4292335010
-0.2894295156 -0.1367712021 0.6022027731 4291677080
-0.2886373997 -0.1357296258 0.6005546451 4292926325
-0.2869956195 -0.1342941225 0.5971387029 4293715841
-0.2857775688 -0.1330635101 0.5946043134 4294044028
-0.2841340601 -0.1316414028 0.5911847353 4294241407
-0.2829144299 -0.1304223090 0.5886471272 4294241666
-0.2825438380 -0.1295983046 0.5878760815 4294110080
-0.2830227613 -0.1291636974 0.5888725519 4294699915
-0.2839266360 -0.1289198399 0.5907531977 4294831501
-0.2848306000 -0.1286718249 0.5926340222 4294505124
-0.2857346535 -0.1284196824 0.5945150256 4294768296
-0.2887665331 -0.1381121874 0.6022149920 4292401609
-0.2884002924 -0.1372687519 0.6014512181 4291874703
-0.2876100540 -0.1362262070 0.5998032093 4292072082
-0.2863955796 -0.1349873692 0.5972704291 4293517944
-0.2851803601 -0.1337537915 0.5947361588 4293978495
-0.2835405767 -0.1323277205 0.5913164020 4294174593
-0.2823238075 -0.1311056763 0.5887788534 4294306179
-0.2815302908 -0.1300848573 0.5871240497 4294241156
-0.2811602950 -0.1292624027 0.5863524079 4294372742
-0.2820623517 -0.1290235519 0.5882335901 4294700173
-0.2825402319 -0.1285874844 0.5892302394 4294963345
-0.2838667035 -0.1285334080 0.5919964910 4294505904
-0.2847689688 -0.1282821298 0.5938782096 4294769076
-0.2873147726 -0.1384041458 0.6005784869 4293388489
-0.2873720229 -0.1377643198 0.6006981730 4291875250
-0.2865836620 -0.1367207915 0.5990502834 4291874427
-0.2857947350 -0.1356806606 0.5974011421 4292861322
-0.2845823765 -0.1344441473 0.5948669314 4294044026
-0.2829463184 -0.1330140978 0.5914470553 4294175612
-0.2817324102 -0.1317891032 0.5889095664 4294306181
-0.2805177569 -0.1305694133 0.5863705277 4294371974
-0.2801487148 -0.1297470033 0.5855991840 4294306949
-0.2802025676 -0.1291211694 0.5857117176 4294504328
-0.2806795239 -0.1286890805 0.5867087245 4294701206
-0.2811563909 -0.1282547414 0.5877055526 4294898585
-0.2824802101 -0.1282025725 0.5904726982 4294506431
-0.2859230340 -0.1380542368 0.5990601182 4292598960
-0.2855582833 -0.1372133642 0.5982958674 4291414686
-0.2851930857 -0.1363739967 0.5975307822 4292597620
-0.2839835882 -0.1351345479 0.5949966311 4293518722
-0.2823512852 -0.1337005198 0.5915766358 4294372216
-0.2811402082 -0.1324725896 0.5890392065 4294372216
-0.2799283862 -0.1312499344 0.5865002871 4294634887
-0.2791381478 -0.1302296072 0.5848445296 4294634887
-0.2787697017 -0.1294087768 0.5840725899 4294504581
-0.2788233161 -0.1287845969 0.5841849446 4294636167
-0.2792992592 -0.1283542365 0.5851821303 4294701982
-0.2801977396 -0.1281148642 0.5870645642 4294833568
-0.2840559781 -0.1381354630 0.5965365171 4292796890
-0.2841129601 -0.1375002265 0.5966561437 4292006297
-0.2841696739 -0.1368646175 0.5967752337 4291677332
-0.2833839953 -0.1358249933 0.5951252580 4293583737
-0.2821765840 -0.1345878839 0.5925896168 4294044288
-0.2801259756 -0.1329561770 0.5882831812 4294372216
-0.2789169252 -0.1317315251 0.5857440829 4294372216
-0.2781285346 -0.1307102144 0.5840885043 4294503809
-0.2773396075 -0.1296923161 0.5824316740 4294635395
-0.2773932517 -0.1290701628 0.5825443268 4294570885
-0.2774466574 -0.1284476370 0.5826564431 4294768264
-0.2783432901 -0.1282132715 0.5845394731 4294702505
-0.2792400122 -0.1279747784 0.5864226222 4294834091
-0.2830333710 -0.1386218965 0.5957785249 4293257177
-0.2830904126 -0.1379877627 0.5958986282 4292270282
-0.2823070288 -0.1369456500 0.5942496657 4292005770
-0.2819432616 -0.1361097842 0.5934838653 4292597907
-0.2811588049 -0.1350735128 0.5918326378 4294109823
-0.2795330882 -0.1336387247 0.5884105563 4294109823
-0.2779064476 -0.1322111040 0.5849865079 4294371964
-0.2771199644 -0.1311888248 0.5833309889 4294437757
-0.2763328850 -0.1301699430 0.5816742182 4294372223
-0.2759659588 -0.1293516755 0.5809018016 4294503809
-0.2760193646 -0.1287311614 0.5810142756 4294570634
-0.2764934003 -0.1283055842 0.5820121169 4294965392
-0.2773882747 -0.1280720979 0.5838958025 4294571445
-0.2782832384 -0.1278344542 0.5857796669 4294834617
-0.2812306285 -0.1380617470 0.5933710933 4292796098
-0.2812873721 -0.1374301910 0.5934908390 4291809203
-0.2809245884 -0.1365943849 0.5927253366 4292466046
-0.2801420093 -0.1355571449 0.5910742283 4293255562
-0.2789393961 -0.1343213171 0.5885367990 4294306432
-0.2777360678 -0.1330907643 0.5859978795 4294306432
-0.2761123776 -0.1316654235 0.5825720429 4294503299
-0.2749074697 -0.1304464042 0.5800298452 4294437506
-0.2745414376 -0.1296291202 0.5792575479 4294372223
-0.2741750181 -0.1288133711 0.5784843564 4294635395
-0.2746480703 -0.1283917725 0.5794824958 4294766997
-0.2751210630 -0.1279679388 0.5804805160 4294965147
-0.2764342129 -0.1279306859 0.5832511187 4294506431
-0.2793754339 -0.1381296217 0.5908414125 4292863198
-0.2794320881 -0.1375010312 0.5909612179 4292269997
-0.2794885039 -0.1368720680 0.5910805464 4291546274
-0.2791262269 -0.1360387653 0.5903143287 4292992631
-0.2783449590 -0.1350039393 0.5886620879 4293716354
-0.2771444619 -0.1337704509 0.5861232281 4294437757
-0.2755245268 -0.1323411316 0.5826972127 4294306171
-0.2743224800 -0.1311191767 0.5801550746 4294569094
-0.2735386193 -0.1301017553 0.5784973502 4294503301
-0.2731731832 -0.1292860359 0.5777244568 4294569602
-0.2728073299 -0.1284718663 0.5769507289 4294898567
-0.2732793689 -0.1280520111 0.5779490471 4294898336
-0.2741705477 -0.1278253645 0.5798337460 4294964643
-0.2779988348 -0.1377726197 0.5893142819 4292402132
-0.2780552506 -0.1371456683 0.5894339085 4292071037
-0.2776938677 -0.1363133639 0.5886678100 4292465795
-0.2773320675 -0.1354825646 0.5879008770 4294304639
-0.2761343420 -0.1342470795 0.5853618979 4294567811
-0.2749359012 -0.1330168843 0.5828213692 4294503041
-0.2737367153 -0.1317919791 0.5802792907 4294503041
-0.2729548216 -0.1307726353 0.5786218047 4294372226
-0.2717542648 -0.1295573860 0.5760768056 4294503812
-0.2718074918 -0.1289425790 0.5761896372 4294504077
-0.2718604803 -0.1283273995 0.5763019919 4294767249
-0.2723315656 -0.1279083490 0.5773006082 4294637228
-0.2732209861 -0.1276825666 0.5791860223 4294834607
-0.2769849002 -0.1382479966 0.5885506272 4292731085
-0.2766247988 -0.1374152005 0.5877854824 4291546811
-0.2766809762 -0.1367899030 0.5879048705 4292333949
-0.2759034038 -0.1357540935 0.5862526298 4293255051
-0.2751252353 -0.1347216815 0.5845991373 4294436993
-0.2743465006 -0.1336926669 0.5829444528 4294700165
-0.2731502056 -0.1324648261 0.5804024935 4294437254
-0.2715360522 -0.1310409755 0.5769726634 4294437254
-0.2707553804 -0.1300250143 0.5753138661 4294437508
-0.2703914046 -0.1292118728 0.5745404959 4294634887
-0.2704444230 -0.1285987198 0.5746530890 4294701709
-0.2704971731 -0.1279852092 0.5747652054 4294965138
-0.2713847458 -0.1277644634 0.5766511559 4294768573
-0.2722724080 -0.1275395602 0.5785372853 4294965952
-0.2755563855 -0.1385124326 0.5869003534 4293126619
-0.2751971781 -0.1376806349 0.5861352682 4292204206
-0.2752533555 -0.1370573789 0.5862549543 4291348897
-0.2748934329 -0.1362276524 0.5854883790 4292991616
-0.2741171718 -0.1351942718 0.5838350058 4294044304
-0.2733403146 -0.1341642886 0.5821803808 4294569091
-0.2721467614 -0.1329344362 0.5796383023 4294569091
-0.2709524930 -0.1317098737 0.5770946741 4294371721
-0.2697575092 -0.1304906309 0.5745494366 4294371721
-0.2693945169 -0.1296775341 0.5737763643 4294503047
-0.2690311670 -0.1288659722 0.5730024576 4294766219
-0.2690839171 -0.1282544881 0.5731148720 4294833552
-0.2695530951 -0.1278402209 0.5741140842 4294965909
-0.2741306722 -0.1387727857 0.5852482319 4293323230
-0.2741871774 -0.1381510049 0.5853688717 4292665300
-0.2738285661 -0.1373207718 0.5846032500 4292137874
-0.2734695375 -0.1364920437 0.5838367343 4291940495
-0.2735251784 -0.1358709931 0.5839555264 4293780354
-0.2727502882 -0.1348391026 0.5823011994 4294438284
-0.2715596259 -0.1336063147 0.5797591805 4294175614
-0.2703681886 -0.1323788166 0.5772156119 4294241407
-0.2691760659 -0.1311566234 0.5746704936 4294306951
-0.2679831982 -0.1299397200 0.5721238256 4294241158
-0.2676207423 -0.1291291565 0.5713499784 4294568840
-0.2676735222 -0.1285196841 0.5714626908 4294897805
-0.2677260637 -0.1279098541 0.5715748668 4294834073
-0.2681941986 -0.1274973452 0.5725742579 4294965916
-0.2723504007 -0.1381992549 0.5828294754 4293125089
-0.2724065781 -0.1375800669 0.5829496980 4292072401
-0.2724625468 -0.1369604915 0.5830694437 4292400253
-0.2721040845 -0.1361333281 0.5823023915 4292926597
-0.2717452645 -0.1353076845 0.5815344453 4294240386
-0.2709716856 -0.1342782229 0.5798790455 4294437765
-0.2697831392 -0.1330477744 0.5773355365 4294044288
-0.2690083683 -0.1320260614 0.5756775141 4294175874
-0.2674038708 -0.1306027919 0.5722439289 4294307202
-0.2666277885 -0.1295897961 0.5705831051 4294372995
-0.2662659287 -0.1287808120 0.5698087215 4294700686
-0.2663184702 -0.1281730086 0.5699211955 4294963858
-0.2663708031 -0.1275648475 0.5700331330 4294637228
-0.2672528923 -0.1273518354 0.5719208121 4294900400
-0.2709313035 -0.1384524256 0.5811739564 4293192422
-0.2709874809 -0.1378352642 0.5812944174 4292730323
-0.2706302404 -0.1370085627 0.5805281401 4291677635
-0.2710991204 -0.1365998089 0.5815339684 4292597362
-0.2703279257 -0.1355669349 0.5798796415 4293452671
-0.2699695826 -0.1347437948 0.5791109800 4294306179
-0.2691973448 -0.1337167621 0.5774544477 4294371972
-0.2684245110 -0.1326931417 0.5757966638 4294175622
-0.2672374547 -0.1314694136 0.5732502937 4294241415
-0.2656359076 -0.1300484091 0.5698148608 4294569605
-0.2652750313 -0.1292394847 0.5690407157 4294635398
-0.2644998133 -0.1282314062 0.5673778057 4294767000
-0.2649660707 -0.1278259456 0.5683779716 4294964636
-0.2654322684 -0.1274182349 0.5693780184 4294506433
-0.2699833810 -0.1382975131 0.5805236697 4292665821
-0.2700394094 -0.1376810819 0.5806441307 4292203701
-0.2696828544 -0.1368549913 0.5798774362 4291874736
-0.2693258822 -0.1360304207 0.5791099072 4293123439
-0.2689685225 -0.1352073401 0.5783414841 4293847162
-0.2681981623 -0.1341793537 0.5766850710 4294371972
-0.2674272358 -0.1331547499 0.5750274062 4294569351
-0.2666557431 -0.1321335733 0.5733684897 4294438284
-0.2654708326 -0.1309121996 0.5708206892 4294372491
-0.2642851770 -0.1296961308 0.5682712793 4294700428
-0.2635118365 -0.1286870837 0.5666084290 4294897807
-0.2635641992 -0.1280829608 0.5667209625 4294767777
-0.2640294731 -0.1276783049 0.5677214861 4294899363
-0.2685690820 -0.1385455430 0.5788650513 4293060577
-0.2686251104 -0.1379311383 0.5789858103 4292007889
-0.2686809003 -0.1373163611 0.5791060328 4291809431
-0.2683249116 -0.1364918500 0.5783387423 4292269982
-0.2675569057 -0.1354604363 0.5766834021 4293583986
-0.2672000527 -0.1346398890 0.5759142637 4293912951
-0.2664310038 -0.1336143315 0.5742566586 4294437765
-0.2656613886 -0.1325921714 0.5725978613 4294700937
-0.2644792497 -0.1313688010 0.5700499415 4294504077
-0.2632963955 -0.1301507354 0.5675004721 4294372491
-0.2621128261 -0.1289379895 0.5649494529 4294897043
-0.2621651590 -0.1283359081 0.5650622249 4294963607
-0.2622172534 -0.1277334690 0.5651745200 4294768037
-0.2626815140 -0.1273305565 0.5661751628 4294899623
-0.2673414648 -0.1414519846 0.5776018500 4292140241
-0.2673984468 -0.1408402324 0.5777249336 4292601309
-0.2668032050 -0.1379648596 0.5764388442 4292994510
-0.2668588758 -0.1373530477 0.5765591860 4291941822
-0.2669143379 -0.1367408633 0.5766789913 4292727167
-0.2665588558 -0.1359188706 0.5759109855 4293516683
-0.2662029862 -0.1350983828 0.5751420856 4294108543
-0.2654358149 -0.1340718716 0.5734845996 4294240129
-0.2642571032 -0.1328421533 0.5709379315 4294569345
-0.2634887397 -0.1318233758 0.5692778826 4294635138
-0.2623086870 -0.1306033134 0.5667282939 4294438788
-0.2611278892 -0.1293885559 0.5641770959 4294504581
-0.2603576779 -0.1283819377 0.5625130534 4294505106
-0.2604097128 -0.1277824640 0.5626254678 4294702485
-0.2608729899 -0.1273835748 0.5636264086 4294636987
-0.2613362074 -0.1269824207 0.5646271706 4294834366
-0.2659321129 -0.1416846365 0.5759388804 4291154866
-0.2659890652 -0.1410749406 0.5760622025 4290036385
-0.2656365037 -0.1402487457 0.5752986670 4290365108
-0.2656929195 -0.1396392137 0.5754208565 4292075726
-0.2653955519 -0.1382056773 0.5747768283 4293127627
-0.2650415599 -0.1373835802 0.5740101933 4292534452
-0.2650969326 -0.1367743760 0.5741301179 4291942315
-0.2651520669 -0.1361647993 0.5742495060 4293188217
-0.2647970915 -0.1353453249 0.5734807253 4293911940
-0.2644416988 -0.1345273554 0.5727110505 4294240639
-0.2636758685 -0.1335032731 0.5710524321 4294306432
-0.2624993026 -0.1322759092 0.5685043335 4294635138
-0.2613220215 -0.1310538501 0.5659546852 4294700931
-0.2605543435 -0.1300418973 0.5642920732 4294504581
-0.2593757212 -0.1288295090 0.5617394447 4294636167
-0.2586068511 -0.1278253347 0.5600742698 4294571161
-0.2590691149 -0.1274304390 0.5610754490 4294768540
-0.2595313489 -0.1270332932 0.5620765090 4294505922
-0.2645256221 -0.1419131756 0.5742741823 4292338136
-0.2645825744 -0.1413055211 0.5743978024 4289380480
-0.2646392882 -0.1406974792 0.5745208859 4288656757
-0.2642872930 -0.1398728639 0.5737567544 4288984960
-0.2639349103 -0.1390497237 0.5729917288 4290629785
-0.2639907897 -0.1384423971 0.5731130242 4292996776
-0.2636376917 -0.1376213133 0.5723465085 4292470432
-0.2636930346 -0.1370141506 0.5724666715 4292270987
-0.2637481689 -0.1364066154 0.5725863576 4292270987
-0.2633940876 -0.1355881542 0.5718176365 4293780086
-0.2630395889 -0.1347711980 0.5710480809 4294306430
-0.2622755468 -0.1337471008 0.5693893433 4294306430
-0.2615109384 -0.1327264011 0.5677294731 4294240637
-0.2611551285 -0.1319158822 0.5669569373 4294503811
-0.2595706582 -0.1304894239 0.5635171533 4294569604
-0.2583948076 -0.1292750388 0.5609644055 4294504326
-0.2576278150 -0.1282698810 0.5592993498 4294701705
-0.2576796114 -0.1276741326 0.5594117641 4294702243
-0.2577311993 -0.1270780116 0.5595237613 4294833829
-0.2627147436 -0.1419175714 0.5717213750 4293128151
-0.2627715766 -0.1413128972 0.5718450546 4290364845
-0.2628281713 -0.1407078356 0.5719681978 4289118309
-0.2628845572 -0.1401023865 0.5720909238 4288657758
-0.2629407346 -0.1394965500 0.5722131729 4288789587
-0.2625889182 -0.1386749893 0.5714475513 4289973861
-0.2622367144 -0.1378549337 0.5706810951 4292273285
-0.2622920573 -0.1372498125 0.5708014965 4291812734
-0.2619391680 -0.1364318132 0.5700335503 4292205674
-0.2624020576 -0.1360384375 0.5710408688 4292666225
-0.2620485425 -0.1352215558 0.5702716112 4293977715
-0.2616946399 -0.1344061792 0.5695014596 4294372473
-0.2601153255 -0.1329661012 0.5660645366 4294175616
-0.2593519688 -0.1319487989 0.5644032955 4294109823
-0.2589965761 -0.1311417520 0.5636298656 4294306947
-0.2578235865 -0.1299244165 0.5610772371 4294438533
-0.2566498816 -0.1287124008 0.5585229993 4294635916
-0.2562929988 -0.1279137284 0.5577463508 4294767502
-0.2563445568 -0.1273196340 0.5578585863 4294505643
-0.2563959062 -0.1267251968 0.5579702854 4294703022
-0.2617782950 -0.1417543292 0.5710637569 4291419047
-0.2618349791 -0.1411503702 0.5711873770 4289116292
-0.2618914247 -0.1405460387 0.5713105202 4288593487
-0.2619476318 -0.1399413049 0.5714331865 4287475006
-0.2615967989 -0.1391198337 0.5706678629 4287540516
-0.2616524994 -0.1385152638 0.5707893372 4288658997
-0.2608939707 -0.1374813616 0.5691345930 4291220068
-0.2605419755 -0.1366643608 0.5683667064 4291220068
-0.2610039413 -0.1362740695 0.5693745017 4292599136
-0.2606513202 -0.1354582012 0.5686053038 4293388652
-0.2602983117 -0.1346438527 0.5678352118 4294109819
-0.2599449158 -0.1338309944 0.5670642853 4294372991
-0.2587760985 -0.1326020211 0.5645145178 4294306949
-0.2580141425 -0.1315862089 0.5628523231 4294306949
-0.2572516501 -0.1305738240 0.5611889958 4294504328
-0.2560808361 -0.1293588579 0.5586348772 4294701707
-0.2553171515 -0.1283542514 0.5569688678 4294899348
-0.2545529008 -0.1273530722 0.5553017259 4294965141
-0.2550121844 -0.1269647628 0.5563036203 4294374836
-0.2550633252 -0.1263719946 0.5564151406 4294572215
-0.2608428597 -0.1415908337 0.5704051256 4289841785
-0.2608993649 -0.1409876049 0.5705286860 4288986476
-0.2609556615 -0.1403839886 0.5706518292 4288066877
-0.2606057823 -0.1395625919 0.5698867440 4286224673
-0.2606615722 -0.1389591396 0.5700086951 4286486544
-0.2599048913 -0.1379242837 0.5683540702 4288262955
-0.2599600554 -0.1373219341 0.5684746504 4290890577
-0.2596087158 -0.1365055889 0.5677064061 4291548507
-0.2592569888 -0.1356907338 0.5669372082 4293059176
-0.2593113482 -0.1350891292 0.5670560598 4293848692
-0.2589589059 -0.1342763603 0.5662853718 4294176127
-0.2581994832 -0.1332552433 0.5646247268 4294307713
-0.2574395239 -0.1322375238 0.5629628301 4294306949
-0.2562722266 -0.1310152709 0.5604101419 4294438535
-0.2551041842 -0.1297983080 0.5578559637 4294570121
-0.2547493279 -0.1289988011 0.5570799708 4294833293
-0.2535800338 -0.1277905852 0.5545229912 4294834333
-0.2532242537 -0.1269960403 0.5537449718 4294900126
-0.2536824942 -0.1266094893 0.5547469854 4294310083
-0.2590423524 -0.1415867507 0.5678470135 4290562737
-0.2590987384 -0.1409865171 0.5679706335 4288921949
-0.2591549158 -0.1403858960 0.5680937767 4288592984
-0.2592108846 -0.1397848725 0.5682164431 4287343922
-0.2588615119 -0.1389659941 0.5674505830 4286225441
-0.2593221366 -0.1385816783 0.5684603453 4287538213
-0.2585668862 -0.1375483125 0.5668047667 4289446210
-0.2582164407 -0.1367329806 0.5660365224 4291416407
-0.2582710683 -0.1361328512 0.5661562681 4292469095
-0.2579199076 -0.1353195906 0.5653865337 4293717108
-0.2575683892 -0.1345078349 0.5646159649 4293980280
-0.2568107843 -0.1334867030 0.5629552007 4293979775
-0.2564584017 -0.1326789111 0.5621827245 4294045568
-0.2552938759 -0.1314546615 0.5596299767 4294372225
-0.2545346022 -0.1304437518 0.5579655766 4294503811
-0.2533687353 -0.1292291731 0.5554098487 4294766984
-0.2530143857 -0.1284322143 0.5546331406 4294964620
-0.2522534728 -0.1274315715 0.5529651046 4294703273
-0.2518982887 -0.1266386211 0.5521864891 4294703273
-0.2576504648 -0.1417987347 0.5661743283 4291419562
-0.2577068210 -0.1412005574 0.5662981272 4289051014
-0.2577629685 -0.1406019777 0.5664215088 4288528725
-0.2578188777 -0.1400030255 0.5665444136 4287541830
-0.2578746080 -0.1394036710 0.5666668415 4286028062
-0.2579301000 -0.1388039291 0.5667887926 4286291234
-0.2575809956 -0.1379871815 0.5660216808 4288656184
-0.2572315335 -0.1371719241 0.5652537346 4290366802
-0.2568816841 -0.1363581717 0.5644849539 4291810398
-0.2565314174 -0.1355459243 0.5637152791 4293060465
-0.2561807930 -0.1347351819 0.5629447699 4294046069
-0.2558297813 -0.1339259595 0.5621734262 4293914483
-0.2550734878 -0.1329072714 0.5605115294 4293783679
-0.2539116740 -0.1316819787 0.5579585433 4293915265
-0.2531541884 -0.1306710541 0.5562940240 4294438016
-0.2523961663 -0.1296635568 0.5546283126 4294569602
-0.2516376078 -0.1286594719 0.5529613495 4294963852
-0.2512837648 -0.1278650463 0.5521838665 4294964623
-0.2509295642 -0.1270721555 0.5514054894 4294703283
-0.2505749762 -0.1262808144 0.5506263375 4294834869
-0.2563178241 -0.1414104551 0.5646240115 4289710715
-0.2567770481 -0.1410353482 0.5656355619 4288526441
-0.2568330467 -0.1404374987 0.5657588840 4288330817
-0.2564855218 -0.1396197230 0.5649933815 4286422820
-0.2565409839 -0.1390220374 0.5651155710 4286223636
-0.2565962374 -0.1384239644 0.5652372837 4287276324
-0.2562477589 -0.1376087964 0.5644695759 4290036043
-0.2558988631 -0.1367951185 0.5637010336 4291286110
-0.2551458776 -0.1357681304 0.5620423555 4292665699
-0.2547961175 -0.1349584162 0.5612719059 4293521008
-0.2544459999 -0.1341502070 0.5605006218 4294046071
-0.2540954649 -0.1333435029 0.5597285032 4294177657
-0.2533405125 -0.1323272735 0.5580654740 4294437759
-0.2521808743 -0.1311043352 0.5555109978 4294437759
-0.2514247298 -0.1300958693 0.5538453460 4294503301
-0.2506680489 -0.1290908307 0.5521785021 4294700680
-0.2503152192 -0.1282964647 0.5514011979 4294635926
-0.2499619722 -0.1275036484 0.5506231189 4294833305
-0.2500129342 -0.1269177198 0.5507353544 4294441150
-0.2496590167 -0.1261270344 0.5499557853 4294704322
-0.2553339303 -0.1418395936 0.5638360977 4290957006
-0.2553900778 -0.1412441880 0.5639600754 4288658276
-0.2554460168 -0.1406483948 0.5640836358 4288658276
-0.2559041381 -0.1402727664 0.5650952458 4288132920
-0.2555572987 -0.1394556314 0.5643293262 4286948646
-0.2552100718 -0.1386400014 0.5635625720 4286748698
-0.2552650869 -0.1380435824 0.5636840463 4288722488
-0.2549171746 -0.1372299939 0.5629158020 4291022162
-0.2545688450 -0.1364179105 0.5621466637 4292206436
-0.2538172901 -0.1353924125 0.5604869723 4293257319
-0.2530651689 -0.1343703270 0.5588261485 4293915249
-0.2527155280 -0.1335646361 0.5580540895 4294177404
-0.2519623935 -0.1325483918 0.5563909411 4294045818
-0.2512086928 -0.1315355599 0.5547266006 4294503552
-0.2504544258 -0.1305261403 0.5530610085 4294503552
-0.2496996224 -0.1295201331 0.5513942838 4294503812
-0.2493477613 -0.1287258416 0.5506172776 4294766984
-0.2485919446 -0.1277257353 0.5489482284 4294701982
-0.2486428767 -0.1271418482 0.5490607023 4294767775
-0.2540060878 -0.1414488852 0.5622829795 4289641647
-0.2540619969 -0.1408551484 0.5624067187 4288593750
-0.2541176975 -0.1402610242 0.5625300407 4289317473
-0.2545747161 -0.1398871392 0.5635417700 4288001587
-0.2542284727 -0.1390715986 0.5627752542 4286619934
-0.2542835474 -0.1384762973 0.5628971457 4287997741
-0.2539365888 -0.1376627982 0.5621291399 4290168910
-0.2535892725 -0.1368507892 0.5613602400 4291942486
-0.2528395653 -0.1358243525 0.5597007275 4293060967
-0.2520893216 -0.1348012984 0.5580399632 4293651564
-0.2513385415 -0.1337816566 0.5563779473 4293914736
-0.2509894073 -0.1329784989 0.5556051135 4294242686
-0.2502376139 -0.1319647133 0.5539408326 4294111100
-0.2494852394 -0.1309543252 0.5522753596 4294503811
-0.2487323284 -0.1299473643 0.5506086946 4294503811
-0.2479788661 -0.1289438158 0.5489407778 4294504326
-0.2476275116 -0.1281520724 0.5481629968 4294833291
-0.2472757846 -0.1273618490 0.5473843813 4294834091
-0.2473264784 -0.1267796606 0.5474966168 4294834091
-0.2530254126 -0.1418739110 0.5614926219 4290630060
-0.2530813813 -0.1412813067 0.5616167784 4288919442
-0.2527365983 -0.1404656768 0.5608516932 4288923469
-0.2531926632 -0.1400948912 0.5618637800 4289120848
-0.2532480061 -0.1395010948 0.5619865656 4288132914
-0.2529023290 -0.1386871338 0.5612194538 4286553882
-0.2529571652 -0.1380935013 0.5613411069 4289576259
-0.2526108027 -0.1372815818 0.5605725050 4291221084
-0.2518630028 -0.1362542063 0.5589130521 4292533592
-0.2511146367 -0.1352302134 0.5572524071 4293717866
-0.2507669628 -0.1344246864 0.5564808249 4294044788
-0.2496162802 -0.1331924051 0.5539273620 4294110581
-0.2488662601 -0.1321786046 0.5522629619 4294241916
-0.2481157035 -0.1311682016 0.5505974293 4294439295
-0.2477661669 -0.1303725243 0.5498217344 4294503811
-0.2470145971 -0.1293680221 0.5481538773 4294635397
-0.2466642112 -0.1285763383 0.5473763943 4294636427
-0.2463134527 -0.1277861893 0.5465980172 4294899599
-0.2459623218 -0.1269975901 0.5458188057 4294703031
-0.2460127920 -0.1264170706 0.5459308028 4294900410
-0.2512470186 -0.1418458372 0.5589237213 4291418325
-0.2517023683 -0.1414807886 0.5599367023 4289053563
-0.2517580986 -0.1408898383 0.5600606203 4288198254
-0.2514138818 -0.1400758028 0.5592949390 4288397626
-0.2514691055 -0.1394850016 0.5594177842 4288200247
-0.2519239783 -0.1391146332 0.5604296923 4288591929
-0.2515788972 -0.1383022517 0.5596619844 4288328757
-0.2512334287 -0.1374913603 0.5588934422 4290825296
-0.2508875430 -0.1366819739 0.5581240654 4291877984
-0.2497408688 -0.1354399770 0.5555731654 4293191265
-0.2493940741 -0.1346354783 0.5548016429 4294046574
-0.2486464977 -0.1336173266 0.5531386137 4294175873
-0.2478983849 -0.1326025724 0.5514743328 4294439045
-0.2467491478 -0.1313779503 0.5489177704 4294373755
-0.2464004904 -0.1305832863 0.5481421351 4294571134
-0.2456507236 -0.1295787692 0.5464742184 4294503811
-0.2453012317 -0.1287881136 0.5456967354 4294766983
-0.2449513674 -0.1279989779 0.5449184179 4294571410
-0.2446011305 -0.1272113919 0.5441392660 4294702996
-0.2446515709 -0.1266329288 0.5442515016 4294506431
-0.2503263652 -0.1416761130 0.5582549572 4289971639
-0.2503820360 -0.1410872191 0.5583791137 4288133714
-0.2504374981 -0.1404979378 0.5585027933 4287804749
-0.2504927516 -0.1399082690 0.5586260557 4288002607
-0.2505477965 -0.1393182129 0.5587487817 4288002607
-0.2502036095 -0.1385068595 0.5579811931 4288854590
-0.2502581477 -0.1379169524 0.5581028461 4289644106
-0.2495140433 -0.1368886381 0.5564433932 4291351127
-0.2491686791 -0.1360817701 0.5556732416 4292338022
-0.2480241507 -0.1348421425 0.5531207919 4293651564
-0.2472783923 -0.1338239759 0.5514576435 4293980529
-0.2469316423 -0.1330244690 0.5506843328 4294241156
-0.2457852066 -0.1317978650 0.5481277108 4294767500
-0.2450377941 -0.1307899207 0.5464608669 4294570622
-0.2442898303 -0.1297853887 0.5447928309 4294570622
-0.2439412326 -0.1289957464 0.5440154076 4294504328
-0.2435922474 -0.1282076389 0.5432371497 4294767500
-0.2432429045 -0.1274210513 0.5424580574 4294506145
-0.2432933301 -0.1268446445 0.5425705314 4294571938
-0.2493510395 -0.1420939118 0.5574606657 4291223226
-0.2490089685 -0.1412804574 0.5566959381 4288788885
-0.2490644008 -0.1406932473 0.5568198562 4287871549
-0.2491196245 -0.1401056349 0.5569432974 4287805756
-0.2491746247 -0.1395176202 0.5570662618 4288133425
-0.2492294312 -0.1389292330 0.5571888089 4288330804
-0.2488858104 -0.1381194592 0.5564205647 4289314112
-0.2485418022 -0.1373111904 0.5556514859 4290235214
-0.2477990389 -0.1362853050 0.5539909601 4292008028
-0.2474541813 -0.1354809850 0.5532199740 4292994923
-0.2467103899 -0.1344609410 0.5515571237 4293848431
-0.2455673963 -0.1332280040 0.5490017533 4293980017
-0.2452211529 -0.1324310303 0.5482276678 4294372740
-0.2440768927 -0.1312068105 0.5456695557 4294635912
-0.2433308214 -0.1302013248 0.5440015793 4294701188
-0.2429831922 -0.1294117570 0.5432243943 4294766981
-0.2422361225 -0.1284121573 0.5415542126 4294636175
-0.2418876588 -0.1276265979 0.5407751799 4294767761
-0.2415388227 -0.1268425733 0.5399953127 4294375088
-0.2415889502 -0.1262687892 0.5401073694 4294572467
-0.2480357885 -0.1416962445 0.5559005737 4289513364
-0.2480912507 -0.1411101520 0.5560248494 4288000125
-0.2477494776 -0.1402988285 0.5552588701 4287739696
-0.2478044480 -0.1397128850 0.5553820729 4287937075
-0.2478592098 -0.1391265541 0.5555047989 4288067121
-0.2479137778 -0.1385398358 0.5556271076 4288461879
-0.2475707382 -0.1377316564 0.5548582673 4290103370
-0.2472273260 -0.1369249821 0.5540886521 4291024472
-0.2464859635 -0.1359006017 0.5524271131 4292600167
-0.2457440645 -0.1348796040 0.5507643223 4293455476
-0.2450016141 -0.1338620186 0.5491003394 4293914224
-0.2442586124 -0.1328478158 0.5474351048 4294111603
-0.2435150594 -0.1318370253 0.5457686186 4294898821
-0.2427709550 -0.1308296472 0.5441009998 4294635649
-0.2416282445 -0.1296121478 0.5415399075 4294700680
-0.2424755991 -0.1294628680 0.5434390306 4294964109
-0.2413318902 -0.1282512695 0.5408757329 4294833301
-0.2405857891 -0.1272556782 0.5392035246 4294767508
-0.2406359613 -0.1266829967 0.5393159986 4294309305
-0.2406859398 -0.1261099577 0.5394279957 4294638270
-0.2466678172 -0.1418821961 0.5542142391 4290824395
-0.2467232496 -0.1412981600 0.5543387532 4287805287
-0.2467784584 -0.1407137364 0.5544628501 4287147357
-0.2464372814 -0.1399039924 0.5536962748 4287476011
-0.2464919984 -0.1393197328 0.5538191795 4287739183
-0.2465465218 -0.1387350708 0.5539416671 4288788530
-0.2462043613 -0.1379279196 0.5531729460 4289709632
-0.2466549277 -0.1375645995 0.5541852713 4291285335
-0.2455189228 -0.1363181174 0.5516328812 4292272230
-0.2447789013 -0.1352961808 0.5499702096 4293257319
-0.2444351465 -0.1344959885 0.5491978526 4293915249
-0.2436941266 -0.1334798932 0.5475329161 4294110581
-0.2421585768 -0.1320343167 0.5440828800 4294044788
-0.2430045605 -0.1318889409 0.5459836125 4294241920
-0.2418649048 -0.1306666285 0.5434230566 4294570885
-0.2411217839 -0.1296632290 0.5417534113 4294439564
-0.2407754362 -0.1288759261 0.5409752131 4294834322
-0.2404287308 -0.1280901432 0.5401961803 4294833050
-0.2400816381 -0.1273058951 0.5394163728 4294833050
-0.2457533628 -0.1417098343 0.5535409451 4289574841
-0.2458086312 -0.1411265284 0.5536654592 4287279444
-0.2458636910 -0.1405428499 0.5537894368 4286687307
-0.2455231696 -0.1397337466 0.5530224442 4287147305
-0.2455777377 -0.1391502172 0.5531453490 4287213098
-0.2456320822 -0.1385663003 0.5532677770 4288723509
-0.2456862330 -0.1379819810 0.5533897877 4290302541
-0.2449487597 -0.1369547993 0.5517286658 4291877984
-0.2442107201 -0.1359309852 0.5500662923 4292799086
-0.2430762351 -0.1346911937 0.5475109220 4293849971
-0.2439209223 -0.1345487982 0.5494135022 4293718385
-0.2423893660 -0.1330973804 0.5459638238 4293716595
-0.2420453727 -0.1323027462 0.5451889634 4294111353
-0.2413047552 -0.1312940419 0.5435208082 4294308481
-0.2405636162 -0.1302887350 0.5418514609 4294440067
-0.2402183264 -0.1295005679 0.5410737395 4294439823
-0.2398726642 -0.1287139058 0.5402951241 4294768788
-0.2395266294 -0.1279287934 0.5395157337 4294767524
-0.2387835830 -0.1269343495 0.5378420353 4294833317
-0.2443904877 -0.1418905258 0.5518517494 4291219666
-0.2444456965 -0.1413092911 0.5519764423 4287995809
-0.2445007116 -0.1407276690 0.5521006584 4286095926
-0.2445555180 -0.1401456594 0.5522243977 4285240617
-0.2446101159 -0.1395632476 0.5523477197 4285370895
-0.2442699075 -0.1387562901 0.5515794754 4286884134
-0.2443240136 -0.1381740570 0.5517016649 4289579079
-0.2435883284 -0.1371468604 0.5500404239 4290105423
-0.2444316149 -0.1370084137 0.5519446135 4290629198
-0.2429052442 -0.1355434209 0.5484979749 4291879265
-0.2425631434 -0.1347439587 0.5477254391 4292994923
-0.2422206551 -0.1339460164 0.5469521284 4293521267
-0.2414825708 -0.1329320073 0.5452854633 4294243710
-0.2407439500 -0.1319214106 0.5436176062 4294506882
-0.2404001653 -0.1311298907 0.5428413153 4294177152
-0.2396605462 -0.1301251799 0.5411711931 4294374531
-0.2393159419 -0.1293376535 0.5403930545 4294571669
-0.2385753244 -0.1283388287 0.5387206674 4294703255
-0.2382298857 -0.1275553107 0.5379406810 4294702772
-0.2378840894 -0.1267733425 0.5371598005 4294834358
-0.2430858165 -0.1414878964 0.5502858162 4290495943
-0.2431407720 -0.1409083307 0.5504102111 4287272086
-0.2431955338 -0.1403283924 0.5505341887 4285108762
-0.2432500869 -0.1397480518 0.5506576896 4284516625
-0.2433044463 -0.1391673237 0.5507807136 4285107471
-0.2429648042 -0.1383619457 0.5500118732 4287476019
-0.2430186719 -0.1377813816 0.5501338243 4288855103
-0.2430723310 -0.1372004300 0.5502552986 4287276071
-0.2427317500 -0.1363976747 0.5494842529 4287076890
-0.2419966459 -0.1353759468 0.5478202105 4287866406
-0.2412610054 -0.1343575865 0.5461549163 4289574463
-0.2417077273 -0.1339984238 0.5471661687 4290956116
-0.2405768633 -0.1327663958 0.5446061492 4292599916
-0.2398397475 -0.1317563802 0.5429375172 4293389432
-0.2391020954 -0.1307497621 0.5412676930 4293717884
-0.2387585491 -0.1299613714 0.5404899716 4294310021
-0.2380198985 -0.1289606392 0.5388178229 4294572190
-0.2376755327 -0.1281762570 0.5380382538 4294769569
-0.2369358987 -0.1271814406 0.5363638997 4294571715
-0.2421213835 -0.1418922842 0.5494841337 4291417045
-0.2421763837 -0.1413138658 0.5496089458 4289969086
-0.2422311753 -0.1407350451 0.5497332811 4287403159
-0.2418930829 -0.1399286687 0.5489660501 4285107989
-0.2419473976 -0.1393500119 0.5490892529 4284515852
-0.2420015037 -0.1387709677 0.5492120385 4286028062
-0.2420554012 -0.1381915212 0.5493344069 4286883371
-0.2421091050 -0.1376117021 0.5494562984 4285697557
-0.2417694926 -0.1368090361 0.5486855507 4285500178
-0.2422159016 -0.1364508867 0.5496986508 4287406370
-0.2410891205 -0.1352082044 0.5471414328 4288195886
-0.2407483757 -0.1344100535 0.5463681221 4288851771
-0.2404072583 -0.1336134225 0.5455939770 4288983357
-0.2396722138 -0.1326005459 0.5439258218 4289771080
-0.2389366329 -0.1315910965 0.5422564745 4291284319
-0.2382005006 -0.1305850595 0.5405858755 4293191801
-0.2374638319 -0.1295824349 0.5389140248 4294376075
-0.2371205091 -0.1287971884 0.5381348729 4294374308
-0.2363828570 -0.1278004646 0.5364608169 4294637480
-0.2408216149 -0.1414872110 0.5479154587 4290693322
-0.2408763468 -0.1409104615 0.5480399728 4289113777
-0.2409309000 -0.1403333098 0.5481640697 4287337366
-0.2409852445 -0.1397557855 0.5482877493 4285370142
-0.2410393804 -0.1391778588 0.5484108925 4284646419
-0.2410933375 -0.1385995448 0.5485336781 4286620202
-0.2411470711 -0.1380208433 0.5486559272 4287080753
-0.2412006259 -0.1374417543 0.5487777591 4287013676
-0.2412539572 -0.1368622929 0.5488991141 4288790087
-0.2409147322 -0.1360608339 0.5481272936 4290696280
-0.2405751199 -0.1352608949 0.5473546386 4291354210
-0.2398426086 -0.1342427433 0.5456880331 4291154786
-0.2398947924 -0.1336655170 0.5458067656 4290431063
-0.2391613573 -0.1326522827 0.5441380739 4289574475
-0.2380345911 -0.1314255893 0.5415744185 4289508682
-0.2376928627 -0.1306360513 0.5407969356 4291810414
-0.2369578034 -0.1296330541 0.5391245484 4294244755
-0.2362222075 -0.1286334842 0.5374509096 4294440111
-0.2350929528 -0.1274242550 0.5348816514 4294505904
-0.2398605496 -0.1418874562 0.5471113920 4291417045
-0.2399153262 -0.1413118392 0.5472363234 4289772220
-0.2399699092 -0.1407358348 0.5473608375 4287798429
-0.2400242835 -0.1401594281 0.5474848747 4286416776
-0.2400784791 -0.1395826340 0.5476084352 4284974623
-0.2401324511 -0.1390054524 0.5477315784 4285895725
-0.2401862442 -0.1384278834 0.5478542447 4287804476
-0.2402398288 -0.1378499269 0.5479764938 4288462406
-0.2399018556 -0.1370480061 0.5472055674 4289119565
-0.2399549484 -0.1364702135 0.5473266840 4290040667
-0.2396163046 -0.1356703639 0.5465542674 4290697057
-0.2396689206 -0.1350927651 0.5466742516 4291420780
-0.2389379144 -0.1340751797 0.5450068712 4291616368
-0.2389899492 -0.1334986985 0.5451256037 4291550575
-0.2382580340 -0.1324860454 0.5434561372 4290628193
-0.2371336222 -0.1312598288 0.5408914089 4288851782
-0.2364005595 -0.1302549392 0.5392192602 4290231903
-0.2356669456 -0.1292534769 0.5375459194 4293653139
-0.2349327952 -0.1282554269 0.5358713865 4294703550
-0.2341981083 -0.1272608191 0.5341956019 4294769343
-0.2385656983 -0.1414799243 0.5455399752 4290825165
-0.2386202216 -0.1409059912 0.5456646085 4288917168
-0.2386745512 -0.1403316557 0.5457888842 4286745741
-0.2387286872 -0.1397569329 0.5459126234 4285561467
-0.2387826145 -0.1391818225 0.5460359454 4286026807
-0.2388363481 -0.1386063248 0.5461588502 4287869011
-0.2388898879 -0.1380304247 0.5462812781 4288462665
-0.2389432192 -0.1374541521 0.5464032292 4288923216
-0.2389963567 -0.1368774921 0.5465247631 4289777495
-0.2386586815 -0.1360777318 0.5457525849 4290238046
