VERSION 0.7
FIELDS x y z rgba
SIZE 4 4 4 4
TYPE F F F U
COUNT 1 1 1 1
WIDTH 920
HEIGHT 1
VIEWPOINT 0.0 0.0 0.0 1.0 0.0 0.0 0.0
POINTS 920
DATA ascii
-0.3020027578 -0.1561502218 0.6073116660 4287600927
-0.3020683229 -0.1555092037 0.6074435115 4285758723
-0.3025677502 -0.1550902873 0.6084478498 4286946344
-0.3030671179 -0.1546691060 0.6094520092 4288459583
-0.3040007353 -0.1544663310 0.6113294363 4290301831
-0.3049344718 -0.1542594582 0.6132071614 4293130930
-0.3087905943 -0.1731553227 0.6223516464 4292797415
-0.3088625968 -0.1725040674 0.6224967837 4292073167
-0.3089343607 -0.1718523502 0.6226413846 4290625721
-0.3090058863 -0.1712001711 0.6227855682 4289112721
-0.3090771735 -0.1705475450 0.6229292154 4288125826
-0.3087164462 -0.1696571857 0.6222022176 4287991914
-0.3083553016 -0.1687682122 0.6214743257 4287597156
-0.3079936802 -0.1678806096 0.6207455397 4289440121
-0.3076316416 -0.1669943780 0.6200158596 4291611290
-0.3068370223 -0.1658759117 0.6184142828 4291216003
-0.3060417473 -0.1647606790 0.6168114543 4290887038
-0.3048134744 -0.1634168625 0.6143359542 4290952286
-0.3035843968 -0.1620780975 0.6118587852 4291741802
-0.3027870357 -0.1609743834 0.6102517843 4292202327
-0.3019890785 -0.1598738879 0.6086435318 4292465499
-0.3011904657 -0.1587766558 0.6070339680 4292400217
-0.3003912568 -0.1576826721 0.6054232121 4292729182
-0.3004572988 -0.1570445150 0.6055563092 4292994159
-0.3000900745 -0.1561805755 0.6048161387 4292862573
-0.3001555204 -0.1555425078 0.6049481034 4289969474
-0.3006539643 -0.1551275402 0.6059526801 4286219273
-0.3007190526 -0.1544877142 0.6060838103 4284971776
-0.3012172878 -0.1540691555 0.6070880294 4287866668
-0.3017154634 -0.1536483318 0.6080920696 4289051997
-0.3026471734 -0.1534450948 0.6099699140 4291617924
-0.3073666096 -0.1727435142 0.6208715439 4293060589
-0.3074383438 -0.1720938236 0.6210163832 4292467672
-0.3075098395 -0.1714436859 0.6211608052 4291349191
-0.3075810969 -0.1707931012 0.6213047504 4289967781
-0.3076521158 -0.1701420695 0.6214482188 4288849300
-0.3072918952 -0.1692531854 0.6207205653 4288255094
-0.3073623478 -0.1686021686 0.6208628416 4288057715
-0.3070013523 -0.1677151322 0.6201336980 4288124518
-0.3066399395 -0.1668294966 0.6194036603 4290624652
-0.3058467209 -0.1657115072 0.6178013086 4291282061
-0.3050528467 -0.1645967364 0.6161977649 4291216268
-0.3042583466 -0.1634851992 0.6145929098 4290952043
-0.3030315638 -0.1621459126 0.6121148467 4291083629
-0.3022357225 -0.1610417664 0.6105072498 4292070487
-0.3010073900 -0.1597117037 0.6080260873 4292465245
-0.3002102077 -0.1586149633 0.6064158082 4292465750
-0.2994124293 -0.1575214565 0.6048042774 4292663129
-0.2990461588 -0.1566576064 0.6040644050 4292598887
-0.2986794412 -0.1557951719 0.6033236980 4293059438
-0.2983123064 -0.1549341679 0.6025820971 4291811676
-0.2983771861 -0.1542982012 0.6027131081 4288850991
-0.2988743484 -0.1538845152 0.6037173867 4285233920
-0.2993714511 -0.1534685791 0.6047215462 4286615571
-0.2998685241 -0.1530503929 0.6057255864 4287670326
-0.3007983267 -0.1528498530 0.6076037288 4289973081
-0.3017282486 -0.1526452154 0.6094821692 4292471246
-0.3055867553 -0.1714419872 0.6186642051 4293059557
-0.3056578636 -0.1707943529 0.6188081503 4292204248
-0.3057287335 -0.1701462567 0.6189516783 4290888632
-0.3057993948 -0.1694977134 0.6190947294 4289638565
-0.3058697879 -0.1688487232 0.6192372441 4288781698
-0.3059399724 -0.1681992859 0.6193793416 4287794803
-0.3055795133 -0.1673137546 0.6186495423 4287598174
-0.3052186072 -0.1664295942 0.6179189086 4288914034
-0.3048572838 -0.1655468345 0.6171873808 4291545494
-0.3040648401 -0.1644325554 0.6155830622 4291084943
-0.3032717407 -0.1633214951 0.6139774919 4291215225
-0.3024780452 -0.1622136682 0.6123706102 4290623088
-0.3012527525 -0.1608789265 0.6098899245 4291807318
-0.3004576862 -0.1597785056 0.6082803607 4292333662
-0.2992308438 -0.1584530026 0.6057966352 4292464978
-0.2984344661 -0.1573600024 0.6041843295 4292596564
-0.2976374626 -0.1562702507 0.6025707722 4292467041
-0.2972713113 -0.1554093361 0.6018294692 4292927592
-0.2969047129 -0.1545498222 0.6010873318 4292666979
-0.2965376973 -0.1536917537 0.6003442407 4291351119
-0.2970337272 -0.1532807052 0.6013484597 4287337755
-0.2970978618 -0.1526455134 0.6014783382 4286614032
-0.2980256081 -0.1524518132 0.6033565998 4287669550
-0.2989535034 -0.1522540003 0.6052350998 4288788031
-0.2998815179 -0.1520520747 0.6071138382 4291418045
-0.3042390347 -0.1703846604 0.6173238158 4292927973
-0.3043096364 -0.1697381586 0.6174671054 4291677896
-0.3043799996 -0.1690911949 0.6176098585 4290427829
-0.3044501543 -0.1684437990 0.6177521944 4289111440
-0.3040905595 -0.1675592810 0.6170225739 4287729787
-0.3045897186 -0.1671476513 0.6180353761 4287795555
-0.3037997484 -0.1660292447 0.6164324880 4287927141
-0.3034389317 -0.1651479751 0.6157003641 4290229377
-0.3026477993 -0.1640350819 0.6140950918 4291676823
-0.3022860289 -0.1631575227 0.6133610606 4291741320
-0.3014937341 -0.1620501876 0.6117534041 4290557046
-0.3007008433 -0.1609460860 0.6101445556 4291083092
-0.2994770110 -0.1596159041 0.6076613069 4292069987
-0.2982523739 -0.1582908034 0.6051764488 4292530774
-0.2974573970 -0.1571982801 0.6035634279 4292530774
-0.2966618240 -0.1561090350 0.6019490957 4292334938
-0.2958656251 -0.1550230384 0.6003335714 4292663903
-0.2954995632 -0.1541650593 0.5995908380 4292666207
-0.2951330841 -0.1533084959 0.5988472104 4292732000
-0.2951971292 -0.1526762545 0.5989771485 4289705275
-0.2956919670 -0.1522655636 0.5999811888 4287928864
-0.2961867750 -0.1518526226 0.6009851694 4288064049
-0.2971127331 -0.1516575217 0.6028640270 4288129842
-0.2980388105 -0.1514583230 0.6047431231 4290496946
-0.2989650369 -0.1512550116 0.6066224575 4293194459
-0.3028929830 -0.1693295836 0.6159808040 4292467412
-0.3029631078 -0.1686842144 0.6161233783 4291283138
-0.3030329645 -0.1680383980 0.6162654757 4289769889
-0.3031026125 -0.1673921496 0.6164070964 4288585615
-0.3031719923 -0.1667454392 0.6165481806 4288125038
-0.3028122485 -0.1658633649 0.6158165932 4287796073
-0.3020230532 -0.1647486538 0.6142116785 4288386919
-0.3016623557 -0.1638702750 0.6134780645 4291413397
-0.3013012111 -0.1629932821 0.6127436161 4292004240
-0.3005103171 -0.1618864387 0.6111353040 4291017345
-0.2997188270 -0.1607828289 0.6095256209 4290885212
-0.2984972298 -0.1594530344 0.6070412993 4291608935
-0.2972747982 -0.1581283361 0.6045553088 4292530269
-0.2964812517 -0.1570363045 0.6029415131 4292530269
-0.2956870794 -0.1559475511 0.6013264656 4292203352
-0.2948923111 -0.1548620611 0.5997101665 4292466524
-0.2940969169 -0.1537798345 0.5980926156 4292534110
-0.2937309742 -0.1529247910 0.5973483920 4292994661
-0.2937947810 -0.1522941738 0.5974781513 4292006997
-0.2938583195 -0.1516631246 0.5976073742 4288980519
-0.2943519950 -0.1512528062 0.5986112952 4287207457
-0.2952760160 -0.1510604322 0.6004905105 4287733801
-0.2962001860 -0.1508639604 0.6023699045 4289706919
-0.2966938615 -0.1504450142 0.6033738852 4292930776
-0.3010511696 -0.1686809361 0.6136211753 4292994269
-0.3015486300 -0.1682767570 0.6146351099 4291941581
-0.3016182482 -0.1676325351 0.6147770286 4290624945
-0.3012596965 -0.1667510122 0.6140461564 4289243292
-0.3013287187 -0.1661068201 0.6141868830 4288453236
-0.3013975322 -0.1654621810 0.6143271327 4288058478
-0.3010378480 -0.1645829976 0.6135940552 4287925854
-0.3006777763 -0.1637052000 0.6128600836 4290097023
-0.2994604409 -0.1623642296 0.6103788018 4291675022
-0.3003848195 -0.1621851623 0.6122629642 4291543436
-0.2987377346 -0.1606193185 0.6089057326 4291279980
-0.2979470193 -0.1595194340 0.6072940826 4291148394
-0.2967269123 -0.1581942141 0.6048071980 4292135261
-0.2955060005 -0.1568740755 0.6023186445 4292398433
-0.2947132587 -0.1557858139 0.6007028222 4292400217
-0.2939198911 -0.1547008306 0.5990857482 4292860768
-0.2931259274 -0.1536191106 0.5974674821 4292402524
-0.2927606404 -0.1527646482 0.5967228413 4292731489
-0.2923949063 -0.1519116461 0.5959774256 4292796507
-0.2924582064 -0.1512822062 0.5961064696 4290954303
-0.2929508090 -0.1508736014 0.5971105099 4287076125
-0.2938730121 -0.1506830305 0.5989902020 4287076125
-0.2935061455 -0.1498302221 0.5982424617 4288982426
-0.2948581576 -0.1498526484 0.6009982228 4293061592
-0.2997097075 -0.1676300615 0.6122730374 4292336863
-0.3002060056 -0.1672262102 0.6132868528 4291809480
-0.2998479605 -0.1663461924 0.6125554442 4290296241
-0.2999167144 -0.1657035947 0.6126959324 4289111692
-0.2999852598 -0.1650605500 0.6128359437 4288124797
-0.2996261418 -0.1641828567 0.6121022701 4287532383
-0.2992665768 -0.1633065641 0.6113677025 4287861348
-0.2989065945 -0.1624316573 0.6106323004 4290689928
-0.2985461652 -0.1615581661 0.6098960042 4291150479
-0.2977575064 -0.1604555398 0.6082848907 4291412354
-0.2969682217 -0.1593561471 0.6066724658 4290951803
-0.2957503200 -0.1580313295 0.6041844487 4291017552
-0.2949597239 -0.1569393724 0.6025693417 4292070240
-0.2941685021 -0.1558506936 0.6009529233 4292662096
-0.2933766842 -0.1547652632 0.5993353128 4292925268
-0.2921558619 -0.1534581184 0.5968413353 4292925280
-0.2913627028 -0.1523801684 0.5952210426 4293254245
-0.2914260924 -0.1517518461 0.5953505039 4293387102
-0.2910605669 -0.1509008706 0.5946037769 4293123930
-0.2915521562 -0.1504939646 0.5956079960 4290494791
-0.2920436561 -0.1500847936 0.5966121554 4288389415
-0.2925351262 -0.1496733725 0.5976161361 4289969573
-0.2930265665 -0.1492596865 0.5986200571 4293653981
-0.2983010113 -0.1672215760 0.6107810140 4292929000
-0.2983699739 -0.1665814519 0.6109222174 4292533718
-0.2984386981 -0.1659408957 0.6110629439 4291283651
-0.2985072136 -0.1652998924 0.6112032533 4289835164
-0.2985754907 -0.1646584570 0.6113430262 4288387718
-0.2982168794 -0.1637822539 0.6106087565 4287992682
-0.2978578508 -0.1629074663 0.6098736525 4287400545
-0.2979252040 -0.1622665524 0.6100115776 4288979569
-0.2975654304 -0.1613936424 0.6092749238 4291019152
-0.2972052097 -0.1605221331 0.6085373759 4291347076
-0.2959903479 -0.1591926068 0.6060498357 4290952318
-0.2952018678 -0.1580969691 0.6044354439 4290951767
-0.2939854860 -0.1567767262 0.6019448638 4291346525
-0.2931956947 -0.1556885391 0.6003277302 4292136015
-0.2924052775 -0.1546036154 0.5987093449 4292793945
-0.2911866903 -0.1532968730 0.5962142348 4292727901
-0.2908226550 -0.1524436176 0.5954688191 4292925280
-0.2900304198 -0.1513685435 0.5938467383 4292992092
-0.2900933027 -0.1507414132 0.5939754844 4293584229
-0.2901559770 -0.1501138806 0.5941038132 4292205409
-0.2902184129 -0.1494859457 0.5942316055 4290757963
-0.2907087505 -0.1490771621 0.5952355862 4291417019
-0.2969634831 -0.1661740988 0.6094282866 4293059809
-0.2970319390 -0.1655351371 0.6095688343 4291941328
-0.2971001863 -0.1648957431 0.6097088456 4290559407
-0.2971681952 -0.1642558873 0.6098483801 4288848789
-0.2968101203 -0.1633812040 0.6091135740 4288256375
-0.2968775630 -0.1627414078 0.6092519760 4287335273
-0.2965187132 -0.1618686020 0.6085155606 4287729503
-0.2961594760 -0.1609971970 0.6077783108 4290295430
-0.2957997918 -0.1601272076 0.6070401669 4291347591
-0.2954396605 -0.1592586190 0.6063011289 4291018626
-0.2942263186 -0.1579336673 0.6038110852 4290886242
-0.2930121422 -0.1566138268 0.6013193727 4290820449
-0.2922237813 -0.1555261314 0.5997015238 4291807318
-0.2914347947 -0.1544417143 0.5980823636 4292728420
-0.2906452119 -0.1533605754 0.5964619517 4292531292
-0.2898550332 -0.1522827148 0.5948403478 4292794464
-0.2890642285 -0.1512081474 0.5932174921 4292991325
-0.2886998951 -0.1503592879 0.5924698114 4293649255
-0.2887623012 -0.1497333795 0.5925979018 4293389168
-0.2888244987 -0.1491070539 0.5927254558 4293191789
-0.2888864279 -0.1484803408 0.5928525925 4292996050
-0.2956276834 -0.1651289165 0.6080729365 4292533467
-0.2956956327 -0.1644911170 0.6082127690 4291414722
-0.2957633734 -0.1638528705 0.6083520651 4289769897
-0.2954058349 -0.1629796922 0.6076166630 4288651139
-0.2954730093 -0.1623414904 0.6077548265 4287730037
-0.2951147258 -0.1614702046 0.6070178747 4287466588
-0.2947559953 -0.1606003046 0.6062800288 4288716655
-0.2943968475 -0.1597318202 0.6055412889 4291084419
-0.2940372825 -0.1588647515 0.6048016548 4291413384
-0.2932516634 -0.1577701122 0.6031857729 4291149424
-0.2924654186 -0.1566787213 0.6015685797 4290754666
-0.2916785777 -0.1555906236 0.5999501348 4291543902
-0.2908911407 -0.1545057744 0.5983304381 4292136039
-0.2896770835 -0.1531989276 0.5958332419 4292399706
-0.2888883352 -0.1521215737 0.5942108631 4292662878
-0.2880989611 -0.1510474980 0.5925872326 4292925019
-0.2877352834 -0.1501992494 0.5918391943 4293056605
-0.2873711586 -0.1493524313 0.5910902619 4293125480
-0.2874330878 -0.1487277448 0.5912176371 4294046582
-0.2874947786 -0.1481026411 0.5913445354 4293851098
-0.2942259014 -0.1647222489 0.6065753698 4293059557
-0.2942935824 -0.1640860438 0.6067149639 4292138960
-0.2943610549 -0.1634494066 0.6068540812 4290757307
-0.2944283187 -0.1628123224 0.6069926620 4289309589
-0.2940709591 -0.1619411260 0.6062560081 4288191108
-0.2937132120 -0.1610713452 0.6055184603 4287795557
-0.2937795520 -0.1604347974 0.6056551933 4287861350
-0.2938456833 -0.1597978324 0.6057915092 4289899891
-0.2930620909 -0.1587004364 0.6041761041 4291347337
-0.2927027345 -0.1578353643 0.6034352779 4291543677
-0.2919180393 -0.1567435712 0.6018174887 4290754161
-0.2911327183 -0.1556550264 0.6001985073 4291017311
-0.2903468013 -0.1545697749 0.5985782743 4291477862
-0.2895602584 -0.1534877867 0.5969567299 4292333659
-0.2883478403 -0.1521846354 0.5944572091 4292531038
-0.2875600159 -0.1511101425 0.5928329825 4292793432
-0.2863460779 -0.1498163491 0.5903304219 4292661846
-0.2864080966 -0.1491927505 0.5904582143 4292598112
-0.2860442102 -0.1483479887 0.5897080302 4293848179
-0.2861056626 -0.1477245092 0.5898347497 4293981645
-0.2861668766 -0.1471006274 0.5899609327 4294639575
-0.2924708128 -0.1634439677 0.6043408513 4292599258
-0.2925378978 -0.1628098488 0.6044795513 4291546570
-0.2926047742 -0.1621752977 0.6046177149 4290362026
-0.2926714420 -0.1615403146 0.6047554612 4288585615
-0.2927378416 -0.1609048843 0.6048926711 4288124271
-0.2928040326 -0.1602690369 0.6050294638 4287795306
-0.2924461365 -0.1594017446 0.6042899489 4288452447
-0.2920878530 -0.1585358530 0.6035495400 4290689409
-0.2917291224 -0.1576713771 0.6028082967 4291675526
-0.2909458280 -0.1565800756 0.6011897922 4291017596
-0.2901619673 -0.1554920524 0.5995700359 4290754406
-0.2898017764 -0.1546337008 0.5988258123 4291017578
-0.2890167832 -0.1535512954 0.5972037315 4292267617
-0.2882311642 -0.1524721831 0.5955803990 4292399203
-0.2870203853 -0.1511727273 0.5930784941 4292530263
-0.2858088017 -0.1498784125 0.5905749798 4292793435
-0.2850211859 -0.1488110274 0.5889475346 4292925027
-0.2850827277 -0.1481886506 0.5890746713 4293648750
-0.2847190499 -0.1473459601 0.5883232355 4293651886
-0.2843549848 -0.1465047002 0.5875709653 4294572988
-0.2910745740 -0.1630378813 0.6028393507 4293126118
-0.2911414206 -0.1624053568 0.6029777527 4292073430
-0.2912080288 -0.1617724150 0.6031157374 4291348929
-0.2912743986 -0.1611390412 0.6032531857 4289309346
-0.2913405597 -0.1605052203 0.6033902168 4288452731
-0.2914064825 -0.1598709822 0.6035267711 4287794801
-0.2914721668 -0.1592363119 0.6036627889 4287860827
-0.2911145091 -0.1583710164 0.6029220223 4289439859
-0.2907564044 -0.1575071365 0.6021803617 4291347078
-0.2903978825 -0.1566446871 0.6014378667 4291412871
-0.2896155417 -0.1555562317 0.5998175740 4291149172
-0.2888325751 -0.1544710547 0.5981959701 4290754414
-0.2880490124 -0.1533891708 0.5965731740 4291543902
-0.2872648537 -0.1523105502 0.5949490666 4292004453
-0.2864800692 -0.1512352377 0.5933237672 4292529498
-0.2848469317 -0.1497176290 0.5899413824 4292858463
-0.2844847441 -0.1488726288 0.5891912580 4293121638
-0.2841221392 -0.1480290741 0.5884402990 4293450603
-0.2833350003 -0.1469669640 0.5868099928 4293256581
-0.2829714715 -0.1461272538 0.5860571265 4294177683
-0.2893256545 -0.1617646068 0.6005987525 4292534496
-0.2893919349 -0.1611341834 0.6007362604 4292072912
-0.2894579470 -0.1605033427 0.6008733511 4290296501
-0.2895237505 -0.1598720551 0.6010099053 4289111181
-0.2900114357 -0.1594724655 0.6020223498 4287795321
-0.2900768816 -0.1588394046 0.6021581888 4287860829
-0.2897197306 -0.1579756290 0.6014168262 4288189794
-0.2897846103 -0.1573426425 0.6015514731 4290492028
-0.2890042067 -0.1562523395 0.5999314785 4291544716
-0.2886458337 -0.1553928405 0.5991874933 4291544190
-0.2878642976 -0.1543081701 0.5975651741 4290623088
-0.2875049710 -0.1534524411 0.5968192816 4290951514
-0.2867223322 -0.1523734182 0.5951946378 4291938409
-0.2859390974 -0.1512976736 0.5935687423 4292529501
-0.2843091190 -0.1497794688 0.5901851058 4292595294
-0.2831013203 -0.1484902352 0.5876778960 4293054560
-0.2827392519 -0.1476482153 0.5869263411 4293580904
-0.2823767960 -0.1468076557 0.5861738920 4293256042
-0.2820139229 -0.1459685564 0.5854206681 4293848179
-0.2816506326 -0.1451309174 0.5846664906 4294047699
-0.2879350185 -0.1613591015 0.5990931988 4293125867
-0.2875799537 -0.1604953110 0.5983544588 4292336337
-0.2876456082 -0.1598669887 0.5984910727 4291086270
-0.2881322801 -0.1594713777 0.5995036960 4289573270
-0.2881975770 -0.1588412821 0.5996395350 4288191617
-0.2882626653 -0.1582107544 0.5997749567 4288387957
-0.2883275151 -0.1575798094 0.5999098420 4287664234
-0.2883921266 -0.1569484323 0.6000443101 4288847471
-0.2880347967 -0.1560880840 0.5993008018 4290952847
-0.2876770198 -0.1552291811 0.5985564590 4291873157
-0.2873188555 -0.1543717086 0.5978112221 4290952055
-0.2869602740 -0.1535156518 0.5970650911 4290688860
-0.2861791551 -0.1524362117 0.5954399109 4291149411
-0.2853974700 -0.1513600647 0.5938134789 4292136029
-0.2837705910 -0.1498412490 0.5904285312 4292267615
-0.2825651467 -0.1485515088 0.5879203677 4292661857
-0.2817813754 -0.1474880427 0.5862896442 4293056615
-0.2809970081 -0.1464278996 0.5846576095 4293384558
-0.2806347013 -0.1455903351 0.5839037895 4293713523
-0.2802719772 -0.1447542459 0.5831490755 4294176179
-0.2803316414 -0.1441370100 0.5832732320 4294967237
-0.2866126001 -0.1603259444 0.5977230072 4292731611
-0.2866781056 -0.1596983224 0.5978596210 4291678923
-0.2867433727 -0.1590702683 0.5979957581 4290428328
-0.2868084013 -0.1584417820 0.5981313586 4289046675
-0.2868732214 -0.1578128636 0.5982665420 4288322427
-0.2873585224 -0.1574140042 0.5992786288 4287467118
-0.2870021462 -0.1565537602 0.5985354185 4287926630
-0.2866453826 -0.1556949466 0.5977913737 4289703041
-0.2867091596 -0.1550652683 0.5979244113 4291413124
-0.2863516510 -0.1542083919 0.5971788168 4291281538
-0.2859936953 -0.1533529460 0.5964322686 4290952042
-0.2856353223 -0.1524989307 0.5956849456 4291017835
-0.2848551571 -0.1514223665 0.5940579176 4291937882
-0.2832314372 -0.1499029696 0.5906717181 4292266847
-0.2824499011 -0.1488348544 0.5890418291 4292530019
-0.2812460959 -0.1475488394 0.5865312815 4292661605
-0.2804632485 -0.1464882940 0.5848987699 4293121636
-0.2796798348 -0.1454310566 0.5832649469 4293516394
-0.2793177664 -0.1445955634 0.5825098157 4293846935
-0.2789552808 -0.1437615454 0.5817538500 4294965416
-0.2856462002 -0.1601563245 0.5970906019 4293126372
-0.2857115269 -0.1595293880 0.5972271562 4292402649
-0.2857766151 -0.1589020193 0.5973632932 4291349440
-0.2858414948 -0.1582742333 0.5974988937 4289967787
-0.2859061360 -0.1576460153 0.5976340175 4288914829
-0.2859705687 -0.1570173651 0.5977686644 4287796348
-0.2856147289 -0.1561586559 0.5970248580 4287531874
-0.2856785953 -0.1555300951 0.5971583724 4288650355
-0.2853220403 -0.1546733081 0.5964130163 4290820736
-0.2853853405 -0.1540448219 0.5965453982 4291478666
-0.2850280404 -0.1531899869 0.5957984924 4291280505
-0.2846703231 -0.1523365825 0.5950507522 4290885747
-0.2843121886 -0.1514846087 0.5943021178 4291542877
-0.2826915979 -0.1499646157 0.5909146070 4292069221
-0.2819115818 -0.1488960832 0.5892841220 4292464226
-0.2811309993 -0.1478308737 0.5876524448 4292464226
-0.2799288630 -0.1465486139 0.5851395726 4292924508
-0.2791469693 -0.1454909593 0.5835052133 4293319266
-0.2783645093 -0.1444366425 0.5818696022 4293517946
-0.2775814533 -0.1433856487 0.5802327991 4294504841
-0.2776404321 -0.1427713037 0.5803560615 4294375884
-0.2776991725 -0.1421565562 0.5804788470 4294836179
-0.2839083970 -0.1588914841 0.5948390961 4292929252
-0.2839731276 -0.1582666636 0.5949747562 4291876303
-0.2840376496 -0.1576414108 0.5951098800 4290626236
-0.2845209837 -0.1572473198 0.5961225629 4289506717
-0.2845851183 -0.1566202939 0.5962569714 4288322443
-0.2846490741 -0.1559928358 0.5963909030 4287795306
-0.2847127616 -0.1553649753 0.5965244174 4288124271
-0.2847762406 -0.1547366828 0.5966573954 4289768054
-0.2844199836 -0.1538810134 0.5959109664 4291149707
-0.2840633392 -0.1530267745 0.5951637030 4291609480
-0.2841259241 -0.1523990780 0.5952948928 4291083136
-0.2837685347 -0.1515467912 0.5945460200 4291016798
-0.2825709581 -0.1502494365 0.5920369625 4291477349
-0.2813726366 -0.1489572525 0.5895262361 4292202076
-0.2801735401 -0.1476702392 0.5870139003 4292333662
-0.2789736390 -0.1463883966 0.5844998956 4292727640
-0.2781932354 -0.1453312784 0.5828647614 4293056605
-0.2774122059 -0.1442774832 0.5812284350 4293320038
-0.2770510316 -0.1434446871 0.5804716349 4294175347
-0.2766894400 -0.1426133662 0.5797140598 4294046123
-0.2767480016 -0.1419993192 0.5798367858 4294835639
-0.2825918198 -0.1578641683 0.5934616923 4292533983
-0.2830742300 -0.1574731469 0.5944747329 4291415502
-0.2827201188 -0.1566164941 0.5937311053 4290295982
-0.2832022607 -0.1562227607 0.5947436094 4288782743
-0.2832659185 -0.1555969417 0.5948773026 4288255607
-0.2837478817 -0.1551996022 0.5958894491 4288058228
-0.2838111818 -0.1545720100 0.5960224271 4288649577
-0.2838742733 -0.1539439857 0.5961548686 4290228609
-0.2835183442 -0.1530894339 0.5954074264 4291675277
-0.2831619978 -0.1522363126 0.5946590304 4291412105
-0.2828052342 -0.1513846219 0.5939098597 4290754151
-0.2820290029 -0.1503110379 0.5922796726 4290754151
-0.2808330059 -0.1490183622 0.5897680521 4291807316
-0.2796362638 -0.1477308422 0.5872547626 4292333660
-0.2788580656 -0.1466690451 0.5856205225 4292464729
-0.2776598334 -0.1453909576 0.5831041932 4292662108
-0.2768803835 -0.1443367600 0.5814672709 4293056607
-0.2761003375 -0.1432858855 0.5798290968 4293714537
-0.2753196955 -0.1422383636 0.5781896710 4293584265
-0.2753780484 -0.1416259557 0.5783122182 4294636953
-0.2812130749 -0.1574612409 0.5919468999 4292995047
-0.2812770903 -0.1568392366 0.5920816064 4292073945
-0.2813408673 -0.1562168002 0.5922158957 4291283138
-0.2818219066 -0.1558247954 0.5932285190 4289506727
-0.2823029459 -0.1554305106 0.5942410231 4288650628
-0.2823662162 -0.1548049599 0.5943742394 4288058491
-0.2824292779 -0.1541789919 0.5945069790 4287926371
-0.2824921012 -0.1535526067 0.5946392417 4289176438
-0.2821367383 -0.1526995748 0.5938911438 4291083655
-0.2821989954 -0.1520732790 0.5940222740 4291609999
-0.2818428874 -0.1512222141 0.5932726264 4291017844
-0.2810681164 -0.1501491517 0.5916417241 4290557293
-0.2802927196 -0.1490793824 0.5900095701 4291347028
-0.2790983319 -0.1477913707 0.5874953866 4292070751
-0.2779031396 -0.1465085298 0.5849795938 4292332892
-0.2771258056 -0.1454505920 0.5833433270 4292464478
-0.2763479054 -0.1443959773 0.5817058086 4292924769
-0.2751505971 -0.1431268603 0.5791854858 4293319527
-0.2743714154 -0.1420798451 0.5775453448 4293254514
-0.2740106285 -0.1412521750 0.5767859221 4294241409
-0.2740685046 -0.1406410187 0.5769077539 4294703568
-0.2741261721 -0.1400294900 0.5770291090 4294967255
-0.2799006402 -0.1564374715 0.5905649662 4292665828
-0.2803807557 -0.1560485214 0.5915779471 4291941328
-0.2804441452 -0.1554263681 0.5917117000 4290362296
-0.2809241116 -0.1550338119 0.5927243829 4289308309
-0.2809871137 -0.1544098854 0.5928573608 4288453000
-0.2814669013 -0.1540137082 0.5938696265 4288123500
-0.2815295756 -0.1533880234 0.5940018892 4288386672
-0.2811748385 -0.1525356025 0.5932533741 4290031480
-0.2808196843 -0.1516846120 0.5925040841 4291478926
-0.2808814943 -0.1510595381 0.5926344395 4291282047
-0.2801081538 -0.1499869972 0.5910028219 4290624117
-0.2793342471 -0.1489177495 0.5893698931 4291214429
-0.2785597444 -0.1478518397 0.5877357721 4291740773
-0.2773669064 -0.1465684921 0.5852190256 4292135515
-0.2765911222 -0.1455101520 0.5835821629 4292398687
-0.2758147418 -0.1444551349 0.5819441080 4292858976
-0.2746198177 -0.1431855112 0.5794228911 4293122148
-0.2734241188 -0.1419211030 0.5769000649 4293253221
-0.2730639875 -0.1410940439 0.5761402249 4293976944
-0.2727034390 -0.1402684599 0.5753794909 4294373556
-0.2727608681 -0.1396585703 0.5755006671 4294966464
-0.2785267532 -0.1560352594 0.5890465379 4292929770
-0.2790058255 -0.1556480378 0.5900596976 4292336088
-0.2790689468 -0.1550274938 0.5901932120 4291217607
-0.2795478404 -0.1546366662 0.5912059546 4289966501
-0.2800266743 -0.1542435437 0.5922186971 4288979606
-0.2796731293 -0.1533916444 0.5914710164 4288386932
-0.2801517248 -0.1529958397 0.5924831629 4287597416
-0.2802139223 -0.1523713619 0.5926146507 4288715619
-0.2798593938 -0.1515209973 0.5918649435 4290820995
-0.2795045078 -0.1506720632 0.5911143422 4291216772
-0.2791491747 -0.1498245895 0.5903629065 4290690428
-0.2783766985 -0.1487558782 0.5887292027 4291016547
-0.2776036561 -0.1476904750 0.5870943069 4291279719
-0.2768300176 -0.1466283947 0.5854581594 4291872089
-0.2756387889 -0.1453497410 0.5829388499 4292201054
-0.2748638690 -0.1442952603 0.5813000202 4292662106
-0.2736711800 -0.1430260688 0.5787776709 4292991071
-0.2728950381 -0.1419792026 0.5771362185 4293383776
-0.2721183002 -0.1409356594 0.5754935145 4293844327
-0.2717584074 -0.1401107162 0.5747324228 4294109345
-0.2713981271 -0.1392872334 0.5739704967 4294965168
-0.2776334286 -0.1552470922 0.5885397196 4293191395
-0.2776963115 -0.1546281874 0.5886729956 4292072914
-0.2781741321 -0.1542390734 0.5896859169 4291018939
-0.2786519229 -0.1538476795 0.5906987190 4289571493
-0.2787142992 -0.1532256603 0.5908309817 4288583808
-0.2787764370 -0.1526032239 0.5909627080 4287399534
-0.2788383663 -0.1519803852 0.5910940170 4287662931
-0.2789000869 -0.1513571143 0.5912247896 4289307756
-0.2785457969 -0.1505088061 0.5904738307 4291608716
-0.2781911492 -0.1496619433 0.5897219777 4291674509
-0.2778360546 -0.1488165259 0.5889692307 4291280499
-0.2770645618 -0.1477507055 0.5873337984 4290885741
-0.2762924433 -0.1466882229 0.5856970549 4291674710
-0.2751035690 -0.1454090774 0.5831768513 4292332640
-0.2743302286 -0.1443541795 0.5815374255 4292727391
-0.2731399238 -0.1430845112 0.5790141821 4293056356
-0.2719488442 -0.1418200433 0.5764892697 4293057118
-0.2711735666 -0.1407770514 0.5748457909 4293386083
-0.2703977227 -0.1397374123 0.5732011199 4293388403
-0.2700380087 -0.1389154941 0.5724385977 4294243712
-0.2763262391 -0.1542284191 0.5871511102 4292665567
-0.2768029869 -0.1538410336 0.5881641507 4291677384
-0.2772797048 -0.1534513682 0.5891770720 4290295731
-0.2773418427 -0.1528309733 0.5893090963 4289176206
-0.2774037421 -0.1522101760 0.5894405842 4287860346
-0.2774654031 -0.1515889615 0.5895716548 4287531862
-0.2775268555 -0.1509673297 0.5897022486 4288189792
-0.2771731615 -0.1501205564 0.5889506340 4291083140
-0.2772340477 -0.1494990289 0.5890800357 4291872656
-0.2764645219 -0.1484313607 0.5874449015 4291477634
-0.2761095762 -0.1475889385 0.5866907239 4290819704
-0.2753389478 -0.1465269774 0.5850532651 4291149398
-0.2745677233 -0.1454683542 0.5834145546 4291609949
-0.2733804584 -0.1441939175 0.5808917880 4292596317
-0.2726079822 -0.1431428790 0.5792503953 4293056868
-0.2714192867 -0.1418779343 0.5767245889 4292727648
-0.2702298164 -0.1406181902 0.5741971731 4292990820
-0.2694554329 -0.1395790875 0.5725516677 4292927337
-0.2690964043 -0.1387577951 0.5717887878 4293651060
-0.2687369585 -0.1379380077 0.5710250139 4294243019
-0.2687931955 -0.1373322904 0.5711445212 4294967257
-0.2749587595 -0.1538282186 0.5856274962 4293191913
-0.2750208974 -0.1532121450 0.5857598186 4292401368
-0.2754964530 -0.1528251320 0.5867726803 4291151301
-0.2759719789 -0.1524358541 0.5877854824 4289835166
-0.2756197751 -0.1515890658 0.5870353580 4288387720
-0.2760950327 -0.1511970907 0.5880476236 4287795555
-0.2761562169 -0.1505770981 0.5881779194 4287466590
-0.2758030593 -0.1497318745 0.5874257684 4289438315
-0.2758637369 -0.1491119862 0.5875549316 4291412105
-0.2755098641 -0.1482687294 0.5868012309 4291740815
-0.2751555741 -0.1474269331 0.5860466957 4291017092
-0.2743864059 -0.1463654935 0.5844084620 4290755166
-0.2736166716 -0.1453073919 0.5827689767 4291084131
-0.2728463113 -0.1442526132 0.5811282396 4292202073
-0.2716606557 -0.1429829001 0.5786029696 4292531038
-0.2708890736 -0.1419357508 0.5769595504 4292793193
-0.2697019875 -0.1406755149 0.5744312406 4292924779
-0.2689291537 -0.1396360099 0.5727851987 4292992102
-0.2681557536 -0.1385998577 0.5711379647 4293386860
-0.2677969635 -0.1377806962 0.5703737736 4293651874
-0.2674377859 -0.1369630247 0.5696087480 4294836148
-0.2736557424 -0.1528131366 0.5842342973 4293059557
-0.2741302252 -0.1524278373 0.5852472782 4291941076
-0.2746046782 -0.1520402730 0.5862601995 4290493359
-0.2742530406 -0.1511950493 0.5855094790 4288914327
-0.2743141055 -0.1505780220 0.5856398344 4288058992
-0.2747881711 -0.1501864344 0.5866519213 4287335269
-0.2748488784 -0.1495676637 0.5867815614 4287794258
-0.2744959891 -0.1487244964 0.5860281587 4290031220
-0.2741426826 -0.1478827894 0.5852738619 4291544206
-0.2737889588 -0.1470425427 0.5845186710 4291281034
-0.2734348476 -0.1462037563 0.5837626457 4290820969
-0.2726665437 -0.1451461762 0.5821224451 4291018348
-0.2723115385 -0.1443112642 0.5813645124 4291808347
-0.2711282372 -0.1430410445 0.5788382888 4292071519
-0.2699441910 -0.1417760402 0.5763103962 4292398435
-0.2691735029 -0.1407327801 0.5746650696 4292727400
-0.2684022486 -0.1396928728 0.5730184317 4292794721
-0.2676303983 -0.1386563182 0.5713706017 4293057893
-0.2668579817 -0.1376231462 0.5697215796 4293257343
-0.2664994597 -0.1368061006 0.5689561963 4294310031
-0.2731786370 -0.1522597522 0.5846019387 4292599008
-0.2728278637 -0.1514155418 0.5838512778 4291414465
-0.2728888988 -0.1508005708 0.5839818716 4289703847
-0.2729497254 -0.1501851976 0.5841120481 4288519806
-0.2734227180 -0.1497953385 0.5851242542 4287796083
-0.2734831870 -0.1491782069 0.5852536559 4287925591
-0.2731308341 -0.1483365893 0.5844995975 4288978279
-0.2731907666 -0.1477195770 0.5846278667 4290887040
-0.2728376985 -0.1468799412 0.5838723183 4291544970
-0.2720713913 -0.1458204985 0.5822323561 4290953334
-0.2717174292 -0.1449847221 0.5814749002 4290690162
-0.2713630497 -0.1441504210 0.5807165504 4291215967
-0.2705951929 -0.1430991292 0.5790733099 4291676518
-0.2694135010 -0.1418336332 0.5765445232 4292070238
-0.2686443627 -0.1407899708 0.5748986006 4292464996
-0.2678746581 -0.1397496611 0.5732514262 4292531549
-0.2666909099 -0.1384979934 0.5707181692 4292728928
-0.2663335502 -0.1376791447 0.5699534416 4292994159
-0.2655621171 -0.1366489381 0.5683025718 4293717882
-0.2652038634 -0.1358340234 0.5675359368 4294309062
-0.2648452222 -0.1350206137 0.5667684078 4294967254
-0.2714055777 -0.1516319215 0.5821913481 4293060074
-0.2714665830 -0.1510190070 0.5823221803 4292204241
-0.2715273798 -0.1504056752 0.5824525952 4290625209
-0.2715879381 -0.1497919261 0.5825824738 4288980622
-0.2716482878 -0.1491777748 0.5827119350 4287927934
-0.2717083991 -0.1485632062 0.5828409195 4288189026
-0.2717683017 -0.1479482353 0.5829693675 4287925854
-0.2718279660 -0.1473328620 0.5830973983 4289506155
-0.2714754641 -0.1464947909 0.5823412538 4291216773
-0.2711225748 -0.1456581652 0.5815842748 4291348358
-0.2707692683 -0.1448230296 0.5808264017 4290624635
-0.2695911229 -0.1435503513 0.5782991648 4290426979
-0.2700614631 -0.1431571394 0.5793080926 4291019116
-0.2688821554 -0.1418911666 0.5767783523 4291939931
-0.2681145966 -0.1408471018 0.5751318336 4292137310
-0.2669338882 -0.1395906508 0.5725991130 4292005975
-0.2661650777 -0.1385542452 0.5709499717 4292071768
-0.2653957307 -0.1375212073 0.5692995787 4292271198
-0.2646257877 -0.1364915520 0.5676479936 4292731749
-0.2638552785 -0.1354652643 0.5659952164 4293323422
-0.2639102042 -0.1348644793 0.5661130548 4294573489
-0.2701079249 -0.1506220251 0.5807914734 4292730846
-0.2701684535 -0.1500103325 0.5809215903 4291480779
-0.2702287436 -0.1493982226 0.5810512900 4289770398
-0.2702888548 -0.1487857103 0.5811804533 4288257159
-0.2703486979 -0.1481727958 0.5813091993 4287926119
-0.2704083622 -0.1475594640 0.5814374685 4287531361
-0.2704677880 -0.1469457299 0.5815652609 4288124252
-0.2701158524 -0.1461092085 0.5808085203 4290163835
-0.2701747417 -0.1454955935 0.5809351206 4291611281
-0.2694107890 -0.1444405466 0.5792924762 4291150730
-0.2690576613 -0.1436084360 0.5785331726 4290624368
-0.2687041163 -0.1427777857 0.5777729750 4290690161
-0.2679386139 -0.1417309046 0.5761269331 4290888785
-0.2671725154 -0.1406873912 0.5744796991 4290888785
-0.2659941018 -0.1394313872 0.5719458461 4290757448
-0.2652267814 -0.1383955181 0.5702959299 4290954827
-0.2644588947 -0.1373630315 0.5686447620 4291219531
-0.2636904418 -0.1363339126 0.5669924617 4291548496
-0.2629213929 -0.1353081763 0.5653388500 4292008565
-0.2625640035 -0.1344969720 0.5645703673 4292863874
-0.2622061968 -0.1336872727 0.5638010502 4293785808
-0.2622603774 -0.1330883354 0.5639175177 4294574044
-0.2687518597 -0.1502245963 0.5792590380 4292993764
-0.2688121498 -0.1496145427 0.5793889165 4292270041
-0.2688722014 -0.1490040869 0.5795183778 4290757554
-0.2689320147 -0.1483932137 0.5796473026 4289178522
-0.2689916492 -0.1477819383 0.5797758102 4288452214
-0.2690510452 -0.1471702456 0.5799038410 4288320628
-0.2691102028 -0.1465581656 0.5800313950 4287532124
-0.2691691518 -0.1459456682 0.5801584721 4288979570
-0.2688174844 -0.1451112330 0.5794004798 4291150990
-0.2684653997 -0.1442782730 0.5786415935 4291348369
-0.2681129277 -0.1434467733 0.5778818727 4290953852
-0.2677600682 -0.1426167488 0.5771213174 4290361715
-0.2674067914 -0.1417882144 0.5763598680 4289836356
-0.2666422725 -0.1407442987 0.5747120380 4289770563
-0.2654662430 -0.1394878030 0.5721772909 4289837375
-0.2647004724 -0.1384515464 0.5705267787 4290232133
-0.2639341652 -0.1374186575 0.5688750744 4290628416
-0.2631672621 -0.1363891512 0.5672221780 4291088967
-0.2623998225 -0.1353630275 0.5655680299 4291417696
-0.2616317868 -0.1343402863 0.5639126301 4291812454
-0.2612746656 -0.1335312277 0.5631429553 4292403886
-0.2609171569 -0.1327236742 0.5623723269 4293982918
-0.2674584389 -0.1492183208 0.5778545141 4292534494
-0.2675182521 -0.1486095041 0.5779837370 4291415754
-0.2675778270 -0.1480002850 0.5781124830 4289968308
-0.2676371932 -0.1473906487 0.5782406926 4289176972
-0.2681056559 -0.1470050514 0.5792528391 4288584835
-0.2681646645 -0.1463936716 0.5793803334 4287664485
-0.2682234645 -0.1457818896 0.5795074105 4287401313
-0.2678724527 -0.1449480802 0.5787490010 4289703803
-0.2675210238 -0.1441157311 0.5779897571 4291414421
-0.2667594552 -0.1430651098 0.5763443112 4291217032
-0.2672268450 -0.1426742971 0.5773541927 4289901172
-0.2664643824 -0.1416275650 0.5757068396 4289244999
-0.2661113739 -0.1408011317 0.5749441385 4289573964
-0.2649377286 -0.1395441592 0.5724084377 4289641521
-0.2641735375 -0.1385075152 0.5707573891 4289970486
-0.2634088099 -0.1374742389 0.5691051483 4290168896
-0.2626434863 -0.1364443302 0.5674515963 4290629447
-0.2618775964 -0.1354178041 0.5657969117 4291024983
-0.2611111403 -0.1343946755 0.5641409755 4291156569
-0.2603441477 -0.1333749443 0.5624838471 4290958975
-0.2599872947 -0.1325680166 0.5617128611 4292406421
-0.2661073804 -0.1488216668 0.5763184428 4292995047
-0.2661669254 -0.1482144892 0.5764474273 4292007637
-0.2662262619 -0.1476069093 0.5765759349 4290757570
-0.2666937709 -0.1472243816 0.5775884390 4289900956
-0.2667527497 -0.1466150582 0.5777161717 4288716682
-0.2668115199 -0.1460053325 0.5778434277 4287861868
-0.2664613724 -0.1451725513 0.5770851374 4287401317
-0.2665196061 -0.1445629597 0.5772112608 4288387690
-0.2665776312 -0.1439529657 0.5773369074 4290427273
-0.2662264705 -0.1431227177 0.5765764117 4291480717
-0.2658749223 -0.1422939450 0.5758150220 4289506927
-0.2659321129 -0.1416846365 0.5759388804 4288850499
-0.2651706338 -0.1406408697 0.5742897391 4289113671
-0.2644085884 -0.1396004558 0.5726393461 4289313074
-0.2636459768 -0.1385634094 0.5709877014 4289707832
-0.2628827989 -0.1375297308 0.5693348646 4289840701
-0.2621190548 -0.1364994347 0.5676808357 4290235459
-0.2613547444 -0.1354725212 0.5660254955 4290630223
-0.2605898678 -0.1344490051 0.5643690228 4290827602
-0.2598244548 -0.1334288716 0.5627112985 4290433634
-0.2590584457 -0.1324121356 0.5610523820 4291354736
-0.2591118813 -0.1318159550 0.5611680746 4293194684
-0.2591650784 -0.1312193871 0.5612832904 4294508496
-0.2648182213 -0.1478190422 0.5749093890 4292599776
-0.2648773193 -0.1472131163 0.5750376582 4291481295
-0.2653437555 -0.1468323171 0.5760502815 4290821809
-0.2654024959 -0.1462246478 0.5761778355 4289308570
-0.2654609978 -0.1456165761 0.5763048530 4288125046
-0.2651114464 -0.1447853446 0.5755459666 4287664495
-0.2651694119 -0.1441774070 0.5756718516 4287532385
-0.2652271986 -0.1435690522 0.5757972598 4289045624
-0.2648766041 -0.1427403837 0.5750361681 4290888326
-0.2649338543 -0.1421321779 0.5751603842 4289243501
-0.2645825744 -0.1413055211 0.5743978024 4288719433
-0.2646392882 -0.1406974792 0.5745208859 4288653640
-0.2638787925 -0.1396566778 0.5728699565 4288787762
-0.2631177604 -0.1386192292 0.5712177753 4289314106
-0.2623561621 -0.1375851631 0.5695643425 4289578040
-0.2615939975 -0.1365544796 0.5679097176 4289907005
-0.2608312666 -0.1355271786 0.5662538409 4290236231
-0.2596590519 -0.1342917830 0.5637090206 4290630989
-0.2588950992 -0.1332722008 0.5620505810 4290566475
-0.2585397065 -0.1324656308 0.5612789989 4290698061
-0.2581838965 -0.1316605657 0.5605065227 4292143251
-0.2582369447 -0.1310647279 0.5606217384 4293984175
-0.2634721696 -0.1474231631 0.5733696818 4293060327
-0.2639376819 -0.1470454484 0.5743827224 4292007639
-0.2639963925 -0.1464398205 0.5745104551 4291414465
-0.2640548646 -0.1458338052 0.5746377110 4290032812
-0.2641131282 -0.1452273726 0.5747645497 4288651139
-0.2637641132 -0.1443977058 0.5740050673 4288059002
-0.2638218701 -0.1437914222 0.5741307139 4287598696
-0.2638793886 -0.1431847364 0.5742558837 4287861868
-0.2639366984 -0.1425776482 0.5743805766 4289178478
-0.2639937699 -0.1419701725 0.5745047927 4289178478
-0.2636431456 -0.1411441416 0.5737417936 4288719693
-0.2632921338 -0.1403196007 0.5729779005 4288456521
-0.2629407346 -0.1394965500 0.5722131729 4288393014
-0.2625889182 -0.1386749893 0.5714475513 4288787772
-0.2618288994 -0.1376405358 0.5697935820 4289315379
-0.2610682845 -0.1366094500 0.5681383610 4289710137
-0.2603071332 -0.1355817616 0.5664819479 4289842239
-0.2591373324 -0.1343458891 0.5639361739 4290368583
-0.2583749592 -0.1333259195 0.5622771382 4290436157
-0.2580203116 -0.1325190365 0.5615053177 4290436157
-0.2580735981 -0.1319224089 0.5616213083 4291222897
-0.2577182651 -0.1311176270 0.5608479977 4292933515
-0.2625932097 -0.1466508657 0.5728414655 4292468703
-0.2626516521 -0.1460469067 0.5729689598 4292006862
-0.2627098858 -0.1454425305 0.5730959773 4290756795
-0.2627678812 -0.1448377520 0.5732225180 4289178001
-0.2624194622 -0.1440096498 0.5724624395 4288191106
-0.2624769509 -0.1434050202 0.5725878477 4287927410
-0.2625342309 -0.1427999884 0.5727127790 4287598445
-0.2625912726 -0.1421945542 0.5728372335 4287862618
-0.2630546987 -0.1418079138 0.5738481879 4289112685
-0.2631114125 -0.1412007511 0.5739718676 4288917337
-0.2627611458 -0.1403759122 0.5732077956 4288588372
-0.2624104917 -0.1395525485 0.5724428296 4288261438
-0.2620594203 -0.1387306899 0.5716770291 4288327231
-0.2608939707 -0.1374813616 0.5691345930 4288789549
-0.2605419755 -0.1366643608 0.5683667064 4289250100
-0.2601895630 -0.1358488798 0.5675979853 4289447734
-0.2590222359 -0.1346115917 0.5650514960 4289908285
-0.2582615614 -0.1335902959 0.5633920431 4289975609
-0.2570928633 -0.1323626339 0.5608425736 4290304574
-0.2571460009 -0.1317667365 0.5609585047 4290631262
-0.2567913234 -0.1309625804 0.5601847768 4291749743
-0.2564362884 -0.1301599592 0.5594102740 4293653981
-0.2616564035 -0.1464826167 0.5721842051 4292995047
-0.2617146969 -0.1458793581 0.5723116398 4292533213
-0.2617727518 -0.1452757120 0.5724386573 4291348939
-0.2618305981 -0.1446716487 0.5725651383 4290099365
-0.2618882358 -0.1440671980 0.5726912022 4288520333
-0.2619456649 -0.1434623450 0.5728167295 4287927670
-0.2620028555 -0.1428570896 0.5729418397 4287796084
-0.2620598674 -0.1422514468 0.5730664730 4287468373
-0.2621166110 -0.1416454017 0.5731905699 4288389475
-0.2621731758 -0.1410389692 0.5733142495 4289180260
-0.2618235648 -0.1402147561 0.5725497603 4289180260
-0.2614735961 -0.1393920332 0.5717844367 4288524108
-0.2607170939 -0.1383552998 0.5701301694 4288063557
-0.2603662610 -0.1375365108 0.5693629384 4288394793
-0.2600150108 -0.1367192119 0.5685948133 4288855344
-0.2592569888 -0.1356907338 0.5669372082 4289053234
-0.2584984601 -0.1346656531 0.5652784109 4289447992
-0.2577393353 -0.1336439699 0.5636184216 4289579833
-0.2569796443 -0.1326256841 0.5619571805 4290171970
-0.2562194169 -0.1316108108 0.5602947474 4290368595
-0.2558654249 -0.1308073103 0.5595206022 4290960732
-0.2555110455 -0.1300053298 0.5587456822 4292799421
-0.2555632293 -0.1294109374 0.5588597655 4294442966
-0.2603744268 -0.1454856545 0.5707671046 4292993767
-0.2604322433 -0.1448836625 0.5708938241 4292006872
-0.2604898512 -0.1442812532 0.5710201263 4290954935
-0.2601426542 -0.1434553564 0.5702590346 4289310110
-0.2601997554 -0.1428530961 0.5703841448 4287928447
-0.2606613636 -0.1424716711 0.5713960528 4287862654
-0.2607181072 -0.1418676823 0.5715204477 4287468890
-0.2607746422 -0.1412633061 0.5716443658 4287468890
-0.2608309388 -0.1406585276 0.5717678070 4288785511
-0.2604819238 -0.1398358941 0.5710027218 4289509234
-0.2601325214 -0.1390147358 0.5702367425 4288983902
-0.2597827315 -0.1381950825 0.5694699883 4287997007
-0.2594325244 -0.1373769343 0.5687023401 4287737125
-0.2590819597 -0.1365602762 0.5679338574 4288197676
-0.2587309778 -0.1357451230 0.5671644807 4288659248
-0.2579739988 -0.1347196549 0.5655050874 4289119799
-0.2572164834 -0.1336975843 0.5638445020 4289184824
-0.2564584017 -0.1326789111 0.5621827245 4289711168
-0.2556997538 -0.1316636503 0.5605196953 4290237258
-0.2553465068 -0.1308598518 0.5597453713 4290500430
-0.2545868456 -0.1298504621 0.5580800772 4291813781
-0.2542327642 -0.1290506572 0.5573039055 4293853108
-0.2586908340 -0.1442661136 0.5684605241 4292402148
-0.2587481141 -0.1436663121 0.5685863495 4291350210
-0.2588051558 -0.1430661082 0.5687116981 4289836971
-0.2588619888 -0.1424655020 0.5688365698 4288191878
-0.2589186132 -0.1418645084 0.5689610243 4287862913
-0.2593790293 -0.1414835006 0.5699727535 4287337563
-0.2594352961 -0.1408807784 0.5700964332 4286942805
-0.2594913542 -0.1402776688 0.5702196360 4288061537
-0.2591429353 -0.1394566000 0.5694539547 4289377397
-0.2596028447 -0.1390702724 0.5704645514 4289181032
-0.2588493526 -0.1380346417 0.5688087940 4287996758
-0.2589043677 -0.1374318600 0.5689297318 4287210529
-0.2581499219 -0.1364011019 0.5672718287 4287605287
-0.2577996254 -0.1355865896 0.5665020943 4288264751
-0.2574489415 -0.1347735822 0.5657314658 4288856888
-0.2562881112 -0.1335401684 0.5631806254 4289184824
-0.2555315197 -0.1325220466 0.5615180731 4289447996
-0.2547743917 -0.1315073520 0.5598542690 4290237508
-0.2544218302 -0.1307041943 0.5590795279 4290303301
-0.2536636591 -0.1296953708 0.5574135184 4290959478
-0.2533102632 -0.1288962215 0.5566369295 4293064854
-0.2573564947 -0.1438731253 0.5669119358 4292927973
-0.2574135065 -0.1432749778 0.5670375228 4292270546
-0.2574703097 -0.1426764280 0.5671626329 4290559928
-0.2575268745 -0.1420774907 0.5672873259 4288981143
-0.2579863667 -0.1416995674 0.5682994723 4287533697
-0.2580426037 -0.1410989016 0.5684233308 4287141216
-0.2580986321 -0.1404978335 0.5685467720 4286417493
-0.2581544518 -0.1398963928 0.5686697364 4286812001
-0.2582100630 -0.1392945498 0.5687922239 4288062068
-0.2582654357 -0.1386923343 0.5689142346 4289313147
-0.2579169869 -0.1378739476 0.5681466460 4288589424
-0.2579718530 -0.1372718960 0.5682675242 4287473699
-0.2576227188 -0.1364555806 0.5674983859 4287605285
-0.2572731674 -0.1356407553 0.5667284131 4287935271
-0.2565192878 -0.1346154511 0.5650677085 4288593201
-0.2557648420 -0.1335935593 0.5634058118 4289053501
-0.2550098300 -0.1325750649 0.5617426634 4289185087
-0.2542542815 -0.1315599829 0.5600783229 4289974854
-0.2534981668 -0.1305483133 0.5584127903 4290435405
-0.2531459033 -0.1297473162 0.5576367974 4290566491
-0.2523888052 -0.1287415475 0.5559689999 4291882351
-0.2564835846 -0.1431075186 0.5663747787 4292600026
-0.2565402091 -0.1425096989 0.5664998889 4291086787
-0.2565966547 -0.1419114769 0.5666244626 4289574050
-0.2566528618 -0.1413128674 0.5667486191 4287863432
-0.2567088604 -0.1407138705 0.5668722391 4287338091
-0.2571671009 -0.1403340995 0.5678841472 4286745954
-0.2572227716 -0.1397333741 0.5680070519 4285956952
-0.2572782040 -0.1391322613 0.5681294799 4286285917
-0.2573334277 -0.1385307610 0.5682514906 4288457584
-0.2569856644 -0.1377130151 0.5674834847 4289444479
-0.2566374838 -0.1368967742 0.5667146444 4288131645
-0.2566919029 -0.1362960041 0.5668348074 4287539508
-0.2563430369 -0.1354818344 0.5660644174 4288000813
-0.2559937835 -0.1346691698 0.5652931929 4288527157
-0.2552409172 -0.1336468905 0.5636307001 4288790331
-0.2544875145 -0.1326280087 0.5619670153 4289119296
-0.2537335455 -0.1316125393 0.5603020787 4289711682
-0.2529790401 -0.1306004822 0.5586359501 4290369612
-0.2522239685 -0.1295918524 0.5569685698 4290435158
-0.2514683604 -0.1285866499 0.5553000569 4291224674
-0.2511159480 -0.1277903169 0.5545217991 4293456348
-0.2551535070 -0.1427154094 0.5648229718 4293061090
-0.2552098930 -0.1421192586 0.5649477839 4291942609
-0.2552660704 -0.1415227056 0.5650721788 4290495667
-0.2553220391 -0.1409257650 0.5651960373 4288521877
-0.2557793260 -0.1405490637 0.5662083626 4287469690
-0.2558349669 -0.1399503946 0.5663315058 4286745967
-0.2558903694 -0.1393513381 0.5664541721 4286351456
-0.2559455931 -0.1387518942 0.5665763617 4285693526
-0.2560005784 -0.1381520629 0.5666980743 4287010910
-0.2560553551 -0.1375518441 0.5668193102 4288918907
-0.2557078302 -0.1367362440 0.5660501122 4288723032
-0.2557621002 -0.1361362040 0.5661702156 4287670344
-0.2554139197 -0.1353226751 0.5653994083 4287605552
-0.2550653517 -0.1345106512 0.5646278262 4288066103
-0.2547163963 -0.1337001473 0.5638553500 4288461368
-0.2539645731 -0.1326808780 0.5621910691 4288987712
-0.2532121837 -0.1316650361 0.5605255365 4289448510
-0.2524592578 -0.1306525916 0.5588588715 4290369612
-0.2517057955 -0.1296435744 0.5571909547 4290566740
-0.2509517968 -0.1286379993 0.5555217862 4290698326
-0.2506001294 -0.1278413683 0.5547433496 4292601793
-0.2502480745 -0.1270462871 0.5539640188 4294442973
-0.2538822591 -0.1417283863 0.5633940697 4292600285
-0.2539381981 -0.1411335021 0.5635181665 4291416514
-0.2543945312 -0.1407599002 0.5645308495 4289508517
-0.2544501424 -0.1401632875 0.5646542311 4287864715
-0.2545055151 -0.1395662874 0.5647771358 4286680441
-0.2545606792 -0.1389688998 0.5648995638 4286483814
-0.2546156347 -0.1383711249 0.5650215149 4285957470
-0.2546703815 -0.1377729625 0.5651429892 4285760843
-0.2547249198 -0.1371744126 0.5652639866 4287142496
-0.2547792494 -0.1365754753 0.5653845668 4288788071
-0.2544320226 -0.1357620358 0.5646140575 4288524899
-0.2544858158 -0.1351632774 0.5647334456 4287736887
-0.2541379333 -0.1343519092 0.5639613867 4287934266
-0.2537896633 -0.1335420460 0.5631885529 4288132403
-0.2534410059 -0.1327336878 0.5624148250 4288724540
-0.2526902258 -0.1317174584 0.5607487559 4289251385
-0.2519388795 -0.1307046413 0.5590814948 4290106694
-0.2511869967 -0.1296952516 0.5574129820 4290632787
-0.2504345775 -0.1286892742 0.5557432771 4290764373
-0.2500836849 -0.1278923601 0.5549646020 4291748006
-0.2493302673 -0.1268923134 0.5532926321 4294049737
-0.2529569268 -0.1415607333 0.5627275705 4293126633
