VERSION 0.7
FIELDS x y z rgba
SIZE 4 4 4 4
TYPE F F F U
COUNT 1 1 1 1
WIDTH 920
HEIGHT 1
VIEWPOINT 0.0 0.0 0.0 1.0 0.0 0.0 0.0
POINTS 920
DATA ascii
-0.3146274388 -0.1949113160 0.6082459688 4290288686
-0.3147090971 -0.1942859143 0.6084038019 4290222893
-0.3143483996 -0.1933880299 0.6077064872 4290288686
-0.3135450184 -0.1922203004 0.6061533689 4290091820
-0.3127409518 -0.1910556108 0.6045989394 4290289199
-0.3123786747 -0.1901633292 0.6038985848 4290223404
-0.3120159507 -0.1892723292 0.6031973362 4290223404
-0.3120954633 -0.1886501908 0.6033510566 4290223404
-0.3117319643 -0.1877608895 0.6026483178 4290289197
-0.3109250963 -0.1866070479 0.6010885239 4290354990
-0.3105606139 -0.1857212186 0.6003838181 4290091818
-0.3101956546 -0.1848366857 0.5996782780 4290223143
-0.3102734983 -0.1842166185 0.5998287797 4290354729
-0.3099077642 -0.1833338141 0.5991217494 4290223143
-0.3086546659 -0.1819295287 0.5966992378 4290157350
-0.3091749847 -0.1815721244 0.5977051258 4290486315
-0.3083642423 -0.1804336309 0.5961377621 4290617901
-0.3079966009 -0.1795569658 0.5954270363 4290552108
-0.3076285422 -0.1786816269 0.5947155356 4290617901
-0.3077040613 -0.1780645549 0.5948615074 4290552108
-0.3073352277 -0.1771909744 0.5941484571 4290420522
-0.3069659770 -0.1763187200 0.5934345722 4290354984
-0.3065962493 -0.1754478067 0.5927198529 4290486570
-0.3062261045 -0.1745782197 0.5920042396 4290552363
-0.3054109514 -0.1734575033 0.5904283524 4290552363
-0.3059291244 -0.1730946898 0.5914301276 4290552363
-0.3055577576 -0.1722282320 0.5907121897 4290618156
-0.3051859438 -0.1713631451 0.5899934173 4290684206
-0.3048136830 -0.1704993993 0.5892737508 4290815792
-0.3044410050 -0.1696370095 0.5885532498 4290684460
-0.3040678799 -0.1687759757 0.5878319144 4290881839
-0.3036943376 -0.1679163128 0.5871097445 4291539769
-0.3033203185 -0.1670580059 0.5863867402 4291605562
-0.3029458821 -0.1662010700 0.5856628418 4291473461
-0.3021253943 -0.1651019752 0.5840767026 4291539254
-0.3017500043 -0.1642486900 0.5833509564 4291736633
-0.3013741374 -0.1633967608 0.5826243162 4291802426
-0.3014437854 -0.1627870351 0.5827589631 4291868221
-0.3010671735 -0.1619369835 0.5820308924 4291934014
-0.3002440035 -0.1608493030 0.5804395080 4292065598
-0.3003126681 -0.1602410227 0.5805722475 4292262977
-0.2999347448 -0.1593951434 0.5798416734 4292329024
-0.3000028431 -0.1587869227 0.5799732804 4292394817
-0.2996241748 -0.1579429209 0.5792412162 4292066113
-0.2992450595 -0.1571003199 0.5785083175 4292131906
-0.2988655269 -0.1562591195 0.5777745843 4292198213
-0.2989324033 -0.1556519866 0.5779038668 4292329799
-0.2985520959 -0.1548126936 0.5771686435 4292395592
-0.2986184061 -0.1542056650 0.5772968531 4292461385
-0.2982373536 -0.1533682793 0.5765601993 4292527178
-0.2978558540 -0.1525323242 0.5758227110 4292527178
-0.2979212701 -0.1519259065 0.5759491324 4292527178
-0.2975390255 -0.1510918736 0.5752102137 4292461385
-0.2976038754 -0.1504855752 0.5753355622 4292461898
-0.2967732549 -0.1494281143 0.5737298131 4292527691
-0.2972851694 -0.1490473002 0.5747194290 4292527691
-0.2969014049 -0.1482171714 0.5739775300 4292593484
-0.2965172231 -0.1473884732 0.5732347965 4292659277
-0.2965806425 -0.1467829496 0.5733574033 4292725070
-0.2966437936 -0.1461770386 0.5734794736 4292790612
-0.2967067361 -0.1455707401 0.5736011267 4292856405
-0.2963211238 -0.1447450668 0.5728557110 4292922198
-0.2959350944 -0.1439208537 0.5721094608 4292987991
-0.2959971428 -0.1433152258 0.5722293854 4293119577
-0.2960589230 -0.1427092254 0.5723488331 4293185370
-0.2961204946 -0.1421028525 0.5724678636 4293251165
-0.2957330644 -0.1412817091 0.5717188716 4293185372
-0.2953452170 -0.1404620260 0.5709690452 4293382497
-0.2949569225 -0.1396438181 0.5702183843 4293448290
-0.2945682108 -0.1388270706 0.5694669485 4293317217
-0.2950773537 -0.1384332031 0.5704512000 4293317217
-0.2946880162 -0.1376175731 0.5696985126 4293317218
-0.2947475314 -0.1370122731 0.5698136091 4293317218
-0.2948068380 -0.1364066005 0.5699282289 4293251425
-0.2944163978 -0.1355935484 0.5691733956 4293317218
-0.2940255404 -0.1347819865 0.5684177876 4293251173
-0.2940839231 -0.1341770738 0.5685306787 4293251173
-0.2941420972 -0.1335718185 0.5686431527 4293316964
-0.2937501669 -0.1327628642 0.5678854585 4293448550
-0.2938077450 -0.1321578175 0.5679967403 4293448550
-0.2934150696 -0.1313509345 0.5672376156 4293251171
-0.2930219769 -0.1305455714 0.5664777160 4293184867
-0.2930786610 -0.1299413145 0.5665872693 4293250660
-0.2926848233 -0.1291380227 0.5658259392 4293184867
-0.2927409410 -0.1285339892 0.5659344196 4293579625
-0.2923463583 -0.1277327985 0.5651715994 4293448039
-0.2919513881 -0.1269331127 0.5644080043 4292724316
-0.2924572229 -0.1265248656 0.5653859377 4291869007
-0.2925122976 -0.1259203851 0.5654923916 4291145284
-0.2925671041 -0.1253155619 0.5655983686 4290750528
-0.2921708226 -0.1245182455 0.5648322105 4290816321
-0.2922250628 -0.1239136830 0.5649371147 4291208506
-0.2922790647 -0.1233087778 0.5650414824 4291142713
-0.2918817103 -0.1225141883 0.5642732978 4291012923
-0.2923863530 -0.1220979765 0.5652489066 4291276095
-0.2924396098 -0.1214920729 0.5653519034 4291278149
-0.2920412719 -0.1206992939 0.5645817518 4291672907
-0.2916425169 -0.1199080497 0.5638108850 4291476813
-0.2916948795 -0.1193030402 0.5639120936 4291345227
-0.2912953794 -0.1185139567 0.5631397963 4291409998
-0.2908954918 -0.1177264228 0.5623667240 4291475791
-0.2904951572 -0.1169404462 0.5615928173 4291671892
-0.2919018865 -0.1168797389 0.5643123388 4291737685
-0.2919530272 -0.1162731126 0.5644111633 4292131419
-0.2915518880 -0.1154871210 0.5636357069 4292460384
-0.2916024625 -0.1148808002 0.5637334585 4292854372
-0.2925571203 -0.1146285012 0.5655790567 4292985958
-0.2926073372 -0.1140196696 0.5656760931 4293053291
-0.2908479869 -0.1127093807 0.5622748733 4293382256
-0.2927070260 -0.1128010750 0.5658687949 4293382258
-0.2927564979 -0.1121913120 0.5659644604 4293513844
-0.2914480269 -0.1110638604 0.5634348989 4293776763
-0.2919493914 -0.1106278226 0.5644041300 4293842556
-0.2906398177 -0.1095073074 0.5618724227 4293909119
-0.2911406755 -0.1090706736 0.5628407598 4293909119
-0.2911885977 -0.1084631607 0.5629333258 4293712251
-0.2912362516 -0.1078553498 0.5630254745 4293646458
-0.2949076891 -0.1085815728 0.5701232553 4293514872
-0.2958616018 -0.1082972884 0.5719673038 4293514872
-0.2981749773 -0.1085036173 0.5764396191 4293449599
-0.2995823920 -0.1083722711 0.5791604519 4293318013
-0.2969102859 -0.1067679077 0.5739946961 4292989567
-0.2978640199 -0.1064710692 0.5758384466 4292989567
-0.2988177836 -0.1061701402 0.5776823163 4293119605
-0.3002250791 -0.1060252860 0.5804029107 4293053812
-0.3308144212 -0.2395610511 0.6409152150 4287926404
-0.3309120238 -0.2389194071 0.6411043406 4287793486
-0.3310094476 -0.2382772118 0.6412929893 4288451416
-0.3315422833 -0.2379471213 0.6423253417 4289501774
-0.3316394091 -0.2373029441 0.6425135136 4289304395
-0.3313004076 -0.2363472134 0.6418567300 4290025804
-0.3313969672 -0.2357027531 0.6420438290 4290025804
-0.3310571611 -0.2347484380 0.6413854957 4289827908
-0.3302806020 -0.2334868312 0.6398809552 4289893701
-0.3308125734 -0.2331508249 0.6409116387 4289828423
-0.3309080601 -0.2325058132 0.6410966516 4289367872
-0.3310033381 -0.2318602502 0.6412812471 4289631536
-0.3315352201 -0.2315191627 0.6423116922 4289368364
-0.3316302001 -0.2308716327 0.6424956918 4289368375
-0.3317249715 -0.2302235365 0.6426792741 4289697340
-0.3318195343 -0.2295749038 0.6428624988 4289894717
-0.3319138885 -0.2289257050 0.6430452466 4289828924
-0.3320080042 -0.2282759547 0.6432276368 4290091066
-0.3321019113 -0.2276256531 0.6434095502 4290091066
-0.3321956098 -0.2269748002 0.6435911059 4290222142
-0.3318513036 -0.2260252088 0.6429240108 4290156349
-0.3319444358 -0.2253741175 0.6431044936 4290222391
-0.3320373893 -0.2247224748 0.6432845592 4290156598
-0.3321300745 -0.2240702808 0.6434641480 4290091310
-0.3322225809 -0.2234175503 0.6436433196 4290157103
-0.3323148489 -0.2227642685 0.6438221335 4290287414
-0.3324069083 -0.2221104503 0.6440004706 4290353207
-0.3316214383 -0.2208717763 0.6424787045 4290091317
-0.3321515918 -0.2205098867 0.6435058117 4290091317
-0.3313650787 -0.2192744464 0.6419820189 4290091571
-0.3305778503 -0.2180419266 0.6404568553 4290091571
-0.3293507993 -0.2165236324 0.6380795836 4290157364
-0.3259265423 -0.2135708481 0.6314454675 4290223157
-0.3273332417 -0.2137880176 0.6341708302 4290288437
-0.3243455291 -0.2111385018 0.6283824444 4290288437
-0.3231143653 -0.2096415311 0.6259972453 4290222642
-0.3218822777 -0.2081492692 0.6236101985 4290222642
-0.3206492662 -0.2066617012 0.6212213635 4290288689
-0.3198553026 -0.2054614574 0.6196831465 4290354482
-0.3190606236 -0.2042641938 0.6181435585 4290354480
-0.3182652593 -0.2030699104 0.6166026592 4290354480
-0.3179095387 -0.2021586299 0.6159134507 4290354480
-0.3166725039 -0.2006903291 0.6135168672 4290354480
-0.3176372945 -0.2006180286 0.6153860092 4290288686
-0.3159583211 -0.1988774687 0.6121332049 4290157100
-0.3156005740 -0.1979729384 0.6114401221 4290157613
-0.3152423501 -0.1970696449 0.6107460856 4290223406
-0.3144426942 -0.1958928853 0.6091968417 4290288686
-0.3140834570 -0.1949930042 0.6085008979 4290288686
-0.3132825494 -0.1938214004 0.6069492102 4290288940
-0.3129222989 -0.1929249465 0.6062512398 4290288940
-0.3130030930 -0.1923009902 0.6064077616 4290223147
-0.3126420677 -0.1914062053 0.6057083607 4290354733
-0.3122805953 -0.1905126870 0.6050080657 4290354731
-0.3119187057 -0.1896204799 0.6043068767 4290354731
-0.3115563393 -0.1887295395 0.6036048532 4290420524
-0.3111935258 -0.1878398955 0.6029019356 4290420524
-0.3108302653 -0.1869515479 0.6021981835 4290485547
-0.3104665875 -0.1860644966 0.6014935374 4290551340
-0.3101024330 -0.1851787418 0.6007880569 4290486317
-0.3097378314 -0.1842942983 0.6000817418 4290354731
-0.3093728125 -0.1834111512 0.5993745327 4290288938
-0.3090073466 -0.1825293154 0.5986664295 4290288938
-0.3086414039 -0.1816487908 0.5979574919 4290486315
-0.3082750440 -0.1807695925 0.5972477198 4290552108
-0.3074651957 -0.1796328723 0.5956787467 4290552108
-0.3075409830 -0.1790151447 0.5958255529 4290617901
-0.3071733117 -0.1781398952 0.5951132178 4290552108
-0.3072485328 -0.1775221527 0.5952589512 4290486315
-0.3068800569 -0.1766486764 0.5945451260 4290552363
-0.3060675859 -0.1755221486 0.5929710269 4290486570
-0.3061417937 -0.1749057323 0.5931147933 4290486570
-0.3053282201 -0.1737836748 0.5915386081 4290618156
-0.3054018021 -0.1731681377 0.5916811228 4290552363
-0.3050311208 -0.1723013669 0.5909630060 4290552363
-0.3046600223 -0.1714359373 0.5902439952 4290486570
-0.3042884767 -0.1705718637 0.5895242095 4290683949
-0.3039164841 -0.1697091311 0.5888035297 4290683947
-0.3035440743 -0.1688477695 0.5880820155 4290683947
-0.3031712174 -0.1679877639 0.5873596072 4290947371
-0.3027979136 -0.1671291292 0.5866364241 4291078957
-0.3019794524 -0.1660273373 0.5850507021 4291078956
-0.3016051650 -0.1651723385 0.5843256116 4291144749
-0.3012304604 -0.1643187106 0.5835996866 4291276848
-0.3008553386 -0.1634664685 0.5828728676 4291474227
-0.3004797697 -0.1626155972 0.5821452141 4291540020
-0.2996585071 -0.1615261137 0.5805541277 4291671606
-0.3006180227 -0.1613962203 0.5824131370 4292000316
-0.2997958958 -0.1603095084 0.5808203220 4292197695
-0.2994186878 -0.1594632864 0.5800895691 4292131902
-0.2994867265 -0.1588548571 0.5802213550 4292197695
-0.2991087735 -0.1580105126 0.5794891119 4291935295
-0.2987303734 -0.1571675837 0.5787560344 4291935295
-0.2983515561 -0.1563260555 0.5780220628 4292066881
-0.2979722917 -0.1554859281 0.5772873163 4292198467
-0.2980387807 -0.1548790634 0.5774161220 4292264260
-0.2976587713 -0.1540408581 0.5766798854 4292395846
-0.2972783148 -0.1532040536 0.5759428144 4292395844
-0.2973439097 -0.1525977999 0.5760698915 4292330051
-0.2969627082 -0.1517629325 0.5753313303 4292330051
-0.2970277369 -0.1511567980 0.5754573345 4292461637
-0.2966457605 -0.1503238678 0.5747173429 4292395846
-0.2962633967 -0.1494923681 0.5739765167 4292395846
-0.2967744768 -0.1491114348 0.5749666691 4292396103
-0.2959443927 -0.1480573118 0.5733584762 4292396103
-0.2960079610 -0.1474519372 0.5734816790 4292462150
-0.2956240773 -0.1466243565 0.5727379322 4292593736
-0.2956870794 -0.1460191309 0.5728600025 4292659018
-0.2957498729 -0.1454135031 0.5729815960 4292790604
-0.2953648865 -0.1445884258 0.5722357631 4292856143
-0.2954271138 -0.1439829469 0.5723562837 4292856143
-0.2950413823 -0.1431598663 0.5716090202 4292790352
-0.2951030135 -0.1425545365 0.5717284083 4292856145
-0.2951644361 -0.1419488490 0.5718474388 4293053784
-0.2952256203 -0.1413427740 0.5719659328 4293185370
-0.2948384881 -0.1405227631 0.5712159276 4293119579
-0.2940027416 -0.1394915879 0.5695967674 4293053786
-0.2940629423 -0.1388871521 0.5697134137 4293119839
-0.2936745286 -0.1380715519 0.5689609051 4293185632
-0.2937341630 -0.1374672949 0.5690764189 4293119585
-0.2933450043 -0.1366537362 0.5683224797 4293251171
-0.2934040725 -0.1360496730 0.5684369206 4293382759
-0.2930141687 -0.1352381408 0.5676815510 4293316966
-0.2926238775 -0.1344280988 0.5669253469 4293448291
-0.2931309342 -0.1340300590 0.5679077506 4293448291
-0.2931889594 -0.1334254742 0.5680201650 4293448291
-0.2932467163 -0.1328205317 0.5681321025 4293514084
-0.2928551137 -0.1320127547 0.5673733354 4293514084
-0.2924630642 -0.1312064826 0.5666137934 4293382498
-0.2925199568 -0.1306023300 0.5667240024 4293382498
-0.2921271622 -0.1297981441 0.5659630299 4293514084
-0.2921834886 -0.1291942149 0.5660721660 4293250912
-0.2917899489 -0.1283921152 0.5653097034 4293448291
-0.2918456793 -0.1277884245 0.5654177070 4293382498
-0.2919012010 -0.1271843910 0.5655252337 4292395603
-0.2910567522 -0.1261899322 0.5638892651 4291079743
-0.2915615439 -0.1257811785 0.5648671985 4290684985
-0.2916162312 -0.1251770407 0.5649731755 4290750778
-0.2912205756 -0.1243803352 0.5642066002 4290619192
-0.2912746966 -0.1237764582 0.5643115044 4290618681
-0.2913285792 -0.1231722459 0.5644158721 4290684474
-0.2918325663 -0.1227571443 0.5653923154 4291079232
-0.2914355993 -0.1219628230 0.5646231771 4291210818
-0.2914887369 -0.1213576123 0.5647261739 4291408456
-0.2910910249 -0.1205654368 0.5639556646 4291934800
-0.2906929255 -0.1197748110 0.5631843805 4292395355
-0.2907451689 -0.1191704869 0.5632855892 4292592734
-0.2907971740 -0.1185658351 0.5633863211 4292855651
-0.2899470627 -0.1175950915 0.5617393255 4292855651
-0.2904494107 -0.1171736196 0.5627126098 4292921959
-0.2905006111 -0.1165689453 0.5628117919 4292987752
-0.2910026908 -0.1161440164 0.5637845397 4293053291
-0.2901509702 -0.1151795089 0.5621343851 4293250670
-0.2911039889 -0.1149311960 0.5639807582 4293448051
-0.2911542654 -0.1143243164 0.5640781522 4293513844
-0.2903013229 -0.1133645028 0.5624256730 4293185398
-0.2912540436 -0.1131096035 0.5642714500 4292988019
-0.2913035750 -0.1125017852 0.5643674135 4293382777
-0.2913528383 -0.1118936539 0.5644629002 4293777535
-0.2900464833 -0.1107676104 0.5619319677 4293909121
-0.2909987569 -0.1105048805 0.5637769103 4294040707
-0.2914991379 -0.1100674197 0.5647463202 4294106498
-0.2919994295 -0.1096277684 0.5657155514 4294106498
-0.2906912565 -0.1085108966 0.5631811023 4294172291
-0.2929996550 -0.1087418944 0.5676534176 4294369670
-0.2930473983 -0.1081288010 0.5677458644 4294303877
-0.2935471833 -0.1076813266 0.5687141418 4294106498
-0.2917849422 -0.1064068079 0.5653000474 4294107011
-0.2940939665 -0.1066157818 0.5697734952 4294041218
-0.2914256752 -0.1050211564 0.5646039844 4293909630
-0.2923770249 -0.1047346294 0.5664471388 4293909630
-0.2933284044 -0.1044440269 0.5682902932 4294105728
-0.2938270867 -0.1039891019 0.5692564249 4294039935
-0.3011177778 -0.1059211865 0.5833813548 4293777533
-0.3029759228 -0.1059226319 0.5869812369 4293645947
-0.2957753539 -0.1027685851 0.5730310082 4293449081
-0.3294653296 -0.2383878380 0.6396779418 4289834888
-0.3295623660 -0.2377471328 0.6398663521 4288519028
-0.3296592236 -0.2371058464 0.6400544047 4288846178
-0.3297558725 -0.2364640087 0.6402420402 4288846178
-0.3298523128 -0.2358215898 0.6404292583 4289435731
-0.3295132518 -0.2348683625 0.6397709846 4289698903
-0.3296091259 -0.2342256755 0.6399571300 4290223694
-0.3292692900 -0.2332738638 0.6392973065 4289960522
-0.3293646276 -0.2326309085 0.6394824386 4289696839
-0.3294597864 -0.2319873869 0.6396671534 4289631046
-0.3295547366 -0.2313433290 0.6398515105 4289566005
-0.3296494484 -0.2306986898 0.6400354505 4289434419
-0.3301801383 -0.2303578258 0.6410657763 4289565754
-0.3302745819 -0.2297112346 0.6412491202 4289828926
-0.3303687871 -0.2290640771 0.6414320469 4290026043
-0.3304628134 -0.2284163833 0.6416146159 4289960250
-0.3305566013 -0.2277681381 0.6417967081 4290157111
-0.3306501806 -0.2271193266 0.6419783831 4290288697
-0.3307435513 -0.2264699787 0.6421597004 4290091068
-0.3303996623 -0.2255217731 0.6414920092 4290091068
-0.3304924667 -0.2248721719 0.6416721940 4290026041
-0.3305850625 -0.2242220342 0.6418520212 4289960248
-0.3306774497 -0.2235713601 0.6420313716 4290091571
-0.3307696283 -0.2229201198 0.6422103047 4290223157
-0.3312992156 -0.2225623578 0.6432385445 4290287416
-0.3309533000 -0.2216160297 0.6425669193 4290287416
-0.3306069076 -0.2206708938 0.6418944001 4290157111
-0.3311361074 -0.2203097790 0.6429218650 4290157111
-0.3307890296 -0.2193652838 0.6422479749 4290091317
-0.3304415047 -0.2184219956 0.6415732503 4290091317
-0.3287784159 -0.2166134417 0.6383442283 4290157364
-0.3271141350 -0.2148112804 0.6351129413 4290157364
-0.3254486918 -0.2130155414 0.6318793893 4290222644
-0.3242207766 -0.2115124315 0.6294953227 4290222644
-0.3229919672 -0.2100140154 0.6271094680 4290222642
-0.3217622042 -0.2085203081 0.6247218251 4290222642
-0.3205315173 -0.2070312947 0.6223323941 4290288689
-0.3197391033 -0.2058297247 0.6207938790 4290354482
-0.3189460039 -0.2046311498 0.6192539930 4290354480
-0.3181522191 -0.2034355402 0.6177128553 4290354480
-0.3160390854 -0.2014025748 0.6136100292 4290288689
-0.3170022666 -0.2013325393 0.6154801250 4290288689
-0.3157667518 -0.1998666674 0.6130812764 4290222894
-0.3154101372 -0.1989605427 0.6123889089 4290157101
-0.3146130443 -0.1977790445 0.6108412743 4290157614
-0.3142554164 -0.1968763024 0.6101469398 4290223407
-0.3134570718 -0.1956999600 0.6085969210 4290223406
-0.3130984306 -0.1948006302 0.6079005599 4290223406
-0.3127393425 -0.1939025670 0.6072033644 4290354479
-0.3128203750 -0.1932779998 0.6073607206 4290288686
-0.3124605119 -0.1923815906 0.6066619754 4290354733
-0.3121001720 -0.1914864779 0.6059623957 4290354733
-0.3117394149 -0.1905926317 0.6052619219 4290354733
-0.3113781810 -0.1897000819 0.6045606136 4290354733
-0.3110165298 -0.1888088137 0.6038584113 4290420524
-0.3110956848 -0.1881857663 0.6040120721 4290354731
-0.3102918565 -0.1870301515 0.6024513841 4290354731
-0.3099288344 -0.1861427724 0.6017466187 4290420524
-0.3095653951 -0.1852566898 0.6010409594 4290355244
-0.3096432090 -0.1846352965 0.6011920571 4290289451
-0.3092789948 -0.1837509274 0.6004849076 4290289451
-0.3089143336 -0.1828678697 0.5997768641 4290355244
-0.3085492253 -0.1819861382 0.5990679860 4290355242
-0.3081836700 -0.1811057031 0.5983582139 4290355242
-0.3073754013 -0.1799676418 0.5967889428 4290421035
-0.3070088327 -0.1790907532 0.5960772634 4290486828
-0.3070843220 -0.1784723401 0.5962238312 4290420777
-0.3067170084 -0.1775971949 0.5955106020 4290486570
-0.3063492477 -0.1767233908 0.5947965980 4290552363
-0.3059810400 -0.1758509278 0.5940816998 4290486570
-0.3056123853 -0.1749797761 0.5933659673 4290486570
-0.3052433133 -0.1741099805 0.5926493406 4290552363
-0.3048737943 -0.1732415259 0.5919318795 4290486568
-0.3045038283 -0.1723744273 0.5912135839 4290486568
-0.3041334152 -0.1715086550 0.5904943943 4290486568
-0.3037625849 -0.1706442535 0.5897743702 4290552361
-0.3033913076 -0.1697811931 0.5890535116 4290552361
-0.3030195832 -0.1689195037 0.5883318186 4290552361
-0.3026474118 -0.1680591702 0.5876092911 4290618154
-0.3022748232 -0.1672001928 0.5868858695 4290683947
-0.3019018173 -0.1663426012 0.5861616135 4290683947
-0.3015283644 -0.1654863656 0.5854365230 4290683947
-0.3011544645 -0.1646315008 0.5847105980 4290750251
-0.3003358543 -0.1635361165 0.5831211805 4290947630
-0.2999609709 -0.1626849174 0.5823933482 4291013423
-0.2995856702 -0.1618350893 0.5816646814 4291145009
-0.3000991344 -0.1614650786 0.5826615691 4291342388
-0.2992784679 -0.1603779346 0.5810682774 4291539767
-0.2989019752 -0.1595313847 0.5803372860 4291737144
-0.2985250652 -0.1586862206 0.5796054602 4291868730
-0.2985927165 -0.1580780447 0.5797367692 4291868732
-0.2982150316 -0.1572347879 0.5790034533 4291934525
-0.2978368998 -0.1563929170 0.5782693624 4291935295
-0.2974583507 -0.1555524617 0.5775343776 4292001088
-0.2975247800 -0.1549453735 0.5776633620 4292001088
-0.2971454859 -0.1541068405 0.5769268870 4292132674
-0.2967657447 -0.1532697082 0.5761896372 4292132672
-0.2968312800 -0.1526632309 0.5763168335 4292066879
-0.2964507937 -0.1518280357 0.5755780935 4292198465
-0.2960698903 -0.1509942561 0.5748385787 4292264258
-0.2961345315 -0.1503884047 0.5749640465 4292198465
-0.2957528532 -0.1495565772 0.5742230415 4292198465
-0.2958169281 -0.1489508301 0.5743474364 4292198465
-0.2954345047 -0.1481209546 0.5736049414 4292198465
-0.2954980433 -0.1475153565 0.5737282634 4292264258
-0.2951148450 -0.1466874480 0.5729842782 4292330051
-0.2951778173 -0.1460819691 0.5731065273 4292330051
-0.2947938740 -0.1452560276 0.5723611116 4292330051
-0.2948562801 -0.1446507126 0.5724822879 4292395846
-0.2949184477 -0.1440449953 0.5726029873 4292461639
-0.2945334315 -0.1432215869 0.5718554258 4292527178
-0.2945950329 -0.1426160336 0.5719750524 4292658764
-0.2942092717 -0.1417946070 0.5712260604 4292856145
-0.2942703068 -0.1411892176 0.5713445544 4292921938
-0.2938838005 -0.1403698027 0.5705941319 4292856405
-0.2934968472 -0.1395518482 0.5698428750 4292856405
-0.2931095064 -0.1387353688 0.5690907836 4292922200
-0.2931693196 -0.1381312460 0.5692068934 4292922200
-0.2927812040 -0.1373167932 0.5684533715 4292921946
-0.2928404510 -0.1367128640 0.5685684085 4293053532
-0.2924516201 -0.1359004527 0.5678134561 4293185119
-0.2925103009 -0.1352967173 0.5679274201 4293185119
-0.2925687432 -0.1346926093 0.5680408478 4293185632
-0.2917307019 -0.1336774677 0.5664137602 4293185632
-0.2922367156 -0.1332789063 0.5673961639 4293185632
-0.2922943532 -0.1326746643 0.5675081015 4293251425
-0.2919033468 -0.1318674833 0.5667489767 4293317218
-0.2915119529 -0.1310618073 0.5659890175 4293251425
-0.2915686965 -0.1304583549 0.5660992265 4293251425
-0.2916252017 -0.1298545301 0.5662088990 4293251425
-0.2912327349 -0.1290515214 0.5654469132 4293317218
-0.2908398509 -0.1282500178 0.5646840930 4293383011
-0.2908954620 -0.1276470125 0.5647920370 4293185632
-0.2905018330 -0.1268476099 0.5640277863 4292396116
-0.2905568779 -0.1262448579 0.5641346574 4291409221
-0.2906116843 -0.1256417632 0.5642411113 4291014463
-0.2906662226 -0.1250383109 0.5643470287 4290948670
-0.2902712226 -0.1242422089 0.5635800958 4290553912
-0.2903251946 -0.1236390248 0.5636848807 4290816060
-0.2908284664 -0.1232259646 0.5646619797 4290947646
-0.2908820510 -0.1226211712 0.5647660494 4291277124
-0.2904857397 -0.1218274608 0.5639965534 4291606089
-0.2905387580 -0.1212229431 0.5640994906 4292066640
-0.2901416719 -0.1204313785 0.5633285642 4292658777
-0.2897442281 -0.1196413562 0.5625568628 4292921697
-0.2897963524 -0.1190377250 0.5626580715 4293119076
-0.2893981338 -0.1182498634 0.5618849397 4293382250
-0.2894496918 -0.1176465228 0.5619850159 4293316457
-0.2895010114 -0.1170428619 0.5620846152 4293250922
-0.2895520627 -0.1164388806 0.5621837974 4293250922
-0.2887020707 -0.1154742837 0.5605335236 4293250924
-0.2896534204 -0.1152299568 0.5623806119 4293316717
-0.2897037566 -0.1146250218 0.5624783039 4293382256
-0.2888525724 -0.1136651188 0.5608256459 4293382256
-0.2889022231 -0.1130614430 0.5609220862 4292790121
-0.2898532152 -0.1128083318 0.5627685189 4292592742
-0.2899025381 -0.1122021452 0.5628643036 4292922477
-0.2890497446 -0.1112485379 0.5612085462 4293317235
-0.2886474133 -0.1104710177 0.5604273677 4293448566
-0.2900490165 -0.1103817448 0.5631486773 4293645945
-0.2892429531 -0.1088270620 0.5615836382 4293711738
-0.2892906368 -0.1082209349 0.5616762042 4293843324
-0.2906922102 -0.1081181690 0.5643974543 4294040703
-0.2893852293 -0.1070077941 0.5618598461 4294172291
-0.2894321680 -0.1064007804 0.5619509816 4294238084
-0.2903820276 -0.1061235517 0.5637952089 4294369672
-0.2926869988 -0.1063345373 0.5682704449 4294369672
-0.2931854129 -0.1058831513 0.5692381263 4294303877
-0.2945873439 -0.1057539731 0.5719601512 4294238084
-0.2923743427 -0.1043288037 0.5676634312 4294172289
-0.2955839038 -0.1048364490 0.5738949776 4294238082
-0.2960820198 -0.1043744013 0.5748621225 4294238086
-0.2943194807 -0.1031181589 0.5714400411 4294238086
-0.2939576507 -0.1017231345 0.5707374811 4294237833
-0.3311738670 -0.1060287282 0.6429951787 4293583775
-0.3278761804 -0.2356242090 0.6379682422 4288914315
-0.3275377452 -0.2346729040 0.6373097301 4288517478
-0.3276333809 -0.2340331078 0.6374958158 4288978029
-0.3281634450 -0.2337023020 0.6385272145 4289962075
-0.3278240263 -0.2327518612 0.6378667355 4289896282
-0.3283539414 -0.2324182391 0.6388978362 4290026063
-0.3271437883 -0.2308544070 0.6365431547 4289631305
-0.3285436034 -0.2311319411 0.6392668486 4289828413
-0.3286381066 -0.2304879576 0.6394507885 4289696827
-0.3287324309 -0.2298434228 0.6396342516 4289828411
-0.3288265169 -0.2291983217 0.6398173571 4290025790
-0.3289203942 -0.2285526842 0.6400000453 4290222903
-0.3294498622 -0.2282083482 0.6410302520 4290222903
-0.3291075230 -0.2272597253 0.6403641701 4290288439
-0.3292007744 -0.2266124338 0.6405456066 4290354232
-0.3292938173 -0.2259645760 0.6407266259 4290156859
-0.3293866217 -0.2253161818 0.6409072280 4290091066
-0.3290428519 -0.2243696600 0.6402382851 4290026041
-0.3291351199 -0.2237210274 0.6404178143 4290026041
-0.3296638131 -0.2233677059 0.6414465308 4290157111
-0.3297557533 -0.2227171212 0.6416254640 4290222904
-0.3298475146 -0.2220659852 0.6418039799 4290353211
-0.3299390376 -0.2214143127 0.6419820189 4290353211
-0.3300303221 -0.2207621038 0.6421597004 4290157111
-0.3288096786 -0.2192347348 0.6397845745 4290157111
-0.3297749162 -0.2191653848 0.6416627169 4290222903
-0.3294279575 -0.2182226181 0.6409876347 4290222903
-0.3286429346 -0.2169920951 0.6394601464 4290222903
-0.3282949328 -0.2160525918 0.6387829781 4290157110
-0.3270707726 -0.2145398855 0.6364011168 4290157364
-0.3254077137 -0.2127455175 0.6331651807 4290091571
-0.3241815865 -0.2112430483 0.6307794452 4290222644
-0.3229545057 -0.2097452879 0.6283918619 4290288437
-0.3217265010 -0.2082522213 0.6260024309 4290288689
-0.3204975724 -0.2067638636 0.6236112714 4290288689
-0.3197062910 -0.2055622041 0.6220715642 4290354482
-0.3189142942 -0.2043635249 0.6205306053 4290354482
-0.3181216419 -0.2031678408 0.6189882755 4290288689
-0.3173282743 -0.2019751370 0.6174445748 4290288689
-0.3160952330 -0.2005069554 0.6150453091 4290157360
-0.3157395422 -0.1995987445 0.6143532395 4290157360
-0.3153833747 -0.1986917704 0.6136602759 4290157614
-0.3145874143 -0.1975102127 0.6121115088 4290223407
-0.3142302334 -0.1966066509 0.6114165187 4290157614
-0.3138726354 -0.1957043409 0.6107206941 4290223407
-0.3126351535 -0.1942568719 0.6083128452 4290354480
-0.3127162457 -0.1936312020 0.6084706187 4290288687
-0.3123571575 -0.1927335858 0.6077719927 4290420272
-0.3119976521 -0.1918372512 0.6070724130 4290420272
-0.3111975193 -0.1906725019 0.6055155396 4290354479
-0.3108370006 -0.1897796243 0.6048140526 4290354479
-0.3104760349 -0.1888880283 0.6041117311 4290354733
-0.3105551004 -0.1882647574 0.6042655706 4290354733
-0.3101933599 -0.1873748600 0.6035616994 4290354733
-0.3098311722 -0.1864862442 0.6028569937 4290354733
-0.3094685376 -0.1855989397 0.6021513343 4290289197
-0.3091054261 -0.1847129464 0.6014449000 4290289197
-0.3087419271 -0.1838282496 0.6007375717 4290355244
-0.3083779514 -0.1829448640 0.6000293493 4290355244
-0.3080135286 -0.1820627898 0.5993202925 4290223658
-0.3080900609 -0.1814419627 0.5994691849 4290289451
-0.3072833717 -0.1803025752 0.5978995562 4290355242
-0.3069176376 -0.1794244647 0.5971879363 4290355242
-0.3065514565 -0.1785476655 0.5964754224 4290355242
-0.3066266477 -0.1779285669 0.5966217518 4290355242
-0.3062596917 -0.1770535409 0.5959077477 4290421034
-0.3058922887 -0.1761798412 0.5951929092 4290355241
-0.3055244684 -0.1753074676 0.5944771767 4290421034
-0.3051561713 -0.1744364500 0.5937606096 4290421034
-0.3052298427 -0.1738186777 0.5939038992 4290355241
-0.3044183254 -0.1726984233 0.5923248529 4290486827
-0.3040487170 -0.1718314439 0.5916057229 4290420773
-0.3032360077 -0.1707165837 0.5900244117 4290420773
-0.3028654456 -0.1698531955 0.5893033147 4290486568
-0.3024944365 -0.1689911783 0.5885814428 4290552361
-0.3021229804 -0.1681305021 0.5878586769 4290552363
-0.3017511070 -0.1672712117 0.5871350765 4290618156
-0.3013787866 -0.1664132774 0.5864106417 4290683694
-0.3010060191 -0.1655567139 0.5856853724 4290683694
-0.3006328344 -0.1647015214 0.5849592090 4290618414
-0.3002592027 -0.1638477147 0.5842322707 4290618414
-0.2998851538 -0.1629952788 0.5835044384 4290684206
-0.2995106578 -0.1621442288 0.5827757716 4290749999
-0.2991357446 -0.1612945646 0.5820462704 4290816046
-0.2987604141 -0.1604462862 0.5813159347 4291013425
-0.2983846068 -0.1595994085 0.5805847645 4291276595
-0.2984525263 -0.1589905173 0.5807169080 4291408181
-0.2980759740 -0.1581455171 0.5799842477 4291539769
-0.2976990044 -0.1573019326 0.5792507529 4291473976
-0.2973216176 -0.1564597338 0.5785163641 4291539769
-0.2969437838 -0.1556189507 0.5777812004 4291605562
-0.2965655029 -0.1547795832 0.5770452023 4291671355
-0.2966315448 -0.1541727632 0.5771737099 4291802941
-0.2962525189 -0.1533353031 0.5764362216 4291934525
-0.2963180244 -0.1527286023 0.5765635967 4292000318
-0.2959382236 -0.1518930644 0.5758246779 4292066111
-0.2955580354 -0.1510589719 0.5750849247 4292197697
-0.2951774001 -0.1502262950 0.5743442774 4292263490
-0.2952416539 -0.1496207118 0.5744693279 4292329283
-0.2953056991 -0.1490147561 0.5745939016 4292263488
-0.2949239910 -0.1481845528 0.5738511682 4292197695
-0.2949874401 -0.1475787014 0.5739746690 4292198465
-0.2946049869 -0.1467504650 0.5732305050 4292132672
-0.2942221165 -0.1459236741 0.5724855065 4292263743
-0.2942846715 -0.1453184932 0.5726072788 4292197950
-0.2939010262 -0.1444936842 0.5718607903 4292066879
-0.2939630449 -0.1438886523 0.5719814301 4292132672
-0.2940248251 -0.1432832479 0.5721016526 4292198467
-0.2936401069 -0.1424609572 0.5713530779 4292395846
-0.2937013507 -0.1418557018 0.5714722276 4292592971
-0.2933158576 -0.1410354227 0.5707221627 4292790350
-0.2929299772 -0.1402165890 0.5699713230 4292658766
-0.2925436795 -0.1393992305 0.5692197084 4292724559
-0.2921569645 -0.1385833472 0.5684671998 4292724306
-0.2922166288 -0.1379799247 0.5685833097 4292790099
-0.2918291688 -0.1371660680 0.5678293705 4292855894
-0.2918882668 -0.1365628242 0.5679444075 4292921687
-0.2915000319 -0.1357509941 0.5671890378 4292922200
-0.2915585935 -0.1351479441 0.5673029423 4292922200
-0.2916168869 -0.1345445365 0.5674163699 4292856666
-0.2912276089 -0.1337353289 0.5666589141 4292856666
-0.2912853360 -0.1331321299 0.5667712688 4292922459
-0.2913428545 -0.1325285584 0.5668831468 4292988252
-0.2914001048 -0.1319246292 0.5669946074 4292988253
-0.2905617356 -0.1309169084 0.5653632879 4293119839
-0.2906183302 -0.1303141415 0.5654734373 4293185632
-0.2906747162 -0.1297110170 0.5655831099 4293054046
-0.2902828753 -0.1289086044 0.5648207068 4293054046
-0.2903386652 -0.1283057034 0.5649293065 4293054046
-0.2899461091 -0.1275053918 0.5641654134 4293119839
-0.2895531058 -0.1267066002 0.5634007454 4292988253
-0.2896080315 -0.1261045337 0.5635076165 4292725081
-0.2896626890 -0.1255021244 0.5636140108 4292790874
-0.2892686427 -0.1247060299 0.5628472567 4292856667
-0.2897713184 -0.1242962778 0.5638253689 4292593495
-0.2898252606 -0.1236928552 0.5639303327 4292724570
-0.2898789644 -0.1230890900 0.5640348196 4292592984
-0.2894836068 -0.1222953871 0.5632655621 4292658775
-0.2895367444 -0.1216918901 0.5633689165 4292724568
-0.2891406715 -0.1209003329 0.5625982285 4292987742
-0.2891932428 -0.1202971116 0.5627005100 4293250914
-0.2887964249 -0.1195077002 0.5619283915 4293316453
-0.2883991897 -0.1187198386 0.5611554980 4293382246
-0.2880015671 -0.1179335341 0.5603818297 4293513834
-0.2885022759 -0.1175148636 0.5613561273 4293382248
-0.2881039977 -0.1167297885 0.5605811477 4293251175
-0.2877053320 -0.1159462780 0.5598053932 4293119589
-0.2882054746 -0.1155247763 0.5607786179 4293053542
-0.2873564661 -0.1145632192 0.5591266155 4292987749
-0.2883059680 -0.1143184900 0.5609741211 4292987749
-0.2870062888 -0.1131826639 0.5584452152 4292921956
-0.2884054780 -0.1131109446 0.5611677170 4292724577
-0.2884548306 -0.1125067100 0.5612637997 4292461405
-0.2871537209 -0.1113784388 0.5587320924 4292856164
-0.2867522240 -0.1106027812 0.5579509139 4293382508
-0.2881512642 -0.1105194539 0.5606730580 4293448303
-0.2881995738 -0.1099149287 0.5607670546 4293579889
-0.2873468399 -0.1089685112 0.5591078997 4293645682
-0.2873945236 -0.1083652750 0.5592006445 4293579889
-0.2887935340 -0.1082684547 0.5619227886 4293645430
-0.2870384753 -0.1069899425 0.5585079193 4293711223
-0.2870853245 -0.1063867584 0.5585990548 4293908603
-0.2889349461 -0.1064475402 0.5621979237 4294105982
-0.2907848954 -0.1065004393 0.5657975078 4294237314
-0.2881261408 -0.1049037799 0.5606242418 4294303107
-0.2886230946 -0.1044607460 0.5615912080 4294238086
-0.2900220454 -0.1043400690 0.5643131733 4294238086
-0.2887144685 -0.1032454818 0.5617689490 4294107262
-0.2887597382 -0.1026374176 0.5618570447 4294173055
-0.2892560661 -0.1021884829 0.5628227592 4294370181
-0.2897522449 -0.1017373726 0.5637882352 4294370181
-0.2925052941 -0.1020716578 0.5691450238 4294435211
-0.2952589393 -0.1023942456 0.5745028853 4294632590
-0.2966585159 -0.1022382751 0.5772261620 4294566800
-0.2976066470 -0.1019216478 0.5790710449 4294237835
-0.2994581461 -0.1019083336 0.5826736093 4294368904
-0.3344113231 -0.1044047773 0.6506840587 4294109616
-0.3261911273 -0.2335075289 0.6360641122 4288584584
-0.3267201185 -0.2331783473 0.6370956302 4289437549
-0.3268150985 -0.2325380892 0.6372808814 4289634928
-0.3264757693 -0.2315893024 0.6366191506 4289764950
-0.3265702426 -0.2309487760 0.6368033886 4289435985
-0.3262301087 -0.2300014496 0.6361401081 4290287942
-0.3271930814 -0.2299714833 0.6380178928 4290156356
-0.3272870481 -0.2293284386 0.6382011175 4289960252
-0.3273808062 -0.2286848426 0.6383839250 4290091838
-0.3274743557 -0.2280406952 0.6385663748 4290288696
-0.3275676668 -0.2273959965 0.6387483478 4290288696
-0.3272256553 -0.2264496237 0.6380814314 4290288697
-0.3273184597 -0.2258046865 0.6382623911 4290288697
-0.3278464079 -0.2254586071 0.6392918825 4290157113
-0.3275034130 -0.2245131582 0.6386229992 4290157113
-0.3275955617 -0.2238665670 0.6388027072 4290288697
-0.3281232417 -0.2235162705 0.6398317218 4290222904
-0.3282150924 -0.2228677422 0.6400107741 4290222904
-0.3283067048 -0.2222186625 0.6401894689 4290222904
-0.3288342655 -0.2218632996 0.6412181258 4290156859
-0.3289255798 -0.2212122679 0.6413962245 4290222652
-0.3285803199 -0.2202681750 0.6407229304 4290026041
-0.3282345831 -0.2193252742 0.6400488019 4290091834
-0.3278883994 -0.2183835655 0.6393737793 4290157881
-0.3279784918 -0.2177329808 0.6395494342 4290157881
-0.3271946609 -0.2165037394 0.6380209923 4290092088
-0.3264101446 -0.2152774483 0.6364911795 4290092088
-0.3247507513 -0.2134794444 0.6332554817 4290222903
-0.3252762258 -0.2131201178 0.6342800856 4290222903
-0.3240523934 -0.2116162032 0.6318936944 4290223157
-0.3228276670 -0.2101169974 0.6295054555 4290223157
-0.3220395744 -0.2089063227 0.6279686689 4290223155
-0.3203754127 -0.2071326822 0.6247236729 4290223155
-0.3195857108 -0.2059297115 0.6231837273 4290288948
-0.3187952936 -0.2047297060 0.6216424108 4290223155
-0.3180041909 -0.2035326809 0.6200998425 4290157360
-0.3172124028 -0.2023386657 0.6185558438 4290157360
-0.3159816861 -0.2008690387 0.6161559820 4290091567
-0.3151884377 -0.1996818781 0.6146091223 4290157360
-0.3152714670 -0.1990514249 0.6147710681 4290157360
-0.3149156570 -0.1981445104 0.6140772700 4290157360
-0.3141207099 -0.1969637573 0.6125271320 4290223407
-0.3133250773 -0.1957860291 0.6109756231 4290289200
-0.3120898008 -0.1943380088 0.6085669398 4290289200
-0.3126098812 -0.1939845681 0.6095810533 4290223407
-0.3118124306 -0.1928141713 0.6080260873 4290354992
-0.3114536107 -0.1919174939 0.6073263884 4290354992
-0.3106549382 -0.1907523125 0.6057689786 4290289199
-0.3102951050 -0.1898590922 0.6050673127 4290289199
-0.3103744686 -0.1892351955 0.6052220464 4290289199
-0.3100138605 -0.1883436739 0.6045188904 4290223406
-0.3100926578 -0.1877197027 0.6046725512 4290288940
-0.3097312748 -0.1868298799 0.6039678454 4290288940
-0.3093694448 -0.1859413534 0.6032622457 4290289199
-0.3090071678 -0.1850541383 0.6025558710 4290289199
-0.3086444438 -0.1841682196 0.6018485427 4290289197
-0.3082812726 -0.1832836121 0.6011403799 4290223404
-0.3079176843 -0.1824003160 0.6004313827 4290223404
-0.3075536191 -0.1815183312 0.5997214913 4290289197
-0.3071891367 -0.1806376576 0.5990107656 4290289451
-0.3068242073 -0.1797583103 0.5982991457 4290289451
-0.3064588308 -0.1788802892 0.5975866914 4290289451
-0.3056519628 -0.1777471155 0.5960133076 4290289451
-0.3057267666 -0.1771282405 0.5961591601 4290355242
-0.3053600788 -0.1762541980 0.5954440832 4290289449
-0.3049929440 -0.1753815114 0.5947282314 4290355241
-0.3041838706 -0.1742572337 0.5931505561 4290355241
-0.3046989441 -0.1738921553 0.5941549540 4290355241
-0.3043305874 -0.1730225831 0.5934366584 4290486827
-0.3035199940 -0.1719041467 0.5918560624 4290421286
-0.3031506836 -0.1710381806 0.5911358595 4290355493
-0.3027809262 -0.1701735556 0.5904148221 4290421288
-0.3024107218 -0.1693103015 0.5896929502 4290487081
-0.3015978634 -0.1682017744 0.5881078839 4290487081
-0.3012266755 -0.1673421413 0.5873841047 4290487081
-0.3008550704 -0.1664838791 0.5866594911 4290552363
-0.3004830182 -0.1656269878 0.5859339833 4290618156
-0.3005531728 -0.1650144905 0.5860708356 4290683949
-0.2997376323 -0.1639173329 0.5844805241 4290618156
-0.2993642986 -0.1630645692 0.5837525129 4290618156
-0.2989905179 -0.1622131914 0.5830236077 4290552363
-0.2986162901 -0.1613631994 0.5822939277 4290618154
-0.2986848056 -0.1607531011 0.5824275017 4290749740
-0.2983098328 -0.1599049866 0.5816963315 4290947119
-0.2979344428 -0.1590582579 0.5809643269 4291012912
-0.2975586057 -0.1582129300 0.5802314281 4290947378
-0.2971823514 -0.1573690176 0.5794977546 4290947378
-0.2968056500 -0.1565264910 0.5787632465 4290947378
-0.2964285314 -0.1556853801 0.5780278444 4291078964
-0.2960509956 -0.1548456848 0.5772916079 4291210804
-0.2961169481 -0.1542386264 0.5774202943 4291342390
-0.2957386672 -0.1534008533 0.5766826272 4291539769
-0.2958040833 -0.1527938992 0.5768101811 4291671355
-0.2954250276 -0.1519580483 0.5760710239 4291671353
-0.2950455248 -0.1511236131 0.5753310323 4291934525
-0.2946656048 -0.1502906084 0.5745902061 4292066111
-0.2947298288 -0.1496848166 0.5747153759 4292197697
-0.2947937846 -0.1490786076 0.5748401284 4292131904
-0.2944127917 -0.1482480764 0.5740972161 4292066111
-0.2944762111 -0.1476420015 0.5742208362 4292197695
-0.2940944731 -0.1468134373 0.5734764934 4292263488
-0.2937122881 -0.1459863186 0.5727312565 4292066878
-0.2937748134 -0.1453808993 0.5728531480 4292001085
-0.2933918834 -0.1445557624 0.5721064806 4292001086
-0.2934538424 -0.1439505070 0.5722272992 4292001086
-0.2930701971 -0.1431273371 0.5714791417 4292001088
-0.2931315899 -0.1425222456 0.5715988874 4292066881
-0.2927471697 -0.1417010874 0.5708492994 4292329799
-0.2928079963 -0.1410961449 0.5709679127 4292527178
-0.2924228311 -0.1402769834 0.5702168345 4292395594
-0.2915914059 -0.1392463893 0.5685955286 4292395594
-0.2916512489 -0.1386430860 0.5687122941 4292461388
-0.2912648320 -0.1378283501 0.5679587722 4292527181
-0.2913241088 -0.1372252405 0.5680743456 4292658513
-0.2909369469 -0.1364125311 0.5673193932 4292790099
-0.2905493677 -0.1356013119 0.5665636063 4292790099
-0.2906077802 -0.1349989623 0.5666775107 4292724306
-0.2906659245 -0.1343962252 0.5667909384 4292592981
-0.2902772725 -0.1335876286 0.5660330653 4292658774
-0.2903348804 -0.1329851002 0.5661454201 4292724567
-0.2903922498 -0.1323822290 0.5662572384 4292724567
-0.2900025249 -0.1315762550 0.5654973388 4292790360
-0.2900593281 -0.1309735924 0.5656080842 4292921946
-0.2896688879 -0.1301697046 0.5648466945 4293053532
-0.2897251248 -0.1295672655 0.5649563670 4293053532
-0.2893339097 -0.1287654638 0.5641935468 4293119326
-0.2884950340 -0.1277670860 0.5625576973 4292987740
-0.2889976501 -0.1273635477 0.5635378361 4293119326
-0.2890527546 -0.1267615855 0.5636453032 4293119326
-0.2886600792 -0.1259639859 0.5628795624 4292987740
-0.2887146175 -0.1253622621 0.5629859567 4293053533
-0.2887689173 -0.1247602105 0.5630918145 4293185119
-0.2888229787 -0.1241578162 0.5631972551 4293053533
-0.2888768017 -0.1235550791 0.5633021593 4293250914
-0.2889303863 -0.1229520068 0.5634066463 4293119328
-0.2885356843 -0.1221589148 0.5626369715 4293185121
-0.2885886729 -0.1215561107 0.5627403259 4293119328
-0.2886414528 -0.1209529787 0.5628432035 4293185121
-0.2882456779 -0.1201626360 0.5620715022 4293250914
-0.2874011397 -0.1191878989 0.5604246855 4293250660
-0.2879013717 -0.1187715903 0.5614001155 4293316453
-0.2875044942 -0.1179849580 0.5606262088 4293448039
-0.2871071696 -0.1171998829 0.5598514676 4293382246
-0.2871581614 -0.1165985465 0.5599508882 4293316453
-0.2872088850 -0.1159968898 0.5600497723 4293184867
-0.2868105471 -0.1152146161 0.5592730045 4293053283
-0.2873096168 -0.1147926301 0.5602462292 4292987490
-0.2869106233 -0.1140116006 0.5594682097 4292921697
-0.2865112126 -0.1132321432 0.5586893559 4292921697
-0.2870097458 -0.1128073335 0.5596614480 4292724827
-0.2870589197 -0.1122047305 0.5597573519 4292395862
-0.2871078551 -0.1116018221 0.5598527789 4292659036
-0.2867071629 -0.1108249053 0.5590714216 4293053794
-0.2867555320 -0.1102223247 0.5591657162 4293119589
-0.2868036330 -0.1096194461 0.5592595339 4293185382
-0.2864018977 -0.1088453829 0.5584761500 4293185128
-0.2868991196 -0.1084127724 0.5594457388 4293185128
-0.2869465053 -0.1078089848 0.5595381260 4293316715
-0.2860939503 -0.1068688333 0.5578756928 4293316715
-0.2870405018 -0.1066005230 0.5597214103 4293316463
-0.2875370979 -0.1061619818 0.5606898069 4293382256
-0.2880336046 -0.1057212502 0.5616579652 4293448051
-0.2871796191 -0.1047856137 0.5599927306 4293645430
-0.2885760963 -0.1046699360 0.5627157688 4293842809
-0.2890721858 -0.1042235866 0.5636831522 4294040188
-0.2895681858 -0.1037750468 0.5646503568 4293975425
-0.2882624269 -0.1026825532 0.5621041656 4293975425
-0.2901093364 -0.1027119085 0.5657055974 4294107011
-0.2910554707 -0.1024162918 0.5675505400 4294238597
-0.2915510237 -0.1019589975 0.5685167909 4294172550
-0.2915957272 -0.1013428792 0.5686040521 4294369929
-0.2880341411 -0.0994810238 0.5616590381 4294501004
-0.2921352386 -0.1002645269 0.5696560740 4294369418
-0.2890230119 -0.0985701829 0.5635872483 4294501005
-0.2895172536 -0.0981114879 0.5645510554 4294566798
-0.2900114059 -0.0976506099 0.5655145645 4294697614
-0.2909564972 -0.0973384604 0.5673574805 4294763407
-0.2977666855 -0.0989716649 0.5806372166 4294763662
-0.2932979465 -0.0968508869 0.5719232559 4294763662
-0.3243496716 -0.1014828011 0.6324733496 4293778069
-0.3271052241 -0.1016362682 0.6378465891 4293516216
-0.3294093311 -0.1016385034 0.6423395276 4293845181
-0.3252791166 -0.2326537967 0.6356624365 4289241476
-0.3249405324 -0.2317060828 0.6350007653 4289044097
-0.3250348568 -0.2310676128 0.6351850629 4289504096
-0.3251289725 -0.2304285914 0.6353690624 4289438303
-0.3252229095 -0.2297890186 0.6355525851 4290616908
-0.3244490921 -0.2285378128 0.6340404153 4290419529
-0.3258439898 -0.2288128734 0.6367663145 4290091836
-0.3259374201 -0.2281707674 0.6369488835 4290091836
-0.3260306418 -0.2275281250 0.6371310353 4290158138
-0.3256893754 -0.2265828252 0.6364641786 4290158138
-0.3257820606 -0.2259399295 0.6366452575 4290157629
-0.3258745074 -0.2252964973 0.6368259788 4290157629
-0.3264013827 -0.2249520421 0.6378555894 4290354238
-0.3264935315 -0.2243066579 0.6380356550 4290288445
-0.3265854716 -0.2236607224 0.6382153034 4290420025
-0.3266772032 -0.2230142355 0.6383945942 4290354232
-0.3267687261 -0.2223672122 0.6385734081 4290222904
-0.3268600106 -0.2217196524 0.6387518644 4290288697
-0.3273864686 -0.2213658988 0.6397806406 4290026554
-0.3274774551 -0.2207163870 0.6399584413 4290092347
-0.3271326423 -0.2197736949 0.6392845511 4290158140
-0.3272230625 -0.2191239595 0.6394612789 4290158140
-0.3268774450 -0.2181827724 0.6387858987 4290158140
-0.3265313506 -0.2172427922 0.6381095648 4290092347
-0.3248766065 -0.2154364735 0.6348758340 4290026552
-0.3262740374 -0.2156547308 0.6376066804 4290026552
-0.3259266913 -0.2147174925 0.6369279027 4290157880
-0.3251424730 -0.2134948820 0.6353954077 4290223673
-0.3230479062 -0.2114181221 0.6313021779 4290092087
-0.3226985931 -0.2104888558 0.6306195855 4290092087
-0.3219120800 -0.2092768699 0.6290825009 4290157878
-0.3206879199 -0.2077847570 0.6266903281 4290157878
-0.3198998868 -0.2065795660 0.6251503229 4290158132
-0.3186740279 -0.2050960362 0.6227547526 4290092339
-0.3183217645 -0.2041781545 0.6220663190 4290092339
-0.3162195683 -0.2021431625 0.6179581881 4290026546
-0.3158659339 -0.2012312710 0.6172671318 4289960751
-0.3155118525 -0.2003206313 0.6165751815 4290026544
-0.3147195876 -0.1991342753 0.6150269508 4290157360
-0.3143644929 -0.1982270330 0.6143329740 4290157360
-0.3140089214 -0.1973210275 0.6136381626 4290223153
-0.3132148683 -0.1961419731 0.6120864153 4290288946
-0.3132964969 -0.1955128312 0.6122459173 4290289200
-0.3125013113 -0.1943380833 0.6106919646 4290289200
-0.3117054403 -0.1931663603 0.6091366410 4290354993
-0.3113474250 -0.1922684759 0.6084370017 4290354993
-0.3105503321 -0.1911019534 0.6068793535 4290354992
-0.3101913035 -0.1902075112 0.6061777472 4290289199
-0.3098318279 -0.1893143654 0.6054752469 4290289199
-0.3099108934 -0.1886897683 0.6056297421 4290223406
-0.3095506430 -0.1877983212 0.6049257517 4290223404
-0.3096291423 -0.1871736646 0.6050791740 4290157611
-0.3092681170 -0.1862839162 0.6043736339 4290289199
-0.3089066744 -0.1853954792 0.6036672592 4290289199
-0.3085447550 -0.1845083386 0.6029600501 4290223404
-0.3081823885 -0.1836225092 0.6022519469 4290157611
-0.3078196049 -0.1827379912 0.6015429497 4290157611
-0.3074563742 -0.1818547845 0.6008331180 4290223404
-0.3070926964 -0.1809728891 0.6001223922 4290289451
-0.3062885106 -0.1798339337 0.5985508561 4290289451
-0.3059238195 -0.1789555848 0.5978382230 4290289451
-0.3055587113 -0.1780785620 0.5971246958 4290157865
-0.3051931560 -0.1772028655 0.5964103341 4290288936
-0.3048271537 -0.1763284951 0.5956950784 4290354729
-0.3044607341 -0.1754554659 0.5949790478 4290354984
-0.3040938675 -0.1745837778 0.5942620635 4290354984
-0.3041673899 -0.1739655584 0.5944057703 4290289191
-0.3037997484 -0.1730956584 0.5936872959 4290354984
-0.3029906154 -0.1719767898 0.5921061039 4290289702
-0.3026220202 -0.1711104810 0.5913857818 4290289702
-0.3022529483 -0.1702455431 0.5906645656 4290289702
-0.3018834591 -0.1693819463 0.5899424553 4290355495
-0.3015135229 -0.1685197204 0.5892195702 4290421286
-0.3007015884 -0.1674130261 0.5876328945 4290355493
-0.3003306985 -0.1665544361 0.5869081020 4290486566
-0.2999593616 -0.1656972021 0.5861824155 4290552359
-0.2995875776 -0.1648413539 0.5854558945 4290618152
-0.2996573448 -0.1642291099 0.5855922103 4290552359
-0.2992848158 -0.1633751243 0.5848641992 4290486568
-0.2989118695 -0.1625225097 0.5841353536 4290486568
-0.2980961800 -0.1614317596 0.5825413465 4290552361
-0.2981646359 -0.1608214378 0.5826751590 4290552361
-0.2977903783 -0.1599729955 0.5819437504 4290552363
-0.2974156737 -0.1591259390 0.5812115073 4290618156
-0.2974832356 -0.1585161686 0.5813435912 4290552620
