VERSION 0.7
FIELDS x y z rgba
SIZE 4 4 4 4
TYPE F F F U
COUNT 1 1 1 1
WIDTH 920
HEIGHT 1
VIEWPOINT 0.0 0.0 0.0 1.0 0.0 0.0 0.0
POINTS 920
DATA ascii
-0.2990379035 -0.1330816597 0.5719673038 4293843837
-0.2990960181 -0.1324718893 0.5720784664 4293449079
-0.2977920473 -0.1312614977 0.5695843101 4293449078
-0.2992115319 -0.1312513202 0.5722993612 4293646457
-0.2992689013 -0.1306405067 0.5724090934 4293646711
-0.2984175980 -0.1296347082 0.5707808733 4294041469
-0.2993829250 -0.1294178069 0.5726271868 4294304126
-0.2994395494 -0.1288059503 0.5727355480 4294304126
-0.2994959354 -0.1281937361 0.5728433728 4294567298
-0.2990975380 -0.1273875833 0.5720813274 4294698884
-0.2996079922 -0.1269682795 0.5730577111 4294567298
-0.2996636331 -0.1263550371 0.5731641054 4294435712
-0.2997190356 -0.1257414520 0.5732700825 4294370430
-0.2997741997 -0.1251275241 0.5733755827 4294304637
-0.3002840579 -0.1247022003 0.5743507743 4294304639
-0.3003388047 -0.1240866706 0.5744554996 4294238846
-0.3003932834 -0.1234708056 0.5745596886 4294238333
-0.3004474938 -0.1228545979 0.5746634007 4294106747
-0.3005014956 -0.1222380623 0.5747666359 4293975161
-0.3010106087 -0.1218054742 0.5757404566 4293777782
-0.3010641336 -0.1211873442 0.5758428574 4293843575
-0.3011174500 -0.1205688789 0.5759448409 4293777782
-0.3016261160 -0.1201315597 0.5769177675 4293711991
-0.3016789854 -0.1195115075 0.5770188570 4293646198
-0.3021874130 -0.1190707237 0.5779913068 4293580407
-0.3022398353 -0.1184490845 0.5780916214 4293514614
-0.3027479649 -0.1180048436 0.5790634751 4293514614
-0.3027999699 -0.1173816249 0.5791629553 4293514614
-0.3023956120 -0.1165822372 0.5783895254 4293645680
-0.3033593893 -0.1163091213 0.5802329183 4293514094
-0.3034106791 -0.1156840026 0.5803310871 4293448301
-0.3034617305 -0.1150585711 0.5804287195 4293382508
-0.3035125136 -0.1144328192 0.5805258751 4293185129
-0.3040195405 -0.1139778942 0.5814956427 4293119336
-0.3041199744 -0.1127229482 0.5816876888 4292856164
-0.3041697741 -0.1120950133 0.5817829967 4292921957
-0.3042193353 -0.1114667654 0.5818777680 4292790371
-0.3052315414 -0.1105403230 0.5838137865 4292658785
-0.3048234582 -0.1097447351 0.5830332637 4292790371
-0.3053291142 -0.1092779189 0.5840004086 4292921957
-0.3058346510 -0.1088089123 0.5849673152 4292921957
-0.3063400686 -0.1083377153 0.5859340429 4292987750
-0.3063880503 -0.1077035740 0.5860258341 4292921957
-0.3064357936 -0.1070691347 0.5861171484 4293053543
-0.3069406748 -0.1065932587 0.5870828629 4293119336
-0.3069879413 -0.1059572771 0.5871732831 4293053543
-0.3070349395 -0.1053210050 0.5872631669 4293053543
-0.3070816696 -0.1046844497 0.5873525143 4293053543
-0.3080435693 -0.1043577194 0.5891923308 4293185131
-0.3080899119 -0.1037186831 0.5892809629 4293250924
-0.3085938096 -0.1032325253 0.5902447701 4293185131
-0.3086396754 -0.1025919616 0.5903325081 4293185131
-0.3086852431 -0.1019511148 0.5904196501 4293185131
-0.3091886044 -0.1014602929 0.5913824439 4293185131
-0.3092337251 -0.1008179337 0.5914687514 4293250924
-0.3097367287 -0.1003236920 0.5924308300 4293250924
-0.3093231022 -0.0995323658 0.5916396976 4293316717
-0.3102840185 -0.0991821662 0.5934776664 4293382510
-0.3103281558 -0.0985367894 0.5935620666 4293382510
-0.3103720248 -0.0978911296 0.5936459899 4293316717
-0.3104156256 -0.0972452015 0.5937293172 4293316717
-0.3109174967 -0.0967416912 0.5946893096 4293316717
-0.3109605908 -0.0960942656 0.5947717428 4293185131
-0.3110034168 -0.0954465717 0.5948536396 4293119338
-0.3110459447 -0.0947986096 0.5949349999 4293119338
-0.3110882044 -0.0941503868 0.5950158238 4293053545
-0.3115890920 -0.0936398059 0.5959738493 4292987752
-0.3116308749 -0.0929901004 0.5960537195 4293053545
-0.3121313751 -0.0924761295 0.5970110297 4293053545
-0.3121726215 -0.0918249413 0.5970899463 4293119338
-0.3122136295 -0.0911735073 0.5971683860 4293250924
-0.3131727278 -0.0907880515 0.5990028381 4293250924
-0.3132132590 -0.0901341811 0.5990803838 4293185131
-0.3137128353 -0.0896112621 0.6000359058 4293250924
-0.3137528598 -0.0889559314 0.6001124978 4293185647
-0.3137926161 -0.0883003473 0.6001884937 4293185647
-0.3138320744 -0.0876445174 0.6002640128 4293316463
-0.3143308163 -0.0871158019 0.6012179255 4293316463
-0.3143697679 -0.0864585191 0.6012924314 4293382256
-0.3144084513 -0.0858009905 0.6013664007 4293382256
-0.3149065375 -0.0852677003 0.6023191214 4293382256
-0.3149446845 -0.0846087337 0.6023920774 4293448049
-0.3159022033 -0.0841946304 0.6042234898 4293513842
-0.3159399033 -0.0835332647 0.6042956114 4293448049
-0.3159773052 -0.0828716531 0.6043671370 4293448303
-0.3160144091 -0.0822098106 0.6044381261 4293448303
-0.3165112734 -0.0816664398 0.6053884625 4293316717
-0.3165478706 -0.0810031742 0.6054584384 4293316717
-0.3165841699 -0.0803396776 0.6055278778 4293250924
-0.3166201711 -0.0796759501 0.6055967212 4293250924
-0.3171161413 -0.0791268498 0.6065453887 4293185131
-0.3171516061 -0.0784617066 0.6066132188 4293119338
-0.3176471591 -0.0779092610 0.6075610518 4293053545
-0.3176820874 -0.0772427097 0.6076278687 4292987752
-0.3181772232 -0.0766869262 0.6085748672 4293053545
-0.3186721206 -0.0761289895 0.6095215082 4293119338
-0.3187062740 -0.0754598528 0.6095868349 4293250924
-0.3187401593 -0.0747905076 0.6096516252 4293316717
-0.3187737167 -0.0741209462 0.6097158194 4293382510
-0.3192677200 -0.0735573173 0.6106606722 4293448303
-0.3193007410 -0.0728863701 0.6107238531 4293382508
-0.3197942674 -0.0723194182 0.6116678119 4292921957
-0.3202876151 -0.0717503279 0.6126114130 4292592992
-0.3207807243 -0.0711790994 0.6135545969 4292658785
-0.3208127022 -0.0705044195 0.6136158109 4292856164
-0.3213053942 -0.0699298754 0.6145581007 4292921957
-0.3217978477 -0.0693531930 0.6155000329 4292791398
-0.3218290210 -0.0686759800 0.6155596375 4292659812
-0.3218598962 -0.0679985732 0.6156187057 4292594013
-0.3223516345 -0.0674174204 0.6165592670 4292528220
-0.3228431642 -0.0668341294 0.6174994111 4292658784
-0.3228732049 -0.0661542043 0.6175568700 4292592991
-0.3238255680 -0.0656611547 0.6193783879 4292592734
-0.3243164420 -0.0650714710 0.6203172803 4292592734
-0.3252684474 -0.0645712540 0.6221382618 4292789084
-0.3252975047 -0.0638857186 0.6221938133 4292591705
-0.3267391920 -0.0627801195 0.6249513030 4292855892
-0.3267674744 -0.0620911270 0.6250053644 4292265305
-0.3286417127 -0.0617488548 0.6285902262 4291673168
-0.3277463019 -0.0608841069 0.6268775463 4291870350
-0.3282353580 -0.0602774136 0.6278130412 4293186210
-0.2964647114 -0.1574721485 0.5682527423 4291345825
-0.2965322733 -0.1568765193 0.5683822632 4291214239
-0.2997453511 -0.1579380035 0.5745409727 4291739275
-0.2998131812 -0.1573352367 0.5746709108 4291870861
-0.2962839901 -0.1548522115 0.5679063201 4292725106
-0.2999480963 -0.1561284810 0.5749295950 4292922485
-0.2995654345 -0.1552913189 0.5741961002 4293185657
-0.2991823256 -0.1544555575 0.5734617710 4293383036
-0.2947488129 -0.1515389979 0.5649637580 4293448827
-0.2979647517 -0.1525578350 0.5711279511 4293514620
-0.2975802422 -0.1517272294 0.5703909397 4293580413
-0.2976456285 -0.1511266828 0.5705162883 4293711999
-0.2945580184 -0.1489316672 0.5645980239 4293581183
-0.2973251939 -0.1496975869 0.5699020624 4293646976
-0.2973897755 -0.1490967572 0.5700258613 4293646976
-0.2970034480 -0.1482705474 0.5692853332 4293646976
-0.2943627536 -0.1463253647 0.5642237663 4293646978
-0.2966803610 -0.1468456089 0.5686661005 4293712771
-0.2967438400 -0.1462450624 0.5687877536 4293712771
-0.2945516706 -0.1445374042 0.5645859241 4293844357
-0.2968700528 -0.1450427920 0.5690296888 4294368140
-0.2969328165 -0.1444410980 0.5691499710 4294368140
-0.2965439558 -0.1436204016 0.5684046745 4294302858
-0.2948003411 -0.1421481222 0.5650625229 4294368651
-0.2966681123 -0.1424169391 0.5686426163 4294237833
-0.2967298329 -0.1418146342 0.5687609315 4294303626
-0.2963396013 -0.1409970224 0.5680129528 4294238597
-0.2950452566 -0.1397528350 0.5655319691 4294238597
-0.2960097492 -0.1395792812 0.5673806667 4294107008
-0.2960703373 -0.1389773190 0.5674968362 4294172801
-0.2961306870 -0.1383749843 0.5676125288 4294107008
-0.2957386076 -0.1375619620 0.5668609738 4294041215
-0.2957983911 -0.1369598210 0.5669755936 4294172804
-0.2963103354 -0.1365658045 0.5679568052 4294107011
-0.2950123250 -0.1353392899 0.5654688478 4293975171
-0.2964288890 -0.1353578717 0.5681840777 4293843585
-0.2969404757 -0.1349590868 0.5691646338 4293581434
-0.2969992459 -0.1343532801 0.5692772865 4293515641
-0.2961521149 -0.1333393604 0.5676535368 4293580664
-0.2971160412 -0.1331406087 0.5695012212 4293646457
-0.2971740961 -0.1325337440 0.5696124434 4293580918
-0.2976849973 -0.1321276277 0.5705917478 4293515125
-0.2977426350 -0.1315191239 0.5707022548 4293580916
-0.2978000343 -0.1309102625 0.5708122849 4293778295
-0.2978571951 -0.1303010583 0.5709218383 4294107258
-0.2974606752 -0.1294941008 0.5701617599 4294304637
-0.2979707718 -0.1290815920 0.5711395144 4294370172
-0.2980272174 -0.1284713298 0.5712476969 4294238586
-0.2985370755 -0.1280553490 0.5722249746 4294238586
-0.2981393039 -0.1272497922 0.5714625716 4294238586
-0.2986488640 -0.1268312484 0.5724392533 4294172791
-0.2987043858 -0.1262186915 0.5725456476 4294041205
-0.2987596393 -0.1256057918 0.5726516247 4293843828
-0.2988146842 -0.1249925494 0.5727570653 4293778035
-0.2993236482 -0.1245679930 0.5737326741 4293712243
-0.2993782759 -0.1239531413 0.5738373399 4293712243
-0.2994326055 -0.1233379543 0.5739415288 4293646196
-0.2994867265 -0.1227224395 0.5740452409 4293580403
-0.2999951243 -0.1222918779 0.5750196576 4293383278
-0.3005034029 -0.1218591109 0.5759939551 4293251692
-0.3005569279 -0.1212407276 0.5760965347 4293316715
-0.3006101847 -0.1206220165 0.5761986375 4293316715
-0.3006631732 -0.1200029701 0.5763002038 4293382508
-0.3007159233 -0.1193836033 0.5764012933 4293316715
-0.3012234569 -0.1189435795 0.5773741007 4293316715
-0.3012757599 -0.1183226258 0.5774744153 4293382508
-0.3017829955 -0.1178791374 0.5784466267 4293382510
-0.3018348813 -0.1172565967 0.5785461068 4293448303
-0.3023418486 -0.1168096587 0.5795178413 4293447788
-0.3023932874 -0.1161855385 0.5796164274 4293447788
-0.3024444878 -0.1155611053 0.5797145367 4293448301
-0.3024954200 -0.1149363518 0.5798121691 4293448301
-0.3030017316 -0.1144834384 0.5807826519 4293448301
-0.3030522168 -0.1138571128 0.5808794498 4293382508
-0.3031024337 -0.1132304817 0.5809757113 4293316715
-0.3036082685 -0.1127728596 0.5819452405 4293250922
-0.3036580682 -0.1121446639 0.5820406675 4293053543
-0.3037075698 -0.1115161553 0.5821356177 4292987750
-0.3042129278 -0.1110538393 0.5831042528 4292987750
-0.3042619824 -0.1104237810 0.5831982493 4293053543
-0.3043107986 -0.1097934097 0.5832918286 4293119336
-0.3043593168 -0.1091627404 0.5833848715 4293119336
-0.3053203821 -0.1088571995 0.5852269530 4293053543
-0.3053685129 -0.1082240418 0.5853192210 4293053543
-0.3054164052 -0.1075905785 0.5854110122 4293053543
-0.3054640293 -0.1069568172 0.5855023265 4293053543
-0.3059680462 -0.1064816937 0.5864683986 4293053543
-0.3064719439 -0.1060043722 0.5874342322 4293053543
-0.3065189123 -0.1053678393 0.5875242949 4293119336
-0.3070224822 -0.1048870906 0.5884894729 4293185129
-0.3075259328 -0.1044041514 0.5894544721 4293250922
-0.3075722158 -0.1037648395 0.5895432234 4293250922
-0.3080753386 -0.1032784730 0.5905075073 4293316715
-0.3081211448 -0.1026376411 0.5905953646 4293316715
-0.3081666827 -0.1019965261 0.5906826854 4293316715
-0.3086692393 -0.1015054956 0.5916459560 4293316715
-0.3087143302 -0.1008628607 0.5917323232 4293316715
-0.3096739650 -0.1005168930 0.5935717225 4293382508
-0.3092611134 -0.0997242704 0.5927804112 4293448301
-0.3097629845 -0.0992264077 0.5937423706 4293514094
-0.3098070920 -0.0985807553 0.5938268900 4293579887
-0.3098509014 -0.0979348198 0.5939109325 4293645680
-0.3103522062 -0.0974323228 0.5948718190 4293711473
-0.3103955388 -0.0967848897 0.5949548483 4293645680
-0.3104386032 -0.0961371884 0.5950374007 4293448301
-0.3104813993 -0.0954892188 0.5951194167 4293382508
-0.3109818995 -0.0949808657 0.5960787535 4293382508
-0.3105661273 -0.0941924751 0.5952818394 4293382508
-0.3110662103 -0.0936816856 0.5962403417 4293250922
-0.3115661144 -0.0931687057 0.5971986055 4293316715
-0.3116076291 -0.0925175026 0.5972781777 4293251692
-0.3116488755 -0.0918660387 0.5973572135 4293251692
-0.3126065731 -0.0914825946 0.5991928577 4293317485
-0.3126473427 -0.0908287019 0.5992710590 4293317485
-0.3131463528 -0.0903067738 0.6002274752 4293317485
-0.3131866455 -0.0896514058 0.6003047228 4293317485
-0.3132266402 -0.0889957920 0.6003813744 4293383024
-0.3132663667 -0.0883399248 0.6004575491 4293383024
-0.3137645125 -0.0878121927 0.6014123559 4293383024
-0.3138037324 -0.0871548727 0.6014875174 4293383024
-0.3138426542 -0.0864972994 0.6015621424 4293383024
-0.3138812780 -0.0858394876 0.6016361713 4293383024
-0.3143785894 -0.0853059739 0.6025894284 4293449071
-0.3153347075 -0.0848938599 0.6044220924 4293514864
-0.3153726757 -0.0842324346 0.6044948101 4293645680
-0.3154103160 -0.0835707784 0.6045669913 4293645680
-0.3154476881 -0.0829088837 0.6046386361 4293645680
-0.3159439862 -0.0823664740 0.6055899262 4293645680
-0.3159808517 -0.0817031488 0.6056605577 4293579887
-0.3160173893 -0.0810395852 0.6057305932 4293514094
-0.3160536587 -0.0803757980 0.6058001518 4293448301
-0.3165490925 -0.0798276439 0.6067497134 4293448301
-0.3165848255 -0.0791624412 0.6068181992 4293448301
-0.3175393343 -0.0787248686 0.6086478233 4293448301
-0.3175745904 -0.0780572817 0.6087154150 4293382508
-0.3176095486 -0.0773894787 0.6087824106 4293250922
-0.3176442385 -0.0767214522 0.6088488698 4293250922
-0.3176786304 -0.0760532096 0.6089147925 4293316715
-0.3181724846 -0.0754938424 0.6098614335 4293382508
-0.3182063401 -0.0748241991 0.6099262834 4293382508
-0.3186997771 -0.0742615014 0.6108720899 4293448301
-0.3187330663 -0.0735904723 0.6109359264 4293579887
-0.3187660575 -0.0729192272 0.6109991670 4293448300
-0.3192588091 -0.0723520294 0.6119436026 4293250921
-0.3202114105 -0.0718859732 0.6137695312 4293250921
-0.3202436566 -0.0712112039 0.6138314009 4293185128
-0.3207357824 -0.0706375763 0.6147746444 4293053542
-0.3207674921 -0.0699614361 0.6148354411 4293053542
-0.3212591708 -0.0693844929 0.6157778502 4292989282
-0.3212903142 -0.0687069818 0.6158375740 4292857696
-0.3217815161 -0.0681267381 0.6167790294 4292659305
-0.3218120933 -0.0674478635 0.6168376803 4292461926
-0.3223028481 -0.0668643191 0.6177783012 4292592984
-0.3227933347 -0.0662786439 0.6187185049 4292527191
-0.3237441778 -0.0657844022 0.6205409765 4292592469
-0.3242342770 -0.0651934892 0.6214804649 4292658262
-0.3242635727 -0.0645088032 0.6215366125 4292591451
-0.3247532248 -0.0639145970 0.6224750876 4292196693
-0.3252426386 -0.0633182675 0.6234132051 4292197461
-0.3257318139 -0.0627197996 0.6243508458 4292723805
-0.3280919194 -0.0617767945 0.6288746595 4291013711
-0.3281197250 -0.0610832386 0.6289278865 4290422100
-0.2967553735 -0.1630295068 0.5700233579 4292202916
-0.2954818606 -0.1616992652 0.5675771236 4291939744
-0.3000289500 -0.1635472924 0.5763114691 4292136317
-0.3005467653 -0.1631881148 0.5773060918 4291873145
-0.2947923541 -0.1594344974 0.5662527084 4291938411
-0.2997898161 -0.1614974886 0.5758520961 4291806825
-0.2980660200 -0.1599327624 0.5725409389 4291871337
-0.2972378433 -0.1588540077 0.5709501505 4291805544
-0.2928216159 -0.1558688879 0.5624672174 4292133997
-0.2969251573 -0.1574195027 0.5703495145 4292528755
-0.2925725579 -0.1538630873 0.5619888306 4293383804
-0.2904596925 -0.1515121311 0.5579302907 4293711999
-0.2905247509 -0.1509260386 0.5580552816 4293711999
-0.2905896008 -0.1503395289 0.5581797957 4293711999
-0.2906542122 -0.1497526467 0.5583039522 4293711999
-0.2907185853 -0.1491653621 0.5584276319 4293777792
-0.2921310365 -0.1492666155 0.5611407161 4293974914
-0.2908466756 -0.1479896456 0.5586736798 4294106500
-0.2909103930 -0.1474011987 0.5587960482 4294172291
-0.2909738719 -0.1468123645 0.5589179993 4294106498
-0.2923866212 -0.1469011605 0.5616316795 4294106498
-0.2925758958 -0.1451230049 0.5619952679 4293974910
-0.2932755649 -0.1429664195 0.5633391738 4294172801
-0.2945450544 -0.1398135424 0.5657776594 4294238337
-0.2946056426 -0.1392135620 0.5658940673 4294304128
-0.2942147553 -0.1384009272 0.5651432276 4294238335
-0.2942747772 -0.1378011256 0.5652585030 4294173055
-0.2943345606 -0.1372009516 0.5653733611 4294107262
-0.2948456407 -0.1368099302 0.5663551092 4294041215
-0.2944534421 -0.1359995157 0.5656017065 4293975422
-0.2949642241 -0.1356059164 0.5665828586 4293778814
-0.2954749465 -0.1352101117 0.5675638914 4293647228
-0.2955922782 -0.1340020895 0.5677892566 4293843836
-0.2961026430 -0.1336015165 0.5687695742 4293909883
-0.2961607873 -0.1329956949 0.5688812733 4293975676
-0.2966709435 -0.1325916201 0.5698612332 4294041467
-0.2962763608 -0.1317829639 0.5691033006 4294041467
-0.2967862189 -0.1313763410 0.5700826049 4294041467
-0.2968434691 -0.1307681650 0.5701926351 4293909881
-0.2969005108 -0.1301596314 0.5703021884 4293843828
-0.2969572842 -0.1295507550 0.5704112053 4293712242
-0.2974665761 -0.1291380972 0.5713894963 4293646449
-0.2975229621 -0.1285275966 0.5714977980 4293580656
-0.2971261442 -0.1277220398 0.5707355738 4293449068
-0.2976349890 -0.1273055524 0.5717129707 4293383275
-0.2981437147 -0.1268868446 0.5726901889 4293317736
-0.2981991768 -0.1262740493 0.5727967620 4293251943
-0.2978011370 -0.1254699230 0.5720321536 4293251692
-0.2987627387 -0.1252374351 0.5738792419 4293251692
-0.2988175452 -0.1246226802 0.5739845634 4293185899
-0.2988721132 -0.1240075827 0.5740893483 4293185899
-0.2989264429 -0.1233921424 0.5741936564 4293316715
-0.2994341850 -0.1229626834 0.5751689672 4293250922
-0.2994880676 -0.1223456413 0.5752725005 4293185129
-0.2999955714 -0.1219127104 0.5762472749 4293119336
-0.2995950878 -0.1211105660 0.5754780769 4293119589
-0.3001022339 -0.1206751019 0.5764521956 4293185382
-0.3001551926 -0.1200558022 0.5765539408 4293316453
-0.3002079129 -0.1194361821 0.5766552091 4293382246
-0.3002603650 -0.1188162342 0.5767559409 4293382246
-0.3007668853 -0.1183747724 0.5777289271 4293448039
-0.3008189201 -0.1177532375 0.5778288245 4293448041
-0.3013251722 -0.1173083186 0.5788012743 4293448041
-0.3013767302 -0.1166851968 0.5789003372 4293447788
-0.3018827140 -0.1162368208 0.5798722506 4293447788
-0.3019338548 -0.1156121269 0.5799704790 4293447788
-0.3019847572 -0.1149871126 0.5800682306 4293447788
-0.3020353913 -0.1143617854 0.5801655054 4293513581
-0.3025406897 -0.1139074340 0.5811361670 4293447788
-0.3025908768 -0.1132805347 0.5812325478 4293447788
-0.3030959070 -0.1128227338 0.5822026134 4293447788
-0.3031456470 -0.1121942773 0.5822981596 4293447788
-0.3031951189 -0.1115655079 0.5823932290 4293316202
-0.3036996722 -0.1111029983 0.5833623409 4293316202
-0.3037486970 -0.1104726717 0.5834565163 4293381995
-0.3037974536 -0.1098420471 0.5835502148 4293381995
-0.3038459718 -0.1092111096 0.5836433768 4293316202
-0.3048054278 -0.1089054495 0.5854863524 4293250409
-0.3048535287 -0.1082720235 0.5855787396 4293316202
-0.3049013913 -0.1076382995 0.5856706500 4293185129
-0.3049489558 -0.1070042700 0.5857620835 4293119336
-0.3054521978 -0.1065289453 0.5867286921 4293119336
-0.3059552610 -0.1060514301 0.5876950622 4293185129
-0.3060021996 -0.1054146290 0.5877851844 4293250922
-0.3065049648 -0.1049336791 0.5887508988 4293382508
-0.3065514266 -0.1042953357 0.5888401270 4293448301
-0.3070538342 -0.1038109586 0.5898052454 4293448301
-0.3070998192 -0.1031710953 0.5898935795 4293514094
-0.3076019287 -0.1026832908 0.5908580422 4293579887
-0.3081038892 -0.1021932960 0.5918222070 4293579887
-0.3081491888 -0.1015506685 0.5919092298 4293645680
-0.3081942201 -0.1009077579 0.5919957161 4293645680
-0.3086956441 -0.1004131064 0.5929588675 4293645680
-0.3091968894 -0.0999162719 0.5939217210 4293645680
-0.3092412353 -0.0992706195 0.5940068960 4293645680
-0.3092853129 -0.0986246839 0.5940915346 4293711473
-0.3093290925 -0.0979784802 0.5941756964 4293777266
-0.3098295927 -0.0974757671 0.5951370597 4293843059
-0.3098728955 -0.0968280584 0.5952202082 4293777266
-0.3099159300 -0.0961800814 0.5953028798 4293777266
-0.3099586666 -0.0955318362 0.5953850150 4293711473
-0.3100011647 -0.0948833153 0.5954665542 4293580657
-0.3105006516 -0.0943735242 0.5964260101 4293580657
-0.3105426133 -0.0937235206 0.5965066552 4293646450
-0.3105843067 -0.0930732563 0.5965867639 4293646450
-0.3110832274 -0.0925588459 0.5975450277 4293646450
-0.3115819395 -0.0920422599 0.5985030532 4293580657
-0.3120805323 -0.0915234983 0.5994607806 4293514864
-0.3121213019 -0.0908693224 0.5995390415 4293580657
-0.3126194775 -0.0903471708 0.6004959941 4293580657
-0.3126597404 -0.0896915197 0.6005733013 4293580657
-0.3126997054 -0.0890356228 0.6006501317 4293646450
-0.3127394021 -0.0883794725 0.6007263660 4293646450
-0.3132367432 -0.0878515169 0.6016817093 4293712243
-0.3137339354 -0.0873213857 0.6026366949 4293712243
-0.3137728870 -0.0866625682 0.6027114987 4293646450
-0.3138115406 -0.0860035121 0.6027857661 4293646450
-0.3143081069 -0.0854687989 0.6037396193 4293646450
-0.3148044944 -0.0849319175 0.6046930552 4293646450
-0.3148424029 -0.0842702091 0.6047658920 4293646449
-0.3153383732 -0.0837299675 0.6057186127 4293646449
-0.3149173856 -0.0829460844 0.6049098969 4293580656
-0.3154128790 -0.0824034363 0.6058617234 4293580656
-0.3154496849 -0.0817398205 0.6059324145 4293514863
-0.3159447610 -0.0811938196 0.6068834066 4293514863
-0.3159810603 -0.0805287734 0.6069530845 4293514863
-0.3155584037 -0.0797475949 0.6061412692 4293580656
-0.3160527945 -0.0791980103 0.6070908904 4293711472
-0.3170057237 -0.0787602440 0.6089213490 4293645679
-0.3170409501 -0.0780923665 0.6089890003 4293579886
-0.3170759082 -0.0774242729 0.6090561152 4293448300
-0.3171105385 -0.0767559484 0.6091226935 4293382507
-0.3176038563 -0.0761975273 0.6100702882 4293448300
-0.3176379800 -0.0755278021 0.6101357937 4293514093
-0.3181308508 -0.0749660432 0.6110825539 4293448300
-0.3181644082 -0.0742949247 0.6111469865 4293645679
-0.3186568618 -0.0737298355 0.6120929122 4293579886
-0.3186898828 -0.0730573311 0.6121563315 4293448300
-0.3191818595 -0.0724889114 0.6131013632 4293448300
-0.3196736574 -0.0719183534 0.6140460372 4293448300
-0.3201652169 -0.0713456497 0.6149902940 4293316714
-0.3206565976 -0.0707708001 0.6159341335 4293316714
-0.3206883371 -0.0700933859 0.6159950495 4293448300
-0.3211792409 -0.0695152208 0.6169380546 4293448803
-0.3212104142 -0.0688364431 0.6169978976 4293251424
-0.3212412894 -0.0681574643 0.6170572042 4293053535
-0.3217314780 -0.0675748214 0.6179987788 4292790363
-0.3217617869 -0.0668944865 0.6180570126 4292724557
-0.3227111995 -0.0664031357 0.6198807359 4292658764
-0.3232007325 -0.0658140928 0.6208210588 4292789585
-0.3236900568 -0.0652229190 0.6217609644 4292855378
-0.3241791725 -0.0646296069 0.6227004528 4292460633
-0.3246680498 -0.0640341640 0.6236395240 4292329047
-0.3246968091 -0.0633468628 0.6236947775 4292197974
-0.3251852095 -0.0627481341 0.6246328950 4291934802
-0.3256733716 -0.0621472783 0.6255705953 4291342927
-0.3266213536 -0.0616310984 0.6273915172 4290816583
-0.3271090984 -0.0610250160 0.6283283830 4290487616
-0.3280567229 -0.0605016649 0.6301486492 4290356030
-0.3285440505 -0.0598903596 0.6310847402 4288192928
-0.3020736277 -0.1701824367 0.5814795494 4292138670
-0.2994681895 -0.1680740714 0.5764641166 4291743912
-0.3008789122 -0.1682223082 0.5791797042 4291938198
-0.2924667299 -0.1628935188 0.5629866123 4291872405
-0.2898563445 -0.1608197093 0.5579617620 4292069259
-0.2894781232 -0.1599907279 0.5572336912 4292135052
-0.2913336158 -0.1603931487 0.5608054399 4292528507
-0.2896142602 -0.1588271409 0.5574957728 4292528507
-0.2892349660 -0.1580005288 0.5567656159 4292659563
-0.2893024087 -0.1574186087 0.5568954349 4292527977
-0.2902640998 -0.1573210955 0.5587466359 4292593510
-0.2894366086 -0.1562535465 0.5571537614 4292659303
-0.2890559137 -0.1554298103 0.5564209223 4292790891
-0.2927028239 -0.1567647904 0.5634410977 4292922477
-0.2927698791 -0.1561745256 0.5635701418 4293251189
-0.2888068259 -0.1534428000 0.5559414625 4293448568
-0.2924554348 -0.1547558159 0.5629648566 4293580154
-0.2925217152 -0.1541652530 0.5630924702 4293645947
-0.2925877571 -0.1535742879 0.5632196069 4293515641
-0.2904127538 -0.1518115252 0.5590327978 4293647227
-0.2922709286 -0.1521577835 0.5626097322 4293713021
-0.2918878496 -0.1513340622 0.5618723035 4293778814
-0.2915043235 -0.1505117714 0.5611340404 4293975939
-0.2920175493 -0.1501521915 0.5621219277 4293975939
-0.2916333675 -0.1493309140 0.5613824725 4294041218
-0.2916975617 -0.1487399042 0.5615059733 4294041218
-0.2904148996 -0.1474647522 0.5590369701 4294172293
-0.2918252349 -0.1475567222 0.5617517829 4294106500
-0.2918887436 -0.1469645500 0.5618739724 4294172293
-0.2919520140 -0.1463719904 0.5619958043 4294238086
-0.2906672955 -0.1451062113 0.5595227480 4294172291
-0.2920778692 -0.1451857090 0.5622380376 4294238084
-0.2921404541 -0.1445920020 0.5623585582 4294238082
-0.2917532623 -0.1437763721 0.5616132021 4294238082
-0.2922649086 -0.1434034407 0.5625981688 4293976703
-0.2927765548 -0.1430282891 0.5635830164 4294042496
-0.2928383052 -0.1424321383 0.5637018681 4294042237
-0.2919999659 -0.1413998753 0.5620881319 4293976444
-0.2929611206 -0.1412387341 0.5639383197 4294172540
-0.2930221856 -0.1406414658 0.5640558600 4294106747
-0.2935332060 -0.1402589381 0.5650395751 4294303612
-0.2935938835 -0.1396600008 0.5651563406 4294369405
-0.2936543524 -0.1390607059 0.5652727485 4294369405
-0.2937145531 -0.1384610236 0.5653886199 4294303612
-0.2933239639 -0.1376495510 0.5646367669 4294435196
-0.2933835983 -0.1370500624 0.5647515655 4294435196
-0.2934430242 -0.1364502013 0.5648659468 4294107001
-0.2935022116 -0.1358499974 0.5649798512 4294041208
-0.2935611308 -0.1352494061 0.5650933385 4293975674
-0.2945218980 -0.1350621432 0.5669427514 4293844088
-0.2945805490 -0.1344589889 0.5670556426 4293711991
-0.2946389318 -0.1338554919 0.5671680570 4293843577
-0.2946971059 -0.1332516223 0.5672799945 4293777782
-0.2952064276 -0.1328505427 0.5682604313 4293646196
-0.2952641845 -0.1322450340 0.5683716536 4293646196
-0.2953217328 -0.1316391826 0.5684823990 4293646196
-0.2958306670 -0.1312333196 0.5694620609 4293580657
-0.2958877981 -0.1306258291 0.5695720315 4293383278
-0.2959446907 -0.1300179958 0.5696815252 4293514093
-0.2964532375 -0.1296073645 0.5706604719 4293250921
-0.2960577309 -0.1288012564 0.5698991418 4293185382
-0.2965659797 -0.1283880919 0.5708774924 4293316968
-0.2966219783 -0.1277779192 0.5709853172 4293185382
-0.2971299887 -0.1273612678 0.5719631910 4293053796
-0.2972409129 -0.1261373609 0.5721767545 4293119589
-0.2972960174 -0.1255248934 0.5722827911 4293119336
-0.2978034317 -0.1251022071 0.5732595921 4293185129
-0.2978581190 -0.1244881302 0.5733648539 4293185128
-0.2979125679 -0.1238737181 0.5734696388 4293185128
-0.2984195650 -0.1234462857 0.5744456053 4293185128
-0.2989265025 -0.1230166554 0.5754214525 4293119335
-0.2989803553 -0.1223993674 0.5755251050 4293184869
-0.2990339398 -0.1217817441 0.5756282806 4293250662
-0.2990872860 -0.1211637855 0.5757309198 4293316453
-0.2991403937 -0.1205455065 0.5758331418 4293316453
-0.2996465564 -0.1201085970 0.5768074989 4293382500
-0.2996992171 -0.1194887236 0.5769088864 4293448293
-0.2997516096 -0.1188685149 0.5770097375 4293448293
-0.3002573252 -0.1184268817 0.5779832006 4293448293
-0.3007629514 -0.1179830432 0.5789565444 4293448293
-0.3008147478 -0.1173599884 0.5790562034 4293448293
-0.3008663058 -0.1167366132 0.5791554451 4293513836
-0.3013714552 -0.1162880585 0.5801278353 4293513836
-0.3014225662 -0.1156631038 0.5802262425 4293513836
-0.3014734089 -0.1150378287 0.5803241134 4293513836
-0.3019781113 -0.1145845577 0.5812956095 4293513836
-0.3020285070 -0.1139577106 0.5813926458 4293448043
-0.3025329113 -0.1135009751 0.5823636055 4293382250
-0.3025828600 -0.1128725708 0.5824598074 4293448043
-0.3026325703 -0.1122438461 0.5825554729 4293513836
-0.3031364679 -0.1117824018 0.5835254788 4293513836
-0.3031857312 -0.1111521199 0.5836202502 4293579629
-0.3032347262 -0.1105215326 0.5837145448 4293579629
-0.3032834530 -0.1098906398 0.5838083625 4293513836
-0.3042414486 -0.1095870584 0.5856524706 4293382250
-0.3042897880 -0.1089536622 0.5857455134 4293316457
-0.3043378592 -0.1083199680 0.5858380795 4293382250
-0.3043856621 -0.1076859757 0.5859301090 4293382507
-0.3048882782 -0.1072117016 0.5868976116 4293316714
-0.3049356341 -0.1065761670 0.5869887471 4293382507
-0.3058930933 -0.1062565744 0.5888318419 4293514093
-0.3054848015 -0.1054613814 0.5880458951 4293645679
-0.3059867322 -0.1049802303 0.5890120864 4293711472
-0.3060331643 -0.1043416262 0.5891014338 4293843058
-0.3065347970 -0.1038570479 0.5900670886 4293843058
-0.3065807223 -0.1032169089 0.5901554823 4293777265
-0.3070820272 -0.1027288958 0.5911204815 4293843058
-0.3071275055 -0.1020872369 0.5912079811 4293908852
-0.3076284528 -0.1015958041 0.5921723247 4293908852
-0.3076734245 -0.1009526178 0.5922589302 4293974645
-0.3086299300 -0.1006063670 0.5941001177 4293974645
-0.3086744845 -0.0999607220 0.5941859484 4293974645
-0.3091748059 -0.0994614884 0.5951490402 4293974645
-0.3087628484 -0.0986685827 0.5943560004 4293974645
-0.3088065982 -0.0980221033 0.5944402218 4294040438
-0.3093062937 -0.0975191742 0.5954020619 4293843829
-0.3093495369 -0.0968711898 0.5954853892 4293843829
-0.3093925416 -0.0962229371 0.5955681205 4293975415
-0.3094352484 -0.0955744162 0.5956503749 4293975415
-0.3094776869 -0.0949256197 0.5957320333 4293909622
-0.3095198572 -0.0942765623 0.5958132148 4293975415
-0.3100183308 -0.0937653333 0.5967727304 4293975415
-0.3100599945 -0.0931147859 0.5968529582 4293909622
-0.3105580807 -0.0926001593 0.5978117585 4293909622
-0.3105992377 -0.0919481367 0.5978909731 4293843829
-0.3115537763 -0.0915643647 0.5997284651 4293778036
-0.3115945160 -0.0909099057 0.5998068452 4293712243
-0.3116349578 -0.0902551934 0.5998846889 4293778036
-0.3121321201 -0.0897316039 0.6008417010 4293778036
-0.3121720552 -0.0890754238 0.6009185910 4293778293
-0.3122117221 -0.0884189904 0.6009949446 4293778293
-0.3122510910 -0.0877623111 0.6010707617 4293778293
-0.3127474189 -0.0872329101 0.6020261645 4293712500
-0.3127862811 -0.0865747780 0.6021009684 4293778036
-0.3132822216 -0.0860420018 0.6030555964 4293712243
-0.3133205473 -0.0853824168 0.6031293869 4293712243
-0.3138160706 -0.0848462656 0.6040832400 4293646450
-0.3143114150 -0.0843079537 0.6050367951 4293580656
-0.3143490255 -0.0836457238 0.6051091552 4293646449
-0.3148439527 -0.0831040442 0.6060618758 4293580656
-0.3148810267 -0.0824403688 0.6061332822 4293580656
-0.3149178326 -0.0817764625 0.6062040925 4293646449
-0.3149543107 -0.0811123326 0.6062743068 4293580656
-0.3149905205 -0.0804479644 0.6063440442 4293580656
-0.3154843450 -0.0798993334 0.6072946191 4293646449
-0.3155200183 -0.0792335495 0.6073632836 4293711726
-0.3164713979 -0.0787955970 0.6091946363 4293645933
-0.3165065944 -0.0781274289 0.6092624068 4293645679
-0.3165415227 -0.0774590373 0.6093295813 4293579886
-0.3165761232 -0.0767904222 0.6093962193 4293514093
-0.3170686364 -0.0762317553 0.6103443503 4293579886
-0.3171027303 -0.0755617395 0.6104099154 4293580140
-0.3175947964 -0.0749997348 0.6113571525 4293514347
-0.3176283538 -0.0743283257 0.6114217043 4293711726
-0.3181199729 -0.0737629905 0.6123681068 4293514347
-0.3181529939 -0.0730901808 0.6124316454 4293448554
-0.3186441660 -0.0725215226 0.6133771539 4293514347
-0.3191351593 -0.0719507113 0.6143222451 4293448554
-0.3196259439 -0.0713777542 0.6152669787 4293316968
-0.3201165199 -0.0708026513 0.6162113547 4293316966
-0.3196895421 -0.0700244755 0.6153894663 4293448552
-0.3201796114 -0.0694470257 0.6163328290 4293316192
-0.3206694722 -0.0688674375 0.6172757745 4293053020
-0.3211591244 -0.0682857111 0.6182183027 4292921171
-0.3221074045 -0.0677984282 0.6200436950 4292723792
-0.3221377730 -0.0671158433 0.6201021671 4292788820
-0.3226267695 -0.0665277019 0.6210435033 4292854613
-0.3231155574 -0.0659374222 0.6219844222 4292789585
-0.3236041367 -0.0653450117 0.6229248643 4292723792
-0.3236334324 -0.0646587461 0.6229812503 4292330063
-0.3245806098 -0.0641537830 0.6248045564 4292132684
-0.3250685036 -0.0635549724 0.6257437468 4291936083
-0.3250970244 -0.0628652349 0.6257985830 4291541325
-0.3255844414 -0.0622631386 0.6267368793 4290488119
-0.3260716200 -0.0616589151 0.6276746392 4289369638
-0.3265585601 -0.0610525645 0.6286120415 4289171496
-0.3270452917 -0.0604440868 0.6295489669 4289368875
-0.3275317848 -0.0598334856 0.6304854155 4287403158
-0.2916160822 -0.1658929139 0.5625518560 4291806348
-0.2939130664 -0.1665696502 0.5669829249 4292003727
-0.2904203236 -0.1639677286 0.5602451563 4292726134
-0.2936086953 -0.1651385427 0.5663958192 4292923513
-0.2927875519 -0.1640491486 0.5648117661 4293249908
-0.2924115360 -0.1632117182 0.5640863776 4293249908
-0.2893599272 -0.1608882546 0.5581995845 4293250672
-0.2916581929 -0.1615409851 0.5626330972 4293316465
-0.2917269468 -0.1609537899 0.5627657175 4292988781
-0.2913492918 -0.1601209790 0.5620372295 4292922988
-0.2887398601 -0.1580680013 0.5570034385 4292660590
-0.2905927300 -0.1584594995 0.5605777502 4292660590
-0.2906602919 -0.1578733623 0.5607081056 4292791919
-0.2902810574 -0.1570452005 0.5599765182 4292923505
-0.2881146371 -0.1552556157 0.5557973385 4293251440
-0.2899681032 -0.1556328684 0.5593727827 4293448819
-0.2895876765 -0.1548079997 0.5586389303 4293777014
-0.2896538377 -0.1542225480 0.5587665439 4293842807
-0.2897197604 -0.1536366791 0.5588937402 4293777014
-0.2897854745 -0.1530504227 0.5590205193 4293777014
-0.2898509800 -0.1524637491 0.5591468811 4293909372
-0.2885740399 -0.1511735618 0.5566835403 4293975165
-0.2886388004 -0.1505888253 0.5568084717 4293909629
-0.2887033224 -0.1500037014 0.5569329262 4293975422
-0.2887676060 -0.1494181752 0.5570569634 4294107262
-0.2888317108 -0.1488322616 0.5571805835 4294173055
-0.2888955474 -0.1482459605 0.5573037863 4294107001
-0.2889591753 -0.1476592869 0.5574265122 4294107001
-0.2890225947 -0.1470722109 0.5575488210 4294173051
-0.2895339727 -0.1467118561 0.5585353374 4294173051
-0.2904936075 -0.1465754807 0.5603865385 4294238846
-0.2905566394 -0.1459845155 0.5605081320 4294238846
-0.2901709378 -0.1451687962 0.5597640872 4294238848
-0.2911305726 -0.1450248957 0.5616152883 4294173055
-0.2911930084 -0.1444318742 0.5617357492 4294173055
-0.2903576791 -0.1433952004 0.5601242781 4294107262
-0.2913171947 -0.1432446837 0.5619753003 4294172039
-0.2913789451 -0.1426505148 0.5620944500 4294172039
-0.2914404571 -0.1420559734 0.5622131228 4294238082
-0.2915017307 -0.1414610445 0.5623313189 4294238082
-0.2915627956 -0.1408657581 0.5624490976 4294238335
-0.2916236222 -0.1402700841 0.5625663996 4294304128
-0.2921336293 -0.1398892701 0.5635502934 4294435966
-0.2921940684 -0.1392919421 0.5636668801 4294501759
-0.2922542989 -0.1386942416 0.5637830496 4294237816
-0.2923142612 -0.1380961686 0.5638987422 4294172023
-0.2923740149 -0.1374977380 0.5640140176 4294172277
-0.2924335301 -0.1368989348 0.5641288161 4294172277
-0.2924928069 -0.1362997591 0.5642431378 4293974644
-0.2930019200 -0.1359090060 0.5652253032 4293777265
-0.2926106453 -0.1351003349 0.5644704700 4293645680
-0.2935697138 -0.1349139363 0.5663205981 4293579887
-0.2936282158 -0.1343114674 0.5664334893 4293448300
-0.2936864793 -0.1337086558 0.5665459037 4293448300
-0.2941950560 -0.1333096176 0.5675269365 4293316714
-0.2942529321 -0.1327051669 0.5676385760 4293185128
-0.2947612703 -0.1323026419 0.5686191916 4293053542
-0.2943679392 -0.1314951777 0.5678604841 4293053542
-0.2948759794 -0.1310900897 0.5688405037 4293053796
-0.2949329913 -0.1304832846 0.5689504743 4292988003
-0.2954407930 -0.1300747097 0.5699300766 4293316455
-0.2954973876 -0.1294662803 0.5700392723 4293184869
-0.2955537438 -0.1288574934 0.5701479912 4293184867
-0.2956098616 -0.1282483637 0.5702562332 4293250660
-0.2956657410 -0.1276388913 0.5703639984 4293184867
-0.2961728275 -0.1272229999 0.5713422298 4293184867
-0.2962282896 -0.1266119033 0.5714492202 4293250660
-0.2967351675 -0.1261925399 0.5724270344 4293316453
-0.2967902124 -0.1255798191 0.5725331903 4293053281
-0.2968450189 -0.1249667704 0.5726389289 4293119074
-0.2968995571 -0.1243533716 0.5727441907 4293185121
-0.2969538569 -0.1237396449 0.5728489161 4293250914
-0.2970079184 -0.1231255755 0.5729532242 4293382500
-0.2979660332 -0.1228841171 0.5748015046 4293382500
-0.2984719872 -0.1224530414 0.5757774711 4293382500
-0.2985255420 -0.1218351722 0.5758808255 4293448293
-0.2985788286 -0.1212169603 0.5759836435 4293382246
-0.2986318767 -0.1205984280 0.5760859251 4293382246
-0.2986846566 -0.1199795604 0.5761877894 4293382500
-0.2987371981 -0.1193603650 0.5762891769 4293382500
-0.2992421985 -0.1189207584 0.5772633553 4293382500
-0.2992943227 -0.1182999760 0.5773638487 4293448293
-0.2997990549 -0.1178568974 0.5783374906 4293448293
-0.2998507321 -0.1172345281 0.5784372091 4293382500
-0.3008081913 -0.1169641390 0.5802842379 4293514347
-0.3008595109 -0.1163392514 0.5803832412 4293580140
-0.3013637662 -0.1158883050 0.5813559890 4293580140
-0.3014146388 -0.1152618378 0.5814541578 4293514347
-0.3010119498 -0.1144626662 0.5806772709 4293579627
-0.3015156388 -0.1140079498 0.5816489458 4293513834
-0.3020192087 -0.1135510281 0.5826204419 4293513834
-0.3025226891 -0.1130919084 0.5835916400 4293513834
-0.3021188080 -0.1122933775 0.5828124881 4293579627
-0.3026219010 -0.1118317470 0.5837830305 4293579627
-0.3031738997 -0.1107361242 0.5848479271 4293711213
-0.3032226562 -0.1101040244 0.5849419832 4293513832
-0.3037251532 -0.1096354946 0.5859113336 4293448039
-0.3042756319 -0.1085298583 0.5869732499 4293513832
-0.3043234944 -0.1078946516 0.5870655775 4293645679
-0.3043710589 -0.1072591469 0.5871573091 4293514093
-0.3044183850 -0.1066233441 0.5872486234 4293645679
-0.3049198389 -0.1061454341 0.5882159472 4293843058
-0.3049666882 -0.1055080965 0.5883063674 4293974644
-0.3050132692 -0.1048704609 0.5883961916 4294106230
-0.3059688509 -0.1045432091 0.5902395844 4294106231
-0.3060150445 -0.1039030924 0.5903286934 4294106231
-0.3065157235 -0.1034161225 0.5912945271 4294106231
-0.3065614104 -0.1027744710 0.5913826823 4294106231
-0.3066068590 -0.1021325365 0.5914703608 4294106231
-0.3071070015 -0.1016409025 0.5924351811 4294106231
-0.3080620468 -0.1012967005 0.5942775011 4294106231
-0.3081068397 -0.1006510556 0.5943639874 4294172024
-0.3076962233 -0.0998574123 0.5935718417 4294172024
-0.3086509109 -0.0995056927 0.5954135060 4294172024
-0.3086949587 -0.0988582522 0.5954985023 4294041207
-0.3087387681 -0.0982105434 0.5955829620 4294107000
-0.3092376888 -0.0977064520 0.5965454578 4293975414
-0.3088254929 -0.0969142914 0.5957503319 4293975414
-0.3093240261 -0.0964077413 0.5967119932 4294041207
-0.3093667626 -0.0957579836 0.5967944264 4294107000
-0.3094092309 -0.0951079577 0.5968763828 4294041208
-0.3089956641 -0.0943185538 0.5960785747 4294041208
-0.3094933331 -0.0938071087 0.5970386267 4293975415
-0.3099908233 -0.0932934806 0.5979983211 4293909622
-0.3100322485 -0.0926414356 0.5980782509 4293975415
-0.3109853566 -0.0922596902 0.5999168754 4293909622
-0.3105702996 -0.0914708897 0.5991161466 4293843829
-0.3110670447 -0.0909504667 0.6000744104 4293843829
-0.3111074567 -0.0902954713 0.6001523733 4293778036
-0.3111475706 -0.0896402225 0.6002297997 4293712243
-0.3116437197 -0.0891151950 0.6011868715 4293843829
-0.3116833568 -0.0884584785 0.6012633443 4293843829
-0.3117226958 -0.0878015086 0.6013392210 4293778036
-0.3122182190 -0.0872718915 0.6022951007 4293712243
-0.3122570515 -0.0866134688 0.6023700237 4293646450
-0.3127521574 -0.0860804617 0.6033251286 4293646450
-0.3127904832 -0.0854205936 0.6033990979 4293646449
-0.3137418628 -0.0850079507 0.6052343845 4293646449
-0.3137797415 -0.0843456686 0.6053074598 4293514863
-0.3138172925 -0.0836831480 0.6053798795 4293580656
-0.3138545752 -0.0830203891 0.6054518223 4293580656
-0.3143484890 -0.0824772790 0.6064046025 4293580656
-0.3143852353 -0.0818130821 0.6064755321 4293580656
-0.3144217134 -0.0811486542 0.6065458655 4293580656
-0.3144578934 -0.0804840028 0.6066156626 4293514863
-0.3144937754 -0.0798191205 0.6066849232 4293514863
-0.3149865568 -0.0792690590 0.6076354980 4293514861
-0.3150219023 -0.0786027536 0.6077036858 4293449068
-0.3159715235 -0.0781624615 0.6095355749 4293514863
-0.3160063922 -0.0774937719 0.6096028686 4293514863
-0.3160409927 -0.0768248737 0.6096696258 4293449068
-0.3160752952 -0.0761557519 0.6097357869 4293383275
-0.3165667653 -0.0755956545 0.6106838584 4293580138
-0.3166005313 -0.0749251246 0.6107490063 4293514345
-0.3170915544 -0.0743616968 0.6116962433 4293711724
-0.3171247840 -0.0736897737 0.6117603183 4293448552
-0.3176153600 -0.0731230155 0.6127067208 4293448552
-0.3176480532 -0.0724497065 0.6127697229 4293514345
-0.3181381822 -0.0718796179 0.6137152314 4293382759
-0.3186281323 -0.0713073760 0.6146603823 4293316966
-0.3191178441 -0.0707329959 0.6156051159 4293053792
-0.3200652599 -0.0702569783 0.6174327135 4292659034
-0.3196387589 -0.0694782585 0.6166099906 4292657237
-0.3201278150 -0.0688984171 0.6175534129 4292459858
-0.3206166625 -0.0683164299 0.6184964180 4292000332
-0.3215633631 -0.0678289309 0.6203227043 4292000332
-0.3220518231 -0.0672416985 0.6212649941 4292263254
-0.3220819235 -0.0665576458 0.6213230491 4292526426
-0.3225699067 -0.0659671053 0.6222643852 4292526927
-0.3235159218 -0.0654671639 0.6240893602 4292461134
-0.3240035176 -0.0648713782 0.6250299215 4292592974
-0.3235742450 -0.0640918985 0.6242018342 4292198216
-0.3240613043 -0.0634937957 0.6251414418 4291935311
-0.3254649341 -0.0630712286 0.6278491616 4291672139
-0.3254931867 -0.0623790585 0.6279036999 4290553658
-0.3259796202 -0.0617735907 0.6288420558 4289172005
-0.3264658153 -0.0611659959 0.6297799349 4289039397
-0.3269517720 -0.0605562739 0.6307173967 4289434155
-0.3274375200 -0.0599444248 0.6316544414 4287731870
-0.2914317846 -0.1711519063 0.5634035468 4292137893
-0.2910603285 -0.1703085750 0.5626854300 4291743135
-0.2964578271 -0.1728300452 0.5731199980 4292070011
-0.2947552204 -0.1712043285 0.5698284507 4291806839
-0.2934955060 -0.1698422283 0.5673931837 4292134248
-0.2926790714 -0.1687411070 0.5658147931 4292200041
-0.2918620110 -0.1676431298 0.5642352104 4292397161
-0.2919329405 -0.1670568287 0.5643723607 4292594540
-0.2875591815 -0.1639363021 0.5559169054 4292922735
-0.2854058444 -0.1620956510 0.5517539978 4292988528
-0.2854745686 -0.1615214944 0.5518868566 4293120113
-0.2891012132 -0.1629524827 0.5588979721 4293317492
-0.2856113315 -0.1603719145 0.5521512628 4293448316
-0.2861243784 -0.1600454152 0.5531430840 4293316730
-0.2853021622 -0.1589726955 0.5515536070 4292988270
-0.2853697240 -0.1583973616 0.5516841412 4292790891
-0.2854370475 -0.1578216255 0.5518143177 4292594021
-0.2863949537 -0.1577361226 0.5536661744 4292594021
-0.2855710387 -0.1566689461 0.5520733595 4292726126
-0.2856377363 -0.1560919881 0.5522022843 4293055091
-0.2857041955 -0.1555146277 0.5523307920 4293316980
-0.2857704461 -0.1549368799 0.5524588823 4293514359
-0.2880661190 -0.1555627584 0.5568968654 4293777268
-0.2859023213 -0.1537801623 0.5527138114 4293843061
-0.2877524197 -0.1541572064 0.5562904477 4293778293
-0.2878182232 -0.1535742432 0.5564176440 4293778293
-0.2878837883 -0.1529908627 0.5565444231 4293581947
-0.2879491448 -0.1524070948 0.5566707850 4293647740
-0.2871212065 -0.1513521671 0.5550702214 4293778813
-0.2871859372 -0.1507694125 0.5551953316 4293910399
-0.2872504294 -0.1501862705 0.5553199649 4293976193
-0.2873146832 -0.1496027410 0.5554442406 4293976193
-0.2873787284 -0.1490188092 0.5555680394 4294041986
-0.2874425650 -0.1484344900 0.5556914210 4293976193
-0.2879532874 -0.1480797231 0.5566788316 4294106749
-0.2875695527 -0.1472646892 0.5559369326 4294106749
-0.2890379131 -0.1467749625 0.5587756038 4294172540
-0.2891009152 -0.1461859792 0.5588974357 4294106749
-0.2896739542 -0.1452313364 0.5600052476 4294369405
-0.2897363901 -0.1446402967 0.5601258874 4294369405
-0.2893506587 -0.1438262165 0.5593802333 4294369145
-0.2898605168 -0.1434570551 0.5603659153 4294369145
-0.2903703749 -0.1430856735 0.5613515377 4294434685
-0.2908801436 -0.1427120864 0.5623371005 4294368892
-0.2904933393 -0.1418983340 0.5615892410 4294303610
-0.2910028398 -0.1415221691 0.5625742674 4294303610
-0.2910638452 -0.1409266442 0.5626922250 4294107000
-0.2911851704 -0.1397344768 0.5629267097 4293778293
-0.2916942239 -0.1393522173 0.5639108419 4293646707
-0.2917543948 -0.1387542784 0.5640271306 4293580914
-0.2918142974 -0.1381559819 0.5641430020 4293449328
-0.2918739915 -0.1375573128 0.5642583966 4293449070
-0.2919334471 -0.1369582713 0.5643733740 4293383277
-0.2919926941 -0.1363588721 0.5644878745 4293382761
-0.2925009727 -0.1359679699 0.5654705167 4293185382
-0.2925598323 -0.1353669167 0.5655842423 4293053794
-0.2930679321 -0.1349725127 0.5665665269 4293119587
-0.2931263745 -0.1343698055 0.5666795373 4293184867
-0.2936342657 -0.1339719146 0.5676614046 4293119074
-0.2936923206 -0.1333675683 0.5677736402 4293119074
-0.2942000031 -0.1329661906 0.5687550902 4293119074
-0.2938077450 -0.1321578175 0.5679967403 4293119074
-0.2943150997 -0.1317538619 0.5689775944 4293053281
-0.2943722904 -0.1311471611 0.5690881610 4293053535
-0.2944292426 -0.1305401176 0.5691983104 4293185121
-0.2949362397 -0.1301313937 0.5701784492 4293119328
-0.2945424318 -0.1293249726 0.5694170594 4293185121
-0.2950491011 -0.1289136857 0.5703966022 4293185121
-0.2955557108 -0.1285001934 0.5713759661 4293185121
-0.2956116199 -0.1278895438 0.5714840889 4293250912
-0.2956672907 -0.1272785366 0.5715916753 4293316705
-0.2957226932 -0.1266672015 0.5716987848 4293250912
-0.2962287366 -0.1262476593 0.5726770759 4293185119
-0.2962837517 -0.1256347001 0.5727834105 4293185118
-0.2963384986 -0.1250213981 0.5728892684 4293250911
-0.2968441546 -0.1245971173 0.5738667846 4293251165
-0.2973496914 -0.1241706312 0.5748441815 4293316958
-0.2969525754 -0.1233669519 0.5740764141 4293382751
-0.2974578142 -0.1229379177 0.5750531554 4293316958
-0.2975114882 -0.1223210618 0.5751569271 4293185119
-0.2980164289 -0.1218885556 0.5761331320 4293250912
-0.2980696857 -0.1212700978 0.5762360692 4293448293
-0.2981227040 -0.1206513047 0.5763385296 4293382500
-0.2981754541 -0.1200321838 0.5764405131 4293316966
-0.2986797988 -0.1195936650 0.5774155855 4293316966
-0.2987321317 -0.1189729571 0.5775167346 4293382759
-0.2992362082 -0.1185309663 0.5784912109 4293448552
-0.2992880940 -0.1179086640 0.5785915256 4293448552
-0.2993397415 -0.1172860414 0.5786913633 4293448552
-0.2998433709 -0.1168393269 0.5796650052 4293580140
-0.2998945713 -0.1162151173 0.5797640085 4293514347
-0.3003979325 -0.1157649383 0.5807371140 4293448552
-0.3004486859 -0.1151391491 0.5808352232 4293448552
-0.3009517491 -0.1146855056 0.5818077922 4293382759
-0.3010020852 -0.1140581444 0.5819050670 4293448552
-0.3010521531 -0.1134304702 0.5820018053 4293579625
-0.3015547395 -0.1129721105 0.5829734802 4293579625
-0.3016043603 -0.1123428643 0.5830693841 4293579625
-0.3021066487 -0.1118810475 0.5840404034 4293579625
-0.3017027974 -0.1110834554 0.5832597017 4293711465
-0.3017516434 -0.1104532853 0.5833541155 4293777258
-0.3027065098 -0.1101526096 0.5852001309 4293513573
-0.3027549684 -0.1095199361 0.5852937698 4293579366
-0.3032564521 -0.1090499684 0.5862632990 4293842538
-0.3033044636 -0.1084157452 0.5863560438 4293842538
-0.3038056195 -0.1079423279 0.5873249173 4293777265
-0.3038531840 -0.1073065549 0.5874168277 4293579886
-0.3039004505 -0.1066704839 0.5875082612 4293645679
-0.3039474487 -0.1060341224 0.5875990987 4293843058
-0.3044479191 -0.1055547744 0.5885666013 4294106231
-0.3049482405 -0.1050732285 0.5895338655 4294172024
-0.3049945831 -0.1044340804 0.5896234512 4294172024
-0.3054945767 -0.1039490998 0.5905900598 4294040438
-0.3059944510 -0.1034619287 0.5915564299 4294237817
-0.3060401380 -0.1028200090 0.5916447043 4294237817
-0.3060855269 -0.1021778062 0.5917325020 4294237817
-0.3061306477 -0.1015353128 0.5918197632 4294237817
-0.3070840538 -0.1011919230 0.5936628580 4294237819
-0.3075830936 -0.1006956995 0.5946276188 4294237819
-0.3071731925 -0.0999017209 0.5938352346 4294237819
