VERSION 0.7
FIELDS x y z rgba
SIZE 4 4 4 4
TYPE F F F U
COUNT 1 1 1 1
WIDTH 920
HEIGHT 1
VIEWPOINT 0.0 0.0 0.0 1.0 0.0 0.0 0.0
POINTS 920
DATA ascii
-0.2937953472 -0.1765916646 0.5988318920 4290624959
-0.2938677669 -0.1759696752 0.5989794731 4290230201
-0.2939399183 -0.1753472090 0.5991265774 4290230201
-0.2935857773 -0.1744710803 0.5984047651 4290164408
-0.2936574221 -0.1738486141 0.5985507369 4290099644
-0.2941551208 -0.1734771132 0.5995652080 4290099644
-0.2946528196 -0.1731033474 0.6005796790 4289770677
-0.2947239876 -0.1724777073 0.6007247567 4289639091
-0.2952215672 -0.1721003205 0.6017389297 4289836470
-0.2952923775 -0.1714728624 0.6018832326 4289836470
-0.2949361503 -0.1705980748 0.6011571884 4289769909
-0.2954333723 -0.1702166200 0.6021705866 4289835702
-0.2959305346 -0.1698328853 0.6031839848 4289572528
-0.2960005701 -0.1692027301 0.6033266783 4288783012
-0.2964975834 -0.1688153893 0.6043397784 4287796371
-0.2965672612 -0.1681834310 0.6044817567 4286546304
-0.2970641255 -0.1677924544 0.6054944992 4286283132
-0.2975609601 -0.1673992127 0.6065071821 4286743683
-0.2976301312 -0.1667640954 0.6066482067 4286085499
-0.2981268167 -0.1663672328 0.6076605320 4284703846
-0.2986234426 -0.1659681052 0.6086728573 4287073424
-0.2995479703 -0.1658035666 0.6105572581 4291415762
-0.2964878380 -0.1914007515 0.6056910753 4291744475
-0.2965654433 -0.1907777041 0.6058496237 4287072913
-0.2970660329 -0.1904254407 0.6068722606 4283454298
-0.2971433103 -0.1898005307 0.6070301533 4283322195
-0.2967970073 -0.1889056563 0.6063227057 4285295985
-0.2968737483 -0.1882806718 0.6064794660 4286612613
-0.2969503105 -0.1876551956 0.6066358685 4287928473
-0.2970266342 -0.1870292425 0.6067917943 4289769909
-0.2962550819 -0.1858709753 0.6052156091 4291085769
-0.2959068120 -0.1849808395 0.6045041084 4291612113
-0.2955581248 -0.1840920001 0.6037917733 4291414734
-0.2952089906 -0.1832044870 0.6030785441 4291677906
-0.2948594391 -0.1823182851 0.6023644805 4292006871
-0.2945094705 -0.1814333946 0.6016494632 4291875285
-0.2941590548 -0.1805498451 0.6009336114 4291612113
-0.2942327857 -0.1799272448 0.6010842323 4291545807
-0.2934569120 -0.1787867099 0.5994992256 4291414221
-0.2931052148 -0.1779071540 0.5987807512 4291216842
-0.2927530706 -0.1770289242 0.5980613828 4290887877
-0.2924005091 -0.1761520356 0.5973411202 4290493119
-0.2924726009 -0.1755316257 0.5974884033 4290098361
-0.2925445139 -0.1749107540 0.5976352692 4289900982
-0.2926161587 -0.1742894351 0.5977817178 4289769396
-0.2926876247 -0.1736676395 0.5979276896 4289704114
-0.2927588522 -0.1730454117 0.5980731845 4289638321
-0.2932554781 -0.1726733297 0.5990877748 4289704114
-0.2937521040 -0.1722989976 0.6001023054 4289440942
-0.2938228846 -0.1716735810 0.6002468467 4289440942
-0.2938934267 -0.1710477322 0.6003909707 4289572528
-0.2939637303 -0.1704214215 0.6005346179 4289572528
-0.2944599688 -0.1700407416 0.6015483737 4289769907
-0.2945299447 -0.1694126278 0.6016913652 4289901493
-0.2945997119 -0.1687840670 0.6018338203 4290098872
-0.2950956523 -0.1683984101 0.6028470397 4289901493
-0.2951650620 -0.1677680463 0.6029887795 4288125082
-0.2952342331 -0.1671372354 0.6031301022 4286085242
-0.2953031659 -0.1665059775 0.6032708883 4285032554
-0.2957987189 -0.1661140025 0.6042832732 4286019449
-0.2962942123 -0.1657197475 0.6052955389 4284637796
-0.2967897058 -0.1653232127 0.6063077450 4284770668
-0.2972851694 -0.1649244279 0.6073198915 4287797146
-0.2973533273 -0.1642873138 0.6074591875 4292534243
-0.2950907946 -0.1909320951 0.6042080522 4289244341
-0.2951681018 -0.1903106272 0.6043663025 4285888639
-0.2956675887 -0.1899600327 0.6053889990 4284375400
-0.2957445979 -0.1893366873 0.6055466533 4283519574
-0.2953987718 -0.1884432733 0.6048385501 4285098606
-0.2954752147 -0.1878198534 0.6049951315 4287730324
-0.2951286435 -0.1869281381 0.6042854786 4289243563
-0.2952045500 -0.1863046587 0.6044409275 4291480268
-0.2948572338 -0.1854146570 0.6037297845 4292138198
-0.2945094407 -0.1845259815 0.6030176878 4292138198
-0.2941612601 -0.1836386174 0.6023047566 4291282889
-0.2933892608 -0.1824892312 0.6007241011 4290493373
-0.2938870490 -0.1821302623 0.6017432809 4289967029
-0.2935376465 -0.1812459528 0.6010279059 4289440685
-0.2931878567 -0.1803629696 0.6003116369 4289177513
-0.2928375900 -0.1794813275 0.5995945334 4288651169
-0.2920630276 -0.1783421636 0.5980085731 4288585376
-0.2917118371 -0.1774640679 0.5972894430 4288453790
-0.2917843163 -0.1768443584 0.5974378586 4288190618
-0.2914323509 -0.1759680510 0.5967172384 4287926933
-0.2915042639 -0.1753483266 0.5968645215 4287532175
-0.2915759981 -0.1747281402 0.5970113277 4287203210
-0.2916474938 -0.1741074920 0.5971577168 4287005831
-0.2917187512 -0.1734863967 0.5973036289 4287137928
-0.2917897999 -0.1728648394 0.5974491239 4286940549
-0.2918606400 -0.1722428352 0.5975941420 4286677377
-0.2923561931 -0.1718701869 0.5986087918 4286282619
-0.2928517163 -0.1714952737 0.5996234417 4285953654
-0.2929220796 -0.1708700955 0.5997675061 4285756275
-0.2929922342 -0.1702444702 0.5999111533 4285756275
-0.2930621505 -0.1696183980 0.6000543237 4286019447
-0.2935572863 -0.1692371517 0.6010681391 4286085240
-0.2936268747 -0.1686092764 0.6012105942 4285887861
-0.2936962247 -0.1679809541 0.6013525724 4286216826
-0.2937653363 -0.1673521847 0.6014941335 4286611584
-0.2938342392 -0.1667229682 0.6016351581 4287137415
-0.2939029038 -0.1660933197 0.6017757654 4285295211
-0.2943973839 -0.1657030284 0.6027882695 4284374109
-0.2940395772 -0.1648326963 0.6020555496 4285755762
-0.2945337892 -0.1644396931 0.6030675173 4286283650
-0.2950279713 -0.1640444249 0.6040794253 4285691513
-0.2955221534 -0.1636468917 0.6050912142 4290428867
-0.2932748795 -0.1901896596 0.6018585563 4288717997
-0.2933517694 -0.1895706356 0.6020163894 4286612362
-0.2938500345 -0.1892226189 0.6030389071 4286414983
-0.2939266264 -0.1886017323 0.6031960845 4285098606
-0.2935811877 -0.1877106726 0.6024871469 4285493364
-0.2936572433 -0.1870897114 0.6026432514 4288322461
-0.2933110297 -0.1862003654 0.6019327641 4290427837
-0.2933865488 -0.1855793297 0.6020877361 4290887616
-0.2930395901 -0.1846916974 0.6013756990 4290229686
-0.2926922143 -0.1838053912 0.6006628275 4289637549
-0.2923444211 -0.1829203814 0.5999490619 4289703342
-0.2924187481 -0.1823001355 0.6001015902 4290098100
-0.2920701802 -0.1814168692 0.5993862748 4290229686
-0.2921439707 -0.1807965785 0.5995377302 4290361272
-0.2913717628 -0.1796543300 0.5979530215 4290558651
-0.2914449275 -0.1790348887 0.5981031656 4290887616
-0.2906716466 -0.1778970957 0.5965162516 4290953409
-0.2907441556 -0.1772785336 0.5966650248 4291019202
-0.2903931439 -0.1764023602 0.5959446430 4291084995
-0.2904651165 -0.1757837832 0.5960923433 4291216067
-0.2905368507 -0.1751647443 0.5962395668 4291216067
-0.2906083763 -0.1745452434 0.5963863730 4291084481
-0.2902559638 -0.1736717373 0.5956631303 4291018688
-0.2903269529 -0.1730522364 0.5958088636 4290624957
-0.2903977334 -0.1724322736 0.5959540606 4290427578
-0.2904682755 -0.1718118489 0.5960988998 4290098100
-0.2909627557 -0.1714408994 0.5971136093 4289505963
-0.2910329700 -0.1708186716 0.5972577333 4288782240
-0.2911029756 -0.1701959968 0.5974013805 4288321689
-0.2911727428 -0.1695728749 0.5975445509 4288124310
-0.2916668355 -0.1691955924 0.5985585451 4287861138
-0.2917362452 -0.1685706675 0.5987010002 4287992724
-0.2918054461 -0.1679452956 0.5988430381 4288255896
-0.2918744385 -0.1673194766 0.5989845395 4288584347
-0.2919431925 -0.1666932106 0.5991256833 4287729038
-0.2920117080 -0.1660665125 0.5992662907 4287597452
-0.2916548550 -0.1651985496 0.5985339284 4287531659
-0.2917228341 -0.1645718813 0.5986734629 4287202694
-0.2917905748 -0.1639447808 0.5988124609 4288123796
-0.2918580770 -0.1633172333 0.5989510417 4287927705
-0.2923509181 -0.1629264206 0.5999624133 4285295985
-0.2924180925 -0.1622970998 0.6001002789 4288981163
-0.2913863361 -0.1900625378 0.5993490219 4292336612
-0.2914630175 -0.1894464642 0.5995067358 4289704892
-0.2915395200 -0.1888299137 0.5996640325 4287467155
-0.2920365930 -0.1884844601 0.6006864905 4287861913
-0.2921127379 -0.1878660470 0.6008431315 4288388256
-0.2913466692 -0.1867075264 0.5992674232 4287138189
-0.2914221883 -0.1860899180 0.5994227529 4286479998
-0.2914974988 -0.1854718477 0.5995776653 4287269514
-0.2915726304 -0.1848532856 0.5997321606 4287926931
-0.2912260592 -0.1839680225 0.5990193486 4289505963
-0.2908790708 -0.1830840558 0.5983055830 4291216581
-0.2909533083 -0.1824658662 0.5984583497 4292006097
-0.2906055748 -0.1815836579 0.5977430940 4292400855
-0.2906793058 -0.1809654087 0.5978946686 4292795613
-0.2907527983 -0.1803466976 0.5980458856 4293190371
-0.2899819016 -0.1792058051 0.5964602232 4293256164
-0.2896325290 -0.1783280075 0.5957416296 4293387236
-0.2892827690 -0.1774515361 0.5950222015 4293453029
-0.2893549800 -0.1768345684 0.5951707363 4293453029
-0.2894269824 -0.1762171239 0.5953188539 4293387236
-0.2894987762 -0.1755992323 0.5954664946 4293321443
-0.2891476154 -0.1747254282 0.5947442055 4293255650
-0.2892188728 -0.1741075069 0.5948907733 4293058271
-0.2892898917 -0.1734891385 0.5950368643 4292860892
-0.2893607020 -0.1728703231 0.5951825380 4292532441
-0.2890081704 -0.1719992161 0.5944573879 4292664027
-0.2895016670 -0.1716313064 0.5954724550 4292335062
-0.2891484797 -0.1707611084 0.5947459936 4292006097
-0.2896417677 -0.1703905016 0.5957606435 4291677132
-0.2897114754 -0.1697694212 0.5959039927 4291479753
-0.2902046442 -0.1693951786 0.5969183445 4291019202
-0.2898502350 -0.1685259193 0.5961894393 4290295479
-0.2903431654 -0.1681489646 0.5972033143 4289439656
-0.2904120684 -0.1675251871 0.5973450541 4287926417
-0.2904807925 -0.1669009775 0.5974863768 4288255382
-0.2901251018 -0.1660335660 0.5967547894 4290689723
-0.2897689939 -0.1651675552 0.5960223079 4291807691
-0.2898368239 -0.1645438373 0.5961618423 4292268242
-0.2899044454 -0.1639196873 0.5963009000 4291741898
-0.2899717987 -0.1632951051 0.5964394808 4290031280
-0.2896143198 -0.1624319106 0.5957041383 4287203723
-0.2896811366 -0.1618073583 0.5958415866 4285624691
-0.2897477448 -0.1611823887 0.5959786177 4288848805
-0.3006785214 -0.1006089449 0.6184620261 4292993767
-0.2903416455 -0.1904798001 0.5985676050 4292073440
-0.2899986506 -0.1895905286 0.5978605151 4291217874
-0.2900750339 -0.1889760196 0.5980179906 4290757323
-0.2901512086 -0.1883610338 0.5981750488 4288980394
-0.2902271748 -0.1877455562 0.5983316898 4287532948
-0.2898828387 -0.1868588030 0.5976217389 4287730324
-0.2903785110 -0.1865131706 0.5986436009 4287796117
-0.2896131575 -0.1853581965 0.5970658064 4287203721
-0.2896880805 -0.1847425997 0.5972202420 4286414205
-0.2897627652 -0.1841265112 0.5973742008 4286084981
-0.2894166112 -0.1832436025 0.5966605544 4286216567
-0.2894907594 -0.1826274544 0.5968134403 4287006083
-0.2895647287 -0.1820108443 0.5969659090 4288453529
-0.2892174721 -0.1811300963 0.5962500572 4289637803
-0.2892909050 -0.1805134416 0.5964014530 4290295733
-0.2893641293 -0.1798963100 0.5965523720 4290756284
-0.2885945141 -0.1787568033 0.5949657559 4291085249
-0.2882456779 -0.1778804809 0.5942465663 4291151042
-0.2883179188 -0.1772646457 0.5943955183 4291282628
-0.2883899510 -0.1766483486 0.5945439935 4291414214
-0.2880400419 -0.1757742465 0.5938226581 4291545800
-0.2881115377 -0.1751579344 0.5939700603 4291611593
-0.2881828249 -0.1745411605 0.5941170454 4291611593
-0.2882539034 -0.1739239395 0.5942635536 4291545030
-0.2883247435 -0.1733062565 0.5944095850 4291281858
-0.2883953750 -0.1726881266 0.5945551991 4291151301
-0.2880434394 -0.1718176007 0.5938296914 4290953922
-0.2881135345 -0.1711994559 0.5939741731 4290427065
-0.2881834209 -0.1705808789 0.5941182375 4290163893
-0.2882530689 -0.1699618399 0.5942618251 4289966514
-0.2883225083 -0.1693423539 0.5944049954 4289505963
-0.2883917391 -0.1687224209 0.5945476890 4288848033
-0.2888836861 -0.1683485359 0.5955619216 4288124310
-0.2889525592 -0.1677267998 0.5957038999 4287992210
-0.2890212238 -0.1671046168 0.5958454609 4288321175
-0.2890896499 -0.1664820015 0.5959864855 4289637035
-0.2887344956 -0.1656160951 0.5952543020 4292597720
-0.2888023555 -0.1649935097 0.5953942537 4293255650
-0.2884464562 -0.1641294807 0.5946605206 4292597720
-0.2880901396 -0.1632668227 0.5939259529 4291215554
-0.2881571651 -0.1626447588 0.5940641165 4289110178
-0.2878000736 -0.1617839783 0.5933279395 4286743170
-0.2878665328 -0.1611619592 0.5934649706 4286677377
-0.2879327834 -0.1605395079 0.5936015248 4288322202
-0.2884229422 -0.1601521522 0.5946120620 4290361785
-0.2884888351 -0.1595279276 0.5947479010 4291085508
-0.2889788449 -0.1591369510 0.5957580805 4291085508
-0.2894687951 -0.1587437242 0.5967681408 4291019974
-0.2899587154 -0.1583482176 0.5977782011 4291085767
-0.2904486060 -0.1579504609 0.5987881422 4290822595
-0.2909384668 -0.1575504243 0.5997980237 4290822595
-0.2905786335 -0.1566899717 0.5990561843 4290757572
-0.2906432748 -0.1560591012 0.5991894603 4290823365
-0.2907077074 -0.1554277986 0.5993223190 4290823365
-0.2911970019 -0.1550223976 0.6003310680 4290889158
-0.2908358574 -0.1541639417 0.5995864868 4290889417
-0.2908995748 -0.1535314023 0.5997178555 4290757831
-0.2913884521 -0.1531219631 0.6007257700 4290954951
-0.2914518118 -0.1524876654 0.6008563638 4290889158
-0.2915149331 -0.1518529505 0.6009864807 4290889158
-0.2920034528 -0.1514385790 0.6019936204 4290823365
-0.2924919426 -0.1510219276 0.6030007005 4290954181
-0.2925545275 -0.1503841281 0.6031297445 4290954181
-0.2926168740 -0.1497459114 0.6032582521 4290954181
-0.2926789820 -0.1491072923 0.6033862829 4290954181
-0.2927408516 -0.1484682709 0.6035138369 4291020228
-0.2928024828 -0.1478288323 0.6036409140 4291086021
-0.2924375832 -0.1469747424 0.6028886437 4291151301
-0.2924986482 -0.1463354379 0.6030144691 4291085508
-0.2925594747 -0.1456957459 0.6031398773 4291151301
-0.2926200330 -0.1450556368 0.6032647491 4291217094
-0.2926803827 -0.1444151402 0.6033891439 4291282887
-0.2931672037 -0.1439838260 0.6043927670 4291282887
-0.2932271361 -0.1433416009 0.6045163870 4291282885
-0.2932868302 -0.1426989883 0.6046394110 4291348678
-0.2937732935 -0.1422627568 0.6056422591 4291414473
-0.2942596376 -0.1418242604 0.6066449881 4291414473
-0.2943187952 -0.1411785930 0.6067668796 4291414473
-0.2939504087 -0.1403285861 0.6060074568 4291348680
-0.2940089703 -0.1396830827 0.6061281562 4291217607
-0.2940672636 -0.1390371919 0.6062483788 4291217607
-0.2941253185 -0.1383909285 0.6063680649 4291283400
-0.2937555611 -0.1375440657 0.6056057215 4291349193
-0.2938130200 -0.1368979812 0.6057242155 4291414732
-0.2938702703 -0.1362515092 0.6058422327 4291480525
-0.2939272523 -0.1356046647 0.6059597135 4291546318
-0.2939839661 -0.1349574476 0.6060766578 4291546318
-0.2940404713 -0.1343098581 0.6061931252 4291546318
-0.2940966785 -0.1336618811 0.6063090563 4291612111
-0.2941526771 -0.1330135465 0.6064244509 4291677645
-0.2946366668 -0.1325575113 0.6074222326 4291611852
-0.2946922183 -0.1319074929 0.6075367332 4291546059
-0.2947475314 -0.1312571019 0.6076507568 4291546059
-0.2948025763 -0.1306063533 0.6077643037 4291546061
-0.2948573828 -0.1299552321 0.6078772545 4291611854
-0.2949119210 -0.1293037534 0.6079897285 4291743440
-0.2945374846 -0.1284649223 0.6072177887 4291809233
-0.2945914567 -0.1278136671 0.6073290110 4291875026
-0.2946451604 -0.1271620542 0.6074397564 4291809233
-0.2946985960 -0.1265100986 0.6075499654 4291809233
-0.2947517931 -0.1258577853 0.6076595783 4292861921
-0.2972430587 -0.1105809063 0.6127955914 4292006869
-0.2968590856 -0.1097580716 0.6120039821 4291217353
-0.2969056070 -0.1090951934 0.6120998859 4291743697
-0.2969518900 -0.1084320024 0.6121953130 4292335836
-0.2969979048 -0.1077685058 0.6122901440 4292270043
-0.2970436215 -0.1071046963 0.6123844385 4292006871
-0.2975202799 -0.1065950692 0.6133670807 4291414734
-0.2979967892 -0.1060832068 0.6143494844 4290756804
-0.2980418503 -0.1054165587 0.6144423485 4290033081
-0.2980866432 -0.1047496051 0.6145346761 4289440945
-0.2981311381 -0.1040823534 0.6146264672 4289243566
-0.2981753945 -0.1034148037 0.6147176623 4289374639
-0.2982193530 -0.1027469561 0.6148083210 4289243053
-0.2982630730 -0.1020788178 0.6148983836 4289045674
-0.2983064950 -0.1014103815 0.6149879694 4288979881
-0.2983496487 -0.1007416621 0.6150768995 4289177773
-0.2983925343 -0.1000726447 0.6151652932 4288980394
-0.2984351516 -0.0994033441 0.6152531505 4289769910
-0.2989094257 -0.0988766477 0.6162309647 4290427840
-0.2989515364 -0.0982058048 0.6163177490 4292006871
-0.2888793647 -0.1906186491 0.5969197750 4291941854
-0.2889559567 -0.1900057942 0.5970780849 4290165443
-0.2886134684 -0.1891179830 0.5963703990 4289770426
-0.2886895537 -0.1885050535 0.5965275764 4289902012
-0.2883463204 -0.1876189262 0.5958183408 4290296768
-0.2884218991 -0.1870059222 0.5959745049 4289573045
-0.2884972394 -0.1863924414 0.5961301923 4288059289
-0.2881529331 -0.1855084449 0.5954187512 4287203980
-0.2882277668 -0.1848948896 0.5955733657 4287730065
-0.2878827155 -0.1840126067 0.5948603749 4287730065
-0.2879570127 -0.1833989918 0.5950139165 4287598479
-0.2880311012 -0.1827849150 0.5951669812 4286545791
-0.2881049812 -0.1821703464 0.5953196287 4285690482
-0.2881786525 -0.1815553159 0.5954718590 4285493103
-0.2882520854 -0.1809398085 0.5956236124 4285558896
-0.2883253396 -0.1803238243 0.5957749486 4285558896
-0.2879779637 -0.1794454157 0.5950571895 4285361517
-0.2872096300 -0.1783072799 0.5934695601 4285164138
-0.2872819006 -0.1776926070 0.5936189294 4285689969
-0.2873539925 -0.1770774573 0.5937678814 4285689969
-0.2874258459 -0.1764618605 0.5939162970 4285689969
-0.2870765328 -0.1755883247 0.5931945443 4285821555
-0.2871478498 -0.1749726981 0.5933419466 4285953141
-0.2872189581 -0.1743566245 0.5934888721 4285953141
-0.2873605192 -0.1731230915 0.5937813520 4285689969
-0.2874309719 -0.1725056469 0.5939269662 4285690482
-0.2875012159 -0.1718877405 0.5940721035 4285164138
-0.2875712514 -0.1712693870 0.5942167640 4284835173
-0.2872192860 -0.1704003513 0.5934895277 4285098345
-0.2872887552 -0.1697820127 0.5936330557 4285295724
-0.2873580158 -0.1691632122 0.5937762260 4284900966
-0.2874270678 -0.1685439646 0.5939188600 4284637281
-0.2874958813 -0.1679242849 0.5940610766 4284637281
-0.2875644863 -0.1673041433 0.5942028165 4285229418
-0.2876328528 -0.1666835696 0.5943441391 4285755762
-0.2872785628 -0.1658187062 0.5936120152 4286216313
-0.2869238257 -0.1649552137 0.5928789973 4287729552
-0.2874139845 -0.1645771712 0.5938918591 4288781726
-0.2870586216 -0.1637146324 0.5931575298 4288255382
-0.2867028117 -0.1628534943 0.5924223661 4286610557
-0.2863466144 -0.1619937569 0.5916862488 4285755248
-0.2864130139 -0.1613737643 0.5918235183 4285163625
-0.2864792347 -0.1607533544 0.5919603109 4285558383
-0.2865451872 -0.1601325125 0.5920966268 4285492844
-0.2866109312 -0.1595112383 0.5922324657 4285821809
-0.2870999277 -0.1591242403 0.5932428837 4286085238
-0.2871653140 -0.1585012078 0.5933780074 4286085238
-0.2876541317 -0.1581105888 0.5943880677 4286282619
-0.2881428897 -0.1577177197 0.5953980088 4286348412
-0.2886316478 -0.1573225856 0.5964078903 4286019960
-0.2891203165 -0.1569251865 0.5974177122 4285954167
-0.2891849577 -0.1562963426 0.5975512862 4286085753
-0.2892493606 -0.1556670815 0.5976843238 4286085753
-0.2893135250 -0.1550373882 0.5978169441 4286085753
-0.2893774807 -0.1544072926 0.5979490280 4286151546
-0.2890167832 -0.1535512954 0.5972037315 4286086269
-0.2895046473 -0.1531458348 0.5982118249 4286020476
-0.2895678878 -0.1525144875 0.5983425379 4286151546
-0.2896308899 -0.1518827379 0.5984727144 4286085753
-0.2896936536 -0.1512505561 0.5986024141 4285954167
-0.2901810706 -0.1508388221 0.5996095538 4285954167
-0.2906683981 -0.1504248232 0.6006165743 4286019960
-0.2907306552 -0.1497895718 0.6007452011 4286019960
-0.2907926738 -0.1491539031 0.6008732915 4286019960
-0.2908544540 -0.1485178322 0.6010009646 4286019960
-0.2909159660 -0.1478813589 0.6011281013 4285954167
-0.2909772694 -0.1472444832 0.6012547612 4285954167
-0.2910383344 -0.1466071904 0.6013809443 4285954165
-0.2906735539 -0.1457561105 0.6006271839 4285888372
-0.2907340527 -0.1451189667 0.6007521749 4285953652
-0.2907943130 -0.1444814205 0.6008766890 4286019445
-0.2912801504 -0.1440540850 0.6018806100 4286085238
-0.2913400233 -0.1434148252 0.6020042896 4286216824
-0.2913996279 -0.1427751631 0.6021274924 4286085751
-0.2914589942 -0.1421350986 0.6022501588 4286151544
-0.2919443250 -0.1417015195 0.6032530069 4286151544
-0.2924295664 -0.1412656754 0.6042556763 4286151544
-0.2924883962 -0.1406225860 0.6043772101 4286217337
-0.2921205163 -0.1397750527 0.6036170721 4286151544
-0.2921787500 -0.1391321272 0.6037374139 4286019958
-0.2922367454 -0.1384888142 0.6038572192 4285954165
-0.2922944725 -0.1378451139 0.6039765477 4285888374
-0.2919251919 -0.1370007396 0.6032134891 4286019960
-0.2919823527 -0.1363572329 0.6033315659 4286151546
-0.2920392752 -0.1357133389 0.6034492254 4286151546
-0.2920959592 -0.1350690722 0.6035663486 4286151546
-0.2921523750 -0.1344244182 0.6036829352 4286085753
-0.2926357687 -0.1339749843 0.6046817303 4286151546
-0.2926917672 -0.1333286613 0.6047974825 4286283132
-0.2927475274 -0.1326819658 0.6049126983 4286348412
-0.2928030491 -0.1320348978 0.6050274372 4286282619
-0.2928583026 -0.1313874573 0.6051415801 4286348412
-0.2929133177 -0.1307396591 0.6052552462 4286348412
-0.2929680645 -0.1300914884 0.6053684354 4286414207
-0.2925948203 -0.1292539835 0.6045971513 4286480000
-0.2926489711 -0.1286060512 0.6047090888 4286611586
-0.2927029133 -0.1279577464 0.6048204899 4286677379
-0.2923285663 -0.1271229535 0.6040470004 4287006601
-0.2923819125 -0.1264748871 0.6041572094 4287401359
-0.2924349904 -0.1258264631 0.6042668819 4288717219
-0.2924878299 -0.1251776963 0.6043760777 4291941076
-0.2921643257 -0.1236977205 0.6037076116 4292599006
-0.2926447988 -0.1232292801 0.6047003865 4291480525
-0.2931251526 -0.1227585822 0.6056929827 4291217353
-0.2931767702 -0.1221071184 0.6057996750 4291349707
-0.2932281494 -0.1214553118 0.6059058309 4291876051
-0.2937080264 -0.1209797710 0.6068974137 4292797153
-0.2971137464 -0.1169255972 0.6139346957 4292928741
-0.2971630991 -0.1162627786 0.6140366793 4292665569
-0.2976416647 -0.1157666817 0.6150256395 4292205018
-0.2972609997 -0.1149361581 0.6142390370 4291744467
-0.2968799174 -0.1141072288 0.6134516001 4291283916
-0.2964984477 -0.1132798865 0.6126633286 4290625986
-0.2961165607 -0.1124541461 0.6118742228 4290033081
-0.2957342565 -0.1116300076 0.6110842824 4289111979
-0.2953515649 -0.1108074784 0.6102935076 4287730326
-0.2953984439 -0.1101468801 0.6103903651 4286546052
-0.2950150371 -0.1093266010 0.6095981002 4287138189
-0.2950613201 -0.1086663380 0.6096937060 4289572530
-0.2951073349 -0.1080057696 0.6097888350 4291282635
-0.2955833375 -0.1075013727 0.6107724309 4291019463
-0.2951985896 -0.1066837087 0.6099773645 4288979880
-0.2952437997 -0.1060222164 0.6100708246 4288256157
-0.2957192063 -0.1055140123 0.6110531688 4287729813
-0.2961944640 -0.1050035730 0.6120352149 4287335055
-0.2958084345 -0.1041875929 0.6112375259 4287071884
-0.2958526313 -0.1035239324 0.6113288999 4287071884
-0.2963272929 -0.1030097008 0.6123096943 4287400849
-0.2963710427 -0.1023444831 0.6124000549 4287598228
-0.2964144945 -0.1016789749 0.6124898791 4287927706
-0.2964577079 -0.1010131761 0.6125791073 4287927706
-0.2965006232 -0.1003470793 0.6126677990 4288388256
-0.2965432703 -0.0996806994 0.6127559543 4288454049
-0.2965856493 -0.0990140364 0.6128435135 4289440944
-0.2970589101 -0.0984900296 0.6138213873 4289769909
-0.2975319922 -0.0979638025 0.6147989631 4291217355
-0.2870786488 -0.1898661703 0.5945634246 4291481303
-0.2871548235 -0.1892557889 0.5947212577 4289244341
-0.2872308195 -0.1886449158 0.5948786139 4287928224
-0.2868883908 -0.1877598464 0.5941694379 4288388775
-0.2869638503 -0.1871488988 0.5943257213 4289441459
-0.2866206765 -0.1862655431 0.5936149955 4290099389
-0.2866956294 -0.1856545210 0.5937701464 4290559423
-0.2867703438 -0.1850430220 0.5939249396 4289572528
-0.2864261270 -0.1841618121 0.5932120085 4288716962
-0.2865003347 -0.1835502535 0.5933657289 4288256411
-0.2861553729 -0.1826707572 0.5926512480 4287664272
-0.2862290442 -0.1820591539 0.5928038359 4286808963
-0.2867217064 -0.1817127317 0.5938241482 4286743170
-0.2863757908 -0.1808345020 0.5931077600 4287335307
-0.2868682146 -0.1804853529 0.5941276550 4287401100
-0.2865216732 -0.1796079874 0.5934098959 4286874756
-0.2861746848 -0.1787319630 0.5926912427 4286479998
-0.2866667211 -0.1783796102 0.5937103033 4286282619
-0.2863191068 -0.1775044352 0.5929903388 4286019447
-0.2863909900 -0.1768899858 0.5931392312 4285690482
-0.2864626348 -0.1762750745 0.5932876468 4285361517
-0.2861139774 -0.1754021198 0.5925655365 4285295724
-0.2859766781 -0.1726856977 0.5922811627 4285164138
-0.2864674926 -0.1723228842 0.5932977200 4285361517
-0.2865375578 -0.1717056632 0.5934427977 4285098345
-0.2866074145 -0.1710879952 0.5935874581 4285164138
-0.2862560749 -0.1702195555 0.5928598046 4285624689
-0.2863253653 -0.1696019024 0.5930033326 4285887861
-0.2863944471 -0.1689838022 0.5931464434 4285953654
-0.2864633203 -0.1683652401 0.5932890773 4286018934
-0.2865319550 -0.1677462459 0.5934312344 4286282106
-0.2861789167 -0.1668810248 0.5927000642 4286676864
-0.2862470150 -0.1662620604 0.5928410888 4287203208
-0.2863149047 -0.1656426340 0.5929816961 4287663759
-0.2855390310 -0.1645367146 0.5913747549 4288190103
-0.2860281467 -0.1641603708 0.5923877954 4288321689
-0.2856732905 -0.1632993370 0.5916528702 4287597966
-0.2857401073 -0.1626800001 0.5917912126 4286413692
-0.2853845060 -0.1618208438 0.5910547376 4286545278
-0.2850284874 -0.1609630883 0.5903174281 4286084727
-0.2850944102 -0.1603442878 0.5904539824 4286084727
-0.2851601243 -0.1597250551 0.5905900598 4286545532
-0.2856481671 -0.1593411118 0.5916008353 4287006083
-0.2857135236 -0.1587201059 0.5917361975 4287006083
-0.2862014174 -0.1583325565 0.5927466154 4287269255
-0.2866892517 -0.1579427272 0.5937569737 4287335307
-0.2871770561 -0.1575506479 0.5947672725 4286940549
-0.2872418165 -0.1569251865 0.5949013829 4286677377
-0.2877294421 -0.1565294862 0.5959113240 4286545791
-0.2877938151 -0.1559022665 0.5960446596 4286611584
-0.2878579795 -0.1552746147 0.5961774588 4286611584
-0.2879218757 -0.1546465456 0.5963098407 4286545791
-0.2879855633 -0.1540180594 0.5964417458 4286545791
-0.2876254022 -0.1531635970 0.5956958532 4286546304
-0.2876885533 -0.1525352001 0.5958265662 4286480511
-0.2881752253 -0.1521301121 0.5968345404 4286348925
-0.2882379889 -0.1514999717 0.5969645381 4286217339
-0.2883004844 -0.1508694291 0.5970939994 4286085753
-0.2887868583 -0.1504593939 0.5981012583 4286019960
-0.2888489962 -0.1498271078 0.5982299447 4286019960
-0.2889108956 -0.1491943896 0.5983582139 4286085753
-0.2889725864 -0.1485612839 0.5984859467 4286151546
-0.2894584239 -0.1481449902 0.5994921923 4286151546
-0.2895197272 -0.1475101411 0.5996190906 4286348923
-0.2895807922 -0.1468748748 0.5997455716 4286151544
-0.2892169058 -0.1460247934 0.5989919305 4286085751
-0.2892773747 -0.1453896761 0.5991172194 4285954165
-0.2893376350 -0.1447541565 0.5992419720 4285887859
-0.2893976569 -0.1441182345 0.5993663073 4285887859
-0.2894574106 -0.1434819251 0.5994900465 4286019445
-0.2895169556 -0.1428452283 0.5996133685 4286085238
-0.2895762324 -0.1422081292 0.5997361541 4285756786
-0.2896352708 -0.1415706426 0.5998584628 4285690993
-0.2901194990 -0.1411397159 0.6008612514 4285559407
-0.2901781499 -0.1405005157 0.6009827256 4285427821
-0.2902365327 -0.1398609281 0.6011037230 4285230442
-0.2898690701 -0.1390168071 0.6003426313 4284967270
-0.2903526425 -0.1385805905 0.6013441086 4284769891
-0.2904103100 -0.1379398555 0.6014636159 4284638305
-0.2904677391 -0.1372987330 0.6015825272 4285098856
-0.2905249298 -0.1366572231 0.6017009616 4285098856
-0.2901557982 -0.1358159184 0.6009364724 4285098856
-0.2902124226 -0.1351746023 0.6010537148 4284967270
-0.2902687788 -0.1345329136 0.6011704803 4284901477
-0.2907512188 -0.1340874583 0.6021696329 4284769891
-0.2908071876 -0.1334440857 0.6022855043 4284704098
-0.2912893593 -0.1329950541 0.6032841802 4284769891
-0.2913449109 -0.1323499978 0.6033992171 4284769380
-0.2914001942 -0.1317045689 0.6035137177 4284769380
-0.2914552391 -0.1310587674 0.6036277413 4284835173
-0.2910832167 -0.1302216649 0.6028572321 4284769380
-0.2911376953 -0.1295760870 0.6029700637 4284703587
-0.2907649279 -0.1287411004 0.6021980643 4284769380
-0.2908188105 -0.1280957460 0.6023096442 4284769380
-0.2904453278 -0.1272628903 0.6015360951 4284637794
-0.2904986143 -0.1266177744 0.6016464829 4284506721
-0.2905516624 -0.1259723008 0.6017563343 4284967272
-0.2906044722 -0.1253264695 0.6018657088 4285888374
-0.2906570137 -0.1246802956 0.6019745469 4288454301
-0.2902817726 -0.1238513663 0.6011974216 4290164665
-0.2903337479 -0.1232054457 0.6013050079 4290098872
-0.2908131182 -0.1227396727 0.6022978425 4291217353
-0.2912923992 -0.1222716570 0.6032904387 4292664799
-0.2913437486 -0.1216227934 0.6033968329 4292072916
-0.2913948298 -0.1209735870 0.6035026312 4292138709
-0.2914456725 -0.1203240454 0.6036079526 4292533467
-0.2928812206 -0.1188948452 0.6065810919 4293059557
-0.2937877774 -0.1185868233 0.6084586382 4292467420
-0.2938376963 -0.1179308146 0.6085619926 4291809490
-0.2943157852 -0.1174454316 0.6095521450 4290033079
-0.2943652570 -0.1167877987 0.6096546054 4288717219
-0.2948429883 -0.1162988842 0.6106440425 4287730324
-0.2953206301 -0.1158077121 0.6116333008 4287335566
-0.2953694761 -0.1151471809 0.6117344499 4287006601
-0.2949892581 -0.1143201590 0.6109470129 4287203980
-0.2950375080 -0.1136599332 0.6110469103 4287664531
-0.2946565747 -0.1128351390 0.6102579236 4287861910
-0.2942752242 -0.1120119467 0.6094681621 4287532947
-0.2943225205 -0.1113526821 0.6095660925 4287598740
-0.2939404547 -0.1105317324 0.6087747812 4287598740
-0.2935579717 -0.1097123995 0.6079826355 4287269775
-0.2936043441 -0.1090541109 0.6080787182 4287795606
-0.2936504483 -0.1083955094 0.6081742048 4289769396
-0.2936962843 -0.1077365950 0.6082690954 4291480014
-0.2937418520 -0.1070773825 0.6083635092 4291743186
-0.2942166924 -0.1065734401 0.6093469262 4291151049
-0.2942617834 -0.1059126481 0.6094403267 4291085256
-0.2943066359 -0.1052515507 0.6095331907 4291348428
-0.2943512201 -0.1045901552 0.6096255183 4291545807
-0.2943955064 -0.1039284617 0.6097172499 4291282635
-0.2944395542 -0.1032664627 0.6098085046 4290690498
-0.2944833338 -0.1026041731 0.6098991632 4289374638
-0.2945268154 -0.1019415930 0.6099892259 4287861399
-0.2950000763 -0.1014265642 0.6109694242 4288454050
-0.2950431108 -0.1007624269 0.6110585332 4288388257
-0.2950858772 -0.1000979990 0.6111470461 4288190878
-0.2951283455 -0.0994332880 0.6112350225 4288059292
-0.2951705754 -0.0987682864 0.6113224626 4289375151
-0.2956428528 -0.0982460082 0.6123005748 4289769909
-0.2961149812 -0.0977215096 0.6132784486 4290888390
-0.2970174253 -0.0973358527 0.6151474714 4292270043
-0.2970587909 -0.0966658369 0.6152331233 4292401629
-0.2975304425 -0.0961346701 0.6162099838 4292862180
-0.2856990993 -0.1893894374 0.5930705667 4291612891
-0.2857749760 -0.1887806207 0.5932280421 4289375929
-0.2858506739 -0.1881713122 0.5933851600 4287730845
-0.2855087221 -0.1872877181 0.5926753283 4287138708
-0.2855838835 -0.1866783500 0.5928313732 4287270290
-0.2852412164 -0.1857964545 0.5921200514 4287467669
-0.2853158414 -0.1851870120 0.5922749639 4288783014
-0.2849724293 -0.1843068451 0.5915620923 4289704116
-0.2846285999 -0.1834280044 0.5908483267 4289901236
-0.2851204574 -0.1830873638 0.5918693542 4289440685
-0.2847760022 -0.1822093576 0.5911542773 4288980132
-0.2848493755 -0.1815993190 0.5913066268 4289045925
-0.2849225402 -0.1809888184 0.5914584994 4289506476
-0.2854140103 -0.1806427240 0.5924787521 4289572269
-0.2854868770 -0.1800303906 0.5926299691 4289111718
-0.2855595350 -0.1794175804 0.5927808285 4288914339
-0.2852131724 -0.1785421371 0.5920617580 4288914339
-0.2852852941 -0.1779292971 0.5922114849 4288716960
-0.2853572071 -0.1773159951 0.5923607945 4288585374
-0.2854289114 -0.1767022312 0.5925096273 4288190616
-0.2855003774 -0.1760879904 0.5926580429 4287795858
-0.2855716646 -0.1754733026 0.5928059816 4287730065
-0.2848038375 -0.1743446290 0.5912120938 4287795858
-0.2849448919 -0.1731165648 0.5915049314 4287664272
-0.2850151062 -0.1725018620 0.5916506648 4287532686
-0.2855049670 -0.1721398383 0.5926675200 4287532684
-0.2851548791 -0.1712710708 0.5919408202 4287466891
-0.2852244377 -0.1706550121 0.5920851827 4287598477
-0.2848736048 -0.1697880626 0.5913569331 4287203719
-0.2849426568 -0.1691720039 0.5915002227 4287006340
-0.2850114405 -0.1685554981 0.5916430354 4287072133
-0.2850800455 -0.1679385453 0.5917854309 4287006083
-0.2847278416 -0.1670743674 0.5910543203 4286874497
-0.2847958803 -0.1664574295 0.5911955833 4287071876
-0.2848637104 -0.1658400595 0.5913363695 4287203462
-0.2845777571 -0.1643608660 0.5907427669 4286874497
-0.2846448123 -0.1637430936 0.5908820033 4287269255
-0.2842904925 -0.1628835648 0.5901464820 4287203462
-0.2835144997 -0.1617850512 0.5885356069 4287137669
-0.2844233215 -0.1616476774 0.5904222131 4287466634
-0.2844894230 -0.1610290706 0.5905594230 4287663759
-0.2841337323 -0.1601724029 0.5898210406 4287532173
-0.2841992676 -0.1595538706 0.5899570584 4287597966
-0.2846863270 -0.1591707170 0.5909681916 4287400587
-0.2847515345 -0.1585503966 0.5911034942 4287532173
-0.2852384448 -0.1581636369 0.5921142697 4287597966
-0.2853032649 -0.1575415581 0.5922488570 4287269001
-0.2857900262 -0.1571511775 0.5932592750 4287466380
-0.2862767279 -0.1567585468 0.5942696333 4287203721
-0.2863411009 -0.1561333537 0.5944032073 4287137928
-0.2864052057 -0.1555077434 0.5945363045 4287137926
-0.2864691019 -0.1548817158 0.5946689248 4287137926
-0.2865327597 -0.1542552561 0.5948010683 4287072133
-0.2865961790 -0.1536283940 0.5949327350 4286940547
-0.2862365842 -0.1527754515 0.5941862464 4286874756
-0.2862994373 -0.1521486789 0.5943167806 4286874756
-0.2867850661 -0.1517453045 0.5953248739 4286874754
-0.2868475914 -0.1511167884 0.5954545736 4286874754
-0.2869098485 -0.1504878551 0.5955838561 4286808961
-0.2869718969 -0.1498585194 0.5957126617 4286677375
-0.2874570489 -0.1494488716 0.5967197418 4286743170
-0.2875187099 -0.1488177925 0.5968477726 4286940549
-0.2875801325 -0.1481862962 0.5969752669 4287203721
-0.2880649567 -0.1477717161 0.5979816914 4287401100
-0.2881259918 -0.1471384913 0.5981084108 4287203721
-0.2881868184 -0.1465048641 0.5982346535 4286874756
-0.2878234982 -0.1456563175 0.5974804163 4286612097
-0.2878837287 -0.1450228244 0.5976055264 4286480511
-0.2879437506 -0.1443889290 0.5977301002 4286283132
-0.2880035043 -0.1437546462 0.5978541374 4286217339
-0.2880630493 -0.1431199610 0.5979776978 4286283132
-0.2881223261 -0.1424848884 0.5981007814 4286217339
-0.2881813943 -0.1418494284 0.5982233882 4286019958
-0.2882401943 -0.1412135661 0.5983454585 4286019958
-0.2887233794 -0.1407843679 0.5993484855 4286085751
-0.2887817919 -0.1401467919 0.5994697213 4286019958
-0.2884151936 -0.1393036842 0.5987087488 4285888372
-0.2884730399 -0.1386662722 0.5988288522 4285888372
-0.2885306478 -0.1380284876 0.5989484191 4285888372
-0.2885880172 -0.1373903304 0.5990675092 4285822579
-0.2886451185 -0.1367517859 0.5991860628 4285559407
-0.2887020111 -0.1361128539 0.5993041396 4285493614
-0.2887586355 -0.1354735643 0.5994216800 4285427308
-0.2888150215 -0.1348338872 0.5995387435 4285427308
-0.2888711691 -0.1341938376 0.5996552706 4285624687
-0.2893525958 -0.1337501109 0.6006546617 4285624687
-0.2894083261 -0.1331083626 0.6007703543 4285558894
-0.2894638181 -0.1324662566 0.6008855104 4285493101
-0.2895190418 -0.1318237782 0.6010001898 4285493101
-0.2895740271 -0.1311809421 0.6011143327 4285427308
-0.2896287739 -0.1305377334 0.6012279987 4285361515
-0.2892572582 -0.1297031343 0.6004567742 4285229929
-0.2893114388 -0.1290601492 0.6005691886 4285164138
-0.2889391780 -0.1282276809 0.5997964740 4285295724
-0.2889927626 -0.1275849193 0.5999076962 4285361517
-0.2886197865 -0.1267545819 0.5991334319 4285229931
-0.2886728048 -0.1261120588 0.5992435217 4285033065
-0.2887255549 -0.1254691780 0.5993530154 4285493616
-0.2887780666 -0.1248259544 0.5994620323 4285033065
-0.2888303101 -0.1241823733 0.5995705128 4284967272
-0.2884556353 -0.1233559698 0.5987926722 4284967272
-0.2885073125 -0.1227126494 0.5988999605 4285559409
-0.2889855802 -0.1222495586 0.5998927951 4288651680
-0.2890368402 -0.1216045991 0.5999991894 4291480779
-0.2890878320 -0.1209592894 0.6001050472 4292993505
-0.2895656526 -0.1204913631 0.6010969877 4292927712
-0.2896162271 -0.1198444217 0.6012019515 4292861919
-0.2896665335 -0.1191971451 0.6013063788 4292401368
-0.2901439071 -0.1187243909 0.6022973061 4291085510
-0.2910485566 -0.1184232756 0.6041752100 4289703857
-0.2919532061 -0.1181180105 0.6060531735 4288848548
-0.2920028567 -0.1174646094 0.6061562300 4288256411
-0.2924798727 -0.1169819087 0.6071463823 4287927446
-0.2929567397 -0.1164969578 0.6081363559 4287466895
-0.2930057645 -0.1158406585 0.6082381010 4287664274
-0.2934823334 -0.1153521761 0.6092273593 4288322204
-0.2935308814 -0.1146942526 0.6093282104 4288651169
-0.2935791910 -0.1140360087 0.6094284654 4289309099
-0.2931992114 -0.1132121682 0.6086396575 4290295994
-0.2928188145 -0.1123899221 0.6078500152 4290888131
-0.2928661704 -0.1117326319 0.6079483628 4291612113
-0.2929132879 -0.1110750213 0.6080461740 4291612113
-0.2925318480 -0.1102556735 0.6072543263 4292138457
-0.2925783694 -0.1095983908 0.6073508859 4292599008
-0.2926246226 -0.1089408025 0.6074469090 4292796387
-0.2926706076 -0.1082829013 0.6075423956 4293322731
-0.2927163243 -0.1076246873 0.6076372862 4294046454
-0.2931904197 -0.1071227863 0.6086214781 4294375419
-0.2932356894 -0.1064629927 0.6087154150 4294506492
-0.2928519249 -0.1056482196 0.6079187393 4294638078
-0.2928965688 -0.1049887836 0.6080114841 4294835455
-0.2929409742 -0.1043290570 0.6081036329 4294769663
-0.2929851115 -0.1036690250 0.6081952453 4294769663
-0.2930289805 -0.1030086949 0.6082863212 4294572285
-0.2935016751 -0.1024979204 0.6092675328 4292466909
-0.2935450673 -0.1018360332 0.6093576550 4289572017
-0.2940174043 -0.1013217717 0.6103381515 4288782504
-0.2940603197 -0.1006583348 0.6104272604 4289572020
-0.2941029668 -0.0999946073 0.6105157733 4289374641
-0.2937159538 -0.0991855860 0.6097123623 4289703606
-0.2941874564 -0.0986662880 0.6106911898 4291677396
-0.2946588397 -0.0981447697 0.6116696596 4292137947
-0.2951300442 -0.0976210311 0.6126478314 4292203738
-0.2956011295 -0.0970950648 0.6136257052 4291414222
-0.2960720360 -0.0965668783 0.6146032810 4290295741
-0.2961130440 -0.0958972797 0.6146883368 4290822085
-0.2961537540 -0.0952274129 0.6147728562 4291216843
-0.2966240942 -0.0946945027 0.6157492399 4291414222
-0.2970942557 -0.0941593796 0.6167252064 4291874773
-0.2971342504 -0.0934867412 0.6168082952 4292532703
-0.2843220830 -0.1889121681 0.5915759802 4292336864
-0.2848140597 -0.1885806322 0.5925996304 4290955211
-0.2844730318 -0.1876972020 0.5918900371 4288981421
-0.2845482230 -0.1870889962 0.5920464396 4288126112
-0.2842064500 -0.1862072796 0.5913354158 4287139217
-0.2838642895 -0.1853268594 0.5906234384 4286218115
-0.2839386165 -0.1847189963 0.5907781124 4285822844
-0.2835956812 -0.1838403046 0.5900645852 4286414981
-0.2836695015 -0.1832323819 0.5902181864 4287467924
-0.2833258510 -0.1823554188 0.5895031691 4287994268
-0.2833991349 -0.1817474365 0.5896556377 4288914341
-0.2834722400 -0.1811389923 0.5898077488 4289572271
-0.2839626968 -0.1807959527 0.5908282399 4289835700
-0.2840355039 -0.1801856756 0.5909796357 4289704114
-0.2841080725 -0.1795749217 0.5911306739 4289704114
-0.2841804326 -0.1789637059 0.5912812352 4289769907
-0.2842525840 -0.1783520132 0.5914313197 4289703857
-0.2843245268 -0.1777398735 0.5915810466 4289638064
-0.2843962312 -0.1771272570 0.5917302966 4289638062
-0.2844677567 -0.1765141785 0.5918790698 4289769648
-0.2845390737 -0.1759006381 0.5920274258 4289703855
-0.2846101522 -0.1752866358 0.5921753645 4289506476
-0.2834250927 -0.1739015579 0.5897096395 4289374890
-0.2830767035 -0.1730333865 0.5889847279 4289177511
-0.2831467390 -0.1724216342 0.5891304612 4288848033
-0.2832165658 -0.1718094349 0.5892757177 4288453275
-0.2845433652 -0.1719565094 0.5920363665 4288059030
-0.2841939032 -0.1710883379 0.5913092494 4288585374
-0.2830054760 -0.1697186530 0.5888365507 4288980645
-0.2839130759 -0.1696066111 0.5907249451 4289046438
-0.2839819193 -0.1689912379 0.5908681750 4289112231
-0.2836309671 -0.1681267172 0.5901380181 4289178024
-0.2836993039 -0.1675113738 0.5902801752 4288980132
-0.2837673724 -0.1668955684 0.5904218554 4288585374
-0.2838352621 -0.1662793308 0.5905630589 4287992724
-0.2839029133 -0.1656626612 0.5907038450 4287663759
-0.2839703560 -0.1650455445 0.5908441544 4287532686
-0.2836174071 -0.1641847491 0.5901097655 4287335307
-0.2836843133 -0.1635676622 0.5902489424 4287335307
-0.2833306193 -0.1627087444 0.5895130634 4287861651
-0.2829765081 -0.1618512124 0.5887762904 4288519068
-0.2834630907 -0.1614742279 0.5897887349 4288913826
-0.2835290134 -0.1608563364 0.5899258852 4289243304
-0.2831739485 -0.1600002646 0.5891870856 4289309097
-0.2832393348 -0.1593824178 0.5893231034 4289243815
-0.2841463983 -0.1592359543 0.5912104249 4288980643
-0.2837904394 -0.1583804339 0.5904698372 4288585885
-0.2842763960 -0.1579944640 0.5914809108 4288256920
-0.2843410671 -0.1573730707 0.5916154981 4288124823
-0.2848268449 -0.1569834948 0.5926262140 4288059030
-0.2844697237 -0.1561290324 0.5918831825 4288322202
-0.2849552631 -0.1557367593 0.5928933620 4288124823
-0.2850191295 -0.1551127732 0.5930262208 4288124821
-0.2850827575 -0.1544883549 0.5931586623 4288190614
-0.2851461470 -0.1538635343 0.5932905674 4287993235
-0.2852093279 -0.1532382816 0.5934219956 4287993235
-0.2848502696 -0.1523868591 0.5926749110 4287927444
-0.2849128842 -0.1517617106 0.5928052068 4287598479
-0.2849752903 -0.1511361599 0.5929350257 4287597966
-0.2850374281 -0.1505101770 0.5930643678 4287466380
-0.2850993574 -0.1498838067 0.5931932330 4287071622
-0.2855835259 -0.1494781375 0.5942006111 4286676864
-0.2856450677 -0.1488500237 0.5943286419 4286743170
-0.2857064009 -0.1482214928 0.5944562554 4287269514
-0.2861902416 -0.1478108913 0.5954629183 4287269514
-0.2866739929 -0.1473980248 0.5964694619 4286808963
-0.2867347896 -0.1467664242 0.5965960026 4286677377
-0.2863723636 -0.1459188908 0.5958418846 4286677377
-0.2864325941 -0.1452874243 0.5959672332 4286743683
-0.2864926159 -0.1446555555 0.5960920453 4287006855
-0.2865523696 -0.1440232992 0.5962164402 4287204234
-0.2866119146 -0.1433906406 0.5963402987 4287138441
-0.2866711915 -0.1427575946 0.5964636803 4286941062
-0.2867302597 -0.1421241462 0.5965865254 4286809476
-0.2863654494 -0.1412813216 0.5958275199 4287006342
-0.2868476510 -0.1408560872 0.5968307853 4287072135
-0.2873297632 -0.1404286027 0.5978339314 4287006342
-0.2873879671 -0.1397926658 0.5979549885 4286940549
-0.2874459028 -0.1391563565 0.5980755687 4287072135
-0.2870795429 -0.1383153349 0.5973132849 4287401100
-0.2871369421 -0.1376791894 0.5974326730 4287532686
-0.2871940732 -0.1370426714 0.5975515842 4287401100
-0.2872509658 -0.1364057660 0.5976699591 4286677890
-0.2873076200 -0.1357684731 0.5977877975 4286414718
-0.2873640060 -0.1351308078 0.5979051590 4286217339
-0.2874201834 -0.1344927847 0.5980220437 4286348925
-0.2874760926 -0.1338543743 0.5981383920 4286283130
-0.2875317633 -0.1332155913 0.5982542038 4286085751
-0.2880119979 -0.1327722669 0.5992533565 4285954165
-0.2880672514 -0.1321318001 0.5993683934 4286085751
-0.2876973152 -0.1312970370 0.5985986590 4285887861
-0.2877520025 -0.1306567788 0.5987124443 4285887861
-0.2878064513 -0.1300161630 0.5988256931 4285953654
-0.2874354422 -0.1291840822 0.5980538130 4286019447
-0.2874893248 -0.1285436898 0.5981658697 4286019447
-0.2871175706 -0.1277137250 0.5973924398 4285953654
-0.2871708572 -0.1270735711 0.5975033045 4286019447
-0.2867983878 -0.1262457371 0.5967283249 4286019447
-0.2868511081 -0.1256058216 0.5968379974 4286019447
-0.2869035900 -0.1249655411 0.5969471931 4286085240
-0.2869558036 -0.1243249103 0.5970558524 4285887861
-0.2870077789 -0.1236839369 0.5971639752 4285624689
-0.2866336107 -0.1228600591 0.5963854194 4285361517
-0.2866849899 -0.1222193465 0.5964923501 4285361517
-0.2871621847 -0.1217589378 0.5974852443 4286545791
-0.2872131765 -0.1211165786 0.5975912809 4288387995
-0.2872638702 -0.1204738840 0.5976968408 4290559162
-0.2877406180 -0.1200086400 0.5986887813 4291414471
-0.2877909243 -0.1193643063 0.5987933874 4291414473
-0.2878409624 -0.1187196448 0.5988975167 4290690750
-0.2887437344 -0.1184244901 0.6007758975 4290361785
-0.2896465659 -0.1181251854 0.6026543975 4290230199
-0.2901227772 -0.1176487058 0.6036452055 4290624957
-0.2905988991 -0.1171699762 0.6046358347 4291611852
-0.2906480730 -0.1165179014 0.6047381759 4292467161
-0.2911238968 -0.1160356402 0.6057281494 4292927712
-0.2915995717 -0.1155511364 0.6067178845 4293651437
-0.2916481495 -0.1148961559 0.6068189740 4294177781
-0.2916964293 -0.1142408550 0.6069194674 4294309367
-0.2917444706 -0.1135852262 0.6070194244 4294506746
-0.2917922437 -0.1129292771 0.6071188450 4294769918
-0.2914124727 -0.1121086255 0.6063286662 4294967295
-0.2914596796 -0.1114529893 0.6064268351 4294769918
-0.2915065885 -0.1107970476 0.6065244675 4294901503
-0.2915532589 -0.1101407781 0.6066215634 4294967295
-0.2911720872 -0.1093236655 0.6058284640 4294967295
-0.2916457951 -0.1088273153 0.6068140864 4294901503
-0.2916916907 -0.1081701145 0.6069095135 4294967295
-0.2917372882 -0.1075126007 0.6070044637 4294967039
-0.2922104597 -0.1070114598 0.6079889536 4294967039
-0.2922556102 -0.1063523740 0.6080828905 4294835455
-0.2923004925 -0.1056929752 0.6081762910 4294506492
-0.2919170856 -0.1048794985 0.6073785424 4294309113
-0.2919613719 -0.1042204648 0.6074706912 4294243320
-0.2920053899 -0.1035611331 0.6075623035 4293914355
-0.2920491695 -0.1029015034 0.6076533198 4293651183
-0.2920926511 -0.1022415832 0.6077437997 4292861668
-0.2925642133 -0.1017303094 0.6087250113 4291085257
-0.2926072478 -0.1010688320 0.6088144779 4289440691
-0.2930784523 -0.1005540714 0.6097949743 4290822344
-0.2931210101 -0.0998910442 0.6098834872 4291282638
-0.2927346826 -0.0990826562 0.6090796590 4291414224
-0.2932052910 -0.0985641256 0.6100588441 4291808982
-0.2936757505 -0.0980433673 0.6110376716 4290822087
-0.2941460609 -0.0975203887 0.6120162606 4289309359
-0.2941873670 -0.0968539938 0.6121022105 4289046187
-0.2946573198 -0.0963275358 0.6130799651 4290164668
-0.2951270938 -0.0957988575 0.6140574813 4291217356
-0.2951677144 -0.0951296836 0.6141420007 4292203738
-0.2956371307 -0.0945975333 0.6151186824 4292664289
-0.2830228806 -0.1878287047 0.5902367830 4292336864
-0.2830979526 -0.1872225553 0.5903933048 4291152590
-0.2831728160 -0.1866159290 0.5905494690 4290428867
-0.2832474709 -0.1860088110 0.5907051563 4289441972
-0.2833219469 -0.1854012311 0.5908604264 4288257698
-0.2825638950 -0.1842504442 0.5892795920 4287204497
-0.2826377451 -0.1836436838 0.5894335508 4286546567
-0.2822949886 -0.1827668846 0.5887187719 4286152064
-0.2819518447 -0.1818913966 0.5880031586 4285888892
-0.2824414074 -0.1815527827 0.5890241265 4286611845
-0.2820976377 -0.1806781441 0.5883072019 4287138189
-0.2825870216 -0.1803368032 0.5893277526 4287402131
-0.2830764055 -0.1799931973 0.5903483629 4287665303
-0.2827317715 -0.1791189462 0.5896296501 4288388256
-0.2832209468 -0.1787725985 0.5906498432 4288980393
-0.2832929194 -0.1781616062 0.5907999277 4289111977
-0.2833646834 -0.1775501519 0.5909495950 4289111977
-0.2834362388 -0.1769382209 0.5910987854 4289309099
-0.2835075557 -0.1763258427 0.5912475586 4289572271
-0.2835786939 -0.1757129878 0.5913958549 4289638321
-0.2832318544 -0.1748418063 0.5906725526 4289572528
-0.2833024263 -0.1742289364 0.5908197761 4289703857
-0.2833728194 -0.1736156046 0.5909665227 4289638064
-0.2834429741 -0.1730018258 0.5911128521 4289440685
-0.2835129499 -0.1723875999 0.5912587643 4289374892
-0.2835826874 -0.1717729121 0.5914041996 4288651167
-0.2832338214 -0.1709053218 0.5906767249 4289045925
-0.2828845680 -0.1700391024 0.5899482965 4289375403
