VERSION 0.7
FIELDS x y z rgba
SIZE 4 4 4 4
TYPE F F F U
COUNT 1 1 1 1
WIDTH 920
HEIGHT 1
VIEWPOINT 0.0 0.0 0.0 1.0 0.0 0.0 0.0
POINTS 920
DATA ascii
-0.2978922129 -0.1153347418 0.6127308607 4294638589
-0.2979410589 -0.1146727577 0.6128313541 4294638589
-0.2984209061 -0.1141754389 0.6138183475 4294572796
-0.2984693050 -0.1135118529 0.6139178872 4294507003
-0.2989487946 -0.1130110100 0.6149041653 4293980402
-0.2994281948 -0.1125079319 0.6158902049 4293783023
-0.3007704914 -0.1123249233 0.6186511517 4293717230
-0.3016813397 -0.1119756401 0.6205246449 4293256679
-0.3025921881 -0.1116221920 0.6223981380 4292532956
-0.3026395738 -0.1109480411 0.6224956512 4291677647
-0.3026866913 -0.1102735698 0.6225925684 4290230201
-0.3027335405 -0.1095987856 0.6226889491 4288585376
-0.3023481965 -0.1087683067 0.6218963265 4286874758
-0.3023944199 -0.1080938578 0.6219913960 4285887863
-0.3024404049 -0.1074191108 0.6220859885 4286545793
-0.3024860919 -0.1067440510 0.6221799254 4287927446
-0.3020993173 -0.1059171632 0.6213843822 4288651169
-0.3021443784 -0.1052424610 0.6214771271 4287137930
-0.3021892011 -0.1045674533 0.6215692759 4286480000
-0.3018013239 -0.1037435234 0.6207714677 4291414475
-0.2931740880 -0.1661480069 0.6044069529 4292468966
-0.2932422757 -0.1655149609 0.6045475602 4291350485
-0.2933102548 -0.1648814678 0.6046876907 4290691779
-0.2933779955 -0.1642475426 0.6048273444 4289902263
-0.2934454978 -0.1636131704 0.6049665213 4289244333
-0.2930886149 -0.1627428532 0.6042307615 4288849575
-0.2927313149 -0.1618739218 0.6034941673 4288980391
-0.2927979231 -0.1612400860 0.6036314964 4289177770
-0.2924398780 -0.1603730619 0.6028933525 4288980645
-0.2925059497 -0.1597392708 0.6030295491 4288520094
-0.2925717831 -0.1591050625 0.6031652689 4287401100
-0.2926373780 -0.1584704220 0.6033005118 4286677377
-0.2927027345 -0.1578353643 0.6034352779 4286545791
-0.2927678823 -0.1571998745 0.6035695076 4287006342
-0.2924077511 -0.1563367248 0.6028271317 4287598479
-0.2916221023 -0.1552487016 0.6012074351 4288124823
-0.2912610471 -0.1543893367 0.6004630923 4288585374
-0.2908995748 -0.1535314023 0.5997178555 4288914339
-0.2913884521 -0.1531219631 0.6007257700 4289637551
-0.2914518118 -0.1524876654 0.6008563638 4289571758
-0.2915149331 -0.1518529505 0.6009864807 4289111720
-0.2911521494 -0.1509970576 0.6002385616 4288124825
-0.2912147045 -0.1503624469 0.6003674865 4287006344
-0.2917028368 -0.1499463320 0.6013739109 4285164140
-0.2917650044 -0.1493099779 0.6015020609 4283584595
-0.2926789820 -0.1491072923 0.6033862829 4283650388
-0.2931669652 -0.1486843675 0.6043923497 4286084731
-0.2932286859 -0.1480440050 0.6045195460 4283913562
-0.2928638756 -0.1471889913 0.6037674546 4283453268
-0.2933514118 -0.1467620730 0.6047725677 4284769128
-0.2934124172 -0.1461205035 0.6048982739 4285427058
-0.2938997149 -0.1456899941 0.6059029698 4290493119
-0.2939603329 -0.1450466961 0.6060279012 4292203480
-0.2974288166 -0.1310885698 0.6131784916 4291152589
-0.2974838316 -0.1304313987 0.6132919788 4288849575
-0.2975386083 -0.1297738850 0.6134048700 4287994266
-0.2967354953 -0.1287439018 0.6117491722 4288980391
-0.2963607013 -0.1279024482 0.6109765172 4289177770
-0.2955565453 -0.1268783957 0.6093186140 4289309099
-0.2947517931 -0.1258577853 0.6076595783 4290295994
-0.2943756282 -0.1250228584 0.6068840623 4289374377
-0.2939990461 -0.1241894960 0.6061077118 4288058517
-0.2940513194 -0.1235380247 0.6062154770 4287137415
-0.2936739624 -0.1227068156 0.6054375768 4285558383
-0.2941550910 -0.1222340539 0.6064293981 4286150524
-0.2946360707 -0.1217590421 0.6074210405 4287137419
-0.2946873903 -0.1211052388 0.6075268388 4288650656
-0.2951681018 -0.1206266880 0.6085178852 4291348169
-0.2956486940 -0.1201458871 0.6095086336 4292795615
-0.2961291969 -0.1196628362 0.6104992032 4294045682
-0.2961796820 -0.1190048233 0.6106033325 4294572539
-0.2962299287 -0.1183464676 0.6107069254 4294769918
-0.2958498895 -0.1175169721 0.6099234223 4294572539
-0.2950393856 -0.1165192053 0.6082524657 4294835711
-0.2946584523 -0.1156938300 0.6074671745 4294572796
-0.2951375842 -0.1152059138 0.6084549427 4294572796
-0.2951863110 -0.1145487800 0.6085553765 4294835967
-0.2956651151 -0.1140573472 0.6095424891 4294704382
-0.2957133949 -0.1133986115 0.6096419692 4294638589
-0.2961918712 -0.1129036546 0.6106284857 4294835967
-0.2966702580 -0.1124064550 0.6116147041 4294967295
-0.2971485257 -0.1119070202 0.6126006842 4294901503
-0.2989188135 -0.1118890122 0.6162502766 4294901503
-0.3002585769 -0.1117027402 0.6190123558 4294704125
-0.3011676371 -0.1113510802 0.6208864450 4294440953
-0.3012148440 -0.1106785759 0.6209837794 4294111988
-0.3012617826 -0.1100057587 0.6210805774 4292796128
-0.3008773923 -0.1091762185 0.6202881336 4290888131
-0.3004926145 -0.1083482876 0.6194948554 4290164408
-0.3001074195 -0.1075219810 0.6187006831 4290361787
-0.3005843163 -0.1070043296 0.6196839213 4290559166
-0.3006297648 -0.1063318923 0.6197776198 4289309099
-0.3002435565 -0.1055075601 0.6189813614 4288256411
-0.3002884090 -0.1048354805 0.6190738082 4287137930
-0.3003329635 -0.1041631028 0.6191657186 4288190618
-0.2999456823 -0.1033417284 0.6183672547 4292467163
-0.2919128239 -0.1644725204 0.6031879187 4292862948
-0.2919802964 -0.1638402045 0.6033273339 4292270811
-0.2920475304 -0.1632074416 0.6034662724 4291678674
-0.2916911840 -0.1623386294 0.6027299762 4291020744
-0.2917578816 -0.1617059112 0.6028677821 4290231228
-0.2914007902 -0.1608389765 0.6021298766 4289770677
-0.2914669216 -0.1602063179 0.6022665501 4289506989
-0.2915328145 -0.1595732272 0.6024026871 4289046438
-0.2915984690 -0.1589397043 0.6025384068 4289178024
-0.2916639149 -0.1583057493 0.6026735902 4288651680
-0.2917291224 -0.1576713771 0.6028082967 4288256922
-0.2917940915 -0.1570365876 0.6029425859 4287664785
-0.2914346159 -0.1561740339 0.6021997333 4287137928
-0.2910746932 -0.1553129107 0.6014561057 4286743170
-0.2907143831 -0.1544532180 0.6007115245 4286545791
-0.2907781303 -0.1538195014 0.6008432508 4286414205
-0.2908416390 -0.1531853825 0.6009745002 4286151035
-0.2909049392 -0.1525508314 0.6011052728 4286282621
-0.2909679711 -0.1519158781 0.6012355685 4286216828
-0.2910307944 -0.1512805223 0.6013653278 4285953656
-0.2906683981 -0.1504248232 0.6006165743 4285887863
-0.2907306552 -0.1497895718 0.6007452011 4284769382
-0.2912178040 -0.1493719667 0.6017518044 4283255889
-0.2917048931 -0.1489520967 0.6027582884 4283453268
-0.2921919227 -0.1485299617 0.6037646532 4284769128
-0.2918280959 -0.1476750225 0.6030128002 4283782233
-0.2918893099 -0.1470358670 0.6031393409 4284111198
-0.2923758924 -0.1466097385 0.6041448116 4284834921
-0.2924367487 -0.1459688544 0.6042705178 4287400848
-0.2929230928 -0.1455391198 0.6052755117 4291545807
-0.2929835618 -0.1448965073 0.6054003835 4292730081
-0.2955342233 -0.1312309653 0.6106709242 4290099644
-0.2955892086 -0.1305767596 0.6107845306 4287665303
-0.2960717678 -0.1301102042 0.6117817163 4287993496
-0.2956984043 -0.1292672455 0.6110101938 4289177770
-0.2948966026 -0.1282397062 0.6093534231 4289506478
-0.2945223451 -0.1274007708 0.6085799932 4288848548
-0.2941476405 -0.1265633702 0.6078057885 4289901236
-0.2933442891 -0.1255442500 0.6061457992 4290822338
-0.2929687202 -0.1247108951 0.6053697467 4290229686
-0.2930211127 -0.1240604743 0.6054779887 4288387482
-0.2930732667 -0.1234097034 0.6055857539 4287795345
-0.2926965952 -0.1225791126 0.6048074365 4287334794
-0.2931767702 -0.1221071184 0.6057996750 4286611073
-0.2932281494 -0.1214553118 0.6059058309 4285097834
-0.2932792604 -0.1208031625 0.6060114503 4284176732
-0.2937589586 -0.1203263327 0.6070026755 4285755764
-0.2942385674 -0.1198472530 0.6079936624 4287729554
-0.2942890525 -0.1191921756 0.6080979705 4289834930
-0.2947683632 -0.1187095568 0.6090883613 4291217096
-0.2948184013 -0.1180528551 0.6091917753 4292006612
-0.2940097451 -0.1170540601 0.6075208783 4292993507
-0.2932005525 -0.1160587519 0.6058488488 4293585644
-0.2932495475 -0.1154048890 0.6059499979 4293980400
-0.2932982445 -0.1147506908 0.6060506701 4294243572
-0.2933467031 -0.1140961722 0.6061508060 4294309878
-0.2938244641 -0.1136074141 0.6071379781 4294244085
-0.2938724458 -0.1129512936 0.6072371602 4294441210
-0.2943499088 -0.1124590188 0.6082237363 4294901759
-0.2948272228 -0.1119645089 0.6092100143 4294901759
-0.2957342565 -0.1116300076 0.6110842824 4294901759
-0.2970712185 -0.1114526466 0.6138468981 4294901759
-0.2988383174 -0.1114295200 0.6174982786 4294901759
-0.2993155420 -0.1109202802 0.6184843779 4294901759
-0.2993625104 -0.1102503985 0.6185814142 4294901759
-0.2994091809 -0.1095801964 0.6186778545 4294901759
-0.2990253568 -0.1087532043 0.6178847551 4294046452
-0.2986411154 -0.1079278290 0.6170908213 4292862178
-0.2991172671 -0.1074131802 0.6180746555 4292664799
-0.2991628051 -0.1067427024 0.6181687713 4291612111
-0.2987775505 -0.1059193015 0.6173726916 4289309356
-0.2983919084 -0.1050975248 0.6165758371 4287730324
-0.2984365225 -0.1044280753 0.6166679859 4288190875
-0.2984808385 -0.1037583202 0.6167595983 4290691009
-0.2903627157 -0.1613028347 0.6013650298 4292665571
-0.2904289067 -0.1606712937 0.6015021205 4292205020
-0.2904948592 -0.1600393206 0.6016387343 4292072662
-0.2905606031 -0.1594069153 0.6017748713 4291743697
-0.2906261086 -0.1587740779 0.6019105315 4291217353
-0.2906913757 -0.1581408232 0.6020457149 4290888388
-0.2903331816 -0.1572778672 0.6013038754 4290691009
-0.2903978825 -0.1566446871 0.6014378667 4290362044
-0.2908857763 -0.1562384963 0.6024483442 4290033079
-0.2909501195 -0.1556035429 0.6025815606 4289901493
-0.2910142243 -0.1549681723 0.6027143598 4289703855
-0.2910780907 -0.1543323696 0.6028466225 4289374890
-0.2911417186 -0.1536961645 0.6029784083 4288585633
-0.2912051380 -0.1530595422 0.6031097174 4288651426
-0.2912682891 -0.1524224877 0.6032405496 4288454047
-0.2913312316 -0.1517850310 0.6033709049 4288256668
-0.2913939059 -0.1511471719 0.6035007238 4287993496
-0.2910321355 -0.1502898037 0.6027514338 4287335566
-0.2910942435 -0.1496520340 0.6028801203 4285822329
-0.2911561430 -0.1490138769 0.6030082703 4284111711
-0.2912177742 -0.1483753026 0.6031359434 4283124816
-0.2912791967 -0.1477363110 0.6032631397 4284111711
-0.2913403809 -0.1470969319 0.6033897996 4285164399
-0.2914012969 -0.1464571506 0.6035160422 4285888122
-0.2914620042 -0.1458169669 0.6036416888 4289375151
-0.2919473946 -0.1453880072 0.6046470404 4291677906
-0.2944423258 -0.1324019730 0.6098142266 4292402397
-0.2944976985 -0.1317491978 0.6099289060 4289178540
-0.2941259146 -0.1309060454 0.6091588736 4287072394
-0.2941806614 -0.1302534789 0.6092723012 4287664531
-0.2942351997 -0.1296005398 0.6093852520 4288651169
-0.2934351861 -0.1285729408 0.6077283621 4288190618
-0.2930618525 -0.1277349889 0.6069551110 4288124823
-0.2926880717 -0.1268985569 0.6061810255 4288190616
-0.2923139036 -0.1260636896 0.6054061055 4289045414
-0.2919393182 -0.1252303571 0.6046302915 4288782242
-0.2919918299 -0.1245809719 0.6047390699 4288452507
-0.2920441031 -0.1239312440 0.6048473120 4286149752
-0.2920961082 -0.1232811734 0.6049550176 4285031525
-0.2917201221 -0.1224512011 0.6041763425 4286281592
-0.2917715609 -0.1218013838 0.6042828560 4287400589
-0.2922506332 -0.1213288680 0.6052750349 4287861140
-0.2923016250 -0.1206774190 0.6053806543 4287335307
-0.2923523486 -0.1200256273 0.6054857373 4286216826
-0.2924028337 -0.1193734929 0.6055902839 4285164138
-0.2928812206 -0.1188948452 0.6065810919 4284703587
-0.2937877774 -0.1185868233 0.6084586382 4285229933
-0.2934093773 -0.1177589074 0.6076748967 4286282621
-0.2926021516 -0.1167616174 0.6060030460 4287532688
-0.2917943597 -0.1157678217 0.6043300629 4288124825
-0.2918431461 -0.1151156053 0.6044310927 4288914339
-0.2918916643 -0.1144630685 0.6045315862 4289506476
-0.2923686206 -0.1139773279 0.6055194139 4290032820
-0.2924166918 -0.1133231819 0.6056189537 4291282887
-0.2924644947 -0.1126687080 0.6057179570 4293125091
-0.2929409444 -0.1121781692 0.6067047715 4294309365
-0.2934172750 -0.1116853803 0.6076912880 4294967295
-0.2943225205 -0.1113526821 0.6095660925 4294835711
-0.2956568897 -0.1111771762 0.6123296618 4294967295
-0.2969914079 -0.1109955832 0.6150935888 4294967295
-0.2970383167 -0.1103295982 0.6151907444 4294704125
-0.2970849574 -0.1096632928 0.6152873039 4294177781
-0.2971313298 -0.1089966744 0.6153833866 4293783023
-0.2971774340 -0.1083297506 0.6154788733 4292598749
-0.2972232699 -0.1076625139 0.6155738235 4292467163
-0.2972688377 -0.1069949642 0.6156681776 4292796128
-0.2973141372 -0.1063271165 0.6157619953 4291743440
-0.2969294786 -0.1055062711 0.6149653196 4289111720
-0.2969741523 -0.1048387811 0.6150578856 4288190618
-0.2970185876 -0.1041709855 0.6151498556 4289901236
-0.2974926531 -0.1036526859 0.6161316633 4292598749
-0.2899778485 -0.1554411203 0.6019525528 4292862948
-0.2900417745 -0.1548064351 0.6020852923 4292862432
-0.2901054919 -0.1541713327 0.6022175550 4292796639
-0.2901689708 -0.1535358131 0.6023493409 4292467420
-0.2906552851 -0.1531227678 0.6033588648 4292270041
-0.2902952135 -0.1522635221 0.6026114225 4292139225
-0.2903579772 -0.1516267508 0.6027417183 4292270811
-0.2904205322 -0.1509895772 0.6028715372 4291810260
-0.2900593877 -0.1501328200 0.6021218300 4291283916
-0.2901213467 -0.1494957507 0.6022504568 4288783014
-0.2901830673 -0.1488582790 0.6023786068 4283453781
-0.2902445793 -0.1482203901 0.6025062799 4282664265
-0.2903058231 -0.1475821137 0.6026334167 4283716953
-0.2903668582 -0.1469434202 0.6027600765 4284770411
-0.2908515930 -0.1465179026 0.6037663817 4286546822
-0.2904881537 -0.1456648260 0.6030119061 4291283918
-0.2905484736 -0.1450249404 0.6031370759 4292336606
-0.2925549448 -0.1325313300 0.6073022485 4291349193
-0.2926102579 -0.1318815053 0.6074171066 4288125082
-0.2926653028 -0.1312313080 0.6075313687 4286611843
-0.2922940254 -0.1303906739 0.6067606211 4287598481
-0.2923485041 -0.1297406852 0.6068736911 4287993239
-0.2924027145 -0.1290903538 0.6069862843 4286874756
-0.2920303643 -0.1282524168 0.6062133312 4286348412
-0.2912311852 -0.1272297353 0.6045543551 4286742657
-0.2912844121 -0.1265811622 0.6046648622 4286611071
-0.2909108400 -0.1257478595 0.6038893461 4286611073
-0.2905368507 -0.1249160990 0.6031129956 4286084729
-0.2905891836 -0.1242683679 0.6032215953 4286083959
-0.2906412184 -0.1236202866 0.6033296585 4285360236
-0.2906930447 -0.1229718626 0.6034372449 4284702560
-0.2907446027 -0.1223230883 0.6035442352 4285294697
-0.2912229002 -0.1218526438 0.6045371294 4285493105
-0.2912740111 -0.1212022305 0.6046432853 4286414207
-0.2908977270 -0.1203747094 0.6038621068 4287401100
-0.2918027341 -0.1200761870 0.6057407856 4287269514
-0.2918531597 -0.1194237918 0.6058454514 4286545791
-0.2919033170 -0.1187710688 0.6059495807 4285690482
-0.2923806608 -0.1182909459 0.6069405079 4285032554
-0.2920028567 -0.1174646094 0.6061562300 4284374624
-0.2911970615 -0.1164688319 0.6044834852 4284243036
-0.2908183634 -0.1156466156 0.6036973596 4284374622
-0.2908670306 -0.1149950996 0.6037983894 4284900966
-0.2909154296 -0.1143432632 0.6038988829 4285493103
-0.2909635603 -0.1136910990 0.6039987803 4286545791
-0.2910114527 -0.1130386069 0.6040982008 4289374890
-0.2914870977 -0.1125510707 0.6050855517 4293125091
-0.2915345132 -0.1118969843 0.6051840186 4294967295
-0.2920098603 -0.1114059314 0.6061707139 4294967295
-0.2929132879 -0.1110750213 0.6080461740 4294967295
-0.2942450643 -0.1109013855 0.6108106971 4294967295
-0.2955769598 -0.1107216552 0.6135755777 4294375160
-0.2951952517 -0.1098978221 0.6127831936 4292269784
-0.2952416539 -0.1092341393 0.6128795147 4291217096
-0.2952877879 -0.1085701510 0.6129752398 4291414475
-0.2957622707 -0.1080624536 0.6139602661 4290822338
-0.2953792214 -0.1072412357 0.6131650805 4289967029
-0.2954245508 -0.1065763161 0.6132591963 4289967029
-0.2954696119 -0.1059110910 0.6133527160 4289309099
-0.2955144048 -0.1052455604 0.6134456992 4289045927
-0.2951299548 -0.1044279486 0.6126476526 4290361787
-0.2956031859 -0.1039136052 0.6136299372 4292006612
-0.2890875340 -0.1499755830 0.6014912128 4291875800
-0.2887266278 -0.1491208822 0.6007403135 4287204752
-0.2892109454 -0.1487024277 0.6017479897 4281546554
-0.2892722785 -0.1480652392 0.6018756032 4281678140
-0.2889103591 -0.1472121179 0.6011226177 4282994000
-0.2893942297 -0.1467896551 0.6021293402 4284441446
-0.2898780406 -0.1463649273 0.6031360030 4288783784
-0.2899385095 -0.1457251906 0.6032618284 4291810262
-0.2906165123 -0.1333011091 0.6046724916 4292797414
-0.2910969853 -0.1328485459 0.6056721807 4289835700
-0.2911523283 -0.1322007328 0.6057873368 4286809222
-0.2912074029 -0.1315525472 0.6059019566 4287664274
-0.2908370495 -0.1307128817 0.6051313281 4288059032
-0.2904662788 -0.1298747659 0.6043599248 4287861653
-0.2905204594 -0.1292273700 0.6044726372 4287269516
-0.2905743718 -0.1285796165 0.6045848131 4286611586
-0.2902025282 -0.1277441978 0.6038111448 4287203723
-0.2898302972 -0.1269103289 0.6030366421 4286545793
-0.2894576192 -0.1260779947 0.6022612453 4286216828
-0.2895103097 -0.1254316568 0.6023708582 4285689971
-0.2895627618 -0.1247849837 0.6024799943 4285426799
-0.2896149457 -0.1241379529 0.6025885344 4285624178
-0.2896668613 -0.1234905720 0.6026965976 4285426799
-0.2897185385 -0.1228428409 0.6028041244 4285098347
-0.2897699475 -0.1221947670 0.6029111147 4285558898
-0.2902473509 -0.1217250973 0.6039043665 4286414207
-0.2902983129 -0.1210753843 0.6040104628 4286414207
-0.2899227142 -0.1202484891 0.6032289267 4286019447
-0.2908259630 -0.1199508086 0.6051083207 4285624689
-0.2908762693 -0.1192991212 0.6052129269 4285756275
-0.2909263074 -0.1186470911 0.6053170562 4285953654
-0.2909760773 -0.1179947257 0.6054206491 4285690484
-0.2905988991 -0.1171699762 0.6046358347 4285295726
-0.2902212739 -0.1163468063 0.6038501859 4284439902
-0.2898432910 -0.1155252233 0.6030637026 4284110937
-0.2898918092 -0.1148744076 0.6031646729 4283979862
-0.2899400890 -0.1142232642 0.6032651067 4284111448
-0.2899881005 -0.1135718003 0.6033650041 4284440413
-0.2900358737 -0.1129200161 0.6034643650 4286151031
-0.2905105948 -0.1124332473 0.6044521332 4289308584
-0.2905578911 -0.1117798612 0.6045505404 4291940304
-0.2910323143 -0.1112895757 0.6055376530 4292467420
-0.2915065885 -0.1107970476 0.6065244675 4292401627
-0.2928357422 -0.1106252745 0.6092899442 4292467163
-0.2937375009 -0.1102868766 0.6111661792 4290822338
-0.2933563292 -0.1094655991 0.6103731394 4288519583
-0.2934024930 -0.1088045388 0.6104691029 4289374892
-0.2934483588 -0.1081431732 0.6105645895 4290954181
-0.2939217985 -0.1076381728 0.6115496755 4289901493
-0.2935393155 -0.1068195105 0.6107538342 4288322461
-0.2935844064 -0.1061572209 0.6108476520 4288059289
-0.2936292291 -0.1054946259 0.6109408736 4289309099
-0.2936737537 -0.1048317328 0.6110335588 4290822338
-0.2937180400 -0.1041685343 0.6111257076 4291151560
-0.2941902876 -0.1036559194 0.6121082902 4291809490
-0.2876948118 -0.1495987624 0.5999799371 4291152077
-0.2877563536 -0.1489640027 0.6001083255 4284770411
-0.2878176868 -0.1483288556 0.6002362370 4281809726
-0.2883009017 -0.1479098499 0.6012439132 4282270277
-0.2879396379 -0.1470573246 0.6004905701 4283125586
-0.2880002558 -0.1464209557 0.6006169915 4285888892
-0.2884830236 -0.1459979415 0.6016237736 4290428609
-0.2885432541 -0.1453598440 0.6017493606 4292336606
-0.2891621590 -0.1336112469 0.6030400395 4292139225
-0.2896417379 -0.1331617236 0.6040402651 4288783782
-0.2896971107 -0.1325159222 0.6041557193 4286151292
-0.2897522449 -0.1318697482 0.6042706370 4286677636
-0.2893827856 -0.1310310662 0.6035001874 4288190618
-0.2894373238 -0.1303851157 0.6036139131 4288059032
-0.2890671492 -0.1295485497 0.6028419137 4287137930
-0.2891210914 -0.1289028078 0.6029544473 4287335309
-0.2891748250 -0.1282567084 0.6030664444 4287598738
-0.2888035774 -0.1274228543 0.6022922397 4286809222
-0.2888566852 -0.1267769784 0.6024030447 4286940551
-0.2889095843 -0.1261307597 0.6025133133 4286743172
-0.2889622152 -0.1254841834 0.6026230454 4285427312
-0.2890145779 -0.1248372421 0.6027323008 4284440417
-0.2890667021 -0.1241899580 0.6028410196 4285558898
-0.2891185880 -0.1235423312 0.6029492021 4287466895
-0.2891702056 -0.1228943467 0.6030568480 4287993239
-0.2892215848 -0.1222460195 0.6031639576 4287598481
-0.2892726958 -0.1215973496 0.6032705903 4287532688
-0.2897490263 -0.1211261973 0.6042639613 4288322204
-0.2897997200 -0.1204758883 0.6043696404 4288914852
-0.2898501456 -0.1198252365 0.6044748425 4289112231
-0.2899003029 -0.1191742420 0.6045794487 4289243817
-0.2903759778 -0.1186969578 0.6055715084 4289046438
-0.2899998724 -0.1178712547 0.6047871113 4288651169
-0.2896233499 -0.1170471236 0.6040018797 4288387997
-0.2892464399 -0.1162245870 0.6032158136 4287730065
-0.2888691127 -0.1154036298 0.6024289727 4286611584
-0.2889175415 -0.1147535145 0.6025298834 4285558896
-0.2889657021 -0.1141030788 0.6026303172 4285295724
-0.2894398570 -0.1136196479 0.6036192179 4285493103
-0.2894875705 -0.1129676029 0.6037186980 4286019447
-0.2895350158 -0.1123152301 0.6038176417 4286940549
-0.2895822227 -0.1116625443 0.6039160490 4287664272
-0.2900556922 -0.1111730263 0.6049035192 4288387995
-0.2905290425 -0.1106812730 0.6058906913 4288782753
-0.2918556631 -0.1105104014 0.6086573005 4288124823
-0.2927556634 -0.1101728380 0.6105342507 4287137928
-0.2923752069 -0.1093521938 0.6097407937 4287203723
-0.2919943333 -0.1085331589 0.6089465022 4288519583
-0.2924669981 -0.1080311686 0.6099322438 4289704114
-0.2925125062 -0.1073701903 0.6100271344 4290164665
-0.2925577462 -0.1067089066 0.6101214290 4290559423
-0.2926027179 -0.1060473174 0.6102152467 4290756802
-0.2926473916 -0.1053854227 0.6103084683 4290888131
-0.2926918566 -0.1047232226 0.6104011536 4290756545
-0.2927360237 -0.1040607244 0.6104932427 4291414732
-0.2867256403 -0.1494409442 0.5993469954 4289112494
-0.2867870331 -0.1488068849 0.5994753838 4282730828
-0.2872694135 -0.1483900100 0.6004837155 4282467656
-0.2873304486 -0.1477542073 0.6006112695 4282533449
-0.2873912454 -0.1471180171 0.6007383466 4283388758
-0.2874518037 -0.1464814097 0.6008649468 4287928475
-0.2879337072 -0.1460582465 0.6018722057 4291744469
-0.2877105176 -0.1339173466 0.6014056802 4290889158
-0.2877660692 -0.1332748681 0.6015218496 4287796887
-0.2882446349 -0.1328270733 0.6025221944 4286546820
-0.2882997692 -0.1321829110 0.6026374698 4287598738
-0.2883546650 -0.1315383762 0.6027522087 4287993496
-0.2879858315 -0.1307012737 0.6019811630 4286874758
-0.2876165509 -0.1298656911 0.6012092829 4286085242
-0.2876705527 -0.1292219609 0.6013221741 4287203723
-0.2877242863 -0.1285778731 0.6014345288 4288059032
-0.2877777815 -0.1279334128 0.6015463471 4287532945
-0.2874071300 -0.1271011382 0.6007715464 4287993496
-0.2874600589 -0.1264569163 0.6008821726 4287730324
-0.2879367769 -0.1259979010 0.6018787026 4287203980
-0.2879892886 -0.1253520250 0.6019884348 4286677636
-0.2880415320 -0.1247057915 0.6020976305 4286875015
-0.2880935073 -0.1240592077 0.6022062898 4286743429
-0.2885696292 -0.1235940307 0.6032015085 4286546050
-0.2886211872 -0.1229457930 0.6033093333 4287598738
-0.2886725068 -0.1222972125 0.6034165621 4288914598
-0.2887235582 -0.1216482893 0.6035233140 4289704114
-0.2891990542 -0.1211769581 0.6045172215 4289111977
-0.2892496586 -0.1205263957 0.6046230197 4288256922
-0.2893000543 -0.1198754907 0.6047283411 4287796371
-0.2893501520 -0.1192242429 0.6048330665 4288191129
-0.2894000113 -0.1185726598 0.6049373150 4288717473
-0.2894496322 -0.1179207340 0.6050410271 4289111977
-0.2890738547 -0.1170962825 0.6042555571 4289440942
-0.2886976898 -0.1162734106 0.6034692526 4289769648
-0.2883211374 -0.1154521257 0.6026821136 4289901234
-0.2879441679 -0.1146324351 0.6018941402 4290164919
-0.2884176075 -0.1141510606 0.6028837562 4290362298
-0.2884654403 -0.1135000363 0.6029837728 4290230712
-0.2885130346 -0.1128486916 0.6030832529 4289901747
-0.2885603607 -0.1121970266 0.6031821966 4290032820
-0.2886074483 -0.1115450412 0.6032805443 4290295992
-0.2890799940 -0.1110562980 0.6042683721 4290492858
-0.2895524204 -0.1105653122 0.6052559018 4290756030
-0.2908765078 -0.1103953496 0.6080236435 4290690237
-0.2913488150 -0.1098979488 0.6090109348 4290558651
-0.2909689844 -0.1090788990 0.6082169414 4290887616
-0.2914409041 -0.1085789502 0.6092033982 4291150788
-0.2914865613 -0.1079189852 0.6092988253 4291019715
-0.2915319502 -0.1072587073 0.6093937159 4291085508
-0.2915770710 -0.1065981239 0.6094880104 4290164919
-0.2916219234 -0.1059372351 0.6095817685 4289901747
-0.2916665077 -0.1052760407 0.6096749902 4290032822
-0.2917108238 -0.1046145409 0.6097676754 4291217096
-0.2852757573 -0.1496953666 0.5977039933 4292007386
-0.2857573926 -0.1492828876 0.5987130404 4285822844
-0.2858186364 -0.1486495286 0.5988414288 4282270277
-0.2863000631 -0.1482334286 0.5998500586 4282730828
-0.2863609493 -0.1475983262 0.5999776125 4282336070
-0.2864215672 -0.1469628215 0.6001046896 4284507239
-0.2864819765 -0.1463269144 0.6002312303 4289836472
-0.2865421474 -0.1456906050 0.6003572941 4292205020
-0.2866838276 -0.1344173551 0.6006541252 4289902263
-0.2867394686 -0.1337759495 0.6007707119 4287204750
-0.2867949009 -0.1331341714 0.6008868217 4287204750
-0.2868500650 -0.1324920356 0.6010023952 4287731094
-0.2869049907 -0.1318495125 0.6011174917 4288453790
-0.2869596481 -0.1312066317 0.6012320518 4287203723
-0.2865913808 -0.1303710938 0.6004604697 4285756277
-0.2866455019 -0.1297284216 0.6005737782 4287466895
-0.2862764895 -0.1288949996 0.5998006463 4288256411
-0.2863300145 -0.1282525510 0.5999128222 4288453790
-0.2863833010 -0.1276097447 0.6000244617 4289243563
-0.2864363194 -0.1269665807 0.6001355648 4289704114
-0.2864891291 -0.1263230741 0.6002461910 4288980391
-0.2869648933 -0.1258648336 0.6012430191 4290230458
-0.2870172560 -0.1252196580 0.6013527513 4290888388
-0.2870693803 -0.1245741248 0.6014619470 4291019974
-0.2871212363 -0.1239282414 0.6015706062 4290691009
-0.2875964046 -0.1234638467 0.6025661826 4289967286
-0.2876478434 -0.1228163093 0.6026739478 4289375149
-0.2876990438 -0.1221684366 0.6027811766 4288783012
-0.2881737649 -0.1216991767 0.6037757993 4289309610
-0.2882245183 -0.1210496575 0.6038821340 4289770161
-0.2882750034 -0.1203997880 0.6039879322 4290230712
-0.2883252501 -0.1197495833 0.6040931940 4290428091
-0.2883752286 -0.1190990359 0.6041979194 4290099126
-0.2884249687 -0.1184481531 0.6043021083 4289375403
-0.2884744406 -0.1177969351 0.6044058204 4288914598
-0.2885236740 -0.1171453819 0.6045089364 4288848805
-0.2881482542 -0.1163221821 0.6037223935 4288388254
-0.2877724767 -0.1155005768 0.6029350162 4288256668
-0.2878207862 -0.1148499474 0.6030362248 4288256922
-0.2878688276 -0.1141989902 0.6031368971 4288454301
-0.2879166305 -0.1135477126 0.6032370329 4288914852
-0.2879641652 -0.1128961146 0.6033366323 4289309610
-0.2880114317 -0.1122441888 0.6034356952 4289769650
-0.2880584598 -0.1115919426 0.6035342216 4290032822
-0.2885301709 -0.1111030057 0.6045225263 4290427065
-0.2890017331 -0.1106118262 0.6055105329 4289966514
-0.2894731760 -0.1101184040 0.6064983010 4290098100
-0.2899444997 -0.1096227467 0.6074858308 4289966514
-0.2895652950 -0.1088052914 0.6066913009 4289374890
-0.2900362313 -0.1083070785 0.6076779962 4289309097
-0.2905070484 -0.1078066155 0.6086644530 4289309097
-0.2905523181 -0.1071470454 0.6087592840 4289177511
-0.2905973196 -0.1064871624 0.6088535786 4289835954
-0.2906420529 -0.1058269739 0.6089473367 4290822849
-0.2906865478 -0.1051664799 0.6090404987 4292138455
-0.2843094170 -0.1495362669 0.5970687270 4289507252
-0.2843706608 -0.1489049494 0.5971973538 4283059538
-0.2848511934 -0.1484919041 0.5982064605 4282270277
-0.2849120498 -0.1478588432 0.5983342528 4282467656
-0.2849726677 -0.1472253799 0.5984615684 4282730828
-0.2850330472 -0.1465914994 0.5985884070 4286941580
-0.2855131030 -0.1461721808 0.5995965004 4291283918
-0.2855730951 -0.1455365717 0.5997225046 4292797157
-0.2847596109 -0.1351554543 0.5980141759 4291941848
-0.2848154604 -0.1345173866 0.5981314182 4288454819
-0.2852924764 -0.1340769976 0.5991331935 4286875787
-0.2853479087 -0.1334372312 0.5992496014 4287796889
-0.2854031026 -0.1327971071 0.5993654728 4289046184
-0.2854580283 -0.1321566105 0.5994808674 4287993496
-0.2855127454 -0.1315157413 0.5995957851 4287335309
-0.2851453722 -0.1306811869 0.5988243222 4285953656
-0.2851995230 -0.1300405264 0.5989379883 4287006344
-0.2852534056 -0.1293995082 0.5990511179 4289111720
-0.2853070498 -0.1287581325 0.5991637707 4288980391
-0.2853604257 -0.1281163841 0.5992758870 4290033079
-0.2849913538 -0.1272857189 0.5985008478 4290427837
-0.2850441933 -0.1266442090 0.5986117721 4290625216
-0.2855191231 -0.1261890084 0.5996091962 4291941076
-0.2862013876 -0.1231515482 0.6010419726 4292928225
-0.2870982587 -0.1228675768 0.6029254794 4292336088
-0.2871493995 -0.1222194433 0.6030328870 4291546572
-0.2867772877 -0.1213919222 0.6022514105 4290691263
-0.2868278325 -0.1207440570 0.6023575664 4290164919
-0.2868781388 -0.1200958490 0.6024631858 4289769907
-0.2869281769 -0.1194473058 0.6025683284 4289769907
-0.2869779766 -0.1187984198 0.6026728749 4289835700
-0.2870275080 -0.1181491986 0.6027768850 4290098872
-0.2870768011 -0.1174996346 0.6028803587 4290493630
-0.2871258259 -0.1168497428 0.6029833555 4290822595
-0.2871745825 -0.1161995232 0.6030857563 4290822595
-0.2872231007 -0.1155489683 0.6031876206 4290625216
-0.2872713506 -0.1148980856 0.6032890081 4290361787
-0.2873193622 -0.1142468750 0.6033897996 4290032822
-0.2873671055 -0.1135953367 0.6034900546 4289769650
-0.2874145806 -0.1129434779 0.6035897732 4289506478
-0.2874618173 -0.1122912988 0.6036889553 4289177513
-0.2875087857 -0.1116387919 0.6037876010 4288914341
-0.2875555158 -0.1109859720 0.6038857102 4288585374
-0.2880261540 -0.1104955673 0.6048740745 4288453788
-0.2884966731 -0.1100029126 0.6058622003 4288519581
-0.2885427475 -0.1093472168 0.6059589982 4288585374
-0.2885885537 -0.1086912081 0.6060552001 4289045925
-0.2886340916 -0.1080348864 0.6061508060 4289967027
-0.2891038954 -0.1075361595 0.6071374416 4290822595
-0.2891489863 -0.1068782508 0.6072321534 4291743697
-0.2891938388 -0.1062200442 0.6073263288 4292664799
-0.2828642726 -0.1497855484 0.5954226255 4292204765
-0.2829254866 -0.1491562724 0.5955514908 4286415236
-0.2829864919 -0.1485265791 0.5956798792 4281941312
-0.2834659517 -0.1481152624 0.5966891646 4282006850
-0.2835265696 -0.1474838406 0.5968167186 4282006850
-0.2835869491 -0.1468520015 0.5969438553 4283651930
-0.2836470902 -0.1462197602 0.5970704556 4289112749
-0.2837069929 -0.1455871165 0.5971965790 4291744469
-0.2833162248 -0.1354473680 0.5963739753 4290954953
-0.2833720744 -0.1348113269 0.5964915752 4287402131
-0.2834276855 -0.1341749132 0.5966086388 4286283650
-0.2834830582 -0.1335381120 0.5967251658 4287664533
-0.2835381925 -0.1329009533 0.5968412161 4288388256
-0.2835930884 -0.1322634220 0.5969567299 4287335568
-0.2836477160 -0.1316255182 0.5970717669 4285888122
-0.2837021351 -0.1309872419 0.5971862674 4286019449
-0.2833352685 -0.1301552057 0.5964140892 4286677379
-0.2833890915 -0.1295171529 0.5965273976 4287796117
-0.2834427059 -0.1288787276 0.5966401696 4290362044
-0.2839172781 -0.1284305006 0.5976392031 4290888388
-0.2839704454 -0.1277904063 0.5977511406 4290691009
-0.2840233743 -0.1271499693 0.5978625417 4291283146
-0.2840760648 -0.1265091598 0.5979734063 4292796385
-0.2858559787 -0.1206162721 0.6017200947 4292927971
-0.2859061360 -0.1199687719 0.6018257141 4292401627
-0.2859560549 -0.1193209216 0.6019307375 4292204248
-0.2860057354 -0.1186727434 0.6020352840 4291875283
-0.2860551178 -0.1180242226 0.6021392941 4291546318
-0.2856816649 -0.1172019914 0.6013532281 4291217353
-0.2857305110 -0.1165537685 0.6014559865 4290954181
-0.2862018347 -0.1160766631 0.6024481058 4290757056
-0.2862502337 -0.1154268160 0.6025499701 4290691263
-0.2862983644 -0.1147766337 0.6026512980 4290624959
-0.2867692113 -0.1142947003 0.6036424041 4290559166
-0.2868168950 -0.1136429086 0.6037427783 4290559166
-0.2868643403 -0.1129907966 0.6038426161 4290559166
-0.2869115174 -0.1123383567 0.6039419770 4290493884
-0.2869584262 -0.1116855890 0.6040407419 4290428091
-0.2870050967 -0.1110325083 0.6041389704 4290690750
-0.2874748707 -0.1105419174 0.6051278114 4291085508
-0.2875210941 -0.1098872349 0.6052250862 4291480779
-0.2875670493 -0.1092322394 0.6053218246 4291941330
-0.2871891558 -0.1084170267 0.6045264006 4292730846
-0.2810655236 -0.1491818279 0.5930227041 4289836217
-0.2815441191 -0.1487758458 0.5940325260 4283783516
-0.2816048563 -0.1481477916 0.5941606760 4282007105
-0.2820832729 -0.1477382034 0.5951700807 4282072643
-0.2821436524 -0.1471084058 0.5952974558 4282072643
-0.2822037637 -0.1464781910 0.5954243541 4285757306
-0.2822636664 -0.1458475888 0.5955507755 4290297023
-0.2823233604 -0.1452165842 0.5956766605 4292139227
-0.2814001143 -0.1361659318 0.5937287211 4292731364
-0.2814561427 -0.1355332434 0.5938469172 4289901495
-0.2819314599 -0.1351011992 0.5948498249 4286677638
-0.2819871008 -0.1344668120 0.5949671865 4286019708
-0.2816227674 -0.1336328834 0.5941985250 4287269775
-0.2820976377 -0.1331968904 0.5952004194 4287138189
-0.2817326784 -0.1323641241 0.5944303274 4286414466
-0.2817872465 -0.1317291856 0.5945455432 4285098606
-0.2818415761 -0.1310938746 0.5946601629 4285427571
-0.2818956971 -0.1304581910 0.5947743058 4287006601
-0.2815293372 -0.1296286881 0.5940013528 4289046184
-0.2815828919 -0.1289932281 0.5941143036 4290691779
-0.2820565104 -0.1285489947 0.5951136947 4291086537
-0.2821096480 -0.1279118657 0.5952257514 4290757572
-0.2825830281 -0.1274640560 0.5962245464 4291810260
-0.2796269059 -0.1494239420 0.5913732052 4292270813
-0.2796877623 -0.1487992555 0.5915019512 4287138959
-0.2801653147 -0.1483950019 0.5925118923 4282336070
-0.2802258134 -0.1477685720 0.5926398039 4282270277
-0.2807031572 -0.1473607123 0.5936493278 4282862159
-0.2807632685 -0.1467325389 0.5937765241 4282993745
-0.2808231711 -0.1461039782 0.5939031839 4288586405
-0.2808828354 -0.1454750001 0.5940293670 4291481297
-0.2799631655 -0.1364466697 0.5920844078 4291809492
-0.2800191939 -0.1358159930 0.5922029018 4288585635
-0.2800750136 -0.1351849437 0.5923208594 4286480259
-0.2801305652 -0.1345535219 0.5924383998 4286677638
-0.2806046903 -0.1341218948 0.5934410691 4287467154
-0.2806598544 -0.1334887892 0.5935577750 4286940810
-0.2802957892 -0.1326569915 0.5927878022 4285887609
-0.2799313366 -0.1318267286 0.5920170546 4286084988
-0.2799856067 -0.1311943978 0.5921317935 4285361265
-0.2796204090 -0.1303662360 0.5913594961 4287335055
-0.2796741426 -0.1297341138 0.5914731026 4290033849
-0.2797276080 -0.1291016191 0.5915861726 4291349709
-0.2802003026 -0.1286613792 0.5925858617 4291020744
-0.2806729078 -0.1282188743 0.5935854316 4290954951
-0.2807258368 -0.1275833994 0.5936973095 4291876053
-0.2782519758 -0.1490392983 0.5898509622 4290165182
-0.2783125937 -0.1484162509 0.5899794102 4283717468
-0.2787890732 -0.1480137259 0.5909895301 4282204229
-0.2788493037 -0.1473889351 0.5911172032 4282467401
-0.2793256044 -0.1469827890 0.5921269059 4283125331
-0.2793855071 -0.1463562548 0.5922538042 4285625465
-0.2794451416 -0.1457293332 0.5923802853 4290691781
-0.2795045674 -0.1451019943 0.5925062299 4292270813
-0.2785290182 -0.1367233247 0.5904382467 4290691012
-0.2785850465 -0.1360946894 0.5905570388 4287861913
-0.2786408663 -0.1354656667 0.5906752944 4286809225
-0.2791142464 -0.1350384206 0.5916788578 4287072396
-0.2787517607 -0.1342064887 0.5909103751 4287598740
-0.2792248428 -0.1337766051 0.5919132829 4287269775
-0.2788617015 -0.1329458207 0.5911434293 4285953915
-0.2789162993 -0.1323149204 0.5912592411 4285427571
-0.2789706886 -0.1316836625 0.5913744569 4286085501
-0.2786064744 -0.1308555454 0.5906024575 4288059289
-0.2782419026 -0.1300289631 0.5898295641 4290625216
-0.2782953978 -0.1293984950 0.5899429917 4291546318
-0.2787672281 -0.1289612949 0.5909431577 4290822595
-0.2788203061 -0.1283291429 0.5910556912 4290954181
-0.2792918980 -0.1278883815 0.5920553803 4292401627
-0.2768190205 -0.1492752284 0.5881981850 4292270044
-0.2768796086 -0.1486542225 0.5883269310 4287203983
-0.2773551941 -0.1482547522 0.5893374681 4282993231
-0.2774154246 -0.1476320177 0.5894654393 4283124817
-0.2778908014 -0.1472289413 0.5904754996 4283322196
-0.2779506445 -0.1466044486 0.5906026959 4284244067
-0.2780102789 -0.1459795535 0.5907294154 4288125854
-0.2780696750 -0.1453542709 0.5908556581 4291612883
-0.2766247988 -0.1374152005 0.5877854824 4292862181
-0.2770976722 -0.1369959116 0.5887902975 4289572531
-0.2771537304 -0.1363693029 0.5889093280 4286480260
-0.2772095203 -0.1357423067 0.5890279412 4286743432
-0.2772651017 -0.1351149380 0.5891460180 4287401362
-0.2777374387 -0.1346894205 0.5901497006 4286875017
-0.2777926326 -0.1340603530 0.5902669430 4286480259
-0.2774303854 -0.1332305670 0.5894972682 4286019708
-0.2774850130 -0.1326016933 0.5896133184 4285888122
-0.2771220505 -0.1317739934 0.5888420939 4286019706
-0.2771761119 -0.1311453432 0.5889569521 4288190875
-0.2772299647 -0.1305163056 0.5890713334 4290954181
-0.2772835493 -0.1298869103 0.5891852379 4291348939
-0.2773368955 -0.1292571574 0.5892986059 4290756802
-0.2773900032 -0.1286270320 0.5894114375 4291283146
-0.2778607309 -0.1281893104 0.5904116631 4292533213
-0.2754495144 -0.1488880962 0.5866727233 4290624965
-0.2755098641 -0.1482687294 0.5868012309 4284638056
-0.2759843469 -0.1478709877 0.5878118873 4283190610
-0.2760443389 -0.1472498775 0.5879396200 4283256403
-0.2761040926 -0.1466283649 0.5880668759 4283190610
-0.2765782773 -0.1462256759 0.5890768170 4285691513
-0.2766376436 -0.1456024349 0.5892032981 4290625988
-0.2766968012 -0.1449787766 0.5893293023 4292139227
-0.2751971781 -0.1376806349 0.5861352682 4292006618
-0.2752533555 -0.1370573789 0.5862549543 4288322210
-0.2753093243 -0.1364337355 0.5863741040 4286414467
-0.2753650248 -0.1358097196 0.5864928365 4286743432
-0.2754205167 -0.1351853162 0.5866109729 4287532948
-0.2754757702 -0.1345605403 0.5867286921 4287927706
-0.2759470046 -0.1341377050 0.5877323747 4287006603
-0.2760019004 -0.1335112453 0.5878491998 4285624950
-0.2756401598 -0.1326839775 0.5870787501 4284901225
-0.2756944597 -0.1320576966 0.5871944427 4286480257
-0.2757485509 -0.1314310580 0.5873096585 4288980391
-0.2758024037 -0.1308040619 0.5874243379 4290822595
-0.2758560181 -0.1301766932 0.5875384808 4291480525
-0.2759093642 -0.1295489520 0.5876522064 4290756802
-0.2759625018 -0.1289208531 0.5877653360 4291546318
-0.2736089826 -0.1488929242 0.5841343999 4292401376
-0.2740826011 -0.1485005170 0.5851455927 4288190624
-0.2745561600 -0.1481058449 0.5861566067 4282861391
-0.2746161222 -0.1474867761 0.5862845778 4282992977
-0.2746758461 -0.1468673199 0.5864121318 4283059024
-0.2747353315 -0.1462474465 0.5865391493 4283322196
-0.2752084732 -0.1458464861 0.5875492096 4286940811
-0.2752676010 -0.1452248693 0.5876755118 4291612114
-0.2753265202 -0.1446028650 0.5878012776 4292533985
-0.2737723589 -0.1379420012 0.5844832659 4290756551
-0.2738285661 -0.1373207718 0.5846032500 4287730073
-0.2738845050 -0.1366991550 0.5847226977 4286611592
-0.2739402354 -0.1360771656 0.5848416686 4287335569
-0.2739957273 -0.1354548037 0.5849601030 4287664534
-0.2740509808 -0.1348320544 0.5850781202 4287532947
-0.2741060257 -0.1342089325 0.5851955414 4287335568
-0.2745761871 -0.1337878406 0.5861994028 4287138189
-0.2742153704 -0.1329615712 0.5854290128 4285559157
-0.2742697001 -0.1323373318 0.5855450034 4286940808
-0.2739081383 -0.1315131634 0.5847731233 4289769907
-0.2739619315 -0.1308891177 0.5848879218 4291348939
-0.2744312584 -0.1304623932 0.5858899355 4291414732
-0.2744846642 -0.1298366785 0.5860039592 4291151814
-0.2745378017 -0.1292106062 0.5861173868 4291875537
-0.2722457051 -0.1485031843 0.5826054215 4291217104
-0.2727182508 -0.1481125206 0.5836166739 4285361527
-0.2727780938 -0.1474964321 0.5837447643 4282598219
-0.2732504606 -0.1471021473 0.5847555995 4282927184
-0.2733099461 -0.1464843154 0.5848829150 4282400840
-0.2733691931 -0.1458660960 0.5850096941 4283979872
-0.2734282315 -0.1452474594 0.5851360559 4288783015
-0.2739001513 -0.1448469013 0.5861459374 4292006872
-0.2722940147 -0.1388180703 0.5827087760 4292534496
-0.2723504007 -0.1381992549 0.5828294754 4289769656
-0.2724065781 -0.1375800669 0.5829496980 4287006350
-0.2720484734 -0.1367523521 0.5821833014 4287072397
-0.2721040845 -0.1361333281 0.5823023915 4288388257
-0.2721595168 -0.1355139464 0.5824209452 4288388257
-0.2722146809 -0.1348941773 0.5825390220 4286875018
-0.2722696364 -0.1342740208 0.5826566219 4286019708
-0.2727388442 -0.1338569373 0.5836607218 4286414466
-0.2727934122 -0.1332350969 0.5837774873 4286940810
-0.2728477418 -0.1326128840 0.5838937759 4287796119
-0.2729018331 -0.1319902986 0.5840095282 4290493630
-0.2725408673 -0.1311677098 0.5832371116 4291480525
-0.2730093300 -0.1307440400 0.5842396021 4290625470
-0.2730627358 -0.1301203519 0.5843538642 4291020228
-0.2731159031 -0.1294962913 0.5844676495 4292533467
-0.2708250880 -0.1487257183 0.5809461474 4292402657
-0.2708850503 -0.1481130123 0.5810747147 4288716970
-0.2713565230 -0.1477240771 0.5820860863 4283190358
-0.2714160979 -0.1471096277 0.5822139382 4282861391
-0.2714754641 -0.1464947909 0.5823412538 4282992977
-0.2719466686 -0.1461008936 0.5833519697 4282137668
-0.2720056474 -0.1454843134 0.5834785700 4285164146
-0.2720644474 -0.1448673308 0.5836046338 4290494147
-0.2721230090 -0.1442499459 0.5837302804 4292336351
-0.2713443041 -0.1386634856 0.5820598602 4289442225
-0.2709874809 -0.1378352642 0.5812944174 4286546053
-0.2710434198 -0.1372177303 0.5814144611 4287203983
-0.2710991204 -0.1365998089 0.5815339684 4289177773
-0.2707412839 -0.1357742250 0.5807663202 4288651429
-0.2707964480 -0.1351564974 0.5808846951 4287598741
-0.2708514035 -0.1345383823 0.5810025334 4286414467
-0.2704924941 -0.1337154359 0.5802326798 4285559157
-0.2709605992 -0.1333010346 0.5812367797 4286743431
-0.2714286149 -0.1328843683 0.5822407007 4288980393
-0.2714827061 -0.1322638094 0.5823568106 4290954183
-0.2715365887 -0.1316428930 0.5824723244 4291480525
-0.2715902328 -0.1310216039 0.5825874209 4290954181
-0.2716436386 -0.1303999424 0.5827019811 4291217353
-0.2716968060 -0.1297779083 0.5828160644 4292796385
-0.2698780596 -0.1485596001 0.5802972317 4291086799
-0.2695269883 -0.1477224231 0.5795423388 4286085248
-0.2695864439 -0.1471109539 0.5796701908 4283058770
-0.2700567245 -0.1467224061 0.5806813836 4282992977
-0.2701158524 -0.1461092085 0.5808085203 4283058770
-0.2701747417 -0.1454955935 0.5809351206 4283519321
-0.2702334225 -0.1448815912 0.5810613036 4287072143
-0.2702918649 -0.1442671865 0.5811869502 4291415249
-0.2703392506 -0.1391256601 0.5812888741 4291086539
-0.2699833810 -0.1382975131 0.5805236697 4287138959
-0.2700394094 -0.1376810819 0.5806441307 4286742919
-0.2696828544 -0.1368549913 0.5798774362 4290098362
-0.2697383463 -0.1362387240 0.5799967647 4290164155
-0.2693810463 -0.1354147196 0.5792285204 4287927193
-0.2694360018 -0.1347986311 0.5793466568 4286677125
-0.2690780163 -0.1339766979 0.5785769224 4285821816
-0.2691324055 -0.1333608180 0.5786939263 4287006090
-0.2695994377 -0.1329481602 0.5796981454 4288979880
-0.2696534693 -0.1323305815 0.5798143148 4291085510
-0.2697072625 -0.1317126304 0.5799299479 4291085510
-0.2697608471 -0.1310943216 0.5800451636 4290690752
-0.2702273726 -0.1306754500 0.5810482502 4291743440
-0.2684623301 -0.1487769485 0.5786349177 4292731111
-0.2685220540 -0.1481669992 0.5787637234 4289309875
-0.2681715488 -0.1473313868 0.5780082345 4283782493
-0.2682307661 -0.1467215568 0.5781358480 4283124563
-0.2686999738 -0.1463347524 0.5791471601 4282993745
-0.2687588334 -0.1457231939 0.5792740583 4282927952
-0.2688174844 -0.1451112330 0.5794004798 4283191124
-0.2684653997 -0.1442782730 0.5786415935 4286612360
-0.2685235143 -0.1436664462 0.5787668228 4290757319
-0.2685128450 -0.1391595602 0.5787438750 4292797157
-0.2685690820 -0.1385455430 0.5788650513 4288717991
-0.2686251104 -0.1379311383 0.5789858103 4286086271
-0.2686809003 -0.1373163611 0.5791060328 4288321951
-0.2683249116 -0.1364918500 0.5783387423 4291282636
-0.2683801651 -0.1358772516 0.5784578323 4289900982
-0.2680234611 -0.1350547969 0.5776890516 4286413953
-0.2680781782 -0.1344403923 0.5778069496 4286677125
-0.2677207887 -0.1336200237 0.5770366192 4288321950
-0.2677749395 -0.1330057979 0.5771533847 4289769396
-0.2682409286 -0.1325948834 0.5781577826 4290427326
-0.2682947218 -0.1319789737 0.5782737136 4290822338
-0.2683483064 -0.1313626915 0.5783891678 4290953924
-0.2684016228 -0.1307460368 0.5785041451 4292072405
-0.2667001486 -0.1481550485 0.5762162209 4291612630
-0.2667595446 -0.1475476772 0.5763445497 4286283397
-0.2668187320 -0.1469399184 0.5764724016 4282400583
-0.2672870159 -0.1465561688 0.5774841309 4282400583
-0.2673458457 -0.1459466666 0.5776112676 4282597962
-0.2674044669 -0.1453367621 0.5777379274 4282663755
-0.2670532763 -0.1445048153 0.5769791007 4282663753
-0.2671113610 -0.1438950449 0.5771046281 4283321683
-0.2667594552 -0.1430651098 0.5763443112 4286545540
-0.2664071321 -0.1422366500 0.5755831599 4290427327
-0.2667472959 -0.1385762691 0.5763180852 4290033081
-0.2668032050 -0.1379648596 0.5764388442 4287006603
-0.2668588758 -0.1373530477 0.5765591860 4286809224
-0.2669143379 -0.1367408633 0.5766789913 4287992985
-0.2669695914 -0.1361283064 0.5767983198 4291216842
-0.2666137815 -0.1353068650 0.5760296583 4288650915
-0.2666684985 -0.1346944869 0.5761477947 4286413953
-0.2663120031 -0.1338751316 0.5753775835 4288848294
-0.2663661540 -0.1332629472 0.5754946470 4291019463
-0.2668312490 -0.1328551024 0.5764994621 4290624705
-0.2668850422 -0.1322412193 0.5766156912 4290229947
-0.2673499286 -0.1318297833 0.5776200294 4290756291
-0.2674033344 -0.1312142313 0.5777354836 4292269530
-0.2652910948 -0.1483651549 0.5745506287 4292600036
-0.2653504610 -0.1477598548 0.5746791959 4289573047
-0.2654096186 -0.1471541375 0.5748072863 4283651677
-0.2654685378 -0.1465480030 0.5749348998 4282992720
-0.2659357488 -0.1461660117 0.5759467483 4282861134
-0.2659943402 -0.1455581486 0.5760736465 4283650650
-0.2656440139 -0.1447272301 0.5753149390 4283321685
-0.2652933002 -0.1438977867 0.5745553970 4283321683
-0.2649421990 -0.1430698186 0.5737949610 4283650648
-0.2637727857 -0.1418036073 0.5712623596 4284111199
-0.2634207010 -0.1409804672 0.5704998374 4286019196
-0.2626591027 -0.1399408281 0.5688503981 4288321950
-0.2623061240 -0.1391215920 0.5680859685 4290887877
-0.2641112208 -0.1381723881 0.5719953179 4291282635
-0.2645764351 -0.1377791166 0.5730028152 4287532434
-0.2650415599 -0.1373835802 0.5740101933 4286743172
-0.2655066550 -0.1369857788 0.5750175118 4286940551
-0.2655618787 -0.1363752484 0.5751370788 4286874504
-0.2656168938 -0.1357643455 0.5752562284 4290558912
-0.2652616799 -0.1349444985 0.5744869113 4287861399
-0.2653161585 -0.1343337744 0.5746048689 4289045673
-0.2653703988 -0.1337226778 0.5747223496 4290887877
-0.2654244304 -0.1331112087 0.5748393536 4290427326
-0.2658885419 -0.1327041686 0.5758445263 4290295740
-0.2663525939 -0.1322948486 0.5768495202 4291151049
-0.2664060891 -0.1316803843 0.5769653916 4292862178
-0.2639442980 -0.1479678750 0.5730121136 4291678423
-0.2640033960 -0.1473642141 0.5731404424 4286480776
-0.2640622854 -0.1467601508 0.5732682943 4282730575
-0.2641209662 -0.1461556703 0.5733957291 4284505959
-0.2641794384 -0.1455508024 0.5735226274 4284571752
-0.2646454573 -0.1451692134 0.5745342970 4284966510
-0.2642956972 -0.1443398446 0.5737750530 4285361268
-0.2639455497 -0.1435119659 0.5730148554 4285558645
-0.2631869912 -0.1424646825 0.5713680387 4286084989
-0.2616115510 -0.1409808695 0.5679478645 4286874505
-0.2604434490 -0.1397231668 0.5654119253 4287269263
-0.2592745721 -0.1384706944 0.5628743768 4286808711
-0.2597385347 -0.1380919665 0.5638816357 4286348160
-0.2602024674 -0.1377109885 0.5648887753 4289045927
-0.2610749304 -0.1375429928 0.5667828321 4290559166
-0.2619475126 -0.1373708546 0.5686771870 4287993239
-0.2624114752 -0.1369812191 0.5696844459 4286216828
-0.2632842064 -0.1368017346 0.5715791583 4286414207
-0.2637481689 -0.1364066154 0.5725863576 4285295726
-0.2642120719 -0.1360092312 0.5735934973 4286545539
-0.2642668486 -0.1353999823 0.5737123489 4289572017
-0.2639122307 -0.1345817149 0.5729424953 4289308845
