VERSION 0.7
FIELDS x y z rgba
SIZE 4 4 4 4
TYPE F F F U
COUNT 1 1 1 1
WIDTH 920
HEIGHT 1
VIEWPOINT 0.0 0.0 0.0 1.0 0.0 0.0 0.0
POINTS 920
DATA ascii
-0.2823242247 -0.1141104847 0.5956784487 4288651167
-0.2832158804 -0.1138069481 0.5975598097 4288322202
-0.2836854458 -0.1133306026 0.5985505581 4288124823
-0.2841548920 -0.1128520072 0.5995410085 4288453788
-0.2842019200 -0.1122044474 0.5996402502 4288651167
-0.2846710682 -0.1117223203 0.6006301045 4288585374
-0.2847176492 -0.1110731512 0.6007283926 4288651167
-0.2851864994 -0.1105875000 0.6017175913 4289243306
-0.2856552005 -0.1100996062 0.6027065516 4289111720
-0.2857011557 -0.1094475612 0.6028035283 4288980132
-0.2853241563 -0.1086342633 0.6020081043 4288914339
-0.2853695452 -0.1079825610 0.6021038294 4288716960
-0.2849918008 -0.1071715355 0.6013068557 4288585374
-0.2841908038 -0.1062041000 0.5996167660 4288519583
-0.2838122249 -0.1053972915 0.5988180041 4288519583
-0.2838563025 -0.1047482267 0.5989110470 4288454047
-0.2839001119 -0.1040988639 0.5990034938 4288848805
-0.2835204899 -0.1032950208 0.5982025266 4289506989
-0.2835637331 -0.1026460230 0.5982937217 4290033333
-0.2836067080 -0.1019967347 0.5983844399 4290428091
-0.2836494148 -0.1013471484 0.5984745026 4290691263
-0.2841152847 -0.1008475572 0.5994575024 4290559423
-0.2845810354 -0.1003457457 0.6004401445 4290098872
-0.2854701877 -0.0999900475 0.6023161411 4288782755
-0.2855120897 -0.0993354172 0.6024045944 4287730067
-0.2859774232 -0.0988269076 0.6033864021 4287664785
-0.2860188782 -0.0981707275 0.6034738421 4287598992
-0.2860600650 -0.0975142717 0.6035607457 4286414718
-0.2861009836 -0.0968575254 0.6036471128 4286875269
-0.2861416340 -0.0962004960 0.6037328839 4290362298
-0.2782071829 -0.1591248363 0.5883706808 4292467422
-0.2782715261 -0.1585077643 0.5885068178 4291941078
-0.2779202461 -0.1576546282 0.5877638459 4290756291
-0.2779840529 -0.1570376307 0.5878988504 4289243052
-0.2780476809 -0.1564202160 0.5880333185 4288322461
-0.2781110406 -0.1558023691 0.5881673694 4287138187
-0.2777583897 -0.1549521387 0.5874215961 4286545793
-0.2774053216 -0.1541033387 0.5866749287 4286743172
-0.2774678469 -0.1534860879 0.5868071318 4287203208
-0.2771140635 -0.1526392400 0.5860589147 4287203208
-0.2771760523 -0.1520220786 0.5861899853 4287400587
-0.2772378027 -0.1514045000 0.5863206387 4288979619
-0.2772993445 -0.1507865191 0.5864507556 4289440683
-0.2773606777 -0.1501681358 0.5865803957 4289243304
-0.2770051956 -0.1493247747 0.5858286619 4288255382
-0.2770659626 -0.1487064958 0.5859571695 4287926417
-0.2771265209 -0.1480878145 0.5860852003 4288715933
-0.2771868408 -0.1474687159 0.5862128139 4289308070
-0.2772469223 -0.1468492150 0.5863398910 4288781726
-0.2773067951 -0.1462293267 0.5864664912 4288189589
-0.2769493163 -0.1453900635 0.5857105255 4286281592
-0.2770086527 -0.1447702944 0.5858359337 4284307802
-0.2770677507 -0.1441501379 0.5859609246 4283716179
-0.2771266103 -0.1435295790 0.5860854387 4284308316
-0.2771852314 -0.1429086179 0.5862094164 4285229418
-0.2768261135 -0.1420729905 0.5854498744 4287071622
-0.2768841982 -0.1414521784 0.5855727196 4289440170
-0.2769420445 -0.1408309937 0.5856950879 4291084995
-0.2769996524 -0.1402094066 0.5858169794 4291546059
-0.2774749398 -0.1397979856 0.5868220925 4291480266
-0.2775321901 -0.1391746849 0.5869431496 4291085249
-0.2775892019 -0.1385510117 0.5870637298 4290229940
-0.2780641317 -0.1381346732 0.5880681276 4289308838
-0.2781207561 -0.1375092864 0.5881879330 4287992978
-0.2781771719 -0.1368835121 0.5883072019 4287005829
-0.2782333195 -0.1362573653 0.5884259939 4286413692
-0.2782892585 -0.1356308460 0.5885442495 4286019445
-0.2783449590 -0.1350039393 0.5886620879 4286348410
-0.2784004211 -0.1343766749 0.5887793303 4287006342
-0.2784556448 -0.1337490231 0.5888961554 4287730065
-0.2785106301 -0.1331209987 0.5890124440 4287598738
-0.2785653770 -0.1324926019 0.5891281962 4288125082
-0.2786198854 -0.1318638325 0.5892434716 4288256668
-0.2786741555 -0.1312347054 0.5893582702 4288454047
-0.2791473269 -0.1308016032 0.5903589725 4288914852
-0.2792012095 -0.1301707774 0.5904729366 4289441196
-0.2792548239 -0.1295396090 0.5905863643 4289769648
-0.2793082297 -0.1289080679 0.5906992555 4290098613
-0.2793613970 -0.1282761693 0.5908116698 4289901234
-0.2794142962 -0.1276438981 0.5909236073 4289309097
-0.2794669569 -0.1270112842 0.5910350084 4288782753
-0.2795194089 -0.1263782978 0.5911458731 4288124823
-0.2791517973 -0.1255561709 0.5903684497 4287269514
-0.2792036831 -0.1249234304 0.5904781222 4286808963
-0.2792553008 -0.1242903471 0.5905873179 4286216826
-0.2793066800 -0.1236569062 0.5906959772 4286019447
-0.2793578207 -0.1230231225 0.5908041596 4286019447
-0.2798288763 -0.1225730330 0.5918003321 4286216826
-0.2798795998 -0.1219375953 0.5919076204 4286808963
-0.2799300849 -0.1213018149 0.5920143723 4287137928
-0.2799803019 -0.1206656992 0.5921205878 4284966759
-0.2804507613 -0.1202094555 0.5931155682 4283848278
-0.2805005610 -0.1195717007 0.5932208896 4284506208
-0.2801295221 -0.1187552884 0.5924361944 4285164138
-0.2801787555 -0.1181178093 0.5925403237 4285295722
-0.2802277505 -0.1174799949 0.5926439762 4287072133
-0.2798556685 -0.1166664138 0.5918570161 4288980132
-0.2799040973 -0.1160288900 0.5919594765 4289111718
-0.2799522877 -0.1153910384 0.5920613408 4287927444
-0.2804212570 -0.1149254218 0.5930531621 4287730065
-0.2804690003 -0.1142859533 0.5931541324 4288256411
-0.2809377015 -0.1138167977 0.5941454172 4288651169
-0.2818275690 -0.1135150790 0.5960273147 4289177511
-0.2822961211 -0.1130404696 0.5970182419 4289572269
-0.2827645540 -0.1125636175 0.5980089307 4289637549
-0.2832328677 -0.1120845154 0.5989993215 4289769135
-0.2837010622 -0.1116031706 0.5999895334 4289966516
-0.2837475538 -0.1109547094 0.6000878215 4289834930
-0.2846371233 -0.1106337383 0.6019691825 4290361787
-0.2842614651 -0.1098197773 0.6011747122 4290230201
-0.2843072414 -0.1091694087 0.6012715101 4290295992
-0.2839308679 -0.1083577126 0.6004755497 4290493371
-0.2839760482 -0.1077076793 0.6005710959 4290624957
-0.2831769586 -0.1067391932 0.5988810658 4290624957
-0.2823773026 -0.1057742611 0.5971899629 4290624959
-0.2807328403 -0.1044986099 0.5937121511 4290624959
-0.2807764709 -0.1038550958 0.5938044190 4289704114
-0.2808198631 -0.1032112762 0.5938961506 4288848805
-0.2804406285 -0.1024129242 0.5930941105 4288256922
-0.2804834247 -0.1017694846 0.5931846499 4287993750
-0.2805259526 -0.1011257470 0.5932745934 4287862164
-0.2805682421 -0.1004817188 0.5933640599 4288322715
-0.2810328901 -0.0999877602 0.5943466425 4289243563
-0.2819200456 -0.0996409580 0.5962229371 4289901493
-0.2832299471 -0.0994383991 0.5989931822 4289901493
-0.2845399380 -0.0992297232 0.6017636657 4289375149
-0.2845814824 -0.0985755101 0.6018515229 4287993496
-0.2846227884 -0.0979210138 0.6019388437 4287335566
-0.2850867808 -0.0974107608 0.6029201150 4286809222
-0.2847045660 -0.0966111720 0.6021117568 4285559155
-0.2847450674 -0.0959558263 0.6021974087 4286875269
-0.2847853005 -0.0953002051 0.6022825241 4290428091
-0.2765505314 -0.1572469920 0.5862441659 4292599523
-0.2766140997 -0.1566316187 0.5863788724 4291612628
-0.2766774297 -0.1560158283 0.5865131617 4290625988
-0.2767405510 -0.1553996056 0.5866469145 4289639093
-0.2763884366 -0.1545509100 0.5859005451 4288190877
-0.2764510214 -0.1539347917 0.5860332251 4286940810
-0.2760981917 -0.1530880332 0.5852852464 4286414466
-0.2761602402 -0.1524719894 0.5854167938 4286743431
-0.2762220502 -0.1518555433 0.5855478644 4286611845
-0.2762836516 -0.1512386650 0.5856783986 4286546052
-0.2763450444 -0.1506213844 0.5858085155 4287467154
-0.2764061689 -0.1500037014 0.5859381557 4288651428
-0.2764671147 -0.1493856013 0.5860673189 4289637549
-0.2761119902 -0.1485433877 0.5853144526 4289505963
-0.2761723697 -0.1479254067 0.5854424834 4288190616
-0.2762325108 -0.1473070234 0.5855700374 4286545791
-0.2762924433 -0.1466882229 0.5856970549 4287137415
-0.2763521671 -0.1460690349 0.5858236551 4289176998
-0.2759953439 -0.1452303827 0.5850672722 4289571242
-0.2760545313 -0.1446113288 0.5851926804 4288189589
-0.2761134505 -0.1439918727 0.5853176117 4286150006
-0.2757556140 -0.1431557685 0.5845590234 4284373595
-0.2753973603 -0.1423211545 0.5837996006 4283715665
-0.2758721709 -0.1419167519 0.5848060846 4284110423
-0.2755132914 -0.1410832256 0.5840453506 4285360490
-0.2755708992 -0.1404636800 0.5841674805 4287334280
-0.2756282985 -0.1398437321 0.5842891335 4289570729
-0.2761025131 -0.1394340396 0.5852944255 4291347140
-0.2761595249 -0.1388123930 0.5854152441 4292137683
-0.2762162983 -0.1381903589 0.5855356455 4292400855
-0.2762728631 -0.1375679523 0.5856555104 4292269782
-0.2767465711 -0.1371520162 0.5866597295 4291809231
-0.2768027484 -0.1365278959 0.5867788196 4291019715
-0.2768586874 -0.1359034032 0.5868973732 4289967027
-0.2769143879 -0.1352785230 0.5870154500 4288914339
-0.2769698501 -0.1346532702 0.5871330500 4287795858
-0.2770250738 -0.1340276450 0.5872501135 4286677377
-0.2774980068 -0.1336028576 0.5882526040 4286348412
-0.2775528431 -0.1329755485 0.5883688927 4286677890
-0.2776074409 -0.1323478520 0.5884846449 4286743683
-0.2776618004 -0.1317197978 0.5885998607 4287204748
-0.2777159512 -0.1310913712 0.5887145996 4287928471
-0.2781881690 -0.1306590587 0.5897156596 4288717473
-0.2782419026 -0.1300289631 0.5898295641 4288717473
-0.2782953978 -0.1293984950 0.5899429917 4288782753
-0.2783486545 -0.1287676543 0.5900558829 4289309097
-0.2784016728 -0.1281364560 0.5901682377 4289440942
-0.2784544230 -0.1275049150 0.5902801156 4289638321
-0.2785069644 -0.1268730015 0.5903915167 4289901493
-0.2785592675 -0.1262407303 0.5905023217 4289967286
-0.2781923413 -0.1254192144 0.5897245407 4289835441
-0.2782440782 -0.1247871965 0.5898342133 4289243304
-0.2787146866 -0.1243418008 0.5908318162 4288322202
-0.2783468068 -0.1235220879 0.5900520086 4287466893
-0.2783978283 -0.1228890121 0.5901600718 4286743683
-0.2788679302 -0.1224397123 0.5911566615 4286677890
-0.2789185047 -0.1218049824 0.5912638903 4287006855
-0.2785493731 -0.1209877059 0.5904813409 4286743683
-0.2785993814 -0.1203532517 0.5905873775 4286216826
-0.2790688276 -0.1198987514 0.5915825367 4286019447
-0.2791184187 -0.1192626581 0.5916876793 4285755762
-0.2787480056 -0.1184478402 0.5909023881 4285163625
-0.2787970304 -0.1178120300 0.5910063982 4285097832
-0.2788458169 -0.1171758845 0.5911098123 4285229418
-0.2788943648 -0.1165394038 0.5912127495 4286940036
-0.2785225809 -0.1157280430 0.5904245973 4288716447
-0.2789907157 -0.1152654514 0.5914169550 4290098613
-0.2790385187 -0.1146279871 0.5915183425 4290888129
-0.2790860832 -0.1139901876 0.5916191339 4291414473
-0.2795537710 -0.1135227829 0.5926105380 4292138196
-0.2800213397 -0.1130531207 0.5936017632 4292532954
-0.2809093595 -0.1127500087 0.5954841375 4292598747
-0.2813767791 -0.1122748926 0.5964750051 4292730333
-0.2814234197 -0.1116306707 0.5965739489 4292730333
-0.2818905711 -0.1111520305 0.5975641608 4292335575
-0.2819367647 -0.1105062068 0.5976621509 4292138196
-0.2828244865 -0.1101880074 0.5995439291 4291743697
-0.2828703225 -0.1095396280 0.5996410847 4291414732
-0.2824949026 -0.1087288857 0.5988453031 4291019974
-0.2821190953 -0.1079197675 0.5980486274 4290691009
-0.2821640372 -0.1072723791 0.5981438756 4290296251
-0.2813662887 -0.1063063964 0.5964528322 4289967286
-0.2805680335 -0.1053439751 0.5947606564 4289901747
-0.2793479264 -0.1042279154 0.5921741724 4290033333
-0.2793913782 -0.1035860777 0.5922663212 4290296505
-0.2794345915 -0.1029439420 0.5923578739 4291086021
-0.2790559828 -0.1021472141 0.5915552974 4291349193
-0.2790986001 -0.1015054509 0.5916456580 4290888642
-0.2791409791 -0.1008633971 0.5917354822 4290164919
-0.2791830897 -0.1002210602 0.5918247700 4289243817
-0.2796467245 -0.0997288451 0.5928075910 4288585887
-0.2805320919 -0.0993838534 0.5946844220 4288388508
-0.2818393707 -0.0991831571 0.5974556804 4288387484
-0.2831467688 -0.0989763513 0.6002271175 4289374379
-0.2831881344 -0.0983238220 0.6003148556 4289374379
-0.2832292616 -0.0976710096 0.6004019976 4288058519
-0.2832701206 -0.0970179141 0.6004886031 4285690484
-0.2833107114 -0.0963645354 0.6005746722 4284900968
-0.2829287648 -0.0955682397 0.5997650027 4287072137
-0.2829687595 -0.0949152783 0.5998498201 4287532688
-0.2830085158 -0.0942620337 0.5999340415 4291151301
-0.2753097713 -0.1556109935 0.5849912167 4292599778
-0.2753726244 -0.1549964100 0.5851247907 4291876055
-0.2754352689 -0.1543813944 0.5852578878 4291151562
-0.2750833929 -0.1535347402 0.5845102072 4289704116
-0.2751455009 -0.1529198289 0.5846421719 4288256670
-0.2752073705 -0.1523044854 0.5847736597 4287269775
-0.2752690315 -0.1516887397 0.5849046707 4286677638
-0.2753304541 -0.1510725766 0.5850352049 4286546052
-0.2753916681 -0.1504560113 0.5851652622 4286809224
-0.2754526734 -0.1498390287 0.5852949023 4286875017
-0.2755134404 -0.1492216289 0.5854240060 4287861651
-0.2755739689 -0.1486038268 0.5855526328 4288651167
-0.2756342888 -0.1479856223 0.5856807828 4289045925
-0.2756943703 -0.1473670006 0.5858084559 4288190616
-0.2757542431 -0.1467479914 0.5859357119 4287269514
-0.2753984928 -0.1459084898 0.5851798058 4287401100
-0.2754578292 -0.1452896148 0.5853058100 4288321689
-0.2751013637 -0.1444521099 0.5845484138 4289045412
-0.2747444808 -0.1436160952 0.5837901235 4289176998
-0.2748029530 -0.1429978907 0.5839143395 4288650654
-0.2744453549 -0.1421638876 0.5831544995 4286742657
-0.2740873694 -0.1413313597 0.5823938251 4284571488
-0.2741449773 -0.1407138407 0.5825162530 4283913044
-0.2742023468 -0.1400959492 0.5826381445 4283978837
-0.2742594779 -0.1394776553 0.5827595592 4285228904
-0.2743164003 -0.1388589740 0.5828804970 4287465866
-0.2743730843 -0.1382399201 0.5830009580 4290164408
-0.2748459876 -0.1378293037 0.5840057731 4291677647
-0.2749023139 -0.1372085363 0.5841254592 4292796128
-0.2753749788 -0.1367943436 0.5851298571 4292993507
-0.2754309177 -0.1361718774 0.5852487087 4292796385
-0.2754866183 -0.1355490386 0.5853670239 4292533213
-0.2755421102 -0.1349258125 0.5854849219 4292203991
-0.2755973339 -0.1343022138 0.5856022835 4291743440
-0.2756523490 -0.1336782426 0.5857191682 4290822338
-0.2761242092 -0.1332551837 0.5867217779 4289572271
-0.2761788368 -0.1326295286 0.5868378282 4288585633
-0.2762331963 -0.1320034862 0.5869534016 4287532945
-0.2767046988 -0.1315755397 0.5879552364 4286809222
-0.2767587006 -0.1309478283 0.5880699754 4286480257
-0.2772299647 -0.1305163056 0.5890713334 4286875015
-0.2772835493 -0.1298869103 0.5891852379 4287138187
-0.2773368955 -0.1292571574 0.5892986059 4287401100
-0.2773900032 -0.1286270320 0.5894114375 4288124823
-0.2774429023 -0.1279965490 0.5895237923 4288651426
-0.2770776153 -0.1271738857 0.5887476802 4288914598
-0.2771299183 -0.1265436262 0.5888588428 4288914598
-0.2771820128 -0.1259130239 0.5889694691 4288914598
-0.2772338390 -0.1252820641 0.5890796185 4289374890
-0.2772854567 -0.1246507466 0.5891892314 4289835441
-0.2777551115 -0.1242061406 0.5901871920 4289835441
-0.2773879170 -0.1233870611 0.5894069672 4289835441
-0.2774387896 -0.1227547005 0.5895150900 4289572528
-0.2774893939 -0.1221219823 0.5896226168 4288848805
-0.2775397897 -0.1214889288 0.5897296667 4287927957
-0.2775899172 -0.1208555251 0.5898362398 4287138441
-0.2776398063 -0.1202217788 0.5899422765 4286940549
-0.2776894569 -0.1195876896 0.5900477171 4287203721
-0.2777388692 -0.1189532652 0.5901527405 4286414205
-0.2777880430 -0.1183185056 0.5902571678 4285361517
-0.2774178982 -0.1175059006 0.5894706845 4285953654
-0.2774664760 -0.1168714240 0.5895739198 4285690482
-0.2775148153 -0.1162366197 0.5896766782 4285229931
-0.2775629163 -0.1156014800 0.5897789001 4286282619
-0.2776107788 -0.1149660125 0.5898805261 4288782753
-0.2776584029 -0.1143302098 0.5899817348 4290888129
-0.2777057588 -0.1136940867 0.5900823474 4292467161
-0.2781724334 -0.1132284254 0.5910739303 4293454056
-0.2786389887 -0.1127605140 0.5920653343 4293980400
-0.2791054547 -0.1122903526 0.5930565000 4294046193
-0.2795718014 -0.1118179485 0.5940474272 4294111986
-0.2800380588 -0.1113432944 0.5950381160 4294111986
-0.2805041671 -0.1108663976 0.5960285664 4293914607
-0.2809701860 -0.1103872508 0.5970187783 4293783021
-0.2810160220 -0.1097418219 0.5971161723 4293256936
-0.2810616195 -0.1090960801 0.5972130299 4293191143
-0.2806867659 -0.1082879156 0.5964165330 4293059557
-0.2807317674 -0.1076425090 0.5965121388 4292862178
-0.2803561985 -0.1068366244 0.5957141519 4292533213
-0.2795598507 -0.1058731526 0.5940220356 4292138455
-0.2787629962 -0.1049132496 0.5923287868 4291612111
-0.2775450647 -0.1037996411 0.5897409320 4291019974
-0.2775882781 -0.1031604558 0.5898327231 4290098613
-0.2776312530 -0.1025209725 0.5899240375 4289638062
-0.2776739299 -0.1018811911 0.5900147557 4289703855
-0.2777163982 -0.1012411192 0.5901049376 4290295992
-0.2777585685 -0.1006007493 0.5901945829 4290953922
-0.2782214284 -0.1001115441 0.5911780596 4291348680
-0.2782631814 -0.0994696245 0.5912667513 4291282887
-0.2795677781 -0.0992759541 0.5940388441 4290822336
-0.2812935710 -0.0992247090 0.5977059603 4289374379
-0.2813349962 -0.0985751227 0.5977939367 4288979621
-0.2813761234 -0.0979252532 0.5978813767 4288387484
-0.2814170122 -0.0972750932 0.5979682207 4287926933
-0.2814576626 -0.0966246575 0.5980545878 4287598481
-0.2814980149 -0.0959739387 0.5981403589 4288256411
-0.2815381289 -0.0953229442 0.5982255340 4289045927
-0.2811564505 -0.0945299417 0.5974145532 4287203723
-0.2811959684 -0.0938793644 0.5974985361 4288914339
-0.2740696669 -0.1539793760 0.5837337971 4292797157
-0.2737183571 -0.1531342566 0.5829855800 4291810262
-0.2737801969 -0.1525209695 0.5831173062 4291019976
-0.2738417983 -0.1519072652 0.5832485557 4289967288
-0.2739032209 -0.1512931585 0.5833793283 4288454049
-0.2739644051 -0.1506786197 0.5835096240 4287401361
-0.2740253508 -0.1500636786 0.5836394429 4286940810
-0.2740860879 -0.1494483352 0.5837687850 4286743431
-0.2741465867 -0.1488325745 0.5838977098 4287203723
-0.2742068768 -0.1482164115 0.5840260983 4287269516
-0.2742669582 -0.1475998461 0.5841540098 4287664274
-0.2743268013 -0.1469828635 0.5842815042 4288453790
-0.2743864059 -0.1463654935 0.5844084620 4289374892
-0.2744458020 -0.1457477212 0.5845349431 4289638064
-0.2740903199 -0.1449103057 0.5837777853 4288650656
-0.2737344205 -0.1440743655 0.5830197930 4287400589
-0.2737929523 -0.1434572637 0.5831444263 4287466382
-0.2738512456 -0.1428397596 0.5832686424 4288387484
-0.2734943032 -0.1420063823 0.5825083852 4289242793
-0.2727218866 -0.1409599185 0.5808632374 4288848035
-0.2727792561 -0.1403440535 0.5809853673 4287137417
-0.2732516527 -0.1399404705 0.5819915533 4284966248
-0.2733086646 -0.1393228918 0.5821129680 4284044376
-0.2733654082 -0.1387049258 0.5822339058 4284373341
-0.2734219730 -0.1380865872 0.5823543072 4285756023
-0.2734782696 -0.1374678463 0.5824742317 4287861399
-0.2735343575 -0.1368487328 0.5825936794 4290624705
-0.2735902071 -0.1362292469 0.5827126503 4292401116
-0.2746983767 -0.1335307509 0.5850729346 4292466909
-0.2747530043 -0.1329071224 0.5851892829 4292269530
-0.2752237618 -0.1324835420 0.5861919522 4291875285
-0.2752780020 -0.1318582147 0.5863074660 4291283148
-0.2757485509 -0.1314310580 0.5873096585 4290691011
-0.2758024037 -0.1308040619 0.5874243379 4289769909
-0.2758560181 -0.1301766932 0.5875384808 4288782501
-0.2763261497 -0.1297446489 0.5885398984 4287598227
-0.2763793766 -0.1291155964 0.5886532068 4286414464
-0.2764323354 -0.1284861863 0.5887660384 4286282878
-0.2764850855 -0.1278564036 0.5888783932 4286480257
-0.2761204839 -0.1270343810 0.5881018043 4286940808
-0.2761726677 -0.1264048368 0.5882129669 4287598738
-0.2762246132 -0.1257749349 0.5883235931 4288059289
-0.2762762904 -0.1251446903 0.5884336829 4288519583
-0.2767451704 -0.1247021779 0.5894323587 4289111720
-0.2767964602 -0.1240702644 0.5895416141 4289638062
-0.2764299512 -0.1232518256 0.5887609720 4289769648
-0.2764807045 -0.1226201728 0.5888690352 4290164408
-0.2765311897 -0.1219881698 0.5889765620 4290361787
-0.2765814364 -0.1213558242 0.5890836120 4290295994
-0.2766314447 -0.1207231358 0.5891901255 4289835443
-0.2766812146 -0.1200900972 0.5892961025 4288848546
-0.2767307162 -0.1194567233 0.5894015431 4288190616
-0.2767800093 -0.1188230142 0.5895065069 4286940549
-0.2764108777 -0.1180104315 0.5887202621 4285624689
-0.2764595747 -0.1173769981 0.5888240337 4286085240
-0.2765080333 -0.1167432368 0.5889272690 4286743170
-0.2765562534 -0.1161091402 0.5890299678 4287137928
-0.2761857808 -0.1153000146 0.5882408619 4286282619
-0.2762334347 -0.1146662235 0.5883423686 4285624689
-0.2766994536 -0.1142048761 0.5893349051 4286940549
-0.2767466903 -0.1135694683 0.5894355178 4288322202
-0.2767936587 -0.1129337326 0.5895355940 4289901234
-0.2772592306 -0.1124675646 0.5905271769 4291349193
-0.2773057818 -0.1118302271 0.5906263590 4292401881
-0.2777710557 -0.1113605276 0.5916173458 4293388776
-0.2782362103 -0.1108885854 0.5926080942 4294046706
-0.2787012756 -0.1104143932 0.5935985446 4294244085
-0.2791662216 -0.1099379584 0.5945888162 4294507257
-0.2792117894 -0.1092951745 0.5946859121 4294769918
-0.2792571187 -0.1086520702 0.5947824717 4294835711
-0.2793022096 -0.1080086604 0.5948784947 4294638332
-0.2789275944 -0.1072037295 0.5940806270 4294243574
-0.2785525918 -0.1064004228 0.5932818651 4293914609
-0.2781772017 -0.1055987403 0.5924823880 4293848816
-0.2769621611 -0.1044820771 0.5898944736 4293454058
-0.2765858471 -0.1036856025 0.5890929699 4292730335
-0.2766289413 -0.1030471325 0.5891847610 4292138198
-0.2762519717 -0.1022529602 0.5883818269 4291611854
-0.2762944698 -0.1016148701 0.5884724259 4290624959
-0.2763367593 -0.1009764820 0.5885624290 4289901236
-0.2767988145 -0.1004902869 0.5895465612 4289506478
-0.2768406272 -0.0998503417 0.5896356106 4289440685
-0.2773023546 -0.0993606597 0.5906190276 4290098613
-0.2790246010 -0.0993174687 0.5942872167 4291085508
-0.2799065411 -0.0989690050 0.5961656570 4291611341
-0.2799477875 -0.0983211026 0.5962534547 4291677134
-0.2799887657 -0.0976729244 0.5963407755 4291808720
-0.2796090245 -0.0968787670 0.5955319405 4292335064
-0.2796494067 -0.0962309912 0.5956180096 4292401370
-0.2796895504 -0.0955829397 0.5957034826 4291480268
-0.2797294259 -0.0949346051 0.5957884192 4289835443
-0.2793483436 -0.0941442102 0.5949767828 4287006344
-0.2798084319 -0.0936371088 0.5959566832 4288124823
-0.2724174857 -0.1521216631 0.5815906525 4292993767
-0.2728917003 -0.1517391652 0.5826030970 4292270044
-0.2729529142 -0.1511257589 0.5827338099 4291414735
-0.2730139494 -0.1505119354 0.5828641057 4290493633
-0.2730747461 -0.1498976946 0.5829938650 4289046187
-0.2731353045 -0.1492830664 0.5831232071 4287598741
-0.2731956542 -0.1486680061 0.5832520723 4287072137
-0.2732557952 -0.1480525583 0.5833804011 4287401102
-0.2733156979 -0.1474366933 0.5835083127 4287532688
-0.2733753920 -0.1468204260 0.5836357474 4287203723
-0.2734348476 -0.1462037563 0.5837626457 4287466895
-0.2734940648 -0.1455866843 0.5838891268 4288651169
-0.2731392384 -0.1447498947 0.5831315517 4289440685
-0.2727839947 -0.1439145803 0.5823731422 4289506478
-0.2724283338 -0.1430807263 0.5816138983 4288519070
-0.2724864185 -0.1424648762 0.5817378163 4287334796
-0.2725442350 -0.1418486238 0.5818613172 4287334796
-0.2717732787 -0.1408027112 0.5802153945 4288782242
-0.2718304992 -0.1401875466 0.5803375244 4289703344
-0.2718874812 -0.1395720094 0.5804591775 4289571758
-0.2719442248 -0.1389560848 0.5805803537 4288189335
-0.2720007598 -0.1383397579 0.5807010531 4286018166
-0.2720570564 -0.1377230585 0.5808212161 4284637542
-0.2721131444 -0.1371059865 0.5809409618 4284703335
-0.2721689939 -0.1364885271 0.5810601711 4286019708
-0.2726395726 -0.1360778064 0.5820648670 4287927705
-0.2726950645 -0.1354586333 0.5821833014 4289835189
-0.2727502882 -0.1348391026 0.5823011994 4292006358
-0.2739081383 -0.1315131634 0.5847731233 4292730081
-0.2739619315 -0.1308891177 0.5848879218 4292598495
-0.2744312584 -0.1304623932 0.5858899355 4292203737
-0.2744846642 -0.1298366785 0.5860039592 4291940565
-0.2745378017 -0.1292106062 0.5861173868 4291611600
-0.2750067711 -0.1287789941 0.5871186256 4290231228
-0.2750595212 -0.1281512380 0.5872312188 4289310126
-0.2751120329 -0.1275231242 0.5873433352 4288257438
-0.2755806148 -0.1270866245 0.5883436799 4287204750
-0.2756327093 -0.1264568567 0.5884549618 4286677636
-0.2756845951 -0.1258267164 0.5885657668 4286546050
-0.2753197253 -0.1250071079 0.5877867341 4287006601
-0.2757876515 -0.1245653778 0.5887857080 4287861910
-0.2758387923 -0.1239341795 0.5888949633 4288388254
-0.2758897245 -0.1233026311 0.5890036821 4288651426
-0.2755235732 -0.1224854365 0.5882219672 4289111977
-0.2755739391 -0.1218541488 0.5883294940 4289440942
-0.2756240666 -0.1212225109 0.5884364843 4289572271
-0.2756739259 -0.1205905378 0.5885429382 4289440685
-0.2757235467 -0.1199582145 0.5886489153 4289243306
-0.2757729590 -0.1193255559 0.5887543559 4289177513
-0.2758221030 -0.1186925545 0.5888592601 4289045925
-0.2754536271 -0.1178806126 0.5880726576 4288322202
-0.2755022347 -0.1172478944 0.5881763697 4287927444
-0.2755505741 -0.1166148484 0.5882796049 4287401100
-0.2755986452 -0.1159814671 0.5883822441 4287401100
-0.2752288580 -0.1151729822 0.5875927806 4287335307
-0.2752763927 -0.1145399064 0.5876942277 4286874756
-0.2753236890 -0.1139064953 0.5877951980 4286940549
-0.2753707170 -0.1132727638 0.5878956318 4286348412
-0.2758354247 -0.1128096282 0.5888877511 4286874756
-0.2758820653 -0.1121742874 0.5889872909 4287204234
-0.2759284079 -0.1115386188 0.5890862942 4287598992
-0.2763926983 -0.1110706702 0.5900774598 4288454301
-0.2768568397 -0.1106004789 0.5910683870 4289572782
-0.2773208916 -0.1101280376 0.5920590758 4290691263
-0.2773664594 -0.1094882116 0.5921564102 4291612365
-0.2774117887 -0.1088480651 0.5922531486 4292664542
-0.2774568796 -0.1082076132 0.5923494101 4293256679
-0.2775017023 -0.1075668409 0.5924450755 4293848816
-0.2775462568 -0.1069257632 0.5925402641 4293914609
-0.2771719098 -0.1061240733 0.5917410254 4293848816
-0.2767971456 -0.1053240076 0.5909409523 4293914609
-0.2755843699 -0.1042088345 0.5883517265 4293717230
-0.2752087116 -0.1034139767 0.5875497460 4293388265
-0.2752516270 -0.1027771905 0.5876413584 4293059298
-0.2752943039 -0.1021401063 0.5877324939 4292796126
-0.2749176323 -0.1013482362 0.5869283080 4292598747
-0.2753788531 -0.1008650586 0.5879130363 4292269782
-0.2754207850 -0.1002270952 0.5880025029 4291611852
-0.2754624188 -0.0995888412 0.5880914330 4291282887
-0.2759231627 -0.0991009101 0.5890750289 4291611852
-0.2776419520 -0.0990596563 0.5927445889 4292072403
-0.2789415419 -0.0988616720 0.5955190659 4293321959
-0.2785631716 -0.0980667919 0.5947112441 4294308854
-0.2781843841 -0.0972735807 0.5939025879 4294835198
-0.2782248855 -0.0966277793 0.5939890742 4294703612
-0.2782651186 -0.0959816873 0.5940749645 4293585644
-0.2783050835 -0.0953353271 0.5941603184 4292993507
-0.2783448100 -0.0946886837 0.5942450762 4291940817
-0.2779643834 -0.0938999206 0.5934329033 4288716960
-0.2784234583 -0.0933945701 0.5944129825 4289309097
-0.2720644772 -0.1503449827 0.5822175741 4292467423
-0.2721250951 -0.1497314572 0.5823473334 4291414735
-0.2725979090 -0.1493434608 0.5833591819 4290362047
-0.2722457051 -0.1485031843 0.5826054215 4289506735
-0.2723056674 -0.1478884369 0.5827337503 4287927703
-0.2723654211 -0.1472732872 0.5828616023 4287137930
-0.2724249363 -0.1466577351 0.5829889774 4287203723
-0.2724842429 -0.1460417658 0.5831158757 4287072137
-0.2721303701 -0.1452050656 0.5823585987 4286940551
-0.2721891403 -0.1445892453 0.5824843645 4287335309
-0.2718345523 -0.1437545419 0.5817255378 4287927446
-0.2714795470 -0.1429213136 0.5809658766 4288979621
-0.2715374827 -0.1423061788 0.5810897946 4289440172
-0.2715951502 -0.1416906416 0.5812132359 4288782242
-0.2712391317 -0.1408599764 0.5804513693 4287466382
-0.2712962925 -0.1402446032 0.5805736780 4287334026
-0.2713532150 -0.1396288276 0.5806954503 4288518300
-0.2714098990 -0.1390126646 0.5808168054 4289440172
-0.2714663446 -0.1383961290 0.5809376240 4289571758
-0.2715226114 -0.1377792060 0.5810579658 4287992986
-0.2711646259 -0.1369528025 0.5802918673 4286084989
-0.2712202966 -0.1363360584 0.5804110765 4284834922
-0.2712757885 -0.1357189268 0.5805298090 4285229680
-0.2717452645 -0.1353076845 0.5815344453 4285953403
-0.2713860273 -0.1344835311 0.5807657242 4287532435
-0.2714408040 -0.1338652819 0.5808829069 4289572018
-0.2719098330 -0.1334500760 0.5818867087 4291940566
-0.2727536857 -0.1286760271 0.5836924911 4292795875
-0.2732215226 -0.1282470971 0.5846936703 4292599778
-0.2732739747 -0.1276219636 0.5848059058 4292073434
-0.2733261883 -0.1269964725 0.5849176645 4291678676
-0.2742091119 -0.1267547160 0.5868071318 4291152332
-0.2742610276 -0.1261266023 0.5869181752 4290493632
-0.2743126750 -0.1254981309 0.5870287418 4289506737
-0.2747798264 -0.1250585020 0.5880284309 4288256670
-0.2748310864 -0.1244283691 0.5881381035 4287467154
-0.2752979696 -0.1239851713 0.5891372561 4286809222
-0.2749328911 -0.1231670529 0.5883560181 4286809222
-0.2749834359 -0.1225358695 0.5884641409 4287072394
-0.2750337422 -0.1219043359 0.5885717869 4287532945
-0.2750838101 -0.1212724596 0.5886789560 4287861653
-0.2751336098 -0.1206402406 0.5887855291 4288124825
-0.2751832008 -0.1200076789 0.5888916254 4288519583
-0.2752325237 -0.1193747744 0.5889972448 4289045927
-0.2748651505 -0.1185618937 0.5882110596 4289309097
-0.2744973898 -0.1177505925 0.5874240398 4288716960
-0.2745458484 -0.1171185896 0.5875276923 4288453788
-0.2745940387 -0.1164862588 0.5876308680 4288782753
-0.2746420205 -0.1158535928 0.5877335072 4289045925
-0.2746897340 -0.1152205914 0.5878356695 4289769648
-0.2747372091 -0.1145872697 0.5879372358 4289901234
-0.2743674815 -0.1137806922 0.5871460438 4288782753
-0.2744143903 -0.1131476760 0.5872464180 4288387995
-0.2744610608 -0.1125143319 0.5873462558 4287927444
-0.2749246657 -0.1120507047 0.5883383751 4287203721
-0.2749709189 -0.1114157587 0.5884373784 4286545791
-0.2754342258 -0.1109485924 0.5894288421 4286085240
-0.2754800618 -0.1103120446 0.5895269513 4285953654
-0.2759430707 -0.1098413467 0.5905178189 4286216826
-0.2759884894 -0.1092032045 0.5906149745 4286808963
-0.2760336101 -0.1085647419 0.5907115340 4287138441
-0.2760785222 -0.1079259664 0.5908076167 4287796371
-0.2761231363 -0.1072868854 0.5909031630 4288585887
-0.2757497430 -0.1064861491 0.5901040435 4289243817
-0.2757938206 -0.1058474109 0.5901983380 4289770161
-0.2754196823 -0.1050489694 0.5893977284 4290230712
-0.2742092013 -0.1039352790 0.5868072510 4290822336
-0.2738341689 -0.1031420380 0.5860047340 4291151301
-0.2742950320 -0.1026634425 0.5869910121 4291151301
-0.2743375897 -0.1020270810 0.5870820880 4290953922
-0.2743799090 -0.1013904214 0.5871725678 4291282887
-0.2744219303 -0.1007534713 0.5872625709 4292203989
-0.2744637430 -0.1001162231 0.5873520374 4293256677
-0.2745052874 -0.0994786844 0.5874409080 4294177779
-0.2753836215 -0.0991422087 0.5893205404 4294704123
-0.2762619257 -0.0988015532 0.5912001133 4294901502
-0.2771402299 -0.0984567180 0.5930797458 4294835198
-0.2767624259 -0.0976644382 0.5922712088 4294440440
-0.2768030167 -0.0970206112 0.5923580527 4293256166
-0.2768433392 -0.0963764936 0.5924443603 4292861408
-0.2768834233 -0.0957321003 0.5925301313 4291940819
-0.2769232392 -0.0950874239 0.5926153064 4292006612
-0.2769627869 -0.0944424793 0.5926999450 4292203989
-0.2770020664 -0.0937972516 0.5927840471 4290032820
-0.2770411074 -0.0931517482 0.5928676128 4291151301
-0.2712366879 -0.1489517540 0.5818290710 4292731364
-0.2712967098 -0.1483381093 0.5819578171 4291677904
-0.2713565230 -0.1477240771 0.5820860863 4290559423
-0.2714160979 -0.1471096277 0.5822139382 4289506478
-0.2714754641 -0.1464947909 0.5823412538 4288322204
-0.2715346217 -0.1458795369 0.5824681520 4287269516
-0.2711814046 -0.1450434476 0.5817104578 4287006344
-0.2708278000 -0.1442088336 0.5809519291 4287006344
-0.2708860934 -0.1435942650 0.5810769200 4286940551
-0.2705317438 -0.1427616626 0.5803169012 4287466895
-0.2705895007 -0.1421472281 0.5804407597 4288519583
-0.2702344656 -0.1413166523 0.5796791911 4289637551
-0.2702916861 -0.1407023668 0.5798019171 4289966516
-0.2703486681 -0.1400876939 0.5799241662 4289373609
-0.2704054415 -0.1394726485 0.5800459385 4287991956
-0.2704619765 -0.1388572007 0.5801672339 4287400589
-0.2705183029 -0.1382413656 0.5802879930 4288190105
-0.2705743909 -0.1376251578 0.5804083347 4289177260
-0.2706302404 -0.1370085627 0.5805281401 4288387744
-0.2702726126 -0.1361833513 0.5797609687 4286677126
-0.2703279257 -0.1355669349 0.5798796415 4285756024
-0.2703830302 -0.1349501461 0.5799978375 4284966508
-0.2704378664 -0.1343329698 0.5801154971 4284571750
-0.2700788975 -0.1335109770 0.5793454647 4285032301
-0.2701332271 -0.1328940094 0.5794619918 4287071884
-0.2701873183 -0.1322766542 0.5795780420 4289374639
-0.2698273361 -0.1314573288 0.5788058043 4291743187
-0.2724771798 -0.1256047934 0.5844900608 4292664801
-0.2729433775 -0.1251691729 0.5854900479 4292204250
-0.2734094560 -0.1247312874 0.5864898562 4291349711
-0.2738754749 -0.1242911443 0.5874894857 4290625988
-0.2739263773 -0.1236613765 0.5875986814 4289835702
-0.2739770114 -0.1230312586 0.5877073407 4288717221
-0.2740274370 -0.1224007905 0.5878154635 4287532945
-0.2740775943 -0.1217699721 0.5879230499 4286611843
-0.2741275430 -0.1211388111 0.5880301595 4286217085
-0.2741772234 -0.1205073074 0.5881367326 4286348671
-0.2742266655 -0.1198754609 0.5882428288 4286940810
-0.2742758691 -0.1192432716 0.5883483887 4287730326
-0.2739091814 -0.1184310243 0.5875617862 4288716960
-0.2735421062 -0.1176203638 0.5867743492 4288519581
-0.2735904157 -0.1169890836 0.5868780613 4288322202
-0.2736385167 -0.1163574606 0.5869811773 4289440683
-0.2736863494 -0.1157255173 0.5870838165 4289835441
-0.2737339437 -0.1150932312 0.5871859193 4289769648
-0.2737812996 -0.1144606248 0.5872874856 4290295992
-0.2738283873 -0.1138276905 0.5873885155 4290624957
-0.2734590471 -0.1130223945 0.5865961909 4290098613
-0.2739218771 -0.1125608385 0.5875890255 4289901234
-0.2739682496 -0.1119269282 0.5876885056 4289638062
-0.2744308114 -0.1114618331 0.5886807442 4289177511
-0.2744767368 -0.1108263209 0.5887792706 4288387995
-0.2745224535 -0.1101904884 0.5888773203 4287401100
-0.2745679021 -0.1095543355 0.5889747739 4286677377
-0.2746130824 -0.1089178696 0.5890717506 4286479998
-0.2746580541 -0.1082810909 0.5891681910 4285822581
-0.2747027576 -0.1076439992 0.5892640948 4285427823
-0.2747472227 -0.1070066020 0.5893594623 4284967272
-0.2747914195 -0.1063688919 0.5894542933 4284704100
-0.2744183242 -0.1055704355 0.5886539221 4284769893
-0.2740448415 -0.1047736108 0.5878527761 4284901479
-0.2732537985 -0.1038199142 0.5861559510 4285361517
-0.2728794813 -0.1030273288 0.5853530169 4285953654
-0.2733394206 -0.1025495157 0.5863396525 4287466893
-0.2733818591 -0.1019138694 0.5864306688 4289045925
-0.2734240592 -0.1012779325 0.5865211487 4291151301
-0.2734659910 -0.1006416976 0.5866110921 4293256677
-0.2735076845 -0.1000051722 0.5867005587 4294769914
-0.2735491097 -0.0993683562 0.5867894292 4294967293
-0.2735902965 -0.0987312570 0.5868777633 4294835707
-0.2753022611 -0.0986929089 0.5905500650 4294835707
-0.2757610083 -0.0982001275 0.5915341377 4294769405
-0.2753838301 -0.0974094868 0.5907250643 4292664029
-0.2754242420 -0.0967673436 0.5908117890 4291216583
-0.2754644156 -0.0961249247 0.5908979177 4292466650
-0.2755043209 -0.0954822227 0.5909835100 4292006610
-0.2755439579 -0.0948392451 0.5910685658 4290493371
-0.2760015428 -0.0943389237 0.5920500755 4290822336
-0.2760407329 -0.0936944187 0.5921341777 4291348680
-0.2760796547 -0.0930496380 0.5922176838 4292927712
-0.2699974179 -0.1473352015 0.5805538297 4292467422
-0.2700567245 -0.1467224061 0.5806813836 4291875285
-0.2701158524 -0.1461092085 0.5808085203 4290954183
-0.2701747417 -0.1454955935 0.5809351206 4289506224
-0.2698220909 -0.1446610689 0.5801768899 4288321950
-0.2698804438 -0.1440476030 0.5803023577 4287664020
-0.2695271075 -0.1432150900 0.5795425773 4287335055
-0.2695849240 -0.1426017582 0.5796669126 4287137676
-0.2696425319 -0.1419880390 0.5797907710 4286677125
-0.2692881525 -0.1411580890 0.5790287256 4287269005
-0.2693451941 -0.1405445188 0.5791514516 4288519072
-0.2694020569 -0.1399305612 0.5792736411 4289769139
-0.2694586515 -0.1393162161 0.5793954134 4290492862
-0.2695150375 -0.1387014836 0.5795166492 4290229690
-0.2695712149 -0.1380863786 0.5796374083 4289703346
-0.2696271539 -0.1374708712 0.5797576904 4289440431
-0.2696828544 -0.1368549913 0.5798774362 4290164154
-0.2693258822 -0.1360304207 0.5791099072 4289111209
-0.2693810463 -0.1354147196 0.5792285204 4287597970
-0.2690233886 -0.1345922053 0.5784594417 4286150524
-0.2686653137 -0.1337712109 0.5776895285 4285689973
-0.2683068514 -0.1329517365 0.5769187808 4284834921
-0.2679480016 -0.1321337670 0.5761471391 4284637542
-0.2680017054 -0.1315199733 0.5762625933 4285361265
-0.2676421404 -0.1307041198 0.5754894614 4287006090
-0.2676952779 -0.1300905347 0.5756037831 4289308845
-0.2677482069 -0.1294765919 0.5757175684 4291808979
-0.2725067139 -0.1239653155 0.5859494209 4292796902
-0.2729716003 -0.1235246584 0.5869490504 4292468192
-0.2730221152 -0.1228952482 0.5870576501 4291810262
-0.2730723917 -0.1222654954 0.5871657729 4291283148
-0.2731224298 -0.1216353998 0.5872733593 4290493632
-0.2731722295 -0.1210049540 0.5873804092 4289440944
-0.2732217908 -0.1203741655 0.5874869227 4288256670
-0.2732710838 -0.1197430342 0.5875929594 4286941580
-0.2733201683 -0.1191115603 0.5876985192 4286415236
-0.2729541659 -0.1182999611 0.5869114995 4286348412
-0.2725877762 -0.1174899414 0.5861237049 4286282619
-0.2726359963 -0.1168593764 0.5862273574 4286479998
-0.2726839483 -0.1162284687 0.5863304734 4287927444
-0.2727316618 -0.1155972406 0.5864330530 4288651167
-0.2727791071 -0.1149656773 0.5865350962 4288980132
-0.2728263438 -0.1143337861 0.5866366625 4289374890
-0.2728733122 -0.1137015671 0.5867376924 4289572269
-0.2725046575 -0.1128969193 0.5859449506 4289178024
-0.2729665637 -0.1124361530 0.5869381428 4289638575
-0.2730127871 -0.1118029580 0.5870375633 4290099126
-0.2734743953 -0.1113386527 0.5880301595 4290493884
-0.2735202312 -0.1107038558 0.5881286860 4290691263
-0.2735657990 -0.1100687385 0.5882266760 4290559677
-0.2736111283 -0.1094333082 0.5883241296 4290296505
-0.2736562192 -0.1087975577 0.5884211063 4290099126
-0.2737010419 -0.1081615016 0.5885174870 4289309097
-0.2737456262 -0.1075251251 0.5886133313 4288585374
-0.2737899721 -0.1068884432 0.5887086987 4287664272
-0.2738340497 -0.1062514558 0.5888034701 4286874756
-0.2734616697 -0.1054536477 0.5880027413 4286085240
-0.2730889022 -0.1046574786 0.5872012377 4285098345
-0.2722993791 -0.1037043706 0.5855035782 4284506208
-0.2719257772 -0.1029124409 0.5847002864 4284374622
-0.2723847926 -0.1024354100 0.5856872201 4285032552
-0.2724271119 -0.1018004864 0.5857782364 4286216826
-0.2724691927 -0.1011652723 0.5858687162 4288782753
-0.2725110054 -0.1005297601 0.5859586596 4291282887
-0.2725525796 -0.0998939499 0.5860480070 4292532954
-0.2730107307 -0.0994096249 0.5870330930 4292993505
-0.2730518579 -0.0987722725 0.5871215463 4293059298
-0.2739266157 -0.0984342769 0.5890024900 4292796126
-0.2743843496 -0.0979432464 0.5899867415 4292203478
-0.2744249105 -0.0973021165 0.5900739431 4289900723
-0.2744652331 -0.0966606960 0.5901606083 4289571758
-0.2745052874 -0.0960189924 0.5902467370 4291742927
-0.2745450735 -0.0953770131 0.5903323293 4292138196
-0.2745846212 -0.0947347507 0.5904173255 4291282887
-0.2746239007 -0.0940922126 0.5905017853 4291217094
-0.2750803530 -0.0935914218 0.5914832354 4292269782
-0.2687588334 -0.1457231939 0.5792740583 4292730594
-0.2688174844 -0.1451112330 0.5794004798 4291941078
-0.2684653997 -0.1442782730 0.5786415935 4291151562
-0.2685235143 -0.1436664462 0.5787668228 4289835702
-0.2685814202 -0.1430542320 0.5788916349 4288585635
-0.2682283223 -0.1422238201 0.5781305432 4288322463
-0.2682856619 -0.1416117400 0.5782542229 4288783014
-0.2683427930 -0.1409992874 0.5783773065 4290295740
-0.2679886818 -0.1401714385 0.5776140690 4291282635
-0.2684563994 -0.1397731900 0.5786221623 4292137687
-0.2685128450 -0.1391595602 0.5787438750 4293256168
-0.2685690820 -0.1385455430 0.5788650513 4293914355
-0.2686251104 -0.1379311383 0.5789858103 4294309113
-0.2686809003 -0.1373163611 0.5791060328 4293979891
-0.2683249116 -0.1364918500 0.5783387423 4294177270
-0.2683801651 -0.1358772516 0.5784578323 4293585133
-0.2680234611 -0.1350547969 0.5776890516 4292071894
-0.2676663697 -0.1342338771 0.5769193769 4288782244
-0.2673088908 -0.1334144473 0.5761488676 4287137419
-0.2669510245 -0.1325965524 0.5753775239 4286545539
-0.2661807239 -0.1315764934 0.5737172365 4286348160
-0.2662340999 -0.1309653074 0.5738322735 4285953402
-0.2658750415 -0.1301519722 0.5730584264 4285690230
-0.2659278810 -0.1295410097 0.5731722713 4286150781
-0.2659805119 -0.1289296746 0.5732856989 4287598227
-0.2660329044 -0.1283179969 0.5733986497 4289308845
-0.2660850585 -0.1277059317 0.5735110641 4291808979
-0.2717546225 -0.1213159636 0.5857310295 4292730594
-0.2722178996 -0.1208708882 0.5867295861 4292270043
-0.2722673416 -0.1202408150 0.5868361592 4291809492
-0.2723165154 -0.1196103990 0.5869421363 4291020746
-0.2719515264 -0.1187988222 0.5861554742 4290494402
-0.2720001340 -0.1181686819 0.5862602592 4289112231
-0.2716344595 -0.1173593104 0.5854720473 4287862164
-0.2716825306 -0.1167294607 0.5855756402 4286809476
-0.2717303336 -0.1160992756 0.5856787562 4286875269
-0.2717779279 -0.1154687628 0.5857812762 4286809476
-0.2714109123 -0.1146628633 0.5849902034 4287270027
-0.2714579403 -0.1140326485 0.5850915909 4287796371
-0.2715047002 -0.1134021133 0.5851923823 4288388508
-0.2719658315 -0.1129434183 0.5861862898 4288651680
-0.2720122039 -0.1123112664 0.5862862468 4289178024
-0.2724730372 -0.1118490398 0.5872794986 4289375403
-0.2725189924 -0.1112152785 0.5873785615 4289572782
-0.2725646794 -0.1105811968 0.5874770284 4290164919
-0.2726101577 -0.1099468023 0.5875750184 4290757056
-0.2722403407 -0.1091457084 0.5867779851 4290954435
-0.2722852528 -0.1085116491 0.5868747234 4290888642
-0.2723298967 -0.1078772768 0.5869709849 4291019717
-0.2723743021 -0.1072425842 0.5870666504 4290822338
-0.2724184394 -0.1066075936 0.5871618390 4290690750
-0.2724623382 -0.1059722900 0.5872564316 4290624957
-0.2725059986 -0.1053366810 0.5873505473 4290361785
-0.2725493908 -0.1047007665 0.5874441266 4289703855
-0.2721770108 -0.1039059162 0.5866414905 4289177511
-0.2718042731 -0.1031126976 0.5858380198 4288914339
-0.2718468010 -0.1024778262 0.5859296918 4288256409
-0.2723048031 -0.1019983739 0.5869168639 4287730065
-0.2723468840 -0.1013619304 0.5870075822 4287795345
-0.2719728649 -0.1005714163 0.5862014294 4288453275
-0.2724303305 -0.1000881717 0.5871874094 4289111205
-0.2724716663 -0.0994508490 0.5872765183 4289505963
-0.2725127339 -0.0988132432 0.5873650908 4289637549
-0.2733857930 -0.0984751210 0.5892468691 4289834928
-0.2738426924 -0.0979838967 0.5902315974 4290295481
-0.2734669745 -0.0971945748 0.5894218087 4290229688
-0.2730908692 -0.0964069143 0.5886111259 4290953409
-0.2731307447 -0.0957669094 0.5886971354 4291808718
-0.2735868096 -0.0952716321 0.5896800756 4292203989
-0.2736262381 -0.0946300924 0.5897650719 4292269782
-0.2736653984 -0.0939882770 0.5898495317 4291743438
-0.2737043500 -0.0933461860 0.5899333954 4292993505
-0.2671113610 -0.1438950449 0.5771046281 4292665571
-0.2671692073 -0.1432848722 0.5772296190 4291875285
-0.2672268450 -0.1426742971 0.5773541927 4290559425
-0.2672842741 -0.1420633346 0.5774782300 4291480527
-0.2669314444 -0.1412350386 0.5767159462 4293322731
-0.2669883370 -0.1406242251 0.5768388510 4293980659
-0.2670449913 -0.1400130242 0.5769612789 4294309624
-0.2675117254 -0.1396155804 0.5779696703 4294178038
-0.2675680518 -0.1390026659 0.5780913234 4294835967
-0.2676241398 -0.1383893639 0.5782124996 4294967295
-0.2676799893 -0.1377756745 0.5783331990 4294901503
-0.2677356303 -0.1371616125 0.5784534216 4294967295
-0.2673802972 -0.1363377273 0.5776857138 4294704125
-0.2670246065 -0.1355153620 0.5769171715 4294572539
-0.2670793831 -0.1349020302 0.5770355463 4292861921
-0.2663120031 -0.1338751316 0.5753775835 4289374892
-0.2659550905 -0.1330572963 0.5746065378 4286743172
-0.2651866674 -0.1320362687 0.5729463100 4285559155
-0.2648289204 -0.1312224120 0.5721733570 4285230190
-0.2648820579 -0.1306128949 0.5722881556 4284045916
-0.2645235956 -0.1298011541 0.5715137124 4284045916
-0.2649877071 -0.1293927729 0.5725163817 4284045659
-0.2650401890 -0.1287821680 0.5726297498 4284572003
-0.2646808028 -0.1279721707 0.5718532801 4285493105
-0.2651444376 -0.1275598556 0.5728550553 4287006344
-0.2651962340 -0.1269481778 0.5729669333 4289046184
-0.2652477920 -0.1263361275 0.5730783343 4291546318
-0.2709498703 -0.1192957014 0.5853978992 4292862950
-0.2709985971 -0.1186666265 0.5855032206 4292665571
-0.2710470855 -0.1180372089 0.5856079459 4291810260
-0.2706820965 -0.1172284782 0.5848193765 4291415502
-0.2703166902 -0.1164213344 0.5840299129 4290691779
-0.2703643143 -0.1157928333 0.5841327906 4289770677
-0.2704117000 -0.1151639968 0.5842351913 4288783782
-0.2704588473 -0.1145348325 0.5843370557 4287796887
-0.2705057561 -0.1139053404 0.5844383836 4287006601
-0.2709661126 -0.1134487316 0.5854329467 4286414464
-0.2710125744 -0.1128176227 0.5855333805 4286611843
-0.2710588276 -0.1121861935 0.5856333375 4286743429
-0.2711048126 -0.1115544364 0.5857326984 4287138441
-0.2711505890 -0.1109223664 0.5858315229 4287796371
-0.2711960971 -0.1102899686 0.5859298706 4288453788
-0.2712413371 -0.1096572578 0.5860276818 4289045925
-0.2712863684 -0.1090242341 0.5861248970 4289638062
-0.2713311315 -0.1083908901 0.5862216353 4290032820
-0.2713756561 -0.1077572405 0.5863178372 4289967286
-0.2714199424 -0.1071232706 0.5864135027 4290230458
-0.2714639902 -0.1064889953 0.5865086317 4290428091
-0.2715077698 -0.1058544144 0.5866032243 4290559677
-0.2715513110 -0.1052195281 0.5866973400 4290953922
-0.2715945840 -0.1045843363 0.5867908597 4291019715
-0.2716376185 -0.1039488390 0.5868838429 4290888131
-0.2716804147 -0.1033130437 0.5869762897 4290822338
-0.2717229724 -0.1026769429 0.5870682001 4290559166
-0.2721801698 -0.1021963358 0.5880560279 4290559166
-0.2726372480 -0.1017134860 0.5890435576 4290427578
-0.2726791799 -0.1010745540 0.5891340971 4290295992
-0.2723057270 -0.1002824605 0.5883272886 4290295992
-0.2723470926 -0.0996439159 0.5884166360 4290624957
-0.2723881900 -0.0990050882 0.5885054469 4290888131
-0.2728443146 -0.0985159129 0.5894909501 4291085510
-0.2728849947 -0.0978755280 0.5895788074 4291611341
-0.2725099921 -0.0970868617 0.5887686014 4291677134
-0.2725500762 -0.0964468867 0.5888552070 4291808720
-0.2721743882 -0.0956605822 0.5880435109 4291611341
-0.2726294994 -0.0951660872 0.5890268087 4291282376
-0.2726688385 -0.0945252702 0.5891118050 4291084997
-0.2727079093 -0.0938841775 0.5891962051 4291677645
-0.2657599151 -0.1435113847 0.5755659342 4292797157
-0.2658175230 -0.1429028660 0.5756907463 4291612113
-0.2658749223 -0.1422939450 0.5758150220 4291809492
-0.2659321129 -0.1416846365 0.5759388804 4293914609
-0.2659890652 -0.1410749406 0.5760622025 4294835711
-0.2660458088 -0.1404648572 0.5761851072 4293322729
-0.2661023140 -0.1398543715 0.5763074756 4292270041
-0.2661586106 -0.1392434984 0.5764293671 4291611854
-0.2666242123 -0.1388455182 0.5774378181 4292401370
-0.2666801512 -0.1382329315 0.5775589347 4293585131
-0.2667358518 -0.1376199722 0.5776795745 4293979889
-0.2667913437 -0.1370066255 0.5777997375 4293256679
-0.2664366961 -0.1361833662 0.5770316720 4292730335
-0.2660816610 -0.1353616267 0.5762627721 4291875026
-0.2657262385 -0.1345414072 0.5754929781 4290295994
-0.2653703988 -0.1337226778 0.5747223496 4288322204
-0.2646039426 -0.1326997429 0.5730624199 4286874758
-0.2646575570 -0.1320897937 0.5731785297 4285690484
-0.2638901472 -0.1310717911 0.5715165734 4284506210
-0.2635326684 -0.1302600950 0.5707423687 4284637796
-0.2635853887 -0.1296518892 0.5708565116 4285295726
-0.2640485168 -0.1292443126 0.5718594790 4286151035
-0.2641008496 -0.1286344230 0.5719728470 4286348414
-0.2641529441 -0.1280241758 0.5720856786 4285821557
