VERSION 0.7
FIELDS x y z rgba
SIZE 4 4 4 4
TYPE F F F U
COUNT 1 1 1 1
WIDTH 920
HEIGHT 1
VIEWPOINT 0.0 0.0 0.0 1.0 0.0 0.0 0.0
POINTS 920
DATA ascii
-0.3180977106 -0.0887265652 0.5009405613 4290740363
-0.3186714649 -0.0883290172 0.5018441081 4288174436
-0.3192451000 -0.0879294276 0.5027474165 4292846006
-0.3198186159 -0.0875277966 0.5036506057 4289556356
-0.3203920126 -0.0871241316 0.5045536160 4291334816
-0.3214958310 -0.0868617669 0.5062918663 4289426819
-0.3225996494 -0.0865955353 0.5080301762 4290133324
-0.3237034976 -0.0863254517 0.5097685456 4287698983
-0.3232151568 -0.0856296942 0.5089995265 4290606216
-0.3243188560 -0.0853546262 0.5107375979 4291329939
-0.3254225254 -0.0850756988 0.5124756694 4287270290
-0.3254643381 -0.0845171586 0.5125415325 4286743946
-0.3295660615 -0.1475415975 0.5199102759 4286407526
-0.3384888172 -0.1509428918 0.5339864492 4286012768
-0.3265806139 -0.1450602263 0.5152005553 4287519839
-0.3261285126 -0.1442877799 0.5144873261 4286072393
-0.3241127133 -0.1428278387 0.5113072991 4286399824
-0.3231382072 -0.1418319941 0.5097699165 4289492095
-0.3216417134 -0.1406113952 0.5074091554 4290019973
-0.3196229637 -0.1391686201 0.5042244196 4284690740
-0.3181246221 -0.1379586160 0.5018606782 4287368979
-0.3171470165 -0.1369787902 0.5003184676 4287303186
-0.3161687851 -0.1360020936 0.4987752438 4287566360
-0.3151898682 -0.1350285560 0.4972309768 4287368981
-0.3147322536 -0.1342808604 0.4965090752 4287105809
-0.3142742217 -0.1335345805 0.4957864881 4286974223
-0.3132935762 -0.1325687766 0.4942394495 4286974223
-0.3128345609 -0.1318262070 0.4935153425 4286908430
-0.3123750985 -0.1310850829 0.4927905202 4286842637
-0.3119152188 -0.1303453743 0.4920650125 4286776844
-0.3114548922 -0.1296070963 0.4913388193 4286908430
-0.3109941483 -0.1288702488 0.4906119704 4287171602
-0.3105329573 -0.1281348467 0.4898844063 4287303188
-0.3105942309 -0.1276157200 0.4899810553 4287303188
-0.3101322949 -0.1268823296 0.4892523289 4287303188
-0.3096699119 -0.1261503845 0.4885229170 4287368981
-0.3097302914 -0.1256320924 0.4886181653 4287434774
-0.3097904623 -0.1251135021 0.4887130857 4287500567
-0.3098503947 -0.1245946065 0.4888076484 4287631894
-0.3093866110 -0.1238658279 0.4880760014 4287500308
-0.3089224100 -0.1231385022 0.4873436689 4287434772
-0.3089814782 -0.1226204634 0.4874368310 4287434772
-0.3085165024 -0.1218951792 0.4867033362 4287368981
-0.3085750043 -0.1213774309 0.4867956340 4287434774
-0.3081092834 -0.1206541955 0.4860609174 4287369494
-0.3076431453 -0.1199324206 0.4853255749 4287369494
-0.3077007830 -0.1194155589 0.4854164720 4287042072
-0.3072338998 -0.1186958477 0.4846799374 4287897381
-0.3072909713 -0.1181792840 0.4847699702 4288359985
-0.3073478043 -0.1176624298 0.4848596454 4288359985
-0.3074044287 -0.1171452925 0.4849489629 4286979872
-0.3074608147 -0.1166278720 0.4850379229 4287243044
-0.3069922030 -0.1159120202 0.4842986465 4288099123
-0.3070480525 -0.1153949127 0.4843867421 4288099123
-0.3071036339 -0.1148775294 0.4844744503 4286848029
-0.3071590364 -0.1143598557 0.4845618308 4287966510
-0.3066890240 -0.1136473119 0.4838203490 4288820538
-0.3067438304 -0.1131299660 0.4839068353 4288096815
-0.3067984283 -0.1126123518 0.4839929640 4287042587
-0.3073782325 -0.1122864038 0.4849076271 4286582036
-0.3074324429 -0.1117673442 0.4849931598 4286975763
-0.3074864149 -0.1112480164 0.4850783050 4286778384
-0.3075401783 -0.1107284129 0.4851631224 4289815660
-0.3075937033 -0.1102085412 0.4852475524 4291921036
-0.3076469898 -0.1096883938 0.4853316247 4290153362
-0.3077000380 -0.1091679782 0.4854153097 4285087301
-0.3077528775 -0.1086472943 0.4854986370 4286586146
-0.3078054488 -0.1081263423 0.4855816066 4287112490
-0.3078578115 -0.1076051295 0.4856641889 4286390562
-0.3079099357 -0.1070836410 0.4857464135 4289680212
-0.3079617918 -0.1065618992 0.4858282506 4291531927
-0.3080134392 -0.1060398892 0.4859097302 4291400341
-0.3085914552 -0.1056979820 0.4868215621 4291134600
-0.3086427152 -0.1051745564 0.4869024456 4288502880
-0.3086937368 -0.1046508700 0.4869829118 4286590261
-0.3087445199 -0.1041269228 0.4870630503 4285274401
-0.3087950647 -0.1036027223 0.4871427715 4285736242
-0.3088453710 -0.1030782610 0.4872221351 4290999682
-0.3088954389 -0.1025535464 0.4873011112 4291076260
-0.3094724715 -0.1022026837 0.4882114232 4290813088
-0.3095221519 -0.1016765609 0.4882898033 4290934400
-0.3095715642 -0.1011501923 0.4883677661 4289815919
-0.3096207678 -0.1006235629 0.4884453714 4288962402
-0.3101972640 -0.1002672091 0.4893548191 4290738813
-0.3102460504 -0.0997391865 0.4894317985 4291335582
-0.3102945983 -0.0992109179 0.4895083904 4290940824
-0.3108707070 -0.0988502204 0.4904172122 4290676110
-0.3109188378 -0.0983205587 0.4904931486 4291597212
-0.3114947081 -0.0979566798 0.4914016128 4291270046
-0.3115424216 -0.0974256247 0.4914769232 4288704119
-0.3115899265 -0.0968943238 0.4915518463 4287439912
-0.3116371632 -0.0963627845 0.4916263819 4286518810
-0.3122124374 -0.0959934294 0.4925338924 4287042595
-0.3127876520 -0.0956220329 0.4934413135 4293227137
-0.3133627474 -0.0952485874 0.4943485558 4292325306
-0.3134092391 -0.0947133824 0.4944218993 4289956758
-0.3139840662 -0.0943367556 0.4953287542 4287376191
-0.3140301406 -0.0938001722 0.4954014421 4291586943
-0.3140759766 -0.0932633504 0.4954737425 4289939548
-0.3146503866 -0.0928824097 0.4963798821 4287044656
-0.3146957755 -0.0923442170 0.4964515269 4290005347
-0.3152699172 -0.0919600874 0.4973572493 4291058035
-0.3153148890 -0.0914205313 0.4974281788 4292644510
-0.3158887327 -0.0910332203 0.4983334839 4291197064
-0.3159332871 -0.0904923007 0.4984037578 4286392632
-0.3165068626 -0.0901018158 0.4993085861 4289287524
-0.3170803189 -0.0897092968 0.5002132654 4289287532
-0.3176536858 -0.0893147364 0.5011177659 4293893042
-0.3182269335 -0.0889181346 0.5020220876 4289556346
-0.3182705045 -0.0883724466 0.5020908117 4290477448
-0.3188434541 -0.0879726708 0.5029947162 4292912828
-0.3194162846 -0.0875708610 0.5038983822 4289491592
-0.3199889958 -0.0871670023 0.5048018694 4292519092
-0.3210914731 -0.0869045183 0.5065410733 4289229442
-0.3227238655 -0.0867806673 0.5091162920 4290525000
-0.3227664530 -0.0862263814 0.5091834664 4288551210
-0.3233388364 -0.0858125538 0.5100864768 4290606477
-0.3233809769 -0.0852569118 0.5101529360 4289948547
-0.3244832456 -0.0849787742 0.5118918419 4284309607
-0.3245249689 -0.0844208822 0.5119576454 4286349190
-0.3291448355 -0.1476116627 0.5201571584 4286932841
-0.3370161057 -0.1505499482 0.5325963497 4286274911
-0.3282441497 -0.1460550278 0.5187337399 4287650140
-0.3236306608 -0.1434339732 0.5114429593 4287321175
-0.3236987293 -0.1428957731 0.5115504861 4286267209
-0.3222050071 -0.1416706145 0.5091899037 4290148996
-0.3191484809 -0.1397663206 0.5043596029 4289821309
-0.3176526725 -0.1385535002 0.5019957423 4284426283
-0.3156351149 -0.1371192783 0.4988073409 4287828502
-0.3167422414 -0.1370440722 0.5005569458 4287565330
-0.3173284829 -0.1367405504 0.5014834404 4287632153
-0.3147877157 -0.1350929737 0.4974681735 4287368981
-0.3143307567 -0.1343449503 0.4967460334 4287105809
-0.3138733506 -0.1335983425 0.4960231781 4286974223
-0.3128940165 -0.1326320916 0.4944755435 4286974223
-0.3124356568 -0.1318892092 0.4937511384 4286908430
-0.3124985397 -0.1313670427 0.4938505292 4286842637
-0.3120394051 -0.1306261420 0.4931249619 4286776844
-0.3110579252 -0.1296691000 0.4915739000 4286908430
-0.3105978370 -0.1289319247 0.4908467829 4287171602
-0.3101372719 -0.1281961948 0.4901189506 4287171602
-0.3101985455 -0.1276768595 0.4902157485 4287237395
-0.3097372353 -0.1269431263 0.4894867539 4287434774
-0.3097979426 -0.1264240444 0.4895826876 4287434774
-0.3093358874 -0.1256923378 0.4888524711 4287368981
-0.3093960285 -0.1251735240 0.4889475405 4287434774
-0.3094559312 -0.1246543974 0.4890422225 4287631894
-0.3089928031 -0.1239252910 0.4883103073 4287500308
-0.3085292578 -0.1231976449 0.4875777364 4287434774
-0.3085882962 -0.1226793826 0.4876710474 4287500567
-0.3081239760 -0.1219537705 0.4869372547 4287369494
-0.3081824481 -0.1214357913 0.4870297015 4287369494
-0.3077173829 -0.1207122281 0.4862947464 4287304215
-0.3077753186 -0.1201945469 0.4863862991 4287304215
-0.3073095083 -0.1194730401 0.4856501520 4287107865
-0.3073668778 -0.1189556569 0.4857408404 4288028967
-0.3074240386 -0.1184379831 0.4858311415 4288557364
-0.3069571555 -0.1177191362 0.4850932956 4288557364
-0.3070137501 -0.1172017679 0.4851827621 4286849056
-0.3070701063 -0.1166841164 0.4852718413 4287309607
-0.3071262538 -0.1161661819 0.4853605628 4288165429
-0.3066579700 -0.1154506058 0.4846205115 4288428601
-0.3067135513 -0.1149329916 0.4847083688 4286782236
-0.3067689240 -0.1144150943 0.4847958386 4288163889
-0.3062995672 -0.1137022153 0.4840541184 4288886331
-0.3063543737 -0.1131846458 0.4841407239 4288162608
-0.3058842719 -0.1124738753 0.4833978117 4287239453
-0.3059385121 -0.1119566411 0.4834835529 4286713109
-0.3059925437 -0.1114391237 0.4835689068 4286909457
-0.3060463369 -0.1109213382 0.4836539030 4287041043
-0.3060998917 -0.1104032844 0.4837385416 4289816689
-0.3061532080 -0.1098849550 0.4838228226 4291724686
-0.3067315221 -0.1095539480 0.4847367406 4289693324
-0.3073097765 -0.1092208922 0.4856505990 4284232505
-0.3073625863 -0.1086999699 0.4857340455 4286520353
-0.3074151576 -0.1081787869 0.4858171046 4287112490
-0.3074674904 -0.1076573357 0.4858998358 4286326822
-0.3075195849 -0.1071356162 0.4859821498 4287182131
-0.3075714707 -0.1066136286 0.4860641360 4289945704
-0.3076230884 -0.1060913876 0.4861457050 4290340462
-0.3076744676 -0.1055688784 0.4862269163 4289347662
-0.3077256382 -0.1050461084 0.4863077700 4286452770
-0.3077765703 -0.1045230776 0.4863882363 4285796119
-0.3078272343 -0.1039997861 0.4864683449 4286322463
-0.3084039688 -0.1036531180 0.4873797596 4286453030
-0.3084542453 -0.1031284183 0.4874592423 4288953164
-0.3085043132 -0.1026034653 0.4875383377 4290540159
-0.3090806603 -0.1022524536 0.4884491563 4290276987
-0.3091303110 -0.1017260924 0.4885276258 4289677912
-0.3091797233 -0.1011994779 0.4886057377 4287835708
-0.3092289269 -0.1006726101 0.4886834323 4287968830
-0.3098047376 -0.1003160998 0.4895934165 4289811034
-0.3098534942 -0.0997878313 0.4896704853 4290667127
-0.3099020422 -0.0992593169 0.4897471964 4288890716
-0.3099503219 -0.0987305567 0.4898235202 4287243321
-0.3105255961 -0.0983685553 0.4907326102 4289940834
-0.3111007512 -0.0980045125 0.4916415811 4289154658
-0.3111484945 -0.0974732116 0.4917169809 4286457145
-0.3111959696 -0.0969416723 0.4917920232 4288157468
-0.3112431765 -0.0964098871 0.4918666482 4288025882
-0.3118177950 -0.0960403606 0.4927747250 4287697697
-0.3118646145 -0.0955071896 0.4928486943 4294934927
-0.3129667044 -0.0952951834 0.4945904016 4291735477
-0.3130131960 -0.0947597325 0.4946638644 4288314241
-0.3135873675 -0.0943829343 0.4955712259 4286392632
-0.3136334121 -0.0938460976 0.4956440032 4288432215
-0.3136792481 -0.0933090299 0.4957164228 4286192168
-0.3142529428 -0.0929279104 0.4966230690 4289021267
-0.3148265779 -0.0925447494 0.4975295961 4289154656
-0.3148717880 -0.0920051709 0.4976010621 4291654790
-0.3149167597 -0.0914653540 0.4976721108 4293238187
-0.3154899180 -0.0910778716 0.4985778928 4288632677
-0.3155344725 -0.0905366987 0.4986482859 4288761180
-0.3161073625 -0.0901460350 0.4995536506 4289287524
-0.3166801333 -0.0897533372 0.5004588366 4290208634
-0.3172528148 -0.0893585905 0.5013638139 4294090421
-0.3178253770 -0.0889618099 0.5022686720 4289359480
-0.3183978200 -0.0885629803 0.5031733513 4292254372
-0.3189701736 -0.0881621093 0.5040778518 4292716478
-0.3195424080 -0.0877592042 0.5049821734 4291005860
-0.3201145232 -0.0873542503 0.5058862567 4292847803
-0.3206865191 -0.0869472623 0.5067902207 4288637051
-0.3217876554 -0.0866807997 0.5085303783 4289536565
-0.3223594725 -0.0862688124 0.5094340444 4288681256
-0.3229311705 -0.0858547911 0.5103375316 4289750916
-0.3235027790 -0.0854387283 0.5112408400 4288829814
-0.3240742087 -0.0850206241 0.5121439099 4284506986
-0.3246455491 -0.0846004784 0.5130468011 4287401878
-0.3339161277 -0.1500147581 0.5286251903 4287782243
-0.3282735348 -0.1469023526 0.5196923614 4287519071
-0.3252946734 -0.1444249600 0.5149765015 4289424500
-0.3217248917 -0.1422741562 0.5093252063 4289425776
-0.3202328086 -0.1410510540 0.5069630742 4291070601
-0.3213396966 -0.1409733593 0.5087153316 4289226344
-0.3188062310 -0.1393011659 0.5047046542 4285015592
-0.3173118532 -0.1380900592 0.5023388267 4287174173
-0.3158165812 -0.1368838400 0.4999716878 4286976794
-0.3158816397 -0.1363564283 0.5000746846 4287566362
-0.3149054945 -0.1353811324 0.4985293150 4287237397
-0.3139286637 -0.1344090104 0.4969829023 4286975765
-0.3134719133 -0.1336620748 0.4962598085 4286712593
-0.3124938905 -0.1326953918 0.4947115183 4286842637
-0.3120361865 -0.1319521666 0.4939869046 4286974223
-0.3120990396 -0.1314297915 0.4940864146 4287038987
-0.3116405606 -0.1306885630 0.4933605790 4287038987
-0.3106603920 -0.1297310889 0.4918088615 4286844175
-0.3102009296 -0.1289935857 0.4910815060 4286844175
-0.3097410202 -0.1282575279 0.4903534353 4286909457
-0.3098022640 -0.1277379543 0.4904503822 4286975250
-0.3093416095 -0.1270039082 0.4897211194 4287434515
-0.3094022870 -0.1264846027 0.4898171723 4287434515
-0.3094627559 -0.1259649843 0.4899128675 4287107087
-0.3090010285 -0.1252335161 0.4891819060 4287172880
-0.3085388541 -0.1245035082 0.4884502590 4287303698
-0.3085984290 -0.1239847392 0.4885445535 4287303698
-0.3081355095 -0.1232567653 0.4878117144 4287500565
-0.3081945181 -0.1227382794 0.4879051745 4287566358
-0.3077308536 -0.1220123395 0.4871711135 4287435285
-0.3077893257 -0.1214941368 0.4872636795 4287501078
-0.3073249161 -0.1207702458 0.4865284562 4287435801
-0.3073828220 -0.1202523336 0.4866201580 4287435801
-0.3074405193 -0.1197341383 0.4867114723 4287108376
-0.3069750369 -0.1190128922 0.4859745502 4287766306
-0.3070321679 -0.1184949949 0.4860650003 4288754486
-0.3070890605 -0.1179767996 0.4861550927 4288951865
-0.3066225052 -0.1172582209 0.4854164720 4287374119
-0.3066788614 -0.1167403460 0.4855056703 4287439912
-0.3067349792 -0.1162221804 0.4855945408 4288493883
-0.3067908883 -0.1157037318 0.4856830239 4288296504
-0.3063229024 -0.1149884388 0.4849421978 4286520089
-0.3063782454 -0.1144703031 0.4850298166 4287704363
-0.3059095442 -0.1137571111 0.4842877984 4289478209
-0.3054404259 -0.1130454019 0.4835451245 4288491314
-0.3054949045 -0.1125282124 0.4836313426 4287237906
-0.3055491149 -0.1120107472 0.4837172031 4286711562
-0.3056031168 -0.1114929989 0.4838026762 4286843668
-0.3056569099 -0.1109749824 0.4838878214 4286975254
-0.3057104349 -0.1104566976 0.4839725792 4289883001
-0.3057637513 -0.1099381298 0.4840569496 4291527826
-0.3063413799 -0.1096069813 0.4849714041 4289625991
-0.3069189489 -0.1092737839 0.4858857989 4284362551
-0.3069717288 -0.1087526307 0.4859693646 4286391084
-0.3070243001 -0.1082312092 0.4860525429 4286720049
-0.3070766032 -0.1077095270 0.4861353934 4287176483
-0.3071286976 -0.1071875691 0.4862178266 4286847518
-0.3071805537 -0.1066653505 0.4862999320 4287372833
-0.3072321713 -0.1061428711 0.4863816202 4286978075
-0.3072835505 -0.1056201234 0.4864629507 4286646546
-0.3073346913 -0.1050971150 0.4865439236 4287041304
-0.3073855937 -0.1045738459 0.4866245091 4287369759
-0.3074362576 -0.1040503234 0.4867047071 4287632931
-0.3080123067 -0.1037035063 0.4876166582 4287108129
-0.3080625832 -0.1031785682 0.4876962602 4286713371
-0.3081126213 -0.1026533693 0.4877754748 4287305769
-0.3081623912 -0.1021279246 0.4878543019 4286976804
-0.3087379336 -0.1017756015 0.4887654185 4286383392
-0.3087873161 -0.1012487486 0.4888436198 4286778150
-0.3088364899 -0.1007216349 0.4889214337 4287829558
-0.3094116151 -0.1003649682 0.4898319244 4288092730
-0.3094603717 -0.0998364612 0.4899091423 4288224316
-0.3095088899 -0.0993077084 0.4899859428 4287237421
-0.3100836277 -0.0989466906 0.4908958077 4287499302
-0.3101317585 -0.0984165370 0.4909719825 4287565095
-0.3101796210 -0.0978861451 0.4910477698 4287760158
-0.3107539415 -0.0975207910 0.4919569790 4288615467
-0.3108014166 -0.0969889984 0.4920321405 4289205533
-0.3108486235 -0.0964569673 0.4921068847 4288810775
-0.3114225566 -0.0960872844 0.4930154383 4288356913
-0.3114693463 -0.0955538675 0.4930895567 4294936984
-0.3120430112 -0.0951809883 0.4939977229 4291604403
-0.3120894134 -0.0946461931 0.4940711558 4287722616
-0.3126628101 -0.0942701250 0.4949789047 4285928742
-0.3132361174 -0.0938920155 0.4958865047 4286652465
-0.3132818937 -0.0933547020 0.4959590137 4288560203
-0.3138549328 -0.0929734036 0.4968661964 4290797165
-0.3144278824 -0.0925900638 0.4977732301 4288430165
-0.3150007129 -0.0922046825 0.4986800849 4292706710
-0.3150457442 -0.0916637108 0.4987513721 4293109178
-0.3150905371 -0.0911225155 0.4988222718 4289622149
-0.3151350617 -0.0905810818 0.4988927543 4291454841
-0.3157072663 -0.0901902467 0.4997985959 4287902019
-0.3162793517 -0.0897973627 0.5007042885 4290869124
-0.3168513477 -0.0894024372 0.5016098619 4293500844
-0.3174232244 -0.0890054703 0.5025151968 4291133586
-0.3179950118 -0.0886064544 0.5034203529 4292383653
-0.3185666800 -0.0882054046 0.5043253899 4293238187
-0.3191382289 -0.0878023058 0.5052301884 4291922327
-0.3197096586 -0.0873971730 0.5061348081 4291922327
-0.3202809691 -0.0869899914 0.5070393085 4286987852
-0.3208521605 -0.0865807682 0.5079435706 4289536565
-0.3219518960 -0.0863112360 0.5096845627 4289207600
-0.3225229383 -0.0858970210 0.5105885267 4288768386
-0.3230938315 -0.0854807571 0.5114923716 4288110456
-0.3236646056 -0.0850624591 0.5123959184 4286480010
-0.3329683840 -0.1498524547 0.5280532837 4287716963
-0.3248081505 -0.1450352967 0.5151120424 4287582810
-0.3243578672 -0.1442627013 0.5143979192 4288569705
-0.3223499060 -0.1428016275 0.5112134814 4290215292
-0.3198216259 -0.1411180645 0.5072039366 4289952120
-0.3198885322 -0.1405839324 0.5073100328 4287251271
-0.3183970153 -0.1393674016 0.5049446225 4285080102
-0.3169046044 -0.1381557584 0.5025778413 4286713109
-0.3164505661 -0.1374002099 0.5018577576 4287042074
-0.3149566352 -0.1361965984 0.4994885325 4287566360
-0.3139816821 -0.1352217495 0.4979423583 4287237395
-0.3130060434 -0.1342500448 0.4963951409 4287041558
-0.3130699098 -0.1337257922 0.4964963794 4286844179
-0.3126133680 -0.1329799443 0.4957723618 4286908430
-0.3116361201 -0.1320151240 0.4942225516 4286908430
-0.3116989732 -0.1314925253 0.4943222404 4287170060
-0.3107206523 -0.1305323094 0.4927707314 4287235853
-0.3102622628 -0.1297930479 0.4920437932 4287106320
-0.3098034561 -0.1290552318 0.4913161695 4287237906
-0.3093442321 -0.1283188462 0.4905878305 4287172629
-0.3094054163 -0.1277990490 0.4906849265 4287172629
-0.3089454174 -0.1270646602 0.4899553955 4287434772
-0.3090060949 -0.1265451312 0.4900515974 4287368979
-0.3090665042 -0.1260252893 0.4901474416 4287107089
-0.3091267347 -0.1255051494 0.4902429283 4287107089
-0.3086653054 -0.1247739345 0.4895111620 4287303699
-0.3082034886 -0.1240441725 0.4887787402 4287369492
-0.3082627952 -0.1235248744 0.4888728261 4287632151
-0.3078002036 -0.1227971539 0.4881392121 4287763737
-0.3078590035 -0.1222781390 0.4882324338 4287698459
-0.3073956370 -0.1215524599 0.4874975979 4287698459
-0.3069318831 -0.1208282486 0.4867621064 4287501594
-0.3069897592 -0.1203101128 0.4868539274 4287370008
-0.3070474565 -0.1197916791 0.4869453907 4286910486
-0.3065825999 -0.1190701127 0.4862082005 4288028967
-0.3066397309 -0.1185519844 0.4862987995 4288622900
-0.3066966236 -0.1180335656 0.4863890111 4288162349
-0.3067532778 -0.1175148562 0.4864788651 4287044897
-0.3062870204 -0.1167965531 0.4857394695 4287900206
-0.3063431382 -0.1162781566 0.4858284295 4288625469
-0.3063990176 -0.1157594845 0.4859170616 4287572781
-0.3059317172 -0.1150438637 0.4851759374 4286585884
-0.3059870303 -0.1145255044 0.4852636755 4287638572
-0.3055189848 -0.1138119847 0.4845213890 4288492600
-0.3050504923 -0.1130999550 0.4837784469 4287834670
-0.3051049411 -0.1125825346 0.4838648140 4286977303
-0.3051591516 -0.1120648310 0.4839507937 4286516752
-0.3052131534 -0.1115468591 0.4840363860 4286451731
-0.3052669168 -0.1110286117 0.4841216505 4286122766
-0.3058441281 -0.1106996462 0.4850370586 4288633955
-0.3053737283 -0.1099912971 0.4842910469 4291134089
-0.3059506714 -0.1096600071 0.4852060080 4290283405
-0.3060035706 -0.1091397777 0.4852899313 4286006860
-0.3060562611 -0.1086192876 0.4853734672 4285930533
-0.3066328764 -0.1082836241 0.4862879217 4286522670
-0.3066851795 -0.1077617034 0.4863708615 4287833390
-0.3067372441 -0.1072395146 0.4864534438 4287438632
-0.3067890704 -0.1067170575 0.4865356386 4287699501
-0.3068406582 -0.1061943397 0.4866174757 4287699501
-0.3068920374 -0.1056713536 0.4866989255 4287501095
-0.3069431484 -0.1051481143 0.4867800176 4287501095
-0.3075188100 -0.1048034504 0.4876929522 4287106848
-0.3075695634 -0.1042787954 0.4877734184 4286975262
-0.3076200485 -0.1037538722 0.4878534973 4286189594
-0.3076703250 -0.1032286957 0.4879332185 4286518559
-0.3077203333 -0.1027032658 0.4880125225 4286654510
-0.3082953095 -0.1023519412 0.4889244139 4287838784
-0.3083449602 -0.1018250957 0.4890031219 4288565591
-0.3083943427 -0.1012980044 0.4890814424 4289618279
-0.3084434867 -0.1007706523 0.4891593754 4289949815
-0.3090179265 -0.1004138291 0.4900703728 4290344573
-0.3090666831 -0.0998850763 0.4901476800 4289951357
-0.3091151714 -0.0993560776 0.4902246296 4289622392
-0.3096892238 -0.0989949033 0.4911350012 4287779157
-0.3097373247 -0.0984645113 0.4912112951 4286265918
-0.3097851872 -0.0979338661 0.4912871718 4287044392
-0.3103588223 -0.0975683481 0.4921969175 4287044392
-0.3104062974 -0.0970363170 0.4922721684 4289140512
-0.3104535043 -0.0965040401 0.4923470318 4289008926
-0.3110267222 -0.0961341858 0.4932561219 4287569968
-0.3110735118 -0.0956005231 0.4933303297 4294412440
-0.3116464913 -0.0952274799 0.4942390025 4291801783
-0.3116928637 -0.0946924314 0.4943125546 4289235856
-0.3122655749 -0.0943161994 0.4952208102 4287178811
-0.3128381968 -0.0939379185 0.4961289465 4288560464
-0.3134107292 -0.0935575888 0.4970369041 4291322226
-0.3134563565 -0.0930188820 0.4971092641 4289940573
-0.3140285909 -0.0926353708 0.4980168045 4287379525
-0.3140738010 -0.0920952857 0.4980884492 4293169309
-0.3146457672 -0.0917085931 0.4989955723 4292977333
-0.3146905303 -0.0911671370 0.4990665615 4291661473
-0.3152622283 -0.0907772556 0.4999732077 4289611608
-0.3153065741 -0.0902344361 0.5000435114 4286716716
-0.3164053261 -0.0899913609 0.5017860532 4291585909
-0.3169767261 -0.0895953476 0.5026921630 4294349215
-0.3175479770 -0.0891972855 0.5035981536 4291056997
-0.3181191683 -0.0887971818 0.5045039654 4291780720
-0.3186902106 -0.0883950368 0.5054095984 4291642967
-0.3192611337 -0.0879908428 0.5063150525 4289866556
-0.3198319674 -0.0875846073 0.5072203279 4290656590
-0.3204026818 -0.0871763304 0.5081254244 4289274937
-0.3209732473 -0.0867660046 0.5090302825 4290058281
-0.3220717013 -0.0864954367 0.5107722878 4290321453
-0.3221140504 -0.0859392360 0.5108394623 4289558155
-0.3226842880 -0.0855227858 0.5117437840 4290018706
-0.3232543766 -0.0851042867 0.5126479268 4286480524
-0.3258056939 -0.1468876153 0.5176057220 4287585632
-0.3269113004 -0.1468090266 0.5193622112 4287322460
-0.3223852217 -0.1436383426 0.5121716261 4286530634
-0.3224532008 -0.1430994570 0.5122796893 4287122508
-0.3204469085 -0.1416434497 0.5090922713 4287188301
-0.3179208338 -0.1399657130 0.5050791502 4286328629
-0.3169497252 -0.1389787048 0.5035362840 4285868078
-0.3149402142 -0.1375416368 0.5003438592 4287304476
-0.3160433769 -0.1374655515 0.5020964146 4287041304
-0.3161086142 -0.1369359493 0.5022000670 4287631894
-0.3146161139 -0.1357340664 0.4998289347 4287368722
-0.3136420250 -0.1347601861 0.4982814193 4286844947
-0.3121479154 -0.1335672438 0.4959077239 4286844947
-0.3116919100 -0.1328219324 0.4951832891 4286843664
-0.3112354875 -0.1320780516 0.4944581389 4286712078
-0.3102589250 -0.1311159730 0.4929066896 4287038987
-0.3098015189 -0.1303758323 0.4921800196 4287104780
-0.3098635972 -0.1298549920 0.4922786057 4287237393
-0.3104454577 -0.1295508444 0.4932030141 4287434772
-0.3094669580 -0.1285962611 0.4916484654 4287304469
-0.3090080321 -0.1278601140 0.4909193814 4287304469
-0.3090689778 -0.1273397803 0.4910162389 4287435287
-0.3086093068 -0.1266056448 0.4902859330 4287369494
-0.3086697161 -0.1260855794 0.4903819263 4287041297
-0.3087299168 -0.1255652159 0.4904775321 4287107090
-0.3082691431 -0.1248336732 0.4897455275 4287303699
-0.3083287776 -0.1243135706 0.4898402691 4287303699
-0.3078672588 -0.1235840619 0.4891070724 4287501078
-0.3079263568 -0.1230642423 0.4892009199 4287698457
-0.3074640930 -0.1223367751 0.4884665310 4287764252
-0.3070013821 -0.1216107681 0.4877314568 4287698459
-0.3070595860 -0.1210918203 0.4878239334 4287501596
-0.3065961599 -0.1203678623 0.4870876372 4287435803
-0.3066537976 -0.1198492050 0.4871792495 4287042072
-0.3061895967 -0.1191273183 0.4864417911 4288028967
-0.3062466979 -0.1186089590 0.4865324795 4288819511
-0.3063035905 -0.1180903092 0.4866228402 4288687925
-0.3058383167 -0.1173710823 0.4858836830 4287439655
-0.3058946431 -0.1168527454 0.4859731495 4287834413
-0.3059507310 -0.1163341254 0.4860622585 4288361528
-0.3060065806 -0.1158152148 0.4861510098 4287440426
-0.3055399358 -0.1150992736 0.4854096174 4287044128
-0.3055952191 -0.1145806834 0.4854975045 4287965230
-0.3051278293 -0.1138668358 0.4847549498 4287965746
-0.3046600223 -0.1131544858 0.4840117097 4287373609
-0.3047144413 -0.1126368344 0.4840981960 4286910997
-0.3047686517 -0.1121189073 0.4841842949 4286582032
-0.3048225939 -0.1116007045 0.4842700362 4286712591
-0.3048763573 -0.1110822186 0.4843553901 4286252040
-0.3054528832 -0.1107531115 0.4852713645 4287050812
-0.3049831092 -0.1100444421 0.4845250547 4291129978
-0.3055593967 -0.1097130105 0.4854405522 4291464594
-0.3056122959 -0.1091925502 0.4855245948 4288964460
-0.3056649566 -0.1086718217 0.4856082499 4286786610
-0.3062408566 -0.1083360165 0.4865232110 4285865508
-0.3062931597 -0.1078138575 0.4866062701 4286716453
-0.3063451946 -0.1072914377 0.4866889715 4286782246
-0.3063970208 -0.1067687422 0.4867712855 4287110185
-0.3064486086 -0.1062457934 0.4868532419 4286583841
-0.3064999580 -0.1057225689 0.4869348109 4286779423
-0.3065510690 -0.1051990911 0.4870160222 4287503146
-0.3071260452 -0.1048542857 0.4879294932 4288292914
-0.3071767688 -0.1043293849 0.4880100489 4289214016
-0.3072272539 -0.1038042307 0.4880902767 4289546318
-0.3072775006 -0.1032788157 0.4881700873 4290796385
-0.3073274791 -0.1027531400 0.4882495403 4290735473
-0.3073772490 -0.1022272110 0.4883286059 4291853954
-0.3079514205 -0.1018745825 0.4892407358 4291594894
-0.3080007732 -0.1013472453 0.4893191755 4292515996
-0.3080499172 -0.1008196548 0.4893972278 4292387755
-0.3086236715 -0.1004626676 0.4903087616 4292387755
-0.3086723983 -0.0999336764 0.4903861880 4292127154
-0.3092459142 -0.0995734930 0.4912973344 4291600810
-0.3092942536 -0.0990431011 0.4913741052 4291535002
-0.3098675311 -0.0986797139 0.4922848940 4290613900
-0.3099154830 -0.0981479287 0.4923610389 4290271072
-0.3099631369 -0.0976158977 0.4924367666 4287376180
-0.3100105822 -0.0970836207 0.4925121367 4287961629
-0.3105832934 -0.0967147425 0.4934220016 4288093215
-0.3106303215 -0.0961810797 0.4934967160 4287110187
-0.3106771111 -0.0956471711 0.4935710430 4292439420
-0.3112493753 -0.0952739567 0.4944802225 4291146162
-0.3112957478 -0.0947386622 0.4945538938 4291080369
-0.3118677735 -0.0943622589 0.4954626560 4292836748
-0.3119137287 -0.0938255861 0.4955356419 4292244611
-0.3124854863 -0.0934459940 0.4964440167 4291255659
-0.3135833144 -0.0932207629 0.4981881082 4287637044
-0.3136287332 -0.0926806629 0.4982602894 4287768115
-0.3136739135 -0.0921403319 0.4983320534 4293623692
-0.3142452240 -0.0917534530 0.4992396832 4293688969
-0.3142899573 -0.0912117511 0.4993107617 4290267733
-0.3148609698 -0.0908216909 0.5002179146 4288419100
-0.3154318929 -0.0904295817 0.5011249185 4288287514
-0.3160026968 -0.0900354311 0.5020318031 4290327356
-0.3165734112 -0.0896392390 0.5029384494 4291182665
-0.3171440065 -0.0892409980 0.5038449764 4287631640
-0.3177144825 -0.0888407081 0.5047512650 4288552742
-0.3182848394 -0.0884383768 0.5056574345 4288547863
-0.3188551068 -0.0880339965 0.5065633655 4288745242
-0.3194252253 -0.0876275748 0.5074691176 4291507534
-0.3199952543 -0.0872191042 0.5083747506 4291375948
-0.3205651641 -0.0868085921 0.5092801452 4289597219
-0.3211349249 -0.0863960385 0.5101853609 4290255149
-0.3222319782 -0.0861223862 0.5119282007 4288963197
-0.3228015900 -0.0857048333 0.5128331184 4288107888
-0.3233710527 -0.0852852315 0.5137378573 4284704626
-0.3305577934 -0.1492934972 0.5260836482 4287388251
-0.3264890015 -0.1468785405 0.5196081400 4287190872
-0.3235217929 -0.1443995386 0.5148858428 4286991183
-0.3189303875 -0.1417862773 0.5075786114 4286660929
-0.3205510378 -0.1419399381 0.5101578832 4286463550
-0.3201002777 -0.1411743164 0.5094404817 4285999149
-0.3175767958 -0.1394998133 0.5054243803 4285472805
-0.3166065216 -0.1385137737 0.5038802028 4287239964
-0.3145990372 -0.1370792091 0.5006852746 4287174171
-0.3141456544 -0.1363261491 0.4999637008 4287435284
-0.3121363223 -0.1349022537 0.4967658520 4287369491
-0.3132375479 -0.1348242909 0.4985184371 4286713872
-0.3133015633 -0.1342978477 0.4986203313 4286582286
-0.3118088841 -0.1331066489 0.4962447286 4286713361
-0.3113532066 -0.1323615611 0.4955195189 4286581775
-0.3108971119 -0.1316179186 0.4947936237 4286843148
-0.3104405403 -0.1308756918 0.4940670133 4286908941
-0.3094643354 -0.1299169213 0.4925133586 4287040527
-0.3090068102 -0.1291784346 0.4917852283 4287303699
-0.3090683222 -0.1286576241 0.4918830991 4287173140
-0.3086100519 -0.1279211491 0.4911537468 4287173140
-0.3086709976 -0.1274006069 0.4912507534 4287304726
-0.3082119524 -0.1266661435 0.4905202091 4287238933
-0.3082723618 -0.1261458546 0.4906163216 4287303188
-0.3083325326 -0.1256252527 0.4907120764 4287237395
-0.3073523641 -0.1246824190 0.4891521335 4287107090
-0.3079320192 -0.1243730634 0.4900746942 4287107090
-0.3079914153 -0.1238524392 0.4901692271 4287304469
-0.3075302243 -0.1231231838 0.4894352257 4287501848
-0.3070686162 -0.1223953888 0.4887005687 4287698459
-0.3071271181 -0.1218756214 0.4887936711 4287698459
-0.3066647649 -0.1211498752 0.4880578220 4287501596
-0.3062019646 -0.1204255968 0.4873212874 4287501596
-0.3062596023 -0.1199067160 0.4874130189 4287239451
-0.3063170016 -0.1193875372 0.4875043631 4288094760
-0.3058531284 -0.1186659113 0.4867661297 4289017404
-0.3059099913 -0.1181470379 0.4868566096 4289148990
-0.3059666157 -0.1176278740 0.4869467318 4287834413
-0.3055016696 -0.1169089228 0.4862067699 4287505448
-0.3055577576 -0.1163900718 0.4862960279 4287966770
-0.3056135774 -0.1158709303 0.4863848984 4287637805
-0.3056691885 -0.1153515130 0.4864734113 4287373092
-0.3052028716 -0.1146358475 0.4857312441 4288228401
-0.3052579165 -0.1141167507 0.4858188629 4288426808
-0.3047908545 -0.1134031862 0.4850755036 4287637292
-0.3048453629 -0.1128844172 0.4851622581 4287106836
-0.3048996329 -0.1123653650 0.4852486253 4286909457
-0.3049536645 -0.1118460447 0.4853346348 4287236112
-0.3050074875 -0.1113264412 0.4854202867 4287038733
-0.3050610721 -0.1108065695 0.4855055511 4286255902
-0.3051144183 -0.1102864221 0.4855904579 4289940310
-0.3051675260 -0.1097659990 0.4856750071 4291000187
-0.3052204251 -0.1092453077 0.4857591689 4291723910
-0.3052730560 -0.1087243482 0.4858429432 4290078565
-0.3053254783 -0.1082031131 0.4859263599 4288170568
-0.3053776622 -0.1076816171 0.4860094190 4287576639
-0.3054296076 -0.1071598530 0.4860920906 4287313467
-0.3054813147 -0.1066378206 0.4861744046 4288491320
-0.3060559630 -0.1062972248 0.4870889485 4289149250
-0.3066305518 -0.1059545800 0.4880034029 4289937737
-0.3066817522 -0.1054299697 0.4880848527 4289871944
-0.3067326844 -0.1049050987 0.4881659448 4289872199
-0.3067833781 -0.1043799594 0.4882466197 4290069578
-0.3068338633 -0.1038545668 0.4883269668 4289216837
-0.3068840802 -0.1033289135 0.4884068966 4288953665
-0.3074578643 -0.1029784307 0.4893200397 4287511098
-0.3075076938 -0.1024513692 0.4893993735 4287182133
-0.3075572848 -0.1019240469 0.4894782901 4286527548
-0.3076066375 -0.1013964713 0.4895568490 4288961889
-0.3076557517 -0.1008686423 0.4896350205 4290807179
-0.3082288504 -0.1005114987 0.4905470610 4291662488
-0.3082775474 -0.0999822617 0.4906246066 4291203481
-0.3088503778 -0.0996219218 0.4915362597 4290348172
-0.3088987172 -0.0990912840 0.4916131794 4290669940
-0.3094713092 -0.0987277403 0.4925244749 4290867319
-0.3095192015 -0.0981957093 0.4926007092 4291189351
-0.3095668852 -0.0976634324 0.4926765561 4289873491
-0.3096143007 -0.0971309096 0.4927520454 4288424238
-0.3101863265 -0.0967618674 0.4936624169 4287503136
-0.3102333248 -0.0962279588 0.4937372208 4287567916
-0.3108051121 -0.0958557203 0.4946472049 4289541706
-0.3108516932 -0.0953204185 0.4947213829 4289955207
-0.3108980656 -0.0947848782 0.4947951436 4290942102
-0.3114694059 -0.0944083035 0.4957044423 4292111993
-0.3115153313 -0.0938713849 0.4957775474 4289217101
-0.3120864034 -0.0934916139 0.4966863990 4287636015
-0.3131828606 -0.0932662860 0.4984314144 4286780706
-0.3132282794 -0.0927259400 0.4985037148 4288287270
-0.3132734597 -0.0921853557 0.4985755682 4290392646
-0.3138440549 -0.0917983055 0.4994837046 4291505970
-0.3138887882 -0.0912563503 0.4995549023 4290058524
-0.3144591153 -0.0908661112 0.5004625916 4289989392
-0.3150293529 -0.0904738232 0.5013701320 4290120978
-0.3155994713 -0.0900794938 0.5022774935 4289792793
-0.3161695004 -0.0896831155 0.5031846762 4289858586
-0.3167394102 -0.0892846882 0.5040916800 4289794850
-0.3173092008 -0.0888842195 0.5049985051 4289465885
-0.3178788722 -0.0884817019 0.5059051514 4289596703
-0.3184484541 -0.0880771354 0.5068116188 4290583598
-0.3190178871 -0.0876705274 0.5077179074 4293283179
-0.3201137483 -0.0874056295 0.5094619393 4292625249
-0.3206830323 -0.0869940147 0.5103679299 4289070875
-0.3212521970 -0.0865803584 0.5112738013 4289991977
-0.3223479390 -0.0863056704 0.5130176544 4288702330
-0.3229169250 -0.0858870074 0.5139232278 4287715435
-0.3234857917 -0.0854662955 0.5148285627 4286808973
-0.3245158494 -0.1462493986 0.5173824430 4287387992
-0.3282029033 -0.1473296583 0.5232607722 4287650140
-0.3225858808 -0.1442367584 0.5143054724 4286531659
-0.3205857575 -0.1427745670 0.5111166239 4286990664
-0.3211704493 -0.1424660385 0.5120487809 4287517008
-0.3170995116 -0.1400985271 0.5055584311 4287710795
-0.3182006180 -0.1400213391 0.5073139071 4286526521
-0.3156793416 -0.1383526921 0.5032942295 4286388767
-0.3147096634 -0.1373702139 0.5017482042 4285928216
-0.3137392998 -0.1363908947 0.5002011657 4286780692
-0.3132860959 -0.1356389374 0.4994786084 4286846485
-0.3117966056 -0.1344417334 0.4971038997 4286583313
-0.3118603826 -0.1339167953 0.4972055852 4286451727
-0.3114058077 -0.1331699640 0.4964807928 4286516752
-0.3109507561 -0.1324245483 0.4957553446 4286385166
-0.3104953170 -0.1316805780 0.4950291812 4286450446
-0.3100394011 -0.1309380233 0.4943023324 4286582032
-0.3095830679 -0.1301968992 0.4935747981 4286647566
-0.3096449971 -0.1296744347 0.4936735034 4286910738
-0.3091878891 -0.1289353222 0.4929447472 4286911251
-0.3087303638 -0.1281976402 0.4922153056 4286911251
-0.3087913990 -0.1276759803 0.4923126101 4287304726
-0.3083331287 -0.1269403249 0.4915819764 4287304726
-0.3083935976 -0.1264189333 0.4916783869 4287500054
-0.3079345524 -0.1256852746 0.4909465611 4287565847
-0.3074751198 -0.1249530837 0.4902140200 4287304469
-0.3070152104 -0.1242223457 0.4894808233 4287304469
-0.3070744872 -0.1237023771 0.4895752966 4287370262
-0.3066138625 -0.1229736730 0.4888409078 4287436055
-0.3061527908 -0.1222464293 0.4881058037 4287567387
-0.3062111735 -0.1217273250 0.4881989062 4287501594
-0.3057493567 -0.1210021302 0.4874626398 4287436314
-0.3058072031 -0.1204833165 0.4875548482 4287436314
-0.3058648109 -0.1199642047 0.4876466990 4287042585
-0.3059222102 -0.1194448024 0.4877381921 4288226859
-0.3059793711 -0.1189251021 0.4878293276 4288952124
-0.3055158257 -0.1182037517 0.4870902896 4288623159
-0.3055724204 -0.1176843569 0.4871805310 4287308326
-0.3051081598 -0.1169650778 0.4864403307 4287637291
-0.3056849539 -0.1166447103 0.4873599410 4288362297
-0.3052200377 -0.1159266308 0.4866186976 4287704367
-0.3052756190 -0.1154069826 0.4867073298 4287112228
-0.3053309917 -0.1148870438 0.4867956042 4287835951
-0.3048649728 -0.1141716614 0.4860526323 4288691520
-0.3043985665 -0.1134577766 0.4853090346 4287836211
-0.3044530451 -0.1129387766 0.4853958786 4286713620
-0.3045073152 -0.1124195009 0.4854823947 4286647827
-0.3045613468 -0.1118999422 0.4855685234 4286974225
-0.3046151400 -0.1113801077 0.4856542945 4287105811
-0.3046686947 -0.1108600050 0.4857396781 4286188054
-0.3047220111 -0.1103396267 0.4858247042 4286845984
-0.3047751188 -0.1098189726 0.4859093726 4287574838
-0.3048279881 -0.1092980430 0.4859936535 4290140765
-0.3048806190 -0.1087768525 0.4860775769 4291262066
-0.3049330115 -0.1082553864 0.4861611128 4291130480
-0.3049851954 -0.1077336520 0.4862442911 4291392885
-0.3050371110 -0.1072116494 0.4863270819 4290669162
-0.3050888181 -0.1066893861 0.4864094853 4290794845
-0.3056627810 -0.1063486487 0.4873245656 4289807950
-0.3057140708 -0.1058249548 0.4874063730 4289017405
-0.3062878251 -0.1054810062 0.4883211255 4287898924
-0.3063387573 -0.1049558967 0.4884023070 4287305246
-0.3063894510 -0.1044305190 0.4884831309 4286778902
-0.3064399064 -0.1039048880 0.4885635674 4286777873
-0.3064901233 -0.1033789963 0.4886436164 4286909459
-0.3070631921 -0.1030283645 0.4895572960 4286712080
-0.3071130216 -0.1025010571 0.4896367192 4287106838
-0.3076858819 -0.1021472141 0.4905500412 4287303447
-0.3077352941 -0.1016184986 0.4906288385 4286711310
-0.3077844679 -0.1010895297 0.4907072783 4289275697
-0.3078334332 -0.1005603075 0.4907853007 4292762726
-0.3078821301 -0.1000308320 0.4908629358 4291182154
-0.3084542751 -0.0996703282 0.4917751253 4288089883
-0.3085025847 -0.0991394520 0.4918521345 4287628554
-0.3090744913 -0.0987757444 0.4927639365 4288089105
-0.3091223836 -0.0982434675 0.4928403199 4288551194
-0.3091700375 -0.0977109522 0.4929162860 4289998640
-0.3092174530 -0.0971781835 0.4929918647 4290388000
-0.3097887933 -0.0968089774 0.4939027727 4289335312
-0.3098357618 -0.0962748155 0.4939776957 4288941845
-0.3104068637 -0.0959024131 0.4948881865 4288941845
-0.3104534447 -0.0953668654 0.4949624538 4288945180
-0.3110242784 -0.0949912667 0.4958725274 4289274145
-0.3110704422 -0.0944543332 0.4959461391 4288156426
-0.3111163378 -0.0939171687 0.4960193336 4288024840
-0.3116867542 -0.0935372263 0.4969287217 4288547085
-0.3122570515 -0.0931552425 0.4978379607 4288941843
-0.3133521378 -0.0929268599 0.4995838702 4289400595
-0.3133973479 -0.0923851207 0.4996559620 4289663767
-0.3134423196 -0.0918431431 0.4997276664 4289729310
-0.3134870529 -0.0913009346 0.4997989833 4289531931
-0.3140566945 -0.0909105167 0.5007071495 4289467160
-0.3146262169 -0.0905180573 0.5016152263 4289269781
-0.3151956797 -0.0901235417 0.5025230646 4289467937
-0.3157649934 -0.0897269845 0.5034307837 4289007386
-0.3163342178 -0.0893283710 0.5043382645 4290122787
-0.3169033229 -0.0889277160 0.5052456260 4289728029
-0.3174723089 -0.0885250121 0.5061528087 4289596701
-0.3180412054 -0.0881202668 0.5070597529 4289991459
-0.3186099827 -0.0877134651 0.5079665780 4292759145
-0.3197044432 -0.0874484479 0.5097115040 4292167008
-0.3202730417 -0.0870366469 0.5106180310 4289400864
-0.3208415210 -0.0866227970 0.5115243793 4290519345
-0.3214098811 -0.0862068981 0.5124305487 4289695118
-0.3219781220 -0.0857889503 0.5133364797 4290221462
-0.3230724037 -0.0855082273 0.5150811076 4290161075
-0.3260889351 -0.1477976888 0.5208126903 4287454044
-0.3271907866 -0.1477164924 0.5225725174 4287388251
-0.3220986426 -0.1448459625 0.5144395828 4287125081
-0.3221670389 -0.1443050057 0.5145487785 4286467151
-0.3201695681 -0.1428421438 0.5113585591 4288308324
-0.3192040324 -0.1418449432 0.5098164678 4289361012
-0.3177212179 -0.1406221986 0.5074481368 4290215042
-0.3167542219 -0.1396321356 0.5059037805 4289951870
-0.3152697682 -0.1384182870 0.5035328865 4288567131
-0.3143014014 -0.1374353766 0.5019862056 4285474860
-0.3133323491 -0.1364556253 0.5004385114 4285601297
-0.3128798306 -0.1357033253 0.4997157454 4285535504
-0.3119095862 -0.1347290128 0.4981661439 4286321170
-0.3109387159 -0.1337578744 0.4966154993 4286518549
-0.3104846478 -0.1330115795 0.4958903193 4286583315
-0.3100301623 -0.1322667152 0.4951644242 4286320143
-0.3095752597 -0.1315232813 0.4944378436 4286188559
-0.3091199100 -0.1307812780 0.4937105775 4286254352
-0.3091820180 -0.1302588880 0.4938097894 4286516752
-0.3092438877 -0.1297362000 0.4939086437 4286779924
-0.3087874651 -0.1289967448 0.4931796193 4286911251
-0.3083305955 -0.1282587498 0.4924499393 4286977044
-0.3083916008 -0.1277368665 0.4925473630 4287239703
-0.3079339564 -0.1270008683 0.4918164909 4287239703
-0.3079944253 -0.1264792532 0.4919130206 4287566360
-0.3075360358 -0.1257452816 0.4911809266 4287763739
-0.3075959384 -0.1252239347 0.4912765920 4287633434
-0.3071368039 -0.1244919896 0.4905433059 4287633434
-0.3071961701 -0.1239709109 0.4906380773 4287502105
-0.3067362607 -0.1232409999 0.4899035692 4287436312
-0.3062759638 -0.1225125566 0.4891683757 4287436314
-0.3063344359 -0.1219923422 0.4892617762 4287436314
-0.3058733642 -0.1212659404 0.4885253906 4287436314
-0.3059312701 -0.1207460165 0.4886178970 4287502107
-0.3059889674 -0.1202257946 0.4887100458 4287174171
-0.3060464561 -0.1197052822 0.4888018370 4288095273
-0.3055839837 -0.1189821213 0.4880631864 4288491573
-0.3056409061 -0.1184619069 0.4881540835 4288096815
-0.3056975603 -0.1179414019 0.4882446229 4287177253
-0.3052340448 -0.1172209084 0.4875043035 4287966769
-0.3052901626 -0.1167007163 0.4875939488 4288757055
-0.3048259020 -0.1159823090 0.4868524075 4288033332
-0.3048814535 -0.1154624298 0.4869411886 4287308580
-0.3049368262 -0.1149422675 0.4870295823 4287834924
-0.3049919307 -0.1144218221 0.4871176183 4288756285
-0.3045262694 -0.1137067229 0.4863738716 4288032562
-0.3045808375 -0.1131866053 0.4864610136 4286713361
-0.3046351671 -0.1126662046 0.4865477979 4286647568
-0.3046892583 -0.1121455282 0.4866341949 4286712078
-0.3047431111 -0.1116245762 0.4867202342 4286843664
-0.3047967553 -0.1111033410 0.4868058860 4286975514
-0.3048501611 -0.1105818376 0.4868911803 4286646549
-0.3043821454 -0.1098719239 0.4861436784 4286515730
-0.3044349849 -0.1093507633 0.4862280786 4286844695
-0.3050089777 -0.1090156883 0.4871448576 4287702309
-0.3050614595 -0.1084930971 0.4872286618 4287570723
-0.3051137030 -0.1079702377 0.4873120785 4287898154
-0.3051657081 -0.1074471101 0.4873951375 4287503396
-0.3052174747 -0.1069237143 0.4874778092 4287370523
-0.3052690029 -0.1064000502 0.4875601232 4286975765
-0.3053202927 -0.1058761254 0.4876420498 4286975250
-0.3058933616 -0.1055320278 0.4885573089 4286909457
-0.3059442639 -0.1050066724 0.4886386395 4287303186
-0.3059949279 -0.1044810638 0.4887195528 4287434772
-0.3065676391 -0.1041325927 0.4896342456 4287828503
-0.3066179156 -0.1036055610 0.4897145629 4287762710
-0.3066679537 -0.1030782759 0.4897944927 4287959575
-0.3067177534 -0.1025507301 0.4898740351 4287827989
-0.3072899282 -0.1021967381 0.4907878637 4288156438
-0.3073393404 -0.1016677767 0.4908667803 4287695887
-0.3073885143 -0.1011385694 0.4909453094 4288285455
-0.3074374497 -0.1006091088 0.4910234511 4289535522
-0.3080090582 -0.1002495959 0.4919364154 4289007127
-0.3080575764 -0.0997187272 0.4920139313 4288546576
-0.3086289763 -0.0993560031 0.4929265082 4288613655
-0.3086771071 -0.0988237336 0.4930033684 4288679448
-0.3087249696 -0.0982912183 0.4930798411 4288154387
-0.3087726235 -0.0977584496 0.4931559265 4288220180
-0.3088200092 -0.0972254425 0.4932315946 4289071891
-0.3093906641 -0.0968560725 0.4941430092 4289203477
-0.3094376326 -0.0963216648 0.4942180514 4288941080
-0.3100080192 -0.0959490985 0.4951290786 4288941080
-0.3100546002 -0.0954133049 0.4952034354 4289334032
-0.3106247485 -0.0950375348 0.4961140454 4289005067
-0.3106708825 -0.0945003554 0.4961877465 4288743173
-0.3107167780 -0.0939629376 0.4962610602 4289269517
-0.3112865090 -0.0935828239 0.4971709549 4289136149
-0.3118560910 -0.0932006687 0.4980807304 4289728286
-0.3124256134 -0.0928164572 0.4989903271 4289072148
-0.3129950464 -0.0924301967 0.4998997450 4288874769
-0.3130399883 -0.0918879658 0.4999715686 4289858592
-0.3130846918 -0.0913455039 0.5000429749 4289595420
-0.3136536479 -0.0909549147 0.5009517074 4289466138
-0.3142225146 -0.0905622691 0.5018602014 4289268759
-0.3147912621 -0.0901675746 0.5027685761 4289269270
-0.3153598905 -0.0897708386 0.5036768317 4289400856
-0.3159284294 -0.0893720463 0.5045848489 4289858322
-0.3164968491 -0.0889712051 0.5054926872 4290121494
-0.3170651793 -0.0885683149 0.5064003468 4289531929
-0.3181583881 -0.0883091018 0.5081464052 4289926687
-0.3187265396 -0.0879012048 0.5090538263 4292892529
-0.3192945719 -0.0874912590 0.5099610686 4291774048
-0.3198624849 -0.0870792642 0.5108680725 4289924904
-0.3204302788 -0.0866652206 0.5117749572 4290846006
-0.3209979236 -0.0862491354 0.5126816034 4291133070
-0.3215654790 -0.0858309940 0.5135880709 4292909481
-0.3221329153 -0.0854108110 0.5144942999 4290616487
-0.3232257664 -0.0851269886 0.5162397623 4289629592
-0.3236030042 -0.1469316036 0.5177607536 4287322460
-0.3267646730 -0.1477862597 0.5228193402 4287388253
-0.3247722983 -0.1463078260 0.5196315646 4286731351
-0.3202685118 -0.1431402117 0.5124255419 4289823105
-0.3187885582 -0.1419120580 0.5100576878 4291204758
-0.3162758350 -0.1402312517 0.5060373545 4291073950
-0.3173741996 -0.1401540488 0.5077947378 4290547606
-0.3153757751 -0.1387108862 0.5045972466 4289758858
-0.3144088089 -0.1377266645 0.5030501485 4286206036
-0.3134412169 -0.1367456019 0.5015019774 4285870121
-0.3124729395 -0.1357676983 0.4999527931 4284620054
-0.3115040362 -0.1347929537 0.4984025359 4285927954
-0.3110511899 -0.1340440363 0.4976779819 4286322712
-0.3105978966 -0.1332965344 0.4969527125 4286779413
-0.3101441562 -0.1325504780 0.4962267280 4286582034
-0.3096899986 -0.1318058372 0.4955000877 4286319891
-0.3092353940 -0.1310626268 0.4947727323 4286319891
-0.3087803721 -0.1303208619 0.4940446913 4286713622
-0.3083249032 -0.1295805275 0.4933159649 4286911001
-0.3078690171 -0.1288416237 0.4925865531 4286910997
-0.3079302311 -0.1283198297 0.4926844835 4287042583
-0.3074735701 -0.1275829375 0.4919538498 4287305755
-0.3075342476 -0.1270614117 0.4920509160 4287239962
-0.3070768416 -0.1263265312 0.4913190603 4287370010
-0.3071369529 -0.1258052737 0.4914152324 4287633182
-0.3071968257 -0.1252836883 0.4915110469 4287699227
-0.3067383468 -0.1245514154 0.4907774925 4287699227
-0.3067976832 -0.1240301132 0.4908724129 4287567387
-0.3063384295 -0.1232998818 0.4901376367 4287435801
-0.3058787882 -0.1225711107 0.4894021749 4287435801
-0.3059372306 -0.1220506653 0.4894956946 4287501594
-0.3059954643 -0.1215299293 0.4895888567 4287502109
-0.3055347204 -0.1208037883 0.4888516963 4287502109
-0.3055923879 -0.1202833429 0.4889439642 4287239964
-0.3056498468 -0.1197625995 0.4890358746 4287897894
-0.3051880300 -0.1190391183 0.4882969856 4288162608
-0.3052449226 -0.1185186729 0.4883880317 4288162608
-0.3053015769 -0.1179979369 0.4884786904 4287440425
-0.3048387170 -0.1172771305 0.4877380729 4287835183
-0.3054142296 -0.1169556081 0.4886589050 4288493628
-0.3049506843 -0.1162359938 0.4879172742 4288098870
-0.3044867516 -0.1155178621 0.4871749580 4287767851
-0.3045420647 -0.1149974689 0.4872635007 4288228402
-0.3045971692 -0.1144767925 0.4873516560 4288688440
-0.3041321635 -0.1137613729 0.4866076112 4288359475
-0.3041867018 -0.1132410169 0.4866949022 4287368981
-0.3042410314 -0.1127203926 0.4867818058 4287171602
-0.3042950928 -0.1121994853 0.4868683219 4286909711
-0.3043489456 -0.1116782948 0.4869544804 4286909711
-0.3044025600 -0.1111568362 0.4870402813 4287302936
-0.3044559658 -0.1106351018 0.4871256948 4287434522
-0.3045091033 -0.1101130918 0.4872107506 4287630613
-0.3045620322 -0.1095908061 0.4872954190 4287235855
-0.3040940166 -0.1088818088 0.4865465760 4288028449
