VERSION 0.7
FIELDS x y z rgba
SIZE 4 4 4 4
TYPE F F F U
COUNT 1 1 1 1
WIDTH 920
HEIGHT 1
VIEWPOINT 0.0 0.0 0.0 1.0 0.0 0.0 0.0
POINTS 920
DATA ascii
-0.3947778642 -0.0953623652 0.5036520958 4284307548
-0.3948280513 -0.0948148295 0.5037161112 4283189837
-0.3948779702 -0.0942670777 0.5037798285 4284505697
-0.3937068284 -0.0934294164 0.5022856593 4284571749
-0.3793809116 -0.1084676012 0.4846956730 4283650901
-0.3838573694 -0.1075679064 0.4904147983 4283715154
-0.3851284981 -0.1073774248 0.4920387566 4283583568
-0.3851845860 -0.1068462953 0.4921104610 4283319626
-0.3852404654 -0.1063149422 0.4921818078 4282727489
-0.3852960467 -0.1057833508 0.4922528267 4283122247
-0.3853513598 -0.1052515358 0.4923235178 4283253833
-0.3860143423 -0.1048846617 0.4931704998 4283517005
-0.3860692084 -0.1043515503 0.4932406247 4283451212
-0.3867318928 -0.1039817035 0.4940872788 4283188810
-0.3837455809 -0.1026340351 0.4902719557 4282728259
-0.3844075799 -0.1022654176 0.4911177158 4282728259
-0.3844611347 -0.1017339304 0.4911861420 4282728259
-0.3845144510 -0.1012022197 0.4912542701 4282793282
-0.3845674992 -0.1006702855 0.4913220406 4283122247
-0.3846202791 -0.1001381353 0.4913894534 4282990661
-0.3846727908 -0.0996057615 0.4914565384 4283188040
-0.3847250342 -0.0990731716 0.4915232956 4283319626
-0.3847770095 -0.0985403657 0.4915897250 4283319626
-0.3866554499 -0.0984725729 0.4939895868 4283188038
-0.3891430795 -0.0985537320 0.4971677959 4282990659
-0.3904129863 -0.0983211473 0.4987902045 4283188808
-0.3916829228 -0.0980849713 0.5004126430 4282728257
-0.3905159831 -0.0972384140 0.4989218116 4282728259
-0.3917856812 -0.0969984308 0.5005439520 4283451982
-0.3942742348 -0.0970548689 0.5037233233 4283320655
-0.3924968541 -0.0960602015 0.5014525652 4283452241
-0.3937664628 -0.0958119705 0.5030745864 4284044379
-0.3938168585 -0.0952652097 0.5031389594 4284439137
-0.3938669562 -0.0947182402 0.5032030344 4283649621
-0.3933070302 -0.0940252841 0.5024876595 4284504930
-0.3927466571 -0.0933338180 0.5017716885 4284308065
-0.3754018843 -0.1074824855 0.4802936018 4283847767
-0.3784907162 -0.1078288332 0.4842455089 4283979353
-0.3815802038 -0.1081665754 0.4881982505 4283847767
-0.3840636313 -0.1083245948 0.4913755357 4283650388
-0.3847270012 -0.1079648063 0.4922242761 4283517775
-0.3847833872 -0.1074336544 0.4922964275 4283451982
-0.3848395050 -0.1069022641 0.4923682213 4283123017
-0.3836811781 -0.1060350910 0.4908862412 4282596673
-0.3843437731 -0.1056718603 0.4917339981 4282990661
-0.3850063086 -0.1053067148 0.4925816059 4283188040
-0.3856687248 -0.1049396694 0.4934291244 4283451212
-0.3857236207 -0.1044062898 0.4934993684 4283385419
-0.3869932890 -0.1041998416 0.4951238036 4282925638
-0.3870478272 -0.1036643311 0.4951935709 4282728259
-0.3834559321 -0.1021572128 0.4905980527 4282662466
-0.3841172159 -0.1017873585 0.4914441109 4282794052
-0.3847783804 -0.1014155895 0.4922900200 4282661696
-0.3843288720 -0.0996581241 0.4917149246 4283517005
-0.3843811452 -0.0991252735 0.4917817712 4283123274
-0.3844331205 -0.0985921994 0.4918482900 4283189067
-0.3850932121 -0.0982140675 0.4926928282 4282925895
-0.3863616288 -0.0979883447 0.4943156540 4283254860
-0.3882386386 -0.0979125053 0.4967171252 4283189067
-0.3913330734 -0.0981366187 0.5006761551 4282925895
-0.3913846016 -0.0975931808 0.5007420778 4282794309
-0.3920957148 -0.0966557562 0.5016518831 4284703078
-0.3939732611 -0.0965585560 0.5040540695 4283321425
-0.3940240443 -0.0960108861 0.5041189790 4283518549
-0.3934654295 -0.0953154564 0.5034043193 4284571237
-0.3941247165 -0.0949149057 0.5042478442 4284308065
-0.3935654163 -0.0942207500 0.5035322309 4284439651
-0.3923963606 -0.0933830813 0.5020365715 4284308065
-0.3775444925 -0.1077123135 0.4837222397 4283979353
-0.3806875348 -0.1075251698 0.4877492487 4283453009
-0.3825625181 -0.1075101644 0.4901514947 4283451982
-0.3832249939 -0.1071508005 0.4910003245 4283386189
-0.3832809627 -0.1066208333 0.4910719991 4283123017
-0.3827300966 -0.1059227660 0.4903662205 4282662466
-0.3833920658 -0.1055601984 0.4912143648 4282859845
-0.3834472299 -0.1050295308 0.4912850559 4282991431
-0.3847157657 -0.1048293337 0.4929103255 4283188810
-0.3853774667 -0.1044610366 0.4937581420 4283123017
-0.3860390782 -0.1040908322 0.4946058095 4283122247
-0.3867006302 -0.1037187204 0.4954533875 4282990661
-0.3843263090 -0.1025347933 0.4924113154 4282727489
-0.3831655085 -0.1016796455 0.4909240901 4282924868
-0.3838260472 -0.1013085470 0.4917704165 4282859075
-0.3839844465 -0.0997105017 0.4919733405 4283319626
-0.3846443594 -0.0993343070 0.4928188324 4283255889
-0.3846964538 -0.0988001227 0.4928855598 4283058510
-0.3866235018 -0.0981942937 0.4953545630 4282992718
-0.3884989619 -0.0981175750 0.4977574646 4283058511
-0.3891585171 -0.0977301672 0.4986025095 4283255890
-0.3898179531 -0.0973408520 0.4994474053 4283058511
-0.3910855055 -0.0971006453 0.5010714531 4285163887
-0.3923530877 -0.0968568400 0.5026955605 4285361266
-0.3936207294 -0.0966094360 0.5043196678 4284111199
-0.3930630386 -0.0959130153 0.5036051273 4284637543
-0.3931134641 -0.0953657031 0.5036697388 4284900715
-0.3931635916 -0.0948181823 0.5037339330 4284374371
-0.3926047683 -0.0941245183 0.5030179620 4284637543
-0.3914367259 -0.0932872668 0.5015214682 4284637543
-0.3902681172 -0.0924532041 0.5000241995 4283321683
-0.3791333437 -0.1072387844 0.4864501655 4283453009
-0.3804007471 -0.1070549935 0.4880763292 4283451980
-0.3816682696 -0.1068676114 0.4897026122 4283386187
-0.3823299408 -0.1065078452 0.4905516207 4283188808
-0.3823855519 -0.1059782207 0.4906229675 4282794050
-0.3824409246 -0.1054483652 0.4906939864 4282794563
-0.3824959993 -0.1049182788 0.4907646775 4282926149
-0.3837633431 -0.1047188342 0.4923907518 4283057222
-0.3844244480 -0.1043512002 0.4932389557 4282991429
-0.3856918812 -0.1041454077 0.4948651493 4282990659
-0.3863528669 -0.1037731171 0.4957132339 4283122245
-0.3845873177 -0.1027506515 0.4934479594 4282990146
-0.3828210235 -0.1017330065 0.4911817014 4282792767
-0.3840878308 -0.1015221104 0.4928070605 4282793280
-0.3853546977 -0.1013076156 0.4944325387 4283122245
-0.3854077458 -0.1007721350 0.4945006073 4283122245
-0.3848535120 -0.1000785902 0.4937894940 4283780175
-0.3842988312 -0.0993865058 0.4930778146 4284374630
-0.3849581182 -0.0990082175 0.4939236939 4285493111
-0.3862245679 -0.0987833515 0.4955486357 4285953662
-0.3862763643 -0.0982459337 0.4956150949 4286874764
-0.3899724782 -0.0986300781 0.5003574491 4286611594
-0.3882016838 -0.0976288095 0.4980854094 4285229941
-0.3906832933 -0.0976959616 0.5012694597 4284045408
-0.3907345831 -0.0971517637 0.5013352633 4284703338
-0.3907855749 -0.0966073573 0.5014007092 4284769131
-0.3932676613 -0.0966603234 0.5045853257 4284440166
-0.3921025991 -0.0958149955 0.5030905008 4285624438
-0.3939768970 -0.0957113653 0.5054953098 4285361266
-0.3922030032 -0.0947213098 0.5032193065 4284242787
-0.3916446567 -0.0940281451 0.5025029182 4284571752
-0.3898694217 -0.0930461511 0.5002251863 4285163889
-0.3757097125 -0.1069584265 0.4827453792 4283519315
-0.3775807619 -0.1069520488 0.4851495028 4283519315
-0.3782417178 -0.1065992936 0.4859987497 4283583568
-0.3795078695 -0.1064143479 0.4876256287 4283517775
-0.3795634210 -0.1058880538 0.4876969755 4283254860
-0.3802241385 -0.1055295616 0.4885459244 4283057481
-0.3808847666 -0.1051691696 0.4893947840 4282925895
-0.3809396923 -0.1046405062 0.4894653261 4283057481
-0.3822057843 -0.1044426486 0.4910921156 4283123017
-0.3828661442 -0.1040765196 0.4919406474 4283123017
-0.3853440881 -0.1041999981 0.4951245189 4283056454
-0.3860045373 -0.1038275212 0.4959731102 4282924868
-0.3836345971 -0.1026423797 0.4929280281 4282859075
-0.3830821514 -0.1019476801 0.4922181666 4282793282
-0.3837417364 -0.1015753746 0.4930656552 4283056454
-0.3844012022 -0.1012011617 0.4939129949 4283122247
-0.3850605786 -0.1008250415 0.4947602153 4282728259
-0.3851133585 -0.1002890766 0.4948280454 4284175705
-0.3851659000 -0.0997528955 0.4948955476 4285295734
-0.3846115172 -0.0990602449 0.4941832125 4285624699
-0.3852701485 -0.0986798629 0.4950295091 4285493113
-0.3877491057 -0.0987612531 0.4982146621 4285295734
-0.3890146315 -0.0985282362 0.4998407662 4285098357
-0.3890663087 -0.0979858860 0.4999071658 4283124567
-0.3903318048 -0.0977473632 0.5015331507 4282729296
-0.3903830945 -0.0972028896 0.5015990734 4283058261
-0.3904341161 -0.0966582075 0.5016646385 4283913568
-0.3923067153 -0.0965617448 0.5040706992 4284900463
-0.3917500377 -0.0958654657 0.5033554435 4286348163
-0.3930152953 -0.0956140086 0.5049811602 4285690233
-0.3930655122 -0.0950650871 0.5050456524 4283650396
-0.3906850815 -0.0939316228 0.5019870996 4283584603
-0.3705338538 -0.1056356952 0.4767753780 4283519315
-0.3772389591 -0.1070079431 0.4854030013 4283453522
-0.3766900897 -0.1063137203 0.4846967757 4283649618
-0.3749313354 -0.1052813306 0.4824337661 4283583825
-0.3774055243 -0.1054365262 0.4856173396 4283452239
-0.3780654371 -0.1050803885 0.4864664674 4283386446
-0.3787252605 -0.1047223434 0.4873155057 4283057481
-0.3793850243 -0.1043623835 0.4881644249 4283189067
-0.3806498647 -0.1041661203 0.4897918999 4283189067
-0.3819147646 -0.1039662659 0.4914194942 4283123274
-0.3837850988 -0.1039267406 0.4938261211 4282925895
-0.3850502670 -0.1037188545 0.4954540133 4282728516
-0.3832879364 -0.1026961878 0.4931864142 4282925638
-0.3827360570 -0.1020011380 0.4924762845 4282991431
-0.3833950758 -0.1016286537 0.4933242500 4282991431
-0.3834482431 -0.1010945514 0.4933926761 4283123017
-0.3841069937 -0.1007190943 0.4942403138 4283649618
-0.3848181963 -0.0998052731 0.4951553941 4289374387
-0.3842643499 -0.0991122723 0.4944427907 4290098110
-0.3861348033 -0.0990426764 0.4968495369 4290558661
-0.3880054653 -0.0989677906 0.4992565811 4290032317
-0.3886636794 -0.0985800251 0.5001035333 4288650664
-0.3899281919 -0.0983432978 0.5017306209 4284637291
-0.3899797797 -0.0977987722 0.5017969608 4283255638
-0.3900310695 -0.0972540304 0.5018629432 4283189845
-0.3900820911 -0.0967090726 0.5019286275 4285361014
-0.3925597966 -0.0967621207 0.5051167011 4286347909
-0.3913969398 -0.0959159359 0.5036204457 4286347909
-0.3926610947 -0.0956643596 0.5052470565 4286282116
-0.3927113116 -0.0951151624 0.5053117275 4284834672
-0.3909401298 -0.0941272750 0.5030326843 4283979363
-0.3708014488 -0.1058632731 0.4778025448 4283519315
-0.3666828573 -0.1036374718 0.4724954665 4283782233
-0.3727786541 -0.1048266590 0.4803503156 4283650647
-0.3728333116 -0.1043082476 0.4804207683 4283518804
-0.3759095073 -0.1046306938 0.4843846262 4283453011
-0.3778319955 -0.1040839255 0.4868619144 4283189839
-0.3790955842 -0.1038892642 0.4884901047 4282992460
-0.3809639215 -0.1038558558 0.4908975959 4282795081
-0.3828325272 -0.1038171649 0.4933054149 4282729288
-0.3840965331 -0.1036100239 0.4949341714 4282466116
-0.3823357821 -0.1025876775 0.4926653206 4282268737
-0.3823893964 -0.1020546034 0.4927344024 4282466116
-0.3830478787 -0.1016819403 0.4935829043 4282466116
-0.3837062716 -0.1013073623 0.4944312871 4282597702
-0.3837592602 -0.1007719263 0.4944995940 4283058253
-0.3844173849 -0.1003943756 0.4953475893 4284374113
-0.3844699264 -0.0998576581 0.4954153001 4286347650
-0.3839166462 -0.0991643071 0.4947023690 4287005580
-0.3869967163 -0.0994058177 0.4986712635 4287926682
-0.3858373761 -0.0985556245 0.4971773326 4287926682
-0.3883121610 -0.0986318216 0.5003662705 4287466644
-0.3895756006 -0.0983949825 0.5019943118 4285098096
-0.3896271586 -0.0978501886 0.5020607710 4283847775
-0.3896784782 -0.0973051712 0.5021268725 4284571498
-0.3909417391 -0.0970609039 0.5037546754 4288782250
-0.3922050297 -0.0968130305 0.5053824782 4288453285
-0.3922558129 -0.0962639824 0.5054479241 4285361016
-0.3923063278 -0.0957147181 0.5055130124 4286413704
-0.3923565745 -0.0951652452 0.5055778027 4286940561
-0.3899805248 -0.0940306112 0.5025160909 4285229943
-0.3627280593 -0.1026666462 0.4680693448 4284111712
-0.3676106036 -0.1035215408 0.4743698239 4283848540
-0.3694757223 -0.1035170332 0.4767765999 4283519062
-0.3707372844 -0.1033389568 0.4784045517 4283519062
-0.3744687140 -0.1033052653 0.4832196236 4283190097
-0.3769388795 -0.1034462824 0.4864071906 4282795339
-0.3794094920 -0.1035803333 0.4895952940 4282466374
-0.3812762797 -0.1035433263 0.4920042455 4281940543
-0.3837476671 -0.1036642864 0.4951933324 4282137922
-0.3819885850 -0.1026414186 0.4929233789 4281874750
-0.3820421994 -0.1021080762 0.4929925799 4282137922
-0.3833047450 -0.1018959507 0.4946217537 4282268995
-0.3833580017 -0.1013604701 0.4946905077 4282597960
-0.3834109902 -0.1008247733 0.4947589040 4282663753
-0.3852782249 -0.1007634103 0.4971683919 4282071616
-0.3841211200 -0.0999100506 0.4956752360 4281807931
-0.3841733932 -0.0993728414 0.4957427084 4282268482
-0.3842254281 -0.0988354161 0.4958098233 4282729033
-0.3885132968 -0.0993813723 0.5013429523 4282663240
-0.3885653317 -0.0988375843 0.5014101267 4283057998
-0.3886170983 -0.0982935801 0.5014769435 4283189584
-0.3886686265 -0.0977493525 0.5015434027 4282861134
-0.3881143630 -0.0970535055 0.5008281469 4284834924
-0.3881652355 -0.0965096951 0.5008938313 4290624454
-0.3894271255 -0.0962650999 0.5025221705 4290756040
-0.3912947774 -0.0961657614 0.5049322248 4285493115
-0.3913452327 -0.0956170708 0.5049973130 4285558908
-0.3907895088 -0.0949210078 0.5042802095 4286414217
-0.3605883420 -0.1022075042 0.4659760594 4284703848
-0.3717137873 -0.1026924402 0.4803531170 4283059023
-0.3747849464 -0.1030027866 0.4843218625 4282729546
-0.3772531152 -0.1031394526 0.4875113666 4282268995
-0.3797217011 -0.1032691523 0.4907014370 4282137409
-0.3809831440 -0.1030652002 0.4923315942 4282071616
-0.3816408217 -0.1026951596 0.4931814969 4282071616
-0.3816944659 -0.1021615565 0.4932507873 4282071616
-0.3835599422 -0.1021101400 0.4956614673 4282137409
-0.3842174113 -0.1017335057 0.4965111017 4282532167
-0.3842705786 -0.1011958495 0.4965798259 4282860619
-0.3849277794 -0.1008162424 0.4974290729 4282794826
-0.3843761384 -0.1001198739 0.4967162311 4282861134
-0.3844285011 -0.0995815545 0.4967838824 4282992720
-0.3844805956 -0.0990430117 0.4968512356 4283321425
-0.3857416809 -0.0988140181 0.4984808564 4282992460
-0.3870027661 -0.0985814109 0.5001105666 4282992971
-0.3864496350 -0.0978856459 0.4993957281 4282927178
-0.3858960569 -0.0971913561 0.4986803532 4282992718
-0.3859469593 -0.0966500342 0.4987461567 4284440164
-0.3859975934 -0.0961085036 0.4988116026 4291019727
-0.3878632486 -0.0960161313 0.5012224913 4292335587
-0.3891239166 -0.0957695097 0.5028516650 4287795357
-0.3897793889 -0.0953711867 0.5036986470 4284834672
-0.3787719011 -0.1031589061 0.4901776016 4282268995
-0.3812386394 -0.1032825559 0.4933698475 4282203202
-0.3800859153 -0.1024237573 0.4918780923 4282203202
-0.3825529814 -0.1025385112 0.4950707853 4282137409
-0.3820030391 -0.1018418372 0.4943591058 4282268995
-0.3832633793 -0.1016267613 0.4959901273 4282532167
-0.3839201033 -0.1012488753 0.4968400300 4282860619
-0.3839730322 -0.1007107347 0.4969085157 4282860619
-0.3846294880 -0.1003298685 0.4977580309 4283058513
-0.3846819401 -0.0997904316 0.4978259504 4283058513
-0.3853381276 -0.0994065851 0.4986751080 4283321425
-0.3841820061 -0.0985559374 0.4971789420 4283124046
-0.3860460222 -0.0984790400 0.4995912015 4283124046
-0.3836806715 -0.0973239690 0.4965301454 4282860874
-0.3644612432 -0.1004538611 0.4723367691 4282532167
-0.3681286275 -0.1009345949 0.4770896435 4282334788
-0.3736045659 -0.1018980369 0.4841863513 4282334790
-0.3760683835 -0.1020285189 0.4873794615 4282334790
-0.3779298961 -0.1019893587 0.4897919595 4282334790
-0.3791888058 -0.1017830893 0.4914234877 4282400583
-0.3786390126 -0.1010902897 0.4907109439 4282466376
-0.3823098838 -0.1015198529 0.4954683483 4282597962
-0.3835690916 -0.1013019085 0.4971002638 4282794828
-0.3842251897 -0.1009219289 0.4979505539 4282860621
-0.3842779398 -0.1003824472 0.4980189204 4283058002
-0.3843303919 -0.0998427421 0.4980868995 4282992209
-0.3843826056 -0.0993028209 0.4981545508 4283057998
-0.3814170063 -0.0979874581 0.4943111837 4282992205
-0.3850897849 -0.0983765125 0.4990710616 4283189839
-0.3598617017 -0.0998480245 0.4670481086 4282664266
-0.3714025319 -0.1019790322 0.4820263982 4282268995
-0.3708536327 -0.1012935489 0.4813140333 4282268995
-0.3733149469 -0.1014274955 0.4845084250 4282334788
-0.3757766485 -0.1015544534 0.4877033830 4282466376
-0.3776365221 -0.1015125290 0.4901171923 4282532169
-0.3794966042 -0.1014653072 0.4925313294 4282597962
-0.3807545006 -0.1012525707 0.4941638708 4282663755
-0.3820124269 -0.1010362282 0.4957965016 4282794828
-0.3826678395 -0.1006577536 0.4966471195 4282860621
-0.3827204108 -0.1001197025 0.4967153370 4282926416
-0.3827727139 -0.0995814204 0.4967832565 4282860623
-0.3828247488 -0.0990429223 0.4968507886 4282794826
-0.3816706240 -0.0981939584 0.4953528941 4282860619
-0.3805159032 -0.0973481685 0.4938542247 4283123791
-0.3613865077 -0.0998939723 0.4697041512 4282400581
-0.3650469184 -0.1003786176 0.4744616747 4282268995
-0.3681066334 -0.1006883830 0.4784384668 4282334788
-0.3735732138 -0.1016441807 0.4855435193 4282334788
-0.3760327995 -0.1017703786 0.4887403250 4282465861
-0.3706702292 -0.0997837633 0.4817704558 4282597447
-0.3797496259 -0.1016795188 0.4935711622 4282663240
-0.3785988390 -0.1008246690 0.4920755029 4282729033
-0.3798554540 -0.1006107628 0.4937087297 4282860621
-0.3811121285 -0.1003932506 0.4953420460 4282926414
-0.3811645210 -0.0998566225 0.4954101741 4282992209
-0.3800122142 -0.0990059674 0.4939124882 4282992209
-0.3771033883 -0.0971589759 0.4901317954 4282795341
-0.3741417527 -0.0958556309 0.4862824678 4282861132
-0.3648146391 -0.0994045958 0.4748452306 4282400581
-0.3727333546 -0.1004842073 0.4851523042 4282729033
-0.3745895624 -0.1004428864 0.4875683486 4282794826
-0.3758446574 -0.1002358943 0.4892019629 4282860619
-0.3764983714 -0.0998657495 0.4900528491 4282926412
-0.3777535260 -0.0996523798 0.4916865826 4282992205
-0.3772039413 -0.0989618897 0.4909712076 4282992209
-0.3772555888 -0.0984298661 0.4910384715 4283123795
-0.3748999238 -0.0972730815 0.4879723191 4282926927
-0.3620756567 -0.0988011062 0.4719624519 4282663755
-0.3699341714 -0.1004097313 0.4822059572 4282794828
-0.3681845963 -0.0994016230 0.4799254239 4282860621
-0.3718406856 -0.0998501554 0.4846910834 4282992207
-0.3688887656 -0.0985232219 0.4808432758 4282992207
-0.3731462955 -0.0991199091 0.4863929451 4282992207
-0.3743999302 -0.0989106819 0.4880270362 4282992207
-0.3738504648 -0.0982240885 0.4873108268 4283058002
-0.3666434586 -0.0991290584 0.4786094427 4282926414
-0.3660949469 -0.0984497815 0.4778934419 4283123793
-0.3703479171 -0.0990563482 0.4834451973 4283123793
-0.3697992265 -0.0983732417 0.4827289283 4283058000
-0.3590068519 -0.0982481837 0.4693211913 4282926927
-0.3614556789 -0.0983933434 0.4725225270 4282992207
-0.3621064425 -0.0980445370 0.4733732045 4282992207
-0.3639562726 -0.0980167612 0.4757914841 4283058000
-0.3646070361 -0.0976624340 0.4766421914 4283058000
-0.3599725068 -0.0976084694 0.4712678492 4283058513
-0.4209062457 -0.1146811098 0.5753000379 4285164399
-0.4215894043 -0.1156830937 0.5771098733 4283125068
-0.4228136837 -0.1153759584 0.5787857771 4283453781
-0.4228730500 -0.1147489995 0.5788670778 4284111711
-0.4234923124 -0.1163821965 0.5805975199 4282137919
-0.4235521555 -0.1157534644 0.5806795359 4282598213
-0.4236116707 -0.1151244640 0.5807611346 4282664006
-0.4242528677 -0.1146524772 0.5816401839 4282729799
-0.4237298071 -0.1138656735 0.5809230804 4282861385
-0.4237884283 -0.1132358909 0.5810034275 4282795849
-0.4244289100 -0.1127605215 0.5818815827 4283322193
-0.4239046872 -0.1119755283 0.5811628699 4285690741
-0.4233800173 -0.1111920178 0.5804435611 4288125082
-0.4221192598 -0.1200456098 0.5795975924 4279834905
-0.4216001332 -0.1192547977 0.5788848400 4279966491
-0.4210805297 -0.1184654310 0.5781713724 4280032284
-0.4217222035 -0.1180025935 0.5790524483 4280098077
-0.4212018549 -0.1172144115 0.5783379674 4280624421
-0.4230051935 -0.1170709357 0.5808140635 4281085233
-0.4219030738 -0.1161222681 0.5793008208 4281216819
-0.4219627380 -0.1154949591 0.5793827176 4281479478
-0.4220221043 -0.1148673818 0.5794642568 4281413685
-0.4232439399 -0.1145542488 0.5811418891 4281347893
-0.4233028591 -0.1139244139 0.5812227726 4281347893
-0.4210352898 -0.1126718223 0.5781092644 4281414199
-0.4245829880 -0.1129734740 0.5829805136 4281808957
-0.4246411324 -0.1123411283 0.5830603242 4281414199
-0.4159722924 -0.1094131395 0.5711574554 4281545785
-0.4206835032 -0.1100105420 0.5776262283 4282927184
-0.4213221073 -0.1095347852 0.5785030723 4285887869
-0.4196324944 -0.1084553376 0.5761831403 4289440691
-0.4156137407 -0.1067826301 0.5706651211 4292006618
-0.4180888534 -0.1203586236 0.5749404430 4280098079
-0.4182730317 -0.1184943914 0.5751936436 4280163872
-0.4200744331 -0.1183628887 0.5776709318 4280163872
-0.4201351702 -0.1177380756 0.5777544379 4280163872
-0.4190348387 -0.1167894751 0.5762413144 4280427044
-0.4202557206 -0.1164876372 0.5779201984 4280624683
-0.4214766324 -0.1161820740 0.5795991421 4280690476
-0.4221169353 -0.1157136261 0.5804796815 4280821549
-0.4215956628 -0.1149265766 0.5797628760 4280821549
-0.4222355187 -0.1144558638 0.5806427598 4280756015
-0.4211326241 -0.1135134473 0.5791260600 4280887601
-0.4211909771 -0.1128856391 0.5792063475 4281084980
-0.4212490320 -0.1122575700 0.5792861581 4281282359
-0.4160767794 -0.1102434993 0.5721734762 4281677119
-0.4184582829 -0.1102351397 0.5754484534 4281216568
-0.4214213789 -0.1103718132 0.5795231462 4280427052
-0.4151389897 -0.1074578539 0.5708838701 4281940291
-0.4151943624 -0.1068378091 0.5709599853 4284835183
-0.4187389016 -0.1071100980 0.5758343339 4287927970
-0.4188851118 -0.1201313138 0.5769165754 4279769114
-0.4143110216 -0.1181855202 0.5706168413 4279834907
-0.4178488553 -0.1185552999 0.5754893422 4280098079
-0.4179096222 -0.1179330423 0.5755730271 4280032286
-0.4168707132 -0.1163640320 0.5741421580 4279966493
-0.4151907861 -0.1152597666 0.5718284845 4280097825
-0.4193096459 -0.1157615408 0.5775012374 4280163618
-0.4216892421 -0.1157732084 0.5807785988 4280163619
-0.4205884337 -0.1148273870 0.5792624950 4280229412
-0.4165860116 -0.1130971760 0.5737500787 4280295205
-0.4195455313 -0.1132586449 0.5778261423 4280492584
-0.4161215425 -0.1116975546 0.5731104016 4280690222
-0.4173398614 -0.1113859490 0.5747883320 4280690222
-0.4127529263 -0.1095301062 0.5684708953 4280756015
-0.4151316881 -0.1095260903 0.5717470646 4280756015
-0.4136124849 -0.1065935642 0.5696547627 4279571743
-0.4129718244 -0.1154523268 0.5696437955 4279834907
-0.4182446301 -0.1162854135 0.5769169331 4279900189
-0.4183042645 -0.1156609133 0.5769991875 4279965982
-0.4183636308 -0.1150361449 0.5770810843 4279900446
-0.4149454534 -0.1134603247 0.5723661780 4279966239
-0.4155833423 -0.1129978225 0.5732460022 4280097825
-0.4179601371 -0.1130035147 0.5765244961 4280229411
-0.4185979664 -0.1125344262 0.5774043202 4280426791
-0.4163363576 -0.1112883538 0.5742847323 4280426791
-0.4123339951 -0.1095865741 0.5687639713 4280426791
-0.4096580148 -0.1147016212 0.5659397840 4279834907
-0.4137676656 -0.1152171940 0.5716172457 4279834396
-0.4144055247 -0.1147587225 0.5724984407 4279900189
-0.4098334908 -0.1128635481 0.5661822557 4279900446
-0.4110492766 -0.1125674322 0.5678618550 4279834653
-0.4142318070 -0.1102598757 0.5722584724 4280032033
-0.4070441127 -0.1128933877 0.5631928444 4279900446
-0.3911556304 -0.1114056334 0.5437159538 4279505688
-0.3953557014 -0.1127759665 0.5504038930 4279439895
-0.3974250555 -0.1096778214 0.5532848239 4279571481
-0.3889676929 -0.1135359555 0.5423492789 4279308309
-0.3943716288 -0.1126694754 0.5498841405 4279505688
-0.3944291770 -0.1120748669 0.5499644279 4279571481
-0.3962115943 -0.1119675189 0.5524497032 4279571481
-0.3979942203 -0.1118547097 0.5549352169 4279505689
-0.3986835778 -0.1108131632 0.5558964610 4279571481
-0.3970141113 -0.1097340807 0.5535686612 4279571481
-0.3987966180 -0.1096089557 0.5560540557 4279571481
-0.3891378045 -0.1137617826 0.5434280634 4279308309
-0.3909178972 -0.1136756390 0.5459139347 4279374103
-0.3933303952 -0.1131565869 0.5492829680 4279505689
-0.3945367336 -0.1128914654 0.5509675741 4279571482
-0.3951687217 -0.1124591604 0.5518501997 4279571482
-0.3963750601 -0.1121874452 0.5535348058 4279571482
-0.3970068991 -0.1117502823 0.5544171929 4279637275
-0.3993624747 -0.1117936820 0.5577067137 4279637275
-0.3982701898 -0.1108699664 0.5561813712 4279637275
-0.3971772790 -0.1099494621 0.5546551347 4279637275
-0.3983832300 -0.1096651703 0.5563392043 4279703068
-0.3922313750 -0.1142347679 0.5485990644 4279374103
-0.3945837021 -0.1143066734 0.5518891811 4279439896
-0.3963628113 -0.1142061129 0.5543775558 4279505689
-0.3987158239 -0.1142644882 0.5576686263 4279571482
-0.3970527947 -0.1131708696 0.5553426147 4279505689
-0.3953889608 -0.1120821983 0.5530155301 4279505689
-0.3977419436 -0.1121311039 0.5563065410 4279571482
-0.3995212913 -0.1120118722 0.5587952137 4279571482
-0.3996354043 -0.1108017936 0.5589548349 4279637275
-0.3996920288 -0.1101963669 0.5590340495 4279637275
-0.3957279027 -0.1084884778 0.5534895658 4279637275
-0.3969322443 -0.1082018018 0.5551739931 4279637275
-0.3981365860 -0.1079113930 0.5568584800 4279571482
-0.3899867833 -0.1149717420 0.5463083386 4279374103
-0.3900453448 -0.1143819168 0.5463903546 4279374103
-0.3918220997 -0.1142931208 0.5488793254 4279374103
-0.3941720426 -0.1143650860 0.5521711707 4279439896
-0.3959493637 -0.1142644882 0.5546609163 4279505689
-0.3994461596 -0.1146518961 0.5595594049 4279505689
-0.4012241662 -0.1145377532 0.5620500445 4279571482
-0.3979006410 -0.1123503745 0.5573943853 4279637274
-0.4008251131 -0.1125522628 0.5614910722 4279637274
-0.3981282413 -0.1099359989 0.5577131510 4279703068
-0.3987581432 -0.1094892994 0.5585955977 4279637275
-0.4028309286 -0.1099806055 0.5643008947 4279637275
-0.3866599500 -0.1147713363 0.5424920321 4279308310
-0.3884345591 -0.1146925762 0.5449818373 4279308310
-0.3907815516 -0.1147763953 0.5482746959 4279374103
-0.3937011659 -0.1150201932 0.5523710251 4279374103
-0.3972525001 -0.1148191914 0.5573535562 4279439896
-0.3996009827 -0.1148750633 0.5606485605 4279505689
-0.4019498229 -0.1149237156 0.5639440417 4279637275
-0.3997177780 -0.1136624292 0.5608124137 4279703068
-0.4003484547 -0.1132176891 0.5616973042 4279900446
-0.4004062116 -0.1126098484 0.5617783070 4279900446
-0.4004636705 -0.1120017394 0.5618589520 4279966239
-0.4028128088 -0.1120308116 0.5651547909 4279966239
-0.4005776942 -0.1107847393 0.5620189309 4279900446
-0.4000611007 -0.1100182384 0.5612941384 4279834653
-0.4018369913 -0.1098802090 0.5637857318 4279768861
-0.3990265727 -0.1084896848 0.5598426461 4279768861
-0.3967884183 -0.1072626263 0.5567024946 4279505689
-0.3916819990 -0.1052716449 0.5495380759 4279374103
-0.3880270422 -0.1147510633 0.5452597737 4279308309
-0.3909431994 -0.1150030792 0.5493575335 4279374102
-0.3967180848 -0.1160824820 0.5574725270 4279439895
-0.3950619996 -0.1149810851 0.5551453829 4279571481
-0.3991231918 -0.1155399382 0.5608522296 4279571481
-0.4008977115 -0.1154277176 0.5633457899 4279439895
-0.4026724398 -0.1153100133 0.5658396482 4279571481
-0.4033032656 -0.1148609817 0.5667260885 4279834653
-0.4022175074 -0.1139237806 0.5652003288 4280229412
-0.4022755921 -0.1133121625 0.5652819872 4280426791
-0.4023333788 -0.1127002761 0.5653631687 4280295205
-0.4023908675 -0.1120881289 0.5654439330 4280360998
-0.4035930037 -0.1117928624 0.5671331882 4280426791
-0.4030774832 -0.1110207513 0.5664088130 4280295205
-0.4025615156 -0.1102501228 0.5656837821 4280097826
-0.4014723897 -0.1093250290 0.5641533136 4279834654
-0.3958002925 -0.1071624979 0.5561828017 4279703068
-0.3941364288 -0.1060966477 0.5538447499 4279505689
-0.3924717903 -0.1050357819 0.5515055656 4279308310
-0.3864187002 -0.1150583103 0.5438485146 4279374102
-0.3876188993 -0.1148095503 0.5455376506 4279308309
-0.3905320466 -0.1150617078 0.5496376157 4279439895
-0.3934457302 -0.1153049245 0.5537384152 4279505688
-0.3935043812 -0.1147067770 0.5538209677 4279571481
-0.3969900012 -0.1151020527 0.5587266088 4279505689
-0.3987624645 -0.1149923950 0.5612211823 4279439896
-0.4011065066 -0.1150411367 0.5645202398 4279637275
-0.4011650980 -0.1144306213 0.5646026731 4279900447
-0.4035095572 -0.1144683883 0.5679023266 4280492584
-0.4035678804 -0.1138538644 0.5679844022 4280689963
-0.4030542076 -0.1130786762 0.5672613978 4280689962
-0.4025400579 -0.1123049706 0.5665377975 4280689962
-0.4020254612 -0.1115327403 0.5658135414 4280558377
-0.4020823538 -0.1109197736 0.5658936501 4280360998
-0.4021389484 -0.1103065461 0.5659732819 4280229412
-0.3993346691 -0.1089128852 0.5620265007 4280097826
-0.3976736963 -0.1078380197 0.5596888661 4279900447
-0.3925783038 -0.1058424115 0.5525175929 4279637275
-0.3909153044 -0.1047827676 0.5501770377 4279374103
-0.3932585418 -0.1047959104 0.5534749627 4279176724
-0.3915945888 -0.1037401482 0.5511330962 4279110931
-0.3847533464 -0.1159469858 0.5423524380 4279308310
-0.3854409754 -0.1149468645 0.5433217287 4279374103
-0.3854993582 -0.1143605188 0.5434040427 4279374103
-0.3895499110 -0.1149520352 0.5491137505 4279439896
-0.3930309713 -0.1153636947 0.5540206432 4279505689
-0.3959422112 -0.1155981049 0.5581244230 4279505689
-0.3999952376 -0.1161549538 0.5638375878 4279571482
-0.3994836509 -0.1153807193 0.5631164312 4279571482
-0.3995423615 -0.1147719249 0.5631991625 4279768861
-0.4013133347 -0.1146521270 0.5656955838 4279966240
-0.4019426405 -0.1142024025 0.5665826797 4280360998
-0.4014297724 -0.1134279743 0.5658597350 4280558377
-0.4014875591 -0.1128154993 0.5659411550 4280624169
-0.4015450478 -0.1122027561 0.5660222173 4280624169
-0.4010309577 -0.1114310250 0.5652975440 4280492584
-0.4010877609 -0.1108186319 0.5653775930 4280295205
-0.4005728364 -0.1100489944 0.5646517873 4280229412
-0.4017719924 -0.1097491905 0.5663421154 4280097826
-0.4001132250 -0.1086694226 0.5640038848 4280032033
-0.3938803077 -0.1063596979 0.5552179217 4279703068
-0.3933628500 -0.1056038961 0.5544884801 4279374103
-0.3917012811 -0.1045443490 0.5521463156 4279176724
-0.3917546868 -0.1039450392 0.5522215962 4279110931
-0.3825201392 -0.1166548282 0.5400499701 4279439895
-0.3831486106 -0.1162454709 0.5409373045 4279439896
-0.3843463659 -0.1160059646 0.5426282883 4279374103
-0.3850333691 -0.1150053740 0.5435982347 4279374103
-0.3868007660 -0.1149265170 0.5460934639 4279439896
-0.3885683715 -0.1148421913 0.5485889912 4279439896
-0.3920457065 -0.1152549461 0.5534983873 4279439896
-0.3972335458 -0.1161569729 0.5608226657 4279505689
-0.3995725811 -0.1162141562 0.5641250014 4279637275
-0.4002017677 -0.1157693788 0.5650132895 4279834654
-0.3985501230 -0.1146664172 0.5626814365 4279900447
-0.4003192186 -0.1145474464 0.5651791096 4279966240
-0.4009478390 -0.1140983850 0.5660666227 4279966239
-0.4010058939 -0.1134858727 0.5661485791 4280163618
-0.4010636806 -0.1128731072 0.5662301779 4280163618
-0.4011211693 -0.1122600660 0.5663112998 4280295204
-0.4011783302 -0.1116467714 0.5663920641 4280295205
-0.4006644785 -0.1108752638 0.5656665564 4280163619
-0.4012918174 -0.1104193851 0.5665522218 4280163619
-0.4013481140 -0.1098053083 0.5666317344 4280032033
-0.3951232433 -0.1074824333 0.5578433275 4280032033
-0.3957491219 -0.1070319042 0.5587269664 4279768861
-0.3935191333 -0.1058115140 0.5555786490 4279374105
-0.3924306929 -0.1049032658 0.5540419221 4279176726
-0.3854661286 -0.1183434799 0.5450639129 4279439895
-0.3849574625 -0.1175825074 0.5443446636 4279505688
-0.3827422261 -0.1163045466 0.5412122011 4279505689
-0.3833699822 -0.1158929914 0.5420998931 4279505689
-0.3822909892 -0.1149661914 0.5405741334 4279439896
-0.3852526248 -0.1146463081 0.5447620153 4279505689
-0.3870182335 -0.1145636886 0.5472586751 4279505689
-0.3950456381 -0.1163192689 0.5586096644 4279439896
-0.3905501664 -0.1143820137 0.5522529483 4279505689
-0.3963022828 -0.1154440269 0.5603866577 4279768861
-0.3986388743 -0.1154983863 0.5636906624 4279966240
-0.3998367190 -0.1152172536 0.5653844476 4279966240
-0.3987559974 -0.1142793447 0.5638562441 4279834654
-0.4005233049 -0.1141565815 0.5663553476 4279966239
-0.4005813599 -0.1135437787 0.5664374232 4279966239
-0.4006391466 -0.1129307076 0.5665191412 4279966240
-0.4006966352 -0.1123173758 0.5666003823 4280097826
-0.4001837373 -0.1115448847 0.5658751726 4280163619
-0.4008106887 -0.1110899225 0.5667616725 4280163619
-0.3997268379 -0.1101615056 0.5652290583 4280163619
-0.4009235501 -0.1098614261 0.5669212937 4280097826
-0.3998387754 -0.1089359894 0.5653873682 4280032033
-0.3947601616 -0.1069321111 0.5582060218 4279834654
-0.3919619620 -0.1055583358 0.5542492867 4279439898
-0.3908745646 -0.1046513841 0.5527116656 4279176726
-0.3909279704 -0.1040514931 0.5527871251 4279374105
-0.3904102743 -0.1033003330 0.5520551205 4279571484
-0.3910338581 -0.1028509736 0.5529369116 4279374105
-0.3884029388 -0.1200438663 0.5500805974 4279637274
-0.3856240511 -0.1185781881 0.5461449623 4279505688
-0.3845480680 -0.1176422089 0.5446210504 4279571481
-0.3817671239 -0.1161907166 0.5406824946 4279637275
-0.3818845749 -0.1150246263 0.5408488512 4279571482
-0.3836480081 -0.1149520725 0.5433463454 4279571482
-0.3808640242 -0.1135185957 0.5394034982 4279637275
-0.3854699135 -0.1142848507 0.5459266305 4279637275
-0.3934886456 -0.1160430759 0.5572832823 4279637275
-0.3884291649 -0.1139397696 0.5501177311 4279637275
-0.3953125477 -0.1153368577 0.5598664284 4279834654
-0.3965088725 -0.1150619611 0.5615607500 4280032033
-0.3977052569 -0.1147833243 0.5632551312 4280032033
-0.3977635801 -0.1141742468 0.5633376837 4279900447
-0.3989598751 -0.1138898358 0.5650319457 4280097826
-0.3978793323 -0.1129552945 0.5635016561 4280032033
-0.3996446729 -0.1128275916 0.5660018325 4280032033
-0.3997020721 -0.1122148335 0.5660831332 4280163619
-0.3997591734 -0.1116018146 0.5661639571 4280163619
-0.3998159468 -0.1109885350 0.5662444234 4280097826
-0.3998724520 -0.1103749946 0.5663244724 4280163619
-0.3999286592 -0.1097611934 0.5664040446 4280163619
-0.3982752264 -0.1086806878 0.5640623569 4280163619
-0.3932018876 -0.1066775545 0.5568771362 4280032033
-0.3926863074 -0.1059197560 0.5561469793 4279571484
-0.3910302818 -0.1048577577 0.5538015962 4279308312
-0.3905136287 -0.1041047201 0.5530698895 4279571484
-0.3905667365 -0.1035042852 0.5531451106 4279703070
-0.3900492787 -0.1027533859 0.5524122715 4279374105
-0.3912423551 -0.1024520472 0.5541019440 4278979347
-0.3907242715 -0.1017015353 0.5533682108 4278979345
-0.3907761872 -0.1011001393 0.5534417033 4279045138
-0.3900102973 -0.1231892630 0.5532272458 4280426791
-0.3912686110 -0.1223534048 0.5550121665 4280229412
-0.3868541718 -0.1197535694 0.5487503409 4279703068
-0.3857801259 -0.1188130751 0.5472267866 4279637275
-0.3830032051 -0.1173541993 0.5432876945 4279703068
-0.3819276094 -0.1164226979 0.5417619944 4279703068
-0.3819865584 -0.1158386394 0.5418456197 4279637275
-0.3786391914 -0.1142267808 0.5370973945 4279571482
-0.3804003298 -0.1141585559 0.5395956039 4279637275
-0.3821617365 -0.1140848473 0.5420941114 4279768861
-0.3827875257 -0.1136683673 0.5429818034 4279703068
-0.3907974362 -0.1154309884 0.5543438196 4279768863
-0.3931283951 -0.1154999062 0.5576502681 4279768863
-0.3948915899 -0.1153955534 0.5601513386 4279900449
-0.3960866928 -0.1151205376 0.5618466139 4280032035
-0.3944400847 -0.1140202954 0.5595108867 4280163621
-0.3956348598 -0.1137421355 0.5612056255 4280032035
-0.3962611556 -0.1132976636 0.5620940328 4280163619
-0.3980245590 -0.1131745353 0.5645954013 4280163619
-0.3980820775 -0.1125634983 0.5646770000 4280163621
-0.3975705206 -0.1117922589 0.5639513731 4280229414
-0.3976273835 -0.1111815646 0.5640320182 4280229414
-0.3982528746 -0.1107287928 0.5649192929 4280163621
-0.3988782167 -0.1102740169 0.5658063293 4280229412
-0.3989343345 -0.1096607894 0.5658859611 4280229412
-0.3955751359 -0.1081139520 0.5611209273 4280295205
-0.3916454017 -0.1064226776 0.5555466413 4280163619
-0.3911302984 -0.1056662574 0.5548159480 4279768863
-0.3911841214 -0.1050642803 0.5548923016 4279505691
-0.3895822167 -0.1034060344 0.5526199937 4279768863
-0.3896349370 -0.1028059497 0.5526947975 4279439896
-0.3896873593 -0.1022056118 0.5527691841 4278979345
-0.3903093040 -0.1017535850 0.5536513925 4279110931
-0.3903612196 -0.1011518911 0.5537250042 4279110931
-0.3904128373 -0.1005499586 0.5537982583 4279110931
-0.3894676268 -0.1244415492 0.5533292294 4280360998
-0.3895929754 -0.1232516244 0.5535073280 4280426791
-0.3890888691 -0.1224779561 0.5527911186 4280360998
-0.3891507387 -0.1218831465 0.5528790355 4280295205
-0.3880792558 -0.1209349558 0.5513567328 4280097826
-0.3875737488 -0.1201656312 0.5506385565 4279834654
-0.3859343529 -0.1190481335 0.5483093858 4279637275
-0.3842941523 -0.1179355606 0.5459791422 4279703068
-0.3803855777 -0.1161356121 0.5404260755 4279637277
-0.3804443479 -0.1155530065 0.5405095816 4279571484
-0.3805028498 -0.1149701402 0.5405926704 4279637277
-0.3777253032 -0.1135346442 0.5366465449 4279768863
-0.3823207319 -0.1143124104 0.5431753993 4279834656
-0.3880519271 -0.1154134572 0.5513179302 4279768863
-0.3903800845 -0.1154896617 0.5546255708 4279768863
-0.3853311539 -0.1133877337 0.5474523902 4279834656
-0.3927672207 -0.1149558797 0.5580170751 4279966242
-0.3882842064 -0.1130308583 0.5516479015 4280163621
-0.3900448084 -0.1129276752 0.5541492701 4280295207
-0.3923734725 -0.1129825041 0.5574576259 4280229414
-0.3964062333 -0.1135179922 0.5631871223 4280229412
-0.3964639008 -0.1129086614 0.5632690191 4280163619
-0.3948169947 -0.1118164137 0.5609292388 4280229414
-0.3903284967 -0.1099290773 0.5545523167 4280361000
-0.3966350555 -0.1110791117 0.5635122657 4280361000
-0.3961232007 -0.1103104651 0.5627850294 4280295207
-0.3967477083 -0.1098580956 0.5636723042 4280426791
-0.3945296407 -0.1086211428 0.5605210066 4280360998
-0.3900363743 -0.1067683771 0.5541372895 4280360998
-0.3889534175 -0.1058579534 0.5525987148 4280229412
-0.3895760477 -0.1054124460 0.5534832478 4279900449
-0.3890609145 -0.1046589166 0.5527514219 4279637277
-0.3891142309 -0.1040590256 0.5528271198 4279703070
-0.3897362053 -0.1036101431 0.5537108183 4279768863
-0.3892199397 -0.1028585061 0.5529773831 4279505689
-0.3898414969 -0.1024073809 0.5538604259 4279045138
-0.3904629052 -0.1019542515 0.5547432303 4279374103
-0.3905148804 -0.1013513878 0.5548170805 4279374103
-0.3905665874 -0.1007482857 0.5548905730 4279308310
-0.3911873996 -0.1002909243 0.5557725430 4279242517
-0.3894885480 -0.1258765012 0.5542334914 4280426791
-0.3895519972 -0.1252811104 0.5543237925 4280360998
-0.3907461464 -0.1250473708 0.5560230613 4280295205
-0.3898030221 -0.1228966862 0.5546810031 4280360998
-0.3898650706 -0.1222998574 0.5547692776 4280295205
-0.3871582150 -0.1202265099 0.5509175062 4280031781
-0.3883512020 -0.1199829727 0.5526151061 4279768863
-0.3855808675 -0.1185174510 0.5486729741 4279703070
-0.3805442154 -0.1163676679 0.5415059328 4279703070
-0.3828685582 -0.1164731085 0.5448134542 4279768863
-0.3817945719 -0.1155427620 0.5432851911 4279637534
-0.3761875629 -0.1132511497 0.5353065133 4279637534
-0.3790780902 -0.1135220006 0.5394196510 4279703327
-0.3734683692 -0.1112516001 0.5314371586 4279834913
-0.3844662607 -0.1120963320 0.5470868945 4280098339
-0.3930302560 -0.1139718816 0.5592733026 4280163878
-0.3936553001 -0.1135307550 0.5601627231 4280163878
-0.3948475420 -0.1132503301 0.5618592501 4280229412
-0.3880963027 -0.1107003465 0.5522523522 4280229412
-0.3955296576 -0.1121952906 0.5628299117 4280295205
-0.3916137516 -0.1104653552 0.5572576523 4280360998
-0.3956433237 -0.1109764874 0.5629916191 4280426791
-0.3922933936 -0.1094166189 0.5582247376 4280426791
-0.3923490047 -0.1088118106 0.5583038926 4280360998
-0.3912685812 -0.1078935564 0.5567664504 4280295205
-0.3918913901 -0.1074457169 0.5576527119 4280229671
-0.3885378242 -0.1059119627 0.5528806448 4280229671
-0.3891598284 -0.1054662466 0.5537657738 4279966499
-0.3886452913 -0.1047123447 0.5530335903 4279637534
-0.3881303370 -0.1039599478 0.5523008108 4279703327
-0.3881832659 -0.1033603996 0.5523761511 4279769120
-0.3888043165 -0.1029110551 0.5532599092 4279440155
-0.3894252479 -0.1024597138 0.5541434884 4279111190
-0.3900980353 -0.1014032140 0.5551007986 4279571484
-0.3901497424 -0.1007998139 0.5551743507 4279703070
-0.3907699287 -0.1003422290 0.5560569167 4279637277
-0.3914409578 -0.0992767736 0.5570117831 4279571484
-0.3932493031 -0.0984919220 0.5595849752 4279768863
-0.3883771300 -0.1269460171 0.5535268188 4280426791
-0.3890056312 -0.1265354455 0.5544225574 4280492584
-0.3879399896 -0.1255744994 0.5529037714 4280426791
-0.3880032599 -0.1249805614 0.5529939532 4280295205
-0.3880662620 -0.1243863404 0.5530837178 4280229412
-0.3920837045 -0.1250531673 0.5588095188 4280295205
-0.3904516101 -0.1239143237 0.5564833879 4280360998
-0.3899489641 -0.1231373101 0.5557670593 4280360998
-0.3905763328 -0.1227169335 0.5566611886 4280229412
-0.3906382918 -0.1221178025 0.5567494631 4280097828
-0.3884382844 -0.1208149567 0.5536139607 4279966242
-0.3896303177 -0.1205687225 0.5553128719 4279834656
-0.3891256452 -0.1197963580 0.5545936227 4279768863
-0.3874891400 -0.1186789423 0.5522612333 4279834656
-0.3847203255 -0.1172216982 0.5483149886 4279768863
-0.3836478889 -0.1162874177 0.5467865467 4279703070
-0.3752176166 -0.1131379530 0.5347715020 4279637277
-0.3707466722 -0.1112027541 0.5283993483 4279703327
-0.3702368438 -0.1104635522 0.5276727080 4279769120
-0.3742561340 -0.1110700965 0.5334011316 4279835167
-0.3760112226 -0.1109955385 0.5359025598 4279900960
-0.3822974861 -0.1122458130 0.5448619127 4279966753
-0.3857530653 -0.1126495525 0.5497869253 4280098339
-0.3869432211 -0.1123843715 0.5514831543 4280229671
-0.3887569904 -0.1116799414 0.5540682077 4280295205
-0.3911374807 -0.1111250371 0.5574609637 4280360998
-0.3884702623 -0.1085217968 0.5536595583 4280492584
-0.3896597624 -0.1082370505 0.5553548336 4280426791
-0.3874456584 -0.1070085019 0.5521992445 4280426791
-0.3875000477 -0.1064099073 0.5522767901 4280427050
-0.3875541389 -0.1058110520 0.5523538589 4280361257
-0.3881754577 -0.1053659990 0.5532394052 4279966499
-0.3887966275 -0.1049189344 0.5541247129 4279637534
-0.3888500035 -0.1043175831 0.5542007685 4279703327
-0.3889031112 -0.1037159860 0.5542764664 4279834913
-0.3889558911 -0.1031141430 0.5543516874 4279571741
-0.3895762861 -0.1026617065 0.5552358627 4279242776
-0.3907645047 -0.1023560390 0.5569294095 4279439898
-0.3913846910 -0.1018987149 0.5578132868 4279571484
-0.3903003633 -0.1009983569 0.5562678576 4279703070
-0.3914882243 -0.1006858051 0.5579608679 4279637277
-0.3921078444 -0.1002242416 0.5588439107 4279637277
-0.3922097385 -0.0990081355 0.5589891672 4279768863
-0.3928287327 -0.0985423401 0.5598713756 4279834656
-0.3934476078 -0.0980745405 0.5607534051 4279768863
-0.3924099803 -0.0965731069 0.5592745543 4279637277
-0.3875966072 -0.1354981959 0.5532902479 4280887855
-0.3876644969 -0.1349070668 0.5533871651 4280887855
-0.3899830878 -0.1350954026 0.5566968918 4280822062
-0.3911764920 -0.1348883957 0.5584004521 4280690476
-0.3884962797 -0.1327318400 0.5545744896 4280822062
-0.3870707750 -0.1297891587 0.5525395870 4280032033
-0.3865724504 -0.1290089488 0.5518282652 4280032033
-0.3917098045 -0.1301021427 0.5591617823 4280295205
-0.3878292739 -0.1281981468 0.5536223650 4280558377
-0.3884575367 -0.1277897209 0.5545191765 4280492584
-0.3890857100 -0.1273792684 0.5554159284 4280426791
-0.3914057612 -0.1275180131 0.5587277412 4280426791
-0.3903417885 -0.1265522838 0.5572089553 4280360998
-0.3909696937 -0.1261357516 0.5581052303 4280229412
-0.3910332024 -0.1255360544 0.5581959486 4280163619
-0.3910964727 -0.1249360666 0.5582862496 4280295205
-0.3934172094 -0.1250534505 0.5615990758 4280295205
-0.3917866647 -0.1239137650 0.5592714548 4280295205
-0.3912845254 -0.1231343597 0.5585547090 4280163619
-0.3907819390 -0.1223563999 0.5578372478 4280163621
-0.3919732869 -0.1221077293 0.5595378876 4279966242
-0.3909051418 -0.1211549863 0.5580131412 4279834656
-0.3898363411 -0.1202054396 0.5564874411 4279900449
-0.3887669146 -0.1192590818 0.5549608469 4279834656
-0.3888271749 -0.1186608672 0.5550468564 4279834656
-0.3691602945 -0.1114879921 0.5269725919 4279768863
-0.3692166805 -0.1109194234 0.5270530581 4279900449
-0.3721002936 -0.1111955494 0.5311694145 4279834656
-0.3648039103 -0.1084365621 0.5207539201 4279900447
-0.3665558100 -0.1083759367 0.5232546926 4279966240
-0.3666106761 -0.1078106984 0.5233330131 4280097826
-0.3668809533 -0.1049807295 0.5237188339 4280426793
-0.3823331594 -0.1075830907 0.5457767248 4280492586
-0.3795552552 -0.1061994433 0.5418112874 4280558379
-0.3847084045 -0.1070311219 0.5491673350 4280558379
-0.3859502971 -0.1061523706 0.5509401560 4280493097
-0.3865710497 -0.1057099849 0.5518262386 4280493097
-0.3877585828 -0.1054197177 0.5535214543 4280164132
-0.3895130754 -0.1052789316 0.5560259819 4279703581
-0.3889995515 -0.1045231596 0.5552929640 4279637788
-0.3896198571 -0.1040718779 0.5561783910 4279769374
-0.3902400136 -0.1036185920 0.5570636392 4279571995
-0.3897254467 -0.1028638408 0.5563291311 4279243030
-0.3909125328 -0.1025571525 0.5580236912 4279439898
-0.3898298740 -0.1016548276 0.5564782023 4279439898
-0.3915841877 -0.1014912203 0.5589824319 4279505691
-0.3905006945 -0.1005910560 0.5574357510 4279505691
-0.3922549188 -0.1004208028 0.5599399209 4279505691
-0.3940093219 -0.1002450287 0.5624443293 4279571484
-0.3946282268 -0.0997765958 0.5633277893 4279637277
-0.3941112161 -0.0990207940 0.5625897646 4279571484
-0.3941617012 -0.0984083265 0.5626618266 4279571484
-0.3942119181 -0.0977956206 0.5627334714 4279637277
-0.3953979909 -0.0974627510 0.5644266605 4279637277
-0.3931750655 -0.0962912142 0.5612534285 4279768863
-0.3915194869 -0.0952647850 0.5588901043 4279703070
-0.3896249831 -0.0898601189 0.5561857224 4279966499
-0.3880943060 -0.1377371550 0.5548804402 4281019441
-0.3893554807 -0.1369477212 0.5566835999 4281019441
-0.3883001208 -0.1359596848 0.5551747084 4280887855
-0.3894922733 -0.1357583702 0.5568791628 4280822062
-0.3895602524 -0.1351632327 0.5569763780 4280756269
-0.3907524347 -0.1349561363 0.5586808920 4280624683
-0.3902577460 -0.1341653317 0.5579736233 4280756269
-0.3903250098 -0.1335684061 0.5580697656 4280822062
-0.3903919756 -0.1329711527 0.5581655502 4280558890
-0.3915839195 -0.1327550858 0.5598697066 4280492584
-0.3910878301 -0.1319656372 0.5591604114 4280295205
-0.3900284469 -0.1309885830 0.5576457977 4280163619
-0.3895313144 -0.1302028298 0.5569350123 4280097826
-0.3912857175 -0.1301676631 0.5594433546 4280295205
-0.3902249336 -0.1291948855 0.5579267144 4280558377
-0.3908530474 -0.1287819445 0.5588247776 4280492584
-0.3892279565 -0.1276281774 0.5565012693 4280492584
-0.3915456235 -0.1277661473 0.5598149896 4280360998
-0.3927368522 -0.1275309771 0.5615181327 4280295205
-0.3928010166 -0.1269278228 0.5616099238 4280229412
-0.3928649127 -0.1263243854 0.5617012382 4280163619
-0.3934922814 -0.1259010136 0.5625982285 4280163619
-0.3929918706 -0.1251166165 0.5618827343 4280229412
-0.3930549026 -0.1245122999 0.5619729161 4280163619
-0.3908616006 -0.1231965944 0.5588369966 4280163619
-0.3920519352 -0.1229489744 0.5605388880 4280032035
-0.3932423294 -0.1226975992 0.5622408390 4279966242
-0.3916113675 -0.1215666160 0.5599089861 4279900449
-0.3911083639 -0.1207891703 0.5591897964 4279900449
-0.3900404274 -0.1198397428 0.5576629043 4279834654
-0.3861491084 -0.1180307195 0.5520992875 4279768861
-0.3766099811 -0.1145167053 0.5384606123 4279834656
-0.3744089603 -0.1132526696 0.5353137255 4279900449
-0.3682533205 -0.1108056977 0.5265126824 4279835167
-0.3604008555 -0.1078704074 0.5152855515 4279769374
-0.3604554236 -0.1073141247 0.5153635144 4279835167
-0.3611288667 -0.1063672751 0.5163264275 4280098339
-0.3611826897 -0.1058093682 0.5164033771 4280098339
-0.3634975255 -0.1059100628 0.5197129846 4280164132
-0.3653009534 -0.1052749157 0.5222914815 4280361000
-0.3693668842 -0.1052731425 0.5281047821 4280492586
-0.3733803630 -0.1058238819 0.5338430405 4280558379
-0.3762630522 -0.1060431823 0.5379646420 4280558379
-0.3836734295 -0.1075221747 0.5485596657 4280624172
-0.3808981180 -0.1061393321 0.5445916653 4280624172
-0.3826501369 -0.1060196757 0.5470966101 4280689965
