VERSION 0.7
FIELDS x y z rgba
SIZE 4 4 4 4
TYPE F F F U
COUNT 1 1 1 1
WIDTH 920
HEIGHT 1
VIEWPOINT 0.0 0.0 0.0 1.0 0.0 0.0 0.0
POINTS 920
DATA ascii
-0.3190514743 -0.1173658594 0.5244582295 4287468184
-0.3191072047 -0.1168035492 0.5245498419 4287139219
-0.3196733594 -0.1164269298 0.5254804492 4286877074
-0.3197286725 -0.1158631369 0.5255714059 4286942867
-0.3202945888 -0.1154832318 0.5265016556 4288322980
-0.3208604455 -0.1151012257 0.5274317861 4289967805
-0.3214262128 -0.1147171333 0.5283617973 4290625735
-0.3225029707 -0.1145124212 0.5301318169 4284178021
-0.3230686784 -0.1141232401 0.5310617089 4287102985
-0.3231230080 -0.1135522872 0.5311509967 4287759891
-0.3241997957 -0.1133385822 0.5329210758 4287896605
-0.3252767026 -0.1131209731 0.5346912146 4287896605
-0.3258421123 -0.1127225012 0.5356206894 4289008416
-0.3269190788 -0.1124979928 0.5373910069 4291179585
-0.3274844289 -0.1120944247 0.5383203626 4287399822
-0.3237739205 -0.1678991169 0.5331944823 4286201148
-0.3243522942 -0.1676055640 0.5341469646 4285740597
-0.3234263957 -0.1665353328 0.5326221585 4286262062
-0.3224997818 -0.1654681265 0.5310962200 4285933097
-0.3215725124 -0.1644039601 0.5295691490 4285277473
-0.3186373413 -0.1623203456 0.5247355103 4285211680
-0.3202177584 -0.1625395268 0.5273381472 4286521374
-0.3182844520 -0.1609758288 0.5241543651 4286652960
-0.3173542917 -0.1599247307 0.5226225257 4286652960
-0.3169257045 -0.1591288596 0.5219167471 4286258202
-0.3164966702 -0.1583343446 0.5212101936 4285995030
-0.3165696859 -0.1577916294 0.5213304162 4286192409
-0.3166424930 -0.1572485417 0.5214503407 4286126616
-0.3157096207 -0.1562076062 0.5199140310 4286060823
-0.3162845671 -0.1559133679 0.5208609104 4286258200
-0.3153506815 -0.1548760086 0.5193229914 4286192407
-0.3154222667 -0.1543340236 0.5194408298 4286191637
-0.3154936135 -0.1537916660 0.5195583701 4286191637
-0.3150614798 -0.1530045420 0.5188466907 4286191637
-0.3146288693 -0.1522187591 0.5181342959 4286125844
-0.3141958117 -0.1514343619 0.5174211264 4285929235
-0.3142659664 -0.1508931518 0.5175366402 4285929235
-0.3138321340 -0.1501106173 0.5168222189 4285470224
-0.3133978546 -0.1493294686 0.5161070228 4285470224
-0.3134671152 -0.1487889141 0.5162211061 4285535504
-0.3135361671 -0.1482480019 0.5163347721 4285601297
-0.3131007850 -0.1474692523 0.5156177878 4285928465
-0.3126649559 -0.1466918886 0.5149000883 4285994258
-0.3127331138 -0.1461516470 0.5150123239 4286255377
-0.3128010333 -0.1456110626 0.5151242018 4286123791
-0.3123641312 -0.1448361278 0.5144046545 4286385934
-0.3124314845 -0.1442957073 0.5145156384 4286517520
-0.3114889562 -0.1432904601 0.5129634142 4286517520
-0.3115556538 -0.1427510828 0.5130732656 4286649106
-0.3111170828 -0.1419808716 0.5123510361 4286714899
-0.3106780648 -0.1412120759 0.5116280913 4286320141
-0.3107438982 -0.1406734139 0.5117364526 4286122248
-0.3108094931 -0.1401344091 0.5118445158 4286253834
-0.3108748794 -0.1395950764 0.5119521618 4286712589
-0.3104344308 -0.1388292909 0.5112268329 4286449417
-0.3104992509 -0.1382901520 0.5113335848 4286253321
-0.3105638623 -0.1377506703 0.5114399791 4286450700
-0.3106282353 -0.1372108608 0.5115459561 4286648079
-0.3106923699 -0.1366707087 0.5116516352 4286516493
-0.3107562959 -0.1361302286 0.5117568374 4286712331
-0.3108199835 -0.1355894208 0.5118617415 4287238675
-0.3108834326 -0.1350482702 0.5119662881 4288025622
-0.3109466732 -0.1345067918 0.5120704174 4288091415
-0.3110096753 -0.1339649856 0.5121741295 4288287511
-0.3110724688 -0.1334228516 0.5122775435 4288221718
-0.3111349940 -0.1328803897 0.5123805404 4288156179
-0.3111973107 -0.1323376000 0.5124831796 4288156179
-0.3112594187 -0.1317944825 0.5125854015 4288024852
-0.3118282855 -0.1314647943 0.5135222673 4288024852
-0.3118900359 -0.1309201568 0.5136238933 4288353045
-0.3119515181 -0.1303751767 0.5137251616 4288484631
-0.3120127916 -0.1298298836 0.5138260722 4288747803
-0.3120737970 -0.1292842627 0.5139265656 4288747803
-0.3121345937 -0.1287383288 0.5140267015 4288747033
-0.3127028048 -0.1284005195 0.5149623752 4288615447
-0.3127632141 -0.1278530657 0.5150619149 4288943385
-0.3128234148 -0.1273052841 0.5151610374 4289074971
-0.3128833473 -0.1267571896 0.5152597427 4288811799
-0.3129430711 -0.1262087822 0.5153580904 4288680213
-0.3130025566 -0.1256600618 0.5154560804 4288746006
-0.3130618036 -0.1251110286 0.5155535936 4288746006
-0.3136291206 -0.1247638986 0.5164878964 4288811284
-0.3136879802 -0.1242133528 0.5165848136 4288811284
-0.3137466311 -0.1236625016 0.5166813731 4289007636
-0.3138050139 -0.1231113374 0.5167775154 4289007636
-0.3143718541 -0.1227585077 0.5177109838 4289333269
-0.3144298494 -0.1222058386 0.5178065300 4291833403
-0.3149964809 -0.1218497083 0.5187397003 4290886086
-0.3160720468 -0.1216874421 0.5205109119 4290951879
-0.3161296248 -0.1211311743 0.5206057429 4285689981
-0.3166960776 -0.1207687557 0.5215386152 4284637293
-0.3167532384 -0.1202109829 0.5216327310 4285164150
-0.3168101609 -0.1196529120 0.5217264891 4286414217
-0.3168668449 -0.1190945357 0.5218197703 4288257187
-0.3174327910 -0.1187264398 0.5227518082 4287204499
-0.3174890578 -0.1181665659 0.5228444934 4287664284
-0.3180547953 -0.1177951768 0.5237761140 4287598491
-0.3186204731 -0.1174216866 0.5247076750 4288584610
-0.3186761737 -0.1168591306 0.5247994065 4289900470
-0.3192416131 -0.1164823547 0.5257306099 4290557885
-0.3192969263 -0.1159183010 0.5258216858 4290952643
-0.3198621273 -0.1155382395 0.5267524719 4290823874
-0.3204272389 -0.1151560768 0.5276830792 4290165944
-0.3209922910 -0.1147718132 0.5286136270 4288519840
-0.3215572536 -0.1143854633 0.5295440555 4283453779
-0.3221221566 -0.1139970124 0.5304743052 4286452505
-0.3231975436 -0.1137862280 0.5322452784 4286913056
-0.3237623572 -0.1133926809 0.5331754088 4287439653
-0.3248378336 -0.1131749898 0.5349465609 4287044895
-0.3259133995 -0.1129533872 0.5367177725 4287632415
-0.3264781237 -0.1125517413 0.5376477838 4289540412
-0.3275537789 -0.1123232245 0.5394191742 4286612875
-0.3234072030 -0.1674234271 0.5335664749 4285610296
-0.3229832649 -0.1666118950 0.5328670144 4286525234
-0.3220579922 -0.1655442417 0.5313405395 4286262062
-0.3211320639 -0.1644796282 0.5298128724 4285868840
-0.3197042942 -0.1631623060 0.5274572968 4285868840
-0.3187768459 -0.1621046364 0.5259271860 4286456608
-0.3178487122 -0.1610500216 0.5243959427 4286456608
-0.3174213469 -0.1602516323 0.5236908197 4286522401
-0.3164919615 -0.1592022628 0.5221574903 4286193436
-0.3165652752 -0.1586588472 0.5222784877 4285864984
-0.3166383803 -0.1581150591 0.5223990679 4286062363
-0.3162093163 -0.1573211849 0.5216912031 4285996568
-0.3157798350 -0.1565286517 0.5209826231 4285733396
-0.3158520460 -0.1559854597 0.5211017132 4285930775
-0.3154217601 -0.1551947743 0.5203918815 4285996568
-0.3149910569 -0.1544054449 0.5196812749 4285930262
-0.3145598769 -0.1536174864 0.5189698935 4285732883
-0.3146308661 -0.1530754119 0.5190870166 4285733137
-0.3141989410 -0.1522893012 0.5183743834 4285535758
-0.3137665391 -0.1515045762 0.5176610351 4285339149
-0.3138366342 -0.1509631425 0.5177766681 4285470735
-0.3134034872 -0.1501802802 0.5170620084 4284880910
-0.3134730458 -0.1496389955 0.5171768069 4284946703
-0.3130390942 -0.1488580257 0.5164608359 4285077776
-0.3131080866 -0.1483168751 0.5165746808 4285143569
-0.3126733899 -0.1475378126 0.5158575177 4285536530
-0.3127418458 -0.1469968259 0.5159704089 4285470737
-0.3123063445 -0.1462196559 0.5152519345 4285731086
-0.3123742342 -0.1456788331 0.5153639317 4285533707
-0.3124419153 -0.1451376677 0.5154756308 4285926925
-0.3120053113 -0.1443629265 0.5147553086 4286058511
-0.3110641241 -0.1433572322 0.5132024884 4286059022
-0.3106265366 -0.1425861716 0.5124805570 4286190608
-0.3106929064 -0.1420471072 0.5125900507 4286190608
-0.3107590377 -0.1415076852 0.5126991272 4285664264
-0.3103203475 -0.1407390833 0.5119754076 4285334786
-0.3103859127 -0.1401998699 0.5120835900 4285400579
-0.3104512691 -0.1396602988 0.5121913552 4285729033
-0.3105163872 -0.1391204000 0.5122988224 4285465861
-0.3100762665 -0.1383548230 0.5115727186 4285137922
-0.3101408482 -0.1378151178 0.5116792321 4285401094
-0.3102051914 -0.1372750849 0.5117853880 4285795852
-0.3102692962 -0.1367347091 0.5118911862 4285598473
-0.3103331923 -0.1361940056 0.5119965672 4285859076
-0.3103968501 -0.1356529593 0.5121015906 4286451213
-0.3104602993 -0.1351115853 0.5122062564 4287435027
-0.3105235100 -0.1345698833 0.5123105645 4287566613
-0.3105864823 -0.1340278387 0.5124144554 4287894036
-0.3106492162 -0.1334854811 0.5125179887 4287696657
-0.3107117414 -0.1329427809 0.5126211047 4287499278
-0.3107740283 -0.1323997527 0.5127239227 4287499278
-0.3108361065 -0.1318564117 0.5128262639 4287630864
-0.3108979166 -0.1313127428 0.5129283071 4287630864
-0.3109595180 -0.1307687461 0.5130299330 4287696655
-0.3115274310 -0.1304365247 0.5139669180 4287828241
-0.3115886748 -0.1298909932 0.5140679479 4288090643
-0.3116496801 -0.1293451488 0.5141685605 4288156436
-0.3117104471 -0.1287989765 0.5142688155 4288156179
-0.3122779429 -0.1284610331 0.5152050853 4287958800
-0.3123383224 -0.1279133409 0.5153046846 4288220689
-0.3123984933 -0.1273653209 0.5154039860 4288418068
-0.3124584258 -0.1268169880 0.5155028701 4288089103
-0.3125181198 -0.1262683570 0.5156013370 4287957517
-0.3130849898 -0.1259234846 0.5165365934 4287957517
-0.3131443262 -0.1253733188 0.5166344643 4287825931
-0.3132033944 -0.1248228550 0.5167319179 4287890697
-0.3132622242 -0.1242720708 0.5168290138 4287890697
-0.3133208454 -0.1237209737 0.5169256926 4288021770
-0.3133791983 -0.1231695712 0.5170219541 4288087563
-0.3139453232 -0.1228165925 0.5179560184 4288217868
-0.3140033185 -0.1222636849 0.5180516243 4291507518
-0.3140610456 -0.1217104718 0.5181469321 4290098623
-0.3146268427 -0.1213529930 0.5190803409 4290690760
-0.3151925504 -0.1209934205 0.5200136900 4285427320
-0.3157582283 -0.1206317544 0.5209469795 4284111460
-0.3163238168 -0.1202679947 0.5218800902 4284309607
-0.3163807392 -0.1197096780 0.5219739676 4286612362
-0.3164373636 -0.1191510558 0.5220674276 4290295741
-0.3170026243 -0.1187828034 0.5230000019 4290229948
-0.3170588613 -0.1182226837 0.5230928063 4291213511
-0.3176238835 -0.1178511381 0.5240249634 4291542476
-0.3181888461 -0.1174774915 0.5249570608 4292327877
-0.3182445168 -0.1169146895 0.5250489116 4291867326
-0.3188092411 -0.1165377498 0.5259806514 4291601070
-0.3188645244 -0.1159734502 0.5260718465 4289890452
-0.3194290102 -0.1155932248 0.5270031095 4289883254
-0.3199934363 -0.1152108982 0.5279343128 4288041050
-0.3205577731 -0.1148264781 0.5288653970 4286266188
-0.3216317594 -0.1146216094 0.5306372643 4285016121
-0.3221960068 -0.1142320856 0.5315682292 4287701806
-0.3232700825 -0.1140203103 0.5333402157 4287438634
-0.3238342702 -0.1136256903 0.5342710614 4287305247
-0.3243983686 -0.1132289767 0.5352017283 4286647317
-0.3254725337 -0.1130072847 0.5369738936 4285337106
-0.3265467882 -0.1127816886 0.5387462378 4287442482
-0.3276211023 -0.1125521809 0.5405186415 4286218631
-0.3234627545 -0.1677595824 0.5346378088 4284888630
-0.3225395381 -0.1666884422 0.5331118107 4285346097
-0.3216156065 -0.1656203270 0.5315847397 4285346097
-0.3206909895 -0.1645552516 0.5300564766 4285411632
-0.3187648654 -0.1629815102 0.5268728137 4285411632
-0.3198407590 -0.1629442424 0.5286511779 4286262048
-0.3184136748 -0.1616324633 0.5262923837 4286130462
-0.3174864352 -0.1605787277 0.5247597694 4286522912
-0.3165585101 -0.1595280617 0.5232260823 4286391326
-0.3161309063 -0.1587320119 0.5225192904 4286455838
-0.3162039518 -0.1581880003 0.5226400495 4286587424
-0.3157755733 -0.1573937833 0.5219319463 4286390817
-0.3153467476 -0.1566009223 0.5212231874 4286259231
-0.3154188991 -0.1560575217 0.5213424563 4286127902
-0.3149892986 -0.1552664936 0.5206323862 4286127902
-0.3150609136 -0.1547232121 0.5207507610 4286062622
-0.3146305084 -0.1539340466 0.5200393796 4285865243
-0.3141996861 -0.1531462520 0.5193272233 4285471766
-0.3137683868 -0.1523598135 0.5186144114 4285340180
-0.3133366704 -0.1515747458 0.5179008245 4285012753
-0.3134067357 -0.1510330886 0.5180166364 4285012753
-0.3129742146 -0.1502499133 0.5173017383 4284946449
-0.3130437434 -0.1497083902 0.5174166560 4285078035
-0.3131130636 -0.1491665244 0.5175312161 4285209875
-0.3126794398 -0.1483857334 0.5168145299 4285144082
-0.3127481937 -0.1478440166 0.5169281363 4285274385
-0.3118108809 -0.1468283087 0.5153788924 4285340178
-0.3123820126 -0.1465235651 0.5163229108 4285404690
-0.3114437163 -0.1455115080 0.5147719979 4285141518
-0.3115112484 -0.1449709833 0.5148836374 4285207054
-0.3110752106 -0.1441967934 0.5141628981 4285404433
-0.3106387258 -0.1434239894 0.5134415030 4285601299
-0.3102017939 -0.1426525861 0.5127193332 4285732885
-0.3102681041 -0.1421132982 0.5128289461 4285863955
-0.3103342056 -0.1415736675 0.5129382014 4285469197
-0.3104000986 -0.1410336941 0.5130470395 4285270537
-0.3099617362 -0.1402652860 0.5123225451 4285204744
-0.3100270629 -0.1397255063 0.5124304891 4284813834
-0.3100921512 -0.1391853690 0.5125380754 4284550662
-0.3096527159 -0.1384194642 0.5118117332 4284549381
-0.3097172379 -0.1378795356 0.5119184256 4284944139
-0.3097815514 -0.1373392791 0.5120247006 4285666063
-0.3098456562 -0.1367986798 0.5121306181 4285205512
-0.3094047606 -0.1360358149 0.5114019513 4285596931
-0.3099731505 -0.1357164681 0.5123413801 4286123275
-0.3100365400 -0.1351748705 0.5124461651 4286976531
-0.3100997210 -0.1346329302 0.5125505924 4287173910
-0.3101626933 -0.1340906620 0.5126546621 4287173140
-0.3102253973 -0.1335480660 0.5127583146 4286712589
-0.3102878928 -0.1330051571 0.5128616095 4286318601
-0.3103501499 -0.1324619055 0.5129645467 4286252808
-0.3104121983 -0.1319183260 0.5130670667 4286187527
-0.3104740083 -0.1313744187 0.5131692290 4286055941
-0.3105355799 -0.1308301985 0.5132709742 4285991178
-0.3105969131 -0.1302856356 0.5133723617 4286122764
-0.3111639917 -0.1299520731 0.5143096447 4286056971
-0.3112249672 -0.1294059902 0.5144104362 4286385936
-0.3112857044 -0.1288595945 0.5145108700 4286911764
-0.3118524551 -0.1285215169 0.5154476166 4286911764
-0.3119128346 -0.1279735863 0.5155473948 4287041809
-0.3119729757 -0.1274253279 0.5156468153 4286910223
-0.3120328784 -0.1268767715 0.5157458186 4287040526
-0.3120925426 -0.1263278872 0.5158444643 4286974733
-0.3126587272 -0.1259828806 0.5167802572 4287170826
-0.3127180040 -0.1254324913 0.5168782473 4287170826
-0.3127770722 -0.1248817816 0.5169758797 4287300870
-0.3128358722 -0.1243307590 0.5170730948 4287300870
-0.3128944635 -0.1237794235 0.5171698928 4287562759
-0.3129527867 -0.1232277825 0.5172663331 4287431173
-0.3135182261 -0.1228746623 0.5182008743 4288874268
-0.3135761619 -0.1223215088 0.5182966590 4291834953
-0.3136338890 -0.1217680573 0.5183920860 4290885549
-0.3141989410 -0.1214104295 0.5193260312 4291082928
-0.3142562807 -0.1208554655 0.5194208026 4287067004
-0.3148211241 -0.1204945520 0.5203543901 4284303698
-0.3148780763 -0.1199380830 0.5204485059 4287854467
-0.3159506619 -0.1197664216 0.5222213864 4290486187
-0.3160072863 -0.1192075536 0.5223149657 4290687416
-0.3165718317 -0.1188391447 0.5232480764 4289700521
-0.3171362877 -0.1184686348 0.5241810083 4290023067
-0.3171923459 -0.1179070771 0.5242736936 4289167758
-0.3177565932 -0.1175332740 0.5252063274 4289944172
-0.3178122640 -0.1169702187 0.5252983570 4288299347
-0.3183762729 -0.1165931225 0.5262305737 4288555573
-0.3184315264 -0.1160285771 0.5263218880 4288029229
-0.3189952970 -0.1156481877 0.5272537470 4288025119
-0.3195590079 -0.1152656972 0.5281854272 4288288291
-0.3201226294 -0.1148811132 0.5291170478 4288355878
-0.3206861615 -0.1144944280 0.5300484896 4288290085
-0.3217587471 -0.1142864823 0.5318213105 4287569442
-0.3228314221 -0.1140746251 0.5335942507 4286845719
-0.3233948946 -0.1136798337 0.5345256329 4284681234
-0.3244676590 -0.1134610623 0.5362987518 4284615441
-0.3255404830 -0.1132383794 0.5380719900 4282059796
-0.3261038661 -0.1128354818 0.5390031934 4282059796
-0.3271767795 -0.1126058772 0.5407765508 4286018168
-0.3210964203 -0.1662478447 0.5317026973 4282857523
-0.3201736212 -0.1651809961 0.5301746130 4282791730
-0.3197497129 -0.1643740088 0.5294726491 4282726450
-0.3178261817 -0.1628004462 0.5262874961 4282660657
-0.3189005554 -0.1627640575 0.5280665755 4285540894
-0.3174754083 -0.1614525616 0.5257065892 4285540894
-0.3170494437 -0.1606526375 0.5250012875 4285999650
-0.3161228895 -0.1596015096 0.5234670043 4285933857
-0.3156959116 -0.1588051319 0.5227599740 4286064673
-0.3157689571 -0.1582609117 0.5228809118 4286196259
-0.3153412044 -0.1574663669 0.5221726298 4286326560
-0.3149130344 -0.1566731632 0.5214636326 4286260767
-0.3149851859 -0.1561295390 0.5215830803 4286129183
-0.3145562112 -0.1553381979 0.5208727717 4286063390
-0.3141268194 -0.1545481980 0.5201616883 4285997599
-0.3141980767 -0.1540051848 0.5202797055 4285931806
-0.3137678802 -0.1532170624 0.5195673704 4285865758
-0.3133372664 -0.1524302959 0.5188542604 4285734172
-0.3129061759 -0.1516449004 0.5181404948 4285537561
-0.3129762411 -0.1511030197 0.5182564855 4285471768
-0.3125443757 -0.1503195018 0.5175413489 4285732883
-0.3126138747 -0.1497777700 0.5176564455 4285864469
-0.3126831353 -0.1492356807 0.5177711248 4285864982
-0.3127521873 -0.1486932337 0.5178855062 4285733396
-0.3123189211 -0.1479126215 0.5171679854 4285601810
-0.3123874068 -0.1473703235 0.5172814131 4285601810
-0.3114510179 -0.1463555545 0.5157308578 4285470224
-0.3110164106 -0.1455791146 0.5150111914 4285207052
-0.3110839128 -0.1450383812 0.5151229501 4285272586
-0.3111512065 -0.1444972754 0.5152344108 4285404172
-0.3102127016 -0.1434907168 0.5136803389 4285404684
-0.3097764552 -0.1427189857 0.5129579306 4285404684
-0.3098427355 -0.1421794742 0.5130677223 4285470222
-0.3099088073 -0.1416396201 0.5131770968 4285141257
-0.3099746406 -0.1410994083 0.5132861733 4284812294
-0.3095369637 -0.1403306872 0.5125613809 4284812294
-0.3096022606 -0.1397906691 0.5126695037 4285139719
-0.3096673191 -0.1392503232 0.5127772689 4284942340
-0.3092285395 -0.1384840757 0.5120506287 4284744961
-0.3092930317 -0.1379439235 0.5121574998 4285073926
-0.3093573153 -0.1374034435 0.5122639537 4285796366
-0.3094213903 -0.1368626058 0.5123699903 4285467401
-0.3089811802 -0.1360994279 0.5116410851 4285466115
-0.3090446889 -0.1355588138 0.5117462277 4285926666
-0.3091079593 -0.1350178719 0.5118510127 4286649361
-0.3091710210 -0.1344765872 0.5119553804 4286846740
-0.3097382784 -0.1341534704 0.5128947496 4286977557
-0.3098009825 -0.1336106509 0.5129985809 4286517006
-0.3098634481 -0.1330674887 0.5131019950 4286319113
-0.3099256754 -0.1325240135 0.5132050514 4286253320
-0.3099876940 -0.1319802105 0.5133077502 4286318854
-0.3100494742 -0.1314360797 0.5134100318 4286187268
-0.3101110160 -0.1308916211 0.5135119557 4286579968
-0.3101723492 -0.1303468347 0.5136135221 4286711554
-0.3102334142 -0.1298017353 0.5137146711 4286777347
-0.3107996285 -0.1294668168 0.5146522522 4287106312
-0.3108603656 -0.1289201826 0.5147528052 4287632143
-0.3114264011 -0.1285819709 0.5156900883 4287697936
-0.3109810948 -0.1278259605 0.5149527192 4287959057
-0.3115468621 -0.1274853200 0.5158895850 4287893264
-0.3116067350 -0.1269365251 0.5159887075 4287827214
-0.3116663694 -0.1263874024 0.5160874724 4287695628
-0.3117257953 -0.1258379817 0.5161858797 4287826703
-0.3122911155 -0.1254916340 0.5171219707 4287958289
-0.3123501241 -0.1249406785 0.5172197223 4288220691
-0.3124089241 -0.1243894175 0.5173170567 4288418070
-0.3124674857 -0.1238378510 0.5174140334 4288614936
-0.3125257790 -0.1232859716 0.5175105929 4288614936
-0.3125838637 -0.1227337867 0.5176067352 4289402135
-0.3131484091 -0.1223793104 0.5185415745 4291441718
-0.3132061064 -0.1218256131 0.5186371207 4291985012
-0.3132635653 -0.1212716103 0.5187322497 4292445563
-0.3138277531 -0.1209126413 0.5196664929 4291387493
-0.3143919110 -0.1205515712 0.5206006765 4289545289
-0.3149559796 -0.1201884001 0.5215347409 4290396748
-0.3155200183 -0.1198231354 0.5224686861 4290133576
-0.3160839677 -0.1194557697 0.5234025717 4288751925
-0.3161404133 -0.1188954636 0.5234960318 4288422960
-0.3167041540 -0.1185248047 0.5244295597 4288485419
-0.3172678351 -0.1181520373 0.5253629088 4288090661
-0.3173237443 -0.1175890341 0.5254554749 4289007137
-0.3178871870 -0.1172129735 0.5263885260 4289401895
-0.3179426789 -0.1166484728 0.5264803767 4288880163
-0.3185058832 -0.1162691191 0.5274130106 4288814370
-0.3185609579 -0.1157031283 0.5275042057 4287961898
-0.3191239536 -0.1153204814 0.5284364820 4287632933
-0.3196868598 -0.1149357259 0.5293685794 4286386462
-0.3202497065 -0.1145488769 0.5303005576 4285860118
-0.3213208616 -0.1143408492 0.5320743322 4283894290
-0.3223921359 -0.1141289100 0.5338482261 4283302153
-0.3229548931 -0.1137339473 0.5347800851 4281338122
-0.3240262270 -0.1135150939 0.5365540981 4281667087
-0.3250976503 -0.1132923216 0.5383282900 4279174406
-0.3261691630 -0.1130656376 0.5401026011 4281082403
-0.3272407651 -0.1128350347 0.5418770313 4286217087
-0.3173124492 -0.1634216458 0.5264049768 4281742902
-0.3183853924 -0.1633873880 0.5281848907 4281677109
-0.3179611266 -0.1625835896 0.5274810791 4283050792
-0.3170371652 -0.1615267694 0.5259482265 4282984999
-0.3161124885 -0.1604729891 0.5244142413 4283574824
-0.3156866431 -0.1596749425 0.5237078071 4283640617
-0.3152603507 -0.1588782221 0.5230005980 4284426277
-0.3148336112 -0.1580828577 0.5222926736 4284557863
-0.3149062693 -0.1575389057 0.5224131942 4285605411
-0.3144787252 -0.1567453742 0.5217039585 4285671204
-0.3145508468 -0.1562015414 0.5218235850 4286129185
-0.3141225576 -0.1554098576 0.5211130381 4286129185
-0.3136937916 -0.1546195298 0.5204017758 4286129696
-0.3132646084 -0.1538305730 0.5196897388 4286129696
-0.3133355081 -0.1532878429 0.5198073983 4285933344
-0.3129055202 -0.1525007337 0.5190940499 4285867551
-0.3124751151 -0.1517150104 0.5183800459 4285670426
-0.3125451207 -0.1511729211 0.5184962153 4285538840
-0.3126149178 -0.1506304592 0.5186119676 4285865243
-0.3121834099 -0.1498471200 0.5178961158 4285996829
-0.3122526407 -0.1493048072 0.5180109739 4285866013
-0.3123216629 -0.1487621367 0.5181254745 4285668634
-0.3118890226 -0.1479811966 0.5174077749 4285536793
-0.3114559650 -0.1472016424 0.5166893005 4285536793
-0.3115240932 -0.1466596276 0.5168023705 4285601558
-0.3110902607 -0.1458819807 0.5160826445 4285404179
-0.3106559813 -0.1451057345 0.5153622031 4285666065
-0.3107232451 -0.1445644200 0.5154737830 4285731858
-0.3102881908 -0.1437900811 0.5147520304 4285927952
-0.3098526895 -0.1430171430 0.5140295625 4285993745
-0.3094167709 -0.1422456205 0.5133063793 4285993745
-0.3094828129 -0.1417055279 0.5134159327 4285730573
-0.3095486164 -0.1411651075 0.5135251284 4285467403
-0.3091115952 -0.1403960437 0.5128001571 4285335817
-0.3091768622 -0.1398558170 0.5129083991 4285074439
-0.3087390661 -0.1390887052 0.5121821165 4285008646
-0.3088037670 -0.1385486722 0.5122894645 4284876806
-0.3088682592 -0.1380082965 0.5123964548 4285205771
-0.3089325130 -0.1374675781 0.5125030279 4285666063
-0.3089965284 -0.1369265169 0.5126092434 4285337098
-0.3090603352 -0.1363851279 0.5127151012 4285270276
-0.3091239333 -0.1358434111 0.5128206015 4285665034
-0.3086837232 -0.1350809932 0.5120903254 4286518803
-0.3087467253 -0.1345394850 0.5121948719 4286716182
-0.3093132973 -0.1342162490 0.5131347775 4287240215
-0.3093759716 -0.1336731911 0.5132387280 4287042836
-0.3094384074 -0.1331298053 0.5133423209 4287303441
-0.3095006049 -0.1325860918 0.5134454966 4287303441
-0.3095625937 -0.1320420653 0.5135483146 4287565071
-0.3096243441 -0.1314976960 0.5136507750 4287565071
-0.3096858561 -0.1309530139 0.5137528181 4287630862
-0.3097471595 -0.1304080039 0.5138545036 4287762448
-0.3098082244 -0.1298626661 0.5139557719 4287696657
-0.3103737235 -0.1295276135 0.5148939490 4287762450
-0.3104344010 -0.1289807558 0.5149946213 4288222231
-0.3104948699 -0.1284335554 0.5150948763 4288353817
-0.3110600412 -0.1280940026 0.5160325170 4288616478
-0.3111201525 -0.1275452822 0.5161322355 4288616478
-0.3116851449 -0.1272024065 0.5170695186 4288419099
-0.3117448688 -0.1266521662 0.5171685815 4288221720
-0.3118043542 -0.1261016130 0.5172672868 4288090392
-0.3118636012 -0.1255507469 0.5173655748 4288156185
-0.3119225800 -0.1249995604 0.5174634457 4288025369
-0.3119813502 -0.1244480610 0.5175608993 4288156955
-0.3125456274 -0.1240970567 0.5184969902 4288157214
-0.3126040101 -0.1235440448 0.5185938478 4288091421
-0.3126621544 -0.1229907200 0.5186903477 4288746008
-0.3127200603 -0.1224370897 0.5187863708 4289469731
-0.3127777278 -0.1218831539 0.5188820362 4289080361
-0.3128351569 -0.1213289052 0.5189773440 4288422431
-0.3133986294 -0.1209697872 0.5199121237 4288485401
-0.3139620721 -0.1206085682 0.5208467841 4288288022
-0.3145254254 -0.1202452481 0.5217813849 4288289305
-0.3150887191 -0.1198798344 0.5227159262 4288091926
-0.3151453137 -0.1193204820 0.5228097439 4288747803
-0.3157083988 -0.1189517602 0.5237439275 4288945182
-0.3167782724 -0.1187709719 0.5255187750 4289206046
-0.3168343902 -0.1182080209 0.5256118774 4289008667
-0.3173972964 -0.1178330034 0.5265456438 4288878110
-0.3169458807 -0.1170812249 0.5257968307 4288878110
-0.3175084591 -0.1167038083 0.5267301202 4287108116
-0.3180709481 -0.1163242906 0.5276632905 4286384393
-0.3181260228 -0.1157580465 0.5277546048 4284354843
-0.3186882734 -0.1153752357 0.5286873579 4284025878
-0.3192504644 -0.1149903163 0.5296199918 4282911766
-0.3198125958 -0.1146033034 0.5305525064 4282714387
-0.3203746080 -0.1142141894 0.5314849019 4281011220
-0.3214443922 -0.1140030697 0.5332596302 4280682255
-0.3225142360 -0.1137880459 0.5350344181 4279899160
-0.3235841691 -0.1135691032 0.5368093848 4280359711
-0.3246541917 -0.1133462414 0.5385845304 4278847758
-0.3252161443 -0.1129429936 0.5395167470 4282400580
-0.3267944753 -0.1128887758 0.5421351194 4287137676
-0.3187904060 -0.1650745720 0.5298330188 4281412397
-0.3198623955 -0.1650390029 0.5316146612 4281674286
-0.3214329779 -0.1652558148 0.5342249870 4281674286
-0.3170224726 -0.1624028683 0.5268947482 4280889133
-0.3165983260 -0.1616009325 0.5261897445 4280889133
-0.3156749904 -0.1605467200 0.5246551633 4281413935
-0.3152498007 -0.1597483307 0.5239484906 4281479728
-0.3148241639 -0.1589512825 0.5232411027 4282461227
-0.3143980801 -0.1581555903 0.5225329399 4282658606
-0.3144707084 -0.1576114148 0.5226536393 4284098603
-0.3140438497 -0.1568175554 0.5219441652 4284295982
-0.3141159117 -0.1562734991 0.5220639706 4285080102
-0.3136882782 -0.1554814726 0.5213532448 4285145895
-0.3132601678 -0.1546908170 0.5206417441 4285539366
-0.3128316402 -0.1539015323 0.5199294686 4285605159
-0.3129025102 -0.1533585787 0.5200472474 4285801507
-0.3129731417 -0.1528152674 0.5201646686 4285801507
-0.3125435114 -0.1520283371 0.5194506049 4285932064
-0.3121134341 -0.1512427777 0.5187358260 4285866271
-0.3121831715 -0.1507001072 0.5188517570 4285799965
-0.3112519085 -0.1496757865 0.5173040032 4285865758
-0.3113210201 -0.1491341293 0.5174188018 4286062622
-0.3108892739 -0.1483532190 0.5167012811 4285931036
-0.3109578192 -0.1478117108 0.5168151855 4285865243
-0.3110261559 -0.1472698450 0.5169287324 4285931036
-0.3110942543 -0.1467276216 0.5170419216 4285996057
-0.3106610775 -0.1459496468 0.5163220167 4285798678
-0.3102274537 -0.1451730579 0.5156013370 4285732115
-0.3102946877 -0.1446315199 0.5157130361 4285797908
-0.3103616834 -0.1440896392 0.5158243775 4285929748
-0.3094254732 -0.1430835873 0.5142683983 4285995541
-0.3094918132 -0.1425427496 0.5143786669 4285995028
-0.3095579147 -0.1420015693 0.5144885182 4285797649
-0.3091219962 -0.1412307769 0.5137640238 4285665293
-0.3091875613 -0.1406897753 0.5138729811 4285533707
-0.3092528880 -0.1401484460 0.5139815807 4285468686
-0.3088158667 -0.1393801272 0.5132552385 4285468686
-0.3088806570 -0.1388389766 0.5133628845 4285402893
-0.3089452088 -0.1382974982 0.5134702325 4285600272
-0.3090095520 -0.1377556771 0.5135771632 4285862672
-0.3090736568 -0.1372135133 0.5136836767 4285599500
-0.3091375232 -0.1366710216 0.5137898326 4285664264
-0.3092011809 -0.1361281872 0.5138956308 4286059022
-0.3087617457 -0.1353645623 0.5131652951 4286978071
-0.3088248372 -0.1348219365 0.5132701397 4287175450
-0.3088877201 -0.1342789829 0.5133746266 4287765019
-0.3089503646 -0.1337357014 0.5134787560 4287567640
-0.3090127707 -0.1331920922 0.5135824680 4287959061
-0.3090749383 -0.1326481551 0.5136858225 4287893268
-0.3091368973 -0.1321038902 0.5137888193 4288285971
-0.3091986179 -0.1315592974 0.5138913989 4288285971
-0.3092601299 -0.1310143769 0.5139935613 4288024599
-0.3093213737 -0.1304691285 0.5140954256 4288221978
-0.3098863065 -0.1301351637 0.5150343180 4288156185
-0.3099471927 -0.1295883954 0.5151355267 4288156185
-0.3100078404 -0.1290412843 0.5152363181 4288353306
-0.3105724752 -0.1287028044 0.5161747336 4288484892
-0.3106327653 -0.1281541735 0.5162749290 4288944416
-0.3111971915 -0.1278123707 0.5172130466 4289076002
-0.3112571239 -0.1272622049 0.5173125863 4288681242
-0.3118213713 -0.1269170940 0.5182504058 4288549656
-0.3118809164 -0.1263654083 0.5183493495 4288615449
-0.3119402230 -0.1258134097 0.5184479356 4288681242
-0.3119992912 -0.1252610981 0.5185461640 4288615449
-0.3120581508 -0.1247084662 0.5186439157 4288681242
-0.3121167421 -0.1241555288 0.5187413096 4288616217
-0.3121750951 -0.1236022711 0.5188382864 4288550424
-0.3122332096 -0.1230487153 0.5189349055 4288811548
-0.3122910857 -0.1224948391 0.5190311074 4289140513
-0.3123487234 -0.1219406649 0.5191268921 4288355100
-0.3124061227 -0.1213861778 0.5192223191 4288157721
-0.3129689097 -0.1210269108 0.5201576352 4289140253
-0.3135316074 -0.1206655428 0.5210928321 4289206046
-0.3140942454 -0.1203020737 0.5220279694 4288420129
-0.3146568537 -0.1199365035 0.5229629874 4288617508
-0.3147133887 -0.1193769053 0.5230569839 4288028200
-0.3152757883 -0.1190080345 0.5239916444 4287567649
-0.3158380985 -0.1186370552 0.5249262452 4286320923
-0.3158940971 -0.1180747598 0.5250192881 4285860372
-0.3169625103 -0.1178888083 0.5267950296 4283699731
-0.3165117800 -0.1171366870 0.5260459185 4283239180
-0.3170736134 -0.1167591140 0.5269797444 4282189321
-0.3176354170 -0.1163794324 0.5279133916 4281860356
-0.3176904321 -0.1158129424 0.5280048847 4280618000
-0.3182519972 -0.1154299676 0.5289381742 4280618000
-0.3188134730 -0.1150448918 0.5298713446 4280029976
-0.3193748593 -0.1146577075 0.5308043957 4280161562
-0.3199361861 -0.1142684296 0.5317373276 4279374362
-0.3204974234 -0.1138770431 0.5326700807 4279308569
-0.3215657771 -0.1136628389 0.5344457030 4280096545
-0.3231414855 -0.1136230901 0.5370646119 4280228131
-0.3242101073 -0.1134001389 0.5388406515 4280556067
-0.3247713447 -0.1129967198 0.5397734046 4284372061
-0.3199157417 -0.1653718054 0.5326866508 4280886051
-0.3199913800 -0.1648188978 0.5328125954 4280688672
-0.3185734749 -0.1634992063 0.5304516554 4280426011
-0.3176525235 -0.1624388844 0.5289182067 4280294425
-0.3167309165 -0.1613816321 0.5273836255 4280493344
-0.3148123622 -0.1598216891 0.5241891146 4280822309
-0.3158820868 -0.1597803682 0.5259702802 4280691495
-0.3149586618 -0.1587305814 0.5244327188 4280888874
-0.3130376041 -0.1571833044 0.5212339759 4281412908
-0.3136083484 -0.1568896919 0.5221843123 4281412908
-0.3131816685 -0.1560968608 0.5214738846 4281871404
-0.3127545714 -0.1553053707 0.5207627416 4281871404
-0.3128259480 -0.1547620893 0.5208815932 4282133548
-0.3123980761 -0.1539724618 0.5201691389 4282199341
-0.3119697571 -0.1531842053 0.5194559097 4282461227
-0.3120402694 -0.1526415348 0.5195733309 4282527020
-0.3116111755 -0.1518551409 0.5188588500 4282985259
-0.3116811216 -0.1513126045 0.5189753175 4283051052
-0.3107516468 -0.1502864808 0.5174276829 4285274906
-0.3108209372 -0.1497449577 0.5175430179 4285406492
-0.3113898337 -0.1494429559 0.5184903145 4285668379
-0.3104589283 -0.1484218389 0.5169402361 4285602586
-0.3105274439 -0.1478801072 0.5170543194 4285864471
-0.3105957210 -0.1473380178 0.5171680450 4285930264
-0.3106638193 -0.1467955858 0.5172814131 4285995287
-0.3107316792 -0.1462527812 0.5173943639 4285929494
-0.3097983301 -0.1452403516 0.5158402920 4285929496
-0.3098655343 -0.1446985900 0.5159522295 4286061082
-0.3099325001 -0.1441564858 0.5160636902 4286257948
-0.3094984293 -0.1433820128 0.5153409839 4286257948
-0.3090639412 -0.1426089406 0.5146175027 4286388505
-0.3091300428 -0.1420675367 0.5147275329 4286256919
-0.3091959059 -0.1415257901 0.5148372054 4286387474
-0.3087603152 -0.1407551914 0.5141119361 4286255888
-0.3088256121 -0.1402136236 0.5142206550 4286387478
-0.3088907003 -0.1396717280 0.5143290162 4286387478
-0.3084540069 -0.1389036179 0.5136018991 4286386963
-0.3090201914 -0.1385868937 0.5145446658 4286386963
-0.3085828424 -0.1378198564 0.5138164163 4286518035
-0.3086469173 -0.1372774690 0.5139231086 4286452242
-0.3087107837 -0.1367347538 0.5140294433 4286649106
-0.3087744117 -0.1361916959 0.5141353607 4287043864
-0.3088378012 -0.1356482953 0.5142409205 4287503900
-0.3089009821 -0.1351045668 0.5143461227 4287569693
-0.3084615469 -0.1343417019 0.5136144161 4287831325
-0.3085241616 -0.1337981969 0.5137186646 4287633946
-0.3085865378 -0.1332543641 0.5138225555 4287698197
-0.3086486757 -0.1327101886 0.5139260292 4287632404
-0.3087106049 -0.1321657002 0.5140291452 4287828756
-0.3087722957 -0.1316208690 0.5141319036 4287894549
-0.3088337779 -0.1310757250 0.5142342448 4288090132
-0.3093980849 -0.1307428330 0.5151739120 4288287511
-0.3094592094 -0.1301961392 0.5152755976 4288419610
-0.3095200658 -0.1296491325 0.5153769851 4288551196
-0.3095807135 -0.1291017979 0.5154779553 4288616987
-0.3101446033 -0.1287631840 0.5164168477 4288682780
-0.3102048635 -0.1282143146 0.5165172219 4288749343
-0.3107685745 -0.1278723776 0.5174558163 4288815136
-0.3108284771 -0.1273219734 0.5175555944 4288420378
-0.3113920093 -0.1269767284 0.5184938908 4288091413
-0.3114515245 -0.1264248043 0.5185930133 4288222229
-0.3115108013 -0.1258725673 0.5186917186 4288353815
-0.3115698695 -0.1253200173 0.5187900662 4288419351
-0.3116286695 -0.1247671470 0.5188879967 4288419351
-0.3121915758 -0.1244149655 0.5198252797 4288419351
-0.3122500181 -0.1238605753 0.5199225545 4288156179
-0.3118036687 -0.1231066808 0.5191793442 4287695889
-0.3118615150 -0.1225525737 0.5192757249 4287695889
-0.3124238551 -0.1221955642 0.5202120543 4286386700
-0.3124813437 -0.1216399372 0.5203077197 4286452493
-0.3125385642 -0.1210840121 0.5204030275 4285993231
-0.3131005466 -0.1207224950 0.5213387609 4285532680
-0.3136624694 -0.1203588694 0.5222744346 4283566606
-0.3137191534 -0.1198002324 0.5223688483 4283566606
-0.3142808676 -0.1194333062 0.5233041048 4282127127
-0.3148425221 -0.1190642789 0.5242393613 4281732369
-0.3154041171 -0.1186931506 0.5251744390 4281142803
-0.3159656525 -0.1183199212 0.5261093974 4281142803
-0.3165270984 -0.1179445833 0.5270442963 4280094995
-0.3165827692 -0.1173796356 0.5271369815 4279831823
-0.3171439767 -0.1170009971 0.5280714631 4279896597
-0.3171992302 -0.1164345592 0.5281634331 4279962390
-0.3172542453 -0.1158678159 0.5282550454 4279833114
-0.3178150654 -0.1154846773 0.5291888714 4279767321
-0.3183758259 -0.1150994375 0.5301225781 4279505948
-0.3189364970 -0.1147120893 0.5310561657 4279440155
-0.3194971085 -0.1143226400 0.5319895744 4279046167
-0.3200576305 -0.1139310896 0.5329229236 4279375132
-0.3211245537 -0.1137168035 0.5346994400 4280360998
-0.3262987435 -0.1143417656 0.5433149338 4282071358
-0.3215336800 -0.1659201533 0.5363726020 4281149736
-0.3191241324 -0.1640852690 0.5323531032 4280818720
-0.3177075982 -0.1627680659 0.5299900174 4280621341
-0.3162901402 -0.1614556313 0.5276254416 4280753697
-0.3148717582 -0.1601479948 0.5252593756 4281016869
-0.3169352710 -0.1606101096 0.5287016630 4280754726
-0.3145205379 -0.1588034779 0.5246735215 4280952105
-0.3140955567 -0.1580067277 0.5239645243 4280887084
-0.3126743436 -0.1567122638 0.5215937495 4280755498
-0.3132442534 -0.1564173102 0.5225444436 4281017641
-0.3128179312 -0.1556246281 0.5218332410 4281017641
-0.3123911321 -0.1548333168 0.5211213231 4281213735
-0.3124622703 -0.1542894393 0.5212399364 4281213735
-0.3120347261 -0.1534999758 0.5205267668 4281476132
-0.3116067350 -0.1527118832 0.5198127627 4281476132
-0.3111782968 -0.1519251615 0.5190981030 4281803557
-0.3112482131 -0.1513824165 0.5192146897 4281803557
-0.3108190000 -0.1505975574 0.5184987187 4281934111
-0.3103893697 -0.1498140991 0.5177819729 4282065697
-0.3104583919 -0.1492719948 0.5178971291 4282393120
-0.3100279570 -0.1484904289 0.5171791315 4282327327
-0.3115945160 -0.1486632079 0.5197923779 4282655005
-0.3101647198 -0.1474061757 0.5174072385 4282655005
-0.3102327585 -0.1468635052 0.5175207853 4282785308
-0.3103005886 -0.1463204771 0.5176339149 4282653722
-0.3098683953 -0.1455423683 0.5169129372 4282916383
-0.3099356592 -0.1449995041 0.5170251727 4283047969
-0.3100027144 -0.1444562972 0.5171369910 4283572517
-0.3090693355 -0.1434485018 0.5155799389 4283638310
-0.3091357052 -0.1429063380 0.5156906843 4283834146
-0.3092018664 -0.1423638463 0.5158010721 4283768353
-0.3087673783 -0.1415915042 0.5150762796 4283964444
-0.3088330030 -0.1410491765 0.5151857138 4283832858
-0.3088983893 -0.1405065209 0.5152947903 4285142035
-0.3089635372 -0.1399635077 0.5154035091 4285076242
-0.3085276186 -0.1391941905 0.5146762729 4285207314
-0.3085922301 -0.1386513710 0.5147840381 4285207314
-0.3086566031 -0.1381082237 0.5148914456 4285338129
-0.3087207675 -0.1375647187 0.5149984956 4285338129
-0.3087846935 -0.1370208859 0.5151051283 4285863190
-0.3083470166 -0.1362551600 0.5143750310 4286126362
-0.3084103763 -0.1357115507 0.5144807100 4286651677
-0.3084735274 -0.1351675838 0.5145860314 4286717470
-0.3085364401 -0.1346233040 0.5146909952 4286913820
-0.3085991144 -0.1340786815 0.5147956014 4286716441
-0.3086615801 -0.1335337162 0.5148997903 4286518549
-0.3087238073 -0.1329884380 0.5150035620 4286386963
-0.3087858260 -0.1324428171 0.5151069760 4286386963
-0.3088475764 -0.1318968832 0.5152100325 4286386963
-0.3089091182 -0.1313506067 0.5153126717 4286583828
-0.3089704216 -0.1308040172 0.5154149532 4286715414
-0.3095339835 -0.1304688901 0.5163550973 4286716443
-0.3095949292 -0.1299207658 0.5164567232 4286848029
-0.3096556365 -0.1293723136 0.5165580511 4286389534
-0.3097161055 -0.1288235337 0.5166589022 4286389534
-0.3102792501 -0.1284826696 0.5175982714 4286063137
-0.3108423352 -0.1281397045 0.5185376406 4286063137
-0.3109022975 -0.1275881827 0.5186376572 4285341471
-0.3109620214 -0.1270363331 0.5187373161 4284880920
-0.3110215366 -0.1264841706 0.5188365579 4284356121
-0.3110807836 -0.1259317100 0.5189353824 4284224535
-0.3111397922 -0.1253789067 0.5190338492 4283962134
-0.3117021620 -0.1250277907 0.5199719667 4283896341
-0.3117607832 -0.1244734749 0.5200697780 4283633939
-0.3118191957 -0.1239188537 0.5201671720 4283239181
-0.3113735020 -0.1231646240 0.5194237232 4282255114
-0.3114313483 -0.1226102710 0.5195202231 4282189321
-0.3119929731 -0.1222531125 0.5204570889 4282254857
-0.3120504022 -0.1216972545 0.5205528736 4282057478
-0.3126118183 -0.1213367879 0.5214894414 4280942596
-0.3126688898 -0.1207794175 0.5215846300 4281008389
-0.3132300973 -0.1204156429 0.5225207806 4280944146
-0.3132867515 -0.1198567599 0.5226153135 4281075732
-0.3138477504 -0.1194896847 0.5235511661 4279833627
-0.3144086599 -0.1191205010 0.5244868994 4279965213
-0.3149695396 -0.1187492162 0.5254225135 4280096796
-0.3155303299 -0.1183758304 0.5263580084 4280031003
-0.3155861497 -0.1178118363 0.5264511108 4280094743
-0.3161467016 -0.1174351424 0.5273862481 4279963157
-0.3167072237 -0.1170563474 0.5283212662 4279833113
-0.3167624474 -0.1164896563 0.5284134150 4279767320
-0.3168174326 -0.1159226671 0.5285050869 4279702559
-0.3173775375 -0.1155393645 0.5294394493 4279636766
-0.3179375827 -0.1151539609 0.5303736925 4279963417
-0.3184975386 -0.1147664487 0.5313078165 4279897624
-0.3190574050 -0.1143768355 0.5322417617 4279832086
-0.3201229274 -0.1141654700 0.5340192318 4280292637
-0.3159962595 -0.1604315042 0.5281137228 4280950054
-0.3145788014 -0.1591277122 0.5257447362 4281015847
-0.3138021231 -0.1569867432 0.5244467258 4280754467
-0.3133766949 -0.1561920047 0.5237357020 4280754467
-0.3134483397 -0.1556456834 0.5238554478 4280885535
-0.3130221367 -0.1548527926 0.5231431723 4280885535
-0.3125954568 -0.1540612578 0.5224301219 4280623645
-0.3116704822 -0.1530266404 0.5208842158 4280557852
-0.3107448220 -0.1519951373 0.5193371773 4280229914
-0.3108147085 -0.1514521688 0.5194540024 4280164121
-0.3108843863 -0.1509088427 0.5195704103 4280359968
-0.3109538257 -0.1503651440 0.5196864605 4280491554
-0.3105246127 -0.1495809853 0.5189691782 4280622629
-0.3105935156 -0.1490374357 0.5190842748 4280622629
-0.3101635277 -0.1482551694 0.5183656812 4280688422
-0.3102318645 -0.1477117687 0.5184798837 4280688422
-0.3102999926 -0.1471679956 0.5185937881 4280557090
-0.3098689020 -0.1463881582 0.5178732872 4280425504
-0.3099364936 -0.1458445638 0.5179862380 4280359711
-0.3095046282 -0.1450666189 0.5172644854 4280359711
-0.3095716536 -0.1445231885 0.5173764825 4280687906
-0.3091390133 -0.1437471807 0.5166534781 4280753699
-0.3092055023 -0.1432039291 0.5167645216 4280622113
-0.3092717230 -0.1426603198 0.5168752670 4280622113
-0.3088380098 -0.1418867707 0.5161504149 4280622113
-0.3089036942 -0.1413433552 0.5162601471 4280424734
-0.3084692061 -0.1405717432 0.5155340433 4281864721
-0.3085343540 -0.1400285214 0.5156428814 4281733135
-0.3085992336 -0.1394849420 0.5157513618 4281863949
-0.3086639345 -0.1389410198 0.5158594251 4281863949
-0.3082280159 -0.1381724477 0.5151309371 4282125324
-0.3082921505 -0.1376287192 0.5152381063 4282125324
-0.3083560467 -0.1370846629 0.5153448582 4282453263
-0.3084197044 -0.1365402639 0.5154513121 4282584849
-0.3084831536 -0.1359955370 0.5155573487 4283504154
-0.3085463643 -0.1354504675 0.5156629682 4283701533
-0.3086093664 -0.1349050552 0.5157682300 4283963933
-0.3081710339 -0.1341412067 0.5150356889 4283766554
-0.3082334697 -0.1335960329 0.5151399970 4283503380
-0.3082956672 -0.1330505162 0.5152439475 4283306001
-0.3083576262 -0.1325046718 0.5153475404 4283174417
-0.3084193766 -0.1319584996 0.5154507160 4283042831
-0.3084808886 -0.1314119995 0.5155535340 4283044373
-0.3085421622 -0.1308651716 0.5156559348 4283044373
-0.3086031973 -0.1303180158 0.5157579780 4282913816
-0.3091659248 -0.1299815476 0.5166984200 4283045402
-0.3092266023 -0.1294328570 0.5167998075 4282586649
-0.3092870414 -0.1288838536 0.5169008374 4282586649
-0.3098494411 -0.1285428554 0.5178407431 4282129439
-0.3099095225 -0.1279923022 0.5179411769 4282129439
-0.3104717433 -0.1276479959 0.5188807845 4281474079
-0.3105314672 -0.1270959228 0.5189805627 4281079321
-0.3110935092 -0.1267482787 0.5199199319 4280488985
-0.3111528158 -0.1261946708 0.5200190544 4280291606
-0.3112119138 -0.1256407499 0.5201178193 4279635734
-0.3112707734 -0.1250865161 0.5202161670 4279701527
-0.3118323386 -0.1247331500 0.5211547017 4279505689
-0.3118908107 -0.1241773888 0.5212524533 4279242517
-0.3114458919 -0.1234219298 0.5205088854 4278651668
-0.3115037978 -0.1228664443 0.5206056237 4278585875
-0.3115614653 -0.1223106459 0.5207020044 4279633943
-0.3116188645 -0.1217545420 0.5207979679 4279633943
-0.3121795654 -0.1213939339 0.5217350125 4279438104
-0.3122366071 -0.1208363175 0.5218303204 4279832862
-0.3127970695 -0.1204723939 0.5227670670 4280488484
-0.3128537238 -0.1199132726 0.5228617191 4280159519
-0.3134139776 -0.1195460409 0.5237980485 4279374105
-0.3139742017 -0.1191767007 0.5247343183 4279703070
-0.3145343363 -0.1188052595 0.5256704688 4280162078
-0.3150944114 -0.1184317172 0.5266065001 4280030492
-0.3156544268 -0.1180560663 0.5275424719 4280160536
-0.3162143826 -0.1176783144 0.5284782648 4280028950
-0.3162698448 -0.1171116680 0.5285709500 4279570195
-0.3168295622 -0.1167306080 0.5295063853 4279372816
-0.3168846071 -0.1161624640 0.5295983553 4279571224
-0.3169393837 -0.1155940294 0.5296899676 4279505431
-0.3174987137 -0.1152084544 0.5306246877 4279897366
-0.3185628057 -0.1150030419 0.5324031115 4279897366
-0.3191220462 -0.1146123484 0.5333377123 4280028436
-0.3163430691 -0.1585522294 0.5296765566 4280558626
-0.3149255216 -0.1572558731 0.5273030400 4280624419
-0.3149976134 -0.1567058563 0.5274237394 4280820258
-0.3145725131 -0.1559091657 0.5267119408 4280754465
-0.3136498928 -0.1548683941 0.5251671672 4280557090
-0.3127265871 -0.1538307369 0.5236212015 4280425504
-0.3122999370 -0.1530398726 0.5229068398 4280032032
-0.3113754392 -0.1520075500 0.5213588476 4279900446
-0.3114452958 -0.1514622569 0.5214757919 4280162582
-0.3110172749 -0.1506755203 0.5207591653 4280359961
-0.3105888665 -0.1498901546 0.5200418234 4280359968
-0.3101599813 -0.1491061747 0.5193237066 4280359968
-0.3102286160 -0.1485620439 0.5194386840 4280360740
-0.3127873838 -0.1492054909 0.5237230062 4280360740
-0.3103652298 -0.1474726945 0.5196673870 4280229152
-0.3104332089 -0.1469274759 0.5197812319 4280097566
-0.3095041811 -0.1459119767 0.5182256699 4280424730
-0.3100700080 -0.1456018835 0.5191730857 4280293144
-0.3096385896 -0.1448232681 0.5184507370 4280489753
-0.3092067540 -0.1440460533 0.5177276731 4280489753
-0.3092732728 -0.1435016990 0.5178390741 4280358428
-0.3093395829 -0.1429569870 0.5179501176 4280358428
-0.3094056845 -0.1424119323 0.5180607438 4280096798
-0.3089724183 -0.1416376978 0.5173352957 4279833626
-0.3085387051 -0.1408648938 0.5166090727 4280029976
-0.3086039126 -0.1403205544 0.5167182684 4279964183
-0.3086688817 -0.1397758722 0.5168271065 4279832595
-0.3087336421 -0.1392308325 0.5169355273 4279766802
-0.3082984984 -0.1384610534 0.5162069201 4279700496
-0.3083626926 -0.1379162222 0.5163143873 4279634703
-0.3084266782 -0.1373710632 0.5164214969 4279700496
-0.3084904253 -0.1368255466 0.5165282488 4279832082
-0.3085539341 -0.1362797022 0.5166345835 4280160790
-0.3086172342 -0.1357335150 0.5167405605 4280489755
-0.3086802959 -0.1351870000 0.5168461800 4280883741
-0.3082427084 -0.1344219297 0.5161135197 4280817948
-0.3083052337 -0.1338756382 0.5162181854 4280489753
-0.3083674908 -0.1333290040 0.5163224339 4280423960
-0.3079288304 -0.1325664818 0.5155879855 4280161558
-0.3079905510 -0.1320200861 0.5156912804 4280095765
-0.3080520332 -0.1314733624 0.5157942176 4280292372
-0.3081132770 -0.1309262961 0.5158967972 4280292372
-0.3081743121 -0.1303789169 0.5159989595 4280620569
-0.3082350791 -0.1298312098 0.5161007643 4281015327
-0.3087969422 -0.1294934005 0.5170415044 4281015327
-0.3093587458 -0.1291534752 0.5179821849 4281015327
-0.3094190359 -0.1286030114 0.5180830956 4281016099
-0.3099806905 -0.1282597780 0.5190235376 4280950306
-0.3100405931 -0.1277077794 0.5191238523 4280818466
-0.3106020391 -0.1273612231 0.5200639367 4280555294
-0.3106615841 -0.1268076897 0.5201635957 4280358430
-0.3112228513 -0.1264578104 0.5211033821 4280029465
-0.3112820089 -0.1259027570 0.5212024450 4279503379
-0.3113409579 -0.1253473908 0.5213010907 4279634965
-0.3113996387 -0.1247917041 0.5213993788 4279833627
-0.3114580810 -0.1242357045 0.5214972496 4279833627
-0.3115162849 -0.1236793920 0.5215947032 4279634964
-0.3110716939 -0.1229241863 0.5208503008 4279437585
-0.3116319776 -0.1225658357 0.5217884183 4279896597
-0.3116894662 -0.1220085993 0.5218846202 4279765011
-0.3117466867 -0.1214510426 0.5219805241 4279699988
-0.3123066127 -0.1210881770 0.5229179859 4279963160
-0.3123634756 -0.1205291152 0.5230131745 4280488476
-0.3129231632 -0.1201629415 0.5239503384 4280093718
-0.3134828210 -0.1197946519 0.5248873830 4279832597
-0.3140423894 -0.1194242612 0.5258243084 4279898390
-0.3146018982 -0.1190517619 0.5267611742 4279897366
-0.3156647980 -0.1188667417 0.5285408497 4279897366
-0.3157207370 -0.1183004528 0.5286344886 4279178264
-0.3162800372 -0.1179216281 0.5295709968 4278915092
-0.3168392777 -0.1175407022 0.5305073857 4279043857
-0.3168946207 -0.1169717088 0.5306000710 4279043857
-0.3178832233 -0.1596210003 0.5332469940 4280689962
-0.3170368373 -0.1580141932 0.5318272114 4280887595
-0.3161886334 -0.1564128101 0.5304043293 4280624423
-0.3152673841 -0.1553694904 0.5288589597 4280361251
-0.3153386712 -0.1548168808 0.5289785266 4280229411
-0.3149130046 -0.1540209651 0.5282644629 4280163618
-0.3144868910 -0.1532264054 0.5275496840 4280293916
