VERSION 0.7
FIELDS x y z rgba
SIZE 4 4 4 4
TYPE F F F U
COUNT 1 1 1 1
WIDTH 920
HEIGHT 1
VIEWPOINT 0.0 0.0 0.0 1.0 0.0 0.0 0.0
POINTS 920
DATA ascii
-0.3139346242 -0.1467815638 0.5966575742 4286485953
-0.3176392317 -0.1478429139 0.6036984324 4284906921
-0.3186140656 -0.1476238519 0.6055512428 4283592352
-0.3200442791 -0.1476106793 0.6082694530 4283658145
-0.3201087713 -0.1469644457 0.6083920002 4285695407
-0.3169849217 -0.1448608935 0.6024549007 4288919264
-0.3239456117 -0.1466737688 0.6156842113 4293127679
-0.3307183981 -0.1962470561 0.6298860312 4292074212
-0.3285604715 -0.1942712665 0.6257760525 4291745247
-0.3277462423 -0.1930962801 0.6242253184 4291745247
-0.3269313276 -0.1919243336 0.6226732135 4291744216
-0.3265643120 -0.1910178214 0.6219742298 4291415251
-0.3266455531 -0.1903740913 0.6221289039 4291021269
-0.3262777328 -0.1894692779 0.6214283705 4291021269
-0.3268072903 -0.1890852153 0.6224369407 4290824151
-0.3264387846 -0.1881812215 0.6217350960 4290758358
-0.3260698020 -0.1872785091 0.6210324168 4290888915
-0.3265988827 -0.1868912429 0.6220400333 4290888915
-0.3253305256 -0.1854770035 0.6196243167 4291283414
-0.3249602020 -0.1845782101 0.6189190149 4291283414
-0.3241398335 -0.1834263206 0.6173565984 4291350234
-0.3233188093 -0.1822775304 0.6157928705 4291087062
-0.3220473528 -0.1808792055 0.6133711934 4290299088
-0.3207749724 -0.1794857681 0.6109478474 4290035916
-0.3177017272 -0.1770938635 0.6050945520 4289247942
-0.3195779324 -0.1774634272 0.6086679697 4288984770
-0.3160521686 -0.1748367399 0.6019527912 4288850888
-0.3152264059 -0.1737128645 0.6003800035 4287271856
-0.3139495254 -0.1723448485 0.5979481339 4285696160
-0.3135728836 -0.1714745164 0.5972307324 4286946227
-0.3127451241 -0.1703600585 0.5956541896 4289052885
-0.3119167387 -0.1692487448 0.5940764546 4289973987
-0.3124402463 -0.1688716412 0.5950735211 4289252337
-0.3116108477 -0.1677639484 0.5934938192 4286160066
-0.3116829097 -0.1671431810 0.5936311483 4282875583
-0.3113036156 -0.1662809998 0.5929086804 4281230758
-0.3113751113 -0.1656602919 0.5930448771 4279324570
-0.3109950125 -0.1647999436 0.5923209190 4280903602
-0.3110659420 -0.1641792804 0.5924560428 4281560756
-0.3111366332 -0.1635581851 0.5925906897 4279850138
-0.3112071157 -0.1629366577 0.5927248597 4279981984
-0.3112773299 -0.1623147279 0.5928586125 4281692602
-0.3117991984 -0.1619270444 0.5938525796 4283596226
-0.3118690550 -0.1613033563 0.5939856172 4283925191
-0.3119386733 -0.1606792510 0.5941182375 4284055737
-0.3120080233 -0.1600547284 0.5942503214 4284516288
-0.3120771646 -0.1594297886 0.5943819880 4287871462
-0.3121460676 -0.1588044465 0.5945132375 4288924150
-0.3122147322 -0.1581786722 0.5946440101 4291091967
-0.3118305504 -0.1573241651 0.5939123034 4291815679
-0.3118986189 -0.1566984802 0.5940419436 4291678425
-0.3119664490 -0.1560723931 0.5941711664 4292007390
-0.3120340407 -0.1554459035 0.5942998528 4294241011
-0.3121013939 -0.1548189968 0.5944281220 4294966015
-0.3121684790 -0.1541916877 0.5945559144 4294900223
-0.3126885295 -0.1537868530 0.5955463648 4294966015
-0.3123019636 -0.1529358625 0.5948101282 4294966782
-0.3128216863 -0.1525284052 0.5958000422 4294834682
-0.3133413792 -0.1521187127 0.5967898369 4294900473
-0.3134074509 -0.1514875740 0.5969156623 4294966523
-0.3134732544 -0.1508560330 0.5970410109 4294965758
-0.3130850792 -0.1500066966 0.5963016748 4294833401
-0.3136041760 -0.1495917737 0.5972903371 4293911794
-0.3136692345 -0.1489590406 0.5974142551 4293319657
-0.3146421313 -0.1487552226 0.5992672443 4292928251
-0.3142527640 -0.1479061395 0.5985256433 4292862458
-0.3138629794 -0.1470585018 0.5977832675 4288985055
-0.3152899742 -0.1470599174 0.6005011201 4286682300
-0.3162629008 -0.1468444467 0.6023541093 4284184489
-0.3172359169 -0.1466249079 0.6042073369 4283394973
-0.3182090521 -0.1464013159 0.6060607433 4283393431
-0.3219103515 -0.1474229991 0.6131102443 4283722396
-0.3169722855 -0.1444907784 0.6037052274 4286417848
-0.3179450929 -0.1442614198 0.6055580378 4289773291
-0.3193729818 -0.1442334503 0.6082775593 4292800255
-0.3208011091 -0.1441995651 0.6109976172 4293523967
-0.3328431547 -0.1979265660 0.6352767348 4292140005
-0.3280047178 -0.1943538040 0.6260419488 4291613661
-0.3271919489 -0.1931783557 0.6244906187 4291679454
-0.3268261850 -0.1922693253 0.6237925291 4291547350
-0.3264599741 -0.1913615912 0.6230936050 4291218385
-0.3260933161 -0.1904551387 0.6223937273 4290890196
-0.3261742294 -0.1898107082 0.6225482225 4290955989
-0.3262549341 -0.1891657859 0.6227021813 4290955737
-0.3263353705 -0.1885204017 0.6228557229 4290889944
-0.3264155984 -0.1878745258 0.6230088472 4290955478
-0.3260470927 -0.1869710088 0.6223055124 4290955478
-0.3252295256 -0.1858124882 0.6207451224 4291481306
-0.3244113028 -0.1846570522 0.6191834211 4291152341
-0.3240412176 -0.1837592274 0.6184770465 4291481820
-0.3227728307 -0.1823554635 0.6160561442 4290758097
-0.3215035498 -0.1809565723 0.6136335731 4289641673
-0.3202334046 -0.1795625836 0.6112093329 4289839052
-0.3185131252 -0.1779225320 0.6079259515 4287800498
-0.3167917728 -0.1762891710 0.6046404839 4286616224
-0.3155187666 -0.1749116629 0.6022107601 4288392133
-0.3142448962 -0.1735390872 0.5997794271 4287734203
-0.3134198189 -0.1724187881 0.5982046127 4285827492
-0.3121443093 -0.1710551679 0.5957701206 4285959078
-0.3117676973 -0.1701876372 0.5950513482 4286815157
-0.3113906384 -0.1693214625 0.5943316817 4288131017
-0.3110131323 -0.1684566438 0.5936111212 4289120745
-0.3106351793 -0.1675931960 0.5928897858 4289186538
-0.3107070923 -0.1669730991 0.5930270553 4285966818
-0.3103283644 -0.1661114842 0.5923042297 4281887652
-0.3099492192 -0.1652512401 0.5915805101 4280047523
-0.3100202084 -0.1646316499 0.5917160511 4280705453
-0.3100909889 -0.1640116572 0.5918511152 4280244902
-0.3101615310 -0.1633912176 0.5919857621 4280113316
-0.3102318347 -0.1627703607 0.5921199322 4280639654
-0.3107529283 -0.1623847783 0.5931144953 4280705447
-0.3108228445 -0.1617621779 0.5932479501 4282083246
-0.3108925521 -0.1611391604 0.5933809876 4284188622
-0.3114133179 -0.1607486904 0.5943749547 4284845512
-0.3110312223 -0.1598918736 0.5936456919 4284187582
-0.3111001849 -0.1592676044 0.5937772989 4284516023
-0.3111689389 -0.1586429179 0.5939084888 4286489813
-0.3112374246 -0.1580178142 0.5940392613 4290302204
-0.3108538687 -0.1571638733 0.5933071375 4292341759
-0.3109217882 -0.1565388590 0.5934367776 4293849851
-0.3109894693 -0.1559134424 0.5935659409 4293849851
-0.3110568821 -0.1552876085 0.5936946869 4294964990
-0.3111240864 -0.1546613723 0.5938228965 4294966271
-0.3111910224 -0.1540347338 0.5939506888 4294966271
-0.3117101490 -0.1536306590 0.5949414968 4294966015
-0.3117766976 -0.1530023068 0.5950685740 4294966271
-0.3118430376 -0.1523735374 0.5951951146 4294900221
-0.3119091094 -0.1517443806 0.5953212380 4294704372
-0.3124933839 -0.1507032663 0.5964364409 4294966527
-0.3125588000 -0.1500720084 0.5965613127 4294966527
-0.3126239777 -0.1494403332 0.5966857076 4294899967
-0.3126889169 -0.1488082856 0.5968096256 4294768383
-0.3127536178 -0.1481758207 0.5969330668 4294704127
-0.3137891293 -0.1473355740 0.5989094973 4292667900
-0.3143067956 -0.1469120979 0.5998975635 4290694110
-0.3148244023 -0.1464864165 0.6008854508 4287669197
-0.3167031109 -0.1466889530 0.6044712663 4285629614
-0.3144979179 -0.1450006366 0.6002623439 4283919261
-0.3154689372 -0.1447793394 0.6021156907 4282866573
-0.3182560802 -0.1453835517 0.6074353456 4283129997
-0.3196817935 -0.1453568935 0.6101564765 4284445857
-0.3211077750 -0.1453243345 0.6128781438 4287800781
-0.3234425783 -0.1456951052 0.6173344851 4290695673
-0.3253236711 -0.1458525360 0.6209247708 4293063423
-0.3318318129 -0.1977443695 0.6346918941 4292403177
-0.3287884593 -0.1952320486 0.6288709044 4291482075
-0.3275306225 -0.1937891096 0.6264650822 4291679454
-0.3267188370 -0.1926144809 0.6249123812 4291415764
-0.3263534307 -0.1917055249 0.6242134571 4291152592
-0.3259875476 -0.1907978356 0.6235136986 4290890196
-0.3256212473 -0.1898914427 0.6228129864 4290955989
-0.3257018626 -0.1892462969 0.6229671836 4290890457
-0.3262297511 -0.1888597310 0.6239768863 4290890457
-0.3258623779 -0.1879545599 0.6232742667 4291152857
-0.3254945874 -0.1870506853 0.6225707531 4291152857
-0.3251263201 -0.1861481220 0.6218663454 4291876064
-0.3243096471 -0.1849913448 0.6203043461 4291547099
-0.3234923184 -0.1838376522 0.6187410355 4291153370
-0.3222261369 -0.1824333370 0.6163192391 4289903303
-0.3209590912 -0.1810338944 0.6138957739 4289641420
-0.3192427754 -0.1793873906 0.6106129885 4288654525
-0.3179738522 -0.1779986173 0.6081859469 4284774026
-0.3162554801 -0.1763646007 0.6048991680 4283589752
-0.3145359755 -0.1747372746 0.6016103625 4286156200
-0.3132642210 -0.1733650267 0.5991778374 4288524748
-0.3124404848 -0.1722451895 0.5976023078 4288393423
-0.3116161227 -0.1711284965 0.5960255265 4286945977
-0.3107910752 -0.1700149328 0.5944474936 4286091183
-0.3104146123 -0.1691493243 0.5937274098 4286485941
-0.3100377023 -0.1682850718 0.5930065513 4288132306
-0.3101097941 -0.1676651686 0.5931444168 4289842924
-0.3097321093 -0.1668027490 0.5924220085 4288924920
-0.3093540072 -0.1659417003 0.5916987658 4286622165
-0.3094251752 -0.1653223038 0.5918349624 4284125400
-0.3090462685 -0.1644631028 0.5911102295 4280835750
-0.3091169000 -0.1638437659 0.5912452936 4279126940
-0.3091872633 -0.1632239968 0.5913798809 4281034937
-0.3097075522 -0.1628405005 0.5923750401 4281231274
-0.3093273044 -0.1619832069 0.5916477442 4279849621
-0.3098473549 -0.1615970582 0.5926424265 4281294502
-0.3099168837 -0.1609746963 0.5927754045 4282610362
-0.3099861741 -0.1603519320 0.5929079652 4284516807
-0.3100552261 -0.1597287506 0.5930400491 4285306323
-0.3101240396 -0.1591051519 0.5931716561 4284122041
-0.3101926446 -0.1584811211 0.5933028460 4285043143
-0.3102609813 -0.1578567028 0.5934335589 4289645048
-0.3098780215 -0.1570033133 0.5927010775 4291684607
-0.3099457920 -0.1563789696 0.5928307176 4294244863
-0.3100132942 -0.1557542235 0.5929598212 4294442239
-0.3100805879 -0.1551290601 0.5930885077 4294965757
-0.3101476133 -0.1545034945 0.5932167768 4294899964
-0.3102144301 -0.1538775265 0.5933445096 4294966015
-0.3107326329 -0.1534742266 0.5943356752 4294966015
-0.3107990324 -0.1528465301 0.5944626927 4294900221
-0.3108651936 -0.1522184312 0.5945892334 4294834428
-0.3109311163 -0.1515899450 0.5947153568 4294704887
-0.3109968007 -0.1509610564 0.5948409438 4294639094
-0.3110622168 -0.1503317654 0.5949661136 4294704125
-0.3115796149 -0.1499196589 0.5959557295 4294769918
-0.3116446435 -0.1492886692 0.5960801244 4294900991
-0.3117094338 -0.1486572772 0.5962040424 4294900991
-0.3117739856 -0.1480254978 0.5963274837 4294901502
-0.3122908473 -0.1476072371 0.5973160863 4294835709
-0.3119023144 -0.1467607468 0.5965729356 4294441727
-0.3128716648 -0.1465519667 0.5984269977 4294178555
-0.3129353821 -0.1459167898 0.5985488892 4292535801
-0.3134518266 -0.1454914659 0.5995366573 4290430425
-0.3130620718 -0.1446452588 0.5987911820 4287537350
-0.3173931837 -0.1439483762 0.6070752740 4283656864
-0.3215375245 -0.1451446563 0.6150021553 4285433275
-0.3229616284 -0.1451011747 0.6177260280 4288458703
-0.3198491335 -0.1430230588 0.6117727757 4290958837
-0.3258106709 -0.1449964046 0.6231753230 4293062655
-0.3308212757 -0.1975618601 0.6341061592 4292666347
-0.3282290101 -0.1953147799 0.6291373968 4291350487
-0.3265273273 -0.1936067939 0.6258756518 4291679452
-0.3261630535 -0.1926961988 0.6251774430 4291349717
-0.3257983327 -0.1917868853 0.6244783401 4291086545
-0.3254331648 -0.1908788532 0.6237784028 4290890451
-0.3255140483 -0.1902330667 0.6239334941 4291022037
-0.3255947232 -0.1895867884 0.6240880489 4290824918
-0.3256751299 -0.1889400482 0.6242422462 4290824918
-0.3257553279 -0.1882928163 0.6243959069 4291087577
-0.3253883123 -0.1873877048 0.6236924529 4291087577
-0.3250208497 -0.1864839047 0.6229881048 4291613406
-0.3242057562 -0.1853257865 0.6214257479 4291481820
-0.3233899772 -0.1841707528 0.6198621392 4290889944
-0.3216787577 -0.1825111359 0.6165820956 4289968842
-0.3204139173 -0.1811111420 0.6141576767 4289312457
-0.3187005818 -0.1794639677 0.6108736396 4285825428
-0.3169861734 -0.1778234839 0.6075875163 4282800240
-0.3157184720 -0.1764399558 0.6051576734 4282471275
-0.3140019774 -0.1748119742 0.6018675566 4283459463
-0.3127324283 -0.1734391749 0.5994341373 4286025390
-0.3119101822 -0.1723188907 0.5978580713 4288393168
-0.3110872507 -0.1712017506 0.5962806940 4288853719
-0.3102636933 -0.1700877547 0.5947021246 4287605196
-0.3098879158 -0.1692218035 0.5939818621 4285960371
-0.3095117211 -0.1683572233 0.5932607651 4286618299
-0.3091350794 -0.1674939841 0.5925388336 4288394710
-0.3087579906 -0.1666321307 0.5918160677 4289580015
-0.3088293374 -0.1660129428 0.5919528008 4289382636
-0.3084514737 -0.1651529223 0.5912285447 4286557673
-0.3085222840 -0.1645337641 0.5913642049 4283070644
-0.3085928261 -0.1639142036 0.5914994478 4281297590
-0.3086631298 -0.1632941961 0.5916342139 4280771246
-0.3082838356 -0.1624369919 0.5909072161 4280046232
-0.3088030815 -0.1620529294 0.5919024348 4281033127
-0.3084230721 -0.1611966938 0.5911741257 4281887411
-0.3084923625 -0.1605759114 0.5913068652 4280176793
-0.3085613847 -0.1599547118 0.5914392471 4283267773
-0.3086301982 -0.1593331099 0.5915710926 4283399359
-0.3086987734 -0.1587110758 0.5917025208 4284188097
-0.3087670803 -0.1580886394 0.5918334723 4283661753
-0.3088351786 -0.1574657857 0.5919640064 4287079381
-0.3089030087 -0.1568425149 0.5920940638 4290500607
-0.3089706302 -0.1562188417 0.5922236443 4293719035
-0.3090379834 -0.1555947512 0.5923527479 4294376959
-0.3091051280 -0.1549702734 0.5924814343 4294966268
-0.3091720045 -0.1543453634 0.5926096439 4294900475
-0.3092386723 -0.1537200660 0.5927373767 4294900991
-0.3093050718 -0.1530943662 0.5928646326 4294835199
-0.3098222017 -0.1526905000 0.5938558578 4294900223
-0.3098882139 -0.1520630866 0.5939823985 4294900223
-0.3099539876 -0.1514352560 0.5941084623 4294704383
-0.3100195229 -0.1508070379 0.5942341089 4294638591
-0.3100847900 -0.1501784176 0.5943592191 4294704634
-0.3106012940 -0.1497670859 0.5953491926 4294638841
-0.3106661737 -0.1491367519 0.5954735875 4294638328
-0.3107307851 -0.1485060304 0.5955974460 4294638328
-0.3107951880 -0.1478749216 0.5957208872 4294834430
-0.3113111556 -0.1474574357 0.5967098475 4294900223
-0.3109232187 -0.1466115117 0.5959662795 4294835199
-0.3118909001 -0.1464035809 0.5978211164 4294900991
-0.3119544685 -0.1457690746 0.5979429483 4294376189
-0.3120177984 -0.1451341808 0.5980643630 4293915638
-0.3116285801 -0.1442894638 0.5973182917 4292339703
-0.3130484819 -0.1442802101 0.6000398993 4290826464
-0.3135637045 -0.1438498944 0.6010274887 4287998932
-0.3145314157 -0.1436239928 0.6028823256 4285498798
-0.3154992461 -0.1433940232 0.6047374606 4284249001
-0.3178254068 -0.1437744051 0.6091961265 4283064727
-0.3142653704 -0.1414946765 0.6023724079 4283525268
-0.3147799671 -0.1410559863 0.6033587456 4285433265
-0.3212460577 -0.1425852180 0.6157527566 4290498799
-0.3253869414 -0.1437301785 0.6236898303 4292536828
-0.3272627592 -0.1438618153 0.6272853017 4293457919
-0.3337363601 -0.1452860534 0.6396936774 4293653755
-0.3263332546 -0.1946009845 0.6268381476 4291284694
-0.3246341944 -0.1928949654 0.6235744953 4291482073
-0.3256065845 -0.1927778274 0.6254423261 4291218901
-0.3252425492 -0.1918681711 0.6247430444 4290889936
-0.3248780668 -0.1909597963 0.6240429282 4290824658
-0.3249588907 -0.1903137714 0.6241981983 4290956244
-0.3250394762 -0.1896672696 0.6243529916 4290890196
-0.3251198232 -0.1890202910 0.6245073676 4290890196
-0.3251999617 -0.1883728206 0.6246612668 4291021782
-0.3248336315 -0.1874673665 0.6239575744 4291021782
-0.3244668841 -0.1865632236 0.6232531071 4291613406
-0.3236532211 -0.1854046434 0.6216902137 4291416027
-0.3228389025 -0.1842491627 0.6201260090 4290363600
-0.3211306632 -0.1825888753 0.6168447137 4289903049
-0.3198680580 -0.1811883152 0.6144194007 4288391101
-0.3181577027 -0.1795404851 0.6111341119 4283193454
-0.3164462745 -0.1778993309 0.6078466773 4282471022
-0.3133925498 -0.1755137593 0.6019809246 4282339436
-0.3148088157 -0.1756350547 0.6047013402 4281749108
-0.3121999800 -0.1735132635 0.5996901989 4283854484
-0.3113791645 -0.1723925471 0.5981135368 4285762218
-0.3105577230 -0.1712749600 0.5965356827 4288130766
-0.3097355962 -0.1701605171 0.5949565172 4288197851
-0.3093605638 -0.1692942232 0.5942360759 4286421440
-0.3085372448 -0.1681852043 0.5926546454 4285170603
-0.3081611991 -0.1673225462 0.5919322968 4286552256
-0.3082327247 -0.1667035520 0.5920696855 4289183456
-0.3078559041 -0.1658427119 0.5913458467 4290104558
-0.3074786365 -0.1649832577 0.5906212330 4289516029
-0.3075492680 -0.1643647850 0.5907568336 4287871204
-0.3076196611 -0.1637458801 0.5908920765 4283796427
-0.3076898158 -0.1631265432 0.5910268426 4280243605
-0.3077597320 -0.1625068039 0.5911611319 4280111516
-0.3078294098 -0.1618866175 0.5912950039 4281690548
-0.3074500263 -0.1610309482 0.5905662775 4281229998
-0.3075191677 -0.1604108363 0.5906990170 4279979931
-0.3075880408 -0.1597903073 0.5908313394 4281689258
-0.3076566756 -0.1591693759 0.5909631848 4283334083
-0.3077250719 -0.1585480124 0.5910945535 4284254409
-0.3082425892 -0.1581567824 0.5920886397 4284254409
-0.3083106279 -0.1575336903 0.5922192931 4287474655
-0.3079288602 -0.1566814631 0.5914860368 4290369535
-0.3079963326 -0.1560584605 0.5916156173 4293851134
-0.3085132837 -0.1556619555 0.5926085711 4294508543
-0.3085803390 -0.1550372243 0.5927374363 4294966782
-0.3086471856 -0.1544120759 0.5928657651 4294835196
-0.3087137640 -0.1537865400 0.5929936767 4294769663
-0.3087801039 -0.1531605870 0.5931211114 4294769663
-0.3088462055 -0.1525342315 0.5932481289 4294900735
-0.3089120686 -0.1519074887 0.5933746099 4294900735
-0.3089776933 -0.1512803286 0.5935006738 4294704127
-0.3090430796 -0.1506527811 0.5936262608 4294704127
-0.3095588088 -0.1502435207 0.5946168900 4294836222
-0.3096237779 -0.1496142596 0.5947417021 4294770429
-0.3096885085 -0.1489846110 0.5948660374 4294769916
-0.3097530007 -0.1483545452 0.5949898958 4294769916
-0.3098172545 -0.1477241069 0.5951133370 4294834943
-0.3103322983 -0.1473073810 0.5961026549 4294900735
-0.3108473122 -0.1468884200 0.5970919132 4294966783
-0.3109109998 -0.1462549716 0.5972142220 4294900991
-0.3109744191 -0.1456211209 0.5973360538 4294836220
-0.3105861843 -0.1447764635 0.5965903401 4294901757
-0.3106490076 -0.1441427767 0.5967110395 4294246143
-0.3116148412 -0.1439258754 0.5985662341 4293785593
-0.3121290803 -0.1434972286 0.5995540023 4292339449
-0.3126432300 -0.1430663615 0.6005415916 4290694624
-0.3136091828 -0.1428390890 0.6023970842 4287998414
-0.3145752847 -0.1426077336 0.6042528152 4285366694
-0.3150893748 -0.1421683282 0.6052403450 4283196564
-0.3165077269 -0.1421328038 0.6079647541 4282472841
-0.3174740970 -0.1418891996 0.6098210216 4282605457
-0.3193452060 -0.1420439184 0.6134151816 4284118696
-0.3175974488 -0.1405887008 0.6100579500 4287341000
-0.3176587224 -0.1399378777 0.6101756692 4290104306
-0.3258664012 -0.1428581327 0.6259413958 4292535801
-0.3257746994 -0.1946832389 0.6271030903 4291482075
-0.3240786195 -0.1929765344 0.6238381863 4291218903
-0.3250494003 -0.1928593963 0.6257069111 4291153110
-0.3246860504 -0.1919493824 0.6250075102 4290758352
-0.3247671425 -0.1913027316 0.6251636147 4290693072
-0.3248480260 -0.1906555891 0.6253193021 4290890451
-0.3249286413 -0.1900079697 0.6254745126 4290824403
-0.3250090480 -0.1893598586 0.6256292462 4290955989
-0.3250891864 -0.1887112707 0.6257835627 4291022037
-0.3247236907 -0.1878045797 0.6250799894 4290956244
-0.3243577182 -0.1868992001 0.6243755221 4291350234
-0.3235456347 -0.1857392788 0.6228122711 4291481820
-0.3227328956 -0.1845824569 0.6212477684 4290495186
-0.3205818534 -0.1826665550 0.6171070933 4289705670
-0.3193214834 -0.1812654287 0.6146809459 4286088348
-0.3176141083 -0.1796169430 0.6113943458 4281219666
-0.3159056604 -0.1779751182 0.6081056595 4282076012
-0.3146424294 -0.1765904874 0.6056739688 4281944426
-0.3129319251 -0.1749611944 0.6023812890 4282209665
-0.3116668165 -0.1735872924 0.5999460220 4282407044
-0.3108474910 -0.1724661291 0.5983688235 4282407549
-0.3100275099 -0.1713480949 0.5967903733 4285762992
-0.3092068434 -0.1702332199 0.5952106714 4287737300
-0.3083855510 -0.1691214889 0.5936297178 4288592609
-0.3080106676 -0.1682571322 0.5929080844 4287079117
-0.3076353073 -0.1673941314 0.5921855569 4287868633
-0.3072595298 -0.1665324867 0.5914621949 4289577960
-0.3068833053 -0.1656722277 0.5907379389 4289841132
-0.3069541156 -0.1650539488 0.5908742547 4290040307
-0.3065771163 -0.1641955376 0.5901485682 4290369272
-0.3066473305 -0.1635773033 0.5902837515 4287740909
-0.3067173362 -0.1629586369 0.5904184580 4284451259
-0.3067871034 -0.1623395532 0.5905527472 4282873791
-0.3068566322 -0.1617200524 0.5906865597 4281031587
-0.3064778447 -0.1608649492 0.5899574757 4279782552
-0.3065468073 -0.1602455080 0.5900902152 4281624756
-0.3066155314 -0.1596256495 0.5902224779 4282084275
-0.3066840172 -0.1590053737 0.5903543234 4280044692
-0.3067522645 -0.1583846956 0.5904856920 4283530945
-0.3068202734 -0.1577635854 0.5906165838 4283728324
-0.3073367178 -0.1573718190 0.5916107297 4286816984
-0.3069555759 -0.1565201432 0.5908770561 4290040831
-0.3074717522 -0.1561257392 0.5918706656 4293720061
-0.3075388968 -0.1555020809 0.5919999480 4294246399
-0.3076058030 -0.1548780203 0.5921287537 4294901502
-0.3076725006 -0.1542535573 0.5922570825 4294704123
-0.3077389300 -0.1536286771 0.5923849940 4294507775
-0.3078051209 -0.1530034095 0.5925124288 4294573567
-0.3078710735 -0.1523777246 0.5926393867 4294769663
-0.3079367876 -0.1517516375 0.5927658677 4294638079
-0.3080022633 -0.1511251628 0.5928918719 4294769663
-0.3080674708 -0.1504982710 0.5930174589 4294769663
-0.3085823059 -0.1500897855 0.5940084457 4294769663
-0.3086471260 -0.1494611949 0.5941332579 4294703871
-0.3087117076 -0.1488322020 0.5942575336 4294703871
-0.3087760508 -0.1482028216 0.5943813920 4294703871
-0.3088401556 -0.1475730538 0.5945047736 4294704125
-0.3093543053 -0.1471570879 0.5954945087 4294704125
-0.3094179928 -0.1465256214 0.5956171155 4294967295
-0.3099319339 -0.1461061239 0.5966064334 4294967295
-0.3099952042 -0.1454729438 0.5967282653 4294901759
-0.3096075952 -0.1446288675 0.5959820747 4294901759
-0.3105717897 -0.1444150358 0.5978381634 4294574079
-0.3106344342 -0.1437797844 0.5979586840 4294574079
-0.3111477494 -0.1433519125 0.5989468098 4294443004
-0.3116610050 -0.1429218054 0.5999348164 4293983221
-0.3121741712 -0.1424894631 0.6009226441 4292207347
-0.3113336563 -0.1414399445 0.5993046761 4289641420
-0.3118464053 -0.1410059333 0.6002917290 4285894077
-0.3128104806 -0.1407728195 0.6021475196 4283657115
-0.3151290715 -0.1411422491 0.6066107154 4282212255
-0.3160935938 -0.1408981979 0.6084673405 4281422739
-0.3188647926 -0.1414514929 0.6138018370 4282079637
-0.3157642186 -0.1394006908 0.6078333855 4283658669
-0.3203431666 -0.1407370269 0.6166476607 4287274440
-0.3217602372 -0.1406714171 0.6193754077 4290827262
-0.3159455955 -0.1374535561 0.6081824899 4293456895
-0.3178138435 -0.1375866234 0.6117787957 4293588479
-0.3256590962 -0.1950311363 0.6282237172 4292008417
-0.3248536885 -0.1938525140 0.6266700029 4291087315
-0.3244915009 -0.1929408908 0.6259713173 4290955476
-0.3241288364 -0.1920305341 0.6252717376 4290560718
-0.3242098689 -0.1913836449 0.6254280806 4290495438
-0.3242906630 -0.1907362789 0.6255838871 4290692817
-0.3243712187 -0.1900884062 0.6257393360 4290627537
-0.3244515657 -0.1894400716 0.6258942485 4290759123
-0.3245316446 -0.1887912452 0.6260488033 4290956244
-0.3246115148 -0.1881419420 0.6262028217 4290890451
-0.3242463470 -0.1872353256 0.6254984140 4291547613
-0.3234358430 -0.1860740632 0.6239348650 4291087062
-0.3226246536 -0.1849159002 0.6223700047 4290495188
-0.3213676810 -0.1835066527 0.6199452281 4289245121
-0.3192194104 -0.1815957576 0.6158010364 4283719547
-0.3179605007 -0.1801980734 0.6133724451 4281087827
-0.3140280843 -0.1772964001 0.6057865620 4281418599
-0.3163310587 -0.1779186130 0.6102291346 4280958048
-0.3128415048 -0.1752853990 0.6034975052 4281158008
-0.3115787506 -0.1739100516 0.6010615230 4281223801
-0.3103151321 -0.1725396365 0.5986239314 4281618298
-0.3094966114 -0.1714211702 0.5970449448 4282999951
-0.3086774349 -0.1703058481 0.5954646468 4285170604
-0.3078576028 -0.1691936851 0.5938831568 4287999703
-0.3070371151 -0.1680846810 0.5923003554 4288987114
-0.3066623807 -0.1672222465 0.5915774703 4288592356
-0.3062871993 -0.1663611680 0.5908536911 4288921574
-0.3063581586 -0.1657430828 0.5909906030 4289382125
-0.3059822023 -0.1648838669 0.5902653337 4289512419
-0.3060526252 -0.1642658263 0.5904011726 4289972970
-0.3056758940 -0.1634084582 0.5896744132 4290435071
-0.3057457209 -0.1627904624 0.5898091197 4288329697
-0.3058153093 -0.1621720493 0.5899434090 4284582602
-0.3054374754 -0.1613170207 0.5892145038 4280898194
-0.3055064976 -0.1606986821 0.5893477201 4280703653
-0.3051279187 -0.1598455310 0.5886173248 4282480064
-0.3051963747 -0.1592272520 0.5887494087 4281492138
-0.3052645922 -0.1586085558 0.5888810158 4279189383
-0.3057802916 -0.1582211107 0.5898758173 4281031581
-0.3058481514 -0.1576006860 0.5900067091 4281952683
-0.3059157729 -0.1569798440 0.5901371837 4287277789
-0.3064311445 -0.1565875113 0.5911313891 4290435839
-0.3064983785 -0.1559649408 0.5912610888 4293655036
-0.3070135713 -0.1555690616 0.5922549367 4294049791
-0.3070804477 -0.1549447626 0.5923839211 4294770685
-0.3071470559 -0.1543200612 0.5925124288 4294639611
-0.3072134256 -0.1536949426 0.5926405191 4294573823
-0.3072795868 -0.1530694216 0.5927680731 4294573823
-0.3073454797 -0.1524434984 0.5928952098 4294573567
-0.3074111342 -0.1518171728 0.5930218697 4294441982
-0.3074765503 -0.1511904597 0.5931480527 4294769663
-0.3075417280 -0.1505633295 0.5932737589 4294835455
-0.3076066375 -0.1499358118 0.5933990479 4294572799
-0.3076713383 -0.1493078917 0.5935238004 4294638591
-0.3077357709 -0.1486795694 0.5936481357 4294573567
-0.3077999651 -0.1480508596 0.5937719345 4294507775
-0.3083133399 -0.1476369798 0.5947623253 4294573818
-0.3083771467 -0.1470065713 0.5948853493 4294573818
-0.3084406853 -0.1463757604 0.5950079560 4294901759
-0.3089537024 -0.1459570229 0.5959976315 4294901759
-0.3090168536 -0.1453245282 0.5961194038 4294901759
-0.3090797365 -0.1446916461 0.5962407589 4294835967
-0.3086923957 -0.1438486725 0.5954935551 4294770687
-0.3096548617 -0.1436334848 0.5973502398 4294770687
-0.3097171187 -0.1429985166 0.5974702835 4294443001
-0.3097790778 -0.1423631757 0.5975898504 4294377464
-0.3102911711 -0.1419334412 0.5985777378 4293720057
-0.3090014458 -0.1406811923 0.5960896611 4292469990
-0.3090624809 -0.1400465518 0.5962074399 4289380843
-0.3127282262 -0.1410373449 0.6032789946 4286288572
-0.3136909008 -0.1407991350 0.6051360369 4283265721
-0.3142028451 -0.1403554827 0.6061236858 4281686689
-0.3102059364 -0.1379051656 0.5984132886 4281160606
-0.3143850863 -0.1384153813 0.6064752340 4281487251
-0.3180544376 -0.1393492073 0.6135537028 4284711108
-0.3190175593 -0.1390874088 0.6154116392 4289906159
-0.3191384375 -0.1377720535 0.6156448126 4293260799
-0.3191984594 -0.1371138096 0.6157606244 4293458175
-0.3268699944 -0.1961766481 0.6319135427 4292403173
-0.3251804411 -0.1944641471 0.6286472678 4291087313
-0.3248191476 -0.1935504079 0.6279488206 4290627024
-0.3240141869 -0.1923747808 0.6263926625 4290363852
-0.3240952492 -0.1917267740 0.6265493631 4290429645
-0.3241760731 -0.1910782754 0.6267056465 4290627024
-0.3242566884 -0.1904293001 0.6268614531 4290495951
-0.3243370652 -0.1897798330 0.6270168424 4290561744
-0.3244171739 -0.1891298890 0.6271717548 4290759123
-0.3244970739 -0.1884794533 0.6273261905 4290759123
-0.3241327107 -0.1875716001 0.6266217828 4291219161
-0.3233237863 -0.1864089966 0.6250579357 4291021782
-0.3225141764 -0.1852494776 0.6234927773 4290363602
-0.3212595582 -0.1838387847 0.6210672855 4288718777
-0.3200040460 -0.1824329793 0.6186401248 4282667629
-0.3178585470 -0.1805270910 0.6144924164 4281746527
-0.3161564171 -0.1788812727 0.6112017632 4280761184
-0.3140084147 -0.1769914627 0.6070492268 4281353321
-0.3123039901 -0.1753599495 0.6037541628 4280895606
-0.3110434711 -0.1739840508 0.6013172865 4281092985
-0.3097820878 -0.1726130992 0.5988787413 4281683840
-0.3085198402 -0.1712470800 0.5964385867 4280828531
-0.3077020347 -0.1701322049 0.5948575139 4283722134
-0.3073289692 -0.1692658216 0.5941363573 4285235373
-0.3065099716 -0.1681563705 0.5925530195 4287999702
-0.3061359227 -0.1672935933 0.5918298960 4289118183
-0.3057614565 -0.1664322019 0.5911059380 4288725736
-0.3053865135 -0.1655721664 0.5903811455 4286422981
-0.3050111830 -0.1647135168 0.5896555185 4286420150
-0.3050813973 -0.1640961468 0.5897912979 4288262354
-0.3047052920 -0.1632393450 0.5890641809 4290629880
-0.3047749698 -0.1626220196 0.5891988873 4290564087
-0.3048443794 -0.1620042771 0.5893331170 4288069108
-0.3044671714 -0.1611498296 0.5886038542 4285371595
-0.3045360446 -0.1605321467 0.5887369514 4282611648
-0.3041580319 -0.1596795768 0.5880061984 4279848342
-0.3042263389 -0.1590619683 0.5881382823 4280044946
-0.3042944074 -0.1584439576 0.5882698298 4282347701
-0.3048091829 -0.1580572724 0.5892650485 4282544820
-0.3048768640 -0.1574375182 0.5893958807 4282347441
-0.3049443364 -0.1568173468 0.5895262957 4286488530
-0.3050115705 -0.1561967731 0.5896562934 4290304511
-0.3055258691 -0.1558038890 0.5906505585 4293589241
-0.3055927157 -0.1551815867 0.5907797813 4293918206
-0.3061068654 -0.1547851562 0.5917737484 4294705148
-0.3061733246 -0.1541611254 0.5919021964 4294573818
-0.3062395453 -0.1535366774 0.5920302868 4294311677
-0.3063055277 -0.1529118419 0.5921578407 4294443007
-0.3063712716 -0.1522865891 0.5922849178 4294573823
-0.3064367771 -0.1516609341 0.5924115777 4294705151
-0.3065020442 -0.1510348767 0.5925377011 4294703615
-0.3065670729 -0.1504084319 0.5926634073 4294966783
-0.3066318333 -0.1497815847 0.5927886367 4294507775
-0.3066963851 -0.1491543353 0.5929133892 4294573567
-0.3067606688 -0.1485266984 0.5930377245 4294639612
-0.3072732985 -0.1481148899 0.5940287113 4294442489
-0.3073371947 -0.1474855393 0.5941522121 4294573564
-0.3074008226 -0.1468558013 0.5942752957 4294573564
-0.3074642420 -0.1462256759 0.5943978429 4294967039
-0.3079763353 -0.1458076984 0.5953878760 4294967039
-0.3080393374 -0.1451758742 0.5955096483 4294967039
-0.3081020713 -0.1445436627 0.5956309438 4294967039
-0.3077153563 -0.1437012702 0.5948833227 4294770687
-0.3082268536 -0.1432780772 0.5958721638 4294770687
-0.3082888424 -0.1426447034 0.5959920287 4294377471
-0.3088001013 -0.1422179639 0.5969803333 4294443007
-0.3088616729 -0.1415829211 0.5970994234 4293720051
-0.3093726933 -0.1411526501 0.5980873108 4292535777
-0.3098836243 -0.1407201439 0.5990750790 4290302198
-0.3103944957 -0.1402854174 0.6000627279 4287736271
-0.3109052777 -0.1398484707 0.6010501981 4283792322
-0.3114160001 -0.1394092888 0.6020374894 4282081704
-0.3114764988 -0.1387673318 0.6021544933 4281622194
-0.3124371469 -0.1385242194 0.6040116549 4280832678
-0.3151990473 -0.1390717179 0.6093509793 4281291687
-0.3121068776 -0.1370370090 0.6033731699 4280962722
-0.3117159903 -0.1361958385 0.6026175022 4283263650
-0.3126763105 -0.1359438002 0.6044740081 4287540195
-0.3167911172 -0.1370523572 0.6124287844 4292011510
-0.3204564452 -0.1379497647 0.6195147634 4293327359
-0.3246189058 -0.1945460737 0.6289120913 4291284694
-0.3238159418 -0.1933678240 0.6273564696 4290363852
-0.3234547973 -0.1924559027 0.6266567707 4290298059
-0.3235358000 -0.1918076575 0.6268137097 4290298059
-0.3236165643 -0.1911589354 0.6269701719 4290429645
-0.3236970901 -0.1905097216 0.6271261573 4290429132
-0.3237773776 -0.1898600161 0.6272817254 4290363339
-0.3238574564 -0.1892098337 0.6274368167 4290626511
-0.3239372671 -0.1885591745 0.6275914907 4290758097
-0.3240168691 -0.1879080236 0.6277456880 4291021784
-0.3232094944 -0.1867440790 0.6261814833 4291021784
-0.3224014640 -0.1855832189 0.6246160269 4290891229
-0.3211491704 -0.1841710657 0.6221898794 4287667372
-0.3198960125 -0.1827638149 0.6197620034 4282799215
-0.3155354261 -0.1795932949 0.6113138795 4282667629
-0.3182748258 -0.1804673821 0.6166211367 4282207088
-0.3139111996 -0.1773174107 0.6081671715 4281220193
-0.3122099042 -0.1756843477 0.6048710346 4281288304
-0.3109517097 -0.1743070036 0.6024335027 4281880441
-0.3092483580 -0.1726864874 0.5991333723 4281946747
-0.3079883456 -0.1713199168 0.5966922641 4281354610
-0.3071720004 -0.1702046245 0.5951107144 4282012288
-0.3063549995 -0.1690924764 0.5935278535 4282341253
-0.3055373728 -0.1679834872 0.5919438004 4284842159
-0.3051639497 -0.1671212763 0.5912203193 4287868637
-0.3047900498 -0.1662604511 0.5904959440 4289052909
-0.3044157326 -0.1654009819 0.5897707939 4287737049
-0.3044861555 -0.1647838056 0.5899071693 4286157499
-0.3041110635 -0.1639261991 0.5891804695 4285696948
-0.3041809201 -0.1633090675 0.5893158317 4288526816
-0.3038050532 -0.1624533236 0.5885876417 4290500606
-0.3034287691 -0.1615989506 0.5878586173 4290435839
-0.3034977019 -0.1609823704 0.5879921913 4289119981
-0.3031206429 -0.1601298749 0.5872616768 4284648646
-0.3031890392 -0.1595133692 0.5873941779 4280832652
-0.3032571673 -0.1588964313 0.5875262022 4281033381
-0.3033250868 -0.1582790911 0.5876577497 4282217655
-0.3038389385 -0.1578931808 0.5886532664 4280704413
-0.3039064705 -0.1572740972 0.5887840986 4280375448
-0.3039737642 -0.1566545963 0.5889145136 4284186280
-0.3040408492 -0.1560346931 0.5890444517 4289318134
-0.3045542240 -0.1556425989 0.5900390744 4292800767
-0.3046209216 -0.1550209522 0.5901682973 4292998143
-0.3051341176 -0.1546252966 0.5911625624 4293786111
-0.3052004576 -0.1540019363 0.5912910104 4293851903
-0.3052665293 -0.1533781737 0.5914190412 4294508543
-0.3053323627 -0.1527539939 0.5915465951 4294508543
-0.3053979576 -0.1521294266 0.5916736722 4294967293
-0.3054632843 -0.1515044421 0.5918002725 4294967293
-0.3055284023 -0.1508790702 0.5919264555 4294639612
-0.3055932820 -0.1502532810 0.5920521021 4294705149
-0.3056578934 -0.1496271193 0.5921773314 4294901759
-0.3057222962 -0.1490005404 0.5923020244 4294835967
-0.3057864308 -0.1483735740 0.5924263000 4294967288
-0.3062981367 -0.1479625255 0.5934177041 4294835958
-0.3063618839 -0.1473338604 0.5935412049 4294901759
-0.3064253926 -0.1467047930 0.5936642289 4294901759
-0.3069367111 -0.1462889016 0.5946548581 4294770687
-0.3069998324 -0.1456581354 0.5947771072 4294705151
-0.3070626855 -0.1450269818 0.5948988795 4294770687
-0.3071252704 -0.1443954408 0.5950201750 4294770687
-0.3071876466 -0.1437635124 0.5951409936 4294770685
-0.3072497547 -0.1431311965 0.5952613354 4294639611
-0.3073116243 -0.1424985081 0.5953812003 4294244863
-0.3078219295 -0.1420725435 0.5963698626 4294047484
-0.3074345887 -0.1412319839 0.5956194401 4293192703
-0.3074956834 -0.1405981481 0.5957378149 4291811056
-0.3084545434 -0.1403725892 0.5975954533 4288527864
-0.3089644015 -0.1399395466 0.5985832810 4285764558
-0.3090250194 -0.1393018067 0.5987007022 4282412983
-0.3086361289 -0.1384621412 0.5979472995 4281557674
-0.3086961508 -0.1378245801 0.5980635881 4281095840
-0.3101042211 -0.1377857178 0.6007915139 4281095840
-0.3110630214 -0.1375421584 0.6026490927 4281029795
-0.3120219111 -0.1372945011 0.6045068502 4281358760
-0.3102827966 -0.1358613372 0.6011375189 4280964515
-0.3134901822 -0.1365909427 0.6073514819 4281951410
-0.3144492507 -0.1363319308 0.6092095375 4286619093
-0.3167582154 -0.1366511583 0.6136828661 4290698239
-0.3236151636 -0.1943627596 0.6283194423 4292205796
-0.3241383731 -0.1939777583 0.6293353438 4290495693
-0.3233364224 -0.1928003281 0.6277782917 4290364107
-0.3234174550 -0.1921509653 0.6279356480 4290560973
-0.3234982789 -0.1915011257 0.6280925274 4290495180
-0.3235788345 -0.1908507794 0.6282489300 4290231753
-0.3236591518 -0.1901999712 0.6284049153 4290231753
-0.3237392604 -0.1895486563 0.6285604239 4290494925
-0.3238191307 -0.1888968647 0.6287154555 4290494925
-0.3238987625 -0.1882445961 0.6288700700 4290955989
-0.3230929673 -0.1870793104 0.6273055673 4291284954
-0.3222864866 -0.1859170943 0.6257397532 4291022815
-0.3210365474 -0.1845034957 0.6233128905 4287206821
-0.3184569776 -0.1823340058 0.6183044910 4283062387
-0.3198630810 -0.1824490726 0.6210345626 4282799215
-0.3163951635 -0.1797884554 0.6143013835 4281944429
-0.3138118088 -0.1776435077 0.6092855930 4281023327
-0.3121135831 -0.1760088801 0.6059884429 4280828012
-0.3104143143 -0.1743809879 0.6026891470 4281485942
-0.3091574907 -0.1730080396 0.6002489924 4281880700
-0.3078998327 -0.1716400236 0.5978071690 4281617528
-0.3066413105 -0.1702769548 0.5953636169 4281749118
-0.3058257997 -0.1691643745 0.5937802792 4281551739
-0.3050096333 -0.1680549532 0.5921956301 4282933907
-0.3046368957 -0.1671924144 0.5914719701 4285039283
-0.3042637110 -0.1663312465 0.5907474160 4287342293
-0.3038901091 -0.1654714495 0.5900220275 4289118704
-0.3039604723 -0.1648540497 0.5901585817 4288658149
-0.3035860956 -0.1639961004 0.5894317627 4285697464
-0.3032112718 -0.1631395370 0.5887039900 4285631925
-0.3028360307 -0.1622843593 0.5879754424 4288263645
-0.3029051423 -0.1616679579 0.5881096125 4290698495
-0.3025291264 -0.1608146578 0.5873795748 4290764287
-0.3025976717 -0.1601983160 0.5875126719 4288201205
-0.3022209108 -0.1593468934 0.5867811441 4286030036
-0.3022888899 -0.1587306410 0.5869131088 4282810043
-0.3023566306 -0.1581139565 0.5870446563 4279586186
-0.3024241328 -0.1574968696 0.5871757865 4280836253
-0.3029369116 -0.1571104228 0.5881713629 4282612664
-0.3030040860 -0.1564915925 0.5883017182 4284055468
-0.3035166860 -0.1561015844 0.5892969966 4287213532
-0.3035834432 -0.1554810405 0.5894266367 4291683071
-0.3040958643 -0.1550874710 0.5904214978 4292012031
-0.3041622639 -0.1544651985 0.5905504227 4292208383
-0.3046745062 -0.1540680826 0.5915449858 4292208383
-0.3047405183 -0.1534440666 0.5916731358 4292996607
-0.3048062921 -0.1528196633 0.5918008685 4293325567
-0.3048718274 -0.1521948427 0.5919281244 4293916159
-0.3044906557 -0.1513477117 0.5911880732 4294245119
-0.3045556247 -0.1507230103 0.5913141966 4294246399
-0.3050670028 -0.1503179818 0.5923070312 4294311935
-0.3051315844 -0.1496915668 0.5924323797 4294705151
-0.3051958978 -0.1490647495 0.5925573111 4294705151
-0.3052600026 -0.1484375447 0.5926817060 4294901754
-0.3053238392 -0.1478099376 0.5928056836 4294836217
-0.3053874373 -0.1471819431 0.5929291844 4294901759
-0.3058980107 -0.1467681229 0.5939204693 4294901759
-0.3059611917 -0.1461384147 0.5940431952 4294770175
-0.3060241640 -0.1455083340 0.5941653848 4294901759
-0.3060868680 -0.1448778510 0.5942871571 4294770431
-0.3061493337 -0.1442469805 0.5944084525 4294770431
-0.3066592216 -0.1438256949 0.5953984261 4293785339
-0.3067212701 -0.1431931406 0.5955189466 4293258995
-0.3067830801 -0.1425601989 0.5956389308 4292535801
-0.3068446517 -0.1419268698 0.5957584381 4291483113
-0.3064579070 -0.1410869062 0.5950075984 4289379816
-0.3069670200 -0.1406590790 0.5959960222 4287800784
-0.3074760437 -0.1402290463 0.5969843268 4284252616
-0.3079850078 -0.1397967637 0.5979725122 4283199928
-0.3075970709 -0.1389571279 0.5972193480 4281162922
-0.3086142540 -0.1380851418 0.5991942286 4280964515
-0.3091227114 -0.1376458108 0.6001814604 4280503964
-0.3091823459 -0.1370053887 0.6002972722 4280766626
-0.3078952730 -0.1357708573 0.5977982879 4280832419
-0.3102577329 -0.1354740411 0.6023851633 4280504483
-0.3094183803 -0.1344400346 0.6007554531 4281751452
-0.3126209080 -0.1351571232 0.6069734097 4284580551
-0.3149258494 -0.1354742795 0.6114486456 4289511389
-0.3131873608 -0.1340508014 0.6080732346 4292274687
-0.3235753477 -0.1940592974 0.6295998693 4291350487
-0.3232158124 -0.1931449175 0.6289002895 4290429385
-0.3232968748 -0.1924944371 0.6290580630 4290297799
-0.3229365647 -0.1915817410 0.6283569336 4290297799
-0.3230170608 -0.1909311712 0.6285135150 4290165445
-0.3230973184 -0.1902801096 0.6286697388 4290231238
-0.3231773376 -0.1896285713 0.6288254261 4290232008
-0.3232571185 -0.1889765561 0.6289806962 4290166215
-0.3233366907 -0.1883240491 0.6291354895 4290561231
-0.3229741752 -0.1874146760 0.6284301281 4291087575
-0.3221692741 -0.1862511188 0.6268640161 4291022815
-0.3209216893 -0.1848360747 0.6244364381 4286877856
-0.3196732104 -0.1834259033 0.6220071912 4283917696
-0.3184238374 -0.1820206493 0.6195762753 4283062387
-0.3162888885 -0.1801164597 0.6154221296 4282010222
-0.3141526282 -0.1782207638 0.6112654805 4281483878
-0.3120150566 -0.1763335764 0.6071063280 4281222774
-0.3103188872 -0.1747041196 0.6038059592 4281288567
-0.3090644181 -0.1733297259 0.6013650894 4281683325
-0.3073662221 -0.1717128456 0.5980607867 4281683325
-0.3065529168 -0.1705957651 0.5964783430 4281551739
-0.3057389855 -0.1694818437 0.5948945880 4281222774
-0.3049243987 -0.1683710814 0.5933095813 4281486461
-0.3045524955 -0.1675073057 0.5925859213 4282604942
-0.3037367165 -0.1664019823 0.5909986496 4284578732
-0.3033638000 -0.1655418575 0.5902730823 4287473624
-0.3029904664 -0.1646831036 0.5895466208 4289250288
-0.3030604422 -0.1640659422 0.5896827579 4288394979
-0.3026863337 -0.1632090360 0.5889548063 4286684613
-0.3023117781 -0.1623535305 0.5882260799 4286289855
-0.3019368052 -0.1614993960 0.5874964595 4288198364
-0.3020055294 -0.1608832628 0.5876302123 4290566911
-0.3016298115 -0.1600310057 0.5868991017 4290108159
-0.3012536168 -0.1591801643 0.5861671567 4288792306
-0.3013214469 -0.1585645825 0.5862991214 4284387271
-0.3013890386 -0.1579485834 0.5864306092 4281097621
-0.3014563918 -0.1573321670 0.5865616798 4281756324
-0.3019682467 -0.1569464803 0.5875576138 4283137977
-0.3020352423 -0.1563283354 0.5876879692 4283200161
-0.3025469184 -0.1559391022 0.5886836052 4285634502
-0.3026135266 -0.1553192288 0.5888131857 4290105078
-0.3031250238 -0.1549264342 0.5898084641 4291223551
-0.3031912744 -0.1543048322 0.5899373293 4290762749
-0.3037025928 -0.1539084911 0.5909322500 4290302198
-0.3037684560 -0.1532851607 0.5910604000 4290366962
-0.3038340807 -0.1526614279 0.5911880732 4290366962
-0.3038994670 -0.1520372778 0.5913153291 4291484411
-0.3039646149 -0.1514127403 0.5914420485 4292339711
-0.3035837114 -0.1505666971 0.5907009244 4292800511
-0.3036482930 -0.1499422640 0.5908265710 4292866303
-0.3041585982 -0.1495366991 0.5918195248 4293194234
-0.3042227626 -0.1489105672 0.5919443965 4293720575
-0.3042867184 -0.1482840329 0.5920687914 4294574073
-0.3043504059 -0.1476570964 0.5921927094 4294705147
-0.3044138551 -0.1470297724 0.5923161507 4294901759
-0.3049235046 -0.1466167271 0.5933078527 4294901759
-0.3049865663 -0.1459877044 0.5934305191 4294638335
-0.3050493598 -0.1453582942 0.5935527682 4294638335
-0.3051119149 -0.1447284818 0.5936744809 4294245119
-0.3051742315 -0.1440982968 0.5937957168 4294179327
-0.3052363098 -0.1434677243 0.5939164758 4292339703
-0.3057451248 -0.1430458874 0.5949065089 4289905362
-0.3058067858 -0.1424136311 0.5950264931 4288327128
-0.3058682084 -0.1417809725 0.5951460004 4287340233
-0.3050348461 -0.1407352388 0.5935245156 4284843205
-0.3059903085 -0.1405145377 0.5953835845 4284053689
-0.3060509562 -0.1398807615 0.5955016017 4281687728
-0.3065589070 -0.1394501776 0.5964899659 4281292970
-0.3061715662 -0.1386120617 0.5957362652 4280241309
-0.3066791892 -0.1381788701 0.5967239738 4280504481
-0.3067389131 -0.1375426650 0.5968402028 4280372379
-0.3072462976 -0.1371059418 0.5978274345 4280240793
-0.3073056340 -0.1364680529 0.5979428887 4280306332
-0.3055725098 -0.1350377947 0.5945706367 4280437918
-0.3078716695 -0.1353882700 0.5990442634 4280307104
-0.3083785474 -0.1349444836 0.6000305414 4280636069
-0.3079887331 -0.1341080666 0.5992720127 4280766109
-0.3075984716 -0.1332731545 0.5985127091 4280239765
-0.3081047535 -0.1328264177 0.5994977951 4282737818
-0.3131548464 -0.1336495578 0.6093240976 4291482093
-0.3163539767 -0.1343309730 0.6155487895 4293324287
-0.3234516978 -0.1944052577 0.6307222843 4292666345
-0.3230929673 -0.1934896559 0.6300227642 4290889934
-0.3227337599 -0.1925753206 0.6293223500 4290100420
-0.3228145540 -0.1919241250 0.6294798851 4290100420
-0.3228950799 -0.1912724227 0.6296368837 4290231238
-0.3229753673 -0.1906202435 0.6297934651 4290231238
-0.3230554461 -0.1899675876 0.6299496293 4289968836
-0.3231352568 -0.1893144399 0.6301052570 4290034629
-0.3232148588 -0.1886608005 0.6302604675 4290363852
-0.3228531480 -0.1877501905 0.6295551658 4290758610
-0.3220498264 -0.1865852922 0.6279886961 4291022815
-0.3212458491 -0.1854234934 0.6264209747 4287075235
-0.3204412162 -0.1842647940 0.6248519421 4284904593
-0.3191944063 -0.1828562915 0.6224206686 4283325561
-0.3170635402 -0.1809486449 0.6182655692 4282207347
-0.3144896626 -0.1787983775 0.6132466197 4282075761
-0.3123561144 -0.1769086272 0.6090862155 4281814656
-0.3102212548 -0.1750274003 0.6049233079 4281354105
-0.3085271120 -0.1734031290 0.6016197801 4281354360
-0.3072740436 -0.1720331311 0.5991763473 4281617532
-0.3060201108 -0.1706680804 0.5967311859 4281551227
-0.3047653139 -0.1693079919 0.5942843556 4281682813
-0.3039520979 -0.1681976914 0.5926986337 4281485691
-0.3035807908 -0.1673344821 0.5919745564 4282012035
-0.3032090366 -0.1664726585 0.5912496448 4281552254
-0.3028368354 -0.1656121910 0.5905238986 4284644525
-0.3020213544 -0.1645118892 0.5889337063 4287342804
-0.3020911515 -0.1638953984 0.5890697837 4289119215
-0.3017176688 -0.1630390733 0.5883414745 4288790246
-0.3013437390 -0.1621841341 0.5876123309 4287079628
-0.3014126122 -0.1615681797 0.5877466798 4286750403
-0.3010379076 -0.1607151181 0.5870160460 4288526814
-0.3006627858 -0.1598634422 0.5862845182 4289843187
-0.3007307947 -0.1592480391 0.5864171386 4290435324
-0.3003548980 -0.1583982557 0.5856841803 4288662263
-0.3004223406 -0.1577829421 0.5858156681 4285701578
-0.3004895151 -0.1571671963 0.5859466791 4283333808
-0.3010004461 -0.1567822993 0.5869429708 4281162639
-0.3010672927 -0.1561648250 0.5870732665 4282936989
-0.3015780151 -0.1557763666 0.5880692005 4286160846
-0.3016444743 -0.1551571637 0.5881988406 4288395492
-0.3017107248 -0.1545375586 0.5883279443 4289513973
-0.3022211492 -0.1541442275 0.5893232822 4289645559
-0.3022869825 -0.1535228789 0.5894516706 4289250801
-0.3023526073 -0.1529011428 0.5895796418 4288526824
-0.3024179935 -0.1522789896 0.5897071362 4289184754
-0.3024831116 -0.1516564488 0.5898340940 4289907448
-0.3025480211 -0.1510334909 0.5899606943 4289907448
-0.3026126623 -0.1504101455 0.5900867581 4289972718
-0.3026770949 -0.1497863829 0.5902123451 4290433269
-0.3027412593 -0.1491622329 0.5903375149 4291090673
-0.3032504916 -0.1487561315 0.5913304687 4292932863
-0.3033142686 -0.1481302679 0.5914548635 4293590270
-0.3033778369 -0.1475040168 0.5915787816 4293458684
-0.3034411371 -0.1468773782 0.5917022228 4293588221
-0.3039498627 -0.1464650929 0.5926942229 4293588221
-0.3040127754 -0.1458367407 0.5928168893 4293259257
-0.3040754199 -0.1452080160 0.5929390788 4292864499
-0.3041378558 -0.1445788890 0.5930607915 4292339449
-0.3042000234 -0.1439493746 0.5931820273 4292931583
-0.3042619526 -0.1433194727 0.5933027864 4291815167
-0.3043236136 -0.1426891834 0.5934230685 4287538628
-0.3043850660 -0.1420585215 0.5935428739 4284315318
-0.3044462502 -0.1414274722 0.5936621428 4284052146
-0.3036141992 -0.1403831542 0.5920397043 4281950120
-0.3045678735 -0.1401642412 0.5938993096 4282279085
-0.3046283126 -0.1395320594 0.5940171480 4281161130
-0.3051352501 -0.1391031742 0.5950056911 4281095337
-0.3043015897 -0.1380638331 0.5933800936 4280108693
-0.3057019711 -0.1380368918 0.5961108208 4280569244
-0.3057616055 -0.1374013573 0.5962270498 4280108693
-0.3058209419 -0.1367654502 0.5963428020 4280174486
-0.3058800697 -0.1361291707 0.5964580774 4280042900
-0.3059388995 -0.1354925334 0.5965728164 4280306072
-0.3064448833 -0.1350526810 0.5975594521 4280174486
-0.3065033257 -0.1344143748 0.5976734161 4280240279
-0.3070090115 -0.1339710057 0.5986595154 4280963235
-0.3066194057 -0.1331366748 0.5978997946 4281029028
-0.3089155853 -0.1334644109 0.6023772955 4280897172
-0.3098689914 -0.1332049668 0.6042364240 4281094551
-0.3112703562 -0.1331329942 0.6069689989 4284510884
-0.3108801246 -0.1322925538 0.6062080860 4288458464
