VERSION 0.7
FIELDS x y z rgba
SIZE 4 4 4 4
TYPE F F F U
COUNT 1 1 1 1
WIDTH 920
HEIGHT 1
VIEWPOINT 0.0 0.0 0.0 1.0 0.0 0.0 0.0
POINTS 920
DATA ascii
-0.2741848826 -0.1509965360 0.5923872590 4286154129
-0.2742454708 -0.1503715664 0.5925182104 4286154129
-0.2743058503 -0.1497461945 0.5926486254 4286154129
-0.2743659914 -0.1491204053 0.5927785635 4286154129
-0.2744258940 -0.1484942138 0.5929080248 4286088336
-0.2744855881 -0.1478676051 0.5930369496 4286088336
-0.2749548256 -0.1474603415 0.5940507650 4286088338
-0.2750141323 -0.1468319893 0.5941789150 4286022545
-0.2750732303 -0.1462032199 0.5943065882 4285956752
-0.2751320899 -0.1455740482 0.5944337845 4285693580
-0.2747806311 -0.1447284669 0.5936743617 4285759373
-0.2748389542 -0.1440994292 0.5938004255 4285825166
-0.2748970389 -0.1434699893 0.5939258933 4285627787
-0.2749548852 -0.1428401619 0.5940509439 4285561994
-0.2750125229 -0.1422099322 0.5941754580 4285693580
-0.2750699222 -0.1415793002 0.5942994356 4285496201
-0.2747164667 -0.1407379061 0.5935357809 4285233031
-0.2747732997 -0.1401074380 0.5936586261 4285233031
-0.2748299241 -0.1394765675 0.5937809348 4285167238
-0.2748863101 -0.1388453245 0.5939027667 4285101445
-0.2753534615 -0.1384202838 0.5949119925 4285035652
-0.2754094601 -0.1377873123 0.5950329900 4285035652
-0.2758763731 -0.1373586655 0.5960417986 4285035652
-0.2759319842 -0.1367239803 0.5961619616 4285035652
-0.2763986886 -0.1362917274 0.5971702933 4284969859
-0.2764539123 -0.1356553286 0.5972896218 4285035652
-0.2765088975 -0.1350185424 0.5974084139 4285035652
-0.2765636742 -0.1343813837 0.5975267291 4284969859
-0.2766181827 -0.1337438524 0.5976445079 4284838273
-0.2766724527 -0.1331059486 0.5977618098 4284838273
-0.2767265141 -0.1324676573 0.5978785753 4284838273
-0.2767803073 -0.1318289936 0.5979948044 4284838273
-0.2768338621 -0.1311899722 0.5981104970 4284772737
-0.2772992253 -0.1307448298 0.5991159678 4284641151
-0.2773523927 -0.1301041096 0.5992308259 4284641151
-0.2774053216 -0.1294630170 0.5993451476 4284641151
-0.2770457268 -0.1286301613 0.5985682607 4284575358
-0.2770980895 -0.1279892921 0.5986813903 4284509565
-0.2771502137 -0.1273480654 0.5987939835 4284575358
-0.2772020996 -0.1267064661 0.5989060402 4284575358
-0.2772537172 -0.1260645241 0.5990176201 4284509565
-0.2773051262 -0.1254222095 0.5991286635 4284443772
-0.2773562670 -0.1247795448 0.5992391706 4284377979
-0.2769943476 -0.1239518002 0.5984572768 4284312186
-0.2774578333 -0.1234931573 0.5994585752 4284312186
-0.2775082290 -0.1228494272 0.5995675325 4284377979
-0.2775584161 -0.1222053543 0.5996758938 4284312186
-0.2776083350 -0.1215609312 0.5997837782 4284312186
-0.2776580155 -0.1209161654 0.5998910666 4284311929
-0.2777074277 -0.1202710494 0.5999978781 4284311929
-0.2777566016 -0.1196255907 0.6001041532 4284311929
-0.2778055370 -0.1189797893 0.6002098918 4284246136
-0.2778542340 -0.1183336526 0.6003150344 4284180343
-0.2779026628 -0.1176871732 0.6004197001 4284180343
-0.2783644795 -0.1172145233 0.6014174819 4284114550
-0.2784124911 -0.1165664047 0.6015211940 4284114550
-0.2784602642 -0.1159179509 0.6016243696 4284179573
-0.2780939341 -0.1150978953 0.6008329391 4284245366
-0.2785550356 -0.1146200597 0.6018291712 4284179573
-0.2786020339 -0.1139706150 0.6019307375 4284047987
-0.2786487937 -0.1133208424 0.6020317674 4283982194
-0.2786953151 -0.1126707420 0.6021322608 4283982194
-0.2787415683 -0.1120203212 0.6022321582 4283850608
-0.2787875831 -0.1113695726 0.6023315787 4283719022
-0.2784190178 -0.1105539948 0.6015352607 4283718509
-0.2784644365 -0.1099035740 0.6016334295 4283784302
-0.2785096169 -0.1092528328 0.6017310023 4283784302
-0.2785545290 -0.1086017862 0.6018280983 4283718509
-0.2781846225 -0.1077897772 0.6010288596 4283652716
-0.2782289684 -0.1071390659 0.6011246443 4283455337
-0.2782730460 -0.1064880490 0.6012199521 4283389031
-0.2779020965 -0.1056789905 0.6004185081 4283323238
-0.2779456377 -0.1050283238 0.6005125046 4283257445
-0.2779888809 -0.1043773592 0.6006059647 4283060066
-0.2780318856 -0.1037260816 0.6006988883 4282994273
-0.2780746520 -0.1030745134 0.6007912755 4282928480
-0.2781171501 -0.1024226397 0.6008830667 4282796894
-0.2777442038 -0.1016185731 0.6000773311 4282665308
-0.2773708999 -0.1008161530 0.5992708206 4282599515
-0.2774125040 -0.1001653448 0.5993606448 4282467929
-0.2770384848 -0.0993652642 0.5985525846 4282468179
-0.2770795226 -0.0987148434 0.5986412168 4283389281
-0.2767047882 -0.0979171097 0.5978316665 4285034108
-0.2767452598 -0.0972670913 0.5979190469 4287007898
-0.2763698399 -0.0964717194 0.5971079469 4288652721
-0.2764097154 -0.0958221108 0.5971940756 4289771202
-0.2760336101 -0.0950291082 0.5963815451 4290429900
-0.2760728896 -0.0943799168 0.5964664221 4290824658
-0.2761119306 -0.0937304497 0.5965507627 4290824658
-0.2765665948 -0.0932208970 0.5975331068 4290232521
-0.2770211399 -0.0927091017 0.5985150933 4289114040
-0.2774755061 -0.0921950862 0.5994967818 4289245626
-0.2779297531 -0.0916788355 0.6004781723 4290627279
-0.2779676914 -0.0910240933 0.6005601883 4290693072
-0.2784215808 -0.0905043706 0.6015408635 4289969860
-0.2788753211 -0.0899824128 0.6025211215 4290101446
-0.2793288827 -0.0894582346 0.6035011411 4289969606
-0.2797823250 -0.0889318287 0.6044807434 4290430157
-0.2802355886 -0.0884031951 0.6054600477 4290956244
-0.2802722454 -0.0877419636 0.6055392623 4291285209
-0.2803086340 -0.0870804712 0.6056179404 4291614174
-0.2807613313 -0.0865471363 0.6065959930 4291943139
-0.2812138796 -0.0860115737 0.6075736880 4292206309
-0.2812495828 -0.0853473470 0.6076508164 4292535274
-0.2812850177 -0.0846828744 0.6077273488 4292864239
-0.2813201845 -0.0840181485 0.6078033447 4293193204
-0.2817718983 -0.0834766552 0.6087793112 4293324790
-0.2818065584 -0.0828104541 0.6088542342 4293390583
-0.2818409801 -0.0821439996 0.6089285612 4293390583
-0.2818751335 -0.0814773068 0.6090023518 4293456376
-0.2819089890 -0.0808103681 0.6090755463 4293456374
-0.2819426060 -0.0801431984 0.6091481447 4293587960
-0.2819759250 -0.0794757828 0.6092201471 4293653242
-0.2820089757 -0.0788081363 0.6092915535 4293587449
-0.2820417881 -0.0781402513 0.6093624234 4293522169
-0.2820743024 -0.0774721354 0.6094326377 4293456376
-0.2821065485 -0.0768037885 0.6095023155 4293456635
-0.2817211449 -0.0760225952 0.6086696386 4293522428
-0.2817527950 -0.0753547847 0.6087380648 4293456635
-0.2813667059 -0.0745761022 0.6079038978 4293456635
-0.2813977897 -0.0739088356 0.6079710126 4293127670
-0.2810110152 -0.0731326863 0.6071354151 4293259256
-0.2806238830 -0.0723582953 0.6062990427 4293126896
-0.2802364230 -0.0715856701 0.6054618359 4292732138
-0.2798485756 -0.0708148107 0.6046239138 4293060329
-0.2790426314 -0.0699410290 0.6028826237 4294376189
-0.2634339929 -0.1916994303 0.5705285668 4293324792
-0.2635080516 -0.1911192536 0.5706890225 4293127413
-0.2635819316 -0.1905385852 0.5708490014 4293061620
-0.2640569508 -0.1902465671 0.5718777776 4292995572
-0.2637291551 -0.1893757880 0.5711678863 4292863986
-0.2638024986 -0.1887936741 0.5713266730 4292798193
-0.2642772794 -0.1884975284 0.5723549724 4292666607
-0.2643503547 -0.1879135519 0.5725132227 4292600814
-0.2644232512 -0.1873290837 0.5726710558 4292535021
-0.2644959390 -0.1867441237 0.5728285313 4292469489
-0.2645684481 -0.1861587018 0.5729855895 4292469489
-0.2646407783 -0.1855727881 0.5731422305 4292403696
-0.2651152313 -0.1852675378 0.5741696954 4292337903
-0.2651872635 -0.1846797615 0.5743257999 4292403183
-0.2652591467 -0.1840915233 0.5744814277 4292271597
-0.2657334507 -0.1837812662 0.5755086541 4292205804
-0.2658050358 -0.1831911802 0.5756636858 4292271597
-0.2654736042 -0.1823239475 0.5749458671 4292271597
-0.2655447125 -0.1817338020 0.5750998259 4292337390
-0.2656156123 -0.1811431795 0.5752534270 4292337390
-0.2656863332 -0.1805520803 0.5754065514 4292337390
-0.2661601305 -0.1802335978 0.5764327049 4292337390
-0.2662305534 -0.1796406657 0.5765852332 4292271597
-0.2663007975 -0.1790472716 0.5767373443 4292271597
-0.2667744160 -0.1787237823 0.5777631402 4292271597
-0.2668443918 -0.1781285405 0.5779145956 4292271851
-0.2669141293 -0.1775328368 0.5780656934 4292271851
-0.2673875988 -0.1772043407 0.5790910721 4292206058
-0.2678610682 -0.1768735796 0.5801165104 4292140265
-0.2679304481 -0.1762746572 0.5802667737 4292140265
-0.2679996192 -0.1756752878 0.5804165602 4292140265
-0.2684729099 -0.1753395200 0.5814415812 4292140265
-0.2685417831 -0.1747383028 0.5815907717 4292140265
-0.2690150142 -0.1743988991 0.5826156139 4292337390
-0.2690835893 -0.1737958491 0.5827641487 4292337390
-0.2691519558 -0.1731923521 0.5829122066 4292206317
-0.2692201138 -0.1725883931 0.5830598474 4292140524
-0.2692880929 -0.1719839871 0.5832070112 4292008940
-0.2693558335 -0.1713791192 0.5833537579 4291943147
-0.2694233954 -0.1707737893 0.5835000873 4291942634
-0.2690854967 -0.1699121147 0.5827682614 4291942634
-0.2691525519 -0.1693067849 0.5829134583 4292008425
-0.2696248293 -0.1689550728 0.5839363337 4291942632
-0.2696915567 -0.1683479398 0.5840808749 4291811046
-0.2693524361 -0.1674880981 0.5833463669 4291679460
-0.2698243856 -0.1671323031 0.5843685269 4291482594
-0.2698904872 -0.1665238142 0.5845116973 4291285215
-0.2699564099 -0.1659148782 0.5846544504 4291153629
-0.2700220942 -0.1653055102 0.5847966671 4291219422
-0.2704937160 -0.1649433374 0.5858181119 4291153631
-0.2705590725 -0.1643321663 0.5859596729 4290956252
-0.2706242204 -0.1637205333 0.5861007571 4290824666
-0.2706891596 -0.1631084681 0.5862414241 4290627287
-0.2711604238 -0.1627399474 0.5872620344 4290298322
-0.2716316879 -0.1623691469 0.5882826447 4290035150
-0.2712894380 -0.1615117788 0.5875414610 4289837771
-0.2713536322 -0.1608970314 0.5876804590 4289706185
-0.2714176178 -0.1602818519 0.5878190398 4289772230
-0.2714813650 -0.1596662402 0.5879570842 4289443265
-0.2715449035 -0.1590501964 0.5880947113 4289048507
-0.2720154524 -0.1586712450 0.5891137719 4288785335
-0.2720786333 -0.1580534130 0.5892506242 4288719542
-0.2721416354 -0.1574351639 0.5893870592 4288587956
-0.2722043991 -0.1568164676 0.5895230174 4288324784
-0.2722669542 -0.1561973542 0.5896584392 4288127405
-0.2723292708 -0.1555778086 0.5897934437 4287996333
-0.2723913789 -0.1549578309 0.5899279714 4287667368
-0.2724532783 -0.1543374360 0.5900620222 4287272610
-0.2725149393 -0.1537166238 0.5901955366 4287075231
-0.2725763917 -0.1530953944 0.5903286338 4287141024
-0.2726376057 -0.1524737328 0.5904612541 4287075231
-0.2726986408 -0.1518516541 0.5905933976 4286877852
-0.2727594078 -0.1512291729 0.5907250047 4286746266
-0.2728199661 -0.1506062597 0.5908561945 4286746266
-0.2728803158 -0.1499829441 0.5909868479 4286680473
-0.2729404271 -0.1493592113 0.5911170244 4286680473
-0.2730002999 -0.1487350613 0.5912467241 4286680473
-0.2730599642 -0.1481105089 0.5913759470 4286548887
-0.2731194198 -0.1474855393 0.5915046930 4286417301
-0.2735875845 -0.1470800191 0.5925186276 4286417301
-0.2736466527 -0.1464533061 0.5926465392 4286285715
-0.2737055123 -0.1458261907 0.5927739739 4286285715
-0.2737641335 -0.1451986730 0.5929009914 4285956750
-0.2738225162 -0.1445707381 0.5930274129 4286022545
-0.2738806903 -0.1439424157 0.5931534171 4286088338
-0.2739386261 -0.1433136910 0.5932788849 4285890959
-0.2739963233 -0.1426845640 0.5934038758 4285956752
-0.2736441493 -0.1418427080 0.5926411152 4286088338
-0.2737013102 -0.1412137300 0.5927649140 4285890959
-0.2741680741 -0.1407948136 0.5937758088 4286021777
-0.2742248476 -0.1401641220 0.5938987732 4285955984
-0.2742814124 -0.1395330280 0.5940212607 4285890191
-0.2743377388 -0.1389015466 0.5941432118 4285824398
-0.2743938267 -0.1382696629 0.5942646861 4285824398
-0.2748599052 -0.1378431469 0.5952741504 4285824398
-0.2749156058 -0.1372095495 0.5953947902 4285824398
-0.2749710679 -0.1365755796 0.5955148935 4285824398
-0.2750263214 -0.1359412223 0.5956345201 4285561226
-0.2750813067 -0.1353064775 0.5957536697 4285561226
-0.2751360834 -0.1346713603 0.5958722830 4285561226
-0.2751906216 -0.1340358704 0.5959903598 4285495433
-0.2752448916 -0.1333999932 0.5961079597 4285429640
-0.2752989531 -0.1327637434 0.5962250233 4285429640
-0.2753527761 -0.1321271211 0.5963415504 4285298054
-0.2754063606 -0.1314901263 0.5964576006 4285232261
-0.2754597068 -0.1308527589 0.5965731144 4285167238
-0.2759240270 -0.1304093748 0.5975787044 4285101445
-0.2759769559 -0.1297703087 0.5976933837 4285101445
-0.2760296762 -0.1291308850 0.5978075266 4285101445
-0.2760821283 -0.1284910887 0.5979211330 4285035652
-0.2761343420 -0.1278509349 0.5980342627 4285035652
-0.2761863172 -0.1272104234 0.5981467962 4284904323
-0.2762380540 -0.1265695393 0.5982588530 4284838530
-0.2762895525 -0.1259283125 0.5983703732 4284838530
-0.2759289742 -0.1251000017 0.5975894928 4284838530
-0.2759799063 -0.1244590059 0.5976998210 4284772737
-0.2760306001 -0.1238176525 0.5978095531 4284772737
-0.2760810554 -0.1231759563 0.5979188085 4284641151
-0.2761312723 -0.1225339025 0.5980275869 4284575358
-0.2765934467 -0.1220734268 0.5990285277 4284575358
-0.2766432166 -0.1214297190 0.5991363525 4284575358
-0.2766927779 -0.1207856610 0.5992436409 4284706687
-0.2767420709 -0.1201412603 0.5993503928 4284706687
-0.2767911255 -0.1194965169 0.5994566083 4284640894
-0.2772524953 -0.1190285534 0.6004558802 4284575101
-0.2773011327 -0.1183821708 0.6005612016 4284575101
-0.2773495018 -0.1177354380 0.6006659865 4284509308
-0.2773976624 -0.1170883700 0.6007702351 4284443515
-0.2774455249 -0.1164409742 0.6008739471 4284377722
-0.2770802379 -0.1156209260 0.6000827551 4284442745
-0.2771275640 -0.1149738207 0.6001852751 4284508538
-0.2771746218 -0.1143263876 0.6002871990 4284508538
-0.2776345909 -0.1138480380 0.6012833714 4284376952
-0.2776812017 -0.1131989807 0.6013843417 4284311159
-0.2773143053 -0.1123821139 0.6005897522 4284311159
-0.2773603797 -0.1117333695 0.6006894708 4284245366
-0.2774061859 -0.1110843047 0.6007887125 4284179573
-0.2774517536 -0.1104349196 0.6008874178 4284179571
-0.2774970531 -0.1097852141 0.6009855270 4284179571
-0.2775421143 -0.1091351956 0.6010830998 4284179571
-0.2771732211 -0.1083231792 0.6002841592 4284113778
-0.2772177160 -0.1076735035 0.6003805399 4283982192
-0.2772619426 -0.1070235074 0.6004763246 4283719020
-0.2768920362 -0.1062144414 0.5996751785 4283521641
-0.2769356668 -0.1055647954 0.5997697115 4283324262
-0.2773931026 -0.1050716713 0.6007603407 4283455848
-0.2770222127 -0.1042645946 0.5999571681 4283390055
-0.2770651281 -0.1036140397 0.6000500321 4283389542
-0.2766935527 -0.1028092802 0.5992453098 4283257956
-0.2767358720 -0.1021590978 0.5993369818 4283060577
-0.2767779231 -0.1015086174 0.5994280577 4282928991
-0.2764053345 -0.1007068530 0.5986211300 4282863198
-0.2764468193 -0.1000567600 0.5987109542 4282731612
-0.2764880359 -0.0994063765 0.5988002419 4282534487
-0.2765290141 -0.0987556949 0.5988889933 4282534487
-0.2761550844 -0.0979576483 0.5980791450 4282863452
-0.2761954963 -0.0973073691 0.5981666446 4283652968
-0.2762356102 -0.0966568142 0.5982535481 4284705656
-0.2762755156 -0.0960059687 0.5983399749 4286218895
-0.2759002447 -0.0952116698 0.5975272059 4287863718
-0.2759395540 -0.0945612416 0.5976123810 4288982199
-0.2759785950 -0.0939105377 0.5976969600 4289048247
-0.2764324546 -0.0933998004 0.5986798406 4288521903
-0.2768861651 -0.0928868353 0.5996624827 4287666851
-0.2769245505 -0.0922333524 0.5997456312 4288061609
-0.2773779035 -0.0917169005 0.6007274985 4289377469
-0.2778311372 -0.0911982134 0.6017090082 4289640641
-0.2782841921 -0.0906772986 0.6026902199 4289048758
-0.2787370980 -0.0901541635 0.6036711335 4288917172
-0.2791898847 -0.0896287933 0.6046516895 4289377723
-0.2796424925 -0.0891011953 0.6056319475 4289575102
-0.2796793580 -0.0884399563 0.6057118177 4289772227
-0.2797159851 -0.0877784565 0.6057911515 4289903813
-0.2805837095 -0.0873755887 0.6076703668 4290101192
-0.2806198895 -0.0867116079 0.6077487469 4290298571
-0.2806558311 -0.0860473737 0.6078265905 4290561997
-0.2806915045 -0.0853828862 0.6079038382 4290759376
-0.2807268798 -0.0847181380 0.6079804897 4291087828
-0.2807620168 -0.0840531439 0.6080565453 4291482586
-0.2807968557 -0.0833879039 0.6081320643 4291811551
-0.2812474966 -0.0828449652 0.6091079712 4292008930
-0.2812818885 -0.0821782425 0.6091824174 4292140516
-0.2808998227 -0.0813907012 0.6083550453 4292272102
-0.2809336185 -0.0807244852 0.6084281802 4292535272
-0.2809671164 -0.0800580233 0.6085007787 4292798444
-0.2814166546 -0.0795089453 0.6094743609 4292930032
-0.2814496756 -0.0788410231 0.6095458865 4292995825
-0.2814824283 -0.0781728700 0.6096168160 4293061618
-0.2815149128 -0.0775044858 0.6096871495 4292995825
-0.2811306417 -0.0767222047 0.6088548899 4292864498
-0.2811625302 -0.0760543495 0.6089239717 4292732912
-0.2811941504 -0.0753862709 0.6089923978 4292536303
-0.2808088660 -0.0746072680 0.6081579924 4292404717
-0.2808398902 -0.0739397332 0.6082251668 4292206568
-0.2808706462 -0.0732719749 0.6082918048 4292403947
-0.2809011042 -0.0726040006 0.6083577871 4292337380
-0.2796808779 -0.0716156140 0.6057150960 4292074208
-0.2792938352 -0.0708444417 0.6048768759 4292863207
-0.2789064348 -0.0700750425 0.6040378213 4294442239
-0.2630149424 -0.1874150634 0.5709944963 4293324788
-0.2630875111 -0.1868321896 0.5711520910 4293193202
-0.2631599009 -0.1862488389 0.5713092089 4293127158
-0.2632321119 -0.1856649965 0.5714659691 4293127158
-0.2633041143 -0.1850806773 0.5716223121 4292995572
-0.2645803988 -0.1853396147 0.5743930936 4292863986
-0.2638491690 -0.1841909587 0.5728056431 4292863988
-0.2639207542 -0.1836043149 0.5729609728 4292732402
-0.2639921010 -0.1830171943 0.5731159449 4292600816
-0.2640632987 -0.1824295968 0.5732704401 4292600816
-0.2645363212 -0.1821182966 0.5742973685 4292468976
-0.2642050683 -0.1812529713 0.5735782981 4292468976
-0.2642756701 -0.1806639582 0.5737315416 4292403183
-0.2643460929 -0.1800744683 0.5738844275 4292337390
-0.2644163072 -0.1794845015 0.5740368962 4292271599
-0.2648889124 -0.1791663617 0.5750628710 4292271599
-0.2649588585 -0.1785745621 0.5752146840 4292271599
-0.2650285959 -0.1779823005 0.5753660798 4292337392
-0.2655010223 -0.1776591539 0.5763917565 4292337131
-0.2655704916 -0.1770650446 0.5765425563 4292337131
-0.2656397521 -0.1764704734 0.5766928792 4292337644
-0.2661120296 -0.1761423349 0.5777181387 4292403437
-0.2665843070 -0.1758119166 0.5787434578 4292337644
-0.2666531801 -0.1752141416 0.5788930058 4292337644
-0.2671253681 -0.1748800874 0.5799180865 4292402924
-0.2667903304 -0.1740172207 0.5791907310 4292402924
-0.2672623396 -0.1736804247 0.5802154541 4292271597
-0.2673304975 -0.1730799079 0.5803634524 4292337390
-0.2673984766 -0.1724789292 0.5805110335 4292403183
-0.2674662769 -0.1718775034 0.5806581974 4292337390
-0.2675338387 -0.1712756008 0.5808048844 4292271597
-0.2676012218 -0.1706732661 0.5809511542 4292205804
-0.2676683664 -0.1700704545 0.5810969472 4292205804
-0.2677353323 -0.1694672108 0.5812423229 4292271597
-0.2678020895 -0.1688635051 0.5813872814 4292337390
-0.2678686678 -0.1682593375 0.5815317631 4292337390
-0.2679350078 -0.1676547378 0.5816757679 4292271597
-0.2680011392 -0.1670496762 0.5818193555 4292271597
-0.2680670917 -0.1664441675 0.5819625258 4292140524
-0.2681328058 -0.1658382267 0.5821052194 4292074731
-0.2686034739 -0.1654814184 0.5831269622 4292074731
-0.2686688602 -0.1648736745 0.5832690001 4292074731
-0.2687340677 -0.1642654687 0.5834105611 4292206317
-0.2692044973 -0.1639036685 0.5844318271 4292074731
-0.2692693770 -0.1632936746 0.5845726728 4292008940
-0.2693340480 -0.1626832336 0.5847130418 4291877354
-0.2693985105 -0.1620723456 0.5848529935 4291745768
-0.2698685527 -0.1617041975 0.5858734846 4291679975
-0.2699326873 -0.1610915214 0.5860126615 4291548389
-0.2695905864 -0.1602370888 0.5852699876 4291416803
-0.2696542144 -0.1596244574 0.5854080915 4291417055
-0.2701237798 -0.1592508852 0.5864275694 4291219676
-0.2701870799 -0.1586364657 0.5865649581 4290956504
-0.2702501118 -0.1580216289 0.5867018104 4290824918
-0.2707194686 -0.1576430500 0.5877206922 4290824918
-0.2707821727 -0.1570264250 0.5878568888 4290627539
-0.2704380155 -0.1561745107 0.5871096849 4290364367
-0.2705001831 -0.1555579603 0.5872447491 4290166988
-0.2709690332 -0.1551739722 0.5882625580 4290233295
-0.2706239223 -0.1543235779 0.5875133276 4289904330
-0.2706854641 -0.1537057459 0.5876469612 4289575365
-0.2707467973 -0.1530875117 0.5877800584 4289312193
-0.2708078921 -0.1524688452 0.5879126787 4289246400
-0.2708687782 -0.1518497616 0.5880448818 4289049021
-0.2709294260 -0.1512302607 0.5881765485 4288785849
-0.2709898651 -0.1506103426 0.5883077383 4288588470
-0.2710500658 -0.1499900073 0.5884385109 4288456370
-0.2715177536 -0.1495938748 0.5894538164 4288324784
-0.2715776265 -0.1489717960 0.5895837545 4288258991
-0.2716372609 -0.1483492851 0.5897132158 4288127405
-0.2716966569 -0.1477263868 0.5898422003 4287798440
-0.2717558444 -0.1471030712 0.5899707079 4287732647
-0.2722229660 -0.1466992795 0.5909847617 4287601575
-0.2722817957 -0.1460742205 0.5911124945 4287469989
-0.2723403871 -0.1454487443 0.5912396908 4287272610
-0.2723987699 -0.1448228657 0.5913664103 4286943645
-0.2724569142 -0.1441965997 0.5914926529 4286877852
-0.2725148201 -0.1435699165 0.5916184187 4286877852
-0.2725725174 -0.1429428458 0.5917436481 4286614680
-0.2726299763 -0.1423153728 0.5918684006 4286746266
-0.2726872265 -0.1416874975 0.5919926763 4286812059
-0.2723353207 -0.1408477575 0.5912287235 4286483094
-0.2728010118 -0.1404305845 0.5922396779 4286482328
-0.2728575468 -0.1398015320 0.5923624635 4286416535
-0.2729138732 -0.1391720921 0.5924847126 4286350742
-0.2729699612 -0.1385422647 0.5926064849 4286284949
-0.2730258107 -0.1379120499 0.5927277207 4286284949
-0.2734908462 -0.1374872774 0.5937373042 4286284949
-0.2735463381 -0.1368553489 0.5938577652 4286219156
-0.2736015618 -0.1362230331 0.5939776897 4286219156
-0.2736565769 -0.1355903298 0.5940970778 4286219156
-0.2737113535 -0.1349572539 0.5942159891 4286219156
-0.2737658918 -0.1343237907 0.5943343639 4286153363
-0.2738201916 -0.1336899549 0.5944522619 4286153363
-0.2738742530 -0.1330557466 0.5945696235 4286087570
-0.2739280760 -0.1324211508 0.5946865082 4285955984
-0.2739816606 -0.1317861974 0.5948028564 4285824398
-0.2740350366 -0.1311508715 0.5949186683 4285758605
-0.2740881443 -0.1305151582 0.5950340033 4285955984
-0.2745514214 -0.1300735176 0.5960397720 4285890191
-0.2746041417 -0.1294361353 0.5961542130 4285759375
-0.2746566236 -0.1287983656 0.5962681770 4285693582
-0.2747088671 -0.1281602532 0.5963816047 4285627789
-0.2747608721 -0.1275217533 0.5964944959 4285627789
-0.2748126388 -0.1268829107 0.5966068506 4285627787
-0.2748641670 -0.1262437105 0.5967187285 4285496201
-0.2749154568 -0.1256041378 0.5968300700 4285430408
-0.2749664783 -0.1249642149 0.5969408751 4285364615
-0.2746061981 -0.1241380945 0.5961586833 4285364615
-0.2746566832 -0.1234984174 0.5962682962 4285298822
-0.2747069299 -0.1228583902 0.5963773131 4285167236
-0.2747569084 -0.1222180128 0.5964858532 4285101443
-0.2752180398 -0.1217592880 0.5974869728 4285036163
-0.2752676308 -0.1211172566 0.5975946188 4285101956
-0.2753169835 -0.1204748750 0.5977017283 4285101443
-0.2753660679 -0.1198321506 0.5978083014 4285101443
-0.2758266032 -0.1193672419 0.5988081098 4285035650
-0.2758752704 -0.1187228709 0.5989137888 4285035650
-0.2759236991 -0.1180781573 0.5990189314 4284969857
-0.2759718895 -0.1174331084 0.5991235375 4284904064
-0.2760198116 -0.1167877167 0.5992276073 4284904064
-0.2760674953 -0.1161419973 0.5993310809 4284838271
-0.2757028341 -0.1153235584 0.5985394120 4284969087
-0.2757499516 -0.1146781296 0.5986416936 4284969087
-0.2757968009 -0.1140323803 0.5987434387 4284903296
-0.2762557566 -0.1135557815 0.5997397900 4284903296
-0.2763021886 -0.1129084080 0.5998406410 4284837503
-0.2759359181 -0.1120931506 0.5990454555 4284771710
-0.2759818137 -0.1114460900 0.5991450548 4284705917
-0.2760274410 -0.1107987091 0.5992441177 4284705917
-0.2760728002 -0.1101510078 0.5993425846 4284640122
-0.2761179209 -0.1095029935 0.5994405746 4284574329
-0.2761627734 -0.1088546589 0.5995379686 4284508536
-0.2757945359 -0.1080442667 0.5987384915 4284508536
-0.2758388221 -0.1073962674 0.5988346934 4284442743
-0.2758828700 -0.1067479625 0.5989302993 4284311157
-0.2759266794 -0.1060993448 0.5990253687 4284179571
-0.2755570710 -0.1052925661 0.5982230306 4284113778
-0.2760134935 -0.1048011929 0.5992138386 4283916399
-0.2760565281 -0.1041516587 0.5993072987 4283850606
-0.2756859958 -0.1033468768 0.5985028744 4283850606
-0.2757284343 -0.1026977152 0.5985950232 4283653227
-0.2753571868 -0.1018952578 0.5977890491 4283455848
-0.2753990889 -0.1012464687 0.5978800058 4283390055
-0.2754407227 -0.1005973816 0.5979703665 4283324262
-0.2754820883 -0.0999480113 0.5980601907 4283258469
-0.2755232155 -0.0992983431 0.5981494784 4283389542
-0.2755640745 -0.0986483842 0.5982381701 4283455335
-0.2756046951 -0.0979981348 0.5983263254 4283719020
-0.2756450474 -0.0973476022 0.5984139442 4283982192
-0.2756851315 -0.0966967866 0.5985009670 4284048239
-0.2757249773 -0.0960456878 0.5985874534 4284442997
-0.2757645547 -0.0953943059 0.5986734033 4285364097
-0.2758038640 -0.0947426409 0.5987587571 4286087820
-0.2758429348 -0.0940907001 0.5988435745 4286482577
-0.2762959599 -0.0935787857 0.5998271108 4287206300
-0.2763345838 -0.0929253101 0.5999109149 4287995816
-0.2767872512 -0.0924099088 0.6008936763 4288324781
-0.2768253982 -0.0917549133 0.6009764671 4288325035
-0.2772777379 -0.0912360251 0.6019585133 4288259242
-0.2777299285 -0.0907149091 0.6029402018 4288522414
-0.2781819999 -0.0901915580 0.6039215922 4288917172
-0.2786338925 -0.0896659791 0.6049026251 4289114551
-0.2790856361 -0.0891381726 0.6058833003 4289180344
-0.2795372009 -0.0886081383 0.6068636775 4289180344
-0.2795738280 -0.0879453942 0.6069432497 4289180344
-0.2796102166 -0.0872823894 0.6070221663 4289311930
-0.2800612152 -0.0867476389 0.6080012918 4289377723
-0.2800970972 -0.0860831365 0.6080791950 4289443516
-0.2801327109 -0.0854183808 0.6081565022 4289509309
-0.2801680565 -0.0847533643 0.6082332730 4289706688
-0.2802031636 -0.0840881020 0.6083094478 4289969860
-0.2802379727 -0.0834225938 0.6083850265 4290167239
-0.2802725136 -0.0827568397 0.6084600091 4290167239
-0.2803068161 -0.0820908323 0.6085344553 4290167239
-0.2803408206 -0.0814245865 0.6086083055 4290233032
-0.2799592018 -0.0806384608 0.6077798009 4290430409
-0.2804080248 -0.0800913721 0.6087542176 4290759374
-0.2804412246 -0.0794244036 0.6088263392 4290956240
-0.2804741859 -0.0787572041 0.6088978052 4291087826
-0.2805068493 -0.0780897662 0.6089687347 4291154134
-0.2805392146 -0.0774220973 0.6090390682 4291285720
-0.2805713415 -0.0767542049 0.6091088057 4291220443
-0.2801874876 -0.0759733543 0.6082754731 4291220443
-0.2802190185 -0.0753059909 0.6083438993 4291286236
-0.2802502811 -0.0746384040 0.6084117889 4291286236
-0.2802812755 -0.0739705935 0.6084790230 4291088087
-0.2803120017 -0.0733025670 0.6085457206 4291219673
-0.2803424597 -0.0726343170 0.6086118221 4291284692
-0.2799566388 -0.0718590766 0.6077742577 4291218899
-0.2791544497 -0.0709798187 0.6060327291 4292600035
-0.2787678540 -0.0702091157 0.6051934958 4294573823
-0.2626560330 -0.1825310439 0.5715935826 4293324792
-0.2631280124 -0.1822228283 0.5726207495 4293324792
-0.2631987929 -0.1816354543 0.5727747679 4293061365
-0.2632693946 -0.1810476184 0.5729284286 4292995572
-0.2633398175 -0.1804593056 0.5730816722 4292863988
-0.2630085051 -0.1795963198 0.5723606348 4292798195
-0.2634800673 -0.1792812645 0.5733868480 4292732402
-0.2635498941 -0.1786915362 0.5735388398 4292666609
-0.2636195421 -0.1781013459 0.5736903548 4292600816
-0.2636889815 -0.1775106788 0.5738415122 4292535023
-0.2637582421 -0.1769195497 0.5739921927 4292468717
-0.2642294765 -0.1765967607 0.5750176907 4292468717
-0.2642984390 -0.1760037988 0.5751677752 4292534510
-0.2643671930 -0.1754103750 0.5753174424 4292534510
-0.2648382783 -0.1750825644 0.5763425827 4292468717
-0.2653093338 -0.1747525036 0.5773677230 4292402924
-0.2653777301 -0.1741558760 0.5775165558 4292402926
-0.2654459178 -0.1735588014 0.5776649714 4292402926
-0.2659167945 -0.1732237190 0.5786896944 4292337390
-0.2659847140 -0.1726248115 0.5788374543 4292403183
-0.2660523951 -0.1720254570 0.5789847970 4292403183
-0.2661198676 -0.1714256406 0.5791316628 4292403183
-0.2661871612 -0.1708253622 0.5792780519 4292403183
-0.2662542462 -0.1702246368 0.5794240832 4292337390
-0.2659176290 -0.1693664491 0.5786914825 4292337390
-0.2659842074 -0.1687657237 0.5788363814 4292337390
-0.2660505772 -0.1681645513 0.5789808035 4292337644
-0.2661167383 -0.1675629169 0.5791248083 4292403437
-0.2661826909 -0.1669608504 0.5792683959 4292403437
-0.2666524947 -0.1666107625 0.5802907348 4292337644
-0.2667181492 -0.1660068929 0.5804336071 4292271851
-0.2667835951 -0.1654025614 0.5805760026 4292271851
-0.2668488324 -0.1647977978 0.5807179809 4292271851
-0.2673182786 -0.1644413620 0.5817396045 4292206058
-0.2673832178 -0.1638347805 0.5818809271 4292140265
-0.2674479187 -0.1632277668 0.5820217133 4292206058
-0.2675124407 -0.1626203209 0.5821621418 4292206058
-0.2679815292 -0.1622575223 0.5831829906 4292206058
-0.2680457234 -0.1616482735 0.5833226442 4292140265
-0.2681096792 -0.1610385925 0.5834618807 4292206058
-0.2681734562 -0.1604284644 0.5836006403 4292205804
-0.2682369947 -0.1598179042 0.5837389231 4292140011
-0.2687056363 -0.1594474018 0.5847587585 4292140524
-0.2687688470 -0.1588350534 0.5848963261 4292074731
-0.2688318491 -0.1582222730 0.5850334764 4292008938
-0.2688946426 -0.1576090753 0.5851700902 4292008938
-0.2693628967 -0.1572322249 0.5861890912 4292074731
-0.2694253325 -0.1566172391 0.5863249898 4291943145
-0.2690817416 -0.1557668746 0.5855772495 4291811559
-0.2691436708 -0.1551519483 0.5857120156 4291811559
-0.2696114182 -0.1547697037 0.5867299438 4291679973
-0.2696729898 -0.1541530043 0.5868639946 4291548387
-0.2697343826 -0.1535358876 0.5869975090 4291351008
-0.2693892121 -0.1526880562 0.5862463713 4291219422
-0.2694500387 -0.1520710289 0.5863787532 4291087836
-0.2695106566 -0.1514535844 0.5865107179 4290890457
-0.2695710659 -0.1508357376 0.5866421461 4290758871
-0.2696312666 -0.1502174586 0.5867730975 4290627285
-0.2696912289 -0.1495987773 0.5869036317 4290429906
-0.2701578140 -0.1492043883 0.5879190564 4290364113
-0.2702174187 -0.1485839337 0.5880487561 4290232527
-0.2702768147 -0.1479630917 0.5881779790 4290035148
-0.2707431316 -0.1475637257 0.5891927481 4289771976
-0.2708021402 -0.1469411254 0.5893211961 4289574597
-0.2708609402 -0.1463181078 0.5894491673 4289508804
-0.2709195316 -0.1456946880 0.5895766616 4289443011
-0.2713853717 -0.1452890188 0.5905904770 4289180609
-0.2714436054 -0.1446638703 0.5907171369 4288785851
-0.2710939348 -0.1438220292 0.5899561644 4288654263
-0.2711516023 -0.1431970000 0.5900816917 4288456884
-0.2712090611 -0.1425715834 0.5902067423 4288193712
-0.2712662816 -0.1419457644 0.5903312564 4288193712
-0.2713232636 -0.1413195431 0.5904552937 4288062126
-0.2713800371 -0.1406929493 0.5905788541 4287733161
-0.2714365721 -0.1400659382 0.5907018781 4287666600
-0.2714928985 -0.1394385546 0.5908244252 4287600807
-0.2715489566 -0.1388107687 0.5909464955 4287469221
-0.2716048360 -0.1381825954 0.5910680294 4287206049
-0.2720689476 -0.1377608925 0.5920780301 4286942877
-0.2721244097 -0.1371310055 0.5921987891 4286745498
-0.2717709839 -0.1362957805 0.5914295912 4286679705
-0.2722346783 -0.1358700842 0.5924386978 4286679705
-0.2722894549 -0.1352390349 0.5925579071 4286679705
-0.2723439932 -0.1346076280 0.5926765800 4286613912
-0.2719892859 -0.1337746680 0.5919046998 4286613912
-0.2720432878 -0.1331434399 0.5920221806 4286613912
-0.2720970511 -0.1325118393 0.5921391845 4286482326
-0.2721505761 -0.1318798661 0.5922556520 4286284947
-0.2726131976 -0.1314448863 0.5932624340 4286087568
-0.2726663053 -0.1308112293 0.5933780670 4286087568
-0.2727192044 -0.1301771849 0.5934931636 4286350742
-0.2727718651 -0.1295427829 0.5936077833 4286416535
-0.2728242874 -0.1289080083 0.5937218666 4286350742
-0.2728764713 -0.1282728761 0.5938354135 4286284949
-0.2729284465 -0.1276373714 0.5939484835 4286022547
-0.2729801536 -0.1270015091 0.5940610170 4286022547
-0.2730316222 -0.1263652891 0.5941730142 4286022545
-0.2730828524 -0.1257287115 0.5942844748 4286022545
-0.2731338441 -0.1250917763 0.5943954587 4286022545
-0.2731845975 -0.1244544759 0.5945059061 4285890959
-0.2732350826 -0.1238168254 0.5946158171 4285759373
-0.2732853591 -0.1231788248 0.5947251916 4285693580
-0.2733353972 -0.1225404739 0.5948340893 4285628300
-0.2733851671 -0.1219017655 0.5949424505 4285562507
-0.2734347284 -0.1212627143 0.5950502753 4285628298
-0.2734840214 -0.1206233203 0.5951575637 4285694091
-0.2735330760 -0.1199835762 0.5952643156 4285693578
-0.2739926875 -0.1195226833 0.5962644815 4285693578
-0.2744521797 -0.1190595254 0.5972644687 4285693580
-0.2745006680 -0.1184168309 0.5973699689 4285627787
-0.2745488882 -0.1177738011 0.5974748731 4285561994
-0.2741857767 -0.1169550791 0.5966847539 4285496201
-0.2742334604 -0.1163123399 0.5967884660 4285561994
-0.2742808759 -0.1156692579 0.5968916416 4285561994
-0.2743280530 -0.1150258482 0.5969942808 4285627017
-0.2743749619 -0.1143821105 0.5970963836 4285561224
-0.2744216323 -0.1137380376 0.5971979499 4285495433
-0.2744680643 -0.1130936369 0.5972990394 4285429640
-0.2745142281 -0.1124489084 0.5973995328 4285363847
-0.2745601833 -0.1118038595 0.5974994898 4285232261
-0.2746058404 -0.1111584902 0.5975988507 4285232261
-0.2742395103 -0.1103471071 0.5968016386 4285298054
-0.2742846310 -0.1097020581 0.5968998075 4284969087
-0.2743294835 -0.1090566963 0.5969974399 4284903294
-0.2743740976 -0.1084110215 0.5970945358 4284837501
-0.2744184732 -0.1077650264 0.5971910954 4284771708
-0.2744625807 -0.1071187183 0.5972871184 4284640122
-0.2745064497 -0.1064721048 0.5973825455 4284574329
-0.2745500505 -0.1058251783 0.5974774361 4284639609
-0.2745934129 -0.1051779464 0.5975717902 4284639609
-0.2746365070 -0.1045304090 0.5976656079 4284639609
-0.2742669284 -0.1037265807 0.5968613029 4284639609
-0.2743094862 -0.1030794159 0.5969538689 4284573816
-0.2743517458 -0.1024319381 0.5970458984 4284376437
-0.2739811540 -0.1016311124 0.5962393880 4284244851
-0.2740228772 -0.1009840146 0.5963301659 4284244851
-0.2744770646 -0.1004877388 0.5973186493 4284310644
-0.2745183408 -0.0998390839 0.5974084139 4284310644
-0.2745593488 -0.0991901383 0.5974977016 4284113778
-0.2746001184 -0.0985408947 0.5975863934 4284113778
-0.2746406198 -0.0978913754 0.5976744890 4284442743
-0.2746808529 -0.0972415581 0.5977621078 4284969087
-0.2747208476 -0.0965914652 0.5978491306 4285364099
-0.2747605741 -0.0959410816 0.5979355574 4285693064
-0.2752132714 -0.0954337120 0.5989207625 4286153613
-0.2752525508 -0.0947817937 0.5990062356 4286548371
-0.2752915621 -0.0941295996 0.5990911126 4287272093
-0.2757437229 -0.0936174765 0.6000751257 4287732644
-0.2757822871 -0.0929637477 0.6001590490 4288324781
-0.2762341201 -0.0924481452 0.6011422873 4288522160
-0.2762722075 -0.0917928889 0.6012251973 4288390828
-0.2763100266 -0.0911373645 0.6013075113 4288522414
-0.2767612934 -0.0906170160 0.6022895575 4288917170
-0.2772124112 -0.0900944471 0.6032713056 4289114549
-0.2776633799 -0.0895696431 0.6042526960 4289179829
-0.2781141996 -0.0890426114 0.6052337885 4289311415
-0.2781509459 -0.0883818269 0.6053137183 4289377721
-0.2786014080 -0.0878513232 0.6062939763 4289443514
-0.2786376774 -0.0871890336 0.6063729525 4289509307
-0.2790877521 -0.0866550580 0.6073523760 4289509307
-0.2787094116 -0.0858636871 0.6065290570 4289443514
-0.2787448764 -0.0852006376 0.6066062450 4289377721
-0.2787801027 -0.0845373273 0.6066828966 4289575100
-0.2788150311 -0.0838737711 0.6067588925 4289575100
-0.2788496912 -0.0832099617 0.6068343520 4289640893
-0.2788841128 -0.0825459138 0.6069092155 4289640893
-0.2789182365 -0.0818816125 0.6069835424 4289640893
-0.2789521217 -0.0812170729 0.6070572734 4289575100
-0.2789857388 -0.0805522949 0.6071303487 4289640893
-0.2794336379 -0.0800059736 0.6081051826 4289706686
-0.2794667780 -0.0793397278 0.6081772447 4289706173
-0.2794996202 -0.0786732435 0.6082487106 4289706173
-0.2795321941 -0.0780065283 0.6083195806 4289640893
-0.2795644999 -0.0773395821 0.6083899140 4289706686
-0.2795965374 -0.0766724050 0.6084596515 4289707204
-0.2792134285 -0.0758922249 0.6076259017 4289904583
-0.2792448699 -0.0752255842 0.6076943278 4290036169
-0.2792760432 -0.0745587125 0.6077622175 4290101962
-0.2788919508 -0.0737818331 0.6069262624 4290167239
-0.2793376148 -0.0732243136 0.6078961492 4290233032
-0.2793679535 -0.0725567862 0.6079621911 4290429383
-0.2789829075 -0.0717822164 0.6071242690 4290560969
-0.2781822979 -0.0709035993 0.6053819656 4292205020
-0.2777964771 -0.0701335669 0.6045423150 4294573567
-0.2624209523 -0.1764490455 0.5724657178 4293324026
-0.2624897063 -0.1758590639 0.5726156831 4293258233
-0.2629597485 -0.1755366027 0.5736410618 4293126647
-0.2630282342 -0.1749447882 0.5737904310 4292995061
-0.2634981871 -0.1746187061 0.5748156309 4292929268
-0.2635663748 -0.1740250736 0.5749644041 4292863475
-0.2640362382 -0.1736953408 0.5759894252 4292797682
-0.2641041279 -0.1730998755 0.5761375427 4292797682
-0.2641718388 -0.1725039631 0.5762851834 4292666355
-0.2642393410 -0.1719075739 0.5764324665 4292600562
-0.2643066347 -0.1713107377 0.5765792727 4292534769
-0.2643737197 -0.1707134396 0.5767256021 4292468976
-0.2644406259 -0.1701156944 0.5768715739 4292403183
-0.2645073235 -0.1695175022 0.5770170689 4292337390
-0.2641711235 -0.1686617434 0.5762836337 4292337390
-0.2646401227 -0.1683197469 0.5773067474 4292271597
-0.2643032968 -0.1674649119 0.5765720010 4292337644
-0.2643691003 -0.1668658108 0.5767155290 4292403437
-0.2644346654 -0.1662662774 0.5768585801 4292337644
-0.2649032474 -0.1659188420 0.5778807998 4292271851
-0.2649685442 -0.1653175056 0.5780231953 4292206058
-0.2650336027 -0.1647157222 0.5781651139 4292206058
-0.2650984824 -0.1641134918 0.5783066154 4292206058
-0.2655667365 -0.1637596935 0.5793281198 4292140265
-0.2656312883 -0.1631556749 0.5794689655 4292271851
-0.2656956315 -0.1625512093 0.5796092749 4292337644
-0.2661636472 -0.1621924192 0.5806303024 4292403437
-0.2662276626 -0.1615861505 0.5807699561 4292337644
-0.2662914693 -0.1609794497 0.5809091926 4292337644
-0.2663550973 -0.1603723168 0.5810478926 4292271851
-0.2664184868 -0.1597647518 0.5811862350 4292206058
-0.2664816678 -0.1591567546 0.5813240409 4292206058
-0.2669491172 -0.1587889045 0.5823437572 4292337392
-0.2670119703 -0.1581791192 0.5824809074 4292205806
-0.2670746148 -0.1575688869 0.5826175213 4292140013
-0.2671370506 -0.1569582522 0.5827537179 4292140013
-0.2676041126 -0.1565840542 0.5837725997 4292074220
-0.2676661909 -0.1559716314 0.5839080811 4292074220
-0.2673230469 -0.1551237404 0.5831595063 4292074218
-0.2677897513 -0.1547455043 0.5841776133 4292074218
-0.2678512037 -0.1541317999 0.5843116641 4292140011
-0.2679124475 -0.1535176784 0.5844452381 4292074218
-0.2679734528 -0.1529031247 0.5845783353 4292008938
-0.2680342495 -0.1522881687 0.5847110152 4291943145
-0.2680948377 -0.1516727805 0.5848431587 4291877352
-0.2681552172 -0.1510569900 0.5849748254 4291811559
-0.2686211169 -0.1506683677 0.5859912634 4291811559
-0.2686811388 -0.1500508189 0.5861221552 4291745766
-0.2687409520 -0.1494328380 0.5862526298 4291876839
-0.2688005269 -0.1488144547 0.5863825679 4291876839
-0.2688598931 -0.1481956542 0.5865120888 4291745253
-0.2689190209 -0.1475764513 0.5866410732 4291679460
-0.2689779401 -0.1469568461 0.5867695808 4291482594
-0.2690366209 -0.1463368237 0.5868976116 4291351008
-0.2690950930 -0.1457163990 0.5870251656 4291219422
-0.2695599198 -0.1453147531 0.5880391598 4291153629
-0.2696180344 -0.1446925849 0.5881659389 4291153629
-0.2696759105 -0.1440700144 0.5882922411 4290956250
-0.2697335780 -0.1434470415 0.5884180069 4290628055
-0.2697910070 -0.1428236663 0.5885432959 4290430676
-0.2698481977 -0.1421999037 0.5886681080 4290167504
-0.2699051797 -0.1415757388 0.5887923837 4290101711
-0.2699619532 -0.1409511864 0.5889162421 4289904332
-0.2700184882 -0.1403262317 0.5890395045 4289641160
-0.2700747848 -0.1397008896 0.5891623497 4289706183
-0.2701308429 -0.1390751600 0.5892846584 4289574597
-0.2701866925 -0.1384490430 0.5894064903 4289377218
-0.2702423036 -0.1378225237 0.5895277858 4289114046
-0.2707053721 -0.1374025643 0.5905380249 4288719288
-0.2707606256 -0.1367743313 0.5906584859 4288456116
-0.2708156407 -0.1361457258 0.5907785296 4288390323
-0.2708704174 -0.1355167329 0.5908979774 4288324530
-0.2709249556 -0.1348873675 0.5910170078 4288061358
-0.2709792554 -0.1342576146 0.5911354423 4287995565
-0.2706251442 -0.1334262341 0.5903629661 4287929772
-0.2706789374 -0.1327966750 0.5904802680 4287863979
-0.2707324624 -0.1321667433 0.5905970335 4287732393
-0.2707857490 -0.1315364391 0.5907133222 4287469221
-0.2708388269 -0.1309057623 0.5908290744 4287271842
-0.2713002264 -0.1304711998 0.5918356776 4287206049
-0.2713529170 -0.1298388392 0.5919505954 4287140258
-0.2714053392 -0.1292061061 0.5920649767 4287206051
-0.2714575529 -0.1285730004 0.5921788216 4287140258
-0.2715095282 -0.1279395372 0.5922921896 4287008672
-0.2715612352 -0.1273057014 0.5924050808 4286812063
-0.2716127336 -0.1266715229 0.5925173759 4286746270
-0.2716639936 -0.1260369718 0.5926291943 4286680475
-0.2717150152 -0.1254020631 0.5927404761 4286614682
-0.2717657983 -0.1247667894 0.5928512216 4286483096
-0.2718163133 -0.1241311729 0.5929614902 4286351510
-0.2718666196 -0.1234951988 0.5930712223 4286285717
-0.2719166875 -0.1228588670 0.5931804180 4286154131
-0.2719664872 -0.1222221926 0.5932890773 4286023058
-0.2720160782 -0.1215851679 0.5933972597 4285957265
-0.2724751532 -0.1211299449 0.5943987370 4285957265
-0.2725243270 -0.1204912588 0.5945059657 4286023058
-0.2725732327 -0.1198522374 0.5946127176 4285956752
-0.2726219296 -0.1192128658 0.5947189331 4285956752
-0.2726703584 -0.1185731590 0.5948245525 4285890959
-0.2731286585 -0.1181104481 0.5958243608 4285825166
-0.2731766999 -0.1174690947 0.5959290862 4285759373
-0.2728142142 -0.1166519895 0.5951383710 4285693580
-0.2728616893 -0.1160109267 0.5952419639 4285627787
-0.2729088962 -0.1153695285 0.5953449607 4285627787
-0.2729558647 -0.1147278026 0.5954474211 4285890189
-0.2730025947 -0.1140857488 0.5955493450 4285758603
-0.2730490863 -0.1134433597 0.5956507325 4285692812
-0.2730953097 -0.1128006428 0.5957515836 4285692812
-0.2731412947 -0.1121576056 0.5958518982 4285692812
-0.2731870413 -0.1115142405 0.5959516764 4285692812
-0.2728216648 -0.1107038334 0.5951545835 4285692812
-0.2728668153 -0.1100607961 0.5952531695 4285758605
-0.2729117572 -0.1094174385 0.5953511596 4285692810
-0.2729564309 -0.1087737605 0.5954486132 4285627017
-0.2730008662 -0.1081297696 0.5955455303 4285561224
-0.2730450332 -0.1074854732 0.5956419110 4285429638
-0.2730889618 -0.1068408564 0.5957377553 4285298052
-0.2731326520 -0.1061959267 0.5958330035 4285232259
-0.2731760740 -0.1055506989 0.5959277749 4285231746
-0.2732192576 -0.1049051583 0.5960219502 4285297539
-0.2732621729 -0.1042593122 0.5961155891 4285363332
-0.2728932500 -0.1034571156 0.5953107476 4285297539
-0.2729355991 -0.1028116420 0.5954031348 4285100160
-0.2729777098 -0.1021658629 0.5954949856 4284902781
-0.2730195522 -0.1015197858 0.5955862999 4284902781
-0.2730611563 -0.1008734182 0.5956770778 4284968574
-0.2731024921 -0.1002267525 0.5957672596 4285100160
-0.2731435895 -0.0995797887 0.5958569050 4285231746
-0.2731844187 -0.0989325419 0.5959460139 4285100673
-0.2732250094 -0.0982849970 0.5960345268 4285298052
-0.2732653320 -0.0976371765 0.5961225033 4285693064
-0.2737176418 -0.0971353501 0.5971091986 4286153615
-0.2737575173 -0.0964859724 0.5971961617 4286482578
-0.2737971544 -0.0958363116 0.5972825885 4286745750
-0.2746613324 -0.0954730809 0.5991678238 4287272094
-0.2747005522 -0.0948209018 0.5992533565 4287864231
-0.2747395337 -0.0941684470 0.5993384123 4287995816
-0.2747782469 -0.0935157165 0.5994228125 4288258988
-0.2752293348 -0.0930021405 0.6004068851 4288522414
-0.2752675712 -0.0923478752 0.6004903316 4288654000
-0.2753055692 -0.0916933417 0.6005731821 4288653998
-0.2753432989 -0.0910385400 0.6006554961 4288851377
-0.2757936418 -0.0905189738 0.6016378999 4289114549
-0.2762438357 -0.0899971798 0.6026200056 4289048756
-0.2766938508 -0.0894731507 0.6036017537 4289245622
-0.2767307162 -0.0888143331 0.6036821604 4289311415
-0.2775934935 -0.0884184018 0.6055642366 4289443001
-0.2776299119 -0.0877570957 0.6056437492 4289508794
-0.2776660919 -0.0870955288 0.6057226062 4289574587
-0.2777020037 -0.0864337087 0.6058009863 4289508794
-0.2777376473 -0.0857716277 0.6058787107 4289377721
-0.2773596644 -0.0849826410 0.6050541997 4289311928
-0.2773947418 -0.0843210369 0.6051306725 4289246135
-0.2774295211 -0.0836591870 0.6052065492 4289311928
-0.2774640620 -0.0829970911 0.6052818894 4289443514
-0.2774983346 -0.0823347420 0.6053566337 4289575100
-0.2775323093 -0.0816721544 0.6054308414 4289575100
-0.2775660455 -0.0810093209 0.6055043936 4289509307
-0.2780132294 -0.0804659873 0.6064798832 4289509307
-0.2780464590 -0.0798016936 0.6065524220 4289509307
-0.2780794501 -0.0791371539 0.6066243649 4289706173
-0.2781121731 -0.0784723759 0.6066957116 4289640380
-0.2781445980 -0.0778073743 0.6067665219 4289508794
-0.2781767845 -0.0771421343 0.6068366766 4289508794
-0.2782086730 -0.0764766634 0.6069062948 4289509309
-0.2782403231 -0.0758109689 0.6069753170 4289575102
-0.2778576016 -0.0750332251 0.6061403751 4289706434
-0.2778886557 -0.0743680671 0.6062081456 4289772227
-0.2783336043 -0.0738125294 0.6071788073 4289640382
-0.2779499292 -0.0730370879 0.6063418388 4289640382
-0.2779801786 -0.0723712742 0.6064078212 4289903039
-0.2775958180 -0.0715983808 0.6055693626 4290100418
-0.2772110999 -0.0708272532 0.6047301292 4291612883
-0.2768260539 -0.0700579062 0.6038900614 4294047224
-0.2623638213 -0.1723768860 0.5737311244 4293389817
-0.2624311149 -0.1717834920 0.5738783479 4293258744
-0.2624982297 -0.1711896360 0.5740250945 4293127158
-0.2625651360 -0.1705953181 0.5741713643 4293126645
-0.2626318336 -0.1700005531 0.5743172765 4293060852
-0.2626983523 -0.1694053411 0.5744627118 4292929268
-0.2627646625 -0.1688096672 0.5746077299 4292863475
-0.2628307641 -0.1682135463 0.5747522712 4292732402
-0.2628966868 -0.1676169783 0.5748963952 4292666609
-0.2629624009 -0.1670199633 0.5750401020 4292535023
-0.2630279064 -0.1664225012 0.5751833320 4292535023
-0.2630932033 -0.1658245921 0.5753261447 4292535023
-0.2631582916 -0.1652262360 0.5754684806 4292403437
-0.2636256814 -0.1648791581 0.5764905810 4292403437
-0.2636904716 -0.1642789990 0.5766322613 4292403437
-0.2637550533 -0.1636784077 0.5767734647 4292403437
-0.2638194263 -0.1630773693 0.5769142509 4292337644
-0.2642864883 -0.1627239436 0.5779356360 4292271597
-0.2643505633 -0.1621211022 0.5780757070 4292337390
-0.2644144297 -0.1615178287 0.5782153606 4292337390
-0.2644780874 -0.1609141231 0.5783545375 4292271597
-0.2649447918 -0.1605543494 0.5793751478 4292337390
-0.2650081217 -0.1599488556 0.5795136690 4292271597
-0.2650712430 -0.1593429148 0.5796516538 4292205804
-0.2651341558 -0.1587365419 0.5797892809 4292205804
-0.2656005025 -0.1583704352 0.5808090568 4292468976
-0.2656630874 -0.1577622741 0.5809459090 4292337390
-0.2657254636 -0.1571536958 0.5810823441 4292337390
-0.2657876313 -0.1565446854 0.5812183022 4292271597
-0.2658495903 -0.1559352577 0.5813537836 4292271597
-0.2659113407 -0.1553253978 0.5814887881 4292271597
-0.2659728527 -0.1547151059 0.5816233158 4292337390
-0.2664384842 -0.1543385983 0.5826415420 4292271597
-0.2664996684 -0.1537265331 0.5827753544 4292337390
-0.2665606439 -0.1531140506 0.5829086900 4292337390
-0.2666214108 -0.1525011510 0.5830415487 4292337390
-0.2666819394 -0.1518878341 0.5831739306 4292337390
-0.2667422593 -0.1512740999 0.5833058357 4292337390
-0.2668023705 -0.1506599486 0.5834372640 4292403183
-0.2668622732 -0.1500453800 0.5835682750 4292403183
-0.2673269808 -0.1496571600 0.5845844746 4292337390
-0.2673865259 -0.1490408331 0.5847147107 4292337390
-0.2674458623 -0.1484240890 0.5848444104 4292403183
-0.2675049603 -0.1478069425 0.5849736929 4292337390
-0.2675638497 -0.1471893936 0.5851024389 4292337390
