VERSION 0.7
FIELDS x y z rgba
SIZE 4 4 4 4
TYPE F F F U
COUNT 1 1 1 1
WIDTH 920
HEIGHT 1
VIEWPOINT 0.0 0.0 0.0 1.0 0.0 0.0 0.0
POINTS 920
DATA ascii
-0.2552794516 -0.1613533497 0.5311482549 4293915644
-0.2561802864 -0.1613305211 0.5330226421 4293981437
-0.2570813596 -0.1613036692 0.5348974466 4293915898
-0.2575645745 -0.1610114127 0.5359027982 4294113277
-0.2576295435 -0.1604564488 0.5360379815 4294047484
-0.2581126690 -0.1601606607 0.5370432138 4294113277
-0.2585957944 -0.1598626375 0.5380484462 4294179070
-0.2590789497 -0.1595623940 0.5390537381 4294310655
-0.2591434717 -0.1590030491 0.5391879678 4294442239
-0.2592078149 -0.1584433019 0.5393218398 4294442239
-0.2596907914 -0.1581381857 0.5403267741 4294442239
-0.2597548366 -0.1575766951 0.5404599905 4294508031
-0.2598186731 -0.1570147872 0.5405928493 4294573566
-0.2598823309 -0.1564524621 0.5407252312 4294573566
-0.2599457800 -0.1558897346 0.5408572555 4294507775
-0.2600090206 -0.1553265899 0.5409888625 4294113017
-0.2596525848 -0.1545134038 0.5402472615 4293521140
-0.2597153485 -0.1539503485 0.5403778553 4293257968
-0.2597779036 -0.1533868909 0.5405080318 4293126130
-0.2598402500 -0.1528230160 0.5406377316 4292994544
-0.2594825327 -0.1520127654 0.5398934484 4293719037
-0.2591243982 -0.1512039304 0.5391483307 4294179583
-0.2591859698 -0.1506406814 0.5392763615 4293126900
-0.2592473030 -0.1500770152 0.5394040346 4292403177
-0.2593084574 -0.1495129615 0.5395312905 4292797933
-0.2589490414 -0.1487070918 0.5387834311 4293192691
-0.2590096891 -0.1481431574 0.5389096141 4293719546
-0.2590701282 -0.1475788206 0.5390353799 4294048511
-0.2591303885 -0.1470140964 0.5391607285 4294311423
-0.2587696612 -0.1462112367 0.5384101868 4294179837
-0.2592502534 -0.1458834559 0.5394101739 4292996350
-0.2597308457 -0.1455534548 0.5404101014 4287535531
-0.2602114379 -0.1452212334 0.5414100289 4281163435
-0.2606920004 -0.1448867768 0.5424098969 4280702884
-0.2607513070 -0.1443169415 0.5425332785 4280244130
-0.2612317204 -0.1439789385 0.5435329080 4279849372
-0.2612907290 -0.1434074193 0.5436556339 4281425834
-0.2617710233 -0.1430658698 0.5446550250 4280702111
-0.2622513175 -0.1427221000 0.5456543565 4280769195
-0.2627315819 -0.1423761100 0.5466536283 4281887676
-0.2627900243 -0.1418002695 0.5467751622 4280436639
-0.2628482282 -0.1412240416 0.5468963385 4281489327
-0.2629062533 -0.1406474262 0.5470169783 4281557682
-0.2633861303 -0.1402952671 0.5480154753 4280702373
-0.2642881870 -0.1401647925 0.5498923659 4281489317
-0.2644032538 -0.1390033513 0.5501317978 4282410162
-0.2653053999 -0.1388643086 0.5520088077 4282278576
-0.2653625906 -0.1382807791 0.5521278381 4281160093
-0.2658421993 -0.1379161477 0.5531257391 4282212781
-0.2663217783 -0.1375492811 0.5541235209 4282145957
-0.2668013275 -0.1371801645 0.5551213026 4282738094
-0.2668578923 -0.1365923584 0.5552390218 4282605219
-0.2673372626 -0.1362196952 0.5562364459 4285236939
-0.2673934996 -0.1356302053 0.5563534498 4287144160
-0.2678726912 -0.1352540106 0.5573505163 4287670504
-0.2679286003 -0.1346628517 0.5574667454 4288525041
-0.2679842412 -0.1340713054 0.5575825572 4288393455
-0.2684631348 -0.1336902678 0.5585789680 4287867111
-0.2689419687 -0.1333069950 0.5595752597 4288459248
-0.2689971328 -0.1327124834 0.5596900582 4288263419
-0.2690520883 -0.1321175992 0.5598043799 4288131833
-0.2695305943 -0.1317294836 0.5607999563 4286553574
-0.2700090408 -0.1313391328 0.5617954731 4283921854
-0.2700634897 -0.1307412982 0.5619087219 4281949093
-0.2705417275 -0.1303474009 0.5629038215 4280830612
-0.2710199356 -0.1299512684 0.5638988018 4281225370
-0.2714980841 -0.1295528859 0.5648936629 4282212265
-0.2715518773 -0.1289507896 0.5650055408 4281817507
-0.2724541724 -0.1287494302 0.5668829679 4281422749
-0.2729321420 -0.1283443272 0.5678774118 4280501645
-0.2734100223 -0.1279370040 0.5688717365 4281093782
-0.2738878429 -0.1275274307 0.5698659420 4280369801
-0.2743656039 -0.1271156073 0.5708599687 4280501387
-0.2748433053 -0.1267015636 0.5718538761 4280237697
-0.2753209174 -0.1262852699 0.5728476644 4279448181
-0.2757984698 -0.1258667260 0.5738412738 4279579266
-0.2767009735 -0.1256389469 0.5757190585 4279908231
-0.2771784365 -0.1252149791 0.5767124891 4280368778
-0.2776558399 -0.1247887611 0.5777058005 4280566157
-0.2785584331 -0.1245504618 0.5795838237 4280894862
-0.2790357471 -0.1241188198 0.5805769563 4281684378
-0.2799384296 -0.1238731965 0.5824550986 4282210976
-0.2804156542 -0.1234361157 0.5834479928 4282145183
-0.2813183963 -0.1231831536 0.5853263140 4282144666
-0.2817955017 -0.1227406338 0.5863190293 4282276252
-0.2826983035 -0.1224803329 0.5881974697 4282473114
-0.2831753492 -0.1220323741 0.5891900063 4282538907
-0.2840781808 -0.1217647269 0.5910684466 4282670232
-0.2845551074 -0.1213113219 0.5920608044 4282670232
-0.2850319147 -0.1208556816 0.5930528641 4282802072
-0.2859347761 -0.1205774844 0.5949314237 4283262623
-0.2864114642 -0.1201163903 0.5959232450 4283393167
-0.2873143554 -0.1198308468 0.5978018045 4283787925
-0.2877909243 -0.1193643063 0.5987933874 4284116375
-0.2886938155 -0.1190714017 0.6006720066 4284445340
-0.2895967662 -0.1187743396 0.6025507450 4285037216
-0.2904997170 -0.1184731200 0.6044294834 4285234595
-0.2909760773 -0.1179947257 0.6054206491 4285234593
-0.2914523482 -0.1175140887 0.6064115763 4285037214
-0.2919284701 -0.1170312017 0.6074022055 4284181388
-0.2924045026 -0.1165460646 0.6083926558 4283852423
-0.2928803861 -0.1160586774 0.6093828678 4283325561
-0.2933561802 -0.1155690476 0.6103727818 4283457147
-0.2938318551 -0.1150771677 0.6113625169 4284509318
-0.2943073809 -0.1145830452 0.6123519540 4285233041
-0.2947828174 -0.1140866801 0.6133410931 4285957278
-0.2952581048 -0.1135880649 0.6143300533 4286878380
-0.2953059077 -0.1129237786 0.6144295335 4287602355
-0.2957808971 -0.1124216318 0.6154177785 4288720836
-0.2958282232 -0.1117557511 0.6155163050 4289839317
-0.2963028848 -0.1112500802 0.6165038943 4290563040
-0.2963497639 -0.1105825901 0.6166014075 4291220452
-0.2963963747 -0.1099147871 0.6166983843 4291549417
-0.2968704998 -0.1094043180 0.6176849008 4291943145
-0.2969166338 -0.1087349206 0.6177808642 4292074731
-0.2969625294 -0.1080652177 0.6178763509 4292863986
-0.2970081270 -0.1073952094 0.6179712415 4293324537
-0.2810663283 -0.1995554715 0.5861564279 4293324275
-0.2807317674 -0.1986674517 0.5854586959 4291613657
-0.2799832523 -0.1974889785 0.5838976502 4291087313
-0.2763382792 -0.1942776740 0.5762962103 4291284694
-0.2747600377 -0.1925314516 0.5730048418 4291087315
-0.2706972361 -0.1890573055 0.5645319819 4291284694
-0.2641477883 -0.1838710606 0.5508732796 4291087315
-0.2588369250 -0.1795744598 0.5397976041 4291086799
-0.2580797076 -0.1784511060 0.5382184386 4291152592
-0.2573218346 -0.1773308367 0.5366379023 4291152338
-0.2573922873 -0.1767829806 0.5367848277 4291086545
-0.2570479810 -0.1759508997 0.5360668302 4291020752
-0.2571179867 -0.1754030287 0.5362127423 4291086545
-0.2571877837 -0.1748547256 0.5363583565 4291021522
-0.2568424642 -0.1740248203 0.5356382132 4291087315
-0.2569118142 -0.1734765023 0.5357828140 4291153108
-0.2569809556 -0.1729277521 0.5359269977 4291218901
-0.2566346526 -0.1721000671 0.5352048278 4291349971
-0.2562879622 -0.1712737232 0.5344818234 4291415764
-0.2559408545 -0.1704487056 0.5337579250 4291481557
-0.2560089529 -0.1699008495 0.5338999033 4291547350
-0.2556611300 -0.1690776348 0.5331745744 4291547350
-0.2548971176 -0.1679817438 0.5315812230 4291481557
-0.2545484006 -0.1671621054 0.5308539867 4291547350
-0.2550313473 -0.1668883264 0.5318611860 4291678936
-0.2542659044 -0.1657982618 0.5302648544 4292204765
-0.2543323338 -0.1652522683 0.5304033756 4293191660
-0.2535658479 -0.1641667187 0.5288048983 4294375934
-0.2536317110 -0.1636216640 0.5289422274 4294770687
-0.2536973655 -0.1630761772 0.5290791988 4294244863
-0.2537628710 -0.1625302732 0.5292157531 4294113277
-0.2538281679 -0.1619839370 0.5293519497 4293981691
-0.2543101609 -0.1617022753 0.5303571820 4294047484
-0.2539581954 -0.1608900279 0.5296230912 4293981691
-0.2552742660 -0.1611323059 0.5323677659 4293915898
-0.2557563484 -0.1608439833 0.5333731174 4294047482
-0.2562384605 -0.1605534554 0.5343785286 4294244861
-0.2563031614 -0.1600001007 0.5345134735 4294244861
-0.2576202750 -0.1602253914 0.5372602940 4294310654
-0.2581025362 -0.1599272788 0.5382660627 4294376447
-0.2581670880 -0.1593690813 0.5384006500 4294376447
-0.2586492896 -0.1590674222 0.5394062400 4294508031
-0.2587135434 -0.1585074663 0.5395402312 4294442239
-0.2587775886 -0.1579471081 0.5396738648 4294442239
-0.2592596114 -0.1576405764 0.5406790972 4294442239
-0.2593233883 -0.1570784748 0.5408120751 4294442493
-0.2593869567 -0.1565159559 0.5409446955 4294508286
-0.2594503462 -0.1559530199 0.5410768390 4294442239
-0.2595135272 -0.1553896815 0.5412086248 4294113275
-0.2591578364 -0.1545761973 0.5404668450 4293652472
-0.2592205107 -0.1540129483 0.5405975580 4293323507
-0.2592830062 -0.1534492821 0.5407278538 4293126130
-0.2593452930 -0.1528852135 0.5408577919 4292994544
-0.2589882910 -0.1520746648 0.5401132703 4293324024
-0.2590501010 -0.1515107006 0.5402421355 4293981951
-0.2591116726 -0.1509463191 0.5403705835 4293389817
-0.2583343089 -0.1498948783 0.5387493968 4292534508
-0.2583952844 -0.1493315399 0.5388765931 4292666349
-0.2585770488 -0.1476391107 0.5392556190 4293784828
-0.2586372197 -0.1470741779 0.5393810868 4294442751
-0.2587569654 -0.1459431350 0.5396308303 4293653759
-0.2588165402 -0.1453770250 0.5397550464 4288916669
-0.2592961490 -0.1450456083 0.5407552719 4280701595
-0.2601960897 -0.1449461281 0.5426321030 4282017455
-0.2602553368 -0.1443760842 0.5427556634 4280045724
-0.2607349157 -0.1440379769 0.5437557697 4280308896
-0.2612144649 -0.1436976343 0.5447558761 4281096355
-0.2612732947 -0.1431245953 0.5448785424 4281030562
-0.2617526948 -0.1427807063 0.5458783507 4280834218
-0.2622320950 -0.1424345970 0.5468781590 4280636839
-0.2627114952 -0.1420862377 0.5478779078 4281093797
-0.2627697289 -0.1415088773 0.5479993820 4281291176
-0.2628277838 -0.1409311295 0.5481203794 4280438172
-0.2628856003 -0.1403530091 0.5482410192 4281425067
-0.2633646131 -0.1399984956 0.5492399335 4281884588
-0.2638435662 -0.1396417469 0.5502387881 4280897693
-0.2643225193 -0.1392827630 0.5512376428 4281291938
-0.2639580965 -0.1384791285 0.5504776835 4281555110
-0.2648585439 -0.1383378059 0.5523555279 4281160093
-0.2653372884 -0.1379730552 0.5533539057 4282739125
-0.2658160031 -0.1376060545 0.5543522835 4282343849
-0.2662946582 -0.1372368187 0.5553505421 4283396537
-0.2663511932 -0.1366487741 0.5554683805 4281355924
-0.2664075196 -0.1360603720 0.5555858612 4283000749
-0.2668858767 -0.1356862783 0.5565834641 4283526319
-0.2669418454 -0.1350961924 0.5567001700 4284052663
-0.2674200237 -0.1347185671 0.5576974154 4285039043
-0.2674756348 -0.1341268122 0.5578134060 4284578492
-0.2679536641 -0.1337456405 0.5588102937 4283657388
-0.2684316337 -0.1333622187 0.5598070621 4283920560
-0.2684867382 -0.1327674836 0.5599220395 4283657655
-0.2685416341 -0.1321723908 0.5600364804 4283723448
-0.2690192759 -0.1317841262 0.5610325933 4282210469
-0.2694968581 -0.1313936412 0.5620285869 4281420953
-0.2699744105 -0.1310009062 0.5630245209 4281093273
-0.2708751261 -0.1308103204 0.5649029613 4280632722
-0.2713526487 -0.1304121614 0.5658987761 4280698772
-0.2718300819 -0.1300117671 0.5668944716 4280435600
-0.2718839645 -0.1294075549 0.5670068860 4280501393
-0.2723612189 -0.1290036142 0.5680021644 4280304014
-0.2728383839 -0.1285974234 0.5689972639 4280040585
-0.2733155191 -0.1281889975 0.5699923038 4280435343
-0.2737925649 -0.1277783364 0.5709871650 4279908481
-0.2742695212 -0.1273654252 0.5719819069 4280171653
-0.2747464478 -0.1269502789 0.5729764700 4280171139
-0.2752232850 -0.1265328825 0.5739709139 4280302725
-0.2757000327 -0.1261132509 0.5749651790 4280039554
-0.2766009569 -0.1258844435 0.5768440366 4280697484
-0.2770776451 -0.1254593730 0.5778381228 4281355667
-0.2779786587 -0.1252232343 0.5797171593 4281618839
-0.2784552872 -0.1247927248 0.5807111263 4281749908
-0.2789318264 -0.1243599728 0.5817049146 4281947287
-0.2798328996 -0.1241133139 0.5835841298 4282407323
-0.2807340622 -0.1238625124 0.5854634643 4282538909
-0.2812104821 -0.1234211251 0.5864570737 4282801820
-0.2821117043 -0.1231629774 0.5883365273 4282999199
-0.2830129862 -0.1229006797 0.5902161002 4283196059
-0.2834893167 -0.1224506497 0.5912094712 4283196059
-0.2843906283 -0.1221810058 0.5930891633 4283524765
-0.2848668396 -0.1217255294 0.5940822959 4283722144
-0.2853429615 -0.1212678030 0.5950751901 4283985314
-0.2862443030 -0.1209876016 0.5969549417 4284182693
-0.2867202759 -0.1205244288 0.5979475975 4284708510
-0.2871961892 -0.1200590059 0.5989400744 4284905889
-0.2885230482 -0.1199451536 0.6017072201 4285037216
-0.2889989018 -0.1194733232 0.6026995778 4285037216
-0.2894746065 -0.1189992428 0.6036916971 4285102493
-0.2899502218 -0.1185229123 0.6046835184 4284576149
-0.2904257178 -0.1180443391 0.6056751609 4283852424
-0.2909011245 -0.1175635085 0.6066666245 4283260287
-0.2913763821 -0.1170804352 0.6076577902 4282996855
-0.2918515503 -0.1165951118 0.6086487174 4283588992
-0.2923265994 -0.1161075383 0.6096394062 4284312454
-0.2928015292 -0.1156177223 0.6106298566 4285299349
-0.2932763100 -0.1151256487 0.6116200686 4286746278
-0.2933246791 -0.1144649610 0.6117208600 4287601587
-0.2937991619 -0.1139693633 0.6127104163 4288588482
-0.2938470542 -0.1133070588 0.6128102541 4289509584
-0.2943212092 -0.1128079295 0.6137991548 4290430936
-0.2943686545 -0.1121440157 0.6138980389 4290957280
-0.2948424816 -0.1116413549 0.6148862839 4291352038
-0.2948894501 -0.1109758466 0.6149842143 4291549417
-0.2949361503 -0.1103100255 0.6150816083 4291943915
-0.2954094708 -0.1098025590 0.6160687208 4292404466
-0.2954557240 -0.1091351360 0.6161651015 4292995572
-0.2955016792 -0.1084674075 0.6162609458 4293258744
-0.2792885900 -0.1987536550 0.5838012099 4292534759
-0.2785417438 -0.1975752562 0.5822401047 4291416278
-0.2773814797 -0.1961080432 0.5798147321 4291218899
-0.2758074403 -0.1943546385 0.5765245557 4291284694
-0.2667982876 -0.1873864830 0.5576925278 4291021522
-0.2615019381 -0.1830592304 0.5466215014 4291284694
-0.2590950131 -0.1807725728 0.5415902734 4291021522
-0.2570998967 -0.1787834615 0.5374198556 4291020752
-0.2579976618 -0.1788085550 0.5392965078 4291020752
-0.2568278611 -0.1774013191 0.5368512273 4291020752
-0.2564845383 -0.1765685081 0.5361335874 4290954959
-0.2565546334 -0.1760209054 0.5362800956 4290954959
-0.2566245496 -0.1754728705 0.5364262462 4291020752
-0.2566942871 -0.1749243736 0.5365719795 4290889936
-0.2563496828 -0.1740941852 0.5358517170 4290955729
-0.2564189434 -0.1735456884 0.5359964967 4291087315
-0.2564880252 -0.1729967445 0.5361408591 4291153108
-0.2561424375 -0.1721687764 0.5354185104 4291284178
-0.2562110424 -0.1716198325 0.5355618596 4291349971
-0.2554500699 -0.1705168337 0.5339712501 4291415764
-0.2555180788 -0.1699687839 0.5341134071 4291481557
-0.2551710010 -0.1691452861 0.5333878994 4291481557
-0.2548235059 -0.1683231145 0.5326614976 4291547350
-0.2540605068 -0.1672290564 0.5310665965 4291678936
-0.2545425892 -0.1669552028 0.5320742726 4291744729
-0.2541939914 -0.1661362052 0.5313456059 4291941595
-0.2538450062 -0.1653185636 0.5306161642 4292467939
-0.2534956336 -0.1645022780 0.5298858285 4293520625
-0.2531458437 -0.1636873633 0.5291546583 4294704895
-0.2532114387 -0.1631416976 0.5292917490 4294376447
-0.2532768548 -0.1625955999 0.5294284821 4294113275
-0.2533420622 -0.1620490849 0.5295647979 4293981689
-0.2538231909 -0.1617673486 0.5305705667 4294179068
-0.2543043792 -0.1614833772 0.5315763354 4294179068
-0.2547855675 -0.1611972004 0.5325821638 4294047482
-0.2552667856 -0.1609088033 0.5335880518 4294310653
-0.2549149692 -0.1600949913 0.5328526497 4294376446
-0.2562292814 -0.1603253335 0.5356000066 4294442239
-0.2571272850 -0.1602900624 0.5374771357 4294508031
-0.2567749918 -0.1594740897 0.5367407203 4294508031
-0.2576731443 -0.1594334543 0.5386181474 4294508031
-0.2569033206 -0.1583604813 0.5370090008 4294508031
-0.2578015029 -0.1583153903 0.5388864875 4294508031
-0.2582826614 -0.1580110043 0.5398921967 4294442239
-0.2587638199 -0.1577043831 0.5408979654 4294442239
-0.2588275075 -0.1571420878 0.5410311222 4294508031
-0.2584734559 -0.1563268304 0.5402910113 4294442239
-0.2589543164 -0.1560162455 0.5412961841 4294310654
-0.2590174377 -0.1554526985 0.5414281487 4294047482
-0.2590803504 -0.1548887491 0.5415596366 4293652472
-0.2591430545 -0.1543243825 0.5416907668 4293389300
-0.2592055798 -0.1537596136 0.5418214202 4293191924
-0.2588497400 -0.1529473364 0.5410775542 4293060338
-0.2584934831 -0.1521364897 0.5403328538 4293060854
-0.2585551739 -0.1515723169 0.5404618979 4293587198
-0.2586167157 -0.1510077566 0.5405904651 4293652989
-0.2582594454 -0.1501993388 0.5398436785 4292534508
-0.2587391436 -0.1498773992 0.5408464074 4292468715
-0.2579624951 -0.1488284171 0.5392230153 4292666094
-0.2580230236 -0.1482640803 0.5393494964 4293061107
-0.2580833435 -0.1476993412 0.5394755602 4293521658
-0.2577243745 -0.1468953490 0.5387252569 4294245375
-0.2582033575 -0.1465686709 0.5397264361 4293982207
-0.2582630515 -0.1460027546 0.5398512483 4293982463
-0.2583225667 -0.1454364359 0.5399756432 4290363854
-0.2588013113 -0.1451049149 0.5409764051 4282015902
-0.2592800558 -0.1447711587 0.5419771075 4281423765
-0.2597587705 -0.1444351673 0.5429777503 4280373146
-0.2602374852 -0.1440969557 0.5439783931 4280570525
-0.2607161701 -0.1437564939 0.5449790359 4280635291
-0.2611948550 -0.1434138119 0.5459796190 4280569498
-0.2612534761 -0.1428392380 0.5461021662 4281293481
-0.2617320120 -0.1424930096 0.5471024513 4280306586
-0.2622105181 -0.1421445459 0.5481026769 4281356706
-0.2622687221 -0.1415669769 0.5482243299 4281619878
-0.2623266876 -0.1409890056 0.5483455062 4281160867
-0.2628049552 -0.1406356841 0.5493451953 4281358246
-0.2628625929 -0.1400560439 0.5494657159 4281095842
-0.2633406818 -0.1396991760 0.5504651070 4281490600
-0.2642395198 -0.1395623088 0.5523439646 4281226656
-0.2638759613 -0.1387574226 0.5515839458 4282213551
-0.2647747993 -0.1386151463 0.5534628630 4281291677
-0.2648317516 -0.1380298883 0.5535818934 4282212779
-0.2653096020 -0.1376627684 0.5545807481 4282936756
-0.2657873929 -0.1372933984 0.5555794835 4283265721
-0.2658438683 -0.1367051452 0.5556975007 4280370058
-0.2659001052 -0.1361165196 0.5558151007 4282935985
-0.2663776278 -0.1357422918 0.5568132401 4282803370
-0.2664335072 -0.1351519972 0.5569300652 4283790265
-0.2669108510 -0.1347742230 0.5579278469 4284053178
-0.2669664025 -0.1341822445 0.5580439568 4283987385
-0.2674435377 -0.1338009387 0.5590413809 4283329453
-0.2674987316 -0.1332072914 0.5591567159 4283329453
-0.2679757178 -0.1328224391 0.5601537228 4283328176
-0.2680305243 -0.1322271079 0.5602683425 4283262383
-0.2685073316 -0.1318387091 0.5612649918 4281750172
-0.2689840496 -0.1314480752 0.5622614622 4281158035
-0.2698830664 -0.1312606186 0.5641407371 4280960917
-0.2703597844 -0.1308645606 0.5651372075 4280763538
-0.2708364129 -0.1304662675 0.5661335588 4280369550
-0.2713130116 -0.1300657243 0.5671297312 4279908999
-0.2717895210 -0.1296629310 0.5681258440 4280172171
-0.2722660005 -0.1292579025 0.5691217780 4279645827
-0.2727423906 -0.1288506389 0.5701175928 4279776641
-0.2732187212 -0.1284411103 0.5711132884 4279908227
-0.2732719779 -0.1278314739 0.5712246299 4280105347
-0.2741711736 -0.1276153475 0.5731042624 4280697484
-0.2746473253 -0.1271990985 0.5740994811 4280631431
-0.2751233578 -0.1267806143 0.5750945807 4281223568
-0.2755993605 -0.1263598800 0.5760895610 4281617808
-0.2764986753 -0.1261300445 0.5779694319 4281880980
-0.2773981094 -0.1258960813 0.5798495412 4282144151
-0.2778740227 -0.1254667044 0.5808443427 4282473116
-0.2787735164 -0.1252254099 0.5827245712 4282736029
-0.2792493403 -0.1247905940 0.5837191939 4282736029
-0.2801489234 -0.1245419532 0.5855996013 4282932888
-0.2806246579 -0.1241016984 0.5865940452 4283130267
-0.2815243006 -0.1238457114 0.5884745717 4283327386
-0.2824240029 -0.1235855743 0.5903552175 4283787937
-0.2833237648 -0.1233212799 0.5922360420 4284379298
-0.2842235863 -0.1230528429 0.5941169262 4284379298
-0.2846992016 -0.1225975379 0.5951110721 4284510880
-0.2851746976 -0.1221399829 0.5961050391 4284839845
-0.2856501043 -0.1216801777 0.5970987678 4285234346
-0.2865499258 -0.1213979721 0.5989797115 4285365932
-0.2870251834 -0.1209327132 0.5999732018 4284970907
-0.2875003815 -0.1204652041 0.6009664536 4284641942
-0.2884001732 -0.1201724261 0.6028473377 4284181389
-0.2888752222 -0.1196994558 0.6038403511 4283655045
-0.2893501520 -0.1192242429 0.6048330665 4283457408
-0.2898249924 -0.1187467724 0.6058256030 4283588994
-0.2898746729 -0.1180938929 0.6059294343 4283917957
-0.2903491855 -0.1176128834 0.6069213748 4284444301
-0.2908236086 -0.1171296239 0.6079130769 4284904591
-0.2912979126 -0.1166441143 0.6089044809 4285891486
-0.2917720973 -0.1161563471 0.6098957062 4287141036
-0.2918207645 -0.1154979765 0.6099974513 4288259517
-0.2922946513 -0.1150066778 0.6109879613 4289246410
-0.2923428714 -0.1143466830 0.6110887527 4289838547
-0.2928164303 -0.1138518527 0.6120786667 4290628063
-0.2928641737 -0.1131902486 0.6121785045 4291351786
-0.2933374345 -0.1126918867 0.6131677628 4291680743
-0.2933847308 -0.1120286733 0.6132666469 4291878122
-0.2934317887 -0.1113651469 0.6133649945 4292206571
-0.2934785783 -0.1107013002 0.6134627461 4292403950
-0.2939510942 -0.1101968437 0.6144505143 4292798193
-0.2935713232 -0.1093726605 0.6136566401 4293390330
-0.2779267132 -0.1982447505 0.5823063850 4291876829
-0.2771811485 -0.1970676780 0.5807443261 4291482071
-0.2760229409 -0.1956016868 0.5783176422 4291350485
-0.2719792426 -0.1921029985 0.5698453784 4291218901
-0.2712306678 -0.1909428835 0.5682770014 4291087315
-0.2647089958 -0.1857354939 0.5546129346 4291284694
-0.2606580853 -0.1822863370 0.5461254716 4290955729
-0.2582548857 -0.1800045222 0.5410903692 4290889166
-0.2566754520 -0.1783061475 0.5377811790 4290954959
-0.2559204996 -0.1771859378 0.5361994505 4290954959
-0.2564035952 -0.1769235134 0.5372115970 4290889166
-0.2560607195 -0.1760908365 0.5364931822 4290889166
-0.2561305463 -0.1755426228 0.5366395116 4291020752
-0.2562001944 -0.1749939471 0.5367854238 4290955729
-0.2562696636 -0.1744448245 0.5369309783 4290955729
-0.2559255064 -0.1736147851 0.5362098813 4291021522
-0.2559944987 -0.1730656624 0.5363544226 4291021522
-0.2556496263 -0.1722373962 0.5356318951 4291087315
-0.2557181418 -0.1716882735 0.5357754827 4291153108
-0.2549587190 -0.1705848724 0.5341842771 4291349971
-0.2550266385 -0.1700366437 0.5343266129 4291349971
-0.2546802759 -0.1692128479 0.5336009264 4291349971
-0.2543335259 -0.1683903933 0.5328744054 4291481557
-0.2544006705 -0.1678426415 0.5330151320 4291678936
-0.2540532351 -0.1670219898 0.5322871208 4291744729
-0.2537053525 -0.1662027091 0.5315583348 4292007901
-0.2537717521 -0.1656554490 0.5316974521 4292139487
-0.2530084550 -0.1645682007 0.5300981402 4292665316
-0.2530742586 -0.1640218645 0.5302360058 4293783797
-0.2527248859 -0.1632071286 0.5295040607 4294376446
-0.2527902424 -0.1626608521 0.5296409726 4294376446
-0.2528553903 -0.1621141583 0.5297774673 4294113274
-0.2529203594 -0.1615670323 0.5299135447 4294310653
-0.2534005344 -0.1612838954 0.5309196711 4294442239
-0.2530497313 -0.1604715288 0.5301846266 4294310653
-0.2547765970 -0.1609735489 0.5338027477 4294508031
-0.2544255257 -0.1601594388 0.5330671668 4294442239
-0.2544898689 -0.1596075147 0.5332019925 4294442239
-0.2558018267 -0.1598348618 0.5359507799 4294442239
-0.2562821507 -0.1595383883 0.5369571447 4294508031
-0.2567624748 -0.1592396796 0.5379635096 4294508031
-0.2572428286 -0.1589387506 0.5389699340 4294508031
-0.2573068440 -0.1583793163 0.5391040444 4294508031
-0.2577871084 -0.1580748409 0.5401102901 4294507773
-0.2582674026 -0.1577681303 0.5411165953 4294507773
-0.2579143643 -0.1569520831 0.5403769016 4294508031
-0.2583944499 -0.1566427201 0.5413828492 4294376446
-0.2584576905 -0.1560793966 0.5415152907 4294179068
-0.2585207522 -0.1555156559 0.5416473746 4293915896
-0.2590006590 -0.1552014202 0.5426529050 4293652472
-0.2586462200 -0.1543869376 0.5419103503 4293389300
-0.2591259480 -0.1540700644 0.5429154038 4293060852
-0.2587709129 -0.1532565951 0.5421715975 4292863473
-0.2584154904 -0.1524445266 0.5414268970 4292797682
-0.2584772408 -0.1518792510 0.5415562987 4293192440
-0.2585388124 -0.1513135582 0.5416852236 4293652991
-0.2581823766 -0.1505039334 0.5409384370 4292600303
-0.2586612999 -0.1501809806 0.5419418812 4292402922
-0.2574683428 -0.1488889754 0.5394424200 4292534508
-0.2575287819 -0.1483244300 0.5395690799 4292863473
-0.2575890422 -0.1477594972 0.5396953225 4293192438
-0.2576490939 -0.1471941620 0.5398210883 4293916671
-0.2577089369 -0.1466284245 0.5399464965 4294048255
-0.2577685714 -0.1460622996 0.5400714278 4293850621
-0.2578279972 -0.1454957873 0.5401960015 4291679452
-0.2583058774 -0.1451641470 0.5411972404 4284053930
-0.2587837577 -0.1448302865 0.5421984196 4280106350
-0.2592616081 -0.1444941908 0.5431996584 4280437910
-0.2597394586 -0.1441558599 0.5442007780 4280701082
-0.2602172792 -0.1438152939 0.5452018976 4281095070
-0.2606950700 -0.1434724927 0.5462030172 4281292449
-0.2611728609 -0.1431274563 0.5472040772 4281358244
-0.2612313032 -0.1425513625 0.5473265052 4280371349
-0.2621283531 -0.1424306780 0.5492060184 4281948580
-0.2621865869 -0.1418519616 0.5493279696 4282343338
-0.2622445822 -0.1412728727 0.5494495034 4282344367
-0.2623023689 -0.1406933814 0.5495706201 4282278574
-0.2627797425 -0.1403377056 0.5505707264 4281029279
-0.2628372014 -0.1397565454 0.5506911278 4281884588
-0.2633143961 -0.1393973082 0.5516909361 4280173711
-0.2637915611 -0.1390358508 0.5526907444 4282147501
-0.2642686963 -0.1386721432 0.5536904335 4281752228
-0.2647458017 -0.1383062005 0.5546900630 4281752228
-0.2648025751 -0.1377194077 0.5548089743 4282607791
-0.2652795017 -0.1373499185 0.5558082461 4282805170
-0.2653359175 -0.1367614418 0.5559263825 4280699794
-0.2658126950 -0.1363884062 0.5569253564 4282607791
-0.2658687532 -0.1357982606 0.5570427775 4281225368
-0.2663453519 -0.1354216635 0.5580413342 4283264951
-0.2664010525 -0.1348298341 0.5581580400 4283067314
-0.2664565146 -0.1342376322 0.5582742691 4283330486
-0.2669328153 -0.1338561922 0.5592722297 4282408612
-0.2674090564 -0.1334725022 0.5602700114 4282145440
-0.2678852379 -0.1330865771 0.5612677336 4283460530
-0.2679401040 -0.1324900985 0.5613826513 4283197358
-0.2684161067 -0.1321006268 0.5623799562 4282144929
-0.2688920498 -0.1317089051 0.5633771420 4280894862
-0.2693679631 -0.1313149482 0.5643742681 4279974788
-0.2698437870 -0.1309187561 0.5653712153 4280237960
-0.2703195810 -0.1305203140 0.5663680434 4279908995
-0.2707952857 -0.1301196218 0.5673647523 4280237960
-0.2712709606 -0.1297166944 0.5683614016 4279974788
-0.2717465460 -0.1293115169 0.5693578124 4279843202
-0.2722220719 -0.1289040893 0.5703541636 4280105859
-0.2726975381 -0.1284944266 0.5713503361 4280303238
-0.2731729448 -0.1280825138 0.5723463893 4281092495
-0.2740705907 -0.1278653741 0.5742270947 4281618839
-0.2745459080 -0.1274480373 0.5752230287 4281749394
-0.2754436433 -0.1272235662 0.5771039128 4282209945
-0.2759189308 -0.1268007904 0.5780997276 4282341269
-0.2768167555 -0.1265689880 0.5799808502 4282538648
-0.2772919536 -0.1261407584 0.5809764862 4282867097
-0.2781898677 -0.1259016246 0.5828577876 4283064476
-0.2786650062 -0.1254679561 0.5838532448 4283392926
-0.2795629799 -0.1252214760 0.5857346654 4283524512
-0.2804610431 -0.1249708459 0.5876162648 4283721885
-0.2813591659 -0.1247160733 0.5894980431 4283919264
-0.2822573781 -0.1244571432 0.5913798809 4284445089
-0.2827323973 -0.1240084246 0.5923751593 4284576675
-0.2832072973 -0.1235574484 0.5933701992 4284773792
-0.2841055393 -0.1232879609 0.5952521563 4285102757
-0.2845803499 -0.1228315309 0.5962469578 4285760169
-0.2854786217 -0.1225546822 0.5981289744 4285825962
-0.2859533131 -0.1220927984 0.5991235971 4285233568
-0.2864279151 -0.1216286644 0.6001179218 4284575638
-0.2873261869 -0.1213412359 0.6019999981 4283325822
-0.2878006399 -0.1208716407 0.6029940844 4283128443
-0.2878510654 -0.1202227324 0.6030997038 4283194234
-0.2883252501 -0.1197495833 0.6040931940 4283457406
-0.2887993157 -0.1192741841 0.6050864458 4284181127
-0.2892732918 -0.1187965348 0.6060795188 4285036436
-0.2897471189 -0.1183166280 0.6070722938 4285891486
-0.2897965610 -0.1176622063 0.6071758866 4286812588
-0.2898457646 -0.1170074418 0.6072789431 4287338415
-0.2903191149 -0.1165226996 0.6082707047 4288391103
-0.2907923758 -0.1160357147 0.6092622876 4289443789
-0.2908409238 -0.1153780371 0.6093639731 4290430684
-0.2913138568 -0.1148875132 0.6103549004 4291219939
-0.2913619578 -0.1142282188 0.6104556918 4291548904
-0.2914097905 -0.1135686040 0.6105558872 4291877869
-0.2914573848 -0.1129086614 0.6106555462 4292206834
-0.2919296324 -0.1124120280 0.6116450429 4292469483
-0.2919767499 -0.1117504835 0.6117437482 4292798448
-0.2920235991 -0.1110886112 0.6118419170 4293193204
-0.2924953401 -0.1105871648 0.6128302813 4293522169
-0.2764894068 -0.1983246505 0.5806461573 4293390068
-0.2761564553 -0.1974414736 0.5799469352 4291284692
-0.2758231163 -0.1965595484 0.5792468786 4291416278
-0.2730222642 -0.1939265430 0.5733649135 4291284692
-0.2681631446 -0.1898494214 0.5631604791 4291087313
-0.2620668709 -0.1849220097 0.5503578782 4291153106
-0.2592591643 -0.1823358685 0.5444614887 4291218899
-0.2576845586 -0.1806271970 0.5411547422 4290889934
-0.2565206289 -0.1792127937 0.5387104154 4290823373
-0.2561795712 -0.1783767641 0.5379942060 4290889166
-0.2558381259 -0.1775420457 0.5372771025 4290954959
-0.2554962635 -0.1767086536 0.5365591645 4290889166
-0.2555661798 -0.1761606932 0.5367060304 4290889166
-0.2556359470 -0.1756123006 0.5368524790 4291020752
-0.2557055056 -0.1750634462 0.5369985700 4290955729
-0.2557748854 -0.1745141447 0.5371443033 4290889936
-0.2554314435 -0.1736838073 0.5364230871 4290955729
-0.2555003762 -0.1731345057 0.5365678072 4290955729
-0.2551562190 -0.1723059416 0.5358451009 4291087315
-0.2552246749 -0.1717566401 0.5359888077 4291153108
-0.2548798323 -0.1709298640 0.5352646708 4291284178
-0.2549478114 -0.1703805774 0.5354073644 4291284178
-0.2541889548 -0.1692803353 0.5338137746 4291218385
-0.2542563379 -0.1687319428 0.5339552760 4291349971
-0.2534964979 -0.1676361859 0.5323594809 4291481557
-0.2539769411 -0.1673612893 0.5333684683 4291547350
-0.2536298931 -0.1665408164 0.5326396823 4291942108
-0.2528686225 -0.1654509008 0.5310409069 4292073694
-0.2533486187 -0.1651738286 0.5320489407 4292139487
-0.2525864244 -0.1640875340 0.5304483175 4292731624
-0.2526519597 -0.1635406017 0.5305859447 4294047481
-0.2523030341 -0.1627260447 0.5298532248 4294639615
-0.2523681223 -0.1621791571 0.5299898386 4294442493
-0.2524330020 -0.1616318524 0.5301261544 4294376700
-0.2529123127 -0.1613486260 0.5311327577 4294574079
-0.2525622249 -0.1605359614 0.5303975344 4294508286
-0.2534562051 -0.1605128050 0.5322749019 4294574079
-0.2531056404 -0.1597002149 0.5315386653 4294442493
-0.2544147968 -0.1599326134 0.5342879891 4294442493
-0.2548941076 -0.1596391797 0.5352945924 4294442493
-0.2557886839 -0.1596026123 0.5371732712 4294573566
-0.2554374635 -0.1587874442 0.5364356637 4294573566
-0.2563321888 -0.1587455124 0.5383146405 4294573566
-0.2568115592 -0.1584431678 0.5393214226 4294573566
-0.2568753064 -0.1578831226 0.5394552946 4294573566
-0.2573546171 -0.1575772315 0.5404618382 4294573566
-0.2578339279 -0.1572691053 0.5414684415 4294311423
-0.2574813366 -0.1564532518 0.5407279730 4294179837
-0.2579604685 -0.1561424732 0.5417341590 4293982459
-0.2580234408 -0.1555785388 0.5418664217 4293785080
-0.2585024834 -0.1552642137 0.5428724289 4293587449
-0.2585651577 -0.1546985507 0.5430040956 4293258484
-0.2586276531 -0.1541324556 0.5431352854 4292995059
-0.2582733631 -0.1533186883 0.5423912406 4292797680
-0.2583353221 -0.1527526975 0.5425214171 4292731889
-0.2583971024 -0.1521863043 0.5426511168 4292929268
-0.2584587038 -0.1516195089 0.5427804589 4293455612
-0.2576861382 -0.1505650282 0.5411580205 4292863475
-0.2573300600 -0.1497565359 0.5404102206 4292468715
-0.2569735646 -0.1489494741 0.5396615863 4292534508
-0.2570941150 -0.1478195935 0.5399147868 4292995059
-0.2571541071 -0.1472540498 0.5400407314 4293784831
-0.2572138906 -0.1466881186 0.5401662588 4293916415
-0.2572734654 -0.1461217850 0.5402913690 4293521656
-0.2573328316 -0.1455550641 0.5404160619 4292600554
-0.2578098476 -0.1452233344 0.5414178371 4285039017
-0.2582868338 -0.1448893547 0.5424195528 4280762472
-0.2587638199 -0.1445531398 0.5434212685 4280963225
-0.2588226497 -0.1439820975 0.5435448289 4281621155
-0.2597177327 -0.1438740194 0.5454245806 4282476466
-0.2601946890 -0.1435311139 0.5464261770 4282213294
-0.2606715858 -0.1431859583 0.5474277139 4282344880
-0.2611484826 -0.1428385675 0.5484292507 4281752743
-0.2616253495 -0.1424889416 0.5494306684 4282606510
-0.2616835237 -0.1419100165 0.5495527983 4283330233
-0.2617414594 -0.1413307190 0.5496745110 4282935988
-0.2622180581 -0.1409762204 0.5506753922 4282146472
-0.2622756660 -0.1403952241 0.5507963896 4280963227
-0.2627521455 -0.1400371790 0.5517969728 4281621157
-0.2628093958 -0.1394544840 0.5519172549 4281554849
-0.2632857263 -0.1390929073 0.5529175401 4282146986
-0.2637619972 -0.1387290657 0.5539177656 4281093784
-0.2642382085 -0.1383630037 0.5549178720 4282014886
-0.2642949224 -0.1377760023 0.5550369024 4282475437
-0.2647709846 -0.1374063790 0.5560367107 4282672816
-0.2648273110 -0.1368176937 0.5561550260 4280896405
-0.2653032243 -0.1364445239 0.5571544766 4281685921
-0.2653592229 -0.1358541399 0.5572720170 4281422749
-0.2662549317 -0.1356914490 0.5591530800 4282278058
-0.2663106620 -0.1350984573 0.5592700839 4281751199
-0.2663661540 -0.1345051080 0.5593866706 4281751199
-0.2668416798 -0.1341225952 0.5603852868 4281092754
-0.2668968141 -0.1335275620 0.5605010986 4281092754
-0.2673721313 -0.1331414878 0.5614992976 4282605991
-0.2678474188 -0.1327531934 0.5624974370 4282211233
-0.2683226466 -0.1323626339 0.5634953976 4281355926
-0.2687978148 -0.1319698393 0.5644932985 4280369031
-0.2692729235 -0.1315748096 0.5654910803 4279711616
-0.2697479725 -0.1311775297 0.5664887428 4280106374
-0.2702229917 -0.1307779998 0.5674862862 4279712129
-0.2706979215 -0.1303762197 0.5684836507 4279909508
-0.2711727917 -0.1299722046 0.5694809556 4279974788
-0.2716476023 -0.1295659393 0.5704780817 4280698511
-0.2721223533 -0.1291574240 0.5714750886 4281290131
-0.2725970447 -0.1287466735 0.5724719763 4281355924
-0.2730716765 -0.1283336729 0.5734686852 4281947287
-0.2739677131 -0.1281155199 0.5753504038 4282078873
-0.2748638391 -0.1278932244 0.5772323608 4282341530
-0.2753384113 -0.1274715960 0.5782290101 4282670495
-0.2758128941 -0.1270477027 0.5792254806 4282669715
-0.2767091393 -0.1268148869 0.5811076164 4283064473
-0.2776054442 -0.1265779138 0.5829899311 4283590560
-0.2785018384 -0.1263367981 0.5848724246 4283722146
-0.2793983221 -0.1260915399 0.5867550373 4283853730
-0.2798727155 -0.1256526113 0.5877513885 4284182695
-0.2807692587 -0.1254000068 0.5896341801 4284839849
-0.2812435925 -0.1249556169 0.5906302929 4284971435
-0.2821401954 -0.1246956512 0.5925132036 4284971171
-0.2830368578 -0.1244315282 0.5943962932 4285234343
-0.2835110724 -0.1239784807 0.5953921676 4285234079
-0.2839851975 -0.1235231832 0.5963878036 4284773528
-0.2848818898 -0.1232484877 0.5982709527 4284246669
-0.2853558958 -0.1227877289 0.5992663503 4283457153
-0.2862526178 -0.1225056648 0.6011495590 4282931064
-0.2867265046 -0.1220394447 0.6021447182 4283062650
-0.2872002721 -0.1215709671 0.6031396985 4283588990
-0.2872509062 -0.1209221482 0.6032460332 4284049541
-0.2877244055 -0.1204501167 0.6042403579 4284839057
-0.2877745926 -0.1197996587 0.6043457985 4285496987
-0.2882477939 -0.1193240732 0.6053395271 4286352037
-0.2882975340 -0.1186719835 0.6054440141 4287207346
-0.2887704670 -0.1181928515 0.6064372063 4288259517
-0.2892432511 -0.1177114695 0.6074301004 4289443791
-0.2892923951 -0.1170564517 0.6075332761 4289970387
-0.2893412709 -0.1164010987 0.6076359153 4290694110
-0.2893898785 -0.1157454178 0.6077380180 4291219939
-0.2898620069 -0.1152579114 0.6087295413 4291614697
-0.2899101675 -0.1146006063 0.6088306904 4292009710
-0.2899580896 -0.1139429808 0.6089313030 4292207089
-0.2900057137 -0.1132850274 0.6090313196 4292404466
-0.2900531292 -0.1126267463 0.6091308594 4292667638
-0.2901002467 -0.1119681448 0.6092298031 4293126896
-0.2905713022 -0.1114719585 0.6102190614 4293455861
-0.2739028633 -0.1969286650 0.5765590668 4292995310
-0.2735700309 -0.1960495710 0.5758584738 4291218899
-0.2744676173 -0.1960508823 0.5777478814 4291547864
-0.2655163109 -0.1890360266 0.5589056015 4291218899
-0.2606647313 -0.1849722713 0.5486931205 4291021520
-0.2636118233 -0.1864470541 0.5548966527 4291087313
-0.2583458126 -0.1821183115 0.5438118577 4291087313
-0.2567742467 -0.1804098934 0.5405037403 4290824141
-0.2560234666 -0.1792836189 0.5389233232 4290757580
-0.2556831241 -0.1784473062 0.5382069349 4290823373
-0.2553423643 -0.1776122898 0.5374896526 4290889166
-0.2550012171 -0.1767785996 0.5367715359 4290823373
-0.2550710738 -0.1762304753 0.5369185805 4290889420
-0.2551407516 -0.1756818891 0.5370652676 4290955213
-0.2552102208 -0.1751328558 0.5372115374 4290824143
-0.2552795410 -0.1745833755 0.5373574495 4290824143
-0.2549368143 -0.1737527549 0.5366359949 4290889936
-0.2550056577 -0.1732032746 0.5367808938 4290955729
-0.2546622455 -0.1723744124 0.5360580087 4290955729
-0.2547306120 -0.1718249321 0.5362019539 4291021522
-0.2543864846 -0.1709978580 0.5354775786 4291087315
-0.2548668087 -0.1707246453 0.5364885926 4291087315
-0.2545220852 -0.1698984802 0.5357630253 4291152592
-0.2541770041 -0.1690736562 0.5350365639 4291284178
-0.2542442381 -0.1685237437 0.5351781249 4291349971
-0.2534855902 -0.1674280465 0.5335811973 4291481557
-0.2531392872 -0.1666072756 0.5328522325 4291876315
-0.2527925968 -0.1657878608 0.5321224332 4292139487
-0.2524454892 -0.1649698019 0.5313917994 4292139487
-0.2525112629 -0.1644222140 0.5315302610 4292336866
-0.2521634698 -0.1636060029 0.5307981372 4293323758
-0.2518152595 -0.1627911478 0.5300651789 4294442239
-0.2518802583 -0.1622440815 0.5302020311 4294639615
-0.2515313923 -0.1614310741 0.5294676423 4294442239
-0.2515959144 -0.1608840525 0.5296034813 4294574079
-0.2520741522 -0.1606003344 0.5306101441 4294574079
-0.2529664636 -0.1605771929 0.5324884057 4294508031
-0.2526166141 -0.1597643048 0.5317520499 4294442239
-0.2535090744 -0.1597358286 0.5336306095 4294507773
-0.2539874017 -0.1594432145 0.5346375108 4294507773
-0.2548802197 -0.1594075710 0.5365168452 4294573566
-0.2553586960 -0.1591095924 0.5375240445 4294639359
-0.2562518418 -0.1590667814 0.5394040942 4294573566
-0.2559009492 -0.1582504660 0.5386654735 4294573566
-0.2563793659 -0.1579467207 0.5396725535 4294573566
-0.2568578124 -0.1576407254 0.5406796336 4294507773
-0.2569212019 -0.1570787430 0.5408130884 4294442239
-0.2569843829 -0.1565163583 0.5409460664 4294244860
-0.2574626505 -0.1562054902 0.5419527888 4294047482
-0.2575255334 -0.1556413621 0.5420851707 4293850103
-0.2580037117 -0.1553269327 0.5430917144 4293587449
-0.2580663264 -0.1547610611 0.5432235003 4293258484
-0.2581287324 -0.1541947871 0.5433548689 4292995059
-0.2581909299 -0.1536280960 0.5434858203 4292797680
-0.2582529485 -0.1530609876 0.5436163545 4292797682
-0.2583147585 -0.1524934918 0.5437464714 4292797682
-0.2583763599 -0.1519255638 0.5438761711 4293258233
-0.2580216229 -0.1511135250 0.5431293845 4293126647
-0.2576664686 -0.1503028870 0.5423818231 4292468715
-0.2573108971 -0.1494936943 0.5416333675 4292337129
-0.2573714256 -0.1489269137 0.5417607427 4292666094
-0.2570151687 -0.1481196731 0.5410108566 4292863473
-0.2570751905 -0.1475530118 0.5411372185 4293521919
-0.2571349740 -0.1469859630 0.5412631035 4293653503
-0.2571945786 -0.1464185119 0.5413885713 4293520889
-0.2572540045 -0.1458506733 0.5415135622 4293060338
-0.2573131919 -0.1452824324 0.5416381955 4286024622
-0.2577893138 -0.1449483484 0.5426404476 4282011249
-0.2582654357 -0.1446120292 0.5436426401 4282410158
-0.2583242059 -0.1440407783 0.5437663794 4282475951
-0.2588002086 -0.1437009126 0.5447683334 4282739638
-0.2592761517 -0.1433588117 0.5457702279 4281029020
-0.2601697147 -0.1432443857 0.5476511121 4282212013
-0.2610634565 -0.1431258917 0.5495324135 4282277806
-0.2615395486 -0.1427752227 0.5505345464 4282343597
-0.2615977228 -0.1421951652 0.5506570339 4283330492
-0.2616556883 -0.1416147202 0.5507790446 4282607023
-0.2617134452 -0.1410338879 0.5509006381 4282146472
-0.2621891499 -0.1406770349 0.5519019961 4281422495
-0.2622465789 -0.1400945187 0.5520228744 4280567186
-0.2627221346 -0.1397341192 0.5530239344 4282014632
-0.2627792358 -0.1391498893 0.5531440973 4282672562
-0.2636731565 -0.1390065849 0.5550258160 4281159577
-0.2641486228 -0.1386394650 0.5560266376 4282212265
-0.2642053366 -0.1380513012 0.5561460257 4283067061
-0.2646806240 -0.1376806200 0.5571464896 4283264440
-0.2647370100 -0.1370907873 0.5572651625 4281224857
-0.2652121186 -0.1367165595 0.5582652688 4280698513
-0.2652681470 -0.1361250281 0.5583831668 4281422749
-0.2657431066 -0.1357472390 0.5593829751 4280172682
-0.2657987773 -0.1351540238 0.5595001578 4280237962
-0.2662735283 -0.1347726882 0.5604995489 4280435341
-0.2663288414 -0.1341778040 0.5606159568 4280106374
-0.2668034434 -0.1337929070 0.5616149902 4280369546
-0.2668583989 -0.1331963539 0.5617306232 4280961683
-0.2673328221 -0.1328079104 0.5627292395 4281093269
-0.2678071558 -0.1324172169 0.5637277961 4280566925
-0.2682814598 -0.1320242882 0.5647261739 4280698511
-0.2687557042 -0.1316291094 0.5657244325 4280567440
-0.2692299187 -0.1312316805 0.5667225718 4280567440
-0.2697040439 -0.1308320165 0.5677206516 4280764819
-0.2710184753 -0.1308357865 0.5704874992 4280501647
-0.2702318430 -0.1298240274 0.5688316822 4281027476
-0.2715464234 -0.1298204809 0.5715988278 4281751199
-0.2724408209 -0.1296108961 0.5734815001 4282013595
-0.2729147971 -0.1291980892 0.5744792223 4282013595
-0.2733887136 -0.1287830472 0.5754767656 4282473116
-0.2738625705 -0.1283657551 0.5764742494 4282538909
-0.2747570872 -0.1281424463 0.5783572197 4282999201
-0.2756517231 -0.1279149950 0.5802403688 4283064994
-0.2761255205 -0.1274890602 0.5812376738 4283656349
-0.2770202160 -0.1272542775 0.5831210613 4283853728
-0.2779150307 -0.1270153373 0.5850045681 4284051361
-0.2788099051 -0.1267722398 0.5868882537 4284182947
-0.2797048688 -0.1265249997 0.5887721181 4284642984
-0.2801785767 -0.1260840148 0.5897692442 4285169328
-0.2810736001 -0.1258294135 0.5916532874 4285432236
-0.2815471888 -0.1253829598 0.5926502347 4285169064
-0.2820207179 -0.1249342561 0.5936470032 4284379286
-0.2829158008 -0.1246690899 0.5955311060 4284181907
-0.2833892107 -0.1242149249 0.5965276361 4283655045
-0.2842843235 -0.1239423901 0.5984117985 4283128701
-0.2847576439 -0.1234827563 0.5994081497 4283062648
-0.2856527865 -0.1232028529 0.6012923717 4283062648
-0.2857039571 -0.1225567237 0.6014001369 4283720319
-0.2861769795 -0.1220903248 0.6023957729 4284707214
-0.2862277329 -0.1214425564 0.6025025845 4285365141
-0.2867004573 -0.1209725961 0.6034976840 4286088864
-0.2871730924 -0.1205003858 0.6044926047 4286812587
-0.2872232199 -0.1198496744 0.6045981050 4287667896
-0.2876955569 -0.1193739101 0.6055923700 4288655045
-0.2877452672 -0.1187215596 0.6056969762 4289378768
-0.2877947092 -0.1180688739 0.6058011055 4290167766
-0.2882665694 -0.1175882667 0.6067943573 4290957282
-0.2883155942 -0.1169339493 0.6068974733 4291351780
-0.2883643210 -0.1162792966 0.6070001125 4291878124
-0.2884128094 -0.1156243160 0.6071021557 4292141294
-0.2884610593 -0.1149690077 0.6072037220 4292404466
-0.2885090113 -0.1143133715 0.6073046923 4292864501
-0.2885567546 -0.1136574075 0.6074051261 4293127673
-0.2886041999 -0.1130011156 0.6075050235 4293456636
-0.2886514068 -0.1123445034 0.6076043844 4293719807
-0.2886983454 -0.1116875708 0.6077032089 4293850103
-0.2737790644 -0.1973009557 0.5776489973 4292666345
-0.2730377316 -0.1961266249 0.5760848522 4291284692
-0.2722957432 -0.1949553192 0.5745193362 4291482073
-0.2686860561 -0.1917410046 0.5669031739 4291284694
-0.2675322592 -0.1902904809 0.5644688010 4291153106
-0.2594108284 -0.1839057207 0.5473333001 4291021520
-0.2574335039 -0.1819004416 0.5431613326 4290955727
-0.2558649182 -0.1801922768 0.5398517251 4290758348
-0.2555256784 -0.1793543547 0.5391359925 4290757580
-0.2551860511 -0.1785177588 0.5384194255 4290823373
-0.2544356585 -0.1773963422 0.5368361473 4290889166
-0.2549161017 -0.1771337241 0.5378498435 4290823373
-0.2545753717 -0.1763001680 0.5371309519 4290823373
-0.2546449602 -0.1757514030 0.5372777581 4290889166
-0.2547143698 -0.1752021909 0.5374242067 4290692557
-0.2547836006 -0.1746525317 0.5375702977 4290758350
-0.2548526525 -0.1741024256 0.5377159715 4290824143
-0.2545103729 -0.1732719541 0.5369937420 4290824143
-0.2541676760 -0.1724428087 0.5362707376 4290889936
-0.2542359531 -0.1718931496 0.5364148021 4290889936
-0.2538925707 -0.1710657775 0.5356902480 4290955729
-0.2543719709 -0.1707924902 0.5367017984 4290955729
-0.2540280223 -0.1699660271 0.5359760523 4291021006
-0.2536836267 -0.1691409051 0.5352494717 4291086799
-0.2537508011 -0.1685908288 0.5353911519 4291218385
-0.2529936731 -0.1674947292 0.5337936878 4291481557
-0.2526481152 -0.1666736603 0.5330645442 4291744729
-0.2523021102 -0.1658539623 0.5323345661 4292007901
-0.2523681223 -0.1653057188 0.5324738026 4292271073
-0.2520214319 -0.1644878387 0.5317423940 4292336866
-0.2516743839 -0.1636713296 0.5310100913 4292600036
-0.2513269186 -0.1628561765 0.5302769542 4293850103
-0.2509790361 -0.1620424092 0.5295429826 4294508031
-0.2510436773 -0.1614956260 0.5296793580 4294442239
-0.2515211403 -0.1612131447 0.5306867361 4294508031
-0.2511723936 -0.1604008079 0.5299509764 4294508031
-0.2524761260 -0.1606415063 0.5327017307 4294442239
-0.2521270216 -0.1598283350 0.5319651365 4294442239
-0.2534312010 -0.1600609720 0.5347168446 4294573567
-0.2539087832 -0.1597673744 0.5357244611 4294507775
-0.2539727390 -0.1592122316 0.5358594060 4294573566
-0.2544502318 -0.1589150727 0.5368669033 4294639359
-0.2549277544 -0.1586156934 0.5378744006 4294573566
-0.2554052770 -0.1583140790 0.5388819575 4294507773
-0.2558828294 -0.1580102295 0.5398895741 4294507773
-0.2563603818 -0.1577041596 0.5408971906 4294441980
-0.2564237118 -0.1571419835 0.5410307646 4294376447
-0.2564868331 -0.1565793902 0.5411639214 4294179068
-0.2569642067 -0.1562684327 0.5421711802 4293915898
-0.2566124797 -0.1554529667 0.5414290428 4293784312
-0.2570896745 -0.1551393569 0.5424358845 4293521658
-0.2575668693 -0.1548235118 0.5434427261 4293258486
-0.2576292157 -0.1542570293 0.5435742736 4292995061
-0.2576913536 -0.1536901444 0.5437053442 4292929268
-0.2577532828 -0.1531228423 0.5438360572 4292797684
-0.2578150332 -0.1525551379 0.5439662933 4292797684
-0.2578765750 -0.1519870162 0.5440961719 4292929781
-0.2575225532 -0.1511746794 0.5433492064 4293324539
-0.2571681440 -0.1503637433 0.5426014066 4292337644
-0.2572288811 -0.1497962475 0.5427295566 4292074472
-0.2568737566 -0.1489872783 0.5419803262 4292469228
-0.2569339871 -0.1484198868 0.5421074033 4292732400
-0.2569940388 -0.1478521079 0.5422341228 4293587967
-0.2570538819 -0.1472839415 0.5423603654 4293653759
-0.2566974759 -0.1464779675 0.5416083336 4293652475
-0.2567568123 -0.1459099203 0.5417335629 4293060338
-0.2572321594 -0.1455770433 0.5427365303 4287800257
-0.2577075064 -0.1452419162 0.5437394977 4282076266
-0.2581828535 -0.1449045688 0.5447424054 4282870193
-0.2586581707 -0.1445649862 0.5457452536 4282870193
-0.2591334879 -0.1442231536 0.5467481017 4283331514
-0.2596087754 -0.1438790858 0.5477509499 4282278826
-0.2596672475 -0.1433027685 0.5478742719 4282474674
-0.2601423860 -0.1429551393 0.5488768220 4280764056
-0.2610344887 -0.1428334564 0.5507590771 4281751462
-0.2610926032 -0.1422531903 0.5508817434 4283462080
-0.2611505091 -0.1416725218 0.5510038733 4282738607
-0.2612082064 -0.1410914809 0.5511256456 4282146470
-0.2616830468 -0.1407345235 0.5521274805 4281027226
