VERSION 0.7
FIELDS x y z rgba
SIZE 4 4 4 4
TYPE F F F U
COUNT 1 1 1 1
WIDTH 920
HEIGHT 1
VIEWPOINT 0.0 0.0 0.0 1.0 0.0 0.0 0.0
POINTS 920
DATA ascii
-0.2860728502 -0.2084700614 0.5911206007 4288322982
-0.2865705788 -0.2081748545 0.5921490788 4288322982
-0.2866529226 -0.2075765729 0.5923192501 4288651175
-0.2871506214 -0.2072777301 0.5933476686 4288322210
-0.2872327268 -0.2066775411 0.5935173035 4287927452
-0.2873145938 -0.2060768306 0.5936865211 4287203729
-0.2873963118 -0.2054756135 0.5938553214 4286611592
-0.2874778211 -0.2048738897 0.5940237045 4284637802
-0.2871429920 -0.2039760351 0.5933318734 4281413945
-0.2868077159 -0.2030794024 0.5926390886 4280361257
-0.2868884206 -0.2024778873 0.5928058028 4280361257
-0.2865523994 -0.2015828788 0.5921115279 4280361257
-0.2857993543 -0.2003969699 0.5905554891 4280098085
-0.2854623795 -0.1995053142 0.5898591876 4280098085
-0.2851249874 -0.1986149102 0.5891619921 4280032292
-0.2847871482 -0.1977257580 0.5884639621 4280163878
-0.2848659754 -0.1971264780 0.5886268020 4280229671
-0.2849445939 -0.1965267062 0.5887892842 4280163878
-0.2850230336 -0.1959264278 0.5889513493 4280163878
-0.2846838534 -0.1950396895 0.5882504582 4280163878
-0.2847617865 -0.1944393069 0.5884115100 4280098085
-0.2848395109 -0.1938384324 0.5885720849 4280098085
-0.2849170268 -0.1932370663 0.5887323022 4280163878
-0.2849943638 -0.1926352084 0.5888921022 4280098085
-0.2850714922 -0.1920328587 0.5890514851 4279967522
-0.2851484120 -0.1914300323 0.5892104506 4279967522
-0.2852251530 -0.1908267140 0.5893689990 4279967522
-0.2853016555 -0.1902229041 0.5895271301 4279967522
-0.2853780091 -0.1896186173 0.5896848440 4279967267
-0.2854541242 -0.1890138388 0.5898421407 4280033060
-0.2851113677 -0.1881323159 0.5891338587 4280099108
-0.2851869762 -0.1875274628 0.5892901421 4280099108
-0.2852623761 -0.1869221330 0.5894459486 4279967267
-0.2853375673 -0.1863163114 0.5896012783 4280098853
-0.2854125798 -0.1857100129 0.5897562504 4280164646
-0.2854873538 -0.1851032525 0.5899108052 4280098853
-0.2855619490 -0.1844960004 0.5900649428 4280098853
-0.2856363058 -0.1838882715 0.5902186036 4280230439
-0.2861300409 -0.1835492104 0.5912387967 4280165159
-0.2862040997 -0.1829396486 0.5913918018 4279967780
-0.2862779796 -0.1823296100 0.5915444493 4279704097
-0.2863516212 -0.1817191094 0.5916966200 4279638304
-0.2864250541 -0.1811081320 0.5918483734 4279704097
-0.2864983082 -0.1804966778 0.5919997096 4279704097
-0.2865713239 -0.1798847616 0.5921506286 4279704097
-0.2866441309 -0.1792723835 0.5923010707 4279835683
-0.2862963378 -0.1783975661 0.5915824175 4280033062
-0.2863686085 -0.1777851582 0.5917317271 4280033062
-0.2864406705 -0.1771722734 0.5918806791 4280098853
-0.2865125239 -0.1765589267 0.5920291543 4280098853
-0.2865841687 -0.1759451330 0.5921772122 4280098853
-0.2866556048 -0.1753308624 0.5923247933 4280098853
-0.2867268324 -0.1747161448 0.5924719572 4280164646
-0.2863766849 -0.1738453209 0.5917484164 4280164646
-0.2864473760 -0.1732305884 0.5918945074 4280099366
-0.2865178287 -0.1726153940 0.5920400620 4280099366
-0.2865880728 -0.1719997674 0.5921852589 4280098855
-0.2866581082 -0.1713836640 0.5923299193 4280098855
-0.2867279351 -0.1707671285 0.5924742222 4280164648
-0.2863757610 -0.1698999107 0.5917465091 4280164648
-0.2860231698 -0.1690340787 0.5910179615 4280230439
-0.2860921323 -0.1684180051 0.5911604166 4280230439
-0.2861608565 -0.1678014845 0.5913024545 4280296232
-0.2866515517 -0.1674311161 0.5923163891 4280296232
-0.2862976789 -0.1665671319 0.5915851593 4280296232
-0.2863657475 -0.1659492850 0.5917258263 4280362025
-0.2864336073 -0.1653310061 0.5918660760 4280362025
-0.2865012586 -0.1647122800 0.5920058489 4280362025
-0.2861459851 -0.1638510972 0.5912717581 4280427818
-0.2862131000 -0.1632324159 0.5914103985 4280427818
-0.2862799466 -0.1626133025 0.5915485620 4280558890
-0.2863466144 -0.1619937569 0.5916862488 4280558890
-0.2864130139 -0.1613737643 0.5918235183 4280362025
-0.2864792347 -0.1607533544 0.5919603109 4280296232
-0.2865451872 -0.1601325125 0.5920966268 4280362025
-0.2861875892 -0.1592756361 0.5913577080 4280427818
-0.2862530053 -0.1586548537 0.5914928913 4280296232
-0.2867417634 -0.1582674235 0.5925028324 4280098853
-0.2868068218 -0.1576448828 0.5926372409 4280033060
-0.2872954309 -0.1572538465 0.5936468244 4279769888
-0.2873601317 -0.1566295326 0.5937805772 4279704097
-0.2874246240 -0.1560048014 0.5939137936 4279835683
-0.2874888778 -0.1553796530 0.5940465331 4279967269
-0.2875528932 -0.1547540724 0.5941788554 4280296234
-0.2876166701 -0.1541280895 0.5943107009 4279769890
-0.2881045640 -0.1537280828 0.5953187943 4280230441
-0.2877435684 -0.1528748572 0.5945729017 4280821808
-0.2878066897 -0.1522476226 0.5947032571 4280624429
-0.2878695428 -0.1516199857 0.5948331952 4279835683
-0.2875075042 -0.1507692188 0.5940850973 4279638304
-0.2875698209 -0.1501416862 0.5942138433 4279638304
-0.2876318991 -0.1495137364 0.5943421125 4279769890
-0.2876937389 -0.1488853842 0.5944699049 4279967271
-0.2877553403 -0.1482566297 0.5945972204 4280296236
-0.2878167331 -0.1476274729 0.5947239995 4280427822
-0.2878778577 -0.1469979137 0.5948503613 4280296236
-0.2875134647 -0.1461517513 0.5940973759 4279967271
-0.2875740230 -0.1455223262 0.5942225456 4280296236
-0.2876343727 -0.1448924989 0.5943472385 4280296236
-0.2876944840 -0.1442622691 0.5944714546 4280362029
-0.2873286903 -0.1434191763 0.5937155485 4280427822
-0.2873882055 -0.1427891105 0.5938385725 4279967271
-0.2874475121 -0.1421586424 0.5939611197 4279704099
-0.2875065804 -0.1415277869 0.5940831900 4279835685
-0.2875654101 -0.1408965290 0.5942047834 4279967269
-0.2876240015 -0.1402648985 0.5943258405 4280098855
-0.2876823545 -0.1396328807 0.5944464207 4280230441
-0.2877404690 -0.1390004903 0.5945664644 4280296234
-0.2877983451 -0.1383676976 0.5946860313 4280098855
-0.2874295115 -0.1375304908 0.5939239264 4280098855
-0.2874868214 -0.1368978769 0.5940423608 4280362540
-0.2875438929 -0.1362649053 0.5941602588 4280428333
-0.2871739864 -0.1354303062 0.5933959484 4280494126
-0.2872304916 -0.1347975135 0.5935126543 4280494126
-0.2864329815 -0.1337656379 0.5918647647 4280494126
-0.2864888310 -0.1331339926 0.5919801593 4280494126
-0.2869714499 -0.1326994300 0.5929774642 4280559919
-0.2870268822 -0.1320661008 0.5930919647 4280559919
-0.2866548896 -0.1312368214 0.5923233032 4280625712
-0.2862824500 -0.1304090619 0.5915537477 4280691505
-0.2863370180 -0.1297765225 0.5916664600 4280690990
-0.2859638631 -0.1289508641 0.5908953547 4280690990
-0.2860178053 -0.1283185482 0.5910068750 4280756785
-0.2860715389 -0.1276858747 0.5911179185 4280756785
-0.2861250341 -0.1270528585 0.5912284255 4280822578
-0.2857504785 -0.1262305081 0.5904545188 4280888371
-0.2858034074 -0.1255977154 0.5905638337 4280888369
-0.2858560681 -0.1249645799 0.5906726718 4280888369
-0.2854804695 -0.1241449639 0.5898965597 4280822576
-0.2851044536 -0.1233269051 0.5891196132 4280756783
-0.2851562202 -0.1226946265 0.5892265439 4280756785
-0.2847795188 -0.1218787208 0.5884481668 4280756785
-0.2844023705 -0.1210643798 0.5876688957 4280690992
-0.2848816514 -0.1206143498 0.5886591673 4280625199
-0.2845038772 -0.1198012307 0.5878785849 4280690990
-0.2841256857 -0.1189896762 0.5870971084 4280690990
-0.2837471068 -0.1181796938 0.5863148570 4280757298
-0.2837968469 -0.1175488532 0.5864176154 4280691505
-0.2838463187 -0.1169176772 0.5865198374 4280691505
-0.2838955224 -0.1162861735 0.5866215825 4280691505
-0.2835155725 -0.1154796407 0.5858364701 4280625712
-0.2827062607 -0.1145009398 0.5841640830 4280625712
-0.2823254466 -0.1136985272 0.5833772421 4280625712
-0.2836607993 -0.1135850623 0.5861365199 4280625712
-0.2819918394 -0.1122693643 0.5826879144 4280625712
-0.2833270431 -0.1121504828 0.5854468942 4280691505
-0.2829450071 -0.1113496646 0.5846574903 4280691503
-0.2825625837 -0.1105504483 0.5838672519 4280691503
-0.2809833288 -0.1079972908 0.5806039572 4280822576
-0.2810289562 -0.1073696315 0.5806982517 4280888369
-0.2815041244 -0.1069048867 0.5816801190 4280888371
-0.2806896567 -0.1059511602 0.5799971223 4280954164
-0.2807344496 -0.1053235531 0.5800897479 4280954164
-0.2807790339 -0.1046956480 0.5801818371 4281019957
-0.2808233500 -0.1040674523 0.5802733898 4281019957
-0.2804372907 -0.1032805443 0.5794757009 4280954164
-0.2804810107 -0.1026527137 0.5795660615 4280954164
-0.2809547484 -0.1021810696 0.5805449486 4280954164
-0.2801374197 -0.1012406573 0.5788560510 4280954164
-0.2801803350 -0.1006129235 0.5789447427 4280822578
-0.2819448113 -0.1005992368 0.5825906992 4280822578
-0.2802653909 -0.0993565768 0.5791205168 4280888371
-0.2803075612 -0.0987279788 0.5792075992 4280888371
-0.2807801068 -0.0982497856 0.5801840425 4280954164
-0.2821139097 -0.0980688334 0.5829401612 4281019957
-0.2804324627 -0.0968404934 0.5794657469 4281019957
-0.2804735899 -0.0962107778 0.5795507431 4280822837
-0.2809453607 -0.0957276002 0.5805255771 4280888630
-0.2809860408 -0.0950963646 0.5806096196 4280954423
-0.2810264826 -0.0944648534 0.5806931257 4281020216
-0.2814977169 -0.0939769819 0.5816668868 4281020216
-0.2819688320 -0.0934869051 0.5826403499 4281020216
-0.2828710079 -0.0931366012 0.5845045447 4281020216
-0.2820481062 -0.0922181159 0.5828041434 4281020216
-0.2820873559 -0.0915833190 0.5828852654 4281020216
-0.2821263373 -0.0909482613 0.5829657912 4281020216
-0.2821650505 -0.0903129429 0.5830458403 4281151802
-0.2826350331 -0.0898144767 0.5840169787 4281283388
-0.2831048667 -0.0893138126 0.5849877596 4281414974
-0.2831429243 -0.0886757672 0.5850663781 4281480767
-0.2831807137 -0.0880374685 0.5851445198 4281480767
-0.2832182348 -0.0873989165 0.5852220654 4281546560
-0.2832555175 -0.0867601037 0.5852990746 4281480508
-0.2828606665 -0.0859897658 0.5844832063 4281480508
-0.2828973532 -0.0853514299 0.5845590234 4281415228
-0.2829337716 -0.0847128481 0.5846342444 4281546814
-0.2829699218 -0.0840740204 0.5847089887 4281678146
-0.2825737596 -0.0833075643 0.5838903189 4281678146
-0.2826093435 -0.0826692283 0.5839638114 4281678148
-0.2835089862 -0.0822815076 0.5858228207 4281743941
-0.2835441530 -0.0816407427 0.5858954787 4282467662
-0.2840113044 -0.0811232105 0.5868607759 4283980901
-0.2857753336 -0.0809709802 0.5905058384 4287007633
-0.2866747379 -0.0805676505 0.5923643112 4292665831
-0.2840299010 -0.2283722013 0.5882492065 4291612892
-0.2837077677 -0.2274603546 0.5875820518 4284375662
-0.2837959230 -0.2268779725 0.5877646208 4280493362
-0.2842947245 -0.2266225517 0.5887976885 4280230190
-0.2843826413 -0.2260382473 0.5889798403 4280098604
-0.2832371593 -0.2244759947 0.5866073966 4279045916
-0.2841467857 -0.2245430499 0.5884913206 4279309088
-0.2838227153 -0.2236338556 0.5878201723 4278716951
-0.2834982574 -0.2227258235 0.5871481299 4280032294
-0.2835849226 -0.2221413702 0.5873276591 4280361259
-0.2828480005 -0.2209132463 0.5858014226 4280821810
-0.2821104228 -0.2196879834 0.5842738152 4281742912
-0.2813721299 -0.2184655964 0.5827447772 4281875268
-0.2810452878 -0.2175651044 0.5820678473 4282138440
-0.2815424204 -0.2173020840 0.5830974579 4283848804
-0.2812149525 -0.2164022326 0.5824192762 4285559422
-0.2812995315 -0.2158200145 0.5825944543 4285559422
-0.2813839316 -0.2152372748 0.5827692747 4290428104
-0.2849497795 -0.2094407231 0.5901544094 4288191396
-0.2846180797 -0.2085419744 0.5894674063 4287533466
-0.2847003341 -0.2079471201 0.5896377563 4286809743
-0.2851969600 -0.2076535821 0.5906662941 4286480778
-0.2852789760 -0.2070568353 0.5908361673 4286940557
-0.2857755721 -0.2067596614 0.5918646455 4286808971
-0.2858573198 -0.2061610222 0.5920339823 4286743178
-0.2859388888 -0.2055618614 0.5922029018 4286019455
-0.2856051326 -0.2046647221 0.5915116668 4285361525
-0.2856861949 -0.2040654123 0.5916795731 4284440423
-0.2857670784 -0.2034655809 0.5918470621 4282598219
-0.2858477533 -0.2028652579 0.5920141339 4280821808
-0.2855126262 -0.2019704431 0.5913200974 4280295464
-0.2851771116 -0.2010768503 0.5906251669 4280098085
-0.2852569818 -0.2004767507 0.5907905698 4279900706
-0.2840888202 -0.1990020573 0.5883712769 4279966499
-0.2845839858 -0.1986940801 0.5893968344 4279834913
-0.2842468619 -0.1978046149 0.5886986256 4280032292
-0.2843255997 -0.1972051412 0.5888617039 4279966499
-0.2844041586 -0.1966051608 0.5890243649 4279900706
-0.2844825089 -0.1960046887 0.5891866088 4279900706
-0.2845606506 -0.1954037249 0.5893484950 4279900706
-0.2846386135 -0.1948022693 0.5895099044 4279834913
-0.2847163677 -0.1942003220 0.5896709561 4279769120
-0.2847939134 -0.1935978681 0.5898315907 4279769120
-0.2848712802 -0.1929949373 0.5899918079 4279703327
-0.2849484384 -0.1923915148 0.5901516080 4279638557
-0.2850253880 -0.1917875856 0.5903109908 4279704350
-0.2851021290 -0.1911831796 0.5904699564 4279704095
-0.2851786911 -0.1905782968 0.5906285048 4279704095
-0.2852550447 -0.1899729073 0.5907866359 4279704095
-0.2853312194 -0.1893670410 0.5909443498 4279704095
-0.2854071558 -0.1887606978 0.5911016464 4279769888
-0.2854829133 -0.1881538630 0.5912585258 4279769888
-0.2855584323 -0.1875465363 0.5914149880 4279638302
-0.2852155864 -0.1866650432 0.5907048583 4279769888
-0.2852905989 -0.1860576570 0.5908602476 4279835681
-0.2853654027 -0.1854497790 0.5910152197 4279769888
-0.2854400277 -0.1848414391 0.5911697149 4279704608
-0.2855144143 -0.1842326224 0.5913237929 4279770401
-0.2855886221 -0.1836233288 0.5914775133 4279770401
-0.2860814631 -0.1832818985 0.5924982429 4279638815
-0.2861553729 -0.1826707572 0.5926512480 4279506718
-0.2862290442 -0.1820591539 0.5928038359 4279440925
-0.2863025069 -0.1814470589 0.5929560065 4279440925
-0.2863757908 -0.1808345020 0.5931077600 4279506718
-0.2864488363 -0.1802214831 0.5932590365 4279506718
-0.2865216732 -0.1796079874 0.5934098959 4279638304
-0.2865943015 -0.1789940298 0.5935603380 4279769890
-0.2862469852 -0.1781184375 0.5928410292 4279835683
-0.2863191068 -0.1775044352 0.5929903388 4279835681
-0.2863909900 -0.1768899858 0.5931392312 4279835681
-0.2864626348 -0.1762750745 0.5932876468 4279770401
-0.2865341008 -0.1756596863 0.5934356451 4279770401
-0.2866053581 -0.1750438511 0.5935832262 4279770401
-0.2862560153 -0.1741717905 0.5928597450 4279704608
-0.2863267362 -0.1735559404 0.5930061936 4279704608
-0.2863972187 -0.1729396433 0.5931521654 4279704608
-0.2864674926 -0.1723228842 0.5932977200 4279835683
-0.2865375578 -0.1717056632 0.5934427977 4279835683
-0.2866074145 -0.1710879952 0.5935874581 4279901476
-0.2866770327 -0.1704698801 0.5937316418 4279967269
-0.2863253653 -0.1696019024 0.5930033326 4279967269
-0.2863944471 -0.1689838022 0.5931464434 4279967269
-0.2864633203 -0.1683652401 0.5932890773 4279967269
-0.2869533300 -0.1679929346 0.5943039060 4279967269
-0.2861789167 -0.1668810248 0.5927000642 4280098855
-0.2862470150 -0.1662620604 0.5928410888 4280033062
-0.2863149047 -0.1656426340 0.5929816961 4280033062
-0.2863825858 -0.1650227904 0.5931218266 4280033062
-0.2864500284 -0.1644024849 0.5932614803 4280033062
-0.2865172327 -0.1637817621 0.5934007168 4280098855
-0.2865842283 -0.1631605923 0.5935394764 4280164646
-0.2862288356 -0.1622996032 0.5928034186 4280164646
-0.2862952948 -0.1616784781 0.5929410458 4280164648
-0.2863615155 -0.1610569358 0.5930781960 4280164648
-0.2868499756 -0.1606715769 0.5940898657 4280164648
-0.2864933014 -0.1598125398 0.5933511257 4280164648
-0.2865588367 -0.1591896862 0.5934869051 4280164648
-0.2870469093 -0.1588003039 0.5944977403 4279835683
-0.2871121168 -0.1581756920 0.5946327448 4279571741
-0.2871770561 -0.1575506479 0.5947672725 4279703327
-0.2872418165 -0.1569251865 0.5949013829 4279308569
-0.2873063087 -0.1562993079 0.5950349569 4279440155
-0.2873705924 -0.1556729972 0.5951681137 4279177753
-0.2874346375 -0.1550462693 0.5953007340 4279243546
-0.2874984741 -0.1544191241 0.5954329371 4279440925
-0.2875620425 -0.1537915617 0.5955646038 4279506718
-0.2876254022 -0.1531635970 0.5956958532 4279308569
-0.2876885533 -0.1525352001 0.5958265662 4279242776
-0.2873276472 -0.1516826749 0.5950791240 4279834913
-0.2873902023 -0.1510543823 0.5952087045 4279834913
-0.2870285809 -0.1502038240 0.5944597721 4279769120
-0.2875146568 -0.1497965902 0.5954664350 4279703327
-0.2875765264 -0.1491670758 0.5955945849 4279769120
-0.2872139215 -0.1483180672 0.5948436260 4280032292
-0.2872752249 -0.1476886719 0.5949705839 4279966499
-0.2873363197 -0.1470588744 0.5950970650 4279637534
-0.2873971462 -0.1464286894 0.5952230692 4279506718
-0.2874577641 -0.1457980871 0.5953485966 4279901476
-0.2875181139 -0.1451670974 0.5954736471 4279769890
-0.2875782549 -0.1445357054 0.5955981612 4279506718
-0.2876381576 -0.1439039111 0.5957221985 4279506720
-0.2876977921 -0.1432717294 0.5958457589 4279506720
-0.2877572179 -0.1426391602 0.5959688425 4279572513
-0.2873912752 -0.1417964399 0.5952109098 4279704099
-0.2874501348 -0.1411640197 0.5953328013 4279835683
-0.2875087261 -0.1405312121 0.5954542160 4279769890
-0.2875671089 -0.1398980170 0.5955750942 4279769890
-0.2871997654 -0.1390584260 0.5948143005 4279901476
-0.2872575819 -0.1384253949 0.5949340463 4279901476
-0.2873151302 -0.1377919912 0.5950532556 4279901476
-0.2873724699 -0.1371582150 0.5951719880 4280164648
-0.2870037258 -0.1363217831 0.5944082737 4280296234
-0.2870604992 -0.1356881857 0.5945258737 4280362027
-0.2871170044 -0.1350542158 0.5946428776 4280362027
-0.2867472172 -0.1342204213 0.5938770175 4280362027
-0.2868031561 -0.1335866451 0.5939928889 4280362027
-0.2868588567 -0.1329524964 0.5941082835 4280296747
-0.2869143188 -0.1323179752 0.5942231417 4280362540
-0.2865431309 -0.1314874291 0.5934543610 4280428333
-0.2865980268 -0.1308531165 0.5935680270 4280494126
-0.2862261236 -0.1300246567 0.5927977562 4280559404
-0.2858537734 -0.1291977465 0.5920266509 4280559404
-0.2859077752 -0.1285642385 0.5921384692 4280690992
-0.2859615386 -0.1279303730 0.5922498107 4280756785
-0.2860150337 -0.1272961497 0.5923606157 4280822578
-0.2856413126 -0.1264725327 0.5915866494 4280822578
-0.2856942415 -0.1258385479 0.5916962624 4280756783
-0.2857469320 -0.1252042204 0.5918053389 4280756783
-0.2853721678 -0.1243833378 0.5910291672 4280690990
-0.2854242921 -0.1237492561 0.5911371112 4280690990
-0.2850487828 -0.1229305193 0.5903594494 4280690992
-0.2846728861 -0.1221133471 0.5895809531 4280690992
-0.2842966020 -0.1212977320 0.5888015628 4280625199
-0.2839199007 -0.1204836741 0.5880213976 4280690992
-0.2839704454 -0.1198516786 0.5881261230 4280690990
-0.2835930288 -0.1190398037 0.5873444676 4280690990
-0.2832152247 -0.1182295009 0.5865619779 4280757298
-0.2841206789 -0.1179536879 0.5884372592 4280691505
-0.2833143175 -0.1169669852 0.5867671967 4280625712
-0.2833634913 -0.1163352281 0.5868690014 4280625712
-0.2829842865 -0.1155283749 0.5860837102 4280625712
-0.2826046944 -0.1147231013 0.5852975249 4280559919
-0.2835094929 -0.1144380122 0.5871714354 4280625712
-0.2839860022 -0.1139768660 0.5881583095 4280625712
-0.2818919718 -0.1124877632 0.5838214159 4280691503
-0.2823678255 -0.1120278910 0.5848069191 4280691503
-0.2816047370 -0.1104291230 0.5832265019 4280625710
-0.2816512883 -0.1097992733 0.5833229423 4280756783
-0.2821263671 -0.1093352661 0.5843068361 4280822576
-0.2813148201 -0.1083734259 0.5826261044 4280888369
-0.2809316516 -0.1075793505 0.5818325281 4280888369
-0.2814060450 -0.1071134657 0.5828149915 4280888371
-0.2805931866 -0.1061583832 0.5811315179 4280888371
-0.2806380391 -0.1055295691 0.5812243819 4280888371
-0.2802534401 -0.1047400534 0.5804278851 4280888371
-0.2811562121 -0.1044304669 0.5822975636 4280954164
-0.2803417146 -0.1034828499 0.5806107521 4281019957
-0.2803854942 -0.1028537974 0.5807013512 4281019957
-0.2812878788 -0.1025375500 0.5825703144 4281085750
-0.2804722488 -0.1015948281 0.5808810592 4280954164
-0.2805152535 -0.1009649038 0.5809701085 4280954164
-0.2814172804 -0.1006419957 0.5828382969 4280954164
-0.2818896174 -0.1001622528 0.5838165283 4281019957
-0.2815022767 -0.0993768498 0.5830143094 4280954164
-0.2815443873 -0.0987438485 0.5831015706 4280954164
-0.2815862298 -0.0981105641 0.5831882358 4280954164
-0.2824877799 -0.0977746323 0.5850553513 4280888371
-0.2816691697 -0.0968431458 0.5833600163 4280822837
-0.2817102671 -0.0962090269 0.5834450722 4280888630
-0.2817510962 -0.0955746248 0.5835296512 4280954423
-0.2817916572 -0.0949399471 0.5836136341 4281020216
-0.2822622359 -0.0944489762 0.5845882297 4281020216
-0.2823023498 -0.0938127860 0.5846713185 4281020216
-0.2827726007 -0.0933183581 0.5856452584 4281020216
-0.2823817730 -0.0925395936 0.5848358274 4280954423
-0.2824211121 -0.0919025913 0.5849173069 4281020216
-0.2824601829 -0.0912653357 0.5849981904 4281020216
-0.2829295993 -0.0907659605 0.5859704614 4281151802
-0.2829682231 -0.0901271999 0.5860503912 4281349181
-0.2830065489 -0.0894881785 0.5861297846 4281414974
-0.2830446362 -0.0888488963 0.5862087011 4281414974
-0.2830824554 -0.0882093608 0.5862869620 4281480767
-0.2831200063 -0.0875695720 0.5863647461 4281546560
-0.2831572890 -0.0869295225 0.5864419937 4281414713
-0.2831943035 -0.0862892270 0.5865186453 4281414713
-0.2832310796 -0.0856486782 0.5865948200 4281612094
-0.2832675576 -0.0850078836 0.5866703987 4281743680
-0.2828725874 -0.0842384249 0.5858523846 4281809475
-0.2829084992 -0.0835981146 0.5859267116 4281809475
-0.2829441428 -0.0829575583 0.5860005617 4281875527
-0.2834109068 -0.0824422464 0.5869672298 4281875527
-0.2838774920 -0.0819247365 0.5879335999 4282138697
-0.2839124501 -0.0812815055 0.5880059600 4283322971
-0.2848101854 -0.0808831453 0.5898653269 4284968050
-0.2865710557 -0.0807237774 0.5935121775 4290363076
-0.2821691632 -0.2280499935 0.5857428908 4292402922
-0.2822573185 -0.2274702191 0.5859258771 4288191656
-0.2823452652 -0.2268898934 0.5861084461 4282138700
-0.2828429937 -0.2266374975 0.5871416330 4282006601
-0.2829307318 -0.2260552496 0.5873237848 4281940808
-0.2830183208 -0.2254724652 0.5875055790 4281282878
-0.2831057012 -0.2248891294 0.5876870155 4280295983
-0.2827825248 -0.2239801735 0.5870161057 4279506467
-0.2820483446 -0.2227481455 0.5854920745 4279440674
-0.2813135087 -0.2215189785 0.5839666724 4280624431
-0.2813995779 -0.2209377289 0.5841453671 4280953396
-0.2802527249 -0.2193908989 0.5817645788 4280558638
-0.2791049182 -0.2178486288 0.5793819427 4280821810
-0.2783673704 -0.2166309208 0.5778508782 4281546049
-0.2788630426 -0.2163735032 0.5788798928 4283519839
-0.2785359621 -0.2154772878 0.5782008767 4285756801
-0.2794431150 -0.2155345380 0.5800839663 4285691008
-0.2795272171 -0.2149547040 0.5802585483 4286809489
-0.2835796773 -0.2089142352 0.5886709094 4288388775
-0.2840754092 -0.2086242586 0.5896999836 4287665052
-0.2837439775 -0.2077264190 0.5890119672 4287335317
-0.2838258445 -0.2071317285 0.5891819000 4286282629
-0.2839075327 -0.2065365314 0.5893514752 4285953662
-0.2844029963 -0.2062410265 0.5903800130 4285493111
-0.2844844460 -0.2056439221 0.5905490518 4285361525
-0.2845656574 -0.2050463259 0.5907176733 4284900974
-0.2846467197 -0.2044482082 0.5908859372 4284506216
-0.2843131125 -0.2035528570 0.5901934505 4284308837
-0.2843936682 -0.2029545903 0.5903606415 4283650907
-0.2840593457 -0.2020608336 0.5896666050 4281216566
-0.2845541835 -0.2017565370 0.5906938314 4279966499
-0.2842192352 -0.2008635104 0.5899985433 4279505948
-0.2842988968 -0.2002640963 0.5901638865 4279505948
-0.2839632034 -0.1993726939 0.5894670486 4279703327
-0.2836270928 -0.1984825432 0.5887693763 4279637534
-0.2837059498 -0.1978833675 0.5889330506 4279966499
-0.2837845981 -0.1972837001 0.5890963078 4279834913
-0.2838630676 -0.1966835409 0.5892591476 4279769120
-0.2839413285 -0.1960828751 0.5894216299 4279769120
-0.2840193808 -0.1954817176 0.5895836353 4279769120
-0.2840972543 -0.1948800534 0.5897452831 4279637534
-0.2841749191 -0.1942778975 0.5899065137 4279637534
-0.2842523754 -0.1936752647 0.5900673270 4279637534
-0.2843296528 -0.1930721253 0.5902277827 4279571741
-0.2844067216 -0.1924684942 0.5903877616 4279572509
-0.2844836116 -0.1918643862 0.5905473232 4279572509
-0.2845602632 -0.1912597716 0.5907064676 4279572511
-0.2846367359 -0.1906546801 0.5908652544 4279572511
-0.2847130299 -0.1900490969 0.5910235643 4279572511
-0.2847890854 -0.1894430220 0.5911814570 4279572511
-0.2848649621 -0.1888364702 0.5913389325 4279506716
-0.2849406004 -0.1882294267 0.5914959908 4279506716
-0.2850160599 -0.1876219064 0.5916526318 4279375130
-0.2850913107 -0.1870139092 0.5918088555 4279572509
-0.2847488523 -0.1861325055 0.5910979509 4279507229
-0.2848235965 -0.1855244339 0.5912531018 4279507229
-0.2848981023 -0.1849158853 0.5914077759 4279507229
-0.2849724293 -0.1843068451 0.5915620923 4279573022
-0.2854645252 -0.1839666963 0.5925835371 4279507229
-0.2855385244 -0.1833558232 0.5927371979 4279507229
-0.2856123447 -0.1827444732 0.5928904414 4279375132
-0.2856859267 -0.1821326613 0.5930432081 4279375132
-0.2857593298 -0.1815203577 0.5931955576 4279375132
-0.2858325243 -0.1809075922 0.5933474898 4279375132
-0.2859054804 -0.1802943647 0.5934989452 4279441438
-0.2859782577 -0.1796806604 0.5936499834 4279573024
-0.2860507965 -0.1790664941 0.5938006043 4279638817
-0.2861231267 -0.1784518510 0.5939507484 4279704610
-0.2857762277 -0.1775763631 0.5932306051 4279507229
-0.2858480215 -0.1769617051 0.5933796763 4279507229
-0.2859196365 -0.1763465703 0.5935283303 4279507229
-0.2859910131 -0.1757309735 0.5936765075 4279507229
-0.2860621810 -0.1751149297 0.5938242078 4279507229
-0.2861331105 -0.1744984090 0.5939714909 4279507229
-0.2862038612 -0.1738814414 0.5941183567 4279507229
-0.2858546376 -0.1730099618 0.5933933854 4279507229
-0.2859248221 -0.1723929793 0.5935391188 4279704099
-0.2859947979 -0.1717755497 0.5936843753 4279638306
-0.2864846289 -0.1714090109 0.5947011709 4279638306
-0.2865542769 -0.1707897633 0.5948457718 4279704099
-0.2862034440 -0.1699205488 0.5941174626 4279704097
-0.2862725556 -0.1693013161 0.5942609310 4279704097
-0.2863414586 -0.1686816365 0.5944039822 4279769890
-0.2864101231 -0.1680615097 0.5945464969 4279769890
-0.2860579193 -0.1671950519 0.5938153863 4279769890
-0.2861260474 -0.1665749550 0.5939567685 4279769890
-0.2861939669 -0.1659543961 0.5940977931 4279769890
-0.2862616479 -0.1653334051 0.5942382812 4279769890
-0.2863291204 -0.1647119820 0.5943783522 4279835683
-0.2863963544 -0.1640901119 0.5945179462 4279769890
-0.2864633799 -0.1634678096 0.5946570635 4279704610
-0.2861088216 -0.1626055837 0.5939210057 4279704610
-0.2861752808 -0.1619833261 0.5940589905 4279966501
-0.2862415314 -0.1613606364 0.5941965580 4280098087
-0.2867292166 -0.1609742343 0.5952088833 4279835685
-0.2863733768 -0.1601139456 0.5944702029 4279835685
-0.2864389420 -0.1594899595 0.5946063399 4280098857
-0.2865042984 -0.1588655412 0.5947420001 4279572513
-0.2869914472 -0.1584737599 0.5957532525 4278979604
-0.2870564461 -0.1578475684 0.5958881974 4279242776
-0.2871212065 -0.1572209597 0.5960226059 4280887601
-0.2871857584 -0.1565939188 0.5961565971 4280821808
-0.2872500420 -0.1559664607 0.5962901115 4280559406
-0.2873141468 -0.1553385854 0.5964230895 4280296234
-0.2873779833 -0.1547102928 0.5965556502 4280427820
-0.2874415815 -0.1540815681 0.5966876745 4280362027
-0.2875049710 -0.1534524411 0.5968192816 4280295464
-0.2875681221 -0.1528228968 0.5969503522 4280098085
-0.2872080505 -0.1519691199 0.5962029099 4279900706
-0.2868475914 -0.1511167884 0.5954545736 4279834913
-0.2869098485 -0.1504878551 0.5955838561 4279769120
-0.2869718969 -0.1498585194 0.5957126617 4279769120
-0.2870337069 -0.1492287666 0.5958409309 4279769120
-0.2870952487 -0.1485986114 0.5959687829 4279703327
-0.2871566117 -0.1479680538 0.5960960984 4279769120
-0.2872177064 -0.1473370939 0.5962229371 4279769120
-0.2872785628 -0.1467057317 0.5963492990 4279571741
-0.2873392105 -0.1460739672 0.5964751244 4279637534
-0.2873995900 -0.1454418004 0.5966004729 4279505948
-0.2874597609 -0.1448092461 0.5967254043 4279374362
-0.2875196636 -0.1441762894 0.5968497396 4279440155
-0.2875793576 -0.1435429305 0.5969736576 4279374362
-0.2876387835 -0.1429091841 0.5970970392 4279111190
-0.2876980007 -0.1422750503 0.5972199440 4279176983
-0.2873325348 -0.1414316148 0.5964612961 4279506718
-0.2873911858 -0.1407976300 0.5965830684 4279375132
-0.2874495983 -0.1401632577 0.5967043042 4279243546
-0.2870830595 -0.1393224001 0.5959434509 4279506718
-0.2871409059 -0.1386881918 0.5960634947 4279769890
-0.2871984839 -0.1380536109 0.5961830616 4279769890
-0.2876807749 -0.1376219243 0.5971841812 4279769890
-0.2873129547 -0.1367833018 0.5964206457 4279901476
-0.2873698175 -0.1361475736 0.5965387225 4279967269
-0.2870012522 -0.1353110224 0.5957736373 4279967269
-0.2866322994 -0.1344759613 0.5950076580 4279967269
-0.2866882682 -0.1338409930 0.5951238871 4279967269
-0.2867439985 -0.1332056671 0.5952395797 4280033062
-0.2867994606 -0.1325699538 0.5953547359 4280098855
-0.2864291072 -0.1317381263 0.5945859551 4280164648
-0.2864840329 -0.1311026365 0.5946999192 4280230441
-0.2861129344 -0.1302729100 0.5939295888 4280296232
-0.2857414484 -0.1294447184 0.5931584239 4280362025
-0.2857954502 -0.1288100332 0.5932705402 4280427820
-0.2858492136 -0.1281749755 0.5933821797 4280493613
-0.2859027684 -0.1275395602 0.5934932828 4280559406
-0.2859560251 -0.1269037873 0.5936039090 4280559406
-0.2860090733 -0.1262676716 0.5937139988 4280559404
-0.2860618532 -0.1256311983 0.5938235521 4280493611
-0.2856879830 -0.1248080879 0.5930474997 4280427818
-0.2853137255 -0.1239865273 0.5922705531 4280559404
-0.2853656113 -0.1233509034 0.5923782587 4280559406
-0.2849906385 -0.1225315034 0.5915998220 4280559406
-0.2846152484 -0.1217136532 0.5908205509 4280690992
-0.2842394412 -0.1208973750 0.5900405049 4280756785
-0.2838632464 -0.1200826541 0.5892595649 4280625710
-0.2839135826 -0.1194491237 0.5893640518 4280625710
-0.2835366726 -0.1186365858 0.5885816216 4280691505
-0.2831593454 -0.1178256273 0.5877983570 4280625712
-0.2832087874 -0.1171929985 0.5879009962 4280625712
-0.2832579911 -0.1165600419 0.5880030990 4280625712
-0.2837342322 -0.1161016077 0.5889917612 4280559919
-0.2829282582 -0.1151192486 0.5873185992 4280494126
-0.2834040821 -0.1146592051 0.5883063674 4280559919
-0.2826450169 -0.1130483076 0.5867306590 4280625710
-0.2822648883 -0.1122452468 0.5859416127 4280625710
-0.2823121250 -0.1116128936 0.5860396028 4280625710
-0.2819312811 -0.1108120754 0.5852490664 4280625710
-0.2815500200 -0.1100128591 0.5844576359 4280756783
-0.2820243239 -0.1095477119 0.5854421854 4280822576
-0.2812144160 -0.1085845158 0.5837609768 4280954162
-0.2808320820 -0.1077891663 0.5829672813 4280888369
-0.2804493308 -0.1069954336 0.5821727514 4280954164
-0.2804944515 -0.1063657030 0.5822664499 4280954164
-0.2805393338 -0.1057356745 0.5823595524 4280888371
-0.2814406753 -0.1054262742 0.5842306614 4280888371
-0.2806282938 -0.1044747084 0.5825442672 4280888371
-0.2806724012 -0.1038437784 0.5826358199 4280954164
-0.2807162404 -0.1032125503 0.5827268362 4280888371
-0.2816171348 -0.1028942540 0.5845969319 4280888371
-0.2808031738 -0.1019492149 0.5829073191 4280888371
-0.2812750340 -0.1014717892 0.5838868022 4280954164
-0.2813179493 -0.1008384228 0.5839758515 4281019957
-0.2817894816 -0.1003575251 0.5849547386 4280954164
-0.2822609246 -0.0998744071 0.5859333277 4280954164
-0.2818741500 -0.0990874246 0.5851304531 4281019957
-0.2819160819 -0.0984519497 0.5852175355 4281085750
-0.2823869288 -0.0979650766 0.5861949325 4281085750
-0.2819991708 -0.0971801504 0.5853900313 4280823091
-0.2820403576 -0.0965438336 0.5854754448 4280888884
-0.2820812464 -0.0959072337 0.5855603814 4280954677
-0.2821218967 -0.0952703655 0.5856447816 4281020470
-0.2821622789 -0.0946332142 0.5857285857 4281020470
-0.2822024226 -0.0939957947 0.5858119130 4281020470
-0.2822422683 -0.0933580995 0.5858946443 4281020470
-0.2827115357 -0.0928612649 0.5868687630 4280954677
-0.2823212445 -0.0920819119 0.5860585570 4281086263
-0.2827900946 -0.0915826038 0.5870318413 4281086263
-0.2828289866 -0.0909428671 0.5871125460 4281152056
-0.2828676105 -0.0903028771 0.5871927142 4281283642
-0.2829059660 -0.0896626189 0.5872723460 4281349435
-0.2829440534 -0.0890221074 0.5873514414 4281349435
-0.2834119499 -0.0885156468 0.5883227587 4281349435
-0.2830194533 -0.0877403021 0.5875079632 4281415228
-0.2830567658 -0.0870990157 0.5875854492 4281414713
-0.2830938101 -0.0864574835 0.5876623392 4281414713
-0.2831305861 -0.0858156905 0.5877386332 4281546301
-0.2831670940 -0.0851736590 0.5878144503 4281743680
-0.2832033634 -0.0845313743 0.5878897309 4281743682
-0.2828088701 -0.0837613493 0.5870708227 4281941061
-0.2828445435 -0.0831195563 0.5871448517 4282072906
-0.2833105028 -0.0826030523 0.5881121159 4282138699
-0.2837763131 -0.0820843577 0.5890790820 4281612353
-0.2842419446 -0.0815634653 0.5900456905 4282336076
-0.2842766941 -0.0809177756 0.5901178122 4282533709
-0.2847419679 -0.0803934708 0.5910836458 4287402391
-0.2860687375 -0.0801082700 0.5938377976 4292468449
-0.2807219625 -0.2280536145 0.5840853453 4292007649
-0.2808099091 -0.2274758965 0.5842683315 4288323241
-0.2808976769 -0.2268976420 0.5844509602 4283454047
-0.2809852958 -0.2263188362 0.5846332908 4282203980
-0.2814818621 -0.2260680795 0.5856664181 4282335566
-0.2815692425 -0.2254873365 0.5858482718 4282006601
-0.2816564739 -0.2249060720 0.5860297680 4282006601
-0.2813340127 -0.2239982039 0.5853588581 4281875015
-0.2810111344 -0.2230914980 0.5846870542 4282005831
-0.2806878388 -0.2221859545 0.5840143561 4282203210
-0.2795443237 -0.2206345350 0.5816351175 4281677635
-0.2788099051 -0.2194103450 0.5801070333 4281414463
-0.2768443823 -0.2172235698 0.5760174394 4280822326
-0.2777493000 -0.2172915190 0.5779002905 4279967017
-0.2770129740 -0.2160750926 0.5763682723 4281217084
-0.2766865194 -0.2151807994 0.5756889582 4285296250
-0.2767702639 -0.2146061063 0.5758632421 4285494142
-0.2772645950 -0.2143484503 0.5768917799 4286217865
-0.2781698704 -0.2144052535 0.5787753463 4289244343
-0.2826246619 -0.2086918354 0.5880442262 4288257189
-0.2827067077 -0.2080988735 0.5882149339 4287796638
-0.2827885449 -0.2075053751 0.5883852243 4287007122
-0.2824572623 -0.2066093087 0.5876958966 4286349192
-0.2829516828 -0.2063168585 0.5887246132 4285625469
-0.2830329835 -0.2057218254 0.5888937712 4285164918
-0.2831140757 -0.2051262707 0.5890625119 4284967539
-0.2831949890 -0.2045302242 0.5892308354 4284835953
-0.2832756937 -0.2039336562 0.5893988013 4284638572
-0.2833562195 -0.2033365816 0.5895663500 4284441193
-0.2834365666 -0.2027389854 0.5897334814 4283652190
-0.2835167050 -0.2021408975 0.5899002552 4282467916
-0.2835966647 -0.2015423030 0.5900666118 4280691505
-0.2832623124 -0.2006498426 0.5893709660 4279638817
-0.2829275131 -0.1997586340 0.5886743665 4279638304
-0.2826711535 -0.1982706934 0.5881409049 4279901476
-0.2827498019 -0.1976722032 0.5883045793 4279967269
-0.2828282416 -0.1970732212 0.5884677768 4279901476
-0.2829065025 -0.1964737326 0.5886306167 4279572511
-0.2829845548 -0.1958737522 0.5887930393 4279572511
-0.2830623984 -0.1952732801 0.5889550447 4279572511
-0.2835552394 -0.1949577481 0.5899804235 4279309339
-0.2836328149 -0.1943553984 0.5901418328 4279309339
-0.2837102115 -0.1937525570 0.5903028846 4279440925
-0.2837873995 -0.1931492239 0.5904634595 4279375132
-0.2838643789 -0.1925453991 0.5906236172 4279243544
-0.2839411795 -0.1919410825 0.5907834172 4279309337
-0.2840177417 -0.1913362741 0.5909427404 4279309850
-0.2840941548 -0.1907309741 0.5911017060 4279244057
-0.2841703296 -0.1901251972 0.5912601948 4279178264
-0.2846624851 -0.1897964031 0.5922842026 4279112471
-0.2847383618 -0.1891887635 0.5924420953 4279177753
-0.2848140597 -0.1885806322 0.5925996304 4279111960
-0.2848895490 -0.1879720092 0.5927566886 4279111960
-0.2849648297 -0.1873629093 0.5929133296 4279177753
-0.2850399017 -0.1867533326 0.5930694938 4279112473
-0.2846979499 -0.1858711392 0.5923579931 4279112473
-0.2847725153 -0.1852614880 0.5925131440 4279178266
-0.2848468423 -0.1846513599 0.5926678181 4279112473
-0.2849209905 -0.1840407550 0.5928220749 4279046680
-0.2849949300 -0.1834296733 0.5929759145 4279112473
-0.2850686610 -0.1828181148 0.5931293368 4279111960
-0.2851421833 -0.1822060794 0.5932822824 4279243546
-0.2852154970 -0.1815935820 0.5934348106 4279375132
-0.2852886021 -0.1809806079 0.5935869217 4279572511
-0.2853614688 -0.1803671569 0.5937386155 4279769890
-0.2854341567 -0.1797532439 0.5938898325 4279769890
-0.2855066359 -0.1791388690 0.5940405726 4279572509
-0.2855788767 -0.1785240173 0.5941909552 4279506716
-0.2856509387 -0.1779087037 0.5943408608 4279440923
-0.2853044271 -0.1770333350 0.5936198831 4279440923
-0.2857943773 -0.1766766608 0.5946393013 4279309337
-0.2858657837 -0.1760599613 0.5947878957 4279243544
-0.2859369814 -0.1754427850 0.5949360132 4279309592
-0.2855892181 -0.1745691895 0.5942124128 4279375385
-0.2856598794 -0.1739520133 0.5943594575 4279441178
-0.2857303023 -0.1733343601 0.5945060253 4279506971
-0.2858005464 -0.1727162600 0.5946521163 4279441438
-0.2858705521 -0.1720977128 0.5947977901 4279507231
-0.2859403491 -0.1714787036 0.5949429870 4279507229
-0.2860099077 -0.1708592474 0.5950877666 4279507229
-0.2860792875 -0.1702393293 0.5952320695 4279704095
-0.2857288420 -0.1693702638 0.5945029259 4279638302
-0.2857976556 -0.1687503606 0.5946461558 4279506716
-0.2858662605 -0.1681300104 0.5947888494 4279572509
-0.2859346271 -0.1675092131 0.5949311256 4279572509
-0.2860027850 -0.1668879688 0.5950729251 4279506716
-0.2860707343 -0.1662662923 0.5952143073 4279440923
-0.2861384451 -0.1656441689 0.5953552127 4279440923
-0.2857856750 -0.1647792757 0.5946211815 4279506716
-0.2858528495 -0.1641571820 0.5947609544 4279506716
-0.2859197855 -0.1635346562 0.5949002504 4279440923
-0.2859865129 -0.1629116833 0.5950390697 4279440923
-0.2860530317 -0.1622882932 0.5951774120 4279506716
-0.2861192822 -0.1616644561 0.5953153372 4279572509
-0.2861853540 -0.1610401869 0.5954527855 4279638815
-0.2862511873 -0.1604154855 0.5955897570 4279770401
-0.2863167822 -0.1597903520 0.5957262516 4279375643
-0.2863821685 -0.1591647863 0.5958622694 4279638815
-0.2864473164 -0.1585388035 0.5959978104 4280230439
-0.2865122259 -0.1579123884 0.5961328745 4284375398
-0.2872713506 -0.1410641521 0.5977123976 4284770158
-0.2877535522 -0.1406357288 0.5987156630 4281348922
-0.2873879671 -0.1397926658 0.5979549885 4278717202
-0.2874459028 -0.1391563565 0.5980755687 4279308569
-0.2875036001 -0.1385196447 0.5981956124 4279242776
-0.2875610590 -0.1378825605 0.5983151793 4279505948
-0.2871940732 -0.1370426714 0.5975515842 4279834913
-0.2872509658 -0.1364057660 0.5976699591 4280163878
-0.2868832350 -0.1355679333 0.5969048142 4279769120
-0.2869395316 -0.1349312067 0.5970219970 4279703327
-0.2865710855 -0.1340954602 0.5962553620 4279637534
-0.2866268158 -0.1334589422 0.5963713527 4279637536
-0.2866823375 -0.1328220367 0.5964868069 4279703329
-0.2863128185 -0.1319889575 0.5957179666 4279703329
-0.2863677442 -0.1313522607 0.5958322883 4279834915
-0.2859974802 -0.1305212677 0.5950618982 4279966753
-0.2860518396 -0.1298848093 0.5951750278 4280098339
-0.2856808603 -0.1290559173 0.5944030881 4280164132
-0.2857346535 -0.1284196824 0.5945150256 4280164132
-0.2857882082 -0.1277830750 0.5946264267 4280098853
-0.2858414948 -0.1271461099 0.5947373509 4280164646
-0.2858945429 -0.1265087873 0.5948477387 4280230439
-0.2859473526 -0.1258711219 0.5949575901 4280230439
-0.2855743468 -0.1250467449 0.5941814780 4280230439
-0.2852008939 -0.1242239028 0.5934044719 4280362025
-0.2852528095 -0.1235870793 0.5935124755 4280362538
-0.2853044868 -0.1229499057 0.5936200023 4280362538
-0.2845040858 -0.1219472811 0.5919546485 4280428331
-0.2845551074 -0.1213113219 0.5920608044 4280559917
-0.2841798067 -0.1204943731 0.5912799239 4280559917
-0.2838041186 -0.1196789965 0.5904982090 4280559917
-0.2834280133 -0.1188651845 0.5897157192 4280625712
-0.2834778130 -0.1182307303 0.5898193121 4280625712
-0.2835273445 -0.1175959483 0.5899223685 4280625712
-0.2831502259 -0.1167849526 0.5891376734 4280559919
-0.2840521932 -0.1165003106 0.5910143852 4280625712
-0.2832478881 -0.1155156419 0.5893409848 4280625712
-0.2832963765 -0.1148804948 0.5894417763 4280625712
-0.2833445966 -0.1142450273 0.5895421505 4280691505
-0.2829657495 -0.1134381369 0.5887539387 4280559919
-0.2825865448 -0.1126328334 0.5879648924 4280625712
-0.2826338410 -0.1119983196 0.5880633593 4280625710
-0.2818268836 -0.1110270321 0.5863843560 4280691503
-0.2814464867 -0.1102265343 0.5855928659 4280757296
-0.2810657024 -0.1094276458 0.5848005414 4280823089
-0.2811117172 -0.1087957025 0.5848963261 4280888882
-0.2807302177 -0.1079990715 0.5841025114 4280954675
-0.2807756662 -0.1073674709 0.5841971040 4280888884
-0.2812483013 -0.1068980321 0.5851804614 4280888884
-0.2808658183 -0.1061033607 0.5843846798 4280888884
-0.2809105217 -0.1054708511 0.5844777226 4280888884
-0.2809549868 -0.1048380435 0.5845701694 4280888884
-0.2814268768 -0.1043635383 0.5855520368 4280954677
-0.2810431123 -0.1035715193 0.5847535729 4280954677
-0.2810868025 -0.1029378176 0.5848444700 4280954677
-0.2815581262 -0.1024595350 0.5858251452 4280954677
-0.2811734080 -0.1016695276 0.5850246549 4281020470
-0.2812163234 -0.1010349393 0.5851139426 4280954677
-0.2816870809 -0.1005528867 0.5860934258 4280954677
-0.2817295492 -0.0999167562 0.5861818194 4280954677
-0.2817717791 -0.0992803425 0.5862696171 4280954677
-0.2818137109 -0.0986436382 0.5863569379 4280954677
-0.2822837830 -0.0981556028 0.5873349309 4280888884
-0.2818968594 -0.0973693877 0.5865299106 4281085752
-0.2819380462 -0.0967318416 0.5866156220 4281019959
-0.2819789648 -0.0960940197 0.5867007971 4281085752
-0.2820196450 -0.0954559147 0.5867853761 4281085752
-0.2820600569 -0.0948175341 0.5868694782 4281085752
-0.2821002007 -0.0941788852 0.5869529843 4281085752
-0.2825688720 -0.0936821252 0.5879281163 4281151545
-0.2821797132 -0.0929007679 0.5871184468 4281085752
-0.2826479971 -0.0924015269 0.5880927444 4281020216
-0.2826871574 -0.0917608216 0.5881742239 4281086009
-0.2827260494 -0.0911198556 0.5882551670 4281217595
-0.2827647030 -0.0904786289 0.5883355737 4281283388
-0.2828030586 -0.0898371339 0.5884154439 4281349181
-0.2832703888 -0.0893307328 0.5893877149 4281414974
-0.2828790247 -0.0885533765 0.5885735154 4281414974
-0.2829166353 -0.0879111066 0.5886517167 4281349181
-0.2829539478 -0.0872685835 0.5887293816 4281152054
-0.2829910219 -0.0866258070 0.5888064504 4281283640
-0.2830277979 -0.0859827846 0.5888830423 4281612605
-0.2830643356 -0.0853395015 0.5889590383 4281809984
-0.2831006050 -0.0846959800 0.5890344977 4281809732
-0.2831366062 -0.0840522051 0.5891094208 4281941318
-0.2831723392 -0.0834081918 0.5891837478 4282138699
-0.2832078040 -0.0827639326 0.5892575383 4282204492
-0.2841026187 -0.0823686570 0.5911193490 4281678146
-0.2841376662 -0.0817219540 0.5911922455 4281678146
-0.2846023738 -0.0811976790 0.5921591520 4281678398
-0.2850668728 -0.0806711987 0.5931256413 4283652188
-0.2855312526 -0.0801425353 0.5940918326 4289507764
-0.2791899145 -0.2286281735 0.5822432041 4292205028
-0.2792778313 -0.2280530632 0.5824265480 4288849585
-0.2789577544 -0.2271453142 0.5817590356 4285033078
-0.2794531584 -0.2269011885 0.5827922225 4282467151
-0.2795405984 -0.2263244390 0.5829745531 4281677636
-0.2796278298 -0.2257471532 0.5831564665 4281611843
-0.2797149122 -0.2251693308 0.5833380818 4281940808
-0.2798018456 -0.2245909572 0.5835193396 4281611843
-0.2798885703 -0.2240120471 0.5837002397 4281677636
-0.2799751461 -0.2234326154 0.5838807821 4281940808
-0.2792438567 -0.2222019583 0.5823556781 4282137417
-0.2789208591 -0.2212986499 0.5816820860 4282203210
-0.2777792215 -0.2197492421 0.5793012977 4281283391
-0.2770459056 -0.2185271680 0.5777719617 4281546563
-0.2754932344 -0.2166640908 0.5745338798 4281546050
-0.2755772769 -0.2160916477 0.5747091174 4281019706
-0.2752515376 -0.2151984274 0.5740298033 4281809222
-0.2749253809 -0.2143064141 0.5733496547 4285888388
-0.2758283615 -0.2143711597 0.5752327442 4285888901
-0.2767316401 -0.2144319713 0.5771165490 4288718000
-0.2772251666 -0.2141720206 0.5781458020 4291612892
-0.2816706002 -0.2084691077 0.5874166489 4287665309
-0.2813405097 -0.2075729072 0.5867282152 4286810000
-0.2818340659 -0.2072840035 0.5877575278 4286283399
-0.2815033495 -0.2063885033 0.5870678425 4285822848
-0.2819967866 -0.2060968429 0.5880968571 4285362297
-0.2816654742 -0.2052020580 0.5874059200 4285099125
-0.2821587324 -0.2049076259 0.5884346366 4284901744
-0.2822394371 -0.2043122500 0.5886029005 4284770158
-0.2819072008 -0.2034185380 0.5879100561 4284572779
-0.2819873989 -0.2028230131 0.5880773067 4284375400
-0.2820674181 -0.2022269815 0.5882441998 4284046948
-0.2821472585 -0.2016304582 0.5884106755 4283586397
-0.2818136513 -0.2007390708 0.5877149701 4282796881
-0.2823063135 -0.2004358619 0.5887423754 4282007365
-0.2819721103 -0.1995452195 0.5880454183 4281546560
-0.2820510566 -0.1989475489 0.5882100463 4281283388
-0.2825434804 -0.1986401975 0.5892370343 4281086009
-0.2826221585 -0.1980406344 0.5894010663 4280954423
-0.2822867334 -0.1971514970 0.5887015462 4280691251
-0.2823649049 -0.1965518147 0.5888645649 4280428079
-0.2824428678 -0.1959516406 0.5890271664 4280493872
-0.2825206518 -0.1953509748 0.5891893506 4280493872
-0.2825982273 -0.1947498024 0.5893511176 4280296493
-0.2826755941 -0.1941481382 0.5895125270 4280296493
-0.2831673920 -0.1938297749 0.5905380845 4280230700
-0.2828297615 -0.1929433346 0.5898340344 4280099114
-0.2833213806 -0.1926222146 0.5908592939 4280099368
-0.2833980918 -0.1920177042 0.5910192132 4280099368
-0.2834745944 -0.1914126873 0.5911787748 4280033575
-0.2835508883 -0.1908071935 0.5913379192 4279967782
-0.2836269736 -0.1902012080 0.5914965868 4279836196
-0.2837028801 -0.1895947307 0.5916548967 4279704610
-0.2841940820 -0.1892644763 0.5926792622 4279769890
-0.2842696607 -0.1886561513 0.5928369164 4279835683
-0.2843450904 -0.1880473346 0.5929941535 4279901476
-0.2844202816 -0.1874380261 0.5931509733 4279835683
-0.2844952643 -0.1868282408 0.5933073759 4279770403
-0.2845700681 -0.1862179786 0.5934633613 4279770403
-0.2842285037 -0.1853358746 0.5927510262 4279836196
-0.2843027711 -0.1847255379 0.5929059386 4279836196
-0.2843768299 -0.1841147244 0.5930603743 4279901476
-0.2844506800 -0.1835034341 0.5932143927 4279967269
-0.2845243216 -0.1828916669 0.5933679938 4280033062
-0.2845977545 -0.1822794378 0.5935211182 4279967269
-0.2846709788 -0.1816667169 0.5936738253 4280033062
-0.2847439945 -0.1810535342 0.5938261151 4280098855
-0.2848168314 -0.1804398894 0.5939779878 4280230441
-0.2848894298 -0.1798257530 0.5941293836 4280230441
-0.2849618196 -0.1792111695 0.5942803621 4280164648
-0.2850340009 -0.1785960943 0.5944308639 4280098855
-0.2851059437 -0.1779805720 0.5945809484 4280230441
-0.2851777077 -0.1773645729 0.5947306156 4280164648
-0.2852492630 -0.1767481118 0.5948798060 4280098853
-0.2853205800 -0.1761311889 0.5950285196 4280033060
-0.2849738300 -0.1752568334 0.5943054557 4280033060
-0.2850446403 -0.1746398956 0.5944530964 4279967267
-0.2851152122 -0.1740224957 0.5946002603 4279967267
-0.2851855755 -0.1734046340 0.5947470069 4279901474
-0.2852557302 -0.1727863252 0.5948933363 4279967782
-0.2853256762 -0.1721675545 0.5950391293 4280099368
-0.2853953838 -0.1715483218 0.5951845646 4280165161
-0.2854648829 -0.1709286422 0.5953294635 4280230954
-0.2855341733 -0.1703085154 0.5954739451 4280230954
-0.2851844430 -0.1694391221 0.5947446823 4280230954
-0.2852531970 -0.1688190103 0.5948880315 4280296747
-0.2853217125 -0.1681984365 0.5950309038 4280362540
-0.2853900194 -0.1675774157 0.5951733589 4280427820
-0.2854581177 -0.1669559628 0.5953153372 4280493613
-0.2855259776 -0.1663340628 0.5954568982 4280559404
-0.2855935991 -0.1657117158 0.5955979228 4280559404
-0.2856610417 -0.1650889218 0.5957385302 4280690990
-0.2857282162 -0.1644656956 0.5958787203 4280690990
-0.2857952118 -0.1638420224 0.5960183740 4280756783
-0.2858619690 -0.1632179171 0.5961575508 4280888369
-0.2859284878 -0.1625933796 0.5962963104 4281283127
-0.2859947979 -0.1619683951 0.5964345932 4281480506
-0.2856408060 -0.1611060649 0.5956963897 4281480506
-0.2857065499 -0.1604811400 0.5958334804 4281875264
-0.2857720852 -0.1598557830 0.5959701538 4282006850
-0.2858373821 -0.1592299938 0.5961063504 4282927952
-0.2859024704 -0.1586037725 0.5962420702 4284045919
-0.2859673202 -0.1579771340 0.5963773131 4286743432
