VERSION 0.7
FIELDS x y z rgba
SIZE 4 4 4 4
TYPE F F F U
COUNT 1 1 1 1
WIDTH 920
HEIGHT 1
VIEWPOINT 0.0 0.0 0.0 1.0 0.0 0.0 0.0
POINTS 920
DATA ascii
-0.2731843591 -0.0807957426 0.5619095564 4283848027
-0.2771220803 -0.0813270286 0.5700089931 4282795339
-0.2749882340 -0.0800723583 0.5656199455 4282269508
-0.2771914601 -0.0800804347 0.5701517463 4282466887
-0.2789611518 -0.0799541697 0.5737918019 4283914332
-0.2798632085 -0.0795731246 0.5756472349 4288190877
-0.2811991572 -0.0793103352 0.5783951283 4293125350
-0.3093203306 -0.0469481349 0.6362372041 4293322731
-0.3093405962 -0.0462442599 0.6362789273 4289440945
-0.3093605638 -0.0455402508 0.6363199949 4283716954
-0.3093802333 -0.0448361002 0.6363604069 4283388507
-0.3098359704 -0.0441940650 0.6372978687 4282862163
-0.3098550737 -0.0434886590 0.6373370886 4283125081
-0.3103102744 -0.0428433828 0.6382734179 4282269772
-0.3107652366 -0.0421959907 0.6392092705 4282927956
-0.3112199605 -0.0415464863 0.6401445270 4286546571
-0.3116744161 -0.0408948697 0.6410793066 4291810009
-0.3119571805 -0.0273862779 0.6416609287 4292862178
-0.3119689524 -0.0266743544 0.6416851878 4290954700
-0.3111065626 -0.0258896295 0.6399112940 4285954432
-0.3111177087 -0.0251795445 0.6399341822 4282533194
-0.3120024800 -0.0245381165 0.6417540908 4282927952
-0.3120130301 -0.0238258876 0.6417757869 4283256917
-0.3124602735 -0.0231459606 0.6426957846 4283717468
-0.3133442700 -0.0224953424 0.6445140243 4283125586
-0.3137909770 -0.0218102895 0.6454328299 4283454551
-0.3138003349 -0.0210937969 0.6454520822 4289506737
-0.2888567150 -0.2053852081 0.5955062509 4290428615
-0.2889383435 -0.2047814131 0.5956745744 4290232006
-0.2890197933 -0.2041771114 0.5958424807 4290100420
-0.2891010344 -0.2035723031 0.5960099697 4289968832
-0.2891820967 -0.2029669881 0.5961771011 4289705660
-0.2892629504 -0.2023611516 0.5963438153 4289376695
-0.2889260948 -0.2014636844 0.5956493020 4289310902
-0.2894240618 -0.2011479735 0.5966759324 4289047730
-0.2895043492 -0.2005406171 0.5968414545 4288587179
-0.2895843983 -0.1999327689 0.5970064998 4288126112
-0.2896642685 -0.1993244141 0.5971711278 4286941838
-0.2897439301 -0.1987155527 0.5973353982 4285823356
-0.2902416289 -0.1983920634 0.5983614326 4285099633
-0.2899026871 -0.1974963248 0.5976626277 4284375910
-0.2904001772 -0.1971700639 0.5986883044 4284112738
-0.2904791534 -0.1965583265 0.5988511443 4284112738
-0.2905579507 -0.1959460825 0.5990135670 4284046945
-0.2906365097 -0.1953333467 0.5991755128 4284112738
-0.2907148898 -0.1947201043 0.5993371010 4283849566
-0.2907930315 -0.1941063702 0.5994982123 4283454808
-0.2908709943 -0.1934921443 0.5996589661 4283191636
-0.2909487486 -0.1928774267 0.5998192430 4282928464
-0.2910262942 -0.1922622174 0.5999791026 4282665292
-0.2906841934 -0.1913703680 0.5992738008 4282467656
-0.2907612026 -0.1907550544 0.5994325876 4282007105
-0.2904183269 -0.1898648888 0.5987257361 4282007105
-0.2900750339 -0.1889760196 0.5980179906 4281743933
-0.2901512086 -0.1883610338 0.5981750488 4281414713
-0.2902271748 -0.1877455562 0.5983316898 4281217334
-0.2898828387 -0.1868588030 0.5976217389 4280954162
-0.2895380259 -0.1859733313 0.5969108939 4280625197
-0.2896131575 -0.1853581965 0.5970658064 4280230439
-0.2896880805 -0.1847425997 0.5972202420 4279967267
-0.2893422246 -0.1838592738 0.5965071917 4280098087
-0.2889959216 -0.1829772592 0.5957933068 4280032294
-0.2894907594 -0.1826274544 0.5968134403 4280032294
-0.2887229621 -0.1814817488 0.5952305794 4280032294
-0.2879545093 -0.1803391427 0.5936463475 4280032294
-0.2880276144 -0.1797251701 0.5937970877 4280098087
-0.2876793146 -0.1788488775 0.5930789709 4280163878
-0.2869092822 -0.1777129620 0.5914914608 4280229671
-0.2865600288 -0.1768402308 0.5907714367 4280163878
-0.2857888043 -0.1757096946 0.5891815424 4280229671
-0.2854385972 -0.1748405546 0.5884594917 4280229671
-0.2850879431 -0.1739727557 0.5877366066 4280295464
-0.2847368717 -0.1731062979 0.5870128870 4280295464
-0.2843854129 -0.1722412109 0.5862882733 4280361257
-0.2844555378 -0.1716321111 0.5864328146 4280427050
-0.2845254540 -0.1710225791 0.5865769982 4280492843
-0.2841728926 -0.1701597422 0.5858501792 4280427304
-0.2842423022 -0.1695502102 0.5859932303 4280493097
-0.2838889956 -0.1686892062 0.5852648616 4280493097
-0.2839578688 -0.1680796891 0.5854068398 4280558890
-0.2836038470 -0.1672205180 0.5846769810 4280558890
-0.2836721539 -0.1666110307 0.5848178267 4280624683
-0.2837402523 -0.1660010964 0.5849581957 4280624683
-0.2833851576 -0.1651442349 0.5842261910 4280690476
-0.2830296755 -0.1642887592 0.5834932923 4280690222
-0.2826737463 -0.1634346843 0.5827594995 4280690222
-0.2827406824 -0.1628257334 0.5828974843 4280690222
-0.2823840082 -0.1619735211 0.5821622014 4280690222
-0.2824504077 -0.1613646299 0.5822991133 4280756015
-0.2825165689 -0.1607553065 0.5824354887 4280690222
-0.2825825214 -0.1601455510 0.5825714469 4280690222
-0.2826482654 -0.1595353633 0.5827069879 4280690222
-0.2827137709 -0.1589247733 0.5828420520 4280559406
-0.2832030356 -0.1585510969 0.5838506818 4280493613
-0.2828441262 -0.1577022970 0.5831108093 4280493615
-0.2829089761 -0.1570904255 0.5832444429 4280493615
-0.2825493515 -0.1562435329 0.5825030804 4280493615
-0.2826136649 -0.1556317359 0.5826356411 4280559408
-0.2822532952 -0.1547867656 0.5818927288 4280493615
-0.2818925083 -0.1539432257 0.5811489224 4280493615
-0.2819559574 -0.1533320248 0.5812797546 4280625199
-0.2815944552 -0.1524904072 0.5805344582 4280296234
-0.2816573381 -0.1518793106 0.5806640983 4279704095
-0.2812951207 -0.1510396451 0.5799173117 4280493611
-0.2813574672 -0.1504286528 0.5800458789 4280822576
-0.2814195752 -0.1498172581 0.5801739693 4280690990
-0.2814815044 -0.1492054611 0.5803015828 4280559406
-0.2815431654 -0.1485932469 0.5804287195 4280756785
-0.2811792195 -0.1477571130 0.5796784163 4280887601
-0.2812403738 -0.1471450329 0.5798044205 4280887601
-0.2808756828 -0.1463108659 0.5790526271 4280887601
-0.2809362710 -0.1456989199 0.5791775584 4280953394
-0.2809966207 -0.1450865716 0.5793019533 4280953394
-0.2806309164 -0.1442549378 0.5785480142 4280953394
-0.2806907296 -0.1436427385 0.5786713362 4281019187
-0.2807503045 -0.1430301368 0.5787941217 4281019187
-0.2808096409 -0.1424171627 0.5789164901 4281084980
-0.2808687687 -0.1418037862 0.5790383816 4281150773
-0.2809276581 -0.1411900222 0.5791597366 4281150773
-0.2809863091 -0.1405758858 0.5792806745 4281150773
-0.2810447216 -0.1399613619 0.5794011354 4281150773
-0.2811029255 -0.1393464506 0.5795211196 4281216566
-0.2807342410 -0.1385206431 0.5787610412 4281150773
-0.2807918787 -0.1379059106 0.5788798332 4281150773
-0.2804224491 -0.1370821446 0.5781182647 4280954164
-0.2804795504 -0.1364675909 0.5782359838 4280888371
-0.2801094055 -0.1356458813 0.5774728656 4280822578
-0.2801659405 -0.1350315213 0.5775893927 4280690992
-0.2797950804 -0.1342118680 0.5768248439 4280493613
-0.2794238031 -0.1333937347 0.5760594010 4280362027
-0.2790521085 -0.1325771064 0.5752931833 4280362027
-0.2786800265 -0.1317619979 0.5745260715 4280427820
-0.2787350416 -0.1311495453 0.5746394992 4280362027
-0.2783622444 -0.1303365231 0.5738709569 4280362027
-0.2775613666 -0.1293257475 0.5722198486 4280362027
-0.2763321400 -0.1281200498 0.5696856976 4280427820
-0.2751021981 -0.1269196570 0.5671500564 4280493613
-0.2742994726 -0.1259209961 0.5654950738 4280559406
-0.2726401389 -0.1245347559 0.5620742440 4280559406
-0.2718361020 -0.1235448271 0.5604166389 4280559406
-0.2714596689 -0.1227519438 0.5596405864 4280559408
-0.2719393671 -0.1223459542 0.5606294870 4280559408
-0.2719906271 -0.1217460111 0.5607352257 4280625201
-0.2720416784 -0.1211457253 0.5608404875 4280690994
-0.2716639936 -0.1203552708 0.5600618720 4280690994
-0.2717145085 -0.1197552606 0.5601659417 4280690994
-0.2717647851 -0.1191549152 0.5602695942 4280690992
-0.2713860869 -0.1183672398 0.5594888926 4280690992
-0.2714357972 -0.1177671775 0.5595913529 4280690992
-0.2714852691 -0.1171667874 0.5596933961 4280690992
-0.2711055577 -0.1163819209 0.5589105487 4280625199
-0.2711544931 -0.1157818288 0.5590114594 4280625199
-0.2707740664 -0.1149991602 0.5582271814 4280625199
-0.2708224654 -0.1143993735 0.5583269596 4280559406
-0.2704413533 -0.1136189103 0.5575412512 4280559406
-0.2700598538 -0.1128400415 0.5567547083 4280559406
-0.2701073587 -0.1122411937 0.5568526983 4280427822
-0.2701546550 -0.1116420329 0.5569502115 4280362029
-0.2702017128 -0.1110425591 0.5570471883 4280427822
-0.2698188722 -0.1102671921 0.5562579632 4280362029
-0.2690059543 -0.1093187854 0.5545819998 4280427822
-0.2694818676 -0.1088949218 0.5555631518 4280362029
-0.2690979540 -0.1081233919 0.5547716618 4279967271
-0.2687136531 -0.1073534712 0.5539793968 4279769892
-0.2687589824 -0.1067559719 0.5540729165 4280033064
-0.2683739960 -0.1059883162 0.5532792211 4279901478
-0.2679886222 -0.1052222699 0.5524846911 4279967271
-0.2680773437 -0.1040289998 0.5526676178 4280296236
-0.2685517371 -0.1035979390 0.5536456108 4280362029
-0.2681651115 -0.1028345451 0.5528485775 4280362029
-0.2682086527 -0.1022368819 0.5529382825 4280427822
-0.2678213418 -0.1014757827 0.5521398187 4280624429
-0.2678643167 -0.1008784994 0.5522284508 4280624429
-0.2679070532 -0.1002809331 0.5523165464 4280690222
-0.2675187588 -0.0995228142 0.5515159965 4280756015
-0.2671300769 -0.0987663344 0.5507147312 4280821808
-0.2671719790 -0.0981698409 0.5508010983 4280953394
-0.2667826116 -0.0974156857 0.5499984026 4281084980
-0.2668239474 -0.0968195945 0.5500835776 4281150773
-0.2668650150 -0.0962232277 0.5501682758 4280953394
-0.2669058740 -0.0956265852 0.5502524972 4280953394
-0.2665152252 -0.0948761478 0.5494471192 4281084980
-0.2661241889 -0.0941273719 0.5486410260 4281216566
-0.2661641836 -0.0935318470 0.5487234592 4281282359
-0.2662039399 -0.0929360539 0.5488054156 4281348152
-0.2658119202 -0.0921903327 0.5479972363 4281413947
-0.2662827075 -0.0917436630 0.5489677787 4281479740
-0.2667533755 -0.0912948027 0.5499380827 4281479738
-0.2663604915 -0.0905502290 0.5491281748 4281545531
-0.2668308020 -0.0900989100 0.5500977039 4281611324
-0.2668691576 -0.0895005763 0.5501767993 4281808703
-0.2660434842 -0.0886142701 0.5484746099 4281874496
-0.2669451237 -0.0883031338 0.5503333807 4281874496
-0.2665507197 -0.0875621140 0.5495203137 4281940289
-0.2661559582 -0.0868227780 0.5487064719 4282071875
-0.2666251063 -0.0863650888 0.5496736765 4282071875
-0.2666619122 -0.0857662037 0.5497495532 4282466633
-0.2662662268 -0.0850290433 0.5489338040 4283453528
-0.2663024962 -0.0844306350 0.5490086079 4283848286
-0.2667708993 -0.0839680731 0.5499742031 4283124563
-0.2668067217 -0.0833682120 0.5500481129 4282532426
-0.2668423057 -0.0827681050 0.5501214862 4282795598
-0.2677427232 -0.0824341103 0.5519777536 4283190356
-0.2686431408 -0.0820959732 0.5538340211 4283255892
-0.2712741196 -0.0822786167 0.5592580438 4284242787
-0.2700111270 -0.0812770724 0.5566543341 4284703595
-0.2717769444 -0.0811860710 0.5602946877 4283848286
-0.2739757299 -0.0812153444 0.5648277402 4282729805
-0.2748762071 -0.0808526427 0.5666841269 4281611324
-0.2757766545 -0.0804858133 0.5685404539 4281479992
-0.2745121121 -0.0794879645 0.5659335256 4281414199
-0.2767113149 -0.0794909373 0.5704674125 4281414198
-0.2771784365 -0.0789902210 0.5714303851 4283585367
-0.3074414134 -0.0467698015 0.6338204741 4291677906
-0.3074615598 -0.0460686050 0.6338620186 4285822076
-0.3074814379 -0.0453672670 0.6339029670 4283190356
-0.3075009882 -0.0446657985 0.6339433193 4283124565
-0.3079558313 -0.0440264679 0.6348810196 4283256151
-0.3079748154 -0.0433237404 0.6349201202 4282598221
-0.3084291220 -0.0426811650 0.6358567476 4282795600
-0.3093188405 -0.0420957692 0.6376909614 4284375400
-0.3097726703 -0.0414479710 0.6386266351 4290296770
-0.3097905517 -0.0407407619 0.6386634707 4293323246
-0.3105079532 -0.0273214690 0.6401424408 4292533215
-0.3096474409 -0.0265364815 0.6383684278 4290296770
-0.3087865710 -0.0257554054 0.6365936995 4284967537
-0.3101061285 -0.0251551419 0.6393139958 4282927954
-0.3105531037 -0.0244800523 0.6402354836 4283191126
-0.3118721545 -0.0238696616 0.6429548860 4283125331
-0.3110100031 -0.0230912808 0.6411774755 4283256917
-0.3110199273 -0.0223795995 0.6411979198 4282533449
-0.3110295236 -0.0216678530 0.6412177086 4285428341
-0.3114750385 -0.0209854301 0.6421362162 4291349711
-0.2873963118 -0.2054756135 0.5938553214 4290363592
-0.2874778211 -0.2048738897 0.5940237045 4290100420
-0.2875591218 -0.2042716444 0.5941917300 4290100420
-0.2876402438 -0.2036688924 0.5943593979 4289837248
-0.2877211869 -0.2030656338 0.5945265889 4289705660
-0.2878018916 -0.2024618685 0.5946934223 4289508281
-0.2878824472 -0.2018575966 0.5948598385 4289179316
-0.2879627943 -0.2012528032 0.5950258374 4289047730
-0.2876260877 -0.2003571540 0.5943300724 4288652972
-0.2881228626 -0.2000417262 0.5953566432 4287929249
-0.2882026136 -0.1994354278 0.5955213904 4286547080
-0.2882821560 -0.1988286227 0.5956857800 4285231220
-0.2883615196 -0.1982213259 0.5958497524 4284441704
-0.2884406745 -0.1976135224 0.5960133076 4284178532
-0.2889371514 -0.1972903162 0.5970392227 4283915359
-0.2890160382 -0.1966806352 0.5972021818 4283981152
-0.2890946865 -0.1960704476 0.5973647237 4284112738
-0.2891731560 -0.1954597682 0.5975268483 4283915359
-0.2892514169 -0.1948485970 0.5976885557 4283783773
-0.2893294692 -0.1942369193 0.5978498459 4283783773
-0.2894073427 -0.1936247498 0.5980107188 4283652187
-0.2899033129 -0.1932910085 0.5990356207 4283191636
-0.2899808586 -0.1926769763 0.5991958380 4282731085
-0.2900582254 -0.1920624375 0.5993556976 4282533706
-0.2897166908 -0.1911711693 0.5986499786 4282336327
-0.2897935212 -0.1905565411 0.5988087654 4282204741
-0.2898701429 -0.1899414212 0.5989670753 4282204229
-0.2895275652 -0.1890522391 0.5982591510 4281941057
-0.2891845405 -0.1881643385 0.5975503922 4281677885
-0.2892603278 -0.1875495464 0.5977069736 4281546299
-0.2893358767 -0.1869342774 0.5978631377 4281348920
-0.2894112468 -0.1863185167 0.5980188251 4281217334
-0.2890668511 -0.1854331493 0.5973072052 4280954162
-0.2891416848 -0.1848173290 0.5974618196 4280690990
-0.2892163098 -0.1842010319 0.5976160169 4280295466
-0.2888708413 -0.1833178103 0.5969021916 4280032294
-0.2885249555 -0.1824359000 0.5961874723 4279834915
-0.2881786525 -0.1815553159 0.5954718590 4279703329
-0.2878319025 -0.1806760430 0.5947554111 4279637536
-0.2879050374 -0.1800609678 0.5949065089 4279769122
-0.2875575423 -0.1791834533 0.5941884518 4279900706
-0.2867891192 -0.1780462116 0.5926006436 4279900706
-0.2864406705 -0.1771722734 0.5918806791 4279900706
-0.2860918045 -0.1762996614 0.5911598206 4279966499
-0.2857425213 -0.1754284054 0.5904380679 4279966499
-0.2845509350 -0.1740435660 0.5879758596 4279966499
-0.2850426733 -0.1736899167 0.5889919400 4280032292
-0.2842709720 -0.1725670397 0.5873973370 4280032292
-0.2843411267 -0.1719568223 0.5875422955 4280098085
-0.2844110727 -0.1713461727 0.5876868367 4280098085
-0.2844808102 -0.1707350612 0.5878309608 4280164132
-0.2841287851 -0.1698714644 0.5871034861 4280164132
-0.2837763131 -0.1690092385 0.5863752365 4280229925
-0.2838451862 -0.1683985889 0.5865175128 4280295718
-0.2839138508 -0.1677875072 0.5866594315 4280361511
-0.2835603356 -0.1669275761 0.5859289169 4280427304
-0.2836284637 -0.1663165241 0.5860697031 4280427304
-0.2836963832 -0.1657050252 0.5862100124 4280493097
-0.2829195261 -0.1646017283 0.5846047997 4280427304
-0.2829868197 -0.1639911830 0.5847438574 4280493097
-0.2826313972 -0.1631363481 0.5840094686 4280493097
-0.2826981246 -0.1625258327 0.5841473341 4280493097
-0.2823419869 -0.1616728753 0.5834113955 4280624429
-0.2824081779 -0.1610624194 0.5835481882 4280624429
-0.2824741602 -0.1604515314 0.5836845636 4280624429
-0.2825399339 -0.1598402113 0.5838204026 4280690222
-0.2826054692 -0.1592284739 0.5839558840 4280493613
-0.2830939591 -0.1588537544 0.5849652290 4280427820
-0.2827358842 -0.1580037177 0.5842253566 4280493613
-0.2828007638 -0.1573907137 0.5843594074 4280493613
-0.2824419439 -0.1565425843 0.5836179852 4280559408
-0.2820827365 -0.1556958705 0.5828757286 4280559408
-0.2821467519 -0.1550834477 0.5830079913 4280493613
-0.2822105289 -0.1544705927 0.5831398368 4280493613
-0.2818502784 -0.1536263078 0.5823953748 4280625199
-0.2814895809 -0.1527834684 0.5816500783 4280230441
-0.2815525234 -0.1521712244 0.5817801356 4279769888
-0.2811911106 -0.1513303071 0.5810332894 4280362025
-0.2812534869 -0.1507181674 0.5811622143 4280756783
-0.2813156247 -0.1501056254 0.5812906623 4280756783
-0.2813775539 -0.1494926661 0.5814186335 4280559406
-0.2814392745 -0.1488793194 0.5815461278 4280690992
-0.2810761631 -0.1480419338 0.5807958245 4280756015
-0.2811373174 -0.1474286914 0.5809221864 4280821808
-0.2807734907 -0.1465932876 0.5801703930 4280887601
-0.2808340788 -0.1459801793 0.5802956223 4280887601
-0.2808944881 -0.1453666836 0.5804203749 4280887601
-0.2809546292 -0.1447527856 0.5805447102 4280953394
-0.2805894315 -0.1439204365 0.5797900558 4280953394
-0.2806490362 -0.1433066726 0.5799131989 4281084980
-0.2807084024 -0.1426925361 0.5800358653 4281084980
-0.2807675302 -0.1420779973 0.5801581144 4281216566
-0.2808264494 -0.1414630860 0.5802798271 4281150773
-0.2808851302 -0.1408477724 0.5804011226 4281150773
-0.2809436023 -0.1402320862 0.5805218816 4281282359
-0.2810018063 -0.1396160126 0.5806421638 4281216566
-0.2806339562 -0.1387889534 0.5798820853 4281150773
-0.2806916237 -0.1381730437 0.5800012350 4281216566
-0.2803230286 -0.1373480260 0.5792396069 4281217336
-0.2799540460 -0.1365245134 0.5784771442 4281151543
-0.2800108194 -0.1359093487 0.5785945058 4281085750
-0.2796411216 -0.1350878775 0.5778305531 4280954164
-0.2796973586 -0.1344729066 0.5779467225 4280822578
-0.2793269157 -0.1336535215 0.5771812797 4280756785
-0.2789560556 -0.1328356266 0.5764149427 4280690992
-0.2785848081 -0.1320192516 0.5756478310 4280690992
-0.2786398530 -0.1314056367 0.5757615566 4280625199
-0.2782678604 -0.1305913478 0.5749929547 4280559406
-0.2770417333 -0.1293798834 0.5724593401 4280493615
-0.2762418389 -0.1283721179 0.5708065033 4280493615
-0.2750143111 -0.1271702945 0.5682700276 4280493615
-0.2737860680 -0.1259737611 0.5657320619 4280559408
-0.2729842961 -0.1249781325 0.5640753508 4280493615
-0.2726092637 -0.1241805628 0.5633004308 4280493615
-0.2718064785 -0.1231908426 0.5616415739 4280690224
-0.2714305520 -0.1223973110 0.5608648062 4280690224
-0.2714817822 -0.1217971295 0.5609706640 4280690224
-0.2715327740 -0.1211966127 0.5610760450 4280690224
-0.2715835273 -0.1205957532 0.5611809492 4280625201
-0.2712062895 -0.1198055968 0.5604014397 4280625201
-0.2712565064 -0.1192050204 0.5605052114 4280559406
-0.2708785534 -0.1184170321 0.5597242117 4280559406
-0.2709282339 -0.1178167388 0.5598268509 4280559406
-0.2709776759 -0.1172161102 0.5599290133 4280559406
-0.2710268795 -0.1166151613 0.5600306392 4280559408
-0.2697910964 -0.1154640540 0.5574771762 4280493615
-0.2706962526 -0.1152299494 0.5593474507 4280493613
-0.2694594860 -0.1140848473 0.5567919016 4280493613
-0.2695074379 -0.1134864092 0.5568910241 4280493613
-0.2695551515 -0.1128876433 0.5569896102 4280559406
-0.2696498632 -0.1116891652 0.5571852922 4280427820
-0.2692680955 -0.1109128445 0.5563964844 4280493613
-0.2689323425 -0.1095396876 0.5557026863 4280493613
-0.2689784765 -0.1089409515 0.5557980537 4280296234
-0.2685953379 -0.1081691161 0.5550063252 4279901476
-0.2686409354 -0.1075707227 0.5551005006 4279835683
-0.2682570815 -0.1068011448 0.5543073416 4279835683
-0.2683021426 -0.1062031090 0.5544004440 4279901476
-0.2674882412 -0.1052668244 0.5527186990 4280033062
-0.2679620981 -0.1048381105 0.5536978245 4280230441
-0.2680063546 -0.1042401344 0.5537893176 4280492843
-0.2676208317 -0.1034757644 0.5529926419 4280492843
-0.2676645219 -0.1028781533 0.5530830026 4280492843
-0.2677080035 -0.1022802442 0.5531728268 4280558636
-0.2677512467 -0.1016820520 0.5532621741 4280690222
-0.2673644125 -0.1009213179 0.5524628162 4280624429
-0.2669771910 -0.1001622155 0.5516626835 4280624429
-0.2670195699 -0.0995650813 0.5517502427 4280690222
-0.2666316628 -0.0988082960 0.5509487391 4280690222
-0.2662433684 -0.0980531573 0.5501464009 4280821808
-0.2658547163 -0.0972996578 0.5493432879 4280953394
-0.2663261890 -0.0968607664 0.5503175259 4280953394
-0.2659369111 -0.0961086452 0.5495131612 4280887601
-0.2655472755 -0.0953581780 0.5487080216 4280887601
-0.2655876875 -0.0947629437 0.5487915277 4280887601
-0.2651973665 -0.0940148234 0.5479850173 4281019187
-0.2656678259 -0.0935716778 0.5489571691 4281019187
-0.2653163075 -0.0922296196 0.5482307673 4281150773
-0.2657862306 -0.0917827711 0.5492017865 4281216566
-0.2658639550 -0.0905888528 0.5493623614 4281282359
-0.2654714882 -0.0898456424 0.5485514402 4281413945
-0.2650786638 -0.0891041160 0.5477396846 4281545531
-0.2655476034 -0.0886520967 0.5487087369 4281611324
-0.2655853033 -0.0880549476 0.5487866402 4281677117
-0.2651915550 -0.0873155594 0.5479730368 4281611324
-0.2656599879 -0.0868598744 0.5489408970 4281677117
-0.2656969428 -0.0862619653 0.5490173101 4282006082
-0.2653023005 -0.0855247378 0.5482017994 4283124563
-0.2657701373 -0.0850654021 0.5491685867 4283914079
-0.2658063769 -0.0844667479 0.5492434502 4282795598
-0.2676402926 -0.0832061470 0.5530329347 4281742910
-0.2672440410 -0.0824694037 0.5522140861 4281479738
-0.2685745955 -0.0822633952 0.5549634695 4282203204
-0.2694733739 -0.0819200203 0.5568206310 4283321685
-0.2703721225 -0.0815725103 0.5586777329 4283256149
-0.2725667357 -0.0816088691 0.5632125139 4282137668
-0.2721695602 -0.0808650926 0.5623918176 4281413945
-0.2748310864 -0.0803939328 0.5678914189 4280427303
-0.2757297754 -0.0800237879 0.5697484612 4280295717
-0.2748995125 -0.0791516900 0.5680328012 4280493096
-0.2766624689 -0.0790241286 0.5716756582 4280229924
-0.2775609195 -0.0786435232 0.5735321641 4284967788
-0.2771621346 -0.0778942108 0.5727081895 4291941846
-0.3059808612 -0.0473569259 0.6322571039 4293256426
-0.3060012460 -0.0466575511 0.6322992444 4288585123
-0.3060213327 -0.0459580384 0.6323407292 4283716700
-0.3060411215 -0.0452583879 0.6323816180 4283321942
-0.3064953387 -0.0446218960 0.6333202124 4282992979
-0.3065145612 -0.0439209864 0.6333599091 4282795600
-0.3069682717 -0.0432812497 0.6342974305 4282466635
-0.3078565598 -0.0426997021 0.6361328959 4283453530
-0.3078749478 -0.0419954211 0.6361709237 4287335315
-0.3083278835 -0.0413493365 0.6371068358 4292927720
-0.3090492189 -0.0279650502 0.6385973096 4293717489
-0.3090612292 -0.0272565838 0.6386221647 4291217355
-0.3090729117 -0.0265480336 0.6386463046 4286020738
-0.3090843260 -0.0258394051 0.6386698484 4282270537
-0.3086600602 -0.0250953026 0.6377932429 4283191639
-0.3086708188 -0.0243875198 0.6378154755 4283257432
-0.3095520437 -0.0237464607 0.6396363378 4282994258
-0.3095622063 -0.0230365358 0.6396573782 4282336328
-0.3095721006 -0.0223265421 0.6396777630 4282927952
-0.3095816374 -0.0216164831 0.6396975517 4288586150
-0.3091554642 -0.0208769534 0.6388168931 4292994536
-0.2861014307 -0.2043620199 0.5925395489 4290232008
-0.2857670784 -0.2034655809 0.5918470621 4290034627
-0.2858477533 -0.2028652579 0.5920141339 4289705662
-0.2859282196 -0.2022644281 0.5921808481 4289442490
-0.2864242196 -0.2019561976 0.5932080746 4289245111
-0.2865044475 -0.2013534755 0.5933742523 4288981937
-0.2870004177 -0.2010416090 0.5944014192 4288784558
-0.2866642773 -0.2001465112 0.5937052965 4288126630
-0.2867439091 -0.1995422840 0.5938701630 4287139735
-0.2868233323 -0.1989375353 0.5940346718 4285363322
-0.2869025767 -0.1983322948 0.5941988230 4284705392
-0.2873981297 -0.1980135292 0.5952251554 4284507497
-0.2874770761 -0.1974064112 0.5953886509 4284441704
-0.2875558436 -0.1967987865 0.5955517292 4284178532
-0.2876344025 -0.1961906552 0.5957144499 4284178532
-0.2877127528 -0.1955820471 0.5958766937 4284046948
-0.2877908945 -0.1949729174 0.5960385799 4283652190
-0.2878688276 -0.1943633109 0.5961999893 4284178532
-0.2879465818 -0.1937531978 0.5963610411 4283586395
-0.2884415686 -0.1934225261 0.5973861217 4283454809
-0.2885189950 -0.1928105354 0.5975465775 4283389016
-0.2885962427 -0.1921980679 0.5977065563 4283257430
-0.2886733115 -0.1915851086 0.5978661180 4282796879
-0.2887501419 -0.1909716576 0.5980252624 4282402121
-0.2888267636 -0.1903577149 0.5981839299 4282533707
-0.2884851098 -0.1894686818 0.5974763036 4282664780
-0.2885611951 -0.1888546646 0.5976339579 4282401608
-0.2882187963 -0.1879673302 0.5969247818 4282138436
-0.2882943749 -0.1873532236 0.5970813036 4281875264
-0.2883697450 -0.1867386401 0.5972374678 4281743680
-0.2884449363 -0.1861235648 0.5973930955 4281677887
-0.2881011367 -0.1852387786 0.5966811180 4281480508
-0.2881757617 -0.1846236438 0.5968356729 4281217336
-0.2882502079 -0.1840080321 0.5969898105 4280887601
-0.2883244157 -0.1833919436 0.5971435308 4280558636
-0.2879792452 -0.1825097054 0.5964286923 4280229671
-0.2880529463 -0.1818935722 0.5965812802 4279966499
-0.2877070308 -0.1810130924 0.5958648324 4279769120
-0.2873606682 -0.1801339239 0.5951475501 4279637534
-0.2870139182 -0.1792560965 0.5944293737 4279703327
-0.2866667211 -0.1783796102 0.5937103033 4279637534
-0.2863191068 -0.1775044352 0.5929903388 4279703327
-0.2859710455 -0.1766306162 0.5922695398 4279769120
-0.2856225967 -0.1757581383 0.5915477872 4279769120
-0.2852737010 -0.1748870015 0.5908252597 4279769120
-0.2849243879 -0.1740172058 0.5901017785 4279834913
-0.2845746577 -0.1731487662 0.5893774629 4279834913
-0.2846449316 -0.1725365222 0.5895230174 4279834913
-0.2842944562 -0.1716699004 0.5887971520 4279834913
-0.2843642235 -0.1710576564 0.5889416337 4279835167
-0.2844337523 -0.1704449803 0.5890856981 4279900960
-0.2840822339 -0.1695806235 0.5883576274 4279900960
-0.2841512561 -0.1689679474 0.5885005593 4279966753
-0.2842200398 -0.1683548242 0.5886430144 4280032546
-0.2838674486 -0.1674927622 0.5879127979 4280098339
-0.2835144401 -0.1666320711 0.5871816874 4280164132
-0.2835823894 -0.1660194397 0.5873223543 4280164132
-0.2832286358 -0.1651606113 0.5865897536 4280098339
-0.2828744650 -0.1643031538 0.5858561993 4280164132
-0.2829415500 -0.1636910290 0.5859951377 4280229925
-0.2825866342 -0.1628354341 0.5852601528 4280295718
-0.2826531827 -0.1622233689 0.5853979588 4280361511
-0.2827195227 -0.1616108716 0.5855352879 4280361511
-0.2827856243 -0.1609979272 0.5856722593 4280361511
-0.2824293375 -0.1601451784 0.5849343538 4280361511
-0.2824949026 -0.1595323086 0.5850701332 4280296234
-0.2825602591 -0.1589190066 0.5852054954 4280296234
-0.2826253772 -0.1583052725 0.5853403807 4280362027
-0.2822677195 -0.1574554145 0.5845996141 4280427820
-0.2819096446 -0.1566069722 0.5838580132 4280427818
-0.2819739282 -0.1559938192 0.5839911103 4280493611
-0.2816151083 -0.1551472843 0.5832480192 4280427818
-0.2816788256 -0.1545342207 0.5833799839 4280427818
-0.2817423344 -0.1539207250 0.5835114717 4280559406
-0.2813824713 -0.1530766338 0.5827661753 4280362027
-0.2814454138 -0.1524632424 0.5828965902 4280033062
-0.2810848355 -0.1516210884 0.5821497440 4280230441
-0.2811472416 -0.1510078013 0.5822790265 4280625197
-0.2812094390 -0.1503941119 0.5824078321 4280756783
-0.2812713981 -0.1497800052 0.5825361609 4280559404
-0.2809094191 -0.1489408463 0.5817865133 4280559404
-0.2809708416 -0.1483268589 0.5819136500 4280690476
-0.2806081474 -0.1474896818 0.5811625123 4280756269
-0.2806690037 -0.1468758285 0.5812885761 4280756269
-0.2807296515 -0.1462615579 0.5814141631 4280822062
-0.2807900608 -0.1456468999 0.5815392733 4280887855
-0.2808502316 -0.1450318545 0.5816639066 4280887855
-0.2809101939 -0.1444164068 0.5817880630 4280887601
-0.2809699178 -0.1438005567 0.5819117427 4281019187
-0.2810294032 -0.1431843191 0.5820350051 4280953394
-0.2810886800 -0.1425676942 0.5821577311 4281019187
-0.2811477184 -0.1419506818 0.5822799802 4281084980
-0.2807817161 -0.1411197931 0.5815219879 4281150773
-0.2808401883 -0.1405029297 0.5816431046 4281282359
-0.2804735005 -0.1396740675 0.5808836222 4281216566
-0.2805314064 -0.1390573829 0.5810036063 4281150773
-0.2801639736 -0.1382305473 0.5802425742 4281150773
-0.2802213430 -0.1376140267 0.5803614259 4281217336
-0.2798531651 -0.1367892474 0.5795989037 4281217336
-0.2794845998 -0.1359659731 0.5788355470 4281151543
-0.2791156173 -0.1351441890 0.5780713558 4281085750
-0.2791717947 -0.1345289797 0.5781877041 4281019957
-0.2792277634 -0.1339134127 0.5783036351 4281019957
-0.2788577378 -0.1330942661 0.5775372386 4280954164
-0.2784872949 -0.1322766244 0.5767700672 4280822578
-0.2781164646 -0.1314605176 0.5760020614 4280756787
-0.2781712413 -0.1308462918 0.5761154294 4280625201
-0.2773736119 -0.1298328340 0.5744634867 4280559408
-0.2757230997 -0.1284257919 0.5710451603 4280493615
-0.2749241590 -0.1274210364 0.5693905354 4280559408
-0.2741246819 -0.1264196932 0.5677347183 4280559408
-0.2733246386 -0.1254217774 0.5660777688 4280559408
-0.2725240290 -0.1244272888 0.5644196272 4280493615
-0.2717228532 -0.1234362274 0.5627603531 4280690222
-0.2709211111 -0.1224486083 0.5610998869 4280690222
-0.2709723115 -0.1218481958 0.5612058640 4280559408
-0.2710232437 -0.1212474480 0.5613113642 4280493615
-0.2706470490 -0.1204563603 0.5605322719 4280493615
-0.2702704966 -0.1196668372 0.5597523451 4280493615
-0.2707476020 -0.1192550734 0.5607405305 4280559406
-0.2703704238 -0.1184667721 0.5599593520 4280559406
-0.2699928284 -0.1176800430 0.5591773391 4280493613
-0.2700421512 -0.1170801297 0.5592794418 4280493613
-0.2697125971 -0.1156959757 0.5585969687 4280427820
-0.2693336010 -0.1149136350 0.5578120351 4280427820
-0.2693818212 -0.1143143252 0.5579118729 4280427820
-0.2690021396 -0.1135341972 0.5571255088 4280427820
-0.2690497935 -0.1129352003 0.5572242141 4280427820
-0.2690972388 -0.1123358831 0.5573224425 4280427818
-0.2687165439 -0.1115586087 0.5565339923 4280427818
-0.2687634230 -0.1109596193 0.5566310883 4280493611
-0.2688100636 -0.1103603095 0.5567277074 4280427818
-0.2684283555 -0.1095859185 0.5559371710 4280427818
-0.2684744596 -0.1089869440 0.5560326576 4280230439
-0.2685203254 -0.1083876640 0.5561276674 4279901474
-0.2685659528 -0.1077880785 0.5562221408 4279901474
-0.2681829333 -0.1070172340 0.5554288626 4279835681
-0.2682279944 -0.1064179987 0.5555222034 4279901474
-0.2678442895 -0.1056494191 0.5547275543 4280164646
-0.2678888142 -0.1050505415 0.5548197627 4280296232
-0.2679331303 -0.1044513583 0.5549114943 4280493097
-0.2666908801 -0.1033533961 0.5523387194 4280493097
-0.2671633065 -0.1029217094 0.5533171892 4280558890
-0.2667778432 -0.1021593288 0.5525188446 4280624683
-0.2668209672 -0.1015618518 0.5526081324 4280756015
-0.2668638527 -0.1009640917 0.5526969433 4280690222
-0.2664774060 -0.1002046838 0.5518965721 4280624429
-0.2660905421 -0.0994469076 0.5510953665 4280624429
-0.2661325932 -0.0988502130 0.5511824489 4280690222
-0.2657865584 -0.0974984691 0.5504657626 4280887601
-0.2653983533 -0.0967453569 0.5496617556 4280887601
-0.2650097609 -0.0959938839 0.5488569736 4280953394
-0.2650504112 -0.0953986943 0.5489411354 4280887601
-0.2655204237 -0.0949568748 0.5499145985 4280887601
-0.2647012174 -0.0940547958 0.5482179523 4280953394
-0.2647410631 -0.0934597552 0.5483005047 4280953394
-0.2647806704 -0.0928644389 0.5483825207 4280953394
-0.2648200393 -0.0922688618 0.5484640598 4281019187
-0.2652891278 -0.0918218419 0.5494355559 4281084980
-0.2653280795 -0.0912247673 0.5495162010 4280887603
-0.2649366856 -0.0904805511 0.5487055779 4281019189
-0.2649750710 -0.0898839235 0.5487850904 4281216568
-0.2650132179 -0.0892870352 0.5488641262 4281348154
-0.2650511265 -0.0886898935 0.5489426255 4281413947
-0.2650887668 -0.0880924910 0.5490206480 4281413947
-0.2651261985 -0.0874948353 0.5490981340 4281413945
-0.2651633620 -0.0868969336 0.5491751432 4281216566
-0.2652003169 -0.0862987787 0.5492516160 4282400840
-0.2652369738 -0.0857003704 0.5493275523 4283848286
-0.2652734220 -0.0851017237 0.5494030714 4283321942
-0.2653096318 -0.0845028237 0.5494779944 4281084980
-0.2657763362 -0.0840398893 0.5504446030 4280229671
-0.2653812766 -0.0833042935 0.5496264100 4280887601
-0.2662784755 -0.0829731897 0.5514845848 4281216566
-0.2680374980 -0.0829045251 0.5551276803 4281150773
-0.2667798400 -0.0819016397 0.5525229573 4281807933
-0.2698320150 -0.0822177380 0.5588442683 4282465863
-0.2685737610 -0.0812163278 0.5562382936 4281611067
-0.2707641423 -0.0812556297 0.5607747436 4280689965
-0.2703675628 -0.0805144683 0.5599533916 4280887344
-0.2716956735 -0.0802847743 0.5627040267 4279900449
-0.2725925446 -0.0799225271 0.5645614862 4280229412
-0.2721952498 -0.0791796893 0.5637387037 4280558377
-0.2756804228 -0.0795591325 0.5709567666 4280492583
-0.2752828896 -0.0788109452 0.5701334476 4279900446
-0.2770426571 -0.0786772370 0.5737780333 4282335300
-0.2775078118 -0.0781707615 0.5747414827 4289901495
-0.3041094542 -0.0471755527 0.6298356056 4290756551
-0.3041297197 -0.0464788601 0.6298776269 4285164146
-0.3041497171 -0.0457820296 0.6299189925 4283190358
-0.3041693866 -0.0450850613 0.6299597621 4282992979
-0.3046227098 -0.0444512814 0.6308986545 4283058772
-0.3050757945 -0.0438153781 0.6318370104 4282269256
-0.3050946295 -0.0431160219 0.6318759918 4282664014
-0.3051131666 -0.0424165390 0.6319143772 4284637804
-0.3059994876 -0.0418356135 0.6337500215 4290165184
-0.3067238331 -0.0285242852 0.6352502108 4293519597
-0.3071705401 -0.0278589912 0.6361753941 4290690498
-0.3071824908 -0.0271532107 0.6362001300 4286084988
-0.3076286316 -0.0264847577 0.6371241212 4282402637
-0.3067709506 -0.0257050004 0.6353477836 4282863188
-0.3072164953 -0.0250353906 0.6362705827 4283454811
-0.3072272241 -0.0243292991 0.6362928152 4283060053
-0.3081067801 -0.0236899592 0.6381143928 4282599500
-0.3081169128 -0.0229817238 0.6381354332 4282270535
-0.3085613251 -0.0223048367 0.6390558481 4285428599
-0.3094401062 -0.0216562990 0.6408758163 4290757832
-0.2848082483 -0.2032504380 0.5912212133 4290298314
-0.2848887146 -0.2026507854 0.5913882852 4289903556
-0.2849690020 -0.2020506412 0.5915549397 4289574076
-0.2850490808 -0.2014499754 0.5917211771 4289179318
-0.2855440080 -0.2011411637 0.5927485824 4288652974
-0.2856238186 -0.2005386204 0.5929142237 4288060837
-0.2857034206 -0.1999355704 0.5930795074 4286876563
-0.2853674889 -0.1990422755 0.5923821330 4285626496
-0.2858620882 -0.1987279505 0.5934088826 4284902773
-0.2859411240 -0.1981233805 0.5935729146 4284705394
-0.2860199511 -0.1975183189 0.5937365294 4284573292
-0.2860985696 -0.1969127655 0.5938997865 4284178534
-0.2861770093 -0.1963067055 0.5940626264 4283783776
-0.2862552702 -0.1957001388 0.5942250490 4283849569
-0.2863332927 -0.1950930953 0.5943869948 4283849315
-0.2864111364 -0.1944855303 0.5945485830 4283586143
-0.2864887714 -0.1938774884 0.5947097540 4283980642
-0.2869827151 -0.1935498714 0.5957351327 4283914849
-0.2870600820 -0.1929399520 0.5958957076 4283783776
-0.2875539660 -0.1926086843 0.5969209671 4283389018
-0.2876310050 -0.1919968873 0.5970808864 4283191639
-0.2877078652 -0.1913846135 0.5972404480 4283191639
-0.2877845168 -0.1907718331 0.5973995328 4282796881
-0.2878609300 -0.1901585758 0.5975582004 4282796881
-0.2879371643 -0.1895448267 0.5977164507 4282731088
-0.2880131900 -0.1889306009 0.5978742838 4282599502
-0.2872539759 -0.1877700388 0.5962982178 4282467916
-0.2873293757 -0.1871566176 0.5964547396 4282270537
-0.2874045372 -0.1865427047 0.5966107845 4282138951
-0.2874795198 -0.1859283149 0.5967664123 4282073158
-0.2875542939 -0.1853134483 0.5969216228 4281875779
-0.2876288593 -0.1846981049 0.5970764160 4281546814
-0.2877032161 -0.1840822846 0.5972307324 4281414199
-0.2873590589 -0.1831993163 0.5965163708 4281348406
-0.2874328792 -0.1825834364 0.5966696143 4281151027
-0.2870880067 -0.1817022115 0.5959537029 4280822062
-0.2871612906 -0.1810862869 0.5961058140 4280361511
-0.2868156731 -0.1802068055 0.5953883529 4279900960
-0.2868884206 -0.1795908362 0.5955393910 4279637788
-0.2861231267 -0.1784518510 0.5939507484 4279571995
-0.2857762277 -0.1775763631 0.5932306051 4279637788
-0.2854289114 -0.1767022312 0.5925096273 4279703581
-0.2855003774 -0.1760879904 0.5926580429 4279637788
-0.2851523161 -0.1752156317 0.5919355154 4279637788
-0.2848038375 -0.1743446290 0.5912120938 4279769374
-0.2844549119 -0.1734749675 0.5904877782 4279769374
-0.2845252454 -0.1728616059 0.5906337500 4279769374
-0.2841756046 -0.1719937474 0.5899079442 4279769374
-0.2842453718 -0.1713804007 0.5900527835 4279703581
-0.2843149602 -0.1707665920 0.5901972055 4279703581
-0.2839642465 -0.1699010134 0.5894691944 4279703581
-0.2840332985 -0.1692872196 0.5896125436 4279769374
-0.2841021121 -0.1686729789 0.5897554159 4279835167
-0.2841707170 -0.1680582911 0.5898978114 4279835167
-0.2838186324 -0.1671954542 0.5891669393 4279900960
-0.2834661305 -0.1663340032 0.5884351730 4279900960
-0.2831132114 -0.1654739380 0.5877025723 4279900960
-0.2831806242 -0.1648602039 0.5878425241 4279900960
-0.2828269601 -0.1640020013 0.5871083736 4280032546
-0.2824728787 -0.1631451696 0.5863733888 4280098339
-0.2825394571 -0.1625319719 0.5865115523 4280098339
-0.2826058269 -0.1619183272 0.5866492987 4280098339
-0.2826719582 -0.1613042653 0.5867865682 4280098339
-0.2823165059 -0.1604502797 0.5860487223 4280032546
-0.2823821008 -0.1598362625 0.5861848593 4280098855
-0.2824474573 -0.1592218280 0.5863205791 4280098855
-0.2825126052 -0.1586069614 0.5864558220 4280164646
-0.2821557820 -0.1577558666 0.5857151151 4280164646
-0.2817985415 -0.1569061726 0.5849735141 4280164901
-0.2818628252 -0.1562918723 0.5851069689 4280230694
-0.2815048695 -0.1554441154 0.5843638778 4280296232
-0.2815686166 -0.1548298895 0.5844962001 4280362025
-0.2816321254 -0.1542152613 0.5846281052 4280427818
-0.2816954255 -0.1536002159 0.5847594738 4280427818
-0.2813360989 -0.1527553946 0.5840135217 4280098855
-0.2813988328 -0.1521404386 0.5841438174 4279967269
-0.2810387611 -0.1512975693 0.5833963156 4280164646
-0.2811009586 -0.1506827176 0.5835254788 4280559404
-0.2811629474 -0.1500674635 0.5836541057 4280427818
-0.2808018327 -0.1492270678 0.5829044580 4280427818
-0.2808632553 -0.1486119181 0.5830320120 4280624683
-0.2805013955 -0.1477734894 0.5822808146 4280690476
-0.2805622816 -0.1471584737 0.5824072361 4280624683
-0.2806229591 -0.1465430558 0.5825331807 4280624683
-0.2806833982 -0.1459272504 0.5826586485 4280822062
-0.2807435989 -0.1453110427 0.5827835798 4280887855
-0.2808035910 -0.1446944326 0.5829080939 4280822062
-0.2808633149 -0.1440774202 0.5830321312 4280822062
-0.2809228599 -0.1434600353 0.5831556916 4280887855
-0.2809821367 -0.1428422481 0.5832787752 4280887855
-0.2810412049 -0.1422240585 0.5834013820 4280953394
-0.2806760371 -0.1413919181 0.5826433897 4281084980
-0.2803104818 -0.1405612528 0.5818845034 4281216566
-0.2803686559 -0.1399437785 0.5820052624 4281150773
-0.2800023556 -0.1391151398 0.5812449455 4281150773
-0.2800599933 -0.1384978294 0.5813645720 4281216566
-0.2796929777 -0.1376712471 0.5806026459 4281085750
-0.2793255448 -0.1368461400 0.5798399448 4281151543
-0.2789577246 -0.1360225379 0.5790764093 4281151543
-0.2790141702 -0.1354065388 0.5791935325 4281085750
-0.2790703773 -0.1347901523 0.5793102384 4281085750
-0.2787014842 -0.1339691877 0.5785444975 4281085750
-0.2783322036 -0.1331497282 0.5777779222 4281019957
-0.2783875465 -0.1325341165 0.5778927803 4280888371
-0.2784426510 -0.1319181472 0.5780071616 4280756787
-0.2784975171 -0.1313018054 0.5781210661 4280625201
-0.2772763371 -0.1300865412 0.5755860806 4280559408
-0.2760544121 -0.1288765669 0.5730495453 4280559408
-0.2748317719 -0.1276718974 0.5705115199 4280625201
-0.2740339041 -0.1266692132 0.5688552856 4280690994
-0.2728098929 -0.1254742146 0.5663143992 4280625201
-0.2720108330 -0.1244793236 0.5646556616 4280559408
-0.2716369927 -0.1236817241 0.5638795495 4280625199
-0.2708368897 -0.1226927638 0.5622187257 4280559406
-0.2704621553 -0.1218992099 0.5614408255 4280559408
-0.2705130577 -0.1212982237 0.5615464449 4280493615
-0.2705637217 -0.1206969023 0.5616515875 4280493615
-0.2697618008 -0.1197169945 0.5599869490 4280493615
-0.2698118389 -0.1191168949 0.5600908399 4280493613
-0.2698616385 -0.1185164601 0.5601941943 4280493613
-0.2699111998 -0.1179156974 0.5602970719 4280362540
-0.2699605227 -0.1173146069 0.5603994727 4280362540
-0.2695830762 -0.1165288016 0.5596159697 4280362540
-0.2696318626 -0.1159280092 0.5597172379 4280362540
-0.2692537010 -0.1151444018 0.5589321852 4280362540
-0.2688751519 -0.1143623814 0.5581464171 4280296747
-0.2689230740 -0.1137625128 0.5582458973 4280296745
-0.2689707577 -0.1131623313 0.5583449006 4280230952
-0.2685911953 -0.1123831570 0.5575569868 4280296744
-0.2690654397 -0.1119609997 0.5585414171 4280165158
-0.2682580948 -0.1110063419 0.5568655133 4280230951
-0.2683047056 -0.1104068011 0.5569622517 4280230951
-0.2679237425 -0.1096320897 0.5561714172 4280165158
-0.2679698169 -0.1090328842 0.5562670231 4280033572
-0.2680156231 -0.1084333658 0.5563621521 4279770400
-0.2680611908 -0.1078335419 0.5564567447 4279770400
-0.2676789463 -0.1070623919 0.5556632280 4279967522
-0.2677239776 -0.1064629182 0.5557566881 4280033315
-0.2673410177 -0.1056940258 0.5549617410 4280164901
-0.2669576705 -0.1049267575 0.5541660190 4280362280
-0.2678576410 -0.1046626866 0.5560342073 4280428073
-0.2666178346 -0.1035633162 0.5534605384 4280428073
-0.2662334442 -0.1027999520 0.5526625514 4280428073
-0.2667048573 -0.1023668423 0.5536412001 4280493866
-0.2658916712 -0.1014414653 0.5519531369 4280624429
-0.2663626671 -0.1010068208 0.5529308915 4280624429
-0.2659769654 -0.1002471000 0.5521302223 4280624429
-0.2655909061 -0.0994890258 0.5513287783 4280558636
-0.2656328976 -0.0988920927 0.5514159203 4280624429
-0.2656746209 -0.0982948765 0.5515025854 4280690222
-0.2652875781 -0.0975397974 0.5506991148 4280756015
-0.2653287649 -0.0969429836 0.5507846475 4280887601
-0.2649410367 -0.0961902514 0.5499797463 4280887601
-0.2645528913 -0.0954391658 0.5491740108 4280756015
-0.2645932436 -0.0948434547 0.5492578149 4280821808
-0.2642044723 -0.0940947235 0.5484507084 4280887601
-0.2642442584 -0.0934994444 0.5485333204 4280821808
-0.2642838359 -0.0929038897 0.5486154556 4280887601
-0.2647522390 -0.0924579203 0.5495878458 4280887601
-0.2643622160 -0.0917119831 0.5487782359 4280887601
-0.2644010484 -0.0911156386 0.5488588214 4280756017
-0.2644396424 -0.0905190259 0.5489389300 4280821810
-0.2644779980 -0.0899221599 0.5490185618 4281019189
-0.2645161152 -0.0893250257 0.5490976572 4281084982
-0.2641245127 -0.0885836035 0.5482847691 4281084982
-0.2645916045 -0.0881299973 0.5492544174 4281150775
-0.2646289766 -0.0875321031 0.5493319631 4281150773
-0.2646661401 -0.0869339556 0.5494090915 4280953394
-0.2647030056 -0.0863355547 0.5494856834 4282729805
-0.2643098831 -0.0855977163 0.5486695766 4283650907
-0.2647760808 -0.0851380080 0.5496373177 4281742910
-0.2648122311 -0.0845388621 0.5497123599 4279966499
-0.2648481429 -0.0839394704 0.5497869253 4280756015
-0.2653138041 -0.0834751353 0.5507535338 4280690222
-0.2653492689 -0.0828742906 0.5508272052 4280361511
-0.2658146322 -0.0824065432 0.5517932177 4281808957
-0.2671402097 -0.0822013542 0.5545449257 4282136898
-0.2688961029 -0.0821214691 0.5581898689 4281676347
-0.2680704594 -0.0812510327 0.5564759970 4279571230
-0.2689657211 -0.0809020326 0.5583344102 4279242265
-0.2707561553 -0.0801916122 0.5620510578 4279966242
-0.2716512978 -0.0798301995 0.5639092922 4280097826
-0.2725464404 -0.0794646367 0.5657674670 4280229412
-0.2734415233 -0.0790949389 0.5676255226 4280163619
-0.2734751999 -0.0784739330 0.5676954985 4280426791
-0.2765237093 -0.0787109211 0.5740237236 4280624683
-0.2774187922 -0.0783258602 0.5758818388 4287664534
-0.2765905559 -0.0774540752 0.5741624832 4293454318
-0.3026546538 -0.0477561764 0.6282678843 4292335837
-0.3026751578 -0.0470613129 0.6283104420 4287466901
-0.3031284213 -0.0464326404 0.6292513013 4283321942
-0.3027152717 -0.0456711687 0.6283936501 4283058772
-0.3031679690 -0.0450402349 0.6293334365 4282729807
-0.3036204278 -0.0444071740 0.6302726865 4282466637
-0.3040726483 -0.0437719934 0.6312114000 4282795602
-0.3040914536 -0.0430733375 0.6312503815 4283059542
-0.3045431376 -0.0424349122 0.6321880817 4287599259
-0.3049945831 -0.0417943671 0.6331251860 4292599527
-0.3052585125 -0.0298615787 0.6336730719 4293914355
-0.3052712977 -0.0291587450 0.6336995959 4292006358
-0.3061510623 -0.0285366643 0.6355258822 4288650915
-0.3061633110 -0.0278316606 0.6355512738 4285295473
-0.3061752319 -0.0271265730 0.6355760098 4282861132
-0.3057531416 -0.0263839811 0.6346998215 4283586911
-0.3048970103 -0.0256068818 0.6329226494 4283521118
-0.3075103164 -0.0251171123 0.6383475065 4282731602
-0.3049186170 -0.0242021531 0.6329675317 4282731602
-0.3066639900 -0.0236333888 0.6365906596 4282073156
-0.3058065474 -0.0228619911 0.6348107457 4284704876
-0.3071176708 -0.0222516637 0.6375324130 4289441972
-0.3058257997 -0.0214526989 0.6348506808 4292665829
-0.2835167050 -0.2021408975 0.5899002552 4290297799
-0.2835966647 -0.2015423030 0.5900666118 4289771455
-0.2836764455 -0.2009432018 0.5902326107 4289310904
-0.2837560177 -0.2003435791 0.5903981328 4288652974
-0.2842497528 -0.2000350654 0.5914254189 4287534493
-0.2843290269 -0.1994335651 0.5915904641 4286283656
-0.2848227322 -0.1991214156 0.5926176310 4285362554
-0.2844870389 -0.1982290745 0.5919191837 4285033843
-0.2845657766 -0.1976260692 0.5920829773 4284902257
-0.2846442759 -0.1970225722 0.5922463536 4284770671
-0.2847225964 -0.1964185834 0.5924093127 4284507499
-0.2852158844 -0.1960995197 0.5934356451 4284046948
-0.2852939069 -0.1954936534 0.5935980082 4283981155
-0.2853717506 -0.1948872805 0.5937599540 4283981155
-0.2854493856 -0.1942804009 0.5939215422 4283849569
-0.2855268419 -0.1936730444 0.5940826535 4283849567
-0.2860198021 -0.1933462173 0.5951083302 4283717981
-0.2856810987 -0.1924568415 0.5944036245 4283651675
-0.2861738801 -0.1921272576 0.5954289436 4283454296
-0.2862506509 -0.1915170401 0.5955886245 4283191124
-0.2863271832 -0.1909063309 0.5957478881 4283125331
-0.2864035070 -0.1902951300 0.5959066749 4283059538
-0.2864796519 -0.1896834373 0.5960651040 4282927952
-0.2865555584 -0.1890712678 0.5962230563 4282927952
-0.2866312861 -0.1884586066 0.5963806510 4282796366
-0.2867068052 -0.1878454536 0.5965377688 4282598987
-0.2863652706 -0.1869596839 0.5958271623 4282401608
-0.2860233188 -0.1860752255 0.5951156616 4282335815
-0.2860980034 -0.1854624152 0.5952710509 4282138436
-0.2861724794 -0.1848491281 0.5954259634 4281875264
-0.2862467468 -0.1842353642 0.5955805182 4281743678
-0.2863207757 -0.1836211234 0.5957345963 4281743164
-0.2863946259 -0.1830064058 0.5958881974 4281743164
-0.2860506773 -0.1821253300 0.5951725841 4281545785
-0.2861239910 -0.1815105677 0.5953251123 4281216820
-0.2861970961 -0.1808953285 0.5954772234 4280953648
-0.2862699926 -0.1802796125 0.5956288576 4280624683
-0.2859246433 -0.1794011444 0.5949103236 4280229925
-0.2855788767 -0.1785240173 0.5941909552 4279835167
-0.2852326930 -0.1776482165 0.5934706330 4279835167
-0.2848860919 -0.1767737567 0.5927494764 4279637788
-0.2845390737 -0.1759006381 0.5920274258 4279637788
-0.2846101522 -0.1752866358 0.5921753645 4279637788
-0.2842623889 -0.1744153053 0.5914517641 4279703581
-0.2843329608 -0.1738012880 0.5915985703 4279637788
-0.2839844525 -0.1729317605 0.5908734798 4279637788
-0.2836355269 -0.1720635891 0.5901474357 4279506202
-0.2837052345 -0.1714500189 0.5902925134 4279440925
-0.2837747335 -0.1708360016 0.5904371142 4279440925
-0.2838439941 -0.1702215225 0.5905812383 4279506716
-0.2834936976 -0.1693560779 0.5898523927 4279572509
-0.2835624516 -0.1687416285 0.5899954438 4279506716
-0.2836309671 -0.1681267172 0.5901380181 4279506716
-0.2836993039 -0.1675113738 0.5902801752 4279703581
-0.2833476067 -0.1666486859 0.5895484090 4279637788
-0.2838352621 -0.1662793308 0.5905630589 4279703581
-0.2834829390 -0.1654175967 0.5898299813 4279769374
-0.2831301987 -0.1645572335 0.5890960693 4279769373
-0.2831972241 -0.1639415026 0.5892355442 4279769373
-0.2828437686 -0.1630830169 0.5885000825 4279835166
-0.2824898660 -0.1622259170 0.5877637267 4279769373
-0.2825560272 -0.1616107225 0.5879014134 4279769373
-0.2822014093 -0.1607555002 0.5871635675 4279835166
-0.2822670341 -0.1601403505 0.5873000622 4279770401
-0.2823324203 -0.1595247686 0.5874361396 4279770401
