VERSION 0.7
FIELDS x y z rgba
SIZE 4 4 4 4
TYPE F F F U
COUNT 1 1 1 1
WIDTH 920
HEIGHT 1
VIEWPOINT 0.0 0.0 0.0 1.0 0.0 0.0 0.0
POINTS 920
DATA ascii
-0.2678713202 -0.1711177975 0.5612385273 4281019957
-0.2679399252 -0.1705378890 0.5613822341 4281019957
-0.2684238255 -0.1702210307 0.5623961687 4281085750
-0.2680765390 -0.1693767309 0.5616685152 4281151543
-0.2689760029 -0.1693188846 0.5635530353 4281085750
-0.2698756754 -0.1692570001 0.5654380322 4281217336
-0.2695277929 -0.1684113741 0.5647091269 4281217336
-0.2704275846 -0.1683440804 0.5665943623 4281217336
-0.2713276148 -0.1682727337 0.5684800744 4281019957
-0.2718116045 -0.1679401398 0.5694941282 4280888371
-0.2718792260 -0.1673490256 0.5696358085 4280954164
-0.2719466686 -0.1667574644 0.5697771311 4280954164
-0.2724304497 -0.1664199382 0.5707907081 4281019957
-0.2724975646 -0.1658265889 0.5709313750 4281019957
-0.2729812562 -0.1654854566 0.5719447732 4281019957
-0.2722143233 -0.1643868536 0.5703378916 4281085750
-0.2722807229 -0.1637931019 0.5704770088 4281085750
-0.2723469138 -0.1631989181 0.5706157088 4281085750
-0.2724128962 -0.1626043171 0.5707539320 4281085750
-0.2728959322 -0.1622573733 0.5717660189 4281085750
-0.2729615867 -0.1616609842 0.5719035864 4281019957
-0.2734445035 -0.1613104492 0.5729153752 4281151543
-0.2739274204 -0.1609576494 0.5739271641 4281085750
-0.2739926577 -0.1603581458 0.5740638375 4281151543
-0.2744754553 -0.1600017548 0.5750753880 4281151543
-0.2745403349 -0.1594004929 0.5752113461 4281217336
-0.2750229836 -0.1590404958 0.5762225986 4281283129
-0.2750875652 -0.1584374607 0.5763579011 4281348922
-0.2755700946 -0.1580738723 0.5773688555 4281348922
-0.2760525942 -0.1577080339 0.5783797503 4281283640
-0.2756983340 -0.1568638533 0.5776375532 4281283640
-0.2761805952 -0.1564953327 0.5786479712 4281283640
-0.2766628265 -0.1561245322 0.5796583295 4281283640
-0.2771450579 -0.1557514966 0.5806686878 4281349435
-0.2776272297 -0.1553761810 0.5816789269 4281349435
-0.2776905298 -0.1547651887 0.5818115473 4281415228
-0.2785915136 -0.1546187848 0.5836992264 4281349435
-0.2786545753 -0.1540050954 0.5838313699 4281283129
-0.2791365087 -0.1536216736 0.5848411322 4281217336
-0.2800376713 -0.1534657180 0.5867292285 4281085750
-0.2796810269 -0.1526191980 0.5859820247 4281348922
-0.2805821896 -0.1524577886 0.5878701210 4282072645
-0.2810640037 -0.1520653069 0.5888795853 4282467403
-0.2819653749 -0.1518965811 0.5907680988 4282796368
-0.2824471891 -0.1514986455 0.5917776227 4283454298
-0.2829289734 -0.1510984302 0.5927870274 4283520093
-0.2829908431 -0.1504727006 0.5929166675 4283520093
-0.2834724486 -0.1500688791 0.5939256549 4283585886
-0.2835339308 -0.1494413912 0.5940545201 4283585886
-0.2840153277 -0.1490339786 0.5950631499 4283454300
-0.2840764523 -0.1484047472 0.5951912403 4283256921
-0.2845576704 -0.1479937136 0.5961994529 4282993747
-0.2846184373 -0.1473627537 0.5963267088 4282862161
-0.2846789360 -0.1467313766 0.5964535475 4282862161
-0.2847392261 -0.1460996121 0.5965798497 4282730575
-0.2847992778 -0.1454674304 0.5967056155 4282796368
-0.2852798402 -0.1450487971 0.5977125168 4282730575
-0.2853395045 -0.1444148868 0.5978375077 4282467403
-0.2853989303 -0.1437805891 0.5979620218 4282401610
-0.2858791351 -0.1433570236 0.5989681482 4282467401
-0.2859381735 -0.1427209973 0.5990918875 4282401608
-0.2859969735 -0.1420845687 0.5992150903 4282270024
-0.2860555351 -0.1414477527 0.5993377566 4282270024
-0.2861138582 -0.1408105493 0.5994599462 4282204231
-0.2861719429 -0.1401729584 0.5995816588 4282204231
-0.2862297893 -0.1395349801 0.5997028351 4282138438
-0.2862873971 -0.1388966143 0.5998235345 4282006852
-0.2867664695 -0.1384614855 0.6008272767 4281809473
-0.2868236601 -0.1378214061 0.6009471416 4281743680
-0.2868806422 -0.1371809393 0.6010664701 4281546301
-0.2869373560 -0.1365401000 0.6011853218 4281546301
-0.2869938314 -0.1358988881 0.6013036370 4281480508
-0.2874721885 -0.1354562044 0.6023058891 4281283129
-0.2875282466 -0.1348132789 0.6024233699 4281217336
-0.2875840664 -0.1341699958 0.6025403142 4281217336
-0.2876396477 -0.1335263252 0.6026567221 4281217336
-0.2876949906 -0.1328822821 0.6027726531 4281151543
-0.2877500653 -0.1322378814 0.6028881073 4281216566
-0.2878049016 -0.1315930933 0.6030029655 4281216566
-0.2878594995 -0.1309479475 0.6031173468 4281085750
-0.2879138291 -0.1303024441 0.6032311916 4281019957
-0.2879679203 -0.1296565682 0.6033445597 4281019957
-0.2884447277 -0.1291997731 0.6043434739 4281085750
-0.2884984016 -0.1285522133 0.6044559479 4281019957
-0.2885518074 -0.1279042959 0.6045678854 4280954164
-0.2886050045 -0.1272560358 0.6046792865 4280757298
-0.2886579037 -0.1266074032 0.6047902107 4280823091
-0.2891339064 -0.1261431128 0.6057875156 4280823091
-0.2891864181 -0.1254928112 0.6058974862 4280823091
-0.2892386615 -0.1248421669 0.6060069799 4280888884
-0.2892906666 -0.1241911724 0.6061158776 4280954677
-0.2897660136 -0.1237207055 0.6071118712 4280757812
-0.2898176014 -0.1230680496 0.6072199345 4280626226
-0.2898688912 -0.1224150583 0.6073274016 4280690992
-0.2899199426 -0.1217617095 0.6074343920 4280822578
-0.2899707258 -0.1211080253 0.6075407863 4280954164
-0.2900212705 -0.1204539910 0.6076467037 4281019957
-0.2900715768 -0.1197996214 0.6077520251 4281019957
-0.2905457318 -0.1193190962 0.6087455153 4281151543
-0.2905955911 -0.1186630949 0.6088499427 4281283642
-0.2906451821 -0.1180067509 0.6089538336 4281481021
-0.2906945050 -0.1173500717 0.6090571880 4281612353
-0.2903191149 -0.1165226996 0.6082707047 4281743939
-0.2903678715 -0.1158663183 0.6083728075 4281942088
-0.2904163301 -0.1152096018 0.6084743738 4282271053
-0.2908892035 -0.1147200391 0.6094651818 4282402639
-0.2909372449 -0.1140617058 0.6095657945 4282402639
-0.2909850180 -0.1134030521 0.6096658707 4282534738
-0.2910325229 -0.1127440706 0.6097654104 4282797910
-0.2910797596 -0.1120847687 0.6098644137 4282994778
-0.2915517390 -0.1115878150 0.6108533144 4283455329
-0.2915985286 -0.1109269112 0.6109513044 4283718501
-0.2924953401 -0.1105871648 0.6128302813 4284113259
-0.2925417423 -0.1099237055 0.6129274964 4284771189
-0.2925878763 -0.1092599258 0.6130241752 4285494912
-0.2926337421 -0.1085958332 0.6131202579 4286416014
-0.2926793396 -0.1079314277 0.6132158041 4287271323
-0.2927246690 -0.1072667167 0.6133107543 4287797667
-0.2927697599 -0.1066016927 0.6134052277 4288324011
-0.2928145528 -0.1059363633 0.6134991050 4288981686
-0.2928590775 -0.1052707359 0.6135923862 4289573823
-0.2929033637 -0.1046047956 0.6136851311 4290034374
-0.2754487097 -0.2027198523 0.5784606338 4292202975
-0.2751180530 -0.2018345743 0.5777662396 4284307815
-0.2747870088 -0.2009505481 0.5770710111 4278779907
-0.2744555473 -0.2000677437 0.5763749480 4280687904
-0.2741236687 -0.1991861910 0.5756779313 4285413671
-0.2733808756 -0.1980085820 0.5741180182 4286466359
-0.2726374269 -0.1968339533 0.5725567341 4288104230
-0.2718933225 -0.1956623346 0.5709940791 4288038437
-0.2719702423 -0.1950830966 0.5711556673 4287775774
-0.2712250948 -0.1939157397 0.5695907474 4287512602
-0.2708903551 -0.1930443347 0.5688877702 4285153070
-0.2701440156 -0.1918821335 0.5673204064 4284034589
-0.2693970203 -0.1907229722 0.5657517314 4280822576
-0.2686493993 -0.1895668209 0.5641816258 4280954162
-0.2683126628 -0.1887031496 0.5634744167 4281085750
-0.2671522200 -0.1872636676 0.5610374212 4281151543
-0.2664026618 -0.1861166507 0.5594633222 4281020467
-0.2660643160 -0.1852594614 0.5587528348 4280691502
-0.2657255828 -0.1844035834 0.5580414534 4280757046
-0.2653864324 -0.1835489869 0.5573291779 4281349183
-0.2650468647 -0.1826956868 0.5566160679 4281480508
-0.2651191950 -0.1821269393 0.5567680001 4281283129
-0.2647789121 -0.1812753677 0.5560534000 4281085750
-0.2648507655 -0.1807065755 0.5562042594 4281085750
-0.2649224401 -0.1801373363 0.5563547611 4281085750
-0.2649939358 -0.1795676202 0.5565049052 4281085750
-0.2650652230 -0.1789974421 0.5566546321 4281019957
-0.2655493021 -0.1787047237 0.5576711893 4281019957
-0.2656203210 -0.1781327426 0.5578203797 4281085750
-0.2656911612 -0.1775602996 0.5579691529 4281085750
-0.2661751211 -0.1772626638 0.5589854717 4281019957
-0.2662456632 -0.1766884178 0.5591336489 4281085750
-0.2667295933 -0.1763871759 0.5601499081 4281151543
-0.2667998672 -0.1758111268 0.5602974892 4281085750
-0.2668699622 -0.1752346307 0.5604447126 4281085750
-0.2665259838 -0.1743868738 0.5597223639 4281151543
-0.2665956020 -0.1738103628 0.5598685145 4281151543
-0.2670790851 -0.1735023856 0.5608838201 4281151543
-0.2675625682 -0.1731921732 0.5618992448 4281085750
-0.2676317990 -0.1726125181 0.5620446205 4281085750
-0.2677008212 -0.1720324010 0.5621895790 4281085750
-0.2681841552 -0.1717172414 0.5632045865 4281019957
-0.2682529092 -0.1711353362 0.5633489490 4281019957
-0.2683214545 -0.1705529839 0.5634929538 4281151543
-0.2683897913 -0.1699701846 0.5636364818 4281151543
-0.2688728571 -0.1696487516 0.5646509528 4281151543
-0.2697709799 -0.1695859581 0.5665370226 4281151543
-0.2694239020 -0.1687391251 0.5658081770 4281151543
-0.2703221440 -0.1686709374 0.5676944852 4281217336
-0.2712205946 -0.1685986966 0.5695813298 4281019957
-0.2708729208 -0.1677505225 0.5688511729 4280954164
-0.2717714608 -0.1676728725 0.5707381964 4281019957
-0.2718389332 -0.1670802087 0.5708798766 4280954164
-0.2723219395 -0.1667416543 0.5718942285 4281019957
-0.2723890841 -0.1661472023 0.5720351934 4281085750
-0.2724560201 -0.1655523032 0.5721758008 4281019957
-0.2725227475 -0.1649569720 0.5723159313 4281019957
-0.2725892961 -0.1643611938 0.5724556446 4281019957
-0.2726556063 -0.1637649983 0.5725949407 4281151543
-0.2727217078 -0.1631683558 0.5727337599 4281151543
-0.2732040882 -0.1628194749 0.5737467408 4281151543
-0.2736864388 -0.1624683440 0.5747597218 4281151543
-0.2741687894 -0.1621149629 0.5757727027 4281151543
-0.2742343545 -0.1615138501 0.5759103894 4281151543
-0.2751334310 -0.1614014059 0.5777985454 4281217336
-0.2747818232 -0.1605539769 0.5770601034 4281217336
-0.2748468518 -0.1599506587 0.5771966577 4281283129
-0.2753288150 -0.1595887244 0.5782088637 4281348922
-0.2753935158 -0.1589836329 0.5783447027 4281283129
-0.2758753598 -0.1586180925 0.5793566108 4281283129
-0.2763571739 -0.1582502872 0.5803684592 4281348920
-0.2760038674 -0.1574039757 0.5796265006 4281348920
-0.2764854431 -0.1570334882 0.5806378126 4281414713
-0.2769669890 -0.1566607356 0.5816491246 4281414713
-0.2774485052 -0.1562857181 0.5826603770 4281414715
-0.2779300213 -0.1559084505 0.5836715102 4281480508
-0.2779934406 -0.1552953869 0.5838047266 4281546301
-0.2784747779 -0.1549144983 0.5848156214 4281612094
-0.2789560854 -0.1545313597 0.5858263969 4282006852
-0.2794373631 -0.1541459411 0.5868371129 4282598989
-0.2799186110 -0.1537582725 0.5878477097 4283125333
-0.2799813151 -0.1531394273 0.5879793763 4283520091
-0.2804623842 -0.1527481377 0.5889896750 4284046435
-0.2809434235 -0.1523545980 0.5899999142 4284112228
-0.2814244032 -0.1519587785 0.5910100341 4283783263
-0.2819053531 -0.1515607089 0.5920200348 4283783263
-0.2823862731 -0.1511603594 0.5930299759 4283059542
-0.2828671336 -0.1507577300 0.5940397978 4282993749
-0.2829287946 -0.1501304358 0.5941693187 4282862163
-0.2829902172 -0.1495027244 0.5942983031 4282862163
-0.2834707499 -0.1490951627 0.5953074694 4282730575
-0.2835318148 -0.1484656930 0.5954356790 4282664782
-0.2840121388 -0.1480545253 0.5964444280 4282533196
-0.2840728164 -0.1474233270 0.5965718627 4282533196
-0.2841332853 -0.1467917264 0.5966988206 4282533196
-0.2841934860 -0.1461597085 0.5968252420 4282335817
-0.2842534781 -0.1455273032 0.5969512463 4282401608
-0.2847331762 -0.1451085210 0.5979586244 4282467401
-0.2847927809 -0.1444743872 0.5980837941 4282270022
-0.2848521471 -0.1438398361 0.5982084870 4282204229
-0.2849112451 -0.1432049125 0.5983326435 4282204229
-0.2849701345 -0.1425695717 0.5984562635 4282138436
-0.2850287855 -0.1419338584 0.5985794663 4282072645
-0.2850871980 -0.1412977427 0.5987021327 4282072645
-0.2851453722 -0.1406612396 0.5988242626 4282006852
-0.2852033079 -0.1400243491 0.5989459753 4281875266
-0.2852610052 -0.1393870562 0.5990670919 4281743680
-0.2853184640 -0.1387493908 0.5991877913 4281743680
-0.2853756845 -0.1381113380 0.5993078947 4281612607
-0.2854326367 -0.1374729127 0.5994275808 4281546814
-0.2859104574 -0.1370359063 0.6004309654 4281415228
-0.2859670222 -0.1363957673 0.6005498171 4281415228
-0.2860233486 -0.1357552558 0.6006680727 4281349435
-0.2860794365 -0.1351143569 0.6007858515 4281349435
-0.2865566909 -0.1346711367 0.6017881036 4281349435
-0.2866123617 -0.1340285391 0.6019050479 4281415228
-0.2866677940 -0.1333855689 0.6020214558 4281481021
-0.2867229879 -0.1327422410 0.6021373868 4281481021
-0.2867779434 -0.1320985258 0.6022527814 4281414715
-0.2868326306 -0.1314544529 0.6023676395 4281414715
-0.2868870795 -0.1308100075 0.6024819613 4281480508
-0.2869412899 -0.1301651895 0.6025958061 4281414715
-0.2869952321 -0.1295200139 0.6027091146 4281283642
-0.2874710858 -0.1290639937 0.6037084460 4281349435
-0.2875246108 -0.1284171492 0.6038208604 4281349435
-0.2875778973 -0.1277699322 0.6039327979 4281283642
-0.2876309454 -0.1271223575 0.6040441394 4281349949
-0.2876837254 -0.1264744401 0.6041550040 4281349949
-0.2877362669 -0.1258261502 0.6042653322 4281349949
-0.2877885699 -0.1251775175 0.6043751836 4281284156
-0.2878406048 -0.1245285198 0.6044844389 4281284156
-0.2878924012 -0.1238791794 0.6045932174 4281349949
-0.2887895703 -0.1235913932 0.6064773202 4281284669
-0.2888410091 -0.1229394376 0.6065853238 4281218876
-0.2888921797 -0.1222871467 0.6066927910 4281743680
-0.2889430821 -0.1216344982 0.6067997217 4281875266
-0.2889937758 -0.1209815145 0.6069061756 4282007365
-0.2890441716 -0.1203281805 0.6070120335 4282138951
-0.2890943289 -0.1196745113 0.6071173549 4282204744
-0.2891442180 -0.1190204993 0.6072221398 4282336330
-0.2891938686 -0.1183661520 0.6073263884 4282468430
-0.2892432511 -0.1177114695 0.6074301004 4282665809
-0.2892923951 -0.1170564517 0.6075332761 4282731604
-0.2893412709 -0.1164010987 0.6076359153 4282863190
-0.2893898785 -0.1157454178 0.6077380180 4283061082
-0.2894382179 -0.1150894016 0.6078395844 4283324254
-0.2894863188 -0.1144330651 0.6079405546 4283587426
-0.2895341516 -0.1137763932 0.6080410480 4284047977
-0.2900057137 -0.1132850274 0.6090313196 4284705907
-0.2900531292 -0.1126267463 0.6091308594 4285232251
-0.2901002467 -0.1119681448 0.6092298031 4285889668
-0.2901470959 -0.1113092303 0.6093282700 4286547598
-0.2906179726 -0.1108117625 0.6103171110 4287271323
-0.2910887003 -0.1103120446 0.6113056540 4288060839
-0.2911349237 -0.1096502468 0.6114026904 4288850355
-0.2911808789 -0.1089881361 0.6114991903 4289310906
-0.2912265658 -0.1083257049 0.6115951538 4289903043
-0.2750892639 -0.2112925053 0.5790564418 4291876829
-0.2751712501 -0.2107119262 0.5792289972 4290495178
-0.2748453021 -0.2098195106 0.5785428882 4289376697
-0.2749268115 -0.2092387378 0.5787144303 4288652972
-0.2750081420 -0.2086574584 0.5788856745 4287929249
-0.2746811509 -0.2077669352 0.5781973600 4287598238
-0.2747620046 -0.2071854919 0.5783675313 4287006101
-0.2748426795 -0.2066035271 0.5785373449 4286810768
-0.2749231756 -0.2060210556 0.5787068009 4288324007
-0.2750034928 -0.2054380774 0.5788758993 4289968836
-0.2750836313 -0.2048545778 0.5790445805 4290495180
-0.2747547328 -0.2039670497 0.5783522129 4291217880
-0.2748343647 -0.2033834010 0.5785198808 4291941603
-0.2740956545 -0.2021956742 0.5769649148 4291807703
-0.2737654746 -0.2013118416 0.5762699246 4286478470
-0.2742535770 -0.2010293454 0.5772973299 4278452227
-0.2735133469 -0.1998470724 0.5757391453 4280228382
-0.2731820643 -0.1989660859 0.5750417709 4283771164
-0.2728503346 -0.1980863512 0.5743435025 4285415989
-0.2725182176 -0.1972078681 0.5736443996 4287644453
-0.2717757225 -0.1960349530 0.5720815063 4287710246
-0.2706225812 -0.1945702434 0.5696541667 4287447838
-0.2698786855 -0.1934042275 0.5680882931 4287184666
-0.2695444226 -0.1925342679 0.5673846602 4284955692
-0.2687993646 -0.1913734078 0.5658163428 4284100383
-0.2684641480 -0.1905068755 0.5651107430 4280954675
-0.2677179277 -0.1893512011 0.5635399222 4281152054
-0.2669710517 -0.1881985664 0.5619677305 4281348922
-0.2662235200 -0.1870489717 0.5603942275 4281414715
-0.2658863366 -0.1861902028 0.5596844554 4281415225
-0.2655487061 -0.1853327304 0.5589737892 4281086260
-0.2652106881 -0.1844765395 0.5582622290 4281217338
-0.2652835250 -0.1839067787 0.5584155917 4281677889
-0.2649447918 -0.1830523014 0.5577025414 4281874236
-0.2646056414 -0.1821991205 0.5569886565 4281479478
-0.2646777034 -0.1816297174 0.5571403503 4281217336
-0.2647495866 -0.1810598671 0.5572916269 4281217336
-0.2648212910 -0.1804895401 0.5574425459 4281151543
-0.2648927867 -0.1799187511 0.5575931072 4281151543
-0.2657882571 -0.1799053401 0.5594780445 4281151543
-0.2654474378 -0.1790538132 0.5587605834 4281151543
-0.2659307718 -0.1787578911 0.5597780347 4281151543
-0.2660017610 -0.1781834811 0.5599274039 4281151543
-0.2664850354 -0.1778839827 0.5609447360 4281085750
-0.2665557563 -0.1773077548 0.5610935688 4281019957
-0.2666262686 -0.1767310798 0.5612419844 4281151543
-0.2671094239 -0.1764266193 0.5622590184 4281151543
-0.2671796381 -0.1758481413 0.5624068379 4281151543
-0.2668366134 -0.1749982983 0.5616847873 4281217336
-0.2669063509 -0.1744197905 0.5618315935 4281217336
-0.2673891783 -0.1741099507 0.5628479123 4281151543
-0.2674586177 -0.1735296398 0.5629941225 4281151543
-0.2675278783 -0.1729488820 0.5631398559 4281151543
-0.2675969303 -0.1723676771 0.5632852316 4281151543
-0.2680794895 -0.1720515341 0.5643010139 4281085750
-0.2681482732 -0.1714685261 0.5644457936 4281151543
-0.2682168484 -0.1708850861 0.5645901561 4281151543
-0.2686992288 -0.1705639958 0.5656055808 4281151543
-0.2687675059 -0.1699787527 0.5657492876 4281085750
-0.2692498267 -0.1696540564 0.5667645335 4281085750
-0.2697321475 -0.1693271250 0.5677797794 4281217336
-0.2702144682 -0.1689979434 0.5687950850 4281217336
-0.2706967890 -0.1686664969 0.5698103905 4280954164
-0.2715937793 -0.1685901880 0.5716984868 4280954164
-0.2716614604 -0.1679968536 0.5718410015 4281085750
-0.2721438110 -0.1676586568 0.5728563070 4281019957
-0.2722111940 -0.1670635194 0.5729981065 4281019957
-0.2722783685 -0.1664679497 0.5731395483 4281019957
-0.2723453343 -0.1658719331 0.5732805133 4281085750
-0.2724120915 -0.1652754843 0.5734210014 4281085750
-0.2724786401 -0.1646785885 0.5735611320 4281085750
-0.2725449800 -0.1640812755 0.5737007856 4281151543
-0.2726111114 -0.1634835005 0.5738399625 4281151543
-0.2730927169 -0.1631336063 0.5748537183 4281217336
-0.2735742927 -0.1627814621 0.5758674145 4281283129
-0.2736400068 -0.1621805727 0.5760057569 4281217336
-0.2745374143 -0.1620703638 0.5778948069 4281217336
-0.2750189602 -0.1617114395 0.5789084435 4281283129
-0.2750843167 -0.1611065120 0.5790460110 4281283129
-0.2755657434 -0.1607439667 0.5800594091 4281217336
-0.2756307721 -0.1601372659 0.5801962614 4281217336
-0.2761120498 -0.1597711146 0.5812093616 4281217336
-0.2761767507 -0.1591626406 0.5813455582 4281217336
-0.2766578794 -0.1587928832 0.5823583603 4281348920
-0.2767222524 -0.1581826210 0.5824938416 4281414713
-0.2767863870 -0.1575719565 0.5826288462 4281414713
-0.2768503129 -0.1569608450 0.5827634335 4281217334
-0.2773310840 -0.1565847993 0.5837753415 4281085750
-0.2778117955 -0.1562064737 0.5847872496 4281151543
-0.2782924771 -0.1558258832 0.5857990980 4281348922
-0.2783558071 -0.1552103311 0.5859324336 4281743680
-0.2788363397 -0.1548261493 0.5869439244 4282335817
-0.2793168426 -0.1544396877 0.5879553556 4282927954
-0.2798600197 -0.1534309536 0.5890987515 4282796368
-0.2803403139 -0.1530386209 0.5901097059 4282730575
-0.2808205485 -0.1526440084 0.5911206603 4282730575
-0.2813007534 -0.1522471309 0.5921314955 4282598989
-0.2813628614 -0.1516226977 0.5922622085 4282467403
-0.2818428874 -0.1512222141 0.5932726264 4282533196
-0.2823228836 -0.1508194506 0.5942829847 4282533196
-0.2823844552 -0.1501919180 0.5944126248 4282598989
-0.2824458182 -0.1495639831 0.5945417881 4282598989
-0.2825069726 -0.1489356309 0.5946704745 4282467403
-0.2825678587 -0.1483068764 0.5947986841 4282335817
-0.2830472291 -0.1478964835 0.5958077908 4282401610
-0.2831077576 -0.1472659856 0.5959351659 4282467403
-0.2831680477 -0.1466350853 0.5960620642 4282335817
-0.2832281291 -0.1460037678 0.5961884856 4282138438
-0.2832879424 -0.1453720629 0.5963144302 4282270022
-0.2833475173 -0.1447399557 0.5964398980 4282335815
-0.2838261425 -0.1443206221 0.5974473357 4282138436
-0.2838853300 -0.1436867863 0.5975719094 4282072643
-0.2839443088 -0.1430525631 0.5976960659 4282073156
-0.2840030491 -0.1424179226 0.5978196859 4282007363
-0.2840615511 -0.1417829096 0.5979428291 4281941572
-0.2841198146 -0.1411474943 0.5980654955 4281941572
-0.2841778398 -0.1405116916 0.5981876254 4281941572
-0.2842355967 -0.1398754865 0.5983092785 4281809986
-0.2842931449 -0.1392389089 0.5984303951 4281678400
-0.2843504548 -0.1386019439 0.5985510349 4281612607
-0.2844075263 -0.1379645914 0.5986711383 4281612607
-0.2844643593 -0.1373268664 0.5987907648 4281612607
-0.2845209241 -0.1366887540 0.5989098549 4281744193
-0.2845772803 -0.1360502541 0.5990284681 4281678400
-0.2850538194 -0.1356114000 0.6000315547 4281678400
-0.2851097584 -0.1349712014 0.6001493335 4281678400
-0.2851654589 -0.1343306303 0.6002665758 4281678400
-0.2856415808 -0.1338868588 0.6012688279 4281678400
-0.2856968939 -0.1332446039 0.6013852358 4281547328
-0.2857519388 -0.1326019615 0.6015011072 4281547328
-0.2858067453 -0.1319589615 0.6016164422 4281744193
-0.2858612835 -0.1313155740 0.6017313004 4281744193
-0.2859156132 -0.1306718290 0.6018456221 4281809986
-0.2859696746 -0.1300277263 0.6019594073 4281809986
-0.2860234976 -0.1293832511 0.6020727158 4281547328
-0.2860770524 -0.1287384033 0.6021854877 4281547328
-0.2861303985 -0.1280932128 0.6022977233 4281613121
-0.2861834466 -0.1274476498 0.6024094224 4281613121
-0.2866578400 -0.1269884855 0.6034079790 4281810502
-0.2867105007 -0.1263412535 0.6035188437 4281744709
-0.2867628932 -0.1256936640 0.6036291122 4281613636
-0.2868150473 -0.1250457317 0.6037389040 4281613636
-0.2868669629 -0.1243974417 0.6038481593 4281679429
-0.2873405516 -0.1239307895 0.6048451066 4281942601
-0.2873920202 -0.1232808456 0.6049534082 4282205773
-0.2878653407 -0.1228106245 0.6059497595 4282403152
-0.2879163921 -0.1221590266 0.6060572267 4282731088
-0.2879671752 -0.1215070859 0.6061640978 4282862674
-0.2875953913 -0.1206775978 0.6053815484 4282994774
-0.2880679965 -0.1202021763 0.6063763499 4283257946
-0.2881180346 -0.1195492074 0.6064816713 4283521118
-0.2881678045 -0.1188958958 0.6065863967 4283718497
-0.2877947092 -0.1180688739 0.6058011055 4283981671
-0.2878439128 -0.1174158528 0.6059046388 4284179050
-0.2878928185 -0.1167624891 0.6060076356 4284771700
-0.2879415154 -0.1161088049 0.6061100960 4285100665
-0.2879899144 -0.1154547855 0.6062120199 4285627009
-0.2884610593 -0.1149690077 0.6072037220 4286284939
-0.2885090113 -0.1143133715 0.6073046923 4287074455
-0.2885567546 -0.1136574075 0.6074051261 4287929764
-0.2890273631 -0.1131668091 0.6083958149 4288785073
-0.2890746295 -0.1125092357 0.6084952950 4289377210
-0.2891216576 -0.1118513346 0.6085942388 4289968834
-0.2739818394 -0.2122196257 0.5780767798 4291350485
-0.2740639448 -0.2116407454 0.5782500505 4289508281
-0.2741459012 -0.2110613585 0.5784229636 4288916144
-0.2742276788 -0.2104814500 0.5785955191 4289310904
-0.2739022672 -0.2095896006 0.5779089332 4289837248
-0.2735764682 -0.2086989582 0.5772215128 4290034625
-0.2736574709 -0.2081192285 0.5773923993 4288981937
-0.2737382650 -0.2075389773 0.5775629282 4287203480
-0.2734114528 -0.2066502273 0.5768733621 4285361276
-0.2734917998 -0.2060698271 0.5770428777 4285428347
-0.2731642425 -0.2051826566 0.5763517618 4286941586
-0.2732441127 -0.2046020925 0.5765202641 4287139737
-0.2733238041 -0.2040210217 0.5766884089 4286350221
-0.2734033167 -0.2034394294 0.5768561363 4285362046
-0.2734826207 -0.2028573453 0.5770235062 4284375151
-0.2731534839 -0.2019728422 0.5763290524 4285162608
-0.2728239000 -0.2010895908 0.5756336451 4283451990
-0.2729024291 -0.2005077153 0.5757993460 4278453254
-0.2729808092 -0.1999253482 0.5759646893 4279176977
-0.2726502120 -0.1990440786 0.5752671957 4281997326
-0.2723191977 -0.1981640309 0.5745687485 4283773737
-0.2707607448 -0.1963952333 0.5712805986 4286988067
-0.2704285681 -0.1955203265 0.5705797076 4287382825
-0.2692774832 -0.1940568388 0.5681509972 4287185697
-0.2701722682 -0.1940683275 0.5700389743 4286725146
-0.2690200210 -0.1926099956 0.5676078200 4284430377
-0.2682764530 -0.1914487183 0.5660389662 4283969826
-0.2679419518 -0.1905818880 0.5653332472 4281020984
-0.2676070631 -0.1897163391 0.5646265745 4281152570
-0.2668617964 -0.1885624081 0.5630541444 4281415228
-0.2665259540 -0.1877002865 0.5623455644 4281481021
-0.2657795250 -0.1865515709 0.5607706904 4281415996
-0.2654427290 -0.1856929064 0.5600600839 4281218617
-0.2651055455 -0.1848355383 0.5593486428 4281611324
-0.2647679150 -0.1839794666 0.5586363077 4281940289
-0.2648405135 -0.1834090501 0.5587894320 4281939770
-0.2645021975 -0.1825546920 0.5580756068 4281545012
-0.2645742893 -0.1819842160 0.5582277179 4281283129
-0.2646462023 -0.1814132780 0.5583794713 4281217336
-0.2647179067 -0.1808418781 0.5585308075 4281217336
-0.2647894621 -0.1802700162 0.5586817265 4281217336
-0.2652720809 -0.1799767166 0.5597000122 4281217336
-0.2653433383 -0.1794030368 0.5598503947 4281217336
-0.2658259273 -0.1791061461 0.5608685613 4281217336
-0.2663085461 -0.1788070202 0.5618868470 4281151543
-0.2659677267 -0.1779547036 0.5611677766 4281085750
-0.2664501667 -0.1776528656 0.5621857047 4281085750
-0.2669326365 -0.1773487926 0.5632036924 4281085750
-0.2665910721 -0.1764968783 0.5624829531 4281151543
-0.2670733631 -0.1761901081 0.5635005236 4281217336
-0.2671434283 -0.1756100655 0.5636484027 4281217336
-0.2676256597 -0.1752996892 0.5646658540 4281217336
-0.2672829628 -0.1744486392 0.5639427900 4281217336
-0.2677650154 -0.1741355509 0.5649598837 4281151543
-0.2678344250 -0.1735528111 0.5651063323 4281151543
-0.2679036260 -0.1729696095 0.5652523041 4281217336
-0.2683854997 -0.1726515740 0.5662690401 4281283129
-0.2684544027 -0.1720665693 0.5664144158 4281217336
-0.2685231268 -0.1714811176 0.5665594339 4281151543
-0.2690048516 -0.1711581349 0.5675758123 4281151543
-0.2690732479 -0.1705708951 0.5677201152 4281019957
-0.2695548832 -0.1702443063 0.5687363744 4281085750
-0.2700365484 -0.1699154675 0.5697525740 4281217336
-0.2705181837 -0.1695843637 0.5707688332 4281151543
-0.2709998488 -0.1692510247 0.5717850924 4280822578
-0.2714815140 -0.1689154208 0.5728013515 4280888371
-0.2719631791 -0.1685775518 0.5738176107 4281085750
-0.2720307708 -0.1679817587 0.5739602447 4281019957
-0.2720981836 -0.1673855036 0.5741024613 4281019957
-0.2721653879 -0.1667888165 0.5742442608 4281019957
-0.2726467550 -0.1664446443 0.5752598643 4281019957
-0.2727136314 -0.1658461690 0.5754010081 4281085750
-0.2727802992 -0.1652472466 0.5755416751 4281085750
-0.2728467882 -0.1646478921 0.5756819248 4281085750
-0.2729130387 -0.1640481055 0.5758217573 4281085750
-0.2729790807 -0.1634478718 0.5759611130 4281151543
-0.2734599113 -0.1630946994 0.5769755840 4281151543
-0.2739406824 -0.1627392620 0.5779899955 4281085750
-0.2744214833 -0.1623815596 0.5790044069 4281085750
-0.2749022245 -0.1620215923 0.5800187588 4281085750
-0.2753829956 -0.1616593599 0.5810331106 4281085750
-0.2754482627 -0.1610519588 0.5811707973 4281085750
-0.2755133212 -0.1604441255 0.5813080668 4281019957
-0.2759938240 -0.1600769460 0.5823218822 4281085750
-0.2764742970 -0.1597074866 0.5833356380 4281085750
-0.2765388787 -0.1590965241 0.5834719539 4281019955
-0.2766032815 -0.1584851444 0.5836077929 4281217334
-0.2766674459 -0.1578733325 0.5837432146 4281348920
-0.2771475315 -0.1574975699 0.5847561359 4281348920
-0.2772113681 -0.1568839848 0.5848908424 4281217336
-0.2772749662 -0.1562699825 0.5850250125 4281348922
-0.2777547836 -0.1558892727 0.5860373974 4281677887
-0.2782345712 -0.1555062979 0.5870496631 4282072645
-0.2787142992 -0.1551210433 0.5880618691 4282072645
-0.2787773013 -0.1545025855 0.5881948471 4282467403
-0.2792569101 -0.1541137248 0.5892066956 4282467403
-0.2797364295 -0.1537225991 0.5902184844 4282335817
-0.2793819606 -0.1528728604 0.5894706249 4282270024
-0.2802783251 -0.1527062953 0.5913618803 4282270024
-0.2807576656 -0.1523092836 0.5923731923 4282467403
-0.2808196843 -0.1516846120 0.5925040841 4282467403
-0.2812988460 -0.1512839943 0.5935150385 4282335817
-0.2813605070 -0.1506575793 0.5936451554 4282401610
-0.2814219296 -0.1500307471 0.5937747359 4282598989
-0.2814831436 -0.1494034976 0.5939038992 4282598989
-0.2815441191 -0.1487758458 0.5940325260 4282401610
-0.2816048563 -0.1481477916 0.5941606760 4282270024
-0.2820832729 -0.1477382034 0.5951700807 4282270024
-0.2821436524 -0.1471084058 0.5952974558 4282204231
-0.2822037637 -0.1464781910 0.5954243541 4282335817
-0.2822636664 -0.1458475888 0.5955507755 4282270024
-0.2823233604 -0.1452165842 0.5956766605 4282401610
-0.2823827863 -0.1445851773 0.5958020687 4282467403
-0.2828604281 -0.1441666335 0.5968098044 4282138951
-0.2829194665 -0.1435334980 0.5969344378 4282007365
-0.2829782963 -0.1428999603 0.5970585346 4281941572
-0.2830368876 -0.1422660351 0.5971821547 4281941572
-0.2830952406 -0.1416317225 0.5973052382 4282007365
-0.2831533253 -0.1409970075 0.5974278450 4282073158
-0.2832112014 -0.1403619051 0.5975499749 4282073158
-0.2832688391 -0.1397264153 0.5976715684 4282073158
-0.2833262384 -0.1390905231 0.5977926850 4281941572
-0.2833833992 -0.1384542584 0.5979132652 4281809986
-0.2834403217 -0.1378176212 0.5980333686 4281809986
-0.2834970057 -0.1371805817 0.5981529355 4282007365
-0.2835534513 -0.1365431696 0.5982720256 4282007365
-0.2836096287 -0.1359053850 0.5983905792 4282007365
-0.2836655974 -0.1352672130 0.5985086560 4282073158
-0.2841410041 -0.1348278075 0.5995117426 4282204744
-0.2841965854 -0.1341879517 0.5996289849 4282138951
-0.2842518985 -0.1335477084 0.5997456908 4282138951
-0.2843069434 -0.1329070926 0.5998618603 4282204744
-0.2847818136 -0.1324614733 0.6008637547 4282402123
-0.2848364711 -0.1318191588 0.6009790897 4282336844
-0.2848908901 -0.1311764866 0.6010939479 4282468430
-0.2849450707 -0.1305334419 0.6012082100 4282665809
-0.2849989831 -0.1298900396 0.6013219953 4282863188
-0.2850526571 -0.1292462647 0.6014352441 4283060567
-0.2851060927 -0.1286021322 0.6015480161 4283126360
-0.2851592898 -0.1279576272 0.6016602516 4283257948
-0.2852122188 -0.1273127794 0.6017718911 4283521120
-0.2852649093 -0.1266675591 0.6018831134 4284113257
-0.2853173614 -0.1260219961 0.6019937396 4284179050
-0.2853695452 -0.1253760606 0.6021038890 4284244843
-0.2854214907 -0.1247297823 0.6022134423 4284442222
-0.2863152921 -0.1244491786 0.6040992737 4284705907
-0.2863668799 -0.1238002852 0.6042081714 4285100665
-0.2864182293 -0.1231510416 0.6043164730 4285561216
-0.2864693403 -0.1225014478 0.6044242978 4285890181
-0.2865201831 -0.1218515113 0.6045315266 4286284426
-0.2865707576 -0.1212012321 0.6046382785 4286481805
-0.2866210938 -0.1205506027 0.6047444940 4286810770
-0.2866711617 -0.1198996380 0.6048501730 4287205528
-0.2867209911 -0.1192483306 0.6049553156 4287600286
-0.2867705822 -0.1185966805 0.6050598621 4287929251
-0.2868199050 -0.1179446951 0.6051639318 4288192423
-0.2868689597 -0.1172923744 0.6052674651 4288455595
-0.2869177759 -0.1166397259 0.6053704619 4289047732
-0.2869663239 -0.1159867346 0.6054728627 4289376697
-0.2870146036 -0.1153334230 0.6055747867 4289640384
-0.2870626450 -0.1146797761 0.6056761146 4289969349
-0.2724700868 -0.2128248662 0.5762374997 4292140003
-0.2729577720 -0.2125644237 0.5772688985 4290034625
-0.2730398476 -0.2119867653 0.5774425268 4289047730
-0.2727159262 -0.2110944539 0.5767574310 4289968832
-0.2727975249 -0.2105166018 0.5769300461 4291284692
-0.2720668316 -0.2093134224 0.5753846765 4291350485
-0.2721478343 -0.2087362707 0.5755560398 4290824141
-0.2722286880 -0.2081585974 0.5757269859 4288850351
-0.2723093331 -0.2075804025 0.5758975744 4288258214
-0.2719832659 -0.2066927552 0.5752079487 4289308858
-0.2720544338 -0.2029112577 0.5753585100 4289244090
-0.2721334398 -0.2023307234 0.5755255818 4285164924
-0.2718047500 -0.2014476657 0.5748304129 4281873728
-0.2714756429 -0.2005658448 0.5741344094 4279242008
-0.2715538740 -0.1999855340 0.5742998123 4279835932
-0.2716318965 -0.1994047314 0.5744648576 4279375381
-0.2713017762 -0.1985248923 0.5737667084 4280617216
-0.2709712386 -0.1976463050 0.5730676651 4282591004
-0.2706402838 -0.1967689693 0.5723677278 4286397217
-0.2699005902 -0.1955969781 0.5708034039 4287120940
-0.2691602409 -0.1944279820 0.5692376494 4287055139
-0.2688278258 -0.1935561746 0.5685346127 4286397209
-0.2684949636 -0.1926856190 0.5678306818 4284299304
-0.2681617141 -0.1918163449 0.5671259165 4283970339
-0.2674191594 -0.1906568110 0.5655554533 4281021497
-0.2670849562 -0.1897909492 0.5648486614 4281021497
-0.2659320831 -0.1883468479 0.5624105334 4281284158
-0.2664152980 -0.1880630851 0.5634324551 4281284158
-0.2656705081 -0.1869130731 0.5618573427 4281284410
-0.2649250925 -0.1857661009 0.5602808595 4281218617
-0.2645885944 -0.1849084347 0.5595692396 4281742910
-0.2646614015 -0.1843374223 0.5597231984 4282071875
-0.2647340000 -0.1837659329 0.5598767400 4281939768
-0.2648064494 -0.1831939667 0.5600299239 4281479217
-0.2644686401 -0.1823388487 0.5593155622 4281217336
-0.2645405829 -0.1817668378 0.5594676733 4281283129
-0.2646123469 -0.1811943650 0.5596194267 4281283129
-0.2646839023 -0.1806214303 0.5597707629 4281283129
-0.2651657462 -0.1803271621 0.5607898235 4281217336
-0.2652370632 -0.1797524095 0.5609406233 4281217336
-0.2653081715 -0.1791771799 0.5610910058 4281217336
-0.2657898962 -0.1788779646 0.5621097684 4281217336
-0.2658607066 -0.1783009320 0.5622596145 4281085750
-0.2663424015 -0.1779981256 0.5632782578 4281151543
-0.2668240964 -0.1776930690 0.5642969608 4281151543
-0.2664833367 -0.1768399626 0.5635763407 4281151543
-0.2669648528 -0.1765322089 0.5645946860 4281217336
-0.2670349479 -0.1759510785 0.5647429228 4281151543
-0.2675164044 -0.1756397188 0.5657611489 4281217336
-0.2675862014 -0.1750567853 0.5659087896 4281348922
-0.2680675983 -0.1747418195 0.5669268370 4281217336
-0.2681371272 -0.1741570830 0.5670738816 4281151543
-0.2682064474 -0.1735718846 0.5672205091 4281283129
-0.2682755888 -0.1729862392 0.5673667192 4281283129
-0.2687567174 -0.1726649702 0.5683842301 4281151543
-0.2688255608 -0.1720775068 0.5685298443 4281151543
-0.2693066001 -0.1717526317 0.5695471764 4281217336
-0.2693751454 -0.1711633801 0.5696921349 4281085750
-0.2698561251 -0.1708348840 0.5707092881 4281151543
-0.2699243724 -0.1702438295 0.5708536506 4281283129
-0.2704052329 -0.1699117273 0.5718706250 4281019957
-0.2708861232 -0.1695773751 0.5728875995 4280690992
-0.2713669837 -0.1692407727 0.5739046335 4280888371
-0.2718478739 -0.1689018905 0.5749216080 4281151543
-0.2719155252 -0.1683049798 0.5750646591 4281085750
-0.2719829381 -0.1677076221 0.5752072930 4281019957
-0.2720501721 -0.1671098173 0.5753494501 4281085750
-0.2725307643 -0.1667646319 0.5763658285 4281019957
-0.2725976706 -0.1661650389 0.5765073299 4281085750
-0.2726643682 -0.1655649990 0.5766484141 4281085750
-0.2727308571 -0.1649645269 0.5767890215 4281019957
-0.2732111216 -0.1646130234 0.5778046846 4281019957
-0.2728632390 -0.1637622565 0.5770689845 4281019957
-0.2737573981 -0.1636556387 0.5789600015 4280954164
-0.2742375135 -0.1632982641 0.5799753666 4280888371
-0.2747176290 -0.1629386246 0.5809907317 4280888371
-0.2751976848 -0.1625767201 0.5820060372 4280822578
-0.2752632201 -0.1619686186 0.5821446180 4280822578
-0.2753285170 -0.1613600850 0.5822827220 4280888371
-0.2753936052 -0.1607511193 0.5824203491 4280954164
-0.2758733034 -0.1603828967 0.5834348798 4280954164
-0.2759380639 -0.1597721428 0.5835717916 4280954164
-0.2764176428 -0.1594003141 0.5845860243 4280954675
-0.2764820457 -0.1587877870 0.5847222805 4281152054
-0.2765462399 -0.1581748277 0.5848580003 4281481019
-0.2766101956 -0.1575614512 0.5849933028 4281744191
-0.2770893872 -0.1571833044 0.5860067010 4281744193
-0.2771530151 -0.1565681547 0.5861412883 4281809986
-0.2776320577 -0.1561864018 0.5871543884 4281941572
-0.2781110406 -0.1558023691 0.5881673694 4282073158
-0.2777583897 -0.1549521387 0.5874215961 4282204231
-0.2782371342 -0.1545654237 0.5884340405 4282204231
-0.2787158489 -0.1541764289 0.5894464254 4282072645
-0.2791945040 -0.1537851691 0.5904587507 4282335817
-0.2788407803 -0.1529351175 0.5897106528 4282335817
-0.2797354460 -0.1527685076 0.5916028023 4282138438
-0.2802139223 -0.1523713619 0.5926146507 4282270024
-0.2802758515 -0.1517464668 0.5927456617 4282204231
-0.2807541490 -0.1513457149 0.5937571526 4282006852
-0.2808157206 -0.1507190615 0.5938874483 4282072645
-0.2808770835 -0.1500920057 0.5940172076 4282204231
-0.2809382379 -0.1494645327 0.5941464901 4282270024
-0.2809991241 -0.1488366574 0.5942752957 4282204231
-0.2810598016 -0.1482083648 0.5944036245 4282270024
-0.2811202407 -0.1475796700 0.5945314765 4282401610
-0.2811804712 -0.1469505727 0.5946587920 4282335817
-0.2812404335 -0.1463210732 0.5947856307 4282270024
-0.2813001871 -0.1456911713 0.5949119925 4282270024
-0.2817771435 -0.1452760845 0.5959206820 4282270537
-0.2818365395 -0.1446444392 0.5960462689 4282270537
-0.2818956673 -0.1440124065 0.5961713195 4282204744
-0.2819545567 -0.1433799714 0.5962958932 4282270537
-0.2820132375 -0.1427471340 0.5964199901 4282533709
-0.2820716500 -0.1421139091 0.5965435505 4282731088
-0.2821298540 -0.1414802969 0.5966666341 4282731088
-0.2817697525 -0.1406376213 0.5959050655 4282862674
-0.2818273902 -0.1400041580 0.5960269570 4282862674
-0.2818847895 -0.1393703073 0.5961483717 4282994260
-0.2819419503 -0.1387360692 0.5962692499 4283060053
-0.2819989026 -0.1381014585 0.5963896513 4282994260
-0.2820555866 -0.1374664456 0.5965095162 4283125846
-0.2821120322 -0.1368310601 0.5966289043 4283586397
-0.2821682394 -0.1361953020 0.5967478156 4283520604
-0.2822242081 -0.1355591565 0.5968661904 4283717983
-0.2826987505 -0.1351228058 0.5978697538 4284112741
-0.2827543318 -0.1344849616 0.5979872942 4284441706
-0.2832286358 -0.1340450346 0.5989903808 4284639085
-0.2832837999 -0.1334054917 0.5991070271 4284902257
-0.2833387256 -0.1327655911 0.5992231965 4285428601
-0.2833934128 -0.1321253031 0.5993388891 4285889152
-0.2838671505 -0.1316791475 0.6003407836 4285889666
-0.2839214206 -0.1310371757 0.6004555821 4286218631
-0.2839754522 -0.1303948462 0.6005698442 4286613389
-0.2840292454 -0.1297521293 0.6006835699 4287008147
-0.2840828001 -0.1291090697 0.6007968187 4287337114
-0.2837163806 -0.1282758713 0.6000218987 4287468700
-0.2837693691 -0.1276330352 0.6001339555 4287600286
-0.2838220894 -0.1269898266 0.6002454758 4287929251
-0.2838745713 -0.1263462752 0.6003564596 4288587181
-0.2839267850 -0.1257023662 0.6004669070 4288718767
-0.2843988538 -0.1252430826 0.6014652848 4288850353
-0.2844506800 -0.1245975122 0.6015748382 4289113525
-0.2849224806 -0.1241346672 0.6025726199 4289508283
-0.2849738598 -0.1234874353 0.6026812792 4289771455
-0.2850250006 -0.1228398532 0.6027894616 4289837248
-0.2850758731 -0.1221919209 0.6028970480 4290034627
-0.2851265073 -0.1215436459 0.6030041575 4290166213
-0.2706391513 -0.2125298828 0.5737128854 4291153108
-0.2711256444 -0.2122733444 0.5747442245 4289508283
-0.2712074220 -0.2116986066 0.5749176145 4289574074
-0.2712890506 -0.2111233473 0.5750905871 4291350485
-0.2713704705 -0.2105475664 0.5752632618 4291679450
-0.2714517415 -0.2099712640 0.5754355192 4289968832
-0.2711275518 -0.2090819180 0.5747482777 4288652972
-0.2712083459 -0.2085054517 0.5749195814 4288455593
-0.2704779506 -0.2073068470 0.5733712316 4289968834
-0.2708653212 -0.2012240589 0.5741923451 4288584610
-0.2709436119 -0.2006440759 0.5743583441 4283386963
-0.2710217237 -0.2000635862 0.5745239854 4280293665
-0.2706926167 -0.1991830766 0.5738263130 4280030493
-0.2707702518 -0.1986024678 0.5739908814 4280226331
-0.2704404294 -0.1977235824 0.5732916594 4280292124
-0.2701101899 -0.1968459338 0.5725916028 4283836191
-0.2693720162 -0.1956735253 0.5710268021 4285415223
-0.2690408230 -0.1947992742 0.5703247190 4285743418
-0.2687092125 -0.1939262897 0.5696217418 4284690730
-0.2679693103 -0.1927611679 0.5680533051 4283839279
-0.2676367760 -0.1918915957 0.5673483610 4283773486
-0.2673038244 -0.1910232753 0.5666425228 4282005298
-0.2673786581 -0.1904470026 0.5668011904 4282136884
-0.2670449913 -0.1895803660 0.5660938621 4281350713
-0.2663024664 -0.1884260178 0.5645198226 4281284920
-0.2655592859 -0.1872747093 0.5629444122 4281479991
-0.2652241588 -0.1864136904 0.5622339845 4281348405
-0.2644798458 -0.1852676123 0.5606561303 4281545785
-0.2645526528 -0.1846955270 0.5608105063 4281611578
-0.2646253109 -0.1841229647 0.5609645247 4281087805
-0.2642886341 -0.1832662374 0.5602508187 4280956219
-0.2643607855 -0.1826936156 0.5604037642 4281283640
-0.2644327581 -0.1821205318 0.5605563521 4281349433
-0.2645045519 -0.1815469861 0.5607085228 4281348920
-0.2649856806 -0.1812531203 0.5617284775 4281283127
-0.2650572062 -0.1806777418 0.5618801117 4281348920
-0.2651285231 -0.1801019013 0.5620312691 4281283127
-0.2656095624 -0.1798030734 0.5630509853 4281086263
-0.2656806111 -0.1792254150 0.5632016063 4281152056
-0.2661615908 -0.1789229959 0.5642212033 4281217849
-0.2662323713 -0.1783435196 0.5643712282 4281086263
-0.2667132914 -0.1780374795 0.5653907061 4281152054
-0.2667838037 -0.1774562001 0.5655401945 4281152054
-0.2672646642 -0.1771465540 0.5665595531 4281086261
-0.2673348784 -0.1765634567 0.5667083859 4281086261
-0.2674049139 -0.1759798825 0.5668568611 4281086777
-0.2674747407 -0.1753958613 0.5670049191 4281152570
-0.2679553628 -0.1750799119 0.5680237412 4281348406
-0.2680249214 -0.1744940728 0.5681711435 4281414199
-0.2685054541 -0.1741745025 0.5691898465 4281348406
-0.2681634128 -0.1733210385 0.5684647560 4281282613
-0.2686437666 -0.1729987711 0.5694830418 4281414199
-0.2687126398 -0.1724102050 0.5696290135 4281414199
-0.2691929042 -0.1720843315 0.5706471205 4281085748
-0.2692614794 -0.1714939773 0.5707924962 4281085748
-0.2697416842 -0.1711644828 0.5718104243 4280954162
-0.2698099315 -0.1705723256 0.5719551444 4281217334
-0.2702900469 -0.1702392250 0.5729728937 4280888369
-0.2707701325 -0.1699038595 0.5739905834 4280493611
-0.2712502480 -0.1695662439 0.5750083327 4281019955
-0.2713180184 -0.1689695716 0.5751519799 4280822576
-0.2717980146 -0.1686283350 0.5761695504 4280823089
-0.2718654573 -0.1680298746 0.5763125420 4280823089
-0.2719327211 -0.1674309522 0.5764551163 4280559404
-0.2724125087 -0.1670847535 0.5774721503 4280493611
-0.2724794447 -0.1664840281 0.5776140690 4280493613
-0.2725461721 -0.1658828855 0.5777555108 4280427820
-0.2726126909 -0.1652812809 0.5778965354 4280427820
-0.2726790011 -0.1646792442 0.5780371428 4280427820
-0.2731583714 -0.1643253714 0.5790532827 4280427818
-0.2732243538 -0.1637215465 0.5791931748 4280296232
-0.2737035751 -0.1633640528 0.5802090168 4280164646
-0.2741827965 -0.1630042940 0.5812249184 4280230439
-0.2746619880 -0.1626422703 0.5822407603 4280165161
-0.2747274339 -0.1620339602 0.5823794603 4280296747
-0.2752065063 -0.1616683155 0.5833950043 4280559919
-0.2752715945 -0.1610582173 0.5835330486 4280625712
-0.2753365040 -0.1604476869 0.5836705565 4280691503
-0.2758153081 -0.1600770801 0.5846855640 4280954675
-0.2758798599 -0.1594647616 0.5848224163 4280823091
-0.2763585448 -0.1590905488 0.5858371258 4281217849
-0.2764227390 -0.1584764570 0.5859732628 4281349435
-0.2764867544 -0.1578619331 0.5861089230 4281349435
-0.2765505314 -0.1572469920 0.5862441659 4281481021
-0.2766140997 -0.1566316187 0.5863788724 4281678400
-0.2766774297 -0.1560158283 0.5865131617 4281678146
-0.2771554589 -0.1556326002 0.5875265002 4281546560
-0.2772184312 -0.1550150365 0.5876600146 4281546560
-0.2776963115 -0.1546281874 0.5886729956 4281809732
-0.2782366276 -0.1536183953 0.5898184180 4282007111
-0.2782989144 -0.1529973149 0.5899504423 4282007111
-0.2787764370 -0.1526032239 0.5909627080 4282072904
-0.2792539299 -0.1522068828 0.5919749141 4282204490
-0.2793157101 -0.1515826881 0.5921059251 4282336076
-0.2797930241 -0.1511827260 0.5931177139 4282401869
-0.2798544466 -0.1505567729 0.5932479501 4282533455
-0.2799156606 -0.1499304175 0.5933777094 4282665041
-0.2799766362 -0.1493036449 0.5935069323 4282928213
-0.2800373733 -0.1486764699 0.5936357379 4283191385
-0.2800979018 -0.1480488777 0.5937640071 4283388764
-0.2797419131 -0.1472018361 0.5930093527 4283455327
-0.2798018754 -0.1465743780 0.5931364894 4283718499
-0.2802780569 -0.1461637020 0.5941459537 4284113259
-0.2803376615 -0.1455345005 0.5942722559 4284376431
-0.2803970277 -0.1449048966 0.5943980813 4284573810
-0.2804561555 -0.1442748904 0.5945234299 4284639603
-0.2805150449 -0.1436444968 0.5946483016 4284705909
-0.2809906006 -0.1432261914 0.5956563950 4284837495
-0.2810491025 -0.1425940692 0.5957804322 4285034874
-0.2811073959 -0.1419615448 0.5959039927 4285298046
-0.2811654508 -0.1413286328 0.5960270166 4285429117
-0.2808060050 -0.1404865682 0.5952650905 4285626496
-0.2804461718 -0.1396460086 0.5945022702 4285889668
-0.2805033326 -0.1390138119 0.5946234465 4286218633
-0.2805602551 -0.1383812129 0.5947441459 4286547598
-0.2806169391 -0.1377482414 0.5948643088 4286679184
-0.2806734145 -0.1371148825 0.5949839950 4286942356
-0.2807296216 -0.1364811510 0.5951031446 4287271321
-0.2812034488 -0.1360491812 0.5961076021 4287666081
-0.2812592685 -0.1354137361 0.5962259173 4287666081
-0.2813148499 -0.1347779185 0.5963437557 4288126632
-0.2813701928 -0.1341417283 0.5964610577 4288587183
-0.2818434536 -0.1337035298 0.5974643230 4288850355
-0.2818984091 -0.1330656409 0.5975807905 4289113527
-0.2819531262 -0.1324273795 0.5976967812 4289442492
-0.2824259698 -0.1319842786 0.5986992121 4289574078
-0.2824802697 -0.1313443333 0.5988143086 4289640384
-0.2825343311 -0.1307040155 0.5989288688 4289771970
-0.2825881541 -0.1300633252 0.5990429521 4289903556
-0.2688131332 -0.2122287601 0.5711869001 4290560971
-0.2692984045 -0.2119761109 0.5722180605 4289047732
-0.2697837651 -0.2117212415 0.5732493401 4290166213
-0.2698652148 -0.2111480385 0.5734224319 4291613657
-0.2695423663 -0.2102590948 0.5727364421 4290429383
-0.2696233690 -0.2096857280 0.5729085207 4288718251
-0.2697041631 -0.2091118246 0.5730801821 4288784044
-0.2689758539 -0.2079121321 0.5715326071 4289836732
-0.2700049281 -0.2004208267 0.5737192631 4289110956
-0.2700828612 -0.1998410374 0.5738848448 4284043866
-0.2697543204 -0.1989610940 0.5731867552 4279569942
-0.2694253922 -0.1980824172 0.5724878311 4280423968
-0.2690960467 -0.1972049773 0.5717880130 4279766038
-0.2691728771 -0.1966257989 0.5719512701 4280947986
-0.2688428164 -0.1957499981 0.5712499619 4282066467
-0.2681054771 -0.1945801824 0.5696832538 4282591528
-0.2681814432 -0.1940021515 0.5698446035 4282130977
-0.2678501308 -0.1931301355 0.5691406131 4282198825
-0.2675184011 -0.1922593862 0.5684357882 4282790962
-0.2671862543 -0.1913898885 0.5677300692 4281743413
-0.2664463222 -0.1902308166 0.5661577582 4281677620
-0.2665207684 -0.1896547526 0.5663159490 4281415479
-0.2657797635 -0.1884999871 0.5647414327 4281415479
-0.2654458582 -0.1876364946 0.5640319586 4281610807
-0.2651115656 -0.1867742985 0.5633215904 4281479221
-0.2647768259 -0.1859133840 0.5626103878 4281675577
-0.2644416988 -0.1850537658 0.5618982911 4281741370
-0.2645143867 -0.1844801307 0.5620526671 4281282877
-0.2641785443 -0.1836222261 0.5613390803 4281217084
-0.2642507255 -0.1830485314 0.5614924431 4281348920
-0.2643227279 -0.1824743748 0.5616454482 4281414713
-0.2643945217 -0.1818997562 0.5617980361 4281479992
-0.2648749053 -0.1816049069 0.5628187656 4281479992
-0.2649464309 -0.1810284555 0.5629707575 4281479992
-0.2650178075 -0.1804515421 0.5631223917 4281479992
-0.2654980421 -0.1801517457 0.5641428232 4281283129
-0.2655691206 -0.1795729995 0.5642938614 4281283129
-0.2660493255 -0.1792695969 0.5653142333 4281217336
-0.2661201358 -0.1786890477 0.5654646754 4281217336
-0.2666002810 -0.1783820391 0.5664849281 4281283127
-0.2670804262 -0.1780727655 0.5675051808 4281348920
