VERSION 0.7
FIELDS x y z rgba
SIZE 4 4 4 4
TYPE F F F U
COUNT 1 1 1 1
WIDTH 920
HEIGHT 1
VIEWPOINT 0.0 0.0 0.0 1.0 0.0 0.0 0.0
POINTS 920
DATA ascii
-0.2403046042 -0.2485808283 0.5385733843 4291284178
-0.2415186614 -0.2492352724 0.5412942767 4291086799
-0.2416061610 -0.2487239391 0.5414904356 4291217870
-0.2409417778 -0.2474400103 0.5400013924 4290954698
-0.2414048016 -0.2473143786 0.5410391092 4290625733
-0.2411156595 -0.2464177459 0.5403910875 4290099389
-0.2412024140 -0.2459057868 0.5405855179 4290033851
-0.2427947670 -0.2469245940 0.5441543460 4289573300
-0.2417521477 -0.2452622503 0.5418176055 4289440942
-0.2422153950 -0.2451290637 0.5428557992 4289111977
-0.2423019409 -0.2446132898 0.5430498123 4288783005
-0.2427653521 -0.2444765866 0.5440884233 4288519833
-0.2428517938 -0.2439589202 0.5442821383 4288190614
-0.2433153540 -0.2438187003 0.5453211069 4288059028
-0.2434016913 -0.2432991117 0.5455145836 4288124821
-0.2434879094 -0.2427789718 0.5457078218 4288059028
-0.2439516336 -0.2426338643 0.5467470884 4288190868
-0.2440377325 -0.2421118170 0.5469400883 4288454040
-0.2456353158 -0.2430851161 0.5505205989 4288388247
-0.2457216978 -0.2425587177 0.5507141948 4288454040
-0.2458079457 -0.2420317531 0.5509074926 4288585113
-0.2455157787 -0.2411327064 0.5502526760 4288650906
-0.2456016392 -0.2406054586 0.5504451394 4288650906
-0.2456873804 -0.2400776595 0.5506373048 4288716699
-0.2472877800 -0.2410257161 0.5542241335 4288782491
-0.2462373078 -0.2393886894 0.5518697500 4288848284
-0.2467017472 -0.2392258793 0.5529106855 4288783004
-0.2460290492 -0.2379609197 0.5514030457 4288848797
-0.2472517937 -0.2385278791 0.5541434884 4288914590
-0.2465784401 -0.2372642756 0.5526343584 4288914590
-0.2478018552 -0.2378244102 0.5553762913 4288914590
-0.2478870749 -0.2372889221 0.5555672646 4288980383
-0.2475924045 -0.2363903075 0.5549068451 4288980383
-0.2484369725 -0.2365780175 0.5567997098 4288980383
-0.2477619052 -0.2353182137 0.5552867651 4288980383
-0.2482265979 -0.2351414412 0.5563281775 4289046176
-0.2483111322 -0.2346031964 0.5565176606 4289046176
-0.2483955473 -0.2340644002 0.5567068458 4289046176
-0.2488603294 -0.2338826805 0.5577485561 4289177762
-0.2489445955 -0.2333419621 0.5579373837 4289177762
-0.2486479282 -0.2324447185 0.5572724938 4289046176
-0.2487317920 -0.2319037318 0.5574604273 4289046176
-0.2495775670 -0.2320708185 0.5593560338 4289177250
-0.2496614009 -0.2315270752 0.5595439076 4289045664
-0.2497451007 -0.2309827805 0.5597314835 4289111456
-0.2494472265 -0.2300861329 0.5590639114 4289111456
-0.2499120533 -0.2298925668 0.5601056814 4289111456
-0.2499953210 -0.2293466330 0.5602923036 4289177249
-0.2496966422 -0.2284508497 0.5596228838 4289177250
-0.2501614392 -0.2282531410 0.5606645942 4289111457
-0.2498622090 -0.2273579389 0.5599939823 4288914078
-0.2495626062 -0.2264638692 0.5593224764 4288914078
-0.2496448904 -0.2259168923 0.5595068932 4288914078
-0.2493446171 -0.2250242531 0.5588338971 4288914078
-0.2494264990 -0.2244770378 0.5590174198 4288979871
-0.2495082319 -0.2239292711 0.5592005849 4288979871
-0.2492070049 -0.2230383754 0.5585255027 4288979873
-0.2492883205 -0.2224903852 0.5587077737 4288979873
-0.2486033738 -0.2212600112 0.5571726561 4288782491
-0.2486841530 -0.2207126468 0.5573536754 4288979870
-0.2483814657 -0.2198255062 0.5566753149 4289374628
-0.2480783910 -0.2189395130 0.5559960604 4289835179
-0.2485420257 -0.2187297791 0.5570351481 4290296244
-0.2474710494 -0.2171710283 0.5546348691 4290954174
-0.2471667826 -0.2162885368 0.5539529324 4291480264
-0.2453264296 -0.2140672058 0.5498282909 4291743436
-0.2438687384 -0.2121879756 0.5465613604 4291809229
-0.2427940965 -0.2106483430 0.5441528559 4291875022
-0.2417185605 -0.2091132998 0.5417423248 4291941330
-0.2391045094 -0.2062564492 0.5358836651 4291941330
-0.2434101999 -0.2093645036 0.5455336571 4291875283
-0.2423332483 -0.2078347355 0.5431199670 4291875283
-0.2408706397 -0.2059805393 0.5398419499 4291941076
-0.2367126197 -0.2018353641 0.5305229425 4292006869
-0.2348619103 -0.1996724904 0.5263751149 4292006869
-0.2333949804 -0.1978441775 0.5230874419 4292006869
-0.2311564237 -0.1953709722 0.5180703402 4291941076
-0.2296870351 -0.1935571134 0.5147771239 4291941076
-0.2286020517 -0.1920735389 0.5123454332 4292006869
-0.2279018164 -0.1909176856 0.5107761025 4291875283
-0.2272009552 -0.1897647977 0.5092052817 4291809490
-0.2292004973 -0.1908641309 0.5136867166 4291941076
-0.2265693396 -0.1881088763 0.5077897310 4291941078
-0.2250946611 -0.1863240004 0.5044846535 4292204250
-0.2243913114 -0.1851830482 0.5029082894 4292467422
-0.2240736932 -0.1843629479 0.5021964312 4292599008
-0.2260743976 -0.1854461282 0.5066804886 4292599008
-0.2226641625 -0.1820942909 0.4990374148 4292599008
-0.2231185436 -0.1819102764 0.5000557899 4292664801
-0.2224126011 -0.1807808727 0.4984735847 4292730594
-0.2236406356 -0.1812221408 0.5012258887 4292731621
-0.2225470096 -0.1797817796 0.4987748265 4292929000
-0.2230011523 -0.1795933396 0.4997926652 4292863207
-0.2219063044 -0.1781590283 0.4973388612 4292863207
-0.2223601490 -0.1779696941 0.4983560443 4292798184
-0.2220390886 -0.1771598160 0.4976364672 4292732391
-0.2221052498 -0.1766595393 0.4977847636 4292798697
-0.2215269506 -0.1745446473 0.4964886606 4293324529
-0.2215922922 -0.1740443408 0.4966351092 4293586418
-0.2216574848 -0.1735435873 0.4967812300 4293652211
-0.2213342339 -0.1727393419 0.4960567355 4293849076
-0.2210105956 -0.1719364077 0.4953314066 4293980662
-0.2210751027 -0.1714361012 0.4954760075 4294177528
-0.2211394757 -0.1709353477 0.4956202507 4294177528
-0.2208149433 -0.1701346189 0.4948928952 4294111737
-0.2212677598 -0.1699325293 0.4959077537 4293914358
-0.2209426910 -0.1691326946 0.4951792061 4293980408
-0.2206172496 -0.1683342010 0.4944498241 4294046201
-0.2210698426 -0.1681290269 0.4954641759 4293783799
-0.2211331874 -0.1676265597 0.4956061542 4293849592
-0.2211963683 -0.1671236455 0.4957477748 4293784310
-0.2212594151 -0.1666202992 0.4958890378 4293389552
-0.2213222980 -0.1661165357 0.4960299730 4291679704
-0.2209952623 -0.1653207541 0.4952970147 4290232258
-0.2210577130 -0.1648170203 0.4954370260 4290035392
-0.2211200297 -0.1643128544 0.4955766499 4290364357
-0.2211821675 -0.1638082564 0.4957159460 4289706684
-0.2212441713 -0.1633032411 0.4958548844 4289377719
-0.2213060111 -0.1627977937 0.4959934652 4289509560
-0.2213676870 -0.1622919291 0.4961317182 4289443767
-0.2214291990 -0.1617856473 0.4962695837 4289376949
-0.2214905620 -0.1612789333 0.4964071214 4289442742
-0.2215517759 -0.1607718021 0.4965443015 4289640121
-0.2216128111 -0.1602642536 0.4966811240 4290166465
-0.2216736972 -0.1597562879 0.4968175590 4291284946
-0.2217344344 -0.1592479050 0.4969536662 4292469220
-0.2217949927 -0.1587390900 0.4970894158 4293192943
-0.2218554020 -0.1582298726 0.4972247779 4293390322
-0.2223070264 -0.1579984128 0.4982369840 4293915896
-0.2223672122 -0.1574874520 0.4983718693 4293915896
-0.2224272341 -0.1569760889 0.4985063970 4293915896
-0.2224871069 -0.1564643085 0.4986405671 4293850103
-0.2229386121 -0.1562266797 0.4996524751 4293652724
-0.2229982466 -0.1557131708 0.4997861385 4293389552
-0.2230577171 -0.1551992595 0.4999194443 4293389552
-0.2235091478 -0.1549567878 0.5009312034 4293455345
-0.2235683948 -0.1544411480 0.5010640025 4293257965
-0.2232351452 -0.1536550522 0.5003170967 4292994793
-0.2232939601 -0.1531394869 0.5004488826 4292994793
-0.2237451375 -0.1528917700 0.5014600754 4292863207
-0.2238037139 -0.1523744911 0.5015913844 4292139484
-0.2238621265 -0.1518568099 0.5017222762 4291678933
-0.2243132144 -0.1516042352 0.5027332902 4292468449
-0.2239784449 -0.1508202404 0.5019829869 4293521137
-0.2244293988 -0.1505650282 0.5029936433 4293718516
-0.2244872302 -0.1500448287 0.5031232834 4293323758
-0.2249381393 -0.1497860849 0.5041338801 4292994793
-0.2249957472 -0.1492641568 0.5042629838 4292863207
-0.2254466116 -0.1490018815 0.5052734613 4292929000
-0.2255039662 -0.1484782398 0.5054019690 4293323758
-0.2259547859 -0.1482124180 0.5064123869 4293521137
-0.2260119021 -0.1476870775 0.5065403581 4293323758
-0.2264626771 -0.1474177092 0.5075506568 4292731875
-0.2269134820 -0.1471461207 0.5085610151 4292271324
-0.2269702554 -0.1466177404 0.5086882710 4291679187
-0.2270268500 -0.1460889727 0.5088151097 4291416015
-0.2274775207 -0.1458125263 0.5098251700 4291416015
-0.2275338620 -0.1452820450 0.5099514127 4291679187
-0.2279844731 -0.1450020522 0.5109613538 4292402656
-0.2280405611 -0.1444698721 0.5110870600 4293192172
-0.2284910977 -0.1441863179 0.5120967627 4293850102
-0.2285469174 -0.1436524391 0.5122219324 4293850102
-0.2286025733 -0.1431181580 0.5123466253 4293784309
-0.2286580354 -0.1425834894 0.5124709010 4293784309
-0.2287133187 -0.1420484334 0.5125948191 4293718517
-0.2287684232 -0.1415129900 0.5127183199 4293718517
-0.2292185426 -0.1412206441 0.5137271285 4293849590
-0.2292733788 -0.1406835020 0.5138500333 4293981176
-0.2293280363 -0.1401459724 0.5139725208 4293981176
-0.2297779769 -0.1398487687 0.5149809718 4293981176
-0.2302279472 -0.1395493150 0.5159894228 4293850103
-0.2306779027 -0.1392476410 0.5169978738 4293915896
-0.2307320982 -0.1387057900 0.5171193480 4293981689
-0.2311819643 -0.1384005547 0.5181275606 4294047482
-0.2316318303 -0.1380930692 0.5191358328 4294047482
-0.2320816815 -0.1377833486 0.5201440454 4293981689
-0.2325315475 -0.1374713928 0.5211522579 4294047482
-0.2325851619 -0.1369239241 0.5212724805 4293981689
-0.2330349237 -0.1366084069 0.5222804546 4294047484
-0.2330882549 -0.1360592395 0.5223999619 4294113277
-0.2331413925 -0.1355097145 0.5225191116 4294113277
-0.2331943512 -0.1349598020 0.5226377845 4294113277
-0.2332471162 -0.1344095170 0.5227560401 4294113277
-0.2332996875 -0.1338588595 0.5228738785 4294047484
-0.2333520651 -0.1333078295 0.5229912400 4294112762
-0.2334042490 -0.1327564269 0.5231081843 4294112762
-0.2338532805 -0.1324295104 0.5241145492 4294112762
-0.2339051664 -0.1318764240 0.5242308378 4294112762
-0.2339568585 -0.1313229799 0.5243467093 4294178555
-0.2340083569 -0.1307691783 0.5244621038 4294244348
-0.2344570309 -0.1304360777 0.5254676938 4294244348
-0.2345082313 -0.1298806071 0.5255824327 4294244348
-0.2349567860 -0.1295439601 0.5265877843 4294310141
-0.2350076735 -0.1289868057 0.5267018080 4294244348
-0.2350583673 -0.1284292936 0.5268154144 4294310141
-0.2351088524 -0.1278714389 0.5269286036 4294310141
-0.2347612530 -0.1270977855 0.5261495113 4294244348
-0.2348112613 -0.1265401393 0.5262615681 4294178555
-0.2348610610 -0.1259821504 0.5263732076 4294112762
-0.2345125228 -0.1252112240 0.5255920887 4294178555
-0.2345618457 -0.1246534586 0.5257026553 4294244863
-0.2346109748 -0.1240953505 0.5258127451 4294244863
-0.2346599102 -0.1235368997 0.5259224176 4294244863
-0.2343101501 -0.1227692962 0.5251384974 4294244863
-0.2343585938 -0.1222110912 0.5252470970 4294113275
-0.2340081781 -0.1214456558 0.5244617462 4294047482
-0.2340561450 -0.1208877116 0.5245692134 4294113275
-0.2341039032 -0.1203294247 0.5246762633 4294113275
-0.2337525636 -0.1195667610 0.5238888264 4294244348
-0.2337998450 -0.1190087423 0.5239948034 4294244348
-0.2334478498 -0.1182482541 0.5232059360 4294244603
-0.2334946394 -0.1176905185 0.5233107805 4294178810
-0.2335412353 -0.1171324551 0.5234152079 4294178810
-0.2335876226 -0.1165740490 0.5235191584 4294113017
-0.2336338013 -0.1160153151 0.5236226916 4294113017
-0.2336797714 -0.1154562458 0.5237256885 4294047224
-0.2337255478 -0.1148968488 0.5238282681 4294113017
-0.2337711155 -0.1143371314 0.5239304304 4294113017
-0.2342161685 -0.1139715686 0.5249278545 4294113274
-0.2338616401 -0.1132167056 0.5241333246 4294113274
-0.2339065820 -0.1126560047 0.5242340565 4294113017
-0.2339513302 -0.1120949835 0.5243343115 4294113017
-0.2339958698 -0.1115336344 0.5244341493 4294113017
-0.2340402007 -0.1109719723 0.5245335102 4294047224
-0.2344844788 -0.1105987281 0.5255292058 4294047224
-0.2345284671 -0.1100354642 0.5256277919 4294047224
-0.2345722467 -0.1094718874 0.5257259607 4294047224
-0.2342154533 -0.1087221503 0.5249263048 4293981431
-0.2342587560 -0.1081589088 0.5250233412 4293915636
-0.2339013219 -0.1074114293 0.5242222548 4293915636
-0.2339441180 -0.1068485305 0.5243181586 4294046452
-0.2335860580 -0.1061033234 0.5235156417 4293980659
-0.2336283624 -0.1055407748 0.5236104727 4293915638
-0.2332696468 -0.1047978550 0.5228065252 4293915638
-0.2333114743 -0.1042356640 0.5229002833 4293849845
-0.2333530784 -0.1036731675 0.5229935050 4293718259
-0.2333944738 -0.1031103730 0.5230863094 4293718259
-0.2334356606 -0.1025472805 0.5231785774 4293652466
-0.2334766388 -0.1019838899 0.5232704282 4293652466
-0.2331161648 -0.1012459397 0.5224625468 4293652466
-0.2327553481 -0.1005096361 0.5216538906 4293652466
-0.2327955514 -0.0999473035 0.5217439532 4293718259
-0.2324340940 -0.0992133245 0.5209338665 4293914868
-0.2324738055 -0.0986513793 0.5210228562 4293914868
-0.2321117222 -0.0979197323 0.5202113986 4293914868
-0.2317492962 -0.0971897468 0.5193991065 4293914868
-0.2317882329 -0.0966288894 0.5194863677 4293980661
-0.2314251661 -0.0959012583 0.5186726451 4293980661
-0.2314636111 -0.0953408107 0.5187588334 4293980661
-0.2315018475 -0.0947800875 0.5188444853 4294046454
-0.2307359129 -0.0938919336 0.5171278715 4294112247
-0.2307735831 -0.0933326036 0.5172123313 4294178040
-0.2312131524 -0.0929346234 0.5181974769 4294178040
-0.2308482826 -0.0922131240 0.5173797607 4294178040
-0.2304830849 -0.0914933085 0.5165612698 4294243833
-0.2305198461 -0.0909338668 0.5166436434 4294243833
-0.2305563837 -0.0903741643 0.5167255402 4293981431
-0.2305927128 -0.0898141935 0.5168069601 4293981431
-0.2306288183 -0.0892539620 0.5168879032 4294113017
-0.2306647152 -0.0886934623 0.5169683099 4294178810
-0.2307004035 -0.0881327093 0.5170482993 4294178810
-0.2307358682 -0.0875716880 0.5171278119 4294244603
-0.2303683758 -0.0868585631 0.5163041949 4294244603
-0.2304033488 -0.0862980112 0.5163825750 4294178810
-0.2308409810 -0.0858870968 0.5173633695 4294178808
-0.2304726541 -0.0851761475 0.5165379047 4294178808
-0.2305069864 -0.0846148431 0.5166147947 4294178808
-0.2305410951 -0.0840532780 0.5166912675 4294178808
-0.2301718742 -0.0833455101 0.5158637762 4294178808
-0.2306086570 -0.0829294175 0.5168426633 4294113015
-0.2302388996 -0.0822231174 0.5160139799 4294243831
-0.2306753546 -0.0818045661 0.5169921517 4294243831
-0.2307083756 -0.0812417790 0.5170661807 4294309624
-0.2307411730 -0.0806787536 0.5171396732 4294441210
-0.2307737619 -0.0801154822 0.5172126889 4294441210
-0.2308061123 -0.0795519799 0.5172852278 4294309624
-0.2308382690 -0.0789882392 0.5173572898 4294440953
-0.2308701873 -0.0784242600 0.5174288154 4294440953
-0.2309018970 -0.0778600499 0.5174998641 4294375160
-0.2301259190 -0.0770253465 0.5157607794 4294309367
-0.2309646308 -0.0767309368 0.5176405311 4294046195
-0.2309956849 -0.0761660337 0.5177100897 4294111988
-0.2310265005 -0.0756009072 0.5177791715 4294243574
-0.2310570925 -0.0750355572 0.5178477168 4294506746
-0.2310874760 -0.0744699836 0.5179158449 4294704125
-0.2311176360 -0.0739041790 0.5179834366 4294704125
-0.2315516770 -0.0734663755 0.5189561844 4294638589
-0.2311772704 -0.0727719218 0.5181170702 4294704382
-0.2312067598 -0.0722054690 0.5181831717 4294704382
-0.2316402942 -0.0717640370 0.5191547871 4294770175
-0.2316693813 -0.0711961612 0.5192199945 4294770175
-0.2316982448 -0.0706280693 0.5192847252 4294704382
-0.2321313024 -0.0701820403 0.5202552676 4294770175
-0.2321597785 -0.0696125329 0.5203190446 4294835967
-0.2321880162 -0.0690428168 0.5203823447 4294835967
-0.2322160453 -0.0684728995 0.5204451680 4294770175
-0.2322438359 -0.0679027736 0.5205074549 4294704382
-0.2322714031 -0.0673324466 0.5205692649 4294704382
-0.2322987467 -0.0667619109 0.5206305385 4294770175
-0.2331353575 -0.0664218143 0.5225055218 4294770175
-0.2331623435 -0.0658488944 0.5225660205 4294770175
-0.2331890911 -0.0652757734 0.5226259828 4294770175
-0.2332156152 -0.0647024587 0.5226854086 4294835711
-0.2332419157 -0.0641289502 0.5227443576 4294835711
-0.2332679927 -0.0635552406 0.5228028297 4294835709
-0.2341038734 -0.0632000342 0.5246762037 4294835709
-0.2345346510 -0.0627323017 0.5256416798 4294835709
-0.2341550589 -0.0620476902 0.5247908831 4294769916
-0.2345854491 -0.0615775846 0.5257555246 4294769916
-0.2358261049 -0.0613160096 0.5285360813 4294704123
-0.2362563014 -0.0608395524 0.5295002460 4294704123
-0.2362810671 -0.0602575541 0.5295557380 4294704123
-0.2363055944 -0.0596753731 0.5296106935 4294835709
-0.2375459969 -0.0593970940 0.5323907137 4294835709
-0.2387864143 -0.0591126420 0.5351707339 4294835709
-0.2379995883 -0.0583252050 0.5334073305 4294835709
-0.2384288311 -0.0578366742 0.5343693495 4294835709
-0.2392634600 -0.0574433319 0.5362399220 4294835709
-0.2384757251 -0.0566603728 0.5344744325 4294835709
-0.2393100411 -0.0562626831 0.5363442898 4294835709
-0.2413612157 -0.0561438948 0.5409414172 4294835709
-0.2421954721 -0.0557348542 0.5428111553 4294769916
-0.2426239252 -0.0552292801 0.5437714458 4294769916
-0.2430521995 -0.0547215380 0.5447313190 4294835709
-0.2438861132 -0.0543019734 0.5466002822 4294835709
-0.2455316037 -0.0540569387 0.5502882004 4294901502
-0.2463654131 -0.0536270253 0.5521568656 4294901500
-0.2480109185 -0.0533676259 0.5558448434 4294835707
-0.2476267517 -0.0526683293 0.5549837947 4294769916
-0.2500841320 -0.0525682494 0.5604913235 4294506744
-0.2509176135 -0.0521186292 0.5623593330 4293914607
-0.2529691160 -0.0519148223 0.5669572353 4293059298
-0.2513659596 -0.0509598851 0.5633642077 4292401368
-0.2542296052 -0.0509073623 0.5697821975 4292006610
-0.2554688156 -0.0505193546 0.5725595951 4291940817
-0.2571142018 -0.0502044745 0.5762471557 4292072403
-0.2579471171 -0.0497247875 0.5781139135 4292203989
-0.2608111501 -0.0496274345 0.5845328569 4292072403
-0.2592062950 -0.0486765988 0.5809360147 4291809231
-0.2596324980 -0.0481101088 0.5818912387 4291875024
-0.2604648173 -0.0476157479 0.5837566257 4291940817
-0.2625161111 -0.0473370440 0.5883540511 4291875024
-0.2633482516 -0.0468313172 0.5902190208 4291940817
-0.2649931014 -0.0464639515 0.5939055085 4291940817
-0.2658250034 -0.0459478758 0.5957699418 4292007121
-0.2662502825 -0.0453583784 0.5967230797 4292204500
-0.2397032976 -0.2491759658 0.5385662913 4291613659
-0.2386664748 -0.2475023717 0.5362367630 4291481557
-0.2391279638 -0.2473839968 0.5372736454 4291152592
-0.2395896018 -0.2472634763 0.5383108854 4291218383
-0.2396763265 -0.2467546612 0.5385057330 4290823625
-0.2401381433 -0.2466306388 0.5395433307 4290494660
-0.2409754694 -0.2468890399 0.5414246321 4290297281
-0.2399357855 -0.2452248782 0.5390886664 4290033596
-0.2403976470 -0.2450968176 0.5401263833 4289836217
-0.2404839247 -0.2445844263 0.5403202176 4289507507
-0.2409459651 -0.2444528639 0.5413583517 4289112749
-0.2414081544 -0.2443191409 0.5423967838 4289046434
-0.2414943278 -0.2438035011 0.5425903797 4288783262
-0.2419566810 -0.2436662614 0.5436292291 4288322711
-0.2420427501 -0.2431487143 0.5438225865 4288059539
-0.2421286851 -0.2426306009 0.5440157056 4288125075
-0.2437212914 -0.2436181009 0.5475939512 4288125075
-0.2426770478 -0.2419684827 0.5452477336 4288190868
-0.2438936383 -0.2425726801 0.5479812026 4288322454
-0.2443567216 -0.2424232364 0.5490216613 4288387734
-0.2444427162 -0.2418983430 0.5492148399 4288519320
-0.2430191487 -0.2398829311 0.5460163951 4288650908
-0.2442368269 -0.2404751927 0.5487522483 4288650908
-0.2443223149 -0.2399494350 0.5489443541 4288715931
-0.2447854131 -0.2397931814 0.5499848723 4288781724
-0.2448707670 -0.2392655164 0.5501766205 4288913310
-0.2460900545 -0.2398425639 0.5529161096 4288979103
-0.2461755574 -0.2393113375 0.5531082153 4288848798
-0.2458826303 -0.2384127825 0.5524500608 4288783005
-0.2467245609 -0.2386132181 0.5543417335 4288848798
-0.2468097806 -0.2380795181 0.5545331836 4288914591
-0.2461375445 -0.2368166000 0.5530228019 4288914591
-0.2466010451 -0.2366469502 0.5540642142 4288914591
-0.2470646799 -0.2364751101 0.5551059246 4289046177
-0.2463912517 -0.2352154553 0.5535928607 4288980384
-0.2464755625 -0.2346806526 0.5537822843 4289046177
-0.2469390482 -0.2345055193 0.5548236370 4289046177
-0.2470232099 -0.2339687794 0.5550127625 4289046176
-0.2471072376 -0.2334315032 0.5552015305 4289046176
-0.2471911311 -0.2328936756 0.5553900003 4289111969
-0.2476547360 -0.2327122241 0.5564316511 4289111969
-0.2484984100 -0.2328846455 0.5583271980 4289046176
-0.2470618933 -0.2309216410 0.5550996661 4289046176
-0.2475253344 -0.2307368964 0.5561408997 4289177250
-0.2483692318 -0.2309035361 0.5580369830 4289111457
-0.2484525591 -0.2303607762 0.5582242012 4289177249
-0.2489163429 -0.2301694006 0.5592662096 4289177249
-0.2486187667 -0.2292736024 0.5585976243 4289308835
-0.2490825206 -0.2290794700 0.5596396327 4289308835
-0.2487844229 -0.2281842530 0.5589697957 4289243042
-0.2488670349 -0.2276387513 0.5591554046 4289177249
-0.2485682666 -0.2267449498 0.5584841371 4289111456
-0.2490318269 -0.2265461385 0.5595256686 4289111456
-0.2487325072 -0.2256529331 0.5588532090 4289111456
-0.2488144189 -0.2251061052 0.5590372086 4289045663
-0.2488961816 -0.2245587558 0.5592209101 4289045663
-0.2489778101 -0.2240108550 0.5594043136 4289045663
-0.2486772835 -0.2231196761 0.5587291121 4289045663
-0.2487584800 -0.2225715369 0.5589115620 4289045663
-0.2480750531 -0.2213407755 0.5573760271 4288914077
-0.2481557131 -0.2207932472 0.5575572252 4289045663
-0.2478537410 -0.2199058384 0.5568787456 4289045664
-0.2483165860 -0.2196966112 0.5579186678 4288914078
-0.2480140626 -0.2188098282 0.5572389960 4288980384
-0.2477111518 -0.2179241925 0.5565583706 4289309349
-0.2474078238 -0.2170397341 0.5558769107 4289901486
-0.2455716878 -0.2148159444 0.5517514348 4290559416
-0.2448838651 -0.2136029452 0.5502060056 4291085760
-0.2434286922 -0.2117259651 0.5469365716 4291677897
-0.2469575554 -0.2141787559 0.5548652411 4292007123
-0.2462689131 -0.2129667401 0.5533179641 4292072916
-0.2448122054 -0.2110958695 0.5500450134 4292072916
-0.2441220284 -0.2098913491 0.5484943390 4292072916
-0.2392076701 -0.2050689161 0.5374526978 4292138709
-0.2381308228 -0.2035512924 0.5350332856 4292138709
-0.2412793189 -0.2056402713 0.5421073437 4292204500
-0.2352058589 -0.1998767555 0.5284614563 4292072914
-0.2337417006 -0.1980490237 0.5251717567 4292072916
-0.2326610088 -0.1965525448 0.5227437019 4292204502
-0.2311947644 -0.1947367191 0.5194492936 4292204248
-0.2297274172 -0.1929272711 0.5161525011 4292006869
-0.2278740555 -0.1908019483 0.5119883418 4291941076
-0.2306398451 -0.1925420165 0.5182024837 4292006869
-0.2272445858 -0.1891403198 0.5105740428 4291875283
-0.2265439928 -0.1879916638 0.5089999437 4292138455
-0.2250719965 -0.1862083077 0.5056926608 4292401630
-0.2243699431 -0.1850673705 0.5041152835 4292467423
-0.2271379679 -0.1867834926 0.5103344917 4292533216
-0.2237354666 -0.1834269911 0.5026897192 4292533216
-0.2234176695 -0.1826087087 0.5019757152 4292533216
-0.2227135003 -0.1814771891 0.5003935695 4292599009
-0.2239392251 -0.1819169372 0.5031475425 4292402399
-0.2216895372 -0.1795359850 0.4980929494 4292336606
-0.2236879915 -0.1805960387 0.5025830865 4292599008
-0.2233687639 -0.1797806919 0.5018658042 4292730594
-0.2226625830 -0.1786564738 0.5002791882 4292730594
-0.2227291465 -0.1781538725 0.5004287362 4292862180
-0.2212483883 -0.1764171422 0.4971017540 4292862950
-0.2213142067 -0.1759171337 0.4972496331 4292797157
-0.2209928334 -0.1751100123 0.4965275824 4293060329
-0.2210582495 -0.1746100038 0.4966745377 4293126122
-0.2211235017 -0.1741095483 0.4968211651 4293257453
-0.2208012342 -0.1733046025 0.4960970879 4293389039
-0.2204785943 -0.1725009680 0.4953721762 4293389039
-0.2209307700 -0.1723032296 0.4963881373 4293323246
-0.2206076086 -0.1715004742 0.4956620634 4293389552
-0.2206718922 -0.1709995717 0.4958064854 4293521138
-0.2207360268 -0.1704982221 0.4959505796 4293652213
-0.2204119563 -0.1696976870 0.4952224493 4293783799
-0.2204756588 -0.1691963524 0.4953655899 4293850105
-0.2205392271 -0.1686945856 0.4955084026 4293915898
-0.2202142477 -0.1678962708 0.4947782457 4293981691
-0.2202773988 -0.1673945189 0.4949201345 4294047484
-0.2203404009 -0.1668923497 0.4950616658 4293981691
-0.2204032391 -0.1663897336 0.4952028692 4293915898
-0.2204659134 -0.1658867002 0.4953437150 4293192689
-0.2201395184 -0.1650915444 0.4946103394 4292797931
-0.2202017754 -0.1645885408 0.4947502315 4292337380
-0.2202638835 -0.1640851051 0.4948897660 4291679450
-0.2203258425 -0.1635812521 0.4950289726 4290955727
-0.2203876525 -0.1630769670 0.4951678514 4290495176
-0.2204492837 -0.1625722647 0.4953063428 4290429383
-0.2205107808 -0.1620671302 0.4954444766 4290363590
-0.2205721140 -0.1615615785 0.4955822825 4290363844
-0.2206332833 -0.1610556096 0.4957197309 4290100672
-0.2203043699 -0.1602655500 0.4949807525 4290034879
-0.2203651220 -0.1597596407 0.4951172173 4289903293
-0.2204257101 -0.1592532992 0.4952533543 4290166465
-0.2204861343 -0.1587465554 0.4953891337 4290627016
-0.2205464095 -0.1582393795 0.4955245554 4291219153
-0.2206065208 -0.1577318013 0.4956596196 4291877083
-0.2206664681 -0.1572237909 0.4957942963 4292535012
-0.2207262516 -0.1567153782 0.4959286451 4292995563
-0.2207858860 -0.1562065482 0.4960626066 4293259248
-0.2208453566 -0.1556973159 0.4961962104 4293325041
-0.2212956399 -0.1554623395 0.4972079098 4293061869
-0.2213548720 -0.1549513787 0.4973410070 4292601318
-0.2214139551 -0.1544400007 0.4974737763 4292403939
-0.2214728743 -0.1539282203 0.4976061285 4292601318
-0.2215316296 -0.1534160376 0.4977381527 4292864231
-0.2219817191 -0.1531735808 0.4987494051 4291679957
-0.2220402509 -0.1526596844 0.4988808930 4291482576
-0.2220986038 -0.1521453708 0.4990120232 4291416783
-0.2221567929 -0.1516306400 0.4991427660 4290758853
-0.2222148180 -0.1511155218 0.4992731512 4290956232
-0.2218806595 -0.1503343880 0.4985223711 4292929254
-0.2219382524 -0.1498193741 0.4986517429 4293521391
-0.2219956815 -0.1493039429 0.4987807572 4292534242
-0.2224452496 -0.1490510106 0.4997908771 4291810519
-0.2225024402 -0.1485338807 0.4999193549 4291350222
-0.2225594521 -0.1480163485 0.5000474453 4291547601
-0.2230089158 -0.1477585584 0.5010573268 4292270813
-0.2230656892 -0.1472393274 0.5011848807 4293060329
-0.2235151082 -0.1469780058 0.5021946430 4293586673
-0.2235716432 -0.1464570612 0.5023216605 4293849845
-0.2240210176 -0.1461922079 0.5033313036 4293652211
-0.2240773141 -0.1456695646 0.5034577847 4293323246
-0.2245266289 -0.1454011649 0.5044673085 4292599778
-0.2245826721 -0.1448768079 0.5045932531 4292139227
-0.2250319421 -0.1446048766 0.5056026578 4291876055
-0.2250877321 -0.1440788209 0.5057280064 4291349711
-0.2251433283 -0.1435523778 0.5058529377 4291349456
-0.2251987606 -0.1430255473 0.5059774518 4292138972
-0.2256478220 -0.1427474469 0.5069864392 4293257453
-0.2257030010 -0.1422189027 0.5071103573 4293849590
-0.2257579863 -0.1416899860 0.5072339177 4294046969
-0.2258128077 -0.1411606818 0.5073571205 4293783797
-0.2258674502 -0.1406309903 0.5074798465 4293586418
-0.2259218991 -0.1401009113 0.5076022148 4293652211
-0.2263705581 -0.1398140341 0.5086102486 4293783797
-0.2264247537 -0.1392822713 0.5087320209 4293915383
-0.2264787704 -0.1387501210 0.5088533759 4293784319
-0.2269272506 -0.1384584010 0.5098610520 4293586943
-0.2269809991 -0.1379245669 0.5099818110 4293586673
-0.2278242409 -0.1378682256 0.5118764043 4293389294
-0.2278778106 -0.1373317838 0.5119967461 4293323246
-0.2279311866 -0.1367949545 0.5121166706 4293323246
-0.2283795029 -0.1364938915 0.5131239891 4293192438
-0.2288278192 -0.1361905932 0.5141312480 4293258231
-0.2288808376 -0.1356507838 0.5142503381 4294112248
-0.2293290496 -0.1353439391 0.5152574182 4293322732
-0.2293817848 -0.1348024309 0.5153759122 4293123810
-0.2298298925 -0.1344920397 0.5163826942 4292860638
-0.2298823446 -0.1339488626 0.5165005326 4292993264
-0.2299345881 -0.1334053129 0.5166179538 4292401127
-0.2299866527 -0.1328613907 0.5167349577 4291746283
-0.2296425998 -0.1320893615 0.5159618855 4291680490
-0.2296941876 -0.1315456331 0.5160778165 4291943399
-0.2301417142 -0.1312274188 0.5170832872 4291680227
-0.2305892259 -0.1309069544 0.5180887580 4292402922
-0.2306404263 -0.1303602606 0.5182037950 4292797680
-0.2306914330 -0.1298132092 0.5183184147 4293060338
-0.2307422608 -0.1292657852 0.5184326172 4292731373
-0.2311894298 -0.1289391667 0.5194373131 4293060084
-0.2312399447 -0.1283900887 0.5195508599 4293125877
-0.2312902808 -0.1278406382 0.5196639299 4292929268
-0.2313404083 -0.1272908449 0.5197765231 4293060854
-0.2313903421 -0.1267406940 0.5198887587 4293193206
-0.2310431004 -0.1259737313 0.5191085935 4293456378
-0.2310925722 -0.1254238039 0.5192196965 4293325301
-0.2311418355 -0.1248735264 0.5193303823 4293588473
-0.2311909050 -0.1243229061 0.5194406509 4293654266
-0.2308424562 -0.1235592589 0.5186577439 4293654266
-0.2308910489 -0.1230088845 0.5187669396 4293390845
-0.2305419743 -0.1222473904 0.5179826021 4293588223
-0.2305900902 -0.1216972694 0.5180907249 4293784830
-0.2306379974 -0.1211468056 0.5181983709 4293719037
-0.2306857258 -0.1205959991 0.5183055997 4293981176
-0.2307332456 -0.1200448498 0.5184124112 4294112762
-0.2303826809 -0.1192873344 0.5176247358 4294375160
-0.2304297239 -0.1187364608 0.5177304149 4294243574
-0.2300785184 -0.1179811284 0.5169413090 4294112245
-0.2301250845 -0.1174305305 0.5170459747 4294112245
-0.2301714569 -0.1168796048 0.5171501040 4293915638
-0.2298193276 -0.1161270812 0.5163589716 4293915638
-0.2298652083 -0.1155764461 0.5164620876 4293981431
-0.2299109101 -0.1150254756 0.5165647268 4293915638
-0.2299563885 -0.1144741848 0.5166669488 4293980659
-0.2300016880 -0.1139225587 0.5167686939 4293980659
-0.2300467640 -0.1133706123 0.5168699622 4293718519
-0.2304904312 -0.1130138636 0.5178667903 4293718519
-0.2305351943 -0.1124603152 0.5179674029 4293652724
-0.2305797487 -0.1119064465 0.5180674791 4293586931
-0.2302251011 -0.1111596003 0.5172706842 4293652724
-0.2302691787 -0.1106060445 0.5173696876 4293652724
-0.2303130478 -0.1100521758 0.5174682736 4293718004
-0.2307559550 -0.1096877605 0.5184633732 4293652211
-0.2307994962 -0.1091322973 0.5185612440 4293718004
-0.2308428288 -0.1085765213 0.5186585784 4293849590
-0.2308859676 -0.1080204323 0.5187554955 4293784052
-0.2305293530 -0.1072781086 0.5179542899 4293784052
-0.2305720001 -0.1067223698 0.5180500746 4293849843
-0.2306144387 -0.1061663106 0.5181454420 4293718257
-0.2306566685 -0.1056099534 0.5182403326 4293586673
-0.2302988768 -0.1048712209 0.5174364448 4293718259
-0.2303406298 -0.1043152213 0.5175302029 4293718004
-0.2303821594 -0.1037589163 0.5176235437 4293783797
-0.2300234586 -0.1030231416 0.5168176293 4293784052
-0.2300645113 -0.1024672017 0.5169098377 4293784052
-0.2301053554 -0.1019109711 0.5170016289 4293784052
-0.2301459908 -0.1013544425 0.5170929432 4293784052
-0.2301864177 -0.1007976159 0.5171837807 4293849590
-0.2302266508 -0.1002404988 0.5172741413 4293849590
-0.2298661917 -0.0995097309 0.5164642930 4293915638
-0.2299059331 -0.0989530012 0.5165535212 4293915638
-0.2295448482 -0.0982245654 0.5157423019 4293915638
-0.2295840979 -0.0976682380 0.5158304572 4293981431
-0.2292223871 -0.0969421417 0.5150178075 4294047224
-0.2288603485 -0.0962177068 0.5142043233 4294113017
-0.2288988233 -0.0956624746 0.5142908096 4294309626
-0.2289371043 -0.0951069593 0.5143767595 4294309626
-0.2289751619 -0.0945511684 0.5144622922 4294113017
-0.2286119312 -0.0938304812 0.5136461854 4294047224
-0.2286495119 -0.0932751149 0.5137306452 4294113017
-0.2286868691 -0.0927194655 0.5138145685 4294178810
-0.2287240177 -0.0921635553 0.5138980150 4294309626
-0.2287609577 -0.0916073695 0.5139810443 4294375419
-0.2287976891 -0.0910509154 0.5140635371 4294375419
-0.2284327447 -0.0903354362 0.5132436156 4294243833
-0.2284689844 -0.0897794217 0.5133250356 4294243833
-0.2285050154 -0.0892231464 0.5134059787 4294243833
-0.2285408229 -0.0886666104 0.5134864450 4294309626
-0.2285764366 -0.0881098211 0.5135664344 4294309626
-0.2286118120 -0.0875527635 0.5136459470 4294309626
-0.2286469936 -0.0869954452 0.5137249827 4294309626
-0.2282800525 -0.0862859637 0.5129005313 4294309624
-0.2287167013 -0.0858800486 0.5138815641 4294309624
-0.2287512273 -0.0853219703 0.5139591694 4294244599
-0.2287855446 -0.0847636387 0.5140362978 4294244599
-0.2284175158 -0.0840570703 0.5132093430 4294244599
-0.2284513414 -0.0834992230 0.5132853389 4294244599
-0.2284849435 -0.0829411298 0.5133608580 4294244599
-0.2289206684 -0.0825278237 0.5143398643 4294310392
-0.2293562889 -0.0821123123 0.5153186321 4294441464
-0.2293893695 -0.0815515220 0.5153928995 4294441464
-0.2294222265 -0.0809904784 0.5154667497 4294507257
-0.2294548750 -0.0804292038 0.5155401230 4294507257
-0.2294872999 -0.0798676908 0.5156129599 4294573050
-0.2295195013 -0.0793059319 0.5156853199 4294573050
-0.2295514941 -0.0787439421 0.5157572031 4294638843
-0.2295832634 -0.0781817213 0.5158286095 4294638843
-0.2296148241 -0.0776192620 0.5158994794 4294638843
-0.2292432636 -0.0769213885 0.5150646567 4294638843
-0.2296772748 -0.0764936581 0.5160397887 4294638330
-0.2297081649 -0.0759305134 0.5161092281 4294638330
-0.2297388315 -0.0753671452 0.5161781311 4294572537
-0.2297692895 -0.0748035461 0.5162465572 4294638330
-0.2297995239 -0.0742397308 0.5163145065 4294769916
-0.2302327454 -0.0738049448 0.5172878504 4294769916
-0.2306658477 -0.0733679533 0.5182609558 4294769916
-0.2306955308 -0.0728014931 0.5183275938 4294769916
-0.2307249755 -0.0722348168 0.5183938146 4294769916
-0.2307541966 -0.0716679245 0.5184594393 4294769916
-0.2307832092 -0.0711008087 0.5185246468 4294835709
-0.2308119833 -0.0705334917 0.5185893178 4294835709
-0.2312441170 -0.0700882748 0.5195602179 4294835709
-0.2312725037 -0.0695195347 0.5196239948 4294835709
-0.2317043245 -0.0690709278 0.5205941796 4294835709
-0.2317323089 -0.0685007796 0.5206570625 4294769916
-0.2317600697 -0.0679304302 0.5207194090 4294901502
-0.2317875922 -0.0673598722 0.5207812786 4294835709
-0.2322187573 -0.0669054687 0.5217500329 4294769916
-0.2322458923 -0.0663335174 0.5218110085 4294769916
-0.2322727889 -0.0657613650 0.5218714476 4294769916
-0.2327034622 -0.0653023869 0.5228390694 4294769916
-0.2327299565 -0.0647288412 0.5228986144 4294769916
-0.2327562273 -0.0641551092 0.5229576230 4294769916
-0.2331863940 -0.0636915565 0.5239241123 4294835709
-0.2336164415 -0.0632258281 0.5248903036 4294967295
-0.2340463251 -0.0627579093 0.5258561969 4294967295
-0.2344760746 -0.0622878075 0.5268217921 4294901502
-0.2349056900 -0.0618155226 0.5277870297 4294769916
-0.2353351563 -0.0613410547 0.5287519693 4294835709
-0.2353600860 -0.0607600063 0.5288079381 4294967295
-0.2357892096 -0.0602821745 0.5297721028 4294967295
-0.2362181842 -0.0598021634 0.5307359695 4294901503
-0.2378606051 -0.0596241765 0.5344261527 4294901503
-0.2390985340 -0.0593376160 0.5372075438 4294967295
-0.2395272702 -0.0588460676 0.5381708145 4294967295
-0.2403604984 -0.0584507436 0.5400429368 4294901503
-0.2400030792 -0.0571655594 0.5392398834 4294835711
-0.2420501560 -0.0570489056 0.5438392758 4294901503
-0.2428829819 -0.0566388704 0.5457104445 4294835709
-0.2437157184 -0.0562246554 0.5475814342 4294967295
-0.2429288328 -0.0554366857 0.5458135009 4294967295
-0.2445710748 -0.0552009121 0.5495032668 4294901502
-0.2437836379 -0.0544146113 0.5477340221 4294967295
-0.2462357581 -0.0543472506 0.5532434583 4294901502
-0.2474729717 -0.0540025383 0.5560232401 4294440951
-0.2483050972 -0.0535642616 0.5578928590 4294046193
-0.2503524125 -0.0533809364 0.5624927878 4293454056
-0.2515895665 -0.0530166700 0.5652724504 4292796126
-0.2516111732 -0.0523931086 0.5653209686 4292138196
-0.2536585331 -0.0521862097 0.5699210167 4291875024
-0.2548955083 -0.0518043898 0.5727002621 4291875024
-0.2557271719 -0.0513350256 0.5745688081 4291940817
-0.2569639981 -0.0509418361 0.5773477554 4292006610
-0.2582007945 -0.0505424589 0.5801265240 4292006610
-0.2590321302 -0.0500585549 0.5819944143 4292072403
-0.2622957528 -0.0500344746 0.5893271565 4292006610
-0.2606944144 -0.0490782224 0.5857292414 4292006610
-0.2631472051 -0.0488830730 0.5912402272 4292006610
-0.2623561621 -0.0480811894 0.5894628167 4292072403
-0.2635923326 -0.0476497188 0.5922403336 4292138196
-0.2644228935 -0.0471397601 0.5941063762 4292138196
-0.2640365064 -0.0464117527 0.5932382941 4292203989
-0.2648666799 -0.0458964743 0.5951035023 4292007637
-0.2377803624 -0.2472003400 0.5355823636 4291678936
-0.2378667742 -0.2466948926 0.5357770324 4291415764
-0.2383272201 -0.2465759814 0.5368141532 4291218383
-0.2395363748 -0.2472275198 0.5395376682 4290955211
-0.2388741672 -0.2459462434 0.5380460620 4290692039
-0.2385858446 -0.2450522929 0.5373966694 4290428867
-0.2386718094 -0.2445432991 0.5375903249 4290296768
-0.2391324937 -0.2444168478 0.5386279225 4290099389
-0.2395933121 -0.2442882508 0.5396659374 4289836472
-0.2396792024 -0.2437759936 0.5398593545 4289573300
-0.2401401848 -0.2436438948 0.5408977270 4289506987
-0.2417273968 -0.2446493059 0.5444727540 4289243815
-0.2403116375 -0.2426150292 0.5412839055 4288849057
-0.2411484271 -0.2428563386 0.5431687236 4288454299
-0.2401068509 -0.2412064970 0.5408226252 4288387993
-0.2409438044 -0.2414442897 0.5427078009 4288190614
-0.2414051294 -0.2413024455 0.5437468886 4288124821
-0.2414904535 -0.2407833636 0.5439391136 4288256407
-0.2419519424 -0.2406379879 0.5449785590 4288321943
-0.2431664020 -0.2412373126 0.5477140546 4288453529
-0.2432518750 -0.2407133430 0.5479065776 4288585115
-0.2433372289 -0.2401888371 0.5480988026 4288519322
-0.2430456430 -0.2392927706 0.5474420190 4288650138
-0.2446383983 -0.2402486950 0.5510296226 4288781724
-0.2435925305 -0.2386119813 0.5486738682 4288913310
-0.2436773777 -0.2380852550 0.5488649607 4289044896
-0.2452714592 -0.2390289456 0.5524554849 4288783005
-0.2446016222 -0.2377640158 0.5509467721 4288783005
-0.2443087399 -0.2368679047 0.5502870679 4288848798
-0.2459041178 -0.2377993017 0.5538805127 4288848798
-0.2452332377 -0.2365368158 0.5523694158 4288914591
-0.2453176975 -0.2360043377 0.5525596738 4288914591
-0.2457801402 -0.2358341366 0.5536012650 4288980383
-0.2451079488 -0.2345757484 0.5520872474 4288980383
-0.2451918870 -0.2340424508 0.5522762537 4288980383
-0.2456541806 -0.2338689566 0.5533175468 4289046176
-0.2457379699 -0.2333337367 0.5535063148 4289046176
-0.2458216250 -0.2327979654 0.5536947250 4289046176
-0.2462840378 -0.2326195240 0.5547362566 4289046176
-0.2463675439 -0.2320818454 0.5549243689 4289046176
-0.2468300760 -0.2318998277 0.5559661984 4289046176
-0.2472927123 -0.2317156196 0.5570082664 4289111969
-0.2473760694 -0.2311746329 0.5571959615 4289111457
-0.2478388250 -0.2309868336 0.5582383275 4289177250
-0.2471626848 -0.2297381312 0.5567153692 4289243043
-0.2472454906 -0.2291963398 0.5569018722 4289243043
-0.2473281622 -0.2286540121 0.5570880771 4289177249
-0.2481707782 -0.2288119346 0.5589860082 4289177249
-0.2474930733 -0.2275677025 0.5574595332 4289177249
-0.2479556054 -0.2273724824 0.5585013628 4289177249
-0.2480378300 -0.2268271297 0.5586865544 4289111456
-0.2473588139 -0.2255871445 0.5571570992 4289111456
-0.2478211820 -0.2253886014 0.5581985712 4289111456
-0.2475220412 -0.2244970948 0.5575248003 4289111456
-0.2479843795 -0.2242958099 0.5585661530 4289045663
-0.2480657548 -0.2237486094 0.5587494373 4289045663
-0.2481469810 -0.2232008725 0.5589324236 4289045663
-0.2478467673 -0.2223105729 0.5582562089 4289045663
-0.2479275912 -0.2217625976 0.5584382415 4288979870
-0.2480082512 -0.2212140858 0.5586199164 4289045663
-0.2480887771 -0.2206650376 0.5588012934 4289111457
-0.2474055588 -0.2194381803 0.5572624207 4289045664
-0.2474855334 -0.2188897580 0.5574425459 4288979871
-0.2471833080 -0.2180038542 0.5567618012 4288914078
-0.2468807101 -0.2171191275 0.5560802221 4288914591
-0.2465776950 -0.2162355632 0.5553976893 4289046177
-0.2470391244 -0.2160219699 0.5564370155 4289309349
-0.2467355728 -0.2151390463 0.5557532907 4289901486
-0.2452836484 -0.2132592052 0.5524829626 4290690748
-0.2453617305 -0.2127130479 0.5526588559 4291348678
-0.2446738482 -0.2115043700 0.5511094332 4291875024
-0.2424532473 -0.2089780420 0.5461077094 4292138196
-0.2444456071 -0.2100835741 0.5505953431 4292203987
-0.2414565980 -0.2069104612 0.5438628197 4292203987
-0.2396156639 -0.2047332525 0.5397162437 4292072405
-0.2366228551 -0.2015839517 0.5329751968 4292138198
-0.2386151105 -0.2026840299 0.5374625921 4292203737
-0.2356197089 -0.1995500326 0.5307157040 4292269530
-0.2326222658 -0.1964292824 0.5239641666 4292269530
-0.2373024374 -0.1997874081 0.5345059037 4292269530
-0.2312304229 -0.1940966398 0.5208291411 4292006869
-0.2289966792 -0.1916485280 0.5157977939 4291875283
-0.2286830693 -0.1908137649 0.5150914192 4291743697
-0.2314447612 -0.1925389022 0.5213118792 4292006869
-0.2276701182 -0.1888290197 0.5128098130 4292204250
-0.2308175117 -0.1908618063 0.5198990703 4292204250
-0.2258855402 -0.1862182915 0.5087901950 4292204250
-0.2251846194 -0.1850769073 0.5072114468 4292204250
-0.2240980268 -0.1836230159 0.5047639608 4292204250
-0.2245512605 -0.1834324300 0.5057848096 4292204250
-0.2288573831 -0.1863773018 0.5154840350 4292204248
-0.2246871740 -0.1824188381 0.5060909390 4292270041
-0.2239838690 -0.1812873036 0.5045068264 4292335834
-0.2236655951 -0.1804699600 0.5037899613 4292467420
-0.2233469486 -0.1796538979 0.5030722022 4292467420
-0.2218703181 -0.1779108942 0.4997462034 4292467420
-0.2219365388 -0.1774085611 0.4998953640 4292402399
-0.2216165215 -0.1765981317 0.4991745353 4292468192
-0.2212961167 -0.1757889986 0.4984528720 4292599778
-0.2221343070 -0.1758989096 0.5003408194 4292665571
-0.2218134850 -0.1750897616 0.4996182024 4292797157
-0.2211057544 -0.1739777625 0.4980240762 4292928743
-0.2203974128 -0.1728688329 0.4964285791 4292928743
-0.2212355733 -0.1729725748 0.4983164668 4292928743
-0.2209133655 -0.1721678078 0.4975907207 4292994536
-0.2198167741 -0.1707630605 0.4951207638 4293126122
-0.2198807001 -0.1702624559 0.4952647388 4293257453
-0.2203317136 -0.1700602770 0.4962806106 4293454832
-0.2196207792 -0.1689619273 0.4946792722 4293586418
-0.2204590440 -0.1690551192 0.4965673983 4293718004
-0.2197473496 -0.1679594368 0.4949643612 4293915383
-0.2198104113 -0.1674575359 0.4951063991 4293981176
-0.2194855362 -0.1666607410 0.4943746626 4293915896
-0.2195481807 -0.1661588699 0.4945157468 4293915896
-0.2196106613 -0.1656565666 0.4946565032 4293915896
-0.2196730077 -0.1651538312 0.4947969019 4293850103
-0.2193469554 -0.1643597633 0.4940625131 4293784310
-0.2194088697 -0.1638570726 0.4942019880 4293521138
-0.2194706351 -0.1633539498 0.4943411052 4292995564
-0.2195322514 -0.1628503948 0.4944798648 4292666599
-0.2195937037 -0.1623464227 0.4946182966 4292403427
-0.2196549922 -0.1618420333 0.4947563410 4292337634
-0.2197161317 -0.1613372117 0.4948940575 4292073694
-0.2197771072 -0.1608319730 0.4950314164 4292007901
-0.2198379338 -0.1603263170 0.4951684177 4291811290
-0.2195093930 -0.1595373750 0.4944283962 4291745497
-0.2195698023 -0.1590317786 0.4945644438 4291811290
-0.2196300328 -0.1585257649 0.4947001338 4291811290
-0.2196901143 -0.1580193341 0.4948354661 4291613911
-0.2197500467 -0.1575124860 0.4949704409 4291548118
-0.2198098004 -0.1570052207 0.4951050580 4291745496
-0.2198694050 -0.1564975530 0.4952392876 4291811289
-0.2199288458 -0.1559894681 0.4953731894 4292271840
-0.2199881226 -0.1554809660 0.4955067039 4292798184
-0.2200472355 -0.1549720615 0.4956398606 4292930281
-0.2201061994 -0.1544627398 0.4957726598 4292601316
-0.2205553502 -0.1542259753 0.4967843294 4292074972
-0.2206140906 -0.1537149400 0.4969166219 4291548628
-0.2206726521 -0.1532034874 0.4970485568 4291482835
-0.2207310647 -0.1526916325 0.4971801043 4291351249
-0.2207892984 -0.1521793753 0.4973112941 4290561987
-0.2208473831 -0.1516667008 0.4974420965 4290101436
-0.2209052891 -0.1511536390 0.4975725412 4290233022
-0.2209630311 -0.1506401598 0.4977025986 4291285710
-0.2206294239 -0.1498605758 0.4969511628 4292798438
-0.2206867337 -0.1493472159 0.4970802665 4291745750
-0.2207438648 -0.1488334537 0.4972089529 4290429890
-0.2208008468 -0.1483192891 0.4973372817 4290693062
-0.2208576500 -0.1478047222 0.4974652529 4291482578
-0.2209142894 -0.1472897679 0.4975928068 4291877336
-0.2209707499 -0.1467744112 0.4977200031 4292468703
-0.2214189470 -0.1465179920 0.4987295270 4293258219
-0.2214751691 -0.1460009366 0.4988561571 4293521137
-0.2215312272 -0.1454834789 0.4989824295 4293850102
-0.2219793051 -0.1452222168 0.4999916852 4293718006
-0.2220351249 -0.1447030604 0.5001174212 4293718006
-0.2224831581 -0.1444382668 0.5011265874 4293718004
-0.2225387245 -0.1439174116 0.5012517571 4293783797
-0.2225941122 -0.1433961689 0.5013765097 4293783797
-0.2226493359 -0.1428745389 0.5015009046 4293389039
-0.2227043808 -0.1423525214 0.5016248822 4293191662
-0.2227592617 -0.1418301165 0.5017485023 4293454834
-0.2232069224 -0.1415565461 0.5027568340 4293586420
-0.2232615501 -0.1410324574 0.5028798580 4293849592
-0.2233159840 -0.1405079663 0.5030024648 4293915385
-0.2233702540 -0.1399831027 0.5031247139 4293652213
-0.2234243453 -0.1394578665 0.5032465458 4293586420
-0.2238717079 -0.1391768306 0.5042541623 4293652213
-0.2235319912 -0.1384062320 0.5034890175 4293718006
-0.2235855460 -0.1378798485 0.5036095977 4293783799
-0.2236389220 -0.1373530775 0.5037298799 4292206319
-0.2244797647 -0.1373077184 0.5056238174 4291416803
-0.2241390646 -0.1365383863 0.5048563480 4291153119
-0.2249800116 -0.1364876330 0.5067505240 4290232017
-0.2254270464 -0.1361946762 0.5077574849 4289639889
-0.2254799008 -0.1356623173 0.5078765154 4289903061
-0.2259268463 -0.1353658289 0.5088832378 4289510101
-0.2259794325 -0.1348318011 0.5090016723 4289707480
-0.2260318100 -0.1342973858 0.5091196895 4290496978
-0.2264785916 -0.1339960545 0.5101259947 4290496978
-0.2265307009 -0.1334599555 0.5102433562 4289640633
-0.2265826315 -0.1329235137 0.5103603005 4290232770
-0.2266343683 -0.1323866844 0.5104768872 4290891478
-0.2266859263 -0.1318494976 0.5105929971 4289378239
-0.2267372906 -0.1313119382 0.5107086897 4289313482
-0.2263933718 -0.1305461973 0.5099340677 4290234584
-0.2264442742 -0.1300088465 0.5100486875 4288656609
-0.2268902808 -0.1296970993 0.5110532641 4288130265
-0.2273362726 -0.1293831021 0.5120578408 4287800784
-0.2273867875 -0.1288427860 0.5121716261 4287406026
-0.2274371237 -0.1283021271 0.5122849941 4287734478
-0.2278828919 -0.1279832870 0.5132890940 4287800271
-0.2279329300 -0.1274409741 0.5134017467 4287800271
-0.2283785790 -0.1271186024 0.5144055486 4288260822
-0.2284283191 -0.1265746206 0.5145176053 4288655579
-0.2280818969 -0.1258118600 0.5137373209 4288918751
-0.2281311601 -0.1252681166 0.5138483047 4288655829
-0.2281802446 -0.1247240230 0.5139588714 4288721622
-0.2278328985 -0.1239639893 0.5131765008 4289445596
-0.2278815061 -0.1234201416 0.5132859945 4290695663
-0.2279299349 -0.1228759438 0.5133950114 4290959346
-0.2275816649 -0.1221186519 0.5126106143 4290959346
-0.2276296169 -0.1215747148 0.5127185583 4291615463
-0.2276773602 -0.1210304275 0.5128261447 4291944428
-0.2277249247 -0.1204858050 0.5129332542 4292535534
-0.2277722806 -0.1199408397 0.5130399466 4293061878
-0.2278194577 -0.1193955317 0.5131461620 4293783799
-0.2274694443 -0.1186428368 0.5123578310 4293849592
-0.2275161445 -0.1180978045 0.5124629736 4293849075
-0.2271654904 -0.1173472926 0.5116732121 4293914868
-0.2272117138 -0.1168025434 0.5117772818 4293849845
-0.2272577435 -0.1162574738 0.5118809342 4293849845
-0.2273035645 -0.1157120615 0.5119841695 4293850103
-0.2273491919 -0.1151663288 0.5120869875 4293850103
-0.2273946255 -0.1146202609 0.5121892691 4293850103
-0.2274398655 -0.1140738726 0.5122911930 4293784310
-0.2274848968 -0.1135271564 0.5123926401 4293914866
-0.2275297344 -0.1129801124 0.5124936104 4293914866
-0.2275743783 -0.1124327481 0.5125941634 4293718004
-0.2276188135 -0.1118850634 0.5126942396 4293783797
-0.2276630551 -0.1113370582 0.5127938986 4293784052
-0.2277070880 -0.1107887328 0.5128930807 4293784052
-0.2277509272 -0.1102400944 0.5129918456 4293784052
-0.2277945727 -0.1096911356 0.5130901337 4293784052
-0.2282363325 -0.1093326733 0.5140851736 4293783797
-0.2282796353 -0.1087821275 0.5141826868 4293783797
-0.2283227444 -0.1082312688 0.5142797828 4293849845
