VERSION 0.7
FIELDS x y z rgba
SIZE 4 4 4 4
TYPE F F F U
COUNT 1 1 1 1
WIDTH 920
HEIGHT 1
VIEWPOINT 0.0 0.0 0.0 1.0 0.0 0.0 0.0
POINTS 920
DATA ascii
-0.2894248664 -0.0660938993 0.6106601954 4293192173
-0.2894528508 -0.0654217452 0.6107192636 4292994794
-0.2894805968 -0.0647493899 0.6107777953 4292797414
-0.2890816629 -0.0639824793 0.6099360585 4292665828
-0.2886823714 -0.0632173568 0.6090936065 4292534242
-0.2882827222 -0.0624540336 0.6082503796 4292336863
-0.2887357175 -0.0618752949 0.6092061400 4292205794
-0.2887619436 -0.0612039864 0.6092615128 4291942622
-0.2887879312 -0.0605324954 0.6093162894 4291811040
-0.2883870006 -0.0597724020 0.6084703803 4290166215
-0.2884123623 -0.0591015443 0.6085239053 4287600033
-0.2884374261 -0.0584305115 0.6085767746 4287139482
-0.2888889611 -0.0578447469 0.6095294356 4287932090
-0.2893402576 -0.0572568253 0.6104816794 4289182157
-0.2893645465 -0.0565832891 0.6105329394 4288852933
-0.2902422249 -0.0560745075 0.6123847365 4287076522
-0.2902660370 -0.0553986505 0.6124349833 4286549918
-0.2902895510 -0.0547226220 0.6124846339 4286352539
-0.2907397151 -0.0541259162 0.6134344339 4286483094
-0.2907626927 -0.0534485690 0.6134829521 4288917435
-0.2903583944 -0.0526935756 0.6126298904 4289969606
-0.2903807759 -0.0520169102 0.6126770973 4290298571
-0.2895487547 -0.0511890873 0.6109216213 4291153106
-0.2882892191 -0.0502905883 0.6082640886 4290889934
-0.2874563336 -0.0494714230 0.6065067649 4292797414
-0.2849144042 -0.0483660400 0.6011434793 4293981688
-0.2810902297 -0.0470579192 0.5930749178 4294245112
-0.2759836018 -0.0455560274 0.5823003650 4294310905
-0.2721577287 -0.0442864895 0.5742280483 4294113528
-0.2679037452 -0.0429662317 0.5652526021 4294179321
-0.2674946785 -0.0422735512 0.5643895268 4294376185
-0.2666579783 -0.0415162034 0.5626241565 4294573564
-0.2666756213 -0.0408937931 0.5626613498 4294376698
-0.2666929960 -0.0402712598 0.5626980066 4293324010
-0.2662827075 -0.0395850688 0.5618323088 4291482578
-0.2654446065 -0.0388382114 0.5600640774 4289903546
-0.2646061778 -0.0380952284 0.5582950115 4289574838
-0.2671873569 -0.0378404856 0.5637410879 4289640631
-0.2650658190 -0.0369186364 0.5592648387 4289904057
-0.2663641572 -0.0364750437 0.5620042086 4290298815
-0.2655245066 -0.0357376039 0.5602325797 4290759366
-0.2655396760 -0.0351171568 0.5602646470 4291351503
-0.2668374777 -0.0346632488 0.5630028844 4291549141
-0.2672798634 -0.0340941437 0.5639362335 4292733415
-0.2660113275 -0.0333087295 0.5612597466 4294705150
-0.2673085630 -0.0328445211 0.5639967918 4294770687
-0.2677502334 -0.0322711132 0.5649286509 4294507771
-0.2686193883 -0.0317461602 0.5667625666 4294705150
-0.2677905262 -0.0303926617 0.5650137067 4294770687
-0.2682312429 -0.0298138745 0.5659435987 4294836222
-0.2703830004 -0.0294191949 0.5704836249 4294704636
-0.2686841190 -0.0286044814 0.5668991208 4294770429
-0.2695519924 -0.0280649755 0.5687302351 4294704636
-0.2738426924 -0.0278697517 0.5777832270 4294704636
-0.2734266222 -0.0271864235 0.5769053698 4294704636
-0.2751498222 -0.0267127361 0.5805411339 4294769916
-0.2777287364 -0.0263120420 0.5859824419 4294769916
-0.2820194066 -0.0260574128 0.5950353742 4294835709
-0.2684707046 -0.2658460438 0.5677793622 4291482075
-0.2681736350 -0.2649217546 0.5671511292 4291087317
-0.2694519162 -0.2655513585 0.5698544979 4290692557
-0.2687605321 -0.2642384768 0.5683922768 4290232006
-0.2700395584 -0.2648614347 0.5710972548 4289836732
-0.2701362073 -0.2643214762 0.5713016391 4289441974
-0.2694437206 -0.2630107701 0.5698371530 4288718249
-0.2699344754 -0.2628555298 0.5708750486 4287731354
-0.2708201706 -0.2630816400 0.5727481842 4287402131
-0.2709164619 -0.2625385821 0.5729517937 4287204752
-0.2710126042 -0.2619949281 0.5731551647 4287401613
-0.2707134187 -0.2610695958 0.5725224018 4287138441
-0.2712045014 -0.2609059215 0.5735610127 4287138439
-0.2713002563 -0.2603605390 0.5737634897 4287138439
-0.2710002661 -0.2594358623 0.5731290579 4287795856
-0.2714913785 -0.2592680752 0.5741676688 4290230197
-0.2711908221 -0.2583438158 0.5735320449 4291216842
-0.2712858915 -0.2577969432 0.5737331510 4291480014
-0.2713808417 -0.2572494745 0.5739338994 4291677134
-0.2706830204 -0.2559519410 0.5724581480 4291545548
-0.2711738646 -0.2557788789 0.5734962225 4291479753
-0.2692853212 -0.2533648014 0.5695021749 4291611339
-0.2677919567 -0.2513304949 0.5663439035 4291611600
-0.2647099197 -0.2478158921 0.5598258376 4291611600
-0.2556704879 -0.2387525886 0.5407086015 4291217870
-0.2593331039 -0.2415634841 0.5484545827 4291415249
-0.2514770031 -0.2336547673 0.5318399668 4291744214
-0.2483842820 -0.2301975787 0.5252992511 4292138972
-0.2468794435 -0.2282228172 0.5221167207 4292402144
-0.2457710654 -0.2266206890 0.5197727084 4292665316
-0.2446617484 -0.2250229120 0.5174266100 4292928488
-0.2439494431 -0.2237945646 0.5159202218 4293125867
-0.2436345667 -0.2229332179 0.5152542591 4293061107
-0.2429210544 -0.2217095345 0.5137453079 4293061107
-0.2422068864 -0.2204885781 0.5122349262 4293126900
-0.2418905348 -0.2196322232 0.5115658641 4293126900
-0.2419724315 -0.2191379964 0.5117390752 4293126900
-0.2412566543 -0.2179228663 0.5102252960 4293258486
-0.2413380146 -0.2174292654 0.5103973746 4293258486
-0.2414192408 -0.2169351727 0.5105691552 4293258486
-0.2415003479 -0.2164405882 0.5107406974 4293258231
-0.2411820143 -0.2155885696 0.5100674629 4293192438
-0.2408632785 -0.2147376835 0.5093933940 4293324024
-0.2413432896 -0.2145985365 0.5104085207 4293324024
-0.2406243235 -0.2133938223 0.5088880062 4293258231
-0.2411042154 -0.2132528573 0.5099028945 4293389817
-0.2407842726 -0.2124041021 0.5092263222 4293455610
-0.2412641644 -0.2122605145 0.5102412105 4293324024
-0.2417441756 -0.2121147811 0.5112563372 4293456374
-0.2410232127 -0.2109158337 0.5097315907 4293324788
-0.2415030897 -0.2107682824 0.5107464790 4293390585
-0.2415824682 -0.2102698982 0.5109143853 4293258999
-0.2412609309 -0.2094231397 0.5102343559 4293192189
-0.2425425947 -0.2099657506 0.5129448771 4293323775
-0.2422207892 -0.2091179937 0.5122643113 4292864241
-0.2418985963 -0.2082714289 0.5115829110 4291811553
-0.2431811392 -0.2088042647 0.5142953396 4290825183
-0.2444643378 -0.2093316317 0.5170091391 4290496218
-0.2433388829 -0.2077961266 0.5146289468 4290629607
-0.2438192219 -0.2076333910 0.5156447887 4289379540
-0.2475141436 -0.2101983428 0.5234590769 4287537863
-0.2467899472 -0.2090034187 0.5219274759 4287603656
-0.2488795519 -0.2101882696 0.5263466835 4287866824
-0.2501659095 -0.2106868178 0.5290671587 4288261582
-0.2518552244 -0.2115177363 0.5326398611 4289116633
-0.2535454035 -0.2123414427 0.5362143517 4290235114
-0.2548338771 -0.2128217369 0.5389392972 4291287022
-0.2561229765 -0.2132964879 0.5416656137 4292208124
-0.2574127018 -0.2137656957 0.5443931818 4293259773
-0.2587030232 -0.2142293453 0.5471220613 4293654527
-0.2599939704 -0.2146874219 0.5498521924 4294179583
-0.2608822882 -0.2148079425 0.5517308712 4294047998
-0.2621743083 -0.2152557224 0.5544633269 4294113275
-0.2630634606 -0.2153676152 0.5563437939 4294047482
-0.2643565536 -0.2158050835 0.5590785146 4293982205
-0.2648428082 -0.2155797184 0.5601068139 4294047998
-0.2657330036 -0.2156798989 0.5619894862 4294178815
-0.2666235268 -0.2157761902 0.5638728142 4294178815
-0.2671102881 -0.2155424654 0.5649022460 4294178303
-0.2675971389 -0.2153065354 0.5659318566 4294046719
-0.2680840492 -0.2150683850 0.5669616461 4294047230
-0.2681666017 -0.2145044804 0.5671362281 4294047230
-0.2682489753 -0.2139400542 0.5673104525 4293916415
-0.2683311999 -0.2133751065 0.5674843192 4293982207
-0.2688180804 -0.2131306082 0.5685139894 4294113023
-0.2689000666 -0.2125637680 0.5686874390 4294113023
-0.2693870068 -0.2123156786 0.5697172284 4294178559
-0.2694687843 -0.2117469460 0.5698901415 4294178559
-0.2695504129 -0.2111777067 0.5700627565 4294178559
-0.2700372934 -0.2109246403 0.5710924864 4294178559
-0.2701186836 -0.2103535086 0.5712646246 4294112766
-0.2701999247 -0.2097818404 0.5714364052 4294046973
-0.2706868052 -0.2095238119 0.5724660754 4294046973
-0.2707678080 -0.2089502662 0.5726373792 4294046973
-0.2704425454 -0.2080637962 0.5719495416 4294111996
-0.2705230713 -0.2074900866 0.5721198320 4294177789
-0.2706034482 -0.2069158554 0.5722898245 4293915387
-0.2706836164 -0.2063411176 0.5724593401 4293981180
-0.2707636058 -0.2057658732 0.5726285577 4293981180
-0.2708434463 -0.2051901221 0.5727973580 4293915387
-0.2709231079 -0.2046138644 0.5729658604 4293915387
-0.2710025609 -0.2040370852 0.5731338859 4293915387
-0.2710818648 -0.2034598142 0.5733016133 4293849592
-0.2711609900 -0.2028820217 0.5734689236 4293849592
-0.2712399065 -0.2023037374 0.5736358762 4293849592
-0.2713186741 -0.2017249465 0.5738024116 4293849592
-0.2713972628 -0.2011456490 0.5739685893 4293849592
-0.2714756429 -0.2005658448 0.5741344094 4293783799
-0.2715538740 -0.1999855340 0.5742998123 4293783799
-0.2712240517 -0.1991053373 0.5736023188 4293718006
-0.2713017762 -0.1985248923 0.5737667084 4293718004
-0.2713793218 -0.1979439706 0.5739306808 4293718004
-0.2714566886 -0.1973625422 0.5740942955 4293718006
-0.2715338767 -0.1967806220 0.5742575526 4293718006
-0.2716108859 -0.1961981952 0.5744203925 4293718004
-0.2716876864 -0.1956152767 0.5745828748 4293652211
-0.2717643082 -0.1950318664 0.5747449398 4293652211
-0.2718407810 -0.1944479644 0.5749065876 4293652211
-0.2719170153 -0.1938635707 0.5750678778 4293652213
-0.2724021077 -0.1935693324 0.5760937333 4293586420
-0.2724781036 -0.1929830760 0.5762544870 4293586420
-0.2725539207 -0.1923963279 0.5764148235 4293652213
-0.2726295292 -0.1918091029 0.5765747428 4293718004
-0.2727049589 -0.1912213713 0.5767342448 4293718004
-0.2727802098 -0.1906331629 0.5768933892 4293652211
-0.2728552520 -0.1900444627 0.5770521164 4293652211
-0.2725203037 -0.1891708076 0.5763437152 4293652213
-0.2725948691 -0.1885820329 0.5765013695 4293652213
-0.2722592056 -0.1877100766 0.5757914782 4293586933
-0.2723332644 -0.1871212125 0.5759481192 4293586933
-0.2724071145 -0.1865318716 0.5761043429 4293652211
-0.2724807858 -0.1859420538 0.5762601495 4293586418
-0.2721438110 -0.1850726157 0.5755474567 4293586418
-0.2722169757 -0.1844827235 0.5757021904 4293586418
-0.2722899616 -0.1838923693 0.5758565664 4293455347
-0.2727735341 -0.1835780144 0.5768792629 4293455347
-0.2728462517 -0.1829858124 0.5770330429 4293586933
-0.2729187310 -0.1823931485 0.5771863461 4293586933
-0.2729910612 -0.1817999929 0.5773392916 4293652211
-0.2730631530 -0.1812063903 0.5774917603 4293652211
-0.2731350660 -0.1806122959 0.5776438713 4293586418
-0.2727953196 -0.1797466427 0.5769253373 4293586418
-0.2728667259 -0.1791525185 0.5770763755 4293521140
-0.2729379237 -0.1785579175 0.5772269368 4293521140
-0.2730089426 -0.1779628694 0.5773771405 4293652211
-0.2730797529 -0.1773673445 0.5775268674 4293652211
-0.2727383673 -0.1765047461 0.5768048763 4293652211
-0.2728086412 -0.1759092063 0.5769535303 4293652211
-0.2724665403 -0.1750483811 0.5762300491 4293652213
-0.2725363374 -0.1744528115 0.5763776302 4293652213
-0.2726059258 -0.1738567948 0.5765247941 4293652213
-0.2726753056 -0.1732603163 0.5766715407 4293652213
-0.2727444768 -0.1726633906 0.5768178105 4293652213
-0.2724007368 -0.1718056947 0.5760908127 4293652213
-0.2724694014 -0.1712087691 0.5762360692 4293652213
-0.2725378573 -0.1706113815 0.5763808489 4293652213
-0.2730191648 -0.1702711582 0.5773987174 4293718006
-0.2730872929 -0.1696719676 0.5775428414 4293718006
-0.2731552422 -0.1690723300 0.5776865482 4293718006
-0.2732229829 -0.1684722453 0.5778298378 4293718006
-0.2732905149 -0.1678717285 0.5779726505 4293718004
-0.2733578682 -0.1672707498 0.5781150460 4293652211
-0.2734249830 -0.1666693389 0.5782569647 4293586931
-0.2734918892 -0.1660674810 0.5783984661 4293652724
-0.2735585868 -0.1654651761 0.5785395503 4293652724
-0.2736250758 -0.1648624390 0.5786801577 4293586931
-0.2736913562 -0.1642592549 0.5788202882 4293586933
-0.2737573981 -0.1636556387 0.5789600015 4293652726
-0.2734090090 -0.1628049165 0.5782232285 4293652726
-0.2738889158 -0.1624471098 0.5792381167 4293586933
-0.2739543319 -0.1618421823 0.5793765187 4293586933
-0.2736049891 -0.1609929055 0.5786377192 4293586933
-0.2736698985 -0.1603880376 0.5787749887 4293586933
-0.2737345994 -0.1597827375 0.5789117813 4293586933
-0.2742139101 -0.1594181806 0.5799254775 4293521140
-0.2742782831 -0.1588111073 0.5800616145 4293521140
-0.2739273906 -0.1579642743 0.5793194771 4293652213
-0.2739912271 -0.1573572606 0.5794544816 4293586420
-0.2740548253 -0.1567498296 0.5795890093 4293652213
-0.2745335698 -0.1563785523 0.5806014538 4293652213
-0.2745968401 -0.1557693630 0.5807353258 4293718006
-0.2746599019 -0.1551597416 0.5808686614 4293718006
-0.2747227252 -0.1545497179 0.5810015798 4293718006
-0.2747853398 -0.1539392620 0.5811339617 4293718006
-0.2748477459 -0.1533283889 0.5812659860 4293718006
-0.2753258348 -0.1529481411 0.5822770596 4293652213
-0.2753878832 -0.1523355246 0.5824082494 4293652213
-0.2750336230 -0.1514932960 0.5816590786 4293652213
-0.2750951648 -0.1508807689 0.5817891955 4293718006
-0.2751564384 -0.1502678394 0.5819188356 4293783799
-0.2752175331 -0.1496544927 0.5820479989 4293783799
-0.2752783895 -0.1490407437 0.5821766853 4293783799
-0.2753390074 -0.1484265774 0.5823048949 4293718519
-0.2753994167 -0.1478120238 0.5824326277 4293718519
-0.2754595876 -0.1471970528 0.5825598836 4293718519
-0.2755195498 -0.1465816796 0.5826867223 4293718519
-0.2751623690 -0.1457450837 0.5819312930 4293784312
-0.2756387889 -0.1453497410 0.5829388499 4293784312
-0.2756980658 -0.1447331756 0.5830641985 4293718517
-0.2753399312 -0.1438981891 0.5823068023 4293718517
-0.2753986418 -0.1432817578 0.5824310184 4293718517
-0.2758745253 -0.1428810954 0.5834374428 4293652724
-0.2759328783 -0.1422629505 0.5835608840 4293652724
-0.2759910226 -0.1416444033 0.5836838484 4293718517
-0.2760489285 -0.1410254836 0.5838062763 4293652724
-0.2761066258 -0.1404061615 0.5839282870 4293652724
-0.2761640549 -0.1397864521 0.5840497613 4293718517
-0.2762212753 -0.1391663551 0.5841708183 4293718517
-0.2762782872 -0.1385458857 0.5842913389 4293783797
-0.2763350308 -0.1379250288 0.5844113827 4293783797
-0.2763915658 -0.1373037845 0.5845308900 4293784052
-0.2764478624 -0.1366821527 0.5846499801 4293784052
-0.2765039206 -0.1360601634 0.5847685337 4293784052
-0.2765597403 -0.1354377717 0.5848866105 4293718259
-0.2766153216 -0.1348150223 0.5850041509 4293783797
-0.2766706944 -0.1341918856 0.5851212144 4293783797
-0.2771444619 -0.1337704509 0.5861232281 4293783797
-0.2767807245 -0.1329445094 0.5853539109 4293783797
-0.2768353522 -0.1323202699 0.5854694843 4293784052
-0.2768897712 -0.1316956431 0.5855845809 4293784052
-0.2769439816 -0.1310706586 0.5856992006 4293849845
-0.2774169743 -0.1306426674 0.5866994858 4293849845
-0.2774707675 -0.1300159991 0.5868132710 4293849845
-0.2771050930 -0.1291935295 0.5860399008 4293849845
-0.2771583200 -0.1285670847 0.5861524940 4293850102
-0.2776307166 -0.1281338483 0.5871515274 4293850102
-0.2776835263 -0.1275057346 0.5872632861 4293915638
-0.2777361274 -0.1268772781 0.5873745084 4293915638
-0.2777884901 -0.1262484491 0.5874851942 4293915638
-0.2778406143 -0.1256192774 0.5875954628 4293915638
-0.2778924704 -0.1249897480 0.5877051353 4293915638
-0.2779441178 -0.1243598685 0.5878143311 4293915638
-0.2784154415 -0.1239165366 0.5888110995 4293849845
-0.2784666717 -0.1232850030 0.5889194608 4293849845
-0.2785176337 -0.1226531267 0.5890272856 4293849845
-0.2789885402 -0.1222049445 0.5900231600 4293915638
-0.2790391147 -0.1215714142 0.5901301503 4293915638
-0.2795097530 -0.1211196855 0.5911254883 4293981431
-0.2795599103 -0.1204845160 0.5912315249 4293981431
-0.2796098292 -0.1198490113 0.5913370848 4293981431
-0.2796594799 -0.1192131639 0.5914421082 4293981176
-0.2797088921 -0.1185769811 0.5915466547 4293981176
-0.2797580659 -0.1179404557 0.5916506052 4293981176
-0.2798070014 -0.1173036024 0.5917540789 4293981176
-0.2798556685 -0.1166664138 0.5918570161 4293981176
-0.2799040973 -0.1160288900 0.5919594765 4293981176
-0.2799522877 -0.1153910384 0.5920613408 4293981176
-0.2800002098 -0.1147528589 0.5921627283 4293915383
-0.2800478935 -0.1141143516 0.5922635198 4293915383
-0.2800953090 -0.1134755164 0.5923638344 4293981176
-0.2805637717 -0.1130060405 0.5933545232 4293981431
-0.2806107700 -0.1123656034 0.5934539437 4294047224
-0.2810789049 -0.1118925959 0.5944440365 4294047224
-0.2811254859 -0.1112505570 0.5945425034 4293981431
-0.2815933228 -0.1107740253 0.5955319405 4294047224
-0.2816394567 -0.1101303846 0.5956295133 4294047224
-0.2816853225 -0.1094864234 0.5957265496 4294178040
-0.2817309499 -0.1088421568 0.5958229899 4294178040
-0.2826199532 -0.1085215136 0.5977031589 4294047224
-0.2826651931 -0.1078746915 0.5977988243 4294047224
-0.2827101946 -0.1072275564 0.5978939533 4294047224
-0.2827549279 -0.1065801159 0.5979885459 4294047224
-0.2827993929 -0.1059323698 0.5980826020 4294243833
-0.2832657695 -0.1054414585 0.5990689397 4294243833
-0.2833097875 -0.1047921330 0.5991620421 4294243833
-0.2833535671 -0.1041425094 0.5992546082 4294243833
-0.2833970785 -0.1034925804 0.5993466377 4294113017
-0.2834403217 -0.1028423533 0.5994380713 4294113017
-0.2834833264 -0.1021918356 0.5995290279 4294178810
-0.2839486003 -0.1016923487 0.6005129814 4294178810
-0.2835685313 -0.1008899063 0.5997092128 4294309626
-0.2836107314 -0.1002385095 0.5997984409 4294309626
-0.2840754092 -0.0997352302 0.6007812023 4294309624
-0.2845399380 -0.0992297232 0.6017636657 4294309624
-0.2845814824 -0.0985755101 0.6018515229 4294309624
-0.2846227884 -0.0979210138 0.6019388437 4294375417
-0.2850867808 -0.0974107608 0.6029201150 4294375417
-0.2851276100 -0.0967547223 0.6030064225 4294375417
-0.2855912447 -0.0962409899 0.6039870381 4294375417
-0.2856315970 -0.0955834165 0.6040723324 4294375417
-0.2860949039 -0.0950661972 0.6050521731 4294441210
-0.2861347795 -0.0944071040 0.6051365137 4294441210
-0.2861743867 -0.0937477276 0.6052202582 4294441210
-0.2866371274 -0.0932257846 0.6061989069 4294441210
-0.2866762578 -0.0925648883 0.6062816381 4294507003
-0.2871386409 -0.0920394808 0.6072595119 4294507003
-0.2871772945 -0.0913770720 0.6073412895 4294572796
-0.2876393199 -0.0908481926 0.6083183885 4294572796
-0.2876774669 -0.0901842713 0.6083990932 4294572796
-0.2881391048 -0.0896519348 0.6093754172 4294638589
-0.2881768048 -0.0889865085 0.6094551086 4294572796
-0.2882142365 -0.0883208290 0.6095342636 4294441210
-0.2882513702 -0.0876548886 0.6096128225 4294507003
-0.2882882357 -0.0869886950 0.6096907854 4294507003
-0.2883248329 -0.0863222405 0.6097682118 4294507003
-0.2887852490 -0.0857814997 0.6107418537 4294507003
-0.2888213396 -0.0851135626 0.6108182073 4294375417
-0.2888571918 -0.0844453797 0.6108940244 4294375417
-0.2888927460 -0.0837769434 0.6109692454 4294375417
-0.2893522978 -0.0832303017 0.6119411588 4294375417
-0.2898117006 -0.0826814547 0.6129126549 4294375417
-0.2898465395 -0.0820103213 0.6129863858 4294375417
-0.2903055251 -0.0814580396 0.6139570475 4294375417
-0.2903398573 -0.0807854459 0.6140297055 4294375417
-0.2907984555 -0.0802297369 0.6149995327 4294309878
-0.2908322811 -0.0795556828 0.6150711179 4294375671
-0.2912904620 -0.0789965540 0.6160401106 4294375671
-0.2913238108 -0.0783210471 0.6161105633 4294441464
-0.2913568616 -0.0776453093 0.6161804795 4294507257
-0.2918143868 -0.0770815462 0.6171481013 4294441464
-0.2918469310 -0.0764043704 0.6172169447 4294441464
-0.2914543450 -0.0756167397 0.6163866520 4294441464
-0.2914862633 -0.0749401003 0.6164541841 4294573050
-0.2910929620 -0.0741549805 0.6156224012 4294441464
-0.2911242843 -0.0734788924 0.6156886220 4294244599
-0.2907302976 -0.0726962984 0.6148554087 4294178806
-0.2903359234 -0.0719154626 0.6140213609 4294113013
-0.2903663218 -0.0712407008 0.6140856147 4294047220
-0.2899712622 -0.0704624057 0.6132501364 4293981427
-0.2900010347 -0.0697882101 0.6133131385 4293981427
-0.2896052897 -0.0690124705 0.6124761701 4293915644
-0.2892091572 -0.0682385042 0.6116384268 4293718265
-0.2888126969 -0.0674663112 0.6107999086 4293390070
-0.2884158492 -0.0666958913 0.6099606156 4293258484
-0.2884440422 -0.0660246462 0.6100202799 4293192691
-0.2880465090 -0.0652568042 0.6091795564 4292929519
-0.2880741358 -0.0645861551 0.6092379689 4292863210
-0.2876759171 -0.0638209060 0.6083958149 4292797417
-0.2877029479 -0.0631508678 0.6084529161 4292666345
-0.2868784070 -0.0622957833 0.6067091823 4292403173
-0.2873304486 -0.0617187843 0.6076651812 4292272104
-0.2873565853 -0.0610491782 0.6077204943 4291745760
-0.2873824537 -0.0603793897 0.6077751517 4291153370
-0.2874080241 -0.0597094223 0.6078292727 4288653236
-0.2874333262 -0.0590392761 0.6078827381 4285823626
-0.2874583304 -0.0583689548 0.6079356670 4286613142
-0.2879089713 -0.0577839389 0.6088886857 4288195780
-0.2883594036 -0.0571967624 0.6098412871 4289051089
-0.2888096273 -0.0566074289 0.6107934117 4287405746
-0.2892596126 -0.0560159385 0.6117451191 4285826714
-0.2897094190 -0.0554222912 0.6126963496 4286221211
-0.2897329032 -0.0547459796 0.6127460599 4286023832
-0.2897561193 -0.0540695079 0.6127951145 4286550170
-0.2893528938 -0.0533143543 0.6119424105 4289247683
-0.2889493406 -0.0525610298 0.6110888720 4290430927
-0.2881191969 -0.0517330132 0.6093332767 4289904583
-0.2864361405 -0.0507577583 0.6057738662 4290693581
-0.2843263149 -0.0497157834 0.6013118029 4292141027
-0.2817895412 -0.0486100800 0.5959469080 4293390321
-0.2758414149 -0.0469358340 0.5833674073 4294179837
-0.2707448900 -0.0454324484 0.5725889206 4294048503
-0.2686321437 -0.0444466956 0.5681208372 4294048503
-0.2673717141 -0.0436098911 0.5654551387 4294179321
-0.2661108375 -0.0427789353 0.5627885461 4294179321
-0.2657025158 -0.0420889519 0.5619249940 4294179321
-0.2652938366 -0.0414008386 0.5610607266 4294376700
-0.2653114200 -0.0407801606 0.5610978603 4294442493
-0.2653287053 -0.0401593596 0.5611344576 4294047735
-0.2653457522 -0.0395384394 0.5611705184 4293127403
-0.2649359107 -0.0388548300 0.5603037477 4292206301
-0.2649523914 -0.0382346734 0.5603386164 4291943386
-0.2641152442 -0.0374932587 0.5585681796 4291811800
-0.2649845779 -0.0369940139 0.5604066849 4291351249
-0.2658537328 -0.0364906602 0.5622448325 4291614421
-0.2658692002 -0.0358680561 0.5622775555 4291877593
-0.2650308609 -0.0351321921 0.5605045557 4292667109
-0.2658993900 -0.0346225202 0.5623413324 4293522931
-0.2659140527 -0.0339995995 0.5623724461 4294311935
-0.2655016482 -0.0333229974 0.5615001917 4294705151
-0.2663695216 -0.0328060202 0.5633356571 4294705151
-0.2668103278 -0.0322333686 0.5642678738 4294639614
-0.2659701705 -0.0315068997 0.5624910593 4294705151
-0.2664104700 -0.0309330542 0.5634222031 4294507771
-0.2664235830 -0.0303085446 0.5634499788 4294770687
-0.2668634057 -0.0297315139 0.5643801689 4294705150
-0.2707190216 -0.0295249447 0.5725342631 4294770687
-0.2681694031 -0.0286167450 0.5671421885 4294770429
-0.2698897123 -0.0281661414 0.5707803369 4294704636
-0.2711828053 -0.0276638772 0.5735151172 4294770429
-0.2724757791 -0.0271555204 0.5762495399 4294770429
-0.2788937092 -0.0271398108 0.5898226500 4294835709
-0.2767696381 -0.0262827668 0.5853304863 4294901502
-0.2789164186 -0.0258312430 0.5898706317 4294967295
-0.2670553029 -0.2656961083 0.5661157370 4291613919
-0.2675446272 -0.2655527890 0.5671530366 4291547868
-0.2668550909 -0.2642398477 0.5656912923 4291021524
-0.2669511437 -0.2637062371 0.5658949614 4290757580
-0.2682269812 -0.2643347979 0.5685995221 4290165443
-0.2687166631 -0.2641844451 0.5696375370 4289639351
-0.2672385871 -0.2621019185 0.5665042996 4289113007
-0.2693027556 -0.2634920776 0.5708799958 4288520610
-0.2690050304 -0.2625672221 0.5702488422 4287599508
-0.2698889077 -0.2627942562 0.5721225142 4287204748
-0.2688024938 -0.2611033022 0.5698195100 4287467920
-0.2688979805 -0.2605626881 0.5700218678 4287598992
-0.2701765597 -0.2611653209 0.5727323294 4287270027
-0.2694830596 -0.2598602474 0.5712622404 4287269773
-0.2699729800 -0.2596967816 0.5723007917 4287401359
-0.2696733773 -0.2587734163 0.5716656446 4287598738
-0.2701632977 -0.2586072385 0.5727041960 4288388254
-0.2698631287 -0.2576842904 0.5720679164 4290559423
-0.2699578106 -0.2571388781 0.5722686052 4291480525
-0.2700523734 -0.2565928996 0.5724690557 4291612114
-0.2697512507 -0.2556714416 0.5718307495 4291546321
-0.2686583996 -0.2540028393 0.5695140362 4291677907
-0.2695435882 -0.2542048991 0.5713905096 4291743700
-0.2676576078 -0.2517958283 0.5673925281 4291809492
-0.2653740346 -0.2490225434 0.5625516772 4291612113
-0.2626924515 -0.2458874732 0.5568671823 4291612113
-0.2663504779 -0.2486841679 0.5646216273 4291612113
-0.2529617250 -0.2355876416 0.5362395048 4291743446
-0.2494792342 -0.2317567319 0.5288571715 4292006618
-0.2467876822 -0.2286751270 0.5231515169 4292335583
-0.2452847958 -0.2267048359 0.5199656487 4292664548
-0.2441777438 -0.2251065224 0.5176188350 4292927974
-0.2434669137 -0.2238777727 0.5161120296 4293125353
-0.2427554131 -0.2226517498 0.5146037340 4293126128
-0.2420432419 -0.2214284688 0.5130940676 4293126128
-0.2413304001 -0.2202079445 0.5115829110 4293060335
-0.2410145998 -0.2193521261 0.5109134912 4293126128
-0.2406984121 -0.2184974402 0.5102432370 4293126898
-0.2407798022 -0.2180042118 0.5104157329 4293324277
-0.2404629439 -0.2171509713 0.5097441077 4293390072
-0.2405439466 -0.2166575640 0.5099157691 4293390072
-0.2402264327 -0.2158057690 0.5092427135 4293192951
-0.2403070331 -0.2153121829 0.5094136000 4293192951
-0.2399888635 -0.2144618630 0.5087391138 4293324537
-0.2400690764 -0.2139680982 0.5089091063 4293390330
-0.2397502363 -0.2131192386 0.5082332492 4293325052
-0.2402291000 -0.2129791081 0.5092483759 4293325052
-0.2395105362 -0.2117779404 0.5077251196 4293325052
-0.2395899594 -0.2112838626 0.5078935027 4293325052
-0.2404681444 -0.2114919126 0.5097550750 4293260027
-0.2405475527 -0.2109951973 0.5099233985 4293128441
-0.2398274094 -0.2097986639 0.5083968043 4293390583
-0.2403061390 -0.2096514553 0.5094116330 4293324790
-0.2403850108 -0.2091540843 0.5095788836 4293454834
-0.2396635413 -0.2079618722 0.5080494285 4293520627
-0.2397418767 -0.2074651867 0.5082155466 4293652215
-0.2418219298 -0.2086956352 0.5126249194 4293586422
-0.2398981601 -0.2064703554 0.5085468292 4292534771
-0.2399760932 -0.2059722245 0.5087119937 4291613669
-0.2420576811 -0.2071887255 0.5131246448 4290760168
-0.2449421883 -0.2090808153 0.5192393661 4291023340
-0.2442192286 -0.2078884840 0.5177068114 4288458963
-0.2434956133 -0.2066990137 0.5161728263 4286353587
-0.2471853495 -0.2092489749 0.5239945054 4286946501
-0.2484688461 -0.2097502649 0.5267153382 4287801810
-0.2497529685 -0.2102460414 0.5294374824 4287607514
-0.2510377169 -0.2107362896 0.5321609378 4287410135
-0.2523230910 -0.2112210095 0.5348857045 4288132308
-0.2548148334 -0.2127067000 0.5401678085 4288592859
-0.2536895573 -0.2111698538 0.5377823710 4289248471
-0.2565850616 -0.2129757255 0.5439204574 4290103780
-0.2578729987 -0.2134374082 0.5466507077 4291219943
-0.2603688538 -0.2148899287 0.5519414544 4292206838
-0.2592430711 -0.2133502066 0.5495550036 4293454846
-0.2613378167 -0.2144585848 0.5539955497 4293981183
-0.2626280487 -0.2148988098 0.5567306280 4294177278
-0.2635159492 -0.2150046974 0.5586128831 4294572031
-0.2644042075 -0.2151066661 0.5604957938 4294704127
-0.2648895979 -0.2148776799 0.5615248084 4294769919
-0.2653751075 -0.2146464735 0.5625539422 4294507775
-0.2658606768 -0.2144130468 0.5635833144 4294441983
-0.2663463354 -0.2141773999 0.5646128654 4294178555
-0.2664284110 -0.2136158794 0.5647868514 4293849590
-0.2669141293 -0.2133766413 0.5658164620 4293915385
-0.2669959962 -0.2128132284 0.5659899712 4294244350
-0.2674817443 -0.2125704139 0.5670197010 4294375679
-0.2675634027 -0.2120051086 0.5671927929 4294112511
-0.2676448822 -0.2114392966 0.5673655272 4294178815
-0.2677261829 -0.2108729482 0.5675379038 4294178815
-0.2682118714 -0.2106237859 0.5685675144 4294046975
-0.2682929933 -0.2100555599 0.5687394142 4294046975
-0.2687787116 -0.2098027915 0.5697690845 4294112511
-0.2688595951 -0.2092326880 0.5699405074 4294046719
-0.2689402997 -0.2086620629 0.5701116323 4294177791
-0.2690208256 -0.2080909312 0.5702823400 4294111998
-0.2686959207 -0.2072067410 0.5695936084 4294112248
-0.2687759995 -0.2066354454 0.5697633624 4294046455
-0.2688558996 -0.2060636282 0.5699326992 4293915385
-0.2689356208 -0.2054913193 0.5701016784 4293915385
-0.2690151632 -0.2049184889 0.5702703595 4293981178
-0.2690945268 -0.2043451518 0.5704386234 4293981178
-0.2691737413 -0.2037713081 0.5706064701 4293915385
-0.2692527473 -0.2031969577 0.5707740188 4293915385
-0.2693316042 -0.2026221007 0.5709411502 4293915385
-0.2694102526 -0.2020467371 0.5711078644 4293783799
-0.2694887519 -0.2014708817 0.5712742805 4293849592
-0.2695670724 -0.2008945048 0.5714402795 4293849592
-0.2700518966 -0.2006197870 0.5724680424 4293783799
-0.2701299787 -0.2000415325 0.5726335645 4293783799
-0.2702078521 -0.1994628012 0.5727986693 4293783799
-0.2694714665 -0.1982845068 0.5712376237 4293718006
-0.2695487440 -0.1977065206 0.5714014173 4293718006
-0.2696258426 -0.1971280277 0.5715649128 4293718006
-0.2697027922 -0.1965490431 0.5717279911 4293783799
-0.2697795331 -0.1959695518 0.5718906522 4293783799
-0.2698560953 -0.1953895837 0.5720529556 4293718006
-0.2699324787 -0.1948091090 0.5722149014 4293718006
-0.2700086534 -0.1942281425 0.5723764300 4293718006
-0.2704926431 -0.1939392090 0.5734024048 4293652213
-0.2705686092 -0.1933563948 0.5735633969 4293652213
-0.2706443369 -0.1927730739 0.5737239718 4293652213
-0.2711282372 -0.1924791485 0.5747497082 4293718006
-0.2707952857 -0.1916049868 0.5740439296 4293718006
-0.2712790370 -0.1913083196 0.5750693679 4293718006
-0.2713541687 -0.1907221675 0.5752286315 4293718006
-0.2714290917 -0.1901355386 0.5753874779 4293718006
-0.2715038061 -0.1895484179 0.5755459070 4293718006
-0.2711693645 -0.1886762381 0.5748369098 4293652213
-0.2708344758 -0.1878053397 0.5741270185 4293586420
-0.2709084153 -0.1872185469 0.5742837787 4293652213
-0.2709821761 -0.1866312623 0.5744401217 4293652213
-0.2706462741 -0.1857624799 0.5737280846 4293586420
-0.2707195282 -0.1851751357 0.5738833547 4293586420
-0.2707926035 -0.1845873147 0.5740382075 4293586420
-0.2708654702 -0.1839990169 0.5741927028 4293520627
-0.2709381580 -0.1834102422 0.5743467808 4293520627
-0.2710106373 -0.1828209907 0.5745004416 4293520627
-0.2710829079 -0.1822312772 0.5746536255 4293718006
-0.2715652287 -0.1819158792 0.5756760836 4293652213
-0.2716372311 -0.1813243330 0.5758287311 4293652213
-0.2717090249 -0.1807323098 0.5759809017 4293652213
-0.2717806399 -0.1801398098 0.5761327147 4293586420
-0.2714414001 -0.1792756319 0.5754135847 4293586420
-0.2715125084 -0.1786831021 0.5755643249 4293652213
-0.2715834379 -0.1780901104 0.5757146478 4293586420
-0.2716541290 -0.1774966568 0.5758645535 4293521138
-0.2717246413 -0.1769027263 0.5760139823 4293521138
-0.2713837624 -0.1760416180 0.5752913952 4293586418
-0.2714537680 -0.1754476726 0.5754398108 4293586418
-0.2711121738 -0.1745883375 0.5747156739 4293652211
-0.2711816728 -0.1739943773 0.5748630166 4293652211
-0.2712509632 -0.1733999699 0.5750098825 4293586931
-0.2713200450 -0.1728050858 0.5751563311 4293586931
-0.2713889480 -0.1722097695 0.5753023624 4293652726
-0.2710457146 -0.1713535786 0.5745747685 4293652726
-0.2711140811 -0.1707582474 0.5747197270 4293718006
-0.2711822689 -0.1701624691 0.5748642683 4293652213
-0.2712502480 -0.1695662439 0.5750083327 4293652213
-0.2717303336 -0.1692263633 0.5760260820 4293652213
-0.2717980146 -0.1686283350 0.5761695504 4293586933
-0.2718654573 -0.1680298746 0.5763125420 4293586933
-0.2719327211 -0.1674309522 0.5764551163 4293586420
-0.2719997466 -0.1668315977 0.5765972137 4293652213
-0.2720665932 -0.1662317812 0.5767388940 4293586420
-0.2721332312 -0.1656315476 0.5768801570 4293586420
-0.2721996605 -0.1650308520 0.5770209432 4293652213
-0.2722658515 -0.1644297242 0.5771613121 4293718006
-0.2723318636 -0.1638281643 0.5773012042 4293652213
-0.2723976374 -0.1632261723 0.5774406791 4293718006
-0.2720497847 -0.1623769552 0.5767032504 4293718006
-0.2725285888 -0.1620208621 0.5777182579 4293718006
-0.2721801102 -0.1611726135 0.5769795179 4293718006
-0.2722449601 -0.1605698019 0.5771169662 4293652213
-0.2723096013 -0.1599665433 0.5772539973 4293652213
-0.2723740041 -0.1593628675 0.5773905516 4293652213
-0.2724382281 -0.1587587595 0.5775266886 4293586420
-0.2729163468 -0.1583945900 0.5785402656 4293652213
-0.2725659907 -0.1575492769 0.5777975321 4293586931
-0.2726295590 -0.1569438875 0.5779322982 4293586931
-0.2726929188 -0.1563380957 0.5780665874 4293652724
-0.2727560401 -0.1557318568 0.5782003999 4293652724
-0.2732335925 -0.1553609669 0.5792127252 4293586931
-0.2728816569 -0.1545181423 0.5784667134 4293586931
-0.2729441524 -0.1539106667 0.5785991549 4293652724
-0.2730064094 -0.1533027589 0.5787311792 4293652724
-0.2734834552 -0.1529265046 0.5797424316 4293586931
-0.2735453844 -0.1523168534 0.5798736811 4293652724
-0.2736070752 -0.1517067850 0.5800045133 4293652724
-0.2732532918 -0.1508670151 0.5792545080 4293652724
-0.2733144462 -0.1502570510 0.5793841481 4293652724
-0.2733754218 -0.1496466845 0.5795133710 4293652724
-0.2734361291 -0.1490359008 0.5796421170 4293718004
-0.2734966576 -0.1484247148 0.5797703862 4293783797
-0.2735569179 -0.1478131264 0.5798981786 4293718006
-0.2736169994 -0.1472011209 0.5800254941 4293783799
-0.2736768425 -0.1465887278 0.5801523328 4293849592
-0.2737364471 -0.1459759325 0.5802786946 4293849592
-0.2737958431 -0.1453627348 0.5804046392 4293849590
-0.2738550007 -0.1447491348 0.5805300474 4293849590
-0.2739139497 -0.1441351324 0.5806549788 4293783797
-0.2739726603 -0.1435207427 0.5807794333 4293783797
-0.2740311623 -0.1429059654 0.5809034705 4293718004
-0.2740894258 -0.1422907859 0.5810269713 4293718004
-0.2741474509 -0.1416752189 0.5811499953 4293783797
-0.2742052674 -0.1410592496 0.5812725425 4293783797
-0.2746796608 -0.1406563371 0.5822781920 4293718259
-0.2747370899 -0.1400386691 0.5823999643 4293784052
-0.2747943103 -0.1394206136 0.5825212002 4293849845
-0.2748512924 -0.1388021559 0.5826420188 4293784052
-0.2749080360 -0.1381833255 0.5827623010 4293718516
-0.2749645710 -0.1375641227 0.5828821659 4293652723
-0.2750208676 -0.1369445324 0.5830014944 4293718516
-0.2750769258 -0.1363245547 0.5831203461 4293718516
-0.2751327455 -0.1357042044 0.5832386613 4293652723
-0.2751883566 -0.1350834668 0.5833564997 4293652723
-0.2752436996 -0.1344623715 0.5834738612 4293784052
-0.2752988338 -0.1338408887 0.5835907459 4293718259
-0.2753537297 -0.1332190335 0.5837071538 4293849845
-0.2754083872 -0.1325968206 0.5838230252 4293784052
-0.2754628360 -0.1319742203 0.5839383602 4293784052
-0.2755170166 -0.1313512623 0.5840532780 4293849845
-0.2755709887 -0.1307279319 0.5841676593 4293849845
-0.2756246924 -0.1301042438 0.5842815042 4293849845
-0.2756781876 -0.1294801831 0.5843949318 4293849845
-0.2757314444 -0.1288557649 0.5845078230 4293915638
-0.2757844627 -0.1282309890 0.5846201777 4293915383
-0.2758372426 -0.1276058406 0.5847320557 4293915383
-0.2758897543 -0.1269803494 0.5848433971 4293849590
-0.2759420574 -0.1263544858 0.5849542618 4293915383
-0.2759941220 -0.1257282794 0.5850646496 4293849590
-0.2760459483 -0.1251017153 0.5851745009 4293849590
-0.2765164971 -0.1246636808 0.5861719847 4293849590
-0.2765679061 -0.1240354627 0.5862810016 4293849590
-0.2766190767 -0.1234068945 0.5863894820 4293915383
-0.2766700387 -0.1227779835 0.5864974260 4293849590
-0.2767207325 -0.1221487150 0.5866048932 4293915383
-0.2776098847 -0.1218873486 0.5884897709 4293915383
-0.2776602507 -0.1212554872 0.5885965228 4293981176
-0.2777103484 -0.1206232831 0.5887027979 4293981176
-0.2777602375 -0.1199907437 0.5888085365 4293981176
-0.2778098583 -0.1193578541 0.5889137387 4293981176
-0.2778592408 -0.1187246293 0.5890184045 4293915383
-0.2779083848 -0.1180910692 0.5891225934 4293915383
-0.2783771455 -0.1176346019 0.5901163220 4293915383
-0.2784258723 -0.1169994175 0.5902196169 4293915383
-0.2780543268 -0.1161883846 0.5894319415 4293915383
-0.2781024873 -0.1155534908 0.5895340443 4293915383
-0.2781504095 -0.1149182692 0.5896356106 4293981176
-0.2781980634 -0.1142827198 0.5897366405 4294046969
-0.2786657810 -0.1138185188 0.5907281637 4294046969
-0.2787130177 -0.1131813601 0.5908282399 4293981176
-0.2787599862 -0.1125438735 0.5909278393 4293981176
-0.2788067460 -0.1119060665 0.5910269618 4293981176
-0.2792738080 -0.1114357710 0.5920170546 4293981176
-0.2797407806 -0.1109632254 0.5930069685 4293981176
-0.2797868848 -0.1103225425 0.5931047201 4294046969
-0.2798327804 -0.1096815392 0.5932019949 4294046969
-0.2802992463 -0.1092041880 0.5941908360 4294178041
-0.2807656229 -0.1087246016 0.5951794982 4294178041
-0.2808108628 -0.1080807298 0.5952754021 4294178041
-0.2808558643 -0.1074365452 0.5953707695 4294178041
-0.2809005976 -0.1067920551 0.5954656005 4294243834
-0.2809450924 -0.1061472595 0.5955598950 4294243834
-0.2809893191 -0.1055021510 0.5956536531 4294243834
-0.2810332775 -0.1048567444 0.5957468748 4294243834
-0.2810769975 -0.1042110324 0.5958395600 4294243834
-0.2811204493 -0.1035650223 0.5959317088 4294243834
-0.2811636627 -0.1029187143 0.5960232615 4294243834
-0.2812066078 -0.1022721082 0.5961142778 4294243834
-0.2816709578 -0.1017775685 0.5970986485 4294243834
-0.2817134559 -0.1011294052 0.5971887112 4294309627
-0.2817556858 -0.1004809439 0.5972782373 4294309627
-0.2817976475 -0.0998321995 0.5973672271 4294309627
-0.2818393707 -0.0991831571 0.5974556804 4294309624
-0.2823027968 -0.0986813381 0.5984380841 4294309624
-0.2823440731 -0.0980307609 0.5985255241 4294309624
-0.2828071415 -0.0975254476 0.5995072126 4294309624
-0.2828479409 -0.0968733281 0.5995936990 4294309624
-0.2833107114 -0.0963645354 0.6005746722 4294309624
-0.2837733030 -0.0958535150 0.6015553474 4294375417
-0.2838134468 -0.0951986015 0.6016404033 4294375417
-0.2838532925 -0.0945434198 0.6017248631 4294375419
-0.2838928998 -0.0938879550 0.6018088460 4294375419
-0.2843547463 -0.0933709517 0.6027879119 4294507005
-0.2848164737 -0.0928517282 0.6037666202 4294507005
-0.2848553658 -0.0921934992 0.6038491130 4294441212
-0.2848940194 -0.0915350020 0.6039310694 4294441212
-0.2853551805 -0.0910110623 0.6049085855 4294572798
-0.2858161330 -0.0904849023 0.6058858037 4294441212
-0.2858541012 -0.0898236483 0.6059662700 4294376698
-0.2858918011 -0.0891621336 0.6060461998 4294376698
-0.2863522172 -0.0886312798 0.6070221663 4294310653
-0.2863894105 -0.0879682600 0.6071010232 4294310653
-0.2864263654 -0.0873049870 0.6071793437 4294310653
-0.2864630222 -0.0866414607 0.6072571278 4294244860
-0.2864994407 -0.0859776810 0.6073342562 4294244599
-0.2869588137 -0.0854396597 0.6083080769 4294244599
-0.2869947255 -0.0847743973 0.6083841920 4294573566
-0.2870303690 -0.0841088817 0.6084597707 4294376187
-0.2874891162 -0.0835661963 0.6094322801 4294310141
-0.2875242829 -0.0828992054 0.6095067859 4294310141
-0.2879826427 -0.0823530778 0.6104784608 4294244350
-0.2880173028 -0.0816846192 0.6105519533 4294112764
-0.2884753048 -0.0811350644 0.6115227938 4294243834
-0.2885094583 -0.0804651454 0.6115951538 4294309627
-0.2889670134 -0.0799121633 0.6125651598 4294048251
-0.2894244194 -0.0793569759 0.6135348082 4294311423
-0.2894578576 -0.0786843747 0.6136056781 4294508031
-0.2899148464 -0.0781257674 0.6145744324 4294442239
-0.2899477780 -0.0774517283 0.6146442294 4294573566
-0.2904043794 -0.0768897012 0.6156120896 4294376187
-0.2904367745 -0.0762142166 0.6156808138 4294310394
-0.2904689014 -0.0755385086 0.6157489419 4294507773
-0.2900766730 -0.0747532845 0.6149174571 4294639359
-0.2896840572 -0.0739698187 0.6140851974 4294573566
-0.2897152603 -0.0732954219 0.6141512990 4294507773
-0.2893219590 -0.0725144744 0.6133176088 4294376187
-0.2893525660 -0.0718406364 0.6133824587 4294441210
-0.2889585495 -0.0710622296 0.6125472188 4294770175
-0.2889885604 -0.0703889504 0.6126108170 4294441210
-0.2881694734 -0.0695107207 0.6108744740 4294441210
-0.2881987989 -0.0688390061 0.6109367013 4294245114
-0.2878033817 -0.0680666938 0.6100984812 4293916149
-0.2878321409 -0.0673955604 0.6101593971 4294046975
-0.2874360383 -0.0666258186 0.6093197465 4293652221
-0.2870395780 -0.0658578500 0.6084792614 4293389053
-0.2870673835 -0.0651881099 0.6085382700 4293060088
-0.2866702378 -0.0644227266 0.6076963544 4292994542
-0.2862727344 -0.0636591390 0.6068537235 4292336612
-0.2862996459 -0.0629907995 0.6069107652 4291614683
-0.2863262892 -0.0623222776 0.6069672108 4291351511
-0.2859277725 -0.0615620911 0.6061224341 4290432476
-0.2859538198 -0.0608941913 0.6061776280 4289182409
-0.2859795690 -0.0602261089 0.6062322259 4287406528
-0.2860050499 -0.0595578440 0.6062862277 4285169566
-0.2864552438 -0.0589769073 0.6072405577 4285432487
-0.2864801884 -0.0583072975 0.6072934866 4286945726
-0.2869299352 -0.0577230304 0.6082468629 4287736010
-0.2873794734 -0.0571366027 0.6091998219 4287012287
-0.2878288031 -0.0565480143 0.6101523638 4285169564
-0.2878527641 -0.0558747388 0.6102030873 4285037978
-0.2883016169 -0.0552828312 0.6111546159 4286089629
-0.2883250117 -0.0546082258 0.6112042665 4286418594
-0.2883481383 -0.0539334603 0.6112532616 4288457138
-0.2883709669 -0.0532585308 0.6113016605 4290496721
-0.2875428200 -0.0524283312 0.6095460653 4290298310
-0.2867142260 -0.0516019538 0.6077895761 4289771966
-0.2863106430 -0.0508549735 0.6069340706 4291548118
-0.2842049003 -0.0498115607 0.6024702191 4292995564
-0.2808220983 -0.0485572480 0.5952991843 4293587701
-0.2761619687 -0.0471010134 0.5854204297 4293982459
-0.2676708996 -0.0450223722 0.5674207211 4293916666
-0.2664132416 -0.0441833474 0.5647546649 4293719287
-0.2643038929 -0.0432110094 0.5602831841 4293850872
-0.2643222213 -0.0425914451 0.5603219867 4293785079
-0.2639145851 -0.0419041626 0.5594578981 4293720312
-0.2639323473 -0.0412853435 0.5594955087 4293786105
-0.2622469366 -0.0404040329 0.5559226871 4293128689
-0.2639670670 -0.0400473326 0.5595691204 4292668138
-0.2635582387 -0.0393645503 0.5587025285 4293259759
-0.2635749280 -0.0387462452 0.5587378740 4293851896
-0.2627396584 -0.0380046293 0.5569672585 4293785590
-0.2619040310 -0.0372668952 0.5551958680 4293851383
-0.2644751370 -0.0370098241 0.5606462359 4293851383
-0.2627871931 -0.0361546762 0.5570679903 4293851383
-0.2628025115 -0.0355378054 0.5571004748 4294179321
-0.2645213902 -0.0351472162 0.5607442260 4294508286
-0.2628323436 -0.0343037434 0.5571637154 4294901759
-0.2641249001 -0.0338503495 0.5599037409 4294835967
-0.2649913132 -0.0333372504 0.5617403388 4294704636
-0.2650054097 -0.0327148624 0.5617703199 4294704636
-0.2650328577 -0.0314697847 0.5618284941 4294770429
-0.2654722929 -0.0308966991 0.5627600551 4294770429
-0.2654853761 -0.0302729234 0.5627877712 4294770429
-0.2659243643 -0.0296966471 0.5637183189 4294770429
-0.2672154903 -0.0292114578 0.5664553046 4294770429
-0.2685064375 -0.0287201703 0.5691919327 4294770429
-0.2689447999 -0.0281336159 0.5701212287 4294770429
-0.2740715742 -0.0280243922 0.5809891820 4294770429
-0.2719521523 -0.0271671470 0.5764963031 4294770429
-0.2736687362 -0.0266940575 0.5801352262 4294770429
-0.2779429555 -0.0264563318 0.5891958475 4294770429
-0.2796593904 -0.0259610303 0.5928344131 4294770429
-0.2661312819 -0.2654016614 0.5654883981 4291416282
-0.2658354044 -0.2644789815 0.5648596287 4291481305
-0.2659313083 -0.2639465928 0.5650634766 4290954961
-0.2656347454 -0.2630251050 0.5644333363 4290626248
-0.2661227882 -0.2628800869 0.5654703379 4289902525
-0.2673963010 -0.2635067999 0.5681763887 4289310385
-0.2674921751 -0.2629697323 0.5683800578 4288652455
-0.2679808140 -0.2628174722 0.5694183707 4288125850
-0.2668973207 -0.2611247599 0.5671160817 4287336334
-0.2673857212 -0.2609713376 0.5681538582 4287007623
-0.2686609924 -0.2615817189 0.5708636045 4287270795
-0.2675760090 -0.2598936260 0.5685581565 4287467406
-0.2688518465 -0.2604981065 0.5712691545 4287401613
-0.2681595087 -0.2591942251 0.5697980523 4287467406
-0.2694360614 -0.2597920001 0.5725105405 4287401613
-0.2687430680 -0.2584893405 0.5710380077 4287335566
-0.2688377798 -0.2579457164 0.5712392330 4287664531
-0.2689323127 -0.2574015260 0.5714401603 4289375149
-0.2690267563 -0.2568567693 0.5716407895 4290822595
-0.2691210508 -0.2563114464 0.5718411803 4291348941
-0.2684257030 -0.2550154924 0.5703637004 4291480527
-0.2685194612 -0.2544706166 0.5705628991 4291677906
-0.2682180405 -0.2535517514 0.5699224472 4291480527
-0.2671259344 -0.2518886924 0.5676018000 4291480525
-0.2604987025 -0.2450245172 0.5535200238 4291809490
-0.2637524903 -0.2474623322 0.5604338050 4291546320
-0.2559324205 -0.2395210266 0.5438173413 4291546320
-0.2508766651 -0.2341971993 0.5330746174 4291677907
-0.2477964461 -0.2307367474 0.5265296698 4291941079
-0.2455058843 -0.2280242741 0.5216625333 4292204251
-0.2428174317 -0.2249540091 0.5159499645 4292401630
-0.2440894395 -0.2255561799 0.5186527967 4292664801
-0.2421910614 -0.2232301682 0.5146190524 4292862180
-0.2414807677 -0.2220053673 0.5131098032 4292994281
-0.2411664575 -0.2211470455 0.5124419332 4292994281
-0.2400581688 -0.2195640206 0.5100869536 4292994796
-0.2401397079 -0.2190716714 0.5102602243 4293126382
-0.2398240715 -0.2182175219 0.5095895529 4293257968
-0.2399052382 -0.2177249938 0.5097619891 4293389554
-0.2395889312 -0.2168723047 0.5090899467 4293324277
-0.2392722368 -0.2160207480 0.5084170103 4293324277
-0.2393527329 -0.2155283391 0.5085880160 4293324279
-0.2394331098 -0.2150354534 0.5087588429 4293324279
-0.2395133525 -0.2145420611 0.5089293122 4293324537
-0.2391954660 -0.2136926055 0.5082538724 4293390330
-0.2392753214 -0.2131990492 0.5084235072 4293325052
-0.2385585159 -0.2119971514 0.5069004297 4293325052
-0.2394346148 -0.2122104466 0.5087620020 4293325052
-0.2387170196 -0.2110108584 0.5072372556 4293325052
-0.2383974046 -0.2101655304 0.5065581203 4293325820
-0.2392737716 -0.2103732228 0.5084202886 4293260027
-0.2393527031 -0.2098775357 0.5085879564 4293456376
-0.2386333793 -0.2086834162 0.5070595145 4293390583
-0.2387117594 -0.2081883997 0.5072260499 4293586679
-0.2395886481 -0.2083875239 0.5090892911 4293586679
-0.2400664687 -0.2082363516 0.5101045966 4293718008
-0.2397452593 -0.2073917389 0.5094221234 4293718008
-0.2410224825 -0.2079275697 0.5121359825 4293521407
-0.2407010049 -0.2070819736 0.5114529133 4293455614
-0.2423789501 -0.2079533488 0.5150182843 4292207097
-0.2400568575 -0.2053943127 0.5100842118 4292141304
-0.2437364310 -0.2079671472 0.5179027319 4290432493
-0.2446157038 -0.2081398964 0.5197710395 4286945464
-0.2402890921 -0.2038911581 0.5105776787 4285762479
-0.2463753819 -0.2084738612 0.5235100985 4286815167
-0.2456528246 -0.2072825134 0.5219747424 4287540708
-0.2477356791 -0.2084551454 0.5264005065 4287540708
-0.2486166656 -0.2086095065 0.5282725096 4287606241
-0.2498991489 -0.2090956420 0.5309975743 4287540448
-0.2515835166 -0.2099110186 0.5345765352 4287210967
-0.2528673410 -0.2103852183 0.5373045206 4287145174
-0.2501367629 -0.2075228542 0.5315024853 4287210454
-0.2546336055 -0.2106524408 0.5410575271 4287473626
-0.2559190094 -0.2111116499 0.5437888503 4288656611
-0.2572050393 -0.2115652710 0.5465214849 4289446127
-0.2584916651 -0.2120133340 0.5492553115 4290891762
-0.2597788870 -0.2124557942 0.5519904494 4291615485
-0.2610666752 -0.2128926665 0.5547268391 4292271861
-0.2619526982 -0.2129967660 0.5566095114 4293192959
-0.2628390491 -0.2130969465 0.5584928989 4293981951
-0.2633231282 -0.2128677219 0.5595214367 4294245119
-0.2638072670 -0.2126362920 0.5605502129 4294047231
-0.2646943927 -0.2127264291 0.5624352098 4294047231
-0.2651788294 -0.2124897093 0.5634645820 4293915898
-0.2652602196 -0.2119286954 0.5636374950 4293915898
-0.2653414607 -0.2113671601 0.5638101101 4294179068
-0.2658258975 -0.2111254781 0.5648394823 4294310654
-0.2659069300 -0.2105620652 0.5650116205 4294310654
-0.2663913965 -0.2103167921 0.5660410523 4294113275
-0.2664721906 -0.2097514868 0.5662127733 4293981439
-0.2669567168 -0.2095026076 0.5672422647 4293981439
-0.2670373023 -0.2089354098 0.5674135089 4294046719
-0.2671177089 -0.2083677053 0.5675843954 4294046719
-0.2671979666 -0.2077994943 0.5677548647 4293981180
-0.2672780454 -0.2072307616 0.5679250360 4293981180
-0.2677624226 -0.2069741786 0.5689542890 4293981176
