VERSION 0.7
FIELDS x y z rgba
SIZE 4 4 4 4
TYPE F F F U
COUNT 1 1 1 1
WIDTH 920
HEIGHT 1
VIEWPOINT 0.0 0.0 0.0 1.0 0.0 0.0 0.0
POINTS 920
DATA ascii
-0.3183361888 -0.1365501434 0.6289197803 4285757306
-0.3192818761 -0.1362549365 0.6307881474 4287665303
-0.3202276230 -0.1359556168 0.6326565742 4289244585
-0.3202861845 -0.1352774203 0.6327722669 4290889410
-0.3203444779 -0.1345988661 0.6328874826 4291482057
-0.3195149601 -0.1335489601 0.6312486529 4291942608
-0.3033878803 -0.2385473847 0.6007053852 4288849837
-0.3022074103 -0.2369543761 0.5983680487 4283191639
-0.3014511466 -0.2356982231 0.5968706012 4281481021
-0.3011194766 -0.2347764671 0.5962139368 4282073158
-0.2995110452 -0.2328635156 0.5930292606 4281875268
-0.2979013920 -0.2309566885 0.5898421407 4281414717
-0.2971419096 -0.2297141999 0.5883383751 4281414717
-0.2972334027 -0.2291310430 0.5885195732 4281348924
-0.2973247468 -0.2285473496 0.5887003541 4281480510
-0.2969897687 -0.2276365161 0.5880371332 4281414717
-0.2979330719 -0.2277041078 0.5899048448 4281479740
-0.2971712649 -0.2264681160 0.5883964896 4281413947
-0.2976882160 -0.2262071967 0.5894200802 4281348154
-0.2977786660 -0.2256208211 0.5895991325 4281282361
-0.2978689075 -0.2250339240 0.5897778273 4281282361
-0.2983858287 -0.2247680426 0.5908013582 4281216568
-0.2989028692 -0.2244999409 0.5918250084 4281282359
-0.2989928126 -0.2239097357 0.5920031667 4281479738
-0.2999370992 -0.2239570767 0.5938728452 4281742910
-0.3008817434 -0.2240004987 0.5957431793 4282203461
-0.3018266857 -0.2240400016 0.5976141691 4282664012
-0.3031996191 -0.2243920714 0.6003325582 4282861391
-0.3041453362 -0.2244229019 0.6022050977 4283124563
-0.3055192828 -0.2247645855 0.6049255133 4283256149
-0.3060377538 -0.2244727612 0.6059520245 4283256149
-0.3069844246 -0.2244917899 0.6078264713 4282992977
-0.3079314232 -0.2245068848 0.6097015142 4283058770
-0.3084503114 -0.2242066413 0.6107289195 4282795598
-0.3093977869 -0.2242146879 0.6126049161 4282466633
-0.3103455901 -0.2242188007 0.6144815087 4282203461
-0.3100073338 -0.2232924402 0.6138117909 4281742910
-0.3100975454 -0.2226752341 0.6139904261 4281348152
-0.3106166124 -0.2223646194 0.6150181293 4280690994
-0.3111356795 -0.2220517695 0.6160459518 4280625201
-0.3116548359 -0.2217366546 0.6170738339 4280888373
-0.3121740222 -0.2214192897 0.6181018353 4281809475
-0.3131227791 -0.2214033902 0.6199803948 4282138440
-0.3127829134 -0.2204749584 0.6193073988 4282204233
-0.3133020997 -0.2201517075 0.6203354001 4282071875
-0.3138213456 -0.2198261917 0.6213635206 4282203461
-0.3143406212 -0.2194984108 0.6223917007 4282203715
-0.3144298196 -0.2188689709 0.6225682497 4282269508
-0.3149490654 -0.2185375541 0.6235963702 4282532680
-0.3146075904 -0.2176084965 0.6229202151 4282861645
-0.3146961331 -0.2169774473 0.6230955720 4283059024
-0.3147844970 -0.2163458765 0.6232705712 4283059024
-0.3148726523 -0.2157137692 0.6234450936 4283190096
-0.3145297468 -0.2147869021 0.6227661371 4283387475
-0.3146173358 -0.2141546011 0.6229395866 4283454031
-0.3147047460 -0.2135217786 0.6231126189 4283519824
-0.3143607378 -0.2125967890 0.6224314570 4283717205
-0.3144475818 -0.2119637728 0.6226034760 4283848791
-0.3145342469 -0.2113302350 0.6227750182 4283848791
-0.3141891062 -0.2104071528 0.6220916510 4283914584
-0.3142752051 -0.2097734511 0.6222621799 4284177241
-0.3143610954 -0.2091392130 0.6224322319 4284440413
-0.3144467771 -0.2085044682 0.6226018667 4284835424
-0.3141002059 -0.2075836509 0.6219156384 4285098596
-0.3141853511 -0.2069487423 0.6220842004 4285427811
-0.3142702579 -0.2063133121 0.6222523451 4285690983
-0.3139225841 -0.2053944618 0.6215639710 4286085481
-0.3135744333 -0.2044768333 0.6208746433 4286414446
-0.3140911162 -0.2041227818 0.6218976378 4286875249
-0.3137423098 -0.2032058835 0.6212069988 4287204214
-0.3138259053 -0.2025696486 0.6213725209 4287860344
-0.3139092922 -0.2019329071 0.6215376258 4288452481
-0.3135593832 -0.2010180056 0.6208447814 4289440398
-0.3132089972 -0.2001043558 0.6201511025 4290164121
-0.3132915199 -0.1994678527 0.6203144193 4290690722
-0.3133738041 -0.1988308430 0.6204773784 4291546031
-0.3130223155 -0.1979192048 0.6197814345 4292269243
-0.3131040335 -0.1972820908 0.6199432611 4292598208
-0.3127517700 -0.1963721067 0.6192457676 4292598462
-0.3119651675 -0.1951919198 0.6176882982 4292795841
-0.3124799132 -0.1948265433 0.6187074780 4293058494
-0.3121263981 -0.1939194947 0.6180075407 4293058494
-0.3113382459 -0.1927449107 0.6164469719 4292926646
-0.3114180863 -0.1921092421 0.6166050434 4292466095
-0.3110632598 -0.1912060380 0.6159024835 4292070310
-0.3107079864 -0.1903041303 0.6151990891 4291675552
-0.3103522658 -0.1894035041 0.6144947410 4290687626
-0.3099960983 -0.1885041744 0.6137895584 4290292868
-0.3096394837 -0.1876061410 0.6130834818 4290095956
-0.3097174168 -0.1869720221 0.6132377982 4289766991
-0.3093600273 -0.1860757023 0.6125301719 4289898292
-0.3094374239 -0.1854415089 0.6126833558 4290029878
-0.3090792596 -0.1845469326 0.6119742393 4290489397
-0.3087206483 -0.1836536527 0.6112641692 4290555190
-0.3083615899 -0.1827616841 0.6105532646 4291080497
-0.3084377646 -0.1821282804 0.6107040644 4290883118
-0.3076421916 -0.1809817255 0.6091288328 4290750504
-0.3081535399 -0.1806046367 0.6101412773 4290618918
-0.3077929318 -0.1797161698 0.6094272733 4290749740
-0.3074318767 -0.1788290441 0.6087124348 4290749740
-0.3070704043 -0.1779432446 0.6079967022 4290618663
-0.3067084849 -0.1770587862 0.6072800756 4290684456
-0.3063461185 -0.1761756539 0.6065626144 4290619945
-0.3064198196 -0.1755439341 0.6067085266 4290619945
-0.3060566783 -0.1746626049 0.6059895158 4290488360
-0.3056930900 -0.1737826169 0.6052696109 4290488360
-0.3053290844 -0.1729039848 0.6045488715 4290619946
-0.3049646318 -0.1720267087 0.6038272977 4290685739
-0.3045997322 -0.1711507887 0.6031048298 4290751019
-0.3042344153 -0.1702762246 0.6023814678 4290816812
-0.3038686514 -0.1694030315 0.6016572714 4290948400
-0.3039397895 -0.1687740386 0.6017980576 4290882607
-0.3035732508 -0.1679026783 0.6010723710 4290882607
-0.3032062650 -0.1670326740 0.6003457904 4290882607
-0.3032765090 -0.1664041877 0.6004847884 4291013674
-0.3033464849 -0.1657752544 0.6006233692 4291145260
-0.3034162521 -0.1651458889 0.6007615328 4291211302
-0.3030478656 -0.1642787009 0.6000320911 4291211302
-0.3031170368 -0.1636493653 0.6001690626 4291146030
-0.3027478755 -0.1627840400 0.5994381309 4291211823
-0.3028165102 -0.1621547639 0.5995740294 4291343409
-0.3028849065 -0.1615250707 0.5997094512 4291409202
-0.3025146127 -0.1606620997 0.5989763141 4291540788
-0.3021439016 -0.1598005444 0.5982422829 4291672374
-0.3017727733 -0.1589403749 0.5975074172 4291738165
-0.3018399179 -0.1583117247 0.5976403952 4291803958
-0.3019068539 -0.1576826423 0.5977728963 4292001337
-0.3015346229 -0.1568248868 0.5970358849 4292067130
-0.3016009629 -0.1561958939 0.5971672535 4292264509
-0.3012279570 -0.1553400457 0.5964286923 4292396095
-0.3012937307 -0.1547111422 0.5965589285 4292461888
-0.3009199500 -0.1538572162 0.5958188772 4292527681
-0.3009851575 -0.1532284170 0.5959479809 4292593472
-0.3006106317 -0.1523764282 0.5952064395 4292527679
-0.3006752729 -0.1517477334 0.5953343511 4292462149
-0.3002999723 -0.1508976966 0.5945913196 4292593735
-0.3003640175 -0.1502691060 0.5947180986 4292791114
-0.2999879718 -0.1494210213 0.5939735174 4292791114
-0.3000514507 -0.1487925500 0.5940992236 4292856908
-0.3001146913 -0.1481636912 0.5942244530 4292988494
-0.2997375429 -0.1473180950 0.5934777260 4293185619
-0.2998002172 -0.1466893703 0.5936017632 4293382998
-0.2998626232 -0.1460602283 0.5937253833 4293383513
-0.2994844019 -0.1452171654 0.5929764509 4293383513
-0.2995462418 -0.1445881724 0.5930988789 4293449306
-0.2996078432 -0.1439587921 0.5932208896 4293449306
-0.2992284894 -0.1431182474 0.5924698114 4293449052
-0.2992895246 -0.1424890310 0.5925906301 4293514845
-0.2989094257 -0.1416504979 0.5918380618 4293514845
-0.2985289097 -0.1408134401 0.5910846591 4293514845
-0.2985890508 -0.1401849240 0.5912036896 4293910120
-0.2986488938 -0.1395560354 0.5913221836 4293778534
-0.2991497517 -0.1391319633 0.5923138857 4293778020
-0.2992092073 -0.1385013908 0.5924316049 4293185883
-0.2992684245 -0.1378704309 0.5925488472 4292792671
-0.2997688949 -0.1374415308 0.5935397744 4293055843
-0.2998276949 -0.1368089020 0.5936561823 4290491767
-0.3003279269 -0.1363764405 0.5946466327 4286807359
-0.3012697995 -0.1361413896 0.5965115428 4283518786
-0.3026536107 -0.1361009032 0.5992515087 4282597684
-0.3035957515 -0.1358567029 0.6011169553 4282269236
-0.3045380116 -0.1356083900 0.6029825807 4282861373
-0.3054803312 -0.1353559643 0.6048483849 4282992456
-0.3068648875 -0.1352943778 0.6075897813 4282992456
-0.3078074753 -0.1350328028 0.6094560623 4283124303
-0.3087500930 -0.1347671151 0.6113225222 4283190096
-0.3101352453 -0.1346894354 0.6140650511 4283059023
-0.3115206063 -0.1346057802 0.6168080568 4283059023
-0.3124636412 -0.1343258619 0.6186752319 4283519574
-0.3129640520 -0.1338524967 0.6196660399 4286677638
-0.3139071167 -0.1335652620 0.6215333343 4289178022
-0.3144074082 -0.1330864578 0.6225239038 4290362296
-0.3135788739 -0.1320459098 0.6208834052 4290823350
-0.3127497435 -0.1310087442 0.6192417145 4290954936
-0.3132492304 -0.1305288523 0.6202307343 4290757554
-0.3128623068 -0.1296793669 0.6194646358 4290823347
-0.3124749660 -0.1288314015 0.6186977029 4291151801
-0.3116438985 -0.1278031617 0.6170521975 4291546559
-0.3108122647 -0.1267783493 0.6154055595 4292072904
-0.3032650054 -0.2389762849 0.6017854214 4289705146
-0.3016625643 -0.2370484620 0.5986056328 4286941840
-0.3021809757 -0.2367895991 0.5996343493 4282402123
-0.2993031144 -0.2338746041 0.5939236283 4281086263
-0.2972725928 -0.2316325456 0.5898943543 4281612094
-0.2973646224 -0.2310486287 0.5900769830 4281546301
-0.2966065705 -0.2298056930 0.5885727406 4281414717
-0.2966979742 -0.2292223573 0.5887541175 4281348924
-0.2972143888 -0.2289660573 0.5897789001 4281480510
-0.2968802452 -0.2280540913 0.5891157985 4281348924
-0.2978220284 -0.2281209081 0.5909846425 4281283131
-0.2970618308 -0.2268836647 0.5894761086 4281283131
-0.2967266142 -0.2259734273 0.5888109207 4281283131
-0.2976685166 -0.2260344476 0.5906800032 4281217338
-0.2981847823 -0.2257690579 0.5917044878 4281151545
-0.2987011075 -0.2255014330 0.5927290916 4281019959
-0.2992175221 -0.2252315879 0.5937538147 4281413945
-0.2997340262 -0.2249595374 0.5947787166 4281611324
-0.3002505898 -0.2246852517 0.5958037376 4281808703
-0.3011938334 -0.2247270495 0.5976755023 4282598219
-0.3021374345 -0.2247649282 0.5995479226 4283256149
-0.3043619394 -0.2257487476 0.6039621830 4283387735
-0.3035985529 -0.2245131582 0.6024473310 4283453528
-0.3058243394 -0.2254848927 0.6068640947 4283387735
-0.3054876924 -0.2245631516 0.6061960459 4282861391
-0.3068601191 -0.2248954624 0.6089194417 4282269254
-0.3073781133 -0.2245973945 0.6099473238 4281808703
-0.3083237708 -0.2246086001 0.6118238568 4281084980
-0.3088420033 -0.2243051976 0.6128521562 4280690222
-0.3093602657 -0.2239995450 0.6138806343 4280887601
-0.3094505966 -0.2233826816 0.6140598655 4280821808
-0.3095407188 -0.2227652669 0.6142386794 4280953394
-0.3096306622 -0.2221473306 0.6144171357 4280756787
-0.3101487756 -0.2218352556 0.6154452562 4281283131
-0.3110954165 -0.2218264639 0.6173237562 4281809475
-0.3116137683 -0.2215090245 0.6183523536 4282467405
-0.3121321499 -0.2211893350 0.6193810105 4282533196
-0.3117928207 -0.2202614546 0.6187076569 4282664782
-0.3127400279 -0.2202410847 0.6205872297 4282861645
-0.3132584095 -0.2199154794 0.6216158867 4283124817
-0.3137768507 -0.2195876241 0.6226446629 4283256403
-0.3134365678 -0.2186584473 0.6219694614 4283256403
-0.3139548302 -0.2183278054 0.6229978800 4283387988
-0.3140435219 -0.2176970840 0.6231738329 4283519574
-0.3137022853 -0.2167688906 0.6224966645 4283453781
-0.3137904406 -0.2161379755 0.6226716042 4283322195
-0.3138783872 -0.2155065238 0.6228461266 4283453779
-0.3139661252 -0.2148745507 0.6230202317 4283651158
-0.3140536547 -0.2142420411 0.6231939197 4283848791
-0.3137106299 -0.2133163810 0.6225132346 4283848791
-0.3137976229 -0.2126836777 0.6226859093 4283914330
-0.3138844073 -0.2120504528 0.6228581071 4283980123
-0.3139709532 -0.2114167064 0.6230298877 4283980123
-0.3140573204 -0.2107824385 0.6232012510 4283980123
-0.3141434491 -0.2101476490 0.6233721375 4284177241
-0.3137983382 -0.2092249244 0.6226873398 4284243034
-0.3143151104 -0.2088764906 0.6237127781 4284572252
-0.3144006133 -0.2082401365 0.6238824129 4284835424
-0.3144859076 -0.2076032609 0.6240516901 4285164639
-0.3141394556 -0.2066819519 0.6233642101 4285493604
-0.3142242134 -0.2060449272 0.6235324144 4285953895
-0.3143087327 -0.2054073662 0.6237001419 4286348653
-0.3139611781 -0.2044880390 0.6230104566 4286677870
-0.3136131763 -0.2035699338 0.6223198771 4286941042
-0.3136968315 -0.2029325962 0.6224858761 4287728491
-0.3137802482 -0.2022947520 0.6226513982 4288057456
-0.3134311438 -0.2013786435 0.6219586730 4288781690
-0.3139464557 -0.2010175437 0.6229811907 4289308034
-0.3135966659 -0.2001021802 0.6222870946 4289900171
-0.3132464290 -0.1991880685 0.6215921640 4290755480
-0.3133285344 -0.1985494643 0.6217550635 4291478949
-0.3134104013 -0.1979103535 0.6219175458 4292005293
-0.3126260638 -0.1967258006 0.6203610897 4292071086
-0.3131403923 -0.1963590384 0.6213817000 4292400051
-0.3123550415 -0.1951779127 0.6198232770 4292729270
-0.3124356866 -0.1945394576 0.6199833155 4292860856
-0.3120826781 -0.1936315894 0.6192828417 4292992440
-0.3112956583 -0.1924569458 0.6177210808 4293058233
-0.3109416366 -0.1915525198 0.6170185804 4293190072
-0.3105871677 -0.1906493902 0.6163151860 4293255865
-0.3106661439 -0.1900129169 0.6164719462 4293189819
-0.3103109002 -0.1891114861 0.6157670021 4292860854
-0.3099552095 -0.1882113367 0.6150611639 4292465571
-0.3095990717 -0.1873124987 0.6143544912 4291676055
-0.3092425168 -0.1864149570 0.6136469245 4291147918
-0.3093199134 -0.1857796460 0.6138005257 4290489988
-0.3089625835 -0.1848838329 0.6130914092 4290225776
-0.3090394139 -0.1842484623 0.6132439375 4289962604
-0.3086813092 -0.1833543777 0.6125332713 4290226496
-0.3083227277 -0.1824616194 0.6118217707 4290423875
-0.3083986938 -0.1818266213 0.6119725108 4291015214
-0.3080393374 -0.1809356064 0.6112594008 4291081007
-0.3076795638 -0.1800459176 0.6105454564 4291080496
-0.3073193133 -0.1791575551 0.6098306179 4290817324
-0.3069586456 -0.1782705188 0.6091149449 4290817063
-0.3065975308 -0.1773848236 0.6083983779 4290882856
-0.3062359989 -0.1765004694 0.6076809168 4290685226
-0.3063097298 -0.1758676171 0.6078272462 4290816812
-0.3059473932 -0.1749850512 0.6071082354 4290817324
-0.3055846393 -0.1741038412 0.6063883901 4290685738
-0.3052214384 -0.1732239574 0.6056676507 4290554152
-0.3048577905 -0.1723454446 0.6049460769 4290488359
-0.3044937253 -0.1714682877 0.6042236090 4290685225
-0.3041292131 -0.1705924869 0.6035003066 4290882604
-0.3037642539 -0.1697180569 0.6027761102 4290751019
-0.3033988774 -0.1688449830 0.6020510793 4290816812
-0.3034696877 -0.1682153195 0.6021916270 4290751278
-0.3031035364 -0.1673440933 0.6014650464 4290751278
-0.3031738102 -0.1667144597 0.6016044617 4290751532
-0.3032438457 -0.1660843939 0.6017434001 4290817325
-0.3033136427 -0.1654538810 0.6018819213 4290882604
-0.3029460311 -0.1645854414 0.6011524796 4290816811
-0.3025780320 -0.1637183875 0.6004222035 4290948397
-0.3026469052 -0.1630884111 0.6005589366 4291014190
-0.3022781312 -0.1622232199 0.5998271108 4291145776
-0.3023464382 -0.1615932882 0.5999627113 4291145776
-0.3024145365 -0.1609629244 0.6000978351 4291211823
-0.3020446599 -0.1601001173 0.5993638039 4291343409
-0.3016743362 -0.1592387110 0.5986289382 4291409202
-0.3013035655 -0.1583787054 0.5978932381 4291474995
-0.3013704121 -0.1577493846 0.5980259180 4291606579
-0.3014370501 -0.1571196616 0.5981581211 4291672372
-0.3010651767 -0.1562620699 0.5974202156 4291803958
-0.3011312187 -0.1556324214 0.5975512862 4291935544
-0.3007586300 -0.1547767371 0.5968118906 4292067130
-0.3008240759 -0.1541471928 0.5969417691 4292198716
-0.3004507124 -0.1532934457 0.5962008834 4292264507
-0.3000769019 -0.1524411291 0.5954591036 4292264507
-0.3001414835 -0.1518121809 0.5955872536 4292330302
-0.2997668982 -0.1509618163 0.5948439837 4292396095
-0.2998308837 -0.1503329873 0.5949709415 4292461888
-0.2990164757 -0.1492653936 0.5933548808 4292527681
-0.2995189726 -0.1488558650 0.5943520069 4292593476
-0.2991428971 -0.1480094194 0.5936056972 4292725062
-0.2992057502 -0.1473808289 0.5937304497 4292856907
-0.2988288999 -0.1465363652 0.5929825902 4292988493
-0.2988911569 -0.1459079087 0.5931062102 4292988240
-0.2989532053 -0.1452790797 0.5932292938 4293054033
-0.2985752523 -0.1444371194 0.5924792886 4293119828
-0.2986367047 -0.1438084245 0.5926012397 4293185621
-0.2986979187 -0.1431793422 0.5927227139 4293120341
-0.2983188927 -0.1423399448 0.5919705629 4293186134
-0.2979394495 -0.1415020078 0.5912176371 4293185880
-0.2979997396 -0.1408736259 0.5913372636 4293185880
-0.2976195216 -0.1400377154 0.5905827880 4293450336
-0.2976792455 -0.1394094974 0.5907013416 4292858199
-0.2981791794 -0.1389862150 0.5916933417 4292923479
-0.2982384861 -0.1383563131 0.5918110609 4292989272
-0.2978569567 -0.1375226080 0.5910539627 4291805794
-0.2983564138 -0.1370954067 0.5920450091 4289766211
-0.2984149754 -0.1364643872 0.5921612978 4285163072
-0.2984733284 -0.1358329952 0.5922770500 4282333973
-0.2994133234 -0.1356006563 0.5941423178 4282335290
-0.3003534377 -0.1353642195 0.5960078239 4282664255
-0.3012936115 -0.1351236701 0.5978735089 4282730048
-0.3017926812 -0.1346821040 0.5988638401 4282664255
-0.3022916615 -0.1342383027 0.5998539925 4282466625
-0.3032319546 -0.1339873075 0.6017198563 4282598211
-0.3037308455 -0.1335380971 0.6027098298 4282664517
-0.3037880957 -0.1328934878 0.6028234363 4282335552
-0.3047283590 -0.1326329559 0.6046893001 4282334780
-0.3061104417 -0.1325595975 0.6074317694 4282334780
-0.3066091239 -0.1320995539 0.6084213853 4283256129
-0.3071077168 -0.1316372752 0.6094107628 4287006330
-0.3080481887 -0.1313612163 0.6112769842 4290033043
-0.3085466623 -0.1308935136 0.6122661233 4291019938
-0.3077186942 -0.1298638135 0.6106231213 4291547028
-0.3073323071 -0.1290231645 0.6098564267 4291941786
-0.3078300953 -0.1285534501 0.6108441949 4291809672
-0.3078854084 -0.1278977394 0.6109539866 4292072844
-0.3074980080 -0.1270588487 0.6101852059 4292269194
-0.3071101904 -0.1262214929 0.6094156504 4291940229
-0.3062793612 -0.1252047569 0.6077669859 4291874174
-0.3067759871 -0.1247313991 0.6087524891 4291939967
-0.3068297505 -0.1240767688 0.6088591218 4292072313
-0.3059975803 -0.1230656058 0.6072078347 4292269692
-0.3060506582 -0.1224121824 0.6073131561 4291678864
-0.3061034679 -0.1217584163 0.6074179411 4291810450
-0.3057129383 -0.1209290624 0.6066430211 4291940789
-0.3062082827 -0.1204498857 0.6076259613 4292203961
-0.3033730090 -0.2409301400 0.6033294797 4289245113
-0.3055844903 -0.2420111895 0.6077275276 4289047734
-0.3039866686 -0.2400740832 0.6045498848 4289113009
-0.3028111160 -0.2384766042 0.6022120118 4288455079
-0.3003636897 -0.2358854413 0.5973446965 4285757566
-0.2991858125 -0.2342993319 0.5950022340 4281941572
-0.2975830734 -0.2323866338 0.5918148160 4281283642
-0.2976752520 -0.2318008691 0.5919981599 4281283642
-0.2973431051 -0.2308852077 0.5913375616 4281612094
-0.2970105112 -0.2299706638 0.5906761289 4281414715
-0.2971018851 -0.2293849438 0.5908578634 4281414717
-0.2967685461 -0.2284718156 0.5901949406 4281348924
-0.2969501913 -0.2272993624 0.5905561447 4281283131
-0.2961908281 -0.2260636538 0.5890460014 4281283131
-0.2971311212 -0.2261247486 0.5909159780 4281217338
-0.2980717421 -0.2261819541 0.5927866101 4281151545
-0.2985873520 -0.2259134352 0.5938120484 4281151545
-0.2995284796 -0.2259636670 0.5956837535 4281283129
-0.3004699647 -0.2260099947 0.5975561142 4281612094
-0.3009860516 -0.2257331312 0.5985824466 4282204231
-0.3010763526 -0.2251355797 0.5987620354 4283059540
-0.3020184338 -0.2251726985 0.6006355882 4283388505
-0.3025347292 -0.2248891294 0.6016623974 4283125333
-0.3034773469 -0.2249192446 0.6035369635 4282796368
-0.3044202328 -0.2249454111 0.6054121256 4282335817
-0.3053634763 -0.2249676585 0.6072880030 4281283129
-0.3058803976 -0.2246726006 0.6083160043 4280888371
-0.3063974082 -0.2243753225 0.6093441844 4280559406
-0.3073413074 -0.2243874371 0.6112213731 4280033062
-0.3078585565 -0.2240848094 0.6122500300 4280098855
-0.3083758354 -0.2237799466 0.6132788062 4280559406
-0.3088931739 -0.2234728187 0.6143076420 4280756785
-0.3089832067 -0.2228552252 0.6144866943 4281217336
-0.3090730608 -0.2222370803 0.6146653891 4281546301
-0.3091627061 -0.2216183990 0.6148436666 4282072645
-0.3096798658 -0.2213048488 0.6158722043 4282533196
-0.3101970851 -0.2209890485 0.6169008017 4282993747
-0.3107143641 -0.2206709981 0.6179295182 4283059538
-0.3112317026 -0.2203506976 0.6189583540 4283454296
-0.3117490411 -0.2200281322 0.6199871898 4283651675
-0.3122664392 -0.2197033167 0.6210162044 4283914847
-0.3123554289 -0.2190757245 0.6211931109 4283914332
-0.3128727973 -0.2187472582 0.6222220063 4283914332
-0.3129614592 -0.2181177288 0.6223983765 4284045916
-0.3130499423 -0.2174876630 0.6225743890 4284243295
-0.3131382167 -0.2168570757 0.6227499247 4284243295
-0.3127972186 -0.2159297466 0.6220717430 4284111709
-0.3128849566 -0.2152989507 0.6222462058 4284111709
-0.3129724860 -0.2146676332 0.6224203110 4284177502
-0.3130598068 -0.2140357792 0.6225939393 4283980123
-0.3135764599 -0.2136961371 0.6236214638 4283980123
-0.3132338226 -0.2127704918 0.6229400635 4284045916
-0.3133205175 -0.2121370584 0.6231124401 4284177502
-0.3134070039 -0.2115031034 0.6232844591 4284177502
-0.3134932518 -0.2108686119 0.6234560013 4284243295
-0.3140094876 -0.2105219960 0.6244826317 4284309342
-0.3140954375 -0.2098855972 0.6246535778 4284440928
-0.3141811788 -0.2092486769 0.6248241067 4284703839
-0.3138362169 -0.2083254606 0.6241380572 4284769632
-0.3139214218 -0.2076883614 0.6243075132 4285033055
-0.3144371510 -0.2073347718 0.6253331900 4285362020
-0.3140912056 -0.2064126283 0.6246451139 4285756516
-0.3141757548 -0.2057739943 0.6248133183 4286151274
-0.3142600954 -0.2051348239 0.6249810457 4286480491
-0.3143442273 -0.2044951618 0.6251483560 4286677870
-0.3139968216 -0.2035753429 0.6244574189 4287399273
-0.3140803874 -0.2029355168 0.6246236563 4287596652
-0.3141637444 -0.2022951841 0.6247894168 4288057454
-0.3138152063 -0.2013773471 0.6240962744 4288320626
-0.3138980269 -0.2007368952 0.6242609620 4288912246
-0.3135487139 -0.1998206824 0.6235662699 4289438590
-0.3136309683 -0.1991800815 0.6237298250 4289899393
-0.3137129843 -0.1985389888 0.6238929629 4290425737
-0.3133625686 -0.1976248026 0.6231960654 4291083667
-0.3130117059 -0.1967118829 0.6224982738 4291544218
-0.3126603663 -0.1958002448 0.6217995882 4292136101
-0.3127411604 -0.1951597929 0.6219602823 4292596652
-0.3123890758 -0.1942498088 0.6212600470 4292794031
-0.3120365441 -0.1933411062 0.6205589771 4292925617
-0.3112506568 -0.1921664178 0.6189960241 4293122996
-0.3113301098 -0.1915275455 0.6191540956 4293188789
-0.3109762371 -0.1906227022 0.6184502840 4293255622
-0.3106219172 -0.1897191554 0.6177456379 4293255622
-0.3102671504 -0.1888168901 0.6170400977 4293256125
-0.3099119365 -0.1879159361 0.6163336635 4293321918
-0.3099898398 -0.1872782111 0.6164885759 4293452739
-0.3092001677 -0.1861179322 0.6149181724 4293123774
-0.3092774153 -0.1854810268 0.6150717735 4292662699
-0.3089205325 -0.1845843941 0.6143620610 4292070562
-0.3085632026 -0.1836890876 0.6136513948 4291346552
-0.3082054555 -0.1827950925 0.6129399538 4290754415
-0.3082814515 -0.1821589768 0.6130910516 4290424418
-0.3079228997 -0.1812667251 0.6123780608 4290095453
-0.3079983592 -0.1806305647 0.6125280261 4290291543
-0.3072045147 -0.1794862002 0.6109493375 4290357336
-0.3068446517 -0.1785979420 0.6102336645 4290423875
-0.3069190979 -0.1779630780 0.6103817225 4290358082
-0.3065584600 -0.1770765930 0.6096644998 4291080233
-0.3061973751 -0.1761914492 0.6089464426 4290948647
-0.3058358729 -0.1753076464 0.6082274914 4290817065
-0.3054739237 -0.1744251847 0.6075076461 4290751272
-0.3051115274 -0.1735440791 0.6067869663 4290685226
-0.3047487140 -0.1726643294 0.6060653925 4290685226
-0.3043854535 -0.1717859358 0.6053429246 4290619181
-0.3040217459 -0.1709088981 0.6046196222 4290487595
-0.3036576211 -0.1700332165 0.6038954854 4290553899
-0.3032930493 -0.1691589206 0.6031704545 4290685485
-0.3033639193 -0.1685281098 0.6033113599 4290817324
-0.3025625944 -0.1674144119 0.6017177701 4290817324
-0.3026328087 -0.1667845547 0.6018573642 4290817322
-0.3027027547 -0.1661542505 0.6019965410 4290817322
-0.3027724922 -0.1655234993 0.6021351814 4290685736
-0.3028419912 -0.1648923308 0.6022734046 4290619943
-0.3029112518 -0.1642607152 0.6024111509 4290816812
-0.3025436997 -0.1633929014 0.6016802192 4290882605
-0.3017390668 -0.1622916013 0.6000799537 4290948397
-0.3018073142 -0.1616614461 0.6002157331 4291014190
-0.3018753529 -0.1610308439 0.6003510356 4291014190
-0.3015061617 -0.1601676941 0.5996168256 4291145776
-0.3011365533 -0.1593059599 0.5988817811 4291145776
-0.3012036979 -0.1586759090 0.5990152955 4291145776
-0.3008333147 -0.1578160673 0.5982787013 4291211823
-0.3004625142 -0.1569576412 0.5975412726 4291277616
-0.3005287349 -0.1563281715 0.5976729393 4291343409
-0.3005947173 -0.1556982994 0.5978041887 4291409202
-0.3002228141 -0.1548422873 0.5970646143 4291540786
-0.2998504937 -0.1539876908 0.5963241458 4291738165
-0.2999155819 -0.1533584148 0.5964535475 4291803958
-0.2999804318 -0.1527287215 0.5965825319 4291869751
-0.2996070087 -0.1518765837 0.5958398581 4292132153
-0.2992331684 -0.1510258764 0.5950964093 4292197946
-0.2988588810 -0.1501766145 0.5943520665 4292132923
-0.2989224792 -0.1495480537 0.5944785476 4292198716
-0.2985474467 -0.1487007588 0.5937327147 4292330304
-0.2986104786 -0.1480723321 0.5938580632 4292396097
-0.2982346714 -0.1472269893 0.5931106806 4292527429
-0.2982971370 -0.1465986967 0.5932348967 4292593222
-0.2983593643 -0.1459700167 0.5933586359 4292527943
-0.2979824841 -0.1451271921 0.5926091075 4292593736
-0.2980441153 -0.1444986463 0.5927316546 4292659275
-0.2981055081 -0.1438697129 0.5928537846 4292725068
-0.2977275252 -0.1430294365 0.5921021104 4292725583
-0.2973491549 -0.1421906203 0.5913496017 4292725583
-0.2978489399 -0.1417714804 0.5923435092 4292659790
-0.2974698842 -0.1409337521 0.5915896893 4292659790
-0.2975298762 -0.1403047442 0.5917090178 4292923478
-0.2975896299 -0.1396753639 0.5918278694 4292265548
-0.2972094715 -0.1388402134 0.5910718441 4292201038
-0.2972686589 -0.1382110119 0.5911895037 4292069452
-0.2973276079 -0.1375814229 0.5913067460 4287990598
-0.2973862886 -0.1369514614 0.5914234519 4283714053
-0.2970047295 -0.1361194849 0.5906646252 4281807907
-0.2970628142 -0.1354897171 0.5907801986 4282071079
-0.2980010509 -0.1352591664 0.5926460624 4282138169
-0.2989393473 -0.1350245029 0.5945121050 4282269755
-0.2994374037 -0.1345878243 0.5955026150 4282137658
-0.2999354005 -0.1341488957 0.5964929461 4282137658
-0.2995522320 -0.1333156377 0.5957309604 4282269498
-0.3000499010 -0.1328741014 0.5967206359 4282137912
-0.3001067638 -0.1322361678 0.5968337655 4282138424
-0.3001633883 -0.1315978616 0.5969463587 4282138424
-0.2997788787 -0.1307668984 0.5961816907 4282071857
-0.3002758622 -0.1303201765 0.5971700549 4282203443
-0.3007727265 -0.1298712343 0.5981581807 4281874480
-0.3017106056 -0.1296095252 0.6000233889 4282466617
-0.3022073805 -0.1291551739 0.6010113358 4284769356
-0.3027040660 -0.1286985725 0.6019991040 4287795834
-0.3027592897 -0.1280530691 0.6021089554 4290164093
-0.3028142750 -0.1274072230 0.6022183299 4291085195
-0.3028690219 -0.1267610192 0.6023271680 4291611255
-0.3029234707 -0.1261144578 0.6024354696 4292137599
-0.3029776812 -0.1254675686 0.6025432944 4292465274
-0.3025898933 -0.1246383637 0.6017720699 4292267895
-0.3026435077 -0.1239917129 0.6018787026 4292661634
-0.3026968539 -0.1233447269 0.6019847989 4292990599
-0.3023079932 -0.1225182712 0.6012114286 4293055374
-0.3019186854 -0.1216933727 0.6004372239 4292989581
-0.3019711077 -0.1210472509 0.6005414128 4292531835
-0.3020232618 -0.1204008013 0.6006451845 4292531835
-0.3025174141 -0.1199293435 0.6016279459 4292531085
-0.3021267653 -0.1191068888 0.6008510590 4292531085
-0.3021781445 -0.1184594408 0.6009531617 4292136855
-0.3026717603 -0.1179841459 0.6019348502 4291939476
-0.3031652272 -0.1175066307 0.6029162407 4291611539
-0.3036586046 -0.1170268953 0.6038974524 4291479953
-0.3045946062 -0.1167145669 0.6057589054 4291217559
-0.3050878048 -0.1162294298 0.6067397594 4291217559
-0.3060237765 -0.1159097999 0.6086011529 4291349683
-0.3065168262 -0.1154192612 0.6095817089 4291744441
-0.3074527681 -0.1150923297 0.6114430428 4291942609
-0.3046458960 -0.2445005327 0.6072021127 4289639871
-0.3064305186 -0.2452542335 0.6107591391 4289376699
-0.3056827486 -0.2439788282 0.6092687249 4288784562
-0.3053566515 -0.2430423200 0.6086187363 4288389802
-0.3046076000 -0.2417715639 0.6071257591 4288060837
-0.3021674156 -0.2391655892 0.6022621393 4288126114
-0.3009936810 -0.2375700325 0.5999227166 4287139219
-0.2998189926 -0.2359789014 0.5975813866 4286349703
-0.2987361252 -0.2338034958 0.5954231024 4282204744
-0.2979821861 -0.2325535566 0.5939204097 4281283642
-0.2976509631 -0.2316358984 0.5932602286 4281283129
-0.2968957722 -0.2303907275 0.5917550325 4281348922
-0.2965635359 -0.2294761688 0.5910928249 4281283129
-0.2966546714 -0.2288897336 0.5912744999 4281283129
-0.2975934446 -0.2289550453 0.5931456089 4281283131
-0.2968363762 -0.2277152389 0.5916366577 4281283131
-0.2965027988 -0.2268027067 0.5909717679 4281217338
-0.2970173955 -0.2265385836 0.5919974446 4281151545
-0.2979564965 -0.2265950143 0.5938692093 4281348154
-0.2988959253 -0.2266475558 0.5957416296 4281413947
-0.2998357117 -0.2266961783 0.5976147652 4281480510
-0.3007758260 -0.2267408818 0.5994884968 4281875268
-0.3017162681 -0.2267816812 0.6013629436 4282335819
-0.3022319376 -0.2264999896 0.6023907661 4282598991
-0.3023224771 -0.2258983403 0.6025711894 4282270026
-0.3032634854 -0.2259299010 0.6044468284 4281743682
-0.3037793636 -0.2256415039 0.6054750085 4281217338
-0.3047209084 -0.2256660461 0.6073516607 4280822580
-0.3052370548 -0.2253723145 0.6083803773 4280296234
-0.3057532310 -0.2250763625 0.6094092131 4280230441
-0.3062694967 -0.2247781456 0.6104381680 4280164648
-0.3067858219 -0.2244777083 0.6114673018 4280164648
-0.3073021770 -0.2241750062 0.6124964952 4280625199
-0.3078186214 -0.2238700688 0.6135258079 4281217336
-0.3083350956 -0.2235628814 0.6145552397 4281612094
-0.3084250391 -0.2229450792 0.6147344708 4282138438
-0.3089415133 -0.2226342559 0.6157638431 4282731088
-0.3086043298 -0.2217078656 0.6150918603 4282862674
-0.3091206551 -0.2213942409 0.6161209345 4283256919
-0.3096370101 -0.2210783660 0.6171501279 4284112228
-0.3101534247 -0.2207602412 0.6181793809 4284835949
-0.3102425635 -0.2201366276 0.6183570623 4285625465
-0.3107589185 -0.2198148519 0.6193862557 4285822844
-0.3112753332 -0.2194908112 0.6204155684 4285954430
-0.3117918074 -0.2191645205 0.6214449406 4285823099
-0.3118804991 -0.2185361832 0.6216216683 4285296755
-0.3119689524 -0.2179073244 0.6217980385 4284901227
-0.3120572269 -0.2172779143 0.6219739318 4284638055
-0.3121452928 -0.2166479826 0.6221494675 4284374881
-0.3118048608 -0.2157211900 0.6214709282 4284243295
-0.3118923903 -0.2150910646 0.6216453910 4284243295
-0.3119797111 -0.2144604027 0.6218194366 4284177502
-0.3120668232 -0.2138292044 0.6219930649 4284046686
-0.3125825226 -0.2134903371 0.6230208874 4284046686
-0.3126693368 -0.2128572166 0.6231939197 4284243295
-0.3127559423 -0.2122235745 0.6233665943 4284177502
-0.3128423393 -0.2115893960 0.6235387921 4284111709
-0.3129285276 -0.2109547108 0.6237105727 4284309088
-0.3134438694 -0.2106079906 0.6247377396 4284572260
-0.3135297596 -0.2099713832 0.6249088645 4284835432
-0.3136154115 -0.2093342394 0.6250796318 4284900964
-0.3137008846 -0.2086965889 0.6252499223 4284900964
-0.3137861192 -0.2080584019 0.6254198551 4285164387
-0.3138711452 -0.2074197084 0.6255893111 4285361766
-0.3139559329 -0.2067804784 0.6257583499 4285690725
-0.3140405416 -0.2061407566 0.6259269714 4285953897
-0.3141249120 -0.2055004984 0.6260951161 4286217580
-0.3137786388 -0.2045791000 0.6254049540 4286414959
-0.3134319186 -0.2036589533 0.6247138977 4286808678
-0.3139460683 -0.2032977790 0.6257386804 4287269229
-0.3140294552 -0.2026563585 0.6259048581 4287860585
-0.3141126335 -0.2020144165 0.6260706186 4287992171
-0.3141955733 -0.2013719678 0.6262359619 4288255585
-0.3142783046 -0.2007290125 0.6264008284 4288452964
-0.3139295876 -0.1998110861 0.6257057786 4288846692
-0.3140117526 -0.1991679966 0.6258695722 4289175657
-0.3136622608 -0.1982517093 0.6251729727 4289373290
-0.3137438595 -0.1976085007 0.6253356338 4289833841
-0.3133935928 -0.1966938674 0.6246374846 4290622589
-0.3130428493 -0.1957805008 0.6239384413 4291346312
-0.3131235838 -0.1951375604 0.6240993142 4291807129
-0.3127720654 -0.1942258626 0.6233987212 4292333473
-0.3124201000 -0.1933154464 0.6226972342 4292728241
-0.3120677173 -0.1924063116 0.6219948530 4292925620
-0.3112825155 -0.1912328601 0.6204298139 4292860854
-0.3109291196 -0.1903271824 0.6197254658 4293124026
-0.3105752766 -0.1894228160 0.6190201640 4293256374
-0.3102209866 -0.1885197312 0.6183140278 4293322167
-0.3102990091 -0.1878799945 0.6184695959 4293387962
-0.3099439442 -0.1869786382 0.6177618504 4293453755
-0.3095884323 -0.1860785782 0.6170532703 4293650370
-0.3092324734 -0.1851798147 0.6163437963 4293716163
-0.3088760674 -0.1842823774 0.6156334877 4293781194
-0.3080859184 -0.1831286997 0.6140585542 4293254850
-0.3085953891 -0.1827481240 0.6150739789 4292793028
-0.3082377613 -0.1818537563 0.6143612266 4292003512
-0.3078797162 -0.1809606999 0.6136475205 4291476890
-0.3075211942 -0.1800689697 0.6129329801 4290818960
-0.3071622550 -0.1791785806 0.6122176051 4290491232
-0.3068028986 -0.1782895178 0.6115012765 4290030681
-0.3068771362 -0.1776530743 0.6116492748 4290619204
-0.3065169752 -0.1767657846 0.6109313965 4290684997
-0.3061563671 -0.1758798510 0.6102126837 4290882615
-0.3057953417 -0.1749952585 0.6094931364 4290948408
-0.3054338694 -0.1741120070 0.6087726951 4290883369
-0.3050719798 -0.1732301116 0.6080513597 4290817576
-0.3047096133 -0.1723495722 0.6073291302 4290817576
-0.3039120734 -0.1712254435 0.6057394743 4290751783
-0.3035487235 -0.1703485250 0.6050153375 4290685485
-0.3031849861 -0.1694729775 0.6042903066 4290685485
-0.3032558858 -0.1688410491 0.6044316292 4290685487
-0.3028913438 -0.1679673344 0.6037050486 4290685487
-0.3025263846 -0.1670949906 0.6029776335 4290751272
-0.3025963902 -0.1664635539 0.6031171679 4290751272
-0.3026661575 -0.1658316702 0.6032562256 4290686239
-0.3027356863 -0.1651993394 0.6033948064 4290686239
-0.3023692966 -0.1643298119 0.6026645303 4290619433
-0.3024382591 -0.1636975259 0.6028019786 4290619433
-0.3020710945 -0.1628298610 0.6020701528 4290751018
-0.3021394908 -0.1621976346 0.6022064686 4290816811
-0.3022076488 -0.1615649760 0.6023423672 4290882604
-0.3018393815 -0.1606996655 0.6016083360 4290948397
-0.3014706969 -0.1598357558 0.6008734703 4290948397
-0.3006651998 -0.1587428600 0.5992680192 4290948397
-0.3007320166 -0.1581121683 0.5994011760 4291014190
-0.3003620207 -0.1572524905 0.5986637473 4291079983
-0.2999916077 -0.1563942283 0.5979254842 4291080237
-0.3000575304 -0.1557641029 0.5980568528 4291080237
-0.3001232147 -0.1551335752 0.5981878042 4291146030
-0.2997516990 -0.1542777270 0.5974473357 4291277616
-0.2993797660 -0.1534233242 0.5967059731 4291409202
-0.2994445562 -0.1527933925 0.5968350768 4291474995
-0.2990718484 -0.1519409120 0.5960922837 4291474993
-0.2986987233 -0.1510898769 0.5953485966 4291606579
-0.2987625897 -0.1504605711 0.5954758525 4291738165
-0.2983887196 -0.1496114880 0.5947306752 4291803958
-0.2984520197 -0.1489823014 0.5948568583 4291869753
-0.2980773747 -0.1481351852 0.5941101313 4291935546
-0.2977023125 -0.1472895145 0.5933625698 4292001598
-0.2977647185 -0.1466609836 0.5934869051 4292067391
-0.2973888814 -0.1458172947 0.5927378535 4292133185
-0.2978887856 -0.1454027295 0.5937342048 4292264771
-0.2979504466 -0.1447730213 0.5938571692 4292264517
-0.2975736260 -0.1439309418 0.5931060910 4292330310
-0.2976347208 -0.1433013678 0.5932278633 4292396103
-0.2972571552 -0.1424612999 0.5924752951 4292330310
-0.2973176539 -0.1418318897 0.5925959349 4292199239
-0.2969393432 -0.1409938335 0.5918418765 4292199239
-0.2965605855 -0.1401572526 0.5910869241 4292001858
-0.2966201901 -0.1395285428 0.5912057757 4292133444
-0.2966795564 -0.1388994753 0.5913240910 4291872343
-0.2967386842 -0.1382700205 0.5914419293 4288648486
-0.2963585258 -0.1374365836 0.5906841755 4283188505
-0.2964170575 -0.1368073076 0.5908008814 4281412096
-0.2964753509 -0.1361776590 0.5909171104 4281676333
-0.2965334058 -0.1355476528 0.5910328031 4281873712
-0.2970306277 -0.1351171434 0.5920237899 4281677360
-0.2979672253 -0.1348833442 0.5938906074 4281940532
-0.2980248034 -0.1342494190 0.5940053463 4281808693
-0.2980821133 -0.1336151361 0.5941195488 4281742900
-0.2972597182 -0.1325882077 0.5924804211 4281940273
-0.2968765497 -0.1317598522 0.5917167068 4281808687
-0.2969328761 -0.1311272830 0.5918289423 4281742892
-0.2969889343 -0.1304943562 0.5919407010 4281940271
-0.2966046929 -0.1296686828 0.5911748409 4281546285
-0.2966601551 -0.1290359795 0.5912854075 4281743664
-0.2971556187 -0.1285934299 0.5922729373 4281808957
-0.2976509929 -0.1281486601 0.5932602882 4281151027
-0.2981462777 -0.1277016401 0.5942475200 4280886829
-0.2986414731 -0.1272523999 0.5952345133 4281215794
-0.2986960411 -0.1266141683 0.5953432322 4282794283
-0.2987503409 -0.1259755939 0.5954514146 4284439108
-0.2992450893 -0.1255215257 0.5964375138 4286610241
-0.2992989421 -0.1248813197 0.5965448618 4288123480
-0.2989116609 -0.1240577921 0.5957729816 4289636444
-0.2989649475 -0.1234178320 0.5958791971 4290425960
-0.2985769212 -0.1225964502 0.5951058269 4291412847
-0.2986296117 -0.1219567582 0.5952107906 4292136570
-0.2986820340 -0.1213167235 0.5953152776 4292465272
-0.2987341881 -0.1206763610 0.5954192877 4292728444
-0.2987861037 -0.1200356632 0.5955227017 4292924796
-0.2988377512 -0.1193946302 0.5956256390 4292990589
-0.2988891304 -0.1187532619 0.5957280993 4293122424
-0.2984986901 -0.1179371029 0.5949499011 4293188217
-0.2989911437 -0.1174695417 0.5959313512 4293123186
-0.2990417480 -0.1168271899 0.5960322618 4292991600
-0.2995338738 -0.1163561344 0.5970131755 4292729205
-0.3000259101 -0.1158828512 0.5979938507 4292663412
-0.3005178273 -0.1154073402 0.5989742875 4292203398
-0.3014516234 -0.1150983796 0.6008355021 4291742847
-0.3023854494 -0.1147852913 0.6026967764 4291216539
-0.3028771579 -0.1143012121 0.6036767960 4290887574
-0.3033687472 -0.1138149127 0.6046565771 4289967015
-0.3038602173 -0.1133263856 0.6056361198 4289309085
-0.3043515384 -0.1128356382 0.6066154242 4289111979
-0.3052851856 -0.1125057191 0.6084762812 4289572530
-0.3057763278 -0.1120095775 0.6094552279 4290231739
-0.3058247864 -0.1113500595 0.6095517874 4291350220
-0.3048369288 -0.2458732277 0.6089308858 4289508285
-0.3049335778 -0.2452744097 0.6091239452 4288981941
-0.3037661314 -0.2436611652 0.6067918539 4288521390
-0.3047049344 -0.2437379360 0.6086671948 4287600288
-0.3031145930 -0.2417930663 0.6054904461 4287139735
-0.3023664653 -0.2405252010 0.6039959788 4286810770
-0.3011958003 -0.2389254719 0.6016574502 4286349703
-0.3004461229 -0.2376639694 0.6001599431 4285954945
-0.2996957302 -0.2364052385 0.5986610055 4284705392
-0.2989446521 -0.2351492941 0.5971606970 4284639599
-0.2981928885 -0.2338961214 0.5956589580 4283389532
-0.2978628874 -0.2329761982 0.5949997902 4282271051
-0.2975324690 -0.2320574075 0.5943397880 4281414715
-0.2972016335 -0.2311397493 0.5936788917 4281348922
-0.2981390059 -0.2312070578 0.5955513716 4281414715
-0.2969616354 -0.2296349108 0.5931994319 4281414715
-0.2970527411 -0.2290460765 0.5933814645 4281283129
-0.2971436679 -0.2284567058 0.5935631394 4281217336
-0.2980812490 -0.2285159826 0.5954359770 4281217338
-0.2977485359 -0.2276000977 0.5947713852 4281217338
-0.2991100848 -0.2279769927 0.5974911451 4281413947
-0.3000484109 -0.2280262262 0.5993654728 4281545533
-0.3005631268 -0.2277503312 0.6003937125 4281743682
-0.3015019894 -0.2277925760 0.6022691131 4281809475
-0.3020170033 -0.2275113612 0.6032978892 4281875268
-0.3021077514 -0.2269092351 0.6034791470 4281612096
-0.3026227653 -0.2266243994 0.6045079231 4281283131
-0.3035624027 -0.2266543210 0.6063849330 4281085752
-0.3040776849 -0.2263641804 0.6074141860 4280756787
-0.3045929968 -0.2260717750 0.6084436178 4280493615
-0.3051083982 -0.2257771492 0.6094731688 4281085750
-0.3056238592 -0.2254802585 0.6105028391 4280954164
-0.3065645695 -0.2254938930 0.6123819351 4280625199
-0.3062296510 -0.2245678753 0.6117129326 4280559406
-0.3067451417 -0.2242651135 0.6127426624 4281019957
-0.3076862693 -0.2242702991 0.6146226525 4281677887
-0.3073506355 -0.2233435065 0.6139521599 4282598989
-0.3078661859 -0.2230348438 0.6149820089 4283388505
-0.3075298965 -0.2221086919 0.6143102646 4284902003
-0.3084713817 -0.2221040130 0.6161909103 4286349449
-0.3081345558 -0.2211776227 0.6155180931 4287533977
-0.3090762496 -0.2211675942 0.6173992157 4288389286
-0.3095918000 -0.2208493799 0.6184290051 4289046703
-0.3101073802 -0.2205289155 0.6194589734 4289704633
-0.3097696602 -0.2196012437 0.6187843084 4289573560
-0.3107118905 -0.2195796072 0.6206665039 4289507767
-0.3108005822 -0.2189524621 0.6208436489 4289244082
-0.3113161027 -0.2186246961 0.6218733788 4288651945
-0.3109773099 -0.2176965773 0.6211966872 4287928220
-0.3110653758 -0.2170678377 0.6213725805 4287401876
-0.3111532331 -0.2164385617 0.6215480566 4287006604
-0.3108133376 -0.2155123204 0.6208691597 4286480260
-0.3109006882 -0.2148828357 0.6210435629 4285954430
-0.3109878004 -0.2142528296 0.6212176085 4285757051
-0.3115025759 -0.2139161378 0.6222459674 4285230960
-0.3115894198 -0.2132842094 0.6224193573 4285230960
-0.3116760254 -0.2126517594 0.6225923896 4285493362
-0.3117624223 -0.2120187730 0.6227650046 4285493362
-0.3118486106 -0.2113852501 0.6229371428 4285230190
-0.3119345903 -0.2107512206 0.6231089234 4285164397
-0.3120203614 -0.2101166546 0.6232802272 4285098604
-0.3125346601 -0.2097693235 0.6243075728 4284835432
-0.3126201034 -0.2091328502 0.6244782805 4284901477
-0.3127053678 -0.2084958553 0.6246485710 4284835684
-0.3127903938 -0.2078583390 0.6248184443 4285032801
-0.3133044243 -0.2075045407 0.6258451939 4285230180
-0.3129598200 -0.2065817416 0.6251568794 4285493091
-0.3130442202 -0.2059426606 0.6253254414 4285822056
-0.3131284118 -0.2053030729 0.6254935861 4286019947
-0.3132123649 -0.2046629637 0.6256613135 4286151533
-0.3132961094 -0.2040223479 0.6258286238 4286413917
-0.3133796155 -0.2033812106 0.6259954572 4286874468
-0.3134629428 -0.2027395666 0.6261618733 4287400538
-0.3135460019 -0.2020974010 0.6263278127 4287597917
-0.3136288822 -0.2014547288 0.6264933348 4287991894
-0.3137115240 -0.2008115649 0.6266584396 4288123480
-0.3137939572 -0.2001678795 0.6268230677 4288386391
-0.3134455979 -0.1992499828 0.6261272430 4288452184
-0.3135274649 -0.1986061782 0.6262907386 4288846425
-0.3136091232 -0.1979618669 0.6264538765 4289043804
-0.3132596314 -0.1970459968 0.6257557869 4289372508
-0.3133407235 -0.1964015663 0.6259177327 4289767266
-0.3129904866 -0.1954873651 0.6252180934 4290097009
-0.3126397729 -0.1945744455 0.6245175600 4290689146
-0.3127199709 -0.1939302832 0.6246777177 4291281042
-0.3123684824 -0.1930190474 0.6239756346 4291807386
-0.3120165467 -0.1921090782 0.6232726574 4292202923
-0.3116641939 -0.1912004054 0.6225687265 4292400302
-0.3108795881 -0.1900290847 0.6210014820 4292597941
-0.3109581172 -0.1893869340 0.6211583018 4292795320
-0.3106043935 -0.1884821504 0.6204517484 4292992701
-0.3102502525 -0.1875786632 0.6197443008 4293058494
-0.3098956645 -0.1866764724 0.6190360188 4293124026
-0.3095406294 -0.1857756078 0.6183267832 4293189819
-0.3091851473 -0.1848760396 0.6176167130 4293584319
-0.3088292181 -0.1839777976 0.6169057488 4293584319
-0.3089055121 -0.1833376437 0.6170580983 4293584325
-0.3085488081 -0.1824411303 0.6163455844 4293715911
-0.3081916571 -0.1815459430 0.6156321764 4293715650
-0.3078340888 -0.1806520969 0.6149178743 4293320892
-0.3074760735 -0.1797595620 0.6142027378 4292728741
-0.3071176112 -0.1788683683 0.6134866476 4291939225
-0.3067587018 -0.1779785156 0.6127697229 4291409298
-0.3063993752 -0.1770899892 0.6120519042 4290882954
-0.3060395718 -0.1762028188 0.6113332510 4290357596
-0.3061129451 -0.1755656600 0.6114798188 4289962838
-0.3057523966 -0.1746802777 0.6107595563 4290095922
-0.3053914011 -0.1737962365 0.6100384593 4290293301
-0.3045960963 -0.1726675928 0.6084497571 4290556714
-0.3042341173 -0.1717871726 0.6077266932 4290622507
-0.3038717210 -0.1709081233 0.6070027947 4290687021
-0.3035088778 -0.1700304300 0.6062780023 4290621228
-0.3031455874 -0.1691541076 0.6055523157 4290817075
-0.3027818799 -0.1682791561 0.6048257947 4290751282
-0.3024177551 -0.1674055755 0.6040983796 4290684974
-0.3024877906 -0.1667729914 0.6042382717 4290684974
-0.3025575876 -0.1661399603 0.6043777466 4290619432
-0.3021923304 -0.1652687043 0.6036481261 4290553639
-0.3022615612 -0.1646357179 0.6037864089 4290487846
-0.3023305535 -0.1640022993 0.6039242148 4290487846
-0.3019642234 -0.1631333679 0.6031924486 4290619686
-0.3020326495 -0.1624999940 0.6033291221 4290751272
-0.3016655147 -0.1616329551 0.6025958061 4290751272
-0.3017333746 -0.1609996408 0.6027313471 4290817065
-0.3013654947 -0.1601344794 0.6019964814 4290816811
-0.3009971976 -0.1592707336 0.6012607813 4290751018
-0.3006284535 -0.1584083885 0.6005241871 4290948397
-0.3002592921 -0.1575474590 0.5997867584 4290882604
-0.3003255725 -0.1569156945 0.5999191999 4290882858
-0.2999556363 -0.1560566723 0.5991802216 4290882858
-0.2995852828 -0.1551990807 0.5984404087 4290882858
-0.2992145121 -0.1543429047 0.5976997018 4291014444
-0.2992795408 -0.1537122279 0.5978296399 4291145776
-0.2989079952 -0.1528579891 0.5970874429 4291211569
-0.2989724874 -0.1522274166 0.5972162485 4291014442
-0.2990367115 -0.1515964419 0.5973445773 4291146028
-0.2986640632 -0.1507446617 0.5966002345 4291277616
-0.2982909977 -0.1498943269 0.5958549976 4291409202
-0.2987911701 -0.1494825184 0.5968540907 4291409202
-0.2984174490 -0.1486332119 0.5961075425 4291409202
-0.2980432808 -0.1477853805 0.5953601599 4291475254
-0.2976686954 -0.1469389796 0.5946118832 4291606840
-0.2977308929 -0.1463088840 0.5947360992 4291606841
-0.2973555326 -0.1454644799 0.5939863324 4291672634
-0.2974171638 -0.1448345184 0.5941094160 4291804220
-0.2970410585 -0.1439921111 0.5933581591 4291870013
-0.2971020937 -0.1433622986 0.5934800506 4291935552
-0.2967252433 -0.1425218880 0.5927273035 4292001345
-0.2963479757 -0.1416829526 0.5919736624 4292001345
-0.2959702909 -0.1408454925 0.5912191868 4292001345
-0.2955921590 -0.1400095075 0.5904638767 4291803707
-0.2956516445 -0.1393814981 0.5905826688 4292001086
-0.2957108617 -0.1387531012 0.5907009840 4289306705
-0.2957698405 -0.1381243467 0.5908188224 4283845888
-0.2958285809 -0.1374952048 0.5909361243 4280755470
-0.2954487205 -0.1366629153 0.5901773572 4281479193
-0.2955068946 -0.1360339671 0.5902935266 4281150504
-0.2960033119 -0.1356055290 0.5912851691 4280953125
-0.2964996696 -0.1351748705 0.5922766924 4281479469
-0.2969959676 -0.1347419620 0.5932680368 4281611055
-0.2970533967 -0.1341087222 0.5933827758 4281479982
-0.2966717184 -0.1332779676 0.5926203728 4281282603
-0.2954117358 -0.1320562661 0.5901034474 4281479979
-0.2950290442 -0.1312303990 0.5893390179 4281677358
-0.2946459353 -0.1304060519 0.5885737538 4281807407
-0.2942624092 -0.1295832247 0.5878076553 4281610028
-0.2938784957 -0.1287619025 0.5870407224 4281019941
-0.2939335108 -0.1281336546 0.5871506333 4281217320
-0.2939882874 -0.1275050342 0.5872600079 4281414701
-0.2944823503 -0.1270657182 0.5882469416 4281480494
-0.2945367098 -0.1264354736 0.5883554816 4281874737
-0.2950304747 -0.1259926409 0.5893418789 4281808944
-0.2950844169 -0.1253607571 0.5894496441 4281610790
