VERSION 0.7
FIELDS x y z rgba
SIZE 4 4 4 4
TYPE F F F U
COUNT 1 1 1 1
WIDTH 920
HEIGHT 1
VIEWPOINT 0.0 0.0 0.0 1.0 0.0 0.0 0.0
POINTS 920
DATA ascii
-0.3081904054 -0.0719442144 0.6142668128 4294304364
-0.3082219362 -0.0712690130 0.6143296957 4294238571
-0.3086993098 -0.0706957653 0.6152811050 4294304110
-0.3087303042 -0.0700191781 0.6153429151 4294304110
-0.3092072010 -0.0694425926 0.6162934303 4294172526
-0.3101301491 -0.0689630806 0.6181330085 4294172526
-0.3101603985 -0.0682829544 0.6181933284 4294238560
-0.3101903796 -0.0676026270 0.6182530522 4294041181
-0.3102200329 -0.0669221058 0.6183121800 4293581919
-0.3102494180 -0.0662413836 0.6183707118 4293384540
-0.3102785051 -0.0655604750 0.6184287071 4293449045
-0.3103072941 -0.0648793802 0.6184861064 4293383252
-0.3103357852 -0.0641980916 0.6185429096 4293317718
-0.3103640079 -0.0635166168 0.6185991168 4293251925
-0.3103919029 -0.0628349558 0.6186547279 4292988240
-0.3104194999 -0.0621531159 0.6187097430 4291935552
-0.3100001216 -0.0613826439 0.6178738475 4290883375
-0.3100270927 -0.0607014224 0.6179276109 4289501722
-0.3096070290 -0.0599335432 0.6170903444 4282728490
-0.3091865480 -0.0591674484 0.6162523031 4281478423
-0.3087657392 -0.0584031492 0.6154135466 4282335803
-0.3083445132 -0.0576406419 0.6145740151 4282270010
-0.3079229593 -0.0568799339 0.6137337685 4282598470
-0.3079479635 -0.0562025979 0.6137835979 4282466884
-0.3084196746 -0.0556056835 0.6147238016 4282335548
-0.3088911474 -0.0550066419 0.6156634688 4282072376
-0.3093623817 -0.0544054694 0.6166027784 4282006074
-0.3098334074 -0.0538021736 0.6175415516 4281742902
-0.3103041947 -0.0531967506 0.6184799075 4281084713
-0.3112219274 -0.0526648685 0.6203090549 4281282092
-0.3116922677 -0.0520542152 0.6212465763 4281808695
-0.3126096427 -0.0515151359 0.6230749488 4282071867
-0.3130795658 -0.0508992523 0.6240115762 4282334777
-0.3135492504 -0.0502812527 0.6249477267 4282795328
-0.3135713637 -0.0495903902 0.6249918342 4288061276
-0.3135931790 -0.0488993824 0.6250353456 4290035066
-0.3136146963 -0.0482082292 0.6250782013 4290952537
-0.3136359155 -0.0475169383 0.6251205206 4289702470
-0.3136568367 -0.0468255058 0.6251621842 4288190241
-0.3132299781 -0.0460681245 0.6243113875 4288453413
-0.3128027618 -0.0453125834 0.6234598756 4288256287
-0.3128226995 -0.0446227193 0.6234996319 4287927322
-0.3128423393 -0.0439327247 0.6235387921 4288518946
-0.3128616810 -0.0432425998 0.6235772967 4288124188
-0.3133283257 -0.0426132269 0.6245073676 4287729682
-0.3133470714 -0.0419218615 0.6245447993 4288650784
-0.3133655190 -0.0412303768 0.6245815754 4290098743
-0.3138313591 -0.0405966826 0.6255100369 4291085638
-0.3147446513 -0.0400178172 0.6273303628 4292138323
-0.3152100146 -0.0393789411 0.6282578707 4293125218
-0.3156751096 -0.0387379788 0.6291848421 4292928083
-0.3161399364 -0.0380949192 0.6301113367 4290822707
-0.3166045249 -0.0374497734 0.6310372949 4289175833
-0.3166209757 -0.0367505588 0.6310701370 4288123145
-0.3175328672 -0.0361532196 0.6328876615 4288123909
-0.3184445500 -0.0355518162 0.6347047687 4287992323
-0.3193559945 -0.0349463522 0.6365213990 4289703196
-0.3198193014 -0.0342888013 0.6374447942 4292400709
-0.3198343813 -0.0335821398 0.6374748945 4293321558
-0.3202970922 -0.0329214223 0.6383971572 4294045281
-0.3207595646 -0.0322586261 0.6393189430 4294176618
-0.3207737505 -0.0315496922 0.6393471956 4293913446
-0.3230277598 -0.0310560316 0.6438397169 4293189984
-0.3234894276 -0.0303840432 0.6447599530 4292137296
-0.3226066530 -0.0295867082 0.6430004239 4291676745
-0.3226196468 -0.0288734529 0.6430263519 4290624057
-0.3230804503 -0.0281992219 0.6439447403 4289637160
-0.3230928183 -0.0274848063 0.6439694166 4289637160
-0.3240011632 -0.0268445686 0.6457798481 4289308947
-0.3240129352 -0.0261280108 0.6458033323 4289769498
-0.3240243793 -0.0254113767 0.6458261609 4289834529
-0.3240355253 -0.0246946663 0.6458483934 4289637150
-0.3235981762 -0.0239447188 0.6449766755 4289308690
-0.3236086667 -0.0232288577 0.6449975371 4289242897
-0.3240670562 -0.0225441083 0.6459112167 4289308714
-0.3240769207 -0.0218271185 0.6459308863 4290164023
-0.3240864873 -0.0211100653 0.6459499598 4291151983
-0.3236474395 -0.0203647446 0.6450749040 4293586324
-0.3003228903 -0.1169214547 0.5999137759 4293256607
-0.3003732264 -0.1162743941 0.6000143290 4293125021
-0.2999821305 -0.1154572144 0.5992331505 4293387144
-0.2995906472 -0.1146416217 0.5984511375 4293321351
-0.2991987765 -0.1138276085 0.5976682901 4293517694
-0.2992478311 -0.1131821126 0.5977662802 4293517694
-0.2988551855 -0.1123703197 0.5969820023 4293648249
-0.2984621525 -0.1115601137 0.5961968303 4293648249
-0.2980687022 -0.1107515097 0.5954108834 4293779063
-0.2981165051 -0.1101076156 0.5955063701 4293779063
-0.2977223098 -0.1093012542 0.5947189927 4293844078
-0.2977695167 -0.1086577028 0.5948132873 4293909871
-0.2973745763 -0.1078535840 0.5940243602 4293975664
-0.2974211872 -0.1072103828 0.5941174626 4293909871
-0.2974675298 -0.1065668762 0.5942100286 4293909873
-0.2970715463 -0.1057656780 0.5934190154 4293909873
-0.2975594103 -0.1052789614 0.5943936110 4293975412
-0.2976049483 -0.1046345606 0.5944845676 4293909619
-0.2976502478 -0.1039898694 0.5945749879 4293909873
-0.2976952493 -0.1033448800 0.5946649313 4293975666
-0.2977400124 -0.1026996002 0.5947542787 4293910382
-0.2977844775 -0.1020540297 0.5948431492 4293844589
-0.2978286743 -0.1014081687 0.5949314833 4293844844
-0.2974300385 -0.1006122977 0.5941351056 4293779051
-0.2979162931 -0.1001155898 0.5951064825 4293648233
-0.2979597151 -0.0994688720 0.5951932073 4293648233
-0.2980028391 -0.0988218784 0.5952793956 4293582450
-0.2980457246 -0.0981746018 0.5953649879 4293648243
-0.2980883121 -0.0975270420 0.5954501033 4293713772
-0.2985736430 -0.0970231593 0.5964195728 4293779565
-0.2990588248 -0.0965170786 0.5973887444 4293911403
-0.2991007268 -0.0958667696 0.5974724293 4293977196
-0.2991423607 -0.0952161923 0.5975556374 4293976944
-0.2996269763 -0.0947054401 0.5985236764 4293976944
-0.2996681333 -0.0940533504 0.5986058712 4294173556
-0.2997090220 -0.0934009999 0.5986875296 4294239349
-0.3001930416 -0.0928855836 0.5996544361 4294370420
-0.3002334237 -0.0922317356 0.5997350812 4294436213
-0.3002735674 -0.0915776193 0.5998152494 4294698611
-0.3003134131 -0.0909232497 0.5998948216 4294764404
-0.3003529608 -0.0902686119 0.5999739170 4294764402
-0.3003922701 -0.0896137208 0.6000523567 4294764402
-0.3004312813 -0.0889585763 0.6001303196 4294831226
-0.3013576865 -0.0885640383 0.6019808650 4294831226
-0.3013962507 -0.0879064500 0.6020579338 4294765431
-0.3014345765 -0.0872486085 0.6021344662 4294699638
-0.3014726043 -0.0865905136 0.6022104025 4294634096
-0.3019543886 -0.0860587284 0.6031728387 4294699889
-0.3024360240 -0.0855247602 0.6041349173 4294830957
-0.3024733067 -0.0848639831 0.6042094231 4294765164
-0.3025103211 -0.0842029676 0.6042833328 4294830957
-0.3029913306 -0.0836643875 0.6052441597 4294765164
-0.3030278385 -0.0830019191 0.6053171158 4294699119
-0.3035084605 -0.0824599415 0.6062771678 4294699119
-0.3035444319 -0.0817960277 0.6063490510 4294698609
-0.3040246367 -0.0812506601 0.6073082685 4294632816
-0.3045046628 -0.0807031170 0.6082671285 4294632818
-0.3045399189 -0.0800365508 0.6083375812 4294567025
-0.3045748770 -0.0793697610 0.6084074378 4294435948
-0.3050542474 -0.0788176283 0.6093649864 4294370155
-0.3055334389 -0.0782633275 0.6103221774 4294304361
-0.3055676520 -0.0775939003 0.6103905439 4294304361
-0.3060463965 -0.0770362243 0.6113469005 4294370154
-0.3060801029 -0.0763653815 0.6114141941 4294435947
-0.3065584302 -0.0758043379 0.6123696566 4294370154
-0.3070365787 -0.0752411261 0.6133248210 4294172775
-0.3075145185 -0.0746757388 0.6142795086 4294172775
-0.3075472116 -0.0740010962 0.6143448353 4294172775
-0.3075796068 -0.0733262300 0.6144095063 4294238822
-0.3076117039 -0.0726511627 0.6144736409 4294173029
-0.3080887198 -0.0720800385 0.6154265404 4294107236
-0.3081202805 -0.0714035705 0.6154896021 4294041443
-0.3081515431 -0.0707269013 0.6155520678 4294041189
-0.3086279035 -0.0701512471 0.6165035367 4294041189
-0.3086586297 -0.0694731846 0.6165649295 4293778271
-0.3095799387 -0.0689934641 0.6184053421 4293646685
-0.3096101880 -0.0683130398 0.6184657216 4293646671
-0.3100856543 -0.0677297339 0.6194155216 4293515085
-0.3101153374 -0.0670479387 0.6194748282 4293121107
-0.3101447225 -0.0663659498 0.6195335388 4292792142
-0.3101738393 -0.0656837672 0.6195916533 4292725573
-0.3102026284 -0.0650013909 0.6196492314 4292593987
-0.3097854257 -0.0642264113 0.6188157797 4292857165
-0.3098135889 -0.0635446459 0.6188720465 4292725579
-0.3102872670 -0.0629531369 0.6198182702 4292396616
-0.3098690510 -0.0621805526 0.6189828515 4291475514
-0.3098963201 -0.0614982322 0.6190373302 4290554663
-0.3094773889 -0.0607282296 0.6182004809 4288580873
-0.3095040321 -0.0600465350 0.6182537079 4282136605
-0.3090843856 -0.0592791252 0.6174154282 4281807640
-0.3086643517 -0.0585135110 0.6165764332 4282203704
-0.3082439601 -0.0577496886 0.6157366633 4282203704
-0.3082693219 -0.0570702553 0.6157873273 4282401091
-0.3082943857 -0.0563906543 0.6158373952 4282269505
-0.3083191514 -0.0557108894 0.6158868074 4282270010
-0.3087898493 -0.0551106036 0.6168270707 4281875252
-0.3092603087 -0.0545081869 0.6177668571 4281676850
-0.3097305596 -0.0539036393 0.6187062263 4281545264
-0.3106468916 -0.0533736534 0.6205366850 4280755746
-0.3111167252 -0.0527638718 0.6214751601 4281413676
-0.3124791086 -0.0523013957 0.6241965890 4281282092
-0.3125020862 -0.0516116656 0.6242424846 4281940022
-0.3129712343 -0.0509945266 0.6251796484 4281348134
-0.3138866127 -0.0504470281 0.6270081997 4282795580
-0.3139087856 -0.0497538932 0.6270524859 4289048409
-0.3139306605 -0.0490606092 0.6270961761 4290166890
-0.3139522076 -0.0483671837 0.6271392107 4290294086
-0.3139734864 -0.0476736128 0.6271817088 4289570363
-0.3135477901 -0.0469130762 0.6263313293 4289045292
-0.3131217360 -0.0461543761 0.6254802346 4288255776
-0.3126952946 -0.0453975163 0.6246284842 4287663637
-0.3122685254 -0.0446424931 0.6237759590 4287992602
-0.3122881353 -0.0439521968 0.6238151193 4288452383
-0.3127542436 -0.0433236621 0.6247462034 4287991832
-0.3132201135 -0.0426930226 0.6256768107 4287334153
-0.3127920330 -0.0419404507 0.6248216629 4287992083
-0.3128104806 -0.0412486605 0.6248584986 4288322331
-0.3132754862 -0.0406146869 0.6257874370 4288519710
-0.3137402534 -0.0399786159 0.6267158389 4290032947
-0.3146517277 -0.0393964127 0.6285365820 4291546186
-0.3151160181 -0.0387551636 0.6294640303 4291414074
-0.3151330650 -0.0380578414 0.6294980049 4289374491
-0.3151497841 -0.0373604037 0.6295314431 4288517903
-0.3151662052 -0.0366628617 0.6295642257 4288254731
-0.3156293631 -0.0360162221 0.6304894686 4289110806
-0.3165393770 -0.0354175232 0.6323072314 4289834529
-0.3170020282 -0.0347657241 0.6332314610 4292005951
-0.3174644411 -0.0341118462 0.6341550946 4293519190
-0.3179265857 -0.0334558859 0.6350782514 4293584730
-0.3179412782 -0.0327517800 0.6351076365 4293650523
-0.3188500404 -0.0321377292 0.6369229555 4294045032
-0.3211002052 -0.0316518694 0.6414178014 4293584481
-0.3215613365 -0.0309836399 0.6423389316 4291939917
-0.3202331960 -0.0301449299 0.6396858692 4290558264
-0.3206936717 -0.0294765197 0.6406057477 4290295088
-0.3207066059 -0.0287659205 0.6406315565 4290558260
-0.3202719092 -0.0280161072 0.6397632360 4289966115
-0.3207315207 -0.0273444690 0.6406813264 4289308185
-0.3211908638 -0.0266707689 0.6415988803 4289570328
-0.3220972717 -0.0260311589 0.6434094906 4290425637
-0.3225560486 -0.0253523439 0.6443259120 4290425888
-0.3230145276 -0.0246714707 0.6452417374 4289965337
-0.3225779235 -0.0239221826 0.6443696022 4289373208
-0.3225883842 -0.0232069958 0.6443905234 4289373208
-0.3230459690 -0.0225229356 0.6453045607 4289505061
-0.3230558336 -0.0218066201 0.6453242898 4289965612
-0.3230653703 -0.0210902411 0.6453433037 4290097988
-0.3230745792 -0.0203737989 0.6453617215 4291216469
-0.3235309422 -0.0196845233 0.6462733746 4292992943
-0.3239870369 -0.0189932045 0.6471844316 4294900940
-0.2998661399 -0.1216723248 0.6003333330 4292863926
-0.2994785905 -0.1208489165 0.5995574594 4293385885
-0.2986507714 -0.1198505536 0.5979001522 4293188506
-0.2978223860 -0.1188556477 0.5962417126 4293188504
-0.2978734076 -0.1182134300 0.5963438749 4293188504
-0.2974841297 -0.1173972264 0.5955644846 4293385357
-0.2970944345 -0.1165825874 0.5947843194 4293451150
-0.2971445322 -0.1159412935 0.5948846340 4293779326
-0.2967540920 -0.1151288599 0.5941029787 4293779326
-0.2963632345 -0.1143180057 0.5933204889 4293713775
-0.2959719896 -0.1135087311 0.5925372243 4293779568
-0.2960208356 -0.1128690019 0.5926350355 4293779566
-0.2960694134 -0.1122289598 0.5927323103 4293779566
-0.2956770957 -0.1114225537 0.5919468403 4293779314
-0.2957251072 -0.1107828394 0.5920429230 4293713521
-0.2957728207 -0.1101428121 0.5921384692 4293778546
-0.2958202958 -0.1095024720 0.5922335386 4293778546
-0.2954265773 -0.1086995900 0.5914452672 4293844589
-0.2954734564 -0.1080596000 0.5915391445 4293910382
-0.2955200672 -0.1074193045 0.5916324854 4293844591
-0.2955664098 -0.1067787036 0.5917252898 4293778798
-0.2960537374 -0.1062962189 0.5927008390 4293713521
-0.2960996330 -0.1056540608 0.5927927494 4293647728
-0.2961452603 -0.1050116047 0.5928841233 4293516655
-0.2966320515 -0.1045243964 0.5938586593 4293450862
-0.2966772020 -0.1038803905 0.5939490795 4293647980
-0.2967221141 -0.1032360941 0.5940389633 4293582187
-0.2967667580 -0.1025915071 0.5941283107 4293779049
-0.2968111336 -0.1019466296 0.5942171812 4293844842
-0.2964134812 -0.1011507139 0.5934211016 4293909869
-0.2964572608 -0.1005062237 0.5935087204 4293975662
-0.2965007722 -0.0998614430 0.5935958028 4294106484
-0.2969859540 -0.0993642509 0.5945671797 4294106484
-0.2970289886 -0.0987179428 0.5946533084 4293713521
-0.2970717549 -0.0980713591 0.5947389007 4293845107
-0.2971142232 -0.0974244997 0.5948240161 4294107503
-0.2975986600 -0.0969213694 0.5957938433 4294107503
-0.2980829477 -0.0964160413 0.5967633724 4294370157
-0.2985670865 -0.0959085152 0.5977326035 4294501743
-0.2986086905 -0.0952576622 0.5978158712 4294501489
-0.2986499965 -0.0946065411 0.5978986025 4294567282
-0.2991335690 -0.0940943435 0.5988667011 4294830456
-0.2991744280 -0.0934417173 0.5989484787 4294830456
-0.2992149889 -0.0927888229 0.5990297198 4294830708
-0.2996979952 -0.0922719613 0.5999966860 4294764915
-0.2997380793 -0.0916175693 0.6000769138 4294699889
-0.2997778654 -0.0909629241 0.6001566052 4294699889
-0.2993745506 -0.0901746228 0.5993491411 4294765682
-0.2998566628 -0.0896528512 0.6003143787 4294699889
-0.2998956442 -0.0889974236 0.6003924012 4294634356
-0.3003773987 -0.0884722397 0.6013568640 4294700149
-0.3008589745 -0.0879448578 0.6023209691 4294700403
-0.3008972406 -0.0872867405 0.6023976207 4294634610
-0.3009352386 -0.0866283700 0.6024736762 4294634861
-0.3014162183 -0.0860963613 0.6034365892 4294569068
-0.3018970191 -0.0855621621 0.6043991446 4294568553
-0.3019342721 -0.0849011093 0.6044737101 4294436967
-0.3019712567 -0.0842398182 0.6045477986 4294371176
-0.3024514318 -0.0837010071 0.6055091023 4294371176
-0.3024879098 -0.0830382556 0.6055821180 4294305131
-0.3029676974 -0.0824960545 0.6065426469 4294239338
-0.3030036688 -0.0818318501 0.6066146493 4294370157
-0.3039267063 -0.0814050958 0.6084626317 4294370157
-0.3039622307 -0.0807384849 0.6085336804 4294304110
-0.3039974570 -0.0800716355 0.6086041927 4294369903
-0.3040323853 -0.0794045553 0.6086741686 4294305132
-0.3045109212 -0.0788521916 0.6096321940 4294239339
-0.3045453429 -0.0781836882 0.6097010970 4294107752
-0.3050234616 -0.0776279420 0.6106583476 4294041959
-0.3055014014 -0.0770700350 0.6116151810 4294173799
-0.3055350780 -0.0763989016 0.6116825342 4294173799
-0.3060125709 -0.0758376196 0.6126385331 4294042213
-0.3064898849 -0.0752741620 0.6135941148 4293910627
-0.3069670200 -0.0747085363 0.6145493388 4293779039
-0.3069996834 -0.0740336031 0.6146147251 4293713246
-0.3070320487 -0.0733584538 0.6146794558 4293581658
-0.3075084984 -0.0727882758 0.6156333089 4293515865
-0.3075402975 -0.0721117258 0.6156970263 4293450327
-0.3080163002 -0.0715381950 0.6166499853 4293384534
-0.3080475926 -0.0708602518 0.6167126298 4293252948
-0.3085231483 -0.0702833757 0.6176646948 4293187155
-0.3089985251 -0.0697043389 0.6186164021 4293055051
-0.3090290129 -0.0690238252 0.6186774373 4292923465
-0.3095039129 -0.0684414431 0.6196281910 4292922688
-0.3095338643 -0.0677595511 0.6196881533 4292922688
-0.3095635474 -0.0670774579 0.6197475791 4292660041
-0.3095929027 -0.0663951710 0.6198063493 4292528455
-0.3096219897 -0.0657126978 0.6198645830 4292396606
-0.3096507490 -0.0650300235 0.6199221611 4292396606
-0.3101241887 -0.0644396171 0.6208699942 4292594248
-0.3097074330 -0.0636641160 0.6200356483 4292265283
-0.3097353280 -0.0629808828 0.6200914979 4291804479
-0.3097629249 -0.0622974709 0.6201467514 4291278135
-0.3093451262 -0.0615253486 0.6193102598 4290160157
-0.3093720973 -0.0608425513 0.6193642616 4287660032
-0.3089535832 -0.0600730181 0.6185263991 4282071065
-0.3089798987 -0.0593908541 0.6185791492 4282136858
-0.3085606992 -0.0586239211 0.6177398562 4282269238
-0.3085863888 -0.0579423942 0.6177912951 4282598203
-0.3086118102 -0.0572606958 0.6178421974 4282467138
-0.3081915379 -0.0564971901 0.6170008183 4282072380
-0.3086617291 -0.0558968037 0.6179421544 4282335542
-0.3091316819 -0.0552942865 0.6188829541 4282072370
-0.3096013963 -0.0546896383 0.6198233962 4281611055
-0.3100709021 -0.0540828593 0.6207633018 4281282090
-0.3105401695 -0.0534739532 0.6217027903 4280886817
-0.3119003475 -0.0530143902 0.6244258285 4280821024
-0.3128148019 -0.0524740070 0.6262566447 4281150506
-0.3132834733 -0.0518557690 0.6271948814 4281545264
-0.3137519062 -0.0512354039 0.6281327009 4280887836
-0.3142201006 -0.0506129153 0.6290699840 4285098588
-0.3142423034 -0.0499175005 0.6291144490 4290232673
-0.3142642081 -0.0492219403 0.6291583180 4290232673
-0.3147315979 -0.0485950708 0.6300940514 4290162239
-0.3147529364 -0.0478982367 0.6301367879 4287793691
-0.3143281043 -0.0471344031 0.6292862296 4289045292
-0.3139029145 -0.0463724099 0.6284350157 4288321569
-0.3130314350 -0.0455473699 0.6266903281 4287597846
-0.3126055002 -0.0447900407 0.6258375645 4288584741
-0.3121791780 -0.0440345593 0.6249840856 4288320797
-0.3126445115 -0.0434047580 0.6259157062 4287926039
-0.3126635551 -0.0427119248 0.6259537935 4287729165
-0.3126823008 -0.0420189649 0.6259913445 4287729165
-0.3127007484 -0.0413258784 0.6260282993 4287334923
-0.3131650090 -0.0406906381 0.6269577146 4287466509
-0.3136290014 -0.0400533006 0.6278865933 4289506346
-0.3136465549 -0.0393578783 0.6279218197 4290887999
-0.3141100109 -0.0387173370 0.6288496256 4290492974
-0.3136807978 -0.0379666910 0.6279903650 4289242907
-0.3136974573 -0.0372709259 0.6280236840 4289373459
-0.3137138188 -0.0365750566 0.6280564666 4289307666
-0.3141761422 -0.0359301120 0.6289820075 4290163747
-0.3146381974 -0.0352830812 0.6299070716 4291019056
-0.3146536946 -0.0345849134 0.6299380660 4292861005
-0.3151151836 -0.0339347050 0.6308619976 4292992591
-0.3151300848 -0.0332353413 0.6308917999 4292597067
-0.3155910373 -0.0325819664 0.6318145990 4291939137
-0.3169445097 -0.0320166983 0.6345242858 4292004679
-0.3182978034 -0.0314453915 0.6372336149 4292004679
-0.3169722855 -0.0306093767 0.6345798969 4290755130
-0.3205573559 -0.0302425437 0.6417572498 4289899821
-0.3187847137 -0.0293662082 0.6382083893 4289965612
-0.3210300505 -0.0288589578 0.6427035332 4290952507
-0.3214892149 -0.0281851236 0.6436228156 4290688818
-0.3219480813 -0.0275092199 0.6445414424 4289767716
-0.3224066496 -0.0268312544 0.6454595327 4289371668
-0.3215252757 -0.0260427129 0.6436949968 4290555942
-0.3224298358 -0.0253987759 0.6455059052 4290558488
-0.3224409521 -0.0246824231 0.6455281973 4290163730
-0.3224517405 -0.0239659958 0.6455497742 4289505315
-0.3229088187 -0.0232817009 0.6464648843 4289571108
-0.3224723637 -0.0225329343 0.6455910802 4289702693
-0.3229288459 -0.0218465179 0.6465049982 4289636900
-0.3224917352 -0.0210996047 0.6456298232 4290558767
-0.3225009143 -0.0203828458 0.6456483006 4289571872
-0.3225098252 -0.0196660273 0.6456660628 4290493283
-0.3229650855 -0.0189753938 0.6465775371 4293453968
-0.2968707979 -0.1240344942 0.5956611037 4293124777
-0.2960466743 -0.1230301782 0.5940075517 4292927398
-0.2952219546 -0.1220293045 0.5923528075 4293319831
-0.2948354483 -0.1212122515 0.5915772319 4293254038
-0.2944485247 -0.1203967556 0.5908008814 4293779314
-0.2949389517 -0.1199397817 0.5917849541 4293845107
-0.2949903309 -0.1193030477 0.5918880701 4293844337
-0.2941633761 -0.1183128059 0.5902287364 4293844337
-0.2942140698 -0.1176773012 0.5903305411 4293844337
-0.2942645550 -0.1170414761 0.5904317498 4293778544
-0.2943147421 -0.1164053157 0.5905324817 4293581935
-0.2934859991 -0.1154232621 0.5888696313 4293581935
-0.2939749658 -0.1149601936 0.5898507237 4293647982
-0.2940243185 -0.1143240184 0.5899497867 4293713775
-0.2936338484 -0.1135175899 0.5891662836 4293845361
-0.2936826050 -0.1128817275 0.5892641544 4293713775
-0.2932914197 -0.1120775193 0.5884792209 4293713775
-0.2933395803 -0.1114419848 0.5885758996 4293779568
-0.2933875024 -0.1108061299 0.5886720419 4293779568
-0.2934351861 -0.1101699695 0.5887676477 4293647982
-0.2934825718 -0.1095335037 0.5888627768 4293582189
-0.2935297191 -0.1088967249 0.5889573693 4293647982
-0.2935766280 -0.1082596406 0.5890514851 4293713521
-0.2936232388 -0.1076222509 0.5891450047 4293647728
-0.2936696112 -0.1069845557 0.5892380476 4293647728
-0.2941560745 -0.1065060049 0.5902140737 4293713521
-0.2942019701 -0.1058667526 0.5903062224 4293713521
-0.2946881056 -0.1053847373 0.5912816525 4293779314
-0.2947335541 -0.1047439277 0.5913728476 4293910382
-0.2952193916 -0.1042584404 0.5923476219 4293910382
-0.2952643633 -0.1036160886 0.5924378633 4294042223
-0.2953090966 -0.1029734462 0.5925276279 4294108016
-0.2953535616 -0.1023305133 0.5926168561 4294239602
-0.2953977585 -0.1016872898 0.5927055478 4294305395
-0.2954416871 -0.1010437757 0.5927937031 4294502259
-0.2954853773 -0.1003999785 0.5928813219 4294568052
-0.2955287695 -0.0997558907 0.5929684043 4294633843
-0.2960130572 -0.0992594510 0.5939400792 4294699636
-0.2960559726 -0.0986138433 0.5940262079 4294896499
-0.2960986495 -0.0979679525 0.5941118598 4294962292
-0.2961410284 -0.0973217860 0.5941969156 4294896501
-0.2970659733 -0.0969634950 0.5960527658 4294830708
-0.2971079648 -0.0963148475 0.5961369872 4294830706
-0.2975912094 -0.0958080739 0.5971065760 4294896499
-0.2976326942 -0.0951579139 0.5971898437 4294962549
-0.2981155813 -0.0946476981 0.5981587768 4294962549
-0.2981566191 -0.0939960331 0.5982410908 4294962805
-0.2981973588 -0.0933440998 0.5983228087 4294962548
-0.2986796796 -0.0928292274 0.5992905498 4294831476
-0.2987199426 -0.0921757966 0.5993713737 4294699890
-0.2987599373 -0.0915220976 0.5994516015 4294634097
-0.2987996340 -0.0908681452 0.5995312929 4294568304
-0.2992811501 -0.0903473794 0.6004974246 4294502510
-0.2993203700 -0.0896919370 0.6005761027 4294370924
-0.2998014987 -0.0891677588 0.6015415192 4294567534
-0.2998402417 -0.0885108337 0.6016191840 4294567534
-0.3003209829 -0.0879832357 0.6025838256 4294633327
-0.3008015752 -0.0874534473 0.6035481095 4294633327
-0.3008395731 -0.0867938250 0.6036243439 4294633327
-0.3008773327 -0.0861339569 0.6037001014 4294633327
-0.3013572991 -0.0855995417 0.6046631336 4294698862
-0.3018370867 -0.0850629285 0.6056258678 4294633069
-0.3018741012 -0.0844003856 0.6057000756 4294501483
-0.3019108176 -0.0837375969 0.6057737470 4294501483
-0.3019472659 -0.0830745623 0.6058468819 4294435947
-0.3024262190 -0.0825321302 0.6068078876 4294435947
-0.3024621606 -0.0818676502 0.6068800092 4294370154
-0.3033835888 -0.0814407170 0.6087288260 4294304361
-0.3034190834 -0.0807738155 0.6087999940 4294304102
-0.3038972616 -0.0802236274 0.6097595096 4294304102
-0.3039322197 -0.0795552954 0.6098296046 4294238820
-0.3039668798 -0.0788867250 0.6098991632 4294107234
-0.3044444323 -0.0783319548 0.6108573675 4293975646
-0.3044785857 -0.0776619539 0.6109258533 4293844060
-0.3049556911 -0.0771038085 0.6118831635 4293778009
-0.3049893081 -0.0764323846 0.6119506359 4293646423
-0.3054659963 -0.0758708641 0.6129071116 4293580630
-0.3059425056 -0.0753071681 0.6138631701 4293514837
-0.3064188063 -0.0747413039 0.6148188710 4293383251
-0.3064514399 -0.0740660802 0.6148843169 4293317458
-0.3069272935 -0.0734968483 0.6158391237 4293251406
-0.3069593906 -0.0728202239 0.6159034967 4293251406
-0.3074347973 -0.0722476318 0.6168574691 4293185611
-0.3074663579 -0.0715696067 0.6169207692 4293054025
-0.3079413474 -0.0709936693 0.6178737879 4292988234
-0.3084161282 -0.0704155639 0.6188264489 4292922441
-0.3088907003 -0.0698352978 0.6197786331 4292790855
-0.3089212179 -0.0691535100 0.6198399067 4292790855
-0.3089514375 -0.0684715211 0.6199005246 4292986951
-0.3089813590 -0.0677893385 0.6199606061 4292921158
-0.3094549775 -0.0672033727 0.6209108829 4292528192
-0.3094843626 -0.0665198117 0.6209698319 4292396606
-0.3095134497 -0.0658360571 0.6210281849 4292265018
-0.3095422685 -0.0651521087 0.6210860014 4292199225
-0.3095707595 -0.0644679740 0.6211431623 4292330811
-0.3095989525 -0.0637836456 0.6211997271 4292330811
-0.3096268773 -0.0630991384 0.6212557554 4291672621
-0.3092102110 -0.0623248965 0.6204197407 4291014691
-0.3092374802 -0.0616410039 0.6204744577 4289961762
-0.3088201284 -0.0608693473 0.6196370125 4287198464
-0.3088467717 -0.0601860769 0.6196904778 4281741595
-0.3088731170 -0.0595026352 0.6197433472 4282136353
-0.3084546924 -0.0587343834 0.6189038157 4282401083
-0.3084804118 -0.0580515750 0.6189554334 4282730048
-0.3085058331 -0.0573685989 0.6190064549 4282532667
-0.3085309565 -0.0566854551 0.6190568805 4282401081
-0.3085557818 -0.0560021438 0.6191066504 4282138938
-0.3090249598 -0.0553983822 0.6200480461 4281941559
-0.3099385798 -0.0548712090 0.6218811870 4281612597
-0.3104073405 -0.0542621948 0.6228217483 4281086253
-0.3108758628 -0.0536510535 0.6237617731 4280624169
-0.3122336864 -0.0531893186 0.6264862418 4281018927
-0.3131466210 -0.0526467301 0.6283180118 4281019692
-0.3136145175 -0.0520262495 0.6292568445 4281348657
-0.3140822053 -0.0514036417 0.6301952600 4281413410
-0.3145496547 -0.0507789068 0.6311331391 4287926917
-0.3145718873 -0.0500812158 0.6311777830 4291741782
-0.3150388300 -0.0494532287 0.6321146488 4291215438
-0.3150604963 -0.0487542562 0.6321581602 4289571886
-0.3150818646 -0.0480551459 0.6322010159 4288058647
-0.3151029348 -0.0473558903 0.6322432756 4287795221
-0.3137884140 -0.0464587994 0.6296057701 4287861014
-0.3133636713 -0.0456973203 0.6287534833 4288519198
-0.3129385412 -0.0449376851 0.6279005408 4289045542
-0.3129582405 -0.0442428254 0.6279400587 4288058900
-0.3129776418 -0.0435478389 0.6279789805 4287532556
-0.3125514984 -0.0427917652 0.6271239519 4287466761
-0.3121249974 -0.0420375429 0.6262681484 4287927312
-0.3121434450 -0.0413441546 0.6263051629 4287729161
-0.3126068711 -0.0407086350 0.6272349954 4288189712
-0.3130700290 -0.0400710180 0.6281643510 4289768999
-0.3135329783 -0.0394313000 0.6290931702 4291282238
-0.3135502338 -0.0387344696 0.6291278601 4290887478
-0.3131218255 -0.0379834920 0.6282682419 4289703204
-0.3126930296 -0.0372343808 0.6274079084 4289833759
-0.3127093613 -0.0365391932 0.6274406314 4290689068
-0.3127253652 -0.0358438976 0.6274727583 4291282480
-0.3131865561 -0.0351985656 0.6283981800 4291874617
-0.3132019937 -0.0345020667 0.6284291148 4292268868
-0.3127715588 -0.0337573811 0.6275654435 4291545145
-0.3136774600 -0.0331558660 0.6293831468 4290360103
-0.3136919737 -0.0324580781 0.6294122934 4290689068
-0.3150430322 -0.0318955369 0.6321230531 4290162724
-0.3172851205 -0.0314151980 0.6366217732 4290360103
-0.3155162930 -0.0305366740 0.6330726743 4291939402
-0.3186492920 -0.0301295239 0.6393589377 4292005195
-0.3173254430 -0.0292969253 0.6367026567 4291018304
-0.3182296455 -0.0286709685 0.6385169029 4290623546
-0.3186879158 -0.0280017965 0.6394364238 4291215412
-0.3195916116 -0.0273687262 0.6412496567 4290228517
-0.3204950988 -0.0267316084 0.6430624723 4289372958
-0.3205067813 -0.0260180682 0.6430858970 4290162474
-0.3214097023 -0.0253748391 0.6448975801 4290885936
-0.3209749758 -0.0246249605 0.6440253854 4290820143
-0.3209857345 -0.0239102039 0.6440469623 4290555944
-0.3209961653 -0.0231953748 0.6440678835 4289832221
-0.3214521408 -0.0225117020 0.6449827552 4289439769
-0.3214619458 -0.0217957459 0.6450024247 4289768734
-0.3219173253 -0.0211089607 0.6459161043 4290161952
-0.3219265342 -0.0203918852 0.6459345818 4289635608
-0.3223812878 -0.0197019987 0.6468470693 4289045011
-0.3228357732 -0.0190100670 0.6477589607 4291413559
-0.3050715625 -0.1434228420 0.6134828329 4291941593
-0.3055682182 -0.1429736018 0.6144815683 4291350485
-0.3069367707 -0.1429281384 0.6172336340 4291416278
-0.3078694940 -0.1426745951 0.6191093326 4291284946
-0.3083661497 -0.1422157735 0.6201080680 4290363844
-0.3092989624 -0.1419549137 0.6219838858 4290100151
-0.3102318347 -0.1416899264 0.6238598824 4290297530
-0.3093366027 -0.1364429742 0.6220596433 4293519789
-0.3080836833 -0.1352019757 0.6195400357 4293519789
-0.3059558272 -0.1335845739 0.6152610779 4293584802
-0.3038269281 -0.1319762170 0.6109799147 4293519009
-0.3012596965 -0.1301879585 0.6058173776 4293846675
-0.2991285622 -0.1285986602 0.6015318036 4293715089
-0.2974337637 -0.1272054911 0.5981236696 4293780104
-0.2957381010 -0.1258195192 0.5947137475 4293516932
-0.2949166596 -0.1248111129 0.5930618644 4293517184
-0.2936570048 -0.1236218959 0.5905287266 4293451391
-0.2928343415 -0.1226212978 0.5888743997 4293517684
-0.2924489081 -0.1218064800 0.5880993009 4293583477
-0.2920630574 -0.1209932193 0.5873234272 4293779318
-0.2912388742 -0.1200010553 0.5856660008 4293647732
-0.2917281985 -0.1195508689 0.5866500139 4294106725
-0.2917793095 -0.1189198941 0.5867528319 4294106725
-0.2918301821 -0.1182885915 0.5868551135 4293844339
-0.2914425433 -0.1174802929 0.5860756040 4293844339
-0.2914928496 -0.1168492809 0.5861767530 4293844337
-0.2919812799 -0.1163927093 0.5871589780 4293910130
-0.2920311391 -0.1157600954 0.5872592330 4293910130
-0.2916421890 -0.1149543002 0.5864770412 4293910130
-0.2921300828 -0.1144939065 0.5874581933 4293910130
-0.2921791673 -0.1138603240 0.5875569582 4293910130
-0.2922280133 -0.1132264286 0.5876551270 4293844337
-0.2918377519 -0.1124231592 0.5868703127 4293778544
-0.2918859720 -0.1117895842 0.5869673491 4293778798
-0.2919339836 -0.1111556888 0.5870638490 4293844591
-0.2919817269 -0.1105214879 0.5871598125 4293910384
-0.2920292020 -0.1098869815 0.5872552991 4293910384
-0.2920764089 -0.1092521623 0.5873502493 4293910384
-0.2921233773 -0.1086170301 0.5874447227 4294041970
-0.2921700776 -0.1079815999 0.5875386000 4294041455
-0.2926559448 -0.1075072810 0.5885156393 4294041455
-0.2927021980 -0.1068702862 0.5886086822 4294107248
-0.2931877375 -0.1063925028 0.5895851254 4294173041
-0.2932335436 -0.1057539433 0.5896772146 4294238834
-0.2937187850 -0.1052726880 0.5906530023 4294304627
-0.2937641144 -0.1046325788 0.5907441378 4294304880
-0.2942490280 -0.1041478515 0.5917193294 4294304880
-0.2942939103 -0.1035062000 0.5918095708 4294633845
-0.2947784960 -0.1030180082 0.5927840471 4294568052
-0.2948229313 -0.1023748070 0.5928733945 4294633843
-0.2948670983 -0.1017313153 0.5929621458 4294699636
-0.2949109674 -0.1010875404 0.5930504203 4294896501
-0.2949545979 -0.1004434749 0.5931381583 4294962294
-0.2949979603 -0.0997991264 0.5932253599 4294962292
-0.2954814136 -0.0993024856 0.5941975713 4294962292
-0.2955242991 -0.0986566022 0.5942838192 4294897269
-0.2955669463 -0.0980104506 0.5943695307 4294897269
-0.2956092954 -0.0973640084 0.5944547057 4294897015
-0.2965326011 -0.0970055759 0.5963114500 4294831222
-0.2965745330 -0.0963566601 0.5963957906 4294831222
-0.2970569432 -0.0958496779 0.5973659158 4294897015
-0.2970984280 -0.0951992497 0.5974492431 4294897269
-0.2975804806 -0.0946888253 0.5984186530 4294765683
-0.2976214588 -0.0940368846 0.5985010862 4294634097
-0.2976621687 -0.0933846831 0.5985829234 4294634097
-0.2981436551 -0.0928695947 0.5995511413 4294634097
-0.2981838882 -0.0922158882 0.5996320844 4294568304
-0.2982238233 -0.0915619209 0.5997124314 4294502511
-0.2982634902 -0.0909076929 0.5997921824 4294436718
-0.2987441719 -0.0903867111 0.6007587910 4294436717
-0.2987833619 -0.0897309929 0.6008376479 4294370924
-0.2992636859 -0.0892065912 0.6018034816 4294633580
-0.2993023694 -0.0885493904 0.6018813252 4294567787
-0.2997823060 -0.0880215764 0.6028463840 4294567533
-0.3002620637 -0.0874915645 0.6038111448 4294567533
-0.3003000319 -0.0868316665 0.6038875580 4294501740
-0.3003377318 -0.0861715227 0.6039633155 4294501740
-0.3008168638 -0.0856368765 0.6049268842 4294567274
-0.3008540571 -0.0849752650 0.6050016880 4294567274
-0.3013328314 -0.0844372213 0.6059644222 4294369893
-0.3013695180 -0.0837741494 0.6060382128 4294304100
-0.3018478751 -0.0832327008 0.6070001721 4294107234
-0.3023260534 -0.0826890618 0.6079617739 4294041441
-0.3023619950 -0.0820233300 0.6080340147 4293909855
-0.3028397560 -0.0814763010 0.6089948416 4293844062
-0.3028752208 -0.0808091164 0.6090660691 4293843803
-0.3033525646 -0.0802586973 0.6100260615 4293778010
-0.3033874929 -0.0795900747 0.6100962758 4293580630
-0.3038644493 -0.0790362731 0.6110553741 4293514837
-0.3038988411 -0.0783662200 0.6111245751 4293449042
-0.3043753803 -0.0778090283 0.6120828390 4293317456
-0.3044092655 -0.0771375522 0.6121509671 4293185870
-0.3053278625 -0.0766881257 0.6139982343 4293185870
-0.3053612709 -0.0760142505 0.6140654087 4293120077
-0.3058369756 -0.0754493400 0.6150220633 4293054284
-0.3058698773 -0.0747740418 0.6150881648 4292922698
-0.3063451350 -0.0742057636 0.6160439253 4292922698
-0.3063775003 -0.0735290572 0.6161090136 4292922439
-0.3068523407 -0.0729574189 0.6170638800 4292922439
-0.3068841696 -0.0722793043 0.6171278954 4292790853
-0.3073585629 -0.0717043057 0.6180818677 4292725060
-0.3073898554 -0.0710248053 0.6181447506 4292659267
-0.3083067536 -0.0705478117 0.6199886799 4292659267
-0.3083375394 -0.0698659346 0.6200505495 4292462147
-0.3083680272 -0.0691838562 0.6201118827 4292462147
-0.3083982468 -0.0685015768 0.6201726198 4292723779
-0.3084281385 -0.0678190961 0.6202327609 4292592193
-0.3089009225 -0.0672328770 0.6211835146 4292199225
-0.3089303076 -0.0665490255 0.6212425232 4292133432
-0.3089593649 -0.0658649728 0.6213009953 4292067894
-0.3089881241 -0.0651807338 0.6213588715 4292002101
-0.3094599545 -0.0645888373 0.6223076582 4292067639
-0.3090447783 -0.0638116822 0.6214727759 4292001846
-0.3090726435 -0.0631268770 0.6215288043 4291409449
-0.3091002405 -0.0624418855 0.6215842962 4290685726
-0.3086840212 -0.0616681091 0.6207473278 4289567006
-0.3087109625 -0.0609837398 0.6208015084 4286869504
-0.3082940578 -0.0602125525 0.6199631095 4281741597
-0.3083203733 -0.0595288128 0.6200160384 4282202148
-0.3083463907 -0.0588448979 0.6200683713 4282335290
-0.3088158369 -0.0582444929 0.6210123897 4282664255
-0.3088412881 -0.0575592518 0.6210635900 4282532669
-0.3088664711 -0.0568738431 0.6211141944 4282401083
-0.3088913560 -0.0561882630 0.6211642623 4282073145
-0.3093597889 -0.0555822663 0.6221061945 4281809973
-0.3098279834 -0.0549741387 0.6230477095 4281480757
-0.3107398450 -0.0544416495 0.6248814464 4281020206
-0.3112076223 -0.0538282692 0.6258221269 4280624169
-0.3121191263 -0.0532885604 0.6276551485 4280887341
-0.3130304813 -0.0527447499 0.6294878125 4281151278
-0.3134976029 -0.0521230102 0.6304271817 4281414450
-0.3139645159 -0.0514991432 0.6313660741 4282203178
-0.3144311607 -0.0508731529 0.6323044896 4288848271
-0.3148975670 -0.0502450354 0.6332424283 4292071001
-0.3153637350 -0.0496147983 0.6341798306 4290557762
-0.3153854609 -0.0489135496 0.6342235208 4289176357
-0.3158510923 -0.0482800566 0.6351599097 4289571115
-0.3154279590 -0.0475106165 0.6343090534 4288057876
-0.3141158819 -0.0466111563 0.6316704750 4287992083
-0.3150249422 -0.0460421853 0.6334985495 4289373990
-0.3137120306 -0.0451493710 0.6308583617 4289176611
-0.3141761720 -0.0445142053 0.6317917705 4288387093
-0.3133068681 -0.0436910130 0.6300435662 4287794956
-0.3133259714 -0.0429936126 0.6300820708 4287597575
-0.3124558926 -0.0421760976 0.6283323169 4287663368
-0.3120298684 -0.0414214209 0.6274756193 4287729161
-0.3124924898 -0.0407846346 0.6284059882 4288847642
-0.3125103414 -0.0400887206 0.6284418702 4290558515
-0.3129724562 -0.0394487232 0.6293711662 4291282238
-0.3134343326 -0.0388066284 0.6302999258 4290163755
-0.3125620782 -0.0380002744 0.6285458803 4289637411
-0.3121340871 -0.0372508392 0.6276851892 4290426668
-0.3117057085 -0.0365032703 0.6268237829 4291281977
-0.3117216825 -0.0358086601 0.6268559098 4291216180
-0.3117373586 -0.0351139419 0.6268874407 4291939903
-0.3121974468 -0.0344682224 0.6278126240 4291216184
-0.3122125268 -0.0337723084 0.6278429627 4289900324
-0.3122273088 -0.0330762938 0.6278726459 4290492207
-0.3126865625 -0.0324263088 0.6287962198 4290755379
-0.3140351772 -0.0318645127 0.6315081716 4290426414
-0.3153835833 -0.0312966704 0.6342197657 4290689586
-0.3162869513 -0.0306796338 0.6360363960 4293123680
-0.3167452216 -0.0300163794 0.6369580030 4294768505
-0.3172032535 -0.0293510538 0.6378790140 4294768252
-0.3167711496 -0.0286033079 0.6370100975 4292860255
-0.3172285855 -0.0279358253 0.6379299760 4291413309
-0.3176857233 -0.0272662751 0.6388492584 4290952758
-0.3199223876 -0.0267434400 0.6433470845 4289833761
-0.3203790188 -0.0260657873 0.6442653537 4289833761
-0.3199454248 -0.0253156535 0.6433933973 4290622764
-0.3204014599 -0.0246358626 0.6443104744 4291017522
-0.3208676577 -0.0232378747 0.6452479959 4290226979
-0.3208777905 -0.0225216690 0.6452683210 4289176597
-0.3208875954 -0.0218053963 0.6452880502 4289505562
-0.3208971024 -0.0210890584 0.6453071237 4290162207
-0.3213513494 -0.0204009153 0.6462206244 4289899035
-0.3213602304 -0.0196834616 0.6462385058 4289111059
-0.3222590089 -0.0190184861 0.6480458379 4289900575
-0.3227123618 -0.0183242038 0.6489576101 4291547072
-0.3089278638 -0.1676980108 0.6226282716 4292139484
-0.3089978397 -0.1670440584 0.6227692962 4291942105
-0.3086353242 -0.1661569476 0.6220386624 4291810519
-0.3087047040 -0.1655030251 0.6221785545 4291810512
-0.3083414137 -0.1646177918 0.6214463711 4291678926
-0.3079776764 -0.1637339443 0.6207132339 4291612863
-0.3076135218 -0.1628514826 0.6199792624 4291547070
-0.3068161607 -0.1617423147 0.6183722615 4291809454
-0.3060181737 -0.1606363803 0.6167640090 4291809454
-0.3056525290 -0.1597599834 0.6160269976 4292072102
-0.3048534095 -0.1586596370 0.6144164205 4292137895
-0.3040536344 -0.1575625390 0.6128045321 4292203427
-0.3036864996 -0.1566922218 0.6120646000 4292203427
-0.3028855920 -0.1556007415 0.6104504466 4292137882
-0.3020840883 -0.1545125246 0.6088350415 4292137882
-0.3012819588 -0.1534275860 0.6072183847 4292072349
-0.3004792333 -0.1523459256 0.6056004763 4292006556
-0.2996758819 -0.1512675434 0.6039813757 4292006307
-0.2997394502 -0.1506284326 0.6041095257 4292006307
-0.2998028100 -0.1499889195 0.6042371988 4291941032
-0.2994319499 -0.1491328627 0.6034897566 4291875239
-0.2994947135 -0.1484934688 0.6036162972 4291941291
-0.2999913692 -0.1480679363 0.6046172976 4291678119
-0.3000537455 -0.1474268138 0.6047430038 4291546536
-0.3001158834 -0.1467852890 0.6048681736 4291546536
-0.3001777530 -0.1461433619 0.6049929261 4291086000
-0.3002393842 -0.1455010474 0.6051171422 4291020207
-0.3003007770 -0.1448583305 0.6052408814 4290493620
-0.2999272645 -0.1440065056 0.6044880152 4289243553
-0.3004228175 -0.1435717195 0.6054868102 4287795856
-0.3004834652 -0.1429278255 0.6056090593 4285953652
-0.3009788096 -0.1424894482 0.6066073775 4285427318
-0.3014740646 -0.1420488209 0.6076055765 4285164146
-0.3019692600 -0.1416059434 0.6086035967 4284507499
-0.3028995693 -0.1413639188 0.6104785800 4284244327
-0.3038299680 -0.1411177814 0.6123537421 4283915876
-0.3051958382 -0.1410687417 0.6151065826 4283192153
-0.3065619469 -0.1410137117 0.6178599596 4282665546
-0.3074927926 -0.1407532990 0.6197359562 4283323476
-0.3075524569 -0.1400919110 0.6198562384 4285822577
-0.3080475628 -0.1396276206 0.6208540797 4289506985
-0.3069165945 -0.1370531470 0.6185746789 4292993696
-0.3056666553 -0.1358105093 0.6160554886 4292598938
-0.3048520982 -0.1347659379 0.6144137979 4293253768
-0.3031645417 -0.1333410442 0.6110126376 4293451147
-0.3010397851 -0.1317323893 0.6067302823 4293712781
-0.2980412245 -0.1297528297 0.6006867886 4293778574
-0.2959141433 -0.1281641722 0.5963998437 4294173055
-0.2933495045 -0.1263964921 0.5912309289 4294173055
-0.2920934856 -0.1252012104 0.5886994600 4294107000
-0.2912734151 -0.1241974533 0.5870466828 4294107000
-0.2904527783 -0.1231971309 0.5853927135 4293844337
-0.2900684476 -0.1223845556 0.5846180916 4293778544
-0.2892467678 -0.1213901639 0.5829620361 4293845109
-0.2892985344 -0.1207640618 0.5830664039 4293910902
-0.2889129519 -0.1199561432 0.5822892785 4293779063
-0.2889641523 -0.1193303242 0.5823924541 4293713270
-0.2890151143 -0.1187041625 0.5824951530 4293910132
-0.2890658081 -0.1180776805 0.5825973153 4293910132
-0.2891162336 -0.1174508631 0.5826990008 4293975925
-0.2891664207 -0.1168237180 0.5828001499 4293975925
-0.2896538973 -0.1163720414 0.5837826133 4294041718
-0.2897036672 -0.1157432944 0.5838829279 4294107511
-0.2897531986 -0.1151142269 0.5839827061 4294173302
-0.2902401984 -0.1146577820 0.5849642754 4294173302
-0.2902892828 -0.1140271202 0.5850632191 4294107509
-0.2907760143 -0.1135671809 0.5860441923 4294041716
-0.2908246815 -0.1129349321 0.5861422420 4294041970
-0.2908730507 -0.1123023629 0.5862397552 4294041970
-0.2909211814 -0.1116694883 0.5863367319 4294041970
-0.2909690440 -0.1110362932 0.5864332318 4294041970
-0.2910166681 -0.1104027852 0.5865291953 4294107763
-0.2910640240 -0.1097689718 0.5866246819 4294173556
-0.2911111414 -0.1091348454 0.5867195725 4294305140
-0.2911579907 -0.1085004210 0.5868139863 4294436726
-0.2912045717 -0.1078656837 0.5869079232 4294633075
-0.2916895449 -0.1073921323 0.5878853202 4294698868
-0.2921743691 -0.1069163680 0.5888624787 4294764661
-0.2922203243 -0.1062788144 0.5889551044 4294830454
-0.2927048504 -0.1057995781 0.5899316072 4294896247
-0.2927503288 -0.1051604599 0.5900233388 4294830454
-0.2927955687 -0.1045210510 0.5901144743 4294830708
-0.2932795882 -0.1040370911 0.5910899639 4294764915
-0.2933243513 -0.1033961251 0.5911802053 4294896501
-0.2938080430 -0.1029087007 0.5921550989 4294896501
-0.2938523591 -0.1022661924 0.5922443867 4294830706
-0.2938964069 -0.1016234010 0.5923331976 4294830706
-0.2943795621 -0.1011312604 0.5933069587 4294896499
-0.2944231629 -0.1004869342 0.5933948159 4294896499
-0.2944664657 -0.0998423174 0.5934820771 4294896498
-0.2945095301 -0.0991974175 0.5935688615 4294896498
-0.2949919403 -0.0986993238 0.5945411921 4294568050
-0.2950345278 -0.0980529040 0.5946269631 4294568050
-0.2955166101 -0.0975513607 0.5955985785 4294568050
-0.2959985435 -0.0970476195 0.5965698957 4294568050
-0.2964803278 -0.0965416655 0.5975409150 4294568050
-0.2965220213 -0.0958912447 0.5976249576 4294502257
-0.2965634465 -0.0952405408 0.5977084041 4294436718
-0.2970446646 -0.0947299078 0.5986782908 4294436718
-0.2970856130 -0.0940776989 0.5987608433 4294502510
-0.2971262634 -0.0934252217 0.5988427997 4294502510
-0.2971666753 -0.0927724764 0.5989242196 4294567533
-0.2976471186 -0.0922559425 0.5998924971 4294567533
-0.2981273830 -0.0917372033 0.6008604765 4294501740
-0.2981670797 -0.0910817385 0.6009405255 4294435947
-0.2982065082 -0.0904260054 0.6010199785 4294436201
-0.2982456684 -0.0897700116 0.6010988951 4294436201
-0.2991657555 -0.0893770233 0.6029532552 4294501992
-0.2992044687 -0.0887185782 0.6030312777 4294436199
-0.2992428839 -0.0880598798 0.6031087637 4294370406
-0.2997218370 -0.0875296444 0.6040740013 4294238820
-0.3002005816 -0.0869972184 0.6050389409 4294107234
-0.3002383113 -0.0863358229 0.6051149368 4293975648
-0.3002757430 -0.0856741816 0.6051903963 4293975389
-0.3007538915 -0.0851371214 0.6061540842 4293843803
-0.3007908165 -0.0844740197 0.6062285304 4293843802
-0.3012685776 -0.0839335546 0.6071913838 4293778009
-0.3013049960 -0.0832689926 0.6072648168 4293646423
-0.3022235632 -0.0828460678 0.6091161370 4293580630
-0.3022595346 -0.0821790770 0.6091886163 4293449044
-0.3022952378 -0.0815118477 0.6092605591 4293383251
-0.3023306429 -0.0808443874 0.6093319058 4293251665
-0.3028071523 -0.0802937374 0.6102923155 4293120079
-0.3032835126 -0.0797409043 0.6112524271 4293054284
-0.3033181727 -0.0790707916 0.6113222241 4293054284
-0.3037941158 -0.0785145685 0.6122815013 4292988745
-0.3038282394 -0.0778430328 0.6123502851 4292857159
-0.3043037653 -0.0772834271 0.6133086681 4292725573
-0.3047790825 -0.0767216533 0.6142666340 4292725573
-0.3052542210 -0.0761576965 0.6152242422 4292725573
-0.3052873611 -0.0754823312 0.6152909994 4292725573
-0.3057620525 -0.0749150068 0.6162477732 4292659780
-0.3057946563 -0.0742382258 0.6163134575 4292659780
-0.3062689304 -0.0736675337 0.6172693372 4292659780
-0.3063009977 -0.0729893520 0.6173340082 4292593987
-0.3067748249 -0.0724152923 0.6182889342 4292462401
-0.3068063557 -0.0717357099 0.6183525324 4292396608
-0.3072797358 -0.0711582974 0.6193065643 4292396608
-0.3077529073 -0.0705787167 0.6202602386 4292396608
-0.3082258999 -0.0699969754 0.6212134957 4292330815
-0.3082563877 -0.0693136230 0.6212750077 4292330815
-0.3082866073 -0.0686300695 0.6213358641 4292592193
-0.3083165288 -0.0679463148 0.6213961840 4292526400
-0.3083461523 -0.0672623590 0.6214559078 4292133434
-0.3088179231 -0.0666737333 0.6224067211 4292001848
-0.3084045351 -0.0658938661 0.6215735078 4291936053
-0.3084332645 -0.0652093291 0.6216314435 4291870260
-0.3089042604 -0.0646171793 0.6225807667 4291936053
-0.3089324534 -0.0639312789 0.6226375699 4291672881
-0.3089603484 -0.0632451922 0.6226937771 4291212072
-0.3085452914 -0.0624692999 0.6218572259 4290356763
-0.3085725307 -0.0617838316 0.6219121814 4289106457
-0.3081567585 -0.0610105209 0.6210741997 4286408960
-0.3081834018 -0.0603256784 0.6211278439 4281544219
-0.3082097173 -0.0596406572 0.6211809516 4282267942
-0.3086786270 -0.0590401664 0.6221259832 4282335291
-0.3087044358 -0.0583538152 0.6221779585 4282466877
-0.3087299168 -0.0576672927 0.6222293377 4282597950
-0.3087550998 -0.0569805987 0.6222800612 4282532157
-0.3087799847 -0.0562937371 0.6223302484 4282073146
-0.3096906841 -0.0557662733 0.6241657138 4281744181
-0.3101581037 -0.0551559068 0.6251078248 4281414964
-0.3106253445 -0.0545434058 0.6260494590 4281020206
-0.3119786084 -0.0540824160 0.6287769079 4280755755
-0.3124454319 -0.0534636788 0.6297177672 4280953134
-0.3129120171 -0.0528428108 0.6306581497 4281151278
-0.3133783638 -0.0522198156 0.6315980554 4281217071
-0.3138444722 -0.0515946895 0.6325374842 4283650871
-0.3143103421 -0.0509674400 0.6334763765 4289638034
-0.3147759438 -0.0503380634 0.6344148517 4291873619
-0.3152413368 -0.0497065634 0.6353527904 4290294587
-0.3157064617 -0.0490729399 0.6362902522 4288189201
-0.3157279193 -0.0483692624 0.6363334656 4289373475
-0.3161925375 -0.0477323867 0.6372698545 4288518166
-0.3157699108 -0.0469614826 0.6364181042 4288715545
-0.3157904446 -0.0462573841 0.6364594698 4289439268
-0.3153671026 -0.0454891697 0.6356062889 4288978717
-0.3149434030 -0.0447227992 0.6347523332 4288913178
-0.3145193458 -0.0439582765 0.6338976622 4288386834
-0.3140949309 -0.0431956016 0.6330422759 4287860489
-0.3141138256 -0.0424948037 0.6330803037 4287794696
-0.3128013313 -0.0416167825 0.6304350495 4287861002
-0.3123758137 -0.0408606641 0.6295774579 4288650518
-0.3123936653 -0.0401634537 0.6296134591 4289440034
-0.3128550053 -0.0395221859 0.6305432320 4289374241
-0.3128722608 -0.0388237536 0.6305780411 4288913688
-0.3120016158 -0.0380170457 0.6288232803 4290032169
-0.3115743697 -0.0372672789 0.6279622316 4291742274
-0.3111467957 -0.0365193821 0.6271004677 4291479102
-0.3111627698 -0.0358244665 0.6271326542 4291939905
-0.3111784160 -0.0351294465 0.6271641850 4291545147
-0.3107498288 -0.0343851969 0.6263003945 4290426668
-0.3112088144 -0.0337390900 0.6272254586 4290624047
-0.3112235665 -0.0330437645 0.6272551417 4291281723
