VERSION 0.7
FIELDS x y z rgba
SIZE 4 4 4 4
TYPE F F F U
COUNT 1 1 1 1
WIDTH 920
HEIGHT 1
VIEWPOINT 0.0 0.0 0.0 1.0 0.0 0.0 0.0
POINTS 920
DATA ascii
-0.3618013263 -0.1545425951 0.6804501414 4281148457
-0.3614091873 -0.1536198854 0.6797126532 4280753445
-0.3605561256 -0.1525038630 0.6781082749 4280358687
-0.3601630032 -0.1515849680 0.6773688793 4280292894
-0.3597693741 -0.1506675333 0.6766285896 4280885031
-0.3593752980 -0.1497515291 0.6758874655 4281345582
-0.3594415784 -0.1490280479 0.6760120988 4281411375
-0.3595075607 -0.1483041793 0.6761361957 4281411629
-0.3595732450 -0.1475798935 0.6762597561 4281280043
-0.3596386313 -0.1468552202 0.6763827205 4281345582
-0.3597037196 -0.1461301595 0.6765051484 4281213996
-0.3597685099 -0.1454046965 0.6766269803 4280885031
-0.3602943420 -0.1448643357 0.6776158810 4280885031
-0.3612814248 -0.1445062757 0.6794723272 4280687395
-0.3613455594 -0.1437768489 0.6795929670 4280095258
-0.3618709445 -0.1432297230 0.6805810928 4279963672
-0.3623962104 -0.1426803619 0.6815689802 4280095258
-0.3629213572 -0.1421287358 0.6825566292 4280160796
-0.3629845083 -0.1413949728 0.6826754212 4280095003
-0.3630473614 -0.1406608224 0.6827936172 4280094746
-0.3635719121 -0.1401043236 0.6837801337 4280028953
-0.3627101183 -0.1390143037 0.6821593642 4280028953
-0.3627719879 -0.1382799596 0.6822757125 4280094746
-0.3628335297 -0.1375452280 0.6823914647 4280226332
-0.3624325097 -0.1366358548 0.6816372275 4280160539
-0.3615686297 -0.1355546415 0.6800125241 4280226332
-0.3616290390 -0.1348216236 0.6801261306 4280357918
-0.3621516526 -0.1342597008 0.6811090112 4280357918
-0.3617489338 -0.1333544701 0.6803516150 4280357918
-0.3613457382 -0.1324507594 0.6795933247 4280226332
-0.3609420657 -0.1315485686 0.6788341403 4280160539
-0.3605379760 -0.1306478977 0.6780741215 4280160539
-0.3601333797 -0.1297487468 0.6773132086 4280094746
-0.3597283661 -0.1288511306 0.6765514612 4280160539
-0.3593228757 -0.1279550344 0.6757888794 4280226332
-0.3579906821 -0.1267325878 0.6732833982 4280226332
-0.3571209610 -0.1256784350 0.6716476679 4280292125
-0.3567138910 -0.1247897819 0.6708820462 4280357918
-0.3558430076 -0.1237415448 0.6692441702 4280357918
-0.3549715579 -0.1226967499 0.6676052213 4279043597
-0.3536360264 -0.1214961484 0.6650934219 4279569941
-0.3522997499 -0.1203008816 0.6625802517 4284242785
-0.3509627283 -0.1191109493 0.6600657105 4291480015
-0.3609831631 -0.1930667013 0.6803325415 4291743446
-0.3610666096 -0.1923552454 0.6804897785 4285427318
-0.3611497581 -0.1916432977 0.6806465387 4283781976
-0.3616876006 -0.1911713332 0.6816601753 4283781976
-0.3622253835 -0.1906970739 0.6826736927 4283649361
-0.3623079360 -0.1899818629 0.6828293204 4283254603
-0.3623902202 -0.1892661601 0.6829843521 4282924353
-0.3620168567 -0.1883131117 0.6822807193 4282529595
-0.3620984852 -0.1875973344 0.6824345589 4282331957
-0.3621798456 -0.1868810803 0.6825878620 4281871406
-0.3595268726 -0.1847593337 0.6775879264 4282529338
-0.3596070707 -0.1840475202 0.6777390838 4281739822
-0.3569517434 -0.1819410622 0.6727346182 4280818979
-0.3520150185 -0.1786876619 0.6634305716 4281147944
-0.3475318849 -0.1756842285 0.6549813747 4281147944
-0.3453273773 -0.1738466918 0.6508266330 4281082151
-0.3435778916 -0.1722465008 0.6475294232 4280687393
-0.3436528444 -0.1715644747 0.6476706862 4280621600
-0.3437275589 -0.1708820015 0.6478114724 4280818981
-0.3438019753 -0.1701990813 0.6479517221 4280884774
-0.3443328142 -0.1697408408 0.6489521861 4280687652
-0.3453203440 -0.1695045531 0.6508134007 4280556066
-0.3463080227 -0.1692641973 0.6526747942 4280556066
-0.3472957909 -0.1690197587 0.6545364261 4280490273
-0.3491978347 -0.1692142040 0.6581211090 4280556066
-0.3501860499 -0.1689597815 0.6599835753 4280819238
-0.3516316414 -0.1689209342 0.6627080441 4280687652
-0.3530775011 -0.1688761860 0.6654330492 4280753445
-0.3545236886 -0.1688255221 0.6681585908 4280687652
-0.3555126190 -0.1685520113 0.6700223684 4280556066
-0.3565016389 -0.1682744026 0.6718863845 4280621859
-0.3574907780 -0.1679926962 0.6737505198 4280687652
-0.3580221534 -0.1674927175 0.6747520566 4280687652
-0.3590113819 -0.1672037244 0.6766163707 4280687652
-0.3590846658 -0.1664859354 0.6767544746 4280819238
-0.3591576517 -0.1657676995 0.6768920422 4280819238
-0.3596885502 -0.1652595401 0.6778926253 4280753445
-0.3597610593 -0.1645395160 0.6780292988 4280753445
-0.3602916896 -0.1640277505 0.6790292859 4280753188
-0.3603636920 -0.1633059382 0.6791650653 4280358430
-0.3604354262 -0.1625836939 0.6793002486 4280095258
-0.3605068922 -0.1618610173 0.6794348955 4280095258
-0.3605780303 -0.1611379236 0.6795690060 4279832595
-0.3606489003 -0.1604143977 0.6797025800 4279766802
-0.3611783981 -0.1598936021 0.6807005405 4279701009
-0.3612487912 -0.1591683030 0.6808331609 4279766802
-0.3608597517 -0.1582412571 0.6800999641 4279898388
-0.3609294593 -0.1575160325 0.6802313328 4280293146
-0.3609988689 -0.1567903906 0.6803621054 4280687906
-0.3610679507 -0.1560643315 0.6804923415 4280951078
-0.3611367941 -0.1553378552 0.6806220412 4280951078
-0.3607457578 -0.1544142663 0.6798850894 4280885285
-0.3603542447 -0.1534921080 0.6791472435 4280819238
-0.3599622846 -0.1525713801 0.6784085035 4280687652
-0.3591100574 -0.1514581889 0.6768023372 4280687652
-0.3587170541 -0.1505412906 0.6760616899 4280885031
-0.3583236039 -0.1496258378 0.6753201485 4281082410
-0.3588498235 -0.1490941346 0.6763118505 4281148203
-0.3584555984 -0.1481797397 0.6755689383 4281214250
-0.3580608964 -0.1472668052 0.6748250723 4281148457
-0.3581260741 -0.1465436965 0.6749479175 4281411375
-0.3586513400 -0.1460076123 0.6759378314 4281345582
-0.3587160110 -0.1452827901 0.6760597229 4281345325
-0.3592409492 -0.1447431445 0.6770490408 4281411118
-0.3602263629 -0.1443858743 0.6789062619 4280884774
-0.3607511222 -0.1438407898 0.6798951626 4280226844
-0.3612757027 -0.1432934403 0.6808838844 4280095258
-0.3618001640 -0.1427438557 0.6818723083 4280161051
-0.3618634939 -0.1420111060 0.6819916964 4280095003
-0.3619265258 -0.1412779689 0.6821104884 4279897624
-0.3624504209 -0.1407234818 0.6830977798 4279897624
-0.3625129163 -0.1399886459 0.6832156181 4279963417
-0.3625751138 -0.1392534375 0.6833328605 4280094746
-0.3621756434 -0.1383416206 0.6825799346 4280094746
-0.3617756963 -0.1374312937 0.6818262339 4280292125
-0.3618368208 -0.1366968304 0.6819413900 4280160539
-0.3609744310 -0.1356151551 0.6803160906 4280226332
-0.3610347807 -0.1348818243 0.6804298162 4280357918
-0.3610948324 -0.1341481209 0.6805430055 4280423711
-0.3611545861 -0.1334140599 0.6806555986 4280423711
-0.3607521057 -0.1325099617 0.6798970699 4280292125
-0.3608111441 -0.1317761242 0.6800083518 4280160539
-0.3599457741 -0.1307063401 0.6783773899 4280160539
-0.3595419228 -0.1298068017 0.6776162386 4280094746
-0.3595997989 -0.1290747076 0.6777253747 4280160539
-0.3587328196 -0.1280123293 0.6760914326 4280160539
-0.3578652442 -0.1269533634 0.6744562984 4280226332
-0.3565346301 -0.1257347465 0.6719485521 4280292125
-0.3561282754 -0.1248457059 0.6711826921 4280357918
-0.3557214737 -0.1239582151 0.6704159975 4280357918
-0.3548515439 -0.1229120120 0.6687765121 4279240976
-0.3535183370 -0.1217099503 0.6662638187 4280556836
-0.3521843553 -0.1205132231 0.6637497544 4284900715
-0.3508496881 -0.1193218231 0.6612343192 4291085257
-0.3590216935 -0.1924204081 0.6780551672 4290625219
-0.3591047525 -0.1917113811 0.6782119870 4284440677
-0.3596416116 -0.1912433207 0.6792259812 4283978585
-0.3597242236 -0.1905324161 0.6793819666 4283846999
-0.3602608740 -0.1900606900 0.6803954840 4283845968
-0.3603430688 -0.1893478930 0.6805506945 4283122245
-0.3604249656 -0.1886346191 0.6807053685 4282793021
-0.3600519896 -0.1876838952 0.6800009608 4282529849
-0.3601332307 -0.1869705468 0.6801544428 4281937199
-0.3597594202 -0.1860215515 0.6794484258 4281674027
-0.3575654328 -0.1841367930 0.6753048301 4282200373
-0.3562802076 -0.1827273220 0.6728774905 4281279271
-0.3554491997 -0.1815552562 0.6713081002 4280490012
-0.3514309824 -0.1787654012 0.6637192369 4281082149
-0.3474107087 -0.1759913564 0.6561263800 4281345321
-0.3452100158 -0.1741521508 0.6519701481 4281213735
-0.3443746269 -0.1730080843 0.6503924131 4280687393
-0.3444498181 -0.1723230630 0.6505344510 4280490014
-0.3440690339 -0.1714105755 0.6498152614 4280753186
-0.3436878026 -0.1704994440 0.6490952373 4281082151
-0.3437619805 -0.1698149145 0.6492353678 4281016617
-0.3447479606 -0.1695785522 0.6510974765 4280819238
-0.3457340598 -0.1693381220 0.6529598236 4280819238
-0.3467202485 -0.1690936089 0.6548224092 4280753445
-0.3477065861 -0.1688450128 0.6566852331 4280687652
-0.3491494358 -0.1688129902 0.6594102383 4280753445
-0.3505925834 -0.1687750816 0.6621357799 4280818981
-0.3515794575 -0.1685124040 0.6639996171 4280818981
-0.3530231118 -0.1684635729 0.6667261124 4280818981
-0.3540102839 -0.1681917906 0.6685904860 4280621602
-0.3554544151 -0.1681320369 0.6713179350 4280490016
-0.3564418852 -0.1678511500 0.6731828451 4280555809
-0.3574294448 -0.1675661653 0.6750479937 4280753188
-0.3579599261 -0.1670637280 0.6760498285 4280818981
-0.3584902883 -0.1665590107 0.6770515442 4280818981
-0.3585632443 -0.1658404917 0.6771892905 4280818981
-0.3590933383 -0.1653321385 0.6781904101 4280753188
-0.3591657877 -0.1646118313 0.6783272624 4280753188
-0.3596955836 -0.1640998721 0.6793278456 4280687395
-0.3597675562 -0.1633777618 0.6794638038 4280818981
-0.3598392308 -0.1626552343 0.6795991659 4280687395
-0.3599106073 -0.1619322747 0.6797339916 4280358430
-0.3599817157 -0.1612088829 0.6798682809 4279964181
-0.3605106175 -0.1606892347 0.6808671355 4279964181
-0.3605812192 -0.1599640697 0.6810004711 4279898388
-0.3606515229 -0.1592384726 0.6811333299 4279766802
-0.3607215583 -0.1585124582 0.6812655330 4279898388
-0.3607912958 -0.1577860266 0.6813972592 4280227353
-0.3604021966 -0.1568595916 0.6806623936 4280622113
-0.3600126505 -0.1559346020 0.6799266934 4280819492
-0.3600813150 -0.1552087516 0.6800563931 4280753699
-0.3596909046 -0.1542856991 0.6793190241 4280753699
-0.3593000472 -0.1533640921 0.6785808206 4280687906
-0.3589086831 -0.1524439156 0.6778417230 4280687906
-0.3580578268 -0.1513311714 0.6762347817 4280753445
-0.3576654494 -0.1504148245 0.6754937172 4280819238
-0.3572726250 -0.1494999230 0.6747518182 4281016617
-0.3577979505 -0.1489689350 0.6757439375 4281213996
-0.3574043512 -0.1480550915 0.6750006080 4281213737
-0.3574697673 -0.1473320723 0.6751241684 4281213737
-0.3570753336 -0.1464202255 0.6743792295 4281476909
-0.3575997055 -0.1458848715 0.6753695607 4281345323
-0.3581239581 -0.1453472525 0.6763596535 4281279532
-0.3586480618 -0.1448073834 0.6773495078 4281279532
-0.3591720462 -0.1442652643 0.6783391237 4280753188
-0.3596959114 -0.1437208802 0.6793284416 4280095258
-0.3602195978 -0.1431742609 0.6803175211 4280095258
-0.3612033129 -0.1428072900 0.6821753979 4280029465
-0.3617268205 -0.1422552317 0.6831640601 4280029465
-0.3617898822 -0.1415208578 0.6832832098 4279963672
-0.3618526459 -0.1407860965 0.6834017634 4279963160
-0.3623755574 -0.1402291507 0.6843892932 4280028953
-0.3619772494 -0.1393154413 0.6836370826 4280160539
-0.3620391190 -0.1385795474 0.6837539077 4280094746
-0.3616399765 -0.1376679093 0.6830000877 4280292125
-0.3612403572 -0.1367577612 0.6822453737 4280226332
-0.3608402908 -0.1358491182 0.6814897656 4280226332
-0.3609006703 -0.1351145357 0.6816038489 4280357918
-0.3609607518 -0.1343795955 0.6817172766 4280489504
-0.3605594337 -0.1334736049 0.6809594035 4280423711
-0.3601576984 -0.1325691193 0.6802006364 4280292125
-0.3602166772 -0.1318349689 0.6803120375 4280226332
-0.3598140776 -0.1309325844 0.6795516610 4280094746
-0.3594110310 -0.1300317347 0.6787904501 4280160539
-0.3594689369 -0.1292983890 0.6788998246 4280160539
-0.3586035073 -0.1282346100 0.6772654057 4280226332
-0.3572759032 -0.1270101517 0.6747580171 4280292125
-0.3564091921 -0.1259541512 0.6731210947 4280292125
-0.3560036123 -0.1250637919 0.6723551750 4280292125
-0.3555976152 -0.1241749749 0.6715883613 4280292125
-0.3547292352 -0.1231273860 0.6699483395 4279898137
-0.3538602889 -0.1220832318 0.6683072448 4283121994
-0.3525287211 -0.1208840907 0.6657924056 4285821817
-0.3511964083 -0.1196902916 0.6632761955 4290032569
-0.3575171232 -0.1920167953 0.6766328812 4289308846
-0.3575998843 -0.1913092881 0.6767895222 4283913820
-0.3576823771 -0.1906012893 0.6769456863 4283846999
-0.3582180440 -0.1901334822 0.6779595017 4283649620
-0.3583001196 -0.1894236058 0.6781148314 4283648591
-0.3588355780 -0.1889521182 0.6791282296 4282793282
-0.3584634662 -0.1880023926 0.6784239411 4282529595
-0.3580908775 -0.1870539933 0.6777187586 4282266423
-0.3581717610 -0.1863430738 0.6778718829 4281476648
-0.3577983081 -0.1853964031 0.6771650910 4281542441
-0.3569702208 -0.1842166930 0.6755978465 4281805872
-0.3534158766 -0.1816392988 0.6688709855 4280884770
-0.3498596549 -0.1790758818 0.6621404886 4280358426
-0.3472104967 -0.1769897789 0.6571267247 4280950563
-0.3455450237 -0.1746875942 0.6539746523 4281279528
-0.3447113037 -0.1735412478 0.6523967981 4280884772
-0.3447866440 -0.1728541553 0.6525393724 4280424221
-0.3448617160 -0.1721666157 0.6526814103 4280753186
-0.3440263867 -0.1710261852 0.6511005163 4281213737
-0.3436455727 -0.1701142490 0.6503797770 4281148457
-0.3441748023 -0.1696524918 0.6513813734 4280885285
-0.3451593220 -0.1694119871 0.6532446742 4280951078
-0.3461439610 -0.1691673994 0.6551082134 4280885285
-0.3471287191 -0.1689187288 0.6569719315 4280819238
-0.3481135964 -0.1686659604 0.6588358879 4280819238
-0.3490985632 -0.1684091091 0.6607000232 4280884774
-0.3500836492 -0.1681481749 0.6625644565 4280884774
-0.3519807160 -0.1683192104 0.6661548018 4280884774
-0.3534222543 -0.1682653725 0.6688830256 4280687395
-0.3544079363 -0.1679894179 0.6707485318 4280424223
-0.3558499515 -0.1679246426 0.6734776497 4280424223
-0.3568359315 -0.1676395684 0.6753436923 4280687395
-0.3569091856 -0.1669234782 0.6754823327 4280884774
-0.3574386537 -0.1664194912 0.6764844060 4280753188
-0.3579680324 -0.1659132242 0.6774863005 4280818981
-0.3584973216 -0.1654046923 0.6784880161 4280884774
-0.3585697114 -0.1646840870 0.6786250472 4280687395
-0.3586418033 -0.1639630497 0.6787614822 4280687395
-0.3591705859 -0.1634495407 0.6797622442 4280950567
-0.3592422307 -0.1627267152 0.6798978448 4280950567
-0.3593135476 -0.1620034724 0.6800328493 4280555809
-0.3593845963 -0.1612797827 0.6801672578 4280161560
-0.3594553471 -0.1605556756 0.6803011894 4280095767
-0.3599832356 -0.1600344777 0.6813002825 4279898388
-0.3600535095 -0.1593085974 0.6814332604 4279766802
-0.3601234555 -0.1585822850 0.6815656424 4279898388
-0.3597354591 -0.1576549858 0.6808313131 4280161560
-0.3593469858 -0.1567291021 0.6800960898 4280556320
-0.3589580655 -0.1558046341 0.6793600321 4280819492
-0.3590265810 -0.1550794244 0.6794897318 4280753699
-0.3590948284 -0.1543537974 0.6796188951 4280753699
-0.3582465351 -0.1532358527 0.6780133843 4280622113
-0.3578558266 -0.1523162276 0.6772739291 4280556320
-0.3574646413 -0.1513980329 0.6765335798 4280753699
-0.3566145897 -0.1502881348 0.6749247909 4280885285
-0.3566808403 -0.1495660245 0.6750501990 4281016617
-0.3567468226 -0.1488435119 0.6751750112 4281213996
-0.3563538492 -0.1479302198 0.6744313240 4281082664
-0.3564191163 -0.1472078413 0.6745548844 4281148457
-0.3564841151 -0.1464850605 0.6746778488 4281345836
-0.3570076823 -0.1459494978 0.6756687760 4281345836
-0.3579900861 -0.1455983222 0.6775280237 4281345323
-0.3589725196 -0.1452430487 0.6793873906 4281279530
-0.3590367138 -0.1445140392 0.6795088649 4280818981
-0.3595598340 -0.1439685076 0.6804989576 4280358430
-0.3600828052 -0.1434207261 0.6814886928 4279897879
-0.3606056571 -0.1428706944 0.6824782491 4279897879
-0.3611283600 -0.1423183978 0.6834674478 4280094745
-0.3611913621 -0.1415837258 0.6835867763 4280094745
-0.3617137074 -0.1410278678 0.6845753193 4280028952
-0.3617761731 -0.1402914822 0.6846935749 4280094745
-0.3613786101 -0.1393774003 0.6839411259 4280226332
-0.3614403903 -0.1386411935 0.6840580702 4280226332
-0.3615019023 -0.1379046142 0.6841744781 4280226332
-0.3611030877 -0.1369931549 0.6834196448 4280357918
-0.3607037961 -0.1360831857 0.6826639771 4280357918
-0.3607642353 -0.1353473663 0.6827783585 4280423711
-0.3608243465 -0.1346111745 0.6828920841 4280555297
-0.3604238331 -0.1337038577 0.6821340919 4280489504
-0.3600228429 -0.1327980608 0.6813752651 4280357918
-0.3596214354 -0.1318937689 0.6806154847 4280357918
-0.3592195511 -0.1309910119 0.6798548698 4280160539
-0.3583565950 -0.1299227774 0.6782216430 4280226332
-0.3579536974 -0.1290240139 0.6774591804 4280226332
-0.3570896089 -0.1279616654 0.6758238077 4280226332
-0.3562249243 -0.1269027293 0.6741873026 4280292125
-0.3558205366 -0.1260104477 0.6734219790 4280292125
-0.3554156721 -0.1251197010 0.6726557612 4280292125
-0.3550103903 -0.1242305115 0.6718887091 4280292125
-0.3541435003 -0.1231824681 0.6702480316 4279766551
-0.3528148532 -0.1219784170 0.6677334309 4282924615
-0.3537917733 -0.1215722188 0.6695823669 4284834921
-0.3515393436 -0.1200589985 0.6653194427 4289177259
-0.3506700993 -0.1190247461 0.6636742949 4293718517
-0.3554797471 -0.1920738071 0.6741941571 4292796904
-0.3555623889 -0.1913692206 0.6743509769 4287729814
-0.3556447923 -0.1906641275 0.6745072007 4283453269
-0.3557269275 -0.1899585575 0.6746629477 4283781206
-0.3562614620 -0.1894932836 0.6756767631 4283583827
-0.3567959368 -0.1890257150 0.6766904593 4283253833
-0.3568774760 -0.1883168817 0.6768450737 4282530110
-0.3569587171 -0.1876075715 0.6769991517 4282134837
-0.3565866053 -0.1866605878 0.6762934327 4281674286
-0.3562140167 -0.1857149303 0.6755868196 4281279269
-0.3558409810 -0.1847705990 0.6748792529 4281345062
-0.3550140262 -0.1835931093 0.6733109355 4281345323
-0.3537329137 -0.1821851879 0.6708812118 4280555807
-0.3515437245 -0.1803168952 0.6667292118 4280226840
-0.3484458327 -0.1779936403 0.6608538032 4280621598
-0.3462538719 -0.1761443019 0.6566966176 4281016358
-0.3454223573 -0.1749934256 0.6551195979 4281016358
-0.3450441957 -0.1740747541 0.6544023752 4280950565
-0.3451196849 -0.1733855754 0.6545455456 4280555807
-0.3447406888 -0.1724687219 0.6538267136 4281016360
-0.3443612158 -0.1715532392 0.6531070471 4281213739
-0.3439812958 -0.1706391275 0.6523864865 4281147944
-0.3440554142 -0.1699508876 0.6525270939 4281016358
-0.3445838392 -0.1694857925 0.6535292864 4281082151
-0.3455668986 -0.1692411304 0.6553937197 4280950565
-0.3465500772 -0.1689923853 0.6572583914 4280884774
-0.3475333750 -0.1687395424 0.6591233015 4281016360
-0.3485167921 -0.1684826165 0.6609883904 4280950567
-0.3495002985 -0.1682215929 0.6628537178 4280884774
-0.3504839242 -0.1679564863 0.6647192240 4280884774
-0.3523781896 -0.1681216955 0.6683118343 4280687395
-0.3538175523 -0.1680628508 0.6710417271 4280358430
-0.3552572429 -0.1679980904 0.6737721562 4280292637
-0.3557860851 -0.1674984545 0.6747751832 4280555809
-0.3563148379 -0.1669965386 0.6757779717 4280753188
-0.3568435013 -0.1664923579 0.6767806411 4280753188
-0.3573720455 -0.1659858972 0.6777830720 4280818981
-0.3574445844 -0.1652663797 0.6779206395 4280884774
-0.3579728603 -0.1647562832 0.6789225340 4280818981
-0.3580448925 -0.1640349627 0.6790592074 4280687652
-0.3581166565 -0.1633132100 0.6791952848 4280753445
-0.3581881523 -0.1625910252 0.6793308854 4280687652
-0.3582593203 -0.1618684083 0.6794658899 4280292894
-0.3587867022 -0.1613506377 0.6804660559 4279898388
-0.3588573933 -0.1606262326 0.6806001663 4279898388
-0.3589278162 -0.1599013954 0.6807336807 4279832595
-0.3589979410 -0.1591761410 0.6808666587 4279766802
-0.3590677679 -0.1584504694 0.6809991002 4279832595
-0.3586803675 -0.1575237066 0.6802644134 4280161560
-0.3582925200 -0.1565983593 0.6795288324 4280490527
-0.3579041958 -0.1556744576 0.6787923574 4280753699
-0.3575154245 -0.1547519714 0.6780549884 4280687906
-0.3575834334 -0.1540279090 0.6781839728 4280687906
-0.3571937978 -0.1531073749 0.6774449944 4280622111
-0.3563462496 -0.1519931853 0.6758375764 4280622111
-0.3554980755 -0.1508822888 0.6742289066 4280753699
-0.3555644751 -0.1501612216 0.6743549109 4280885285
-0.3551729023 -0.1492474228 0.6736122370 4281016871
-0.3552386463 -0.1485264748 0.6737368703 4281148457
-0.3553040624 -0.1478051245 0.6738610268 4281082410
-0.3553692102 -0.1470833868 0.6739845872 4281148203
-0.3554340601 -0.1463612467 0.6741075516 4281148203
-0.3554986417 -0.1456387043 0.6742299795 4281213996
-0.3560210764 -0.1451025307 0.6752209067 4281213739
-0.3570016921 -0.1447499096 0.6770806909 4281082153
-0.3588990569 -0.1447629333 0.6806792021 4280884774
-0.3594214618 -0.1442162544 0.6816699505 4280490016
-0.3599436879 -0.1436673105 0.6826604009 4280160538
-0.3595485985 -0.1427519619 0.6819110513 4280094745
-0.3605290949 -0.1423815340 0.6837706566 4280094746
-0.3605920672 -0.1416465491 0.6838900447 4280094746
-0.3611135781 -0.1410904676 0.6848791838 4280160539
-0.3616349399 -0.1405321211 0.6858679652 4280160539
-0.3612381518 -0.1396167129 0.6851154566 4280488734
-0.3612999916 -0.1388792694 0.6852326989 4280554527
-0.3609023392 -0.1379659176 0.6844785810 4280423711
-0.3609634936 -0.1372286528 0.6845945120 4280489504
-0.3605650067 -0.1363173723 0.6838387847 4280489504
-0.3606254458 -0.1355803013 0.6839534044 4280555297
-0.3606855869 -0.1348428577 0.6840674877 4280621090
-0.3598263264 -0.1337633878 0.6824378371 4280621090
-0.3594260812 -0.1328572035 0.6816787124 4280489504
-0.3590253592 -0.1319525391 0.6809187531 4280357918
-0.3590839803 -0.1312174052 0.6810298562 4280292125
-0.3586824238 -0.1303148419 0.6802682877 4280292125
-0.3582804203 -0.1294137985 0.6795058846 4280292125
-0.3583379388 -0.1286794841 0.6796149611 4280292125
-0.3574750125 -0.1276163310 0.6779783964 4280292125
-0.3566114902 -0.1265565902 0.6763406396 4280357918
-0.3557473719 -0.1255002767 0.6747017503 4280423711
-0.3553429544 -0.1246088222 0.6739347577 4280423711
-0.3549380600 -0.1237189025 0.6731668711 4279634964
-0.3540723026 -0.1226710156 0.6715248823 4282135098
-0.3536664546 -0.1217851415 0.6707550883 4283387475
-0.3518784046 -0.1204279438 0.6673640013 4288058778
-0.3510107994 -0.1193913519 0.6657184958 4293455344
-0.3535292149 -0.1914231032 0.6719101667 4292138974
-0.3536114693 -0.1907209456 0.6720665693 4286413954
-0.3536934853 -0.1900182813 0.6722224355 4282992718
-0.3537752330 -0.1893151402 0.6723777652 4283912792
-0.3543086350 -0.1888523996 0.6733915210 4283649620
-0.3543899357 -0.1881473809 0.6735460758 4282924868
-0.3549231291 -0.1876809597 0.6745594144 4282266938
-0.3545517623 -0.1867358983 0.6738536358 4281805872
-0.3546322882 -0.1860294342 0.6740067005 4281213735
-0.3547125161 -0.1853224784 0.6741591692 4281213476
-0.3538874090 -0.1841440946 0.6725909710 4281213476
-0.3530616164 -0.1829688549 0.6710215211 4281279532
-0.3522351682 -0.1817967445 0.6694507599 4280621602
-0.3500494957 -0.1799294800 0.6652967334 4280555807
-0.3474096060 -0.1778389215 0.6602793932 4280687393
-0.3452212811 -0.1759897321 0.6561203003 4281016358
-0.3443911374 -0.1748392880 0.6545425653 4280950565
-0.3444668055 -0.1741503030 0.6546863914 4281279532
-0.3445422351 -0.1734608710 0.6548297405 4281082153
-0.3450708091 -0.1729983091 0.6558343768 4281279532
-0.3442387283 -0.1718542129 0.6542528868 4281279532
-0.3438595831 -0.1709388196 0.6535323262 4281082151
-0.3439337313 -0.1702494025 0.6536732316 4281082151
-0.3444614708 -0.1697832346 0.6546761990 4281213737
-0.3449890912 -0.1693148017 0.6556790471 4280950565
-0.3459706903 -0.1690659821 0.6575446725 4280818981
-0.3469524086 -0.1688130647 0.6594104767 4281082153
-0.3479342461 -0.1685560495 0.6612765193 4281081640
-0.3489161730 -0.1682949513 0.6631427407 4281015847
-0.3503526151 -0.1682479680 0.6658728719 4280950054
-0.3517893851 -0.1681950688 0.6686034799 4280818468
-0.3532264233 -0.1681362391 0.6713347435 4280490016
-0.3542090356 -0.1678559929 0.6732022762 4280424223
-0.3551917672 -0.1675716490 0.6750700474 4280621602
-0.3557197154 -0.1670695394 0.6760734320 4280753188
-0.3557925522 -0.1663524508 0.6762118936 4280753188
-0.3563202024 -0.1658467203 0.6772147417 4280687395
-0.3568477631 -0.1653387100 0.6782173514 4280687652
-0.3569199443 -0.1646184623 0.6783545613 4280819238
-0.3574472070 -0.1641068161 0.6793566346 4280819238
-0.3575189114 -0.1633847803 0.6794929504 4280753445
-0.3575903177 -0.1626622975 0.6796286702 4280556066
-0.3576614559 -0.1619393975 0.6797638535 4280227101
-0.3577322960 -0.1612160504 0.6798985004 4280095769
-0.3578028679 -0.1604922861 0.6800326109 4280095769
-0.3578731120 -0.1597680897 0.6801661253 4279964181
-0.3579430878 -0.1590434611 0.6802991629 4279766802
-0.3580127656 -0.1583184153 0.6804316044 4279766802
-0.3576260209 -0.1573921889 0.6796965003 4280029974
-0.3572387695 -0.1564673930 0.6789605618 4280556320
-0.3568510711 -0.1555440277 0.6782236695 4280885285
-0.3564629257 -0.1546221077 0.6774859428 4280622113
-0.3560742736 -0.1537016183 0.6767473221 4280622113
-0.3552286029 -0.1525864303 0.6751400232 4280622111
-0.3543822765 -0.1514745653 0.6735314727 4280622111
-0.3535352945 -0.1503659934 0.6719217896 4280753697
-0.3536013961 -0.1496474147 0.6720473766 4280885283
-0.3532102704 -0.1487360150 0.6713040471 4281016871
-0.3532757163 -0.1480175555 0.6714283824 4281082664
-0.3537979424 -0.1474892646 0.6724209189 4281213996
-0.3538628817 -0.1467690915 0.6725443602 4281213996
-0.3539274931 -0.1460485160 0.6726672053 4281016617
-0.3544492126 -0.1455153078 0.6736587286 4281082410
-0.3549707532 -0.1449798495 0.6746500134 4281213739
-0.3564072251 -0.1448139250 0.6773800850 4281147946
-0.3573862910 -0.1444570422 0.6792408824 4281081898
-0.3583653867 -0.1440960467 0.6811017394 4280818726
-0.3593445122 -0.1437309235 0.6829626560 4280489504
-0.3598657846 -0.1431795061 0.6839534044 4280292125
-0.3599290252 -0.1424446106 0.6840735674 4280028953
-0.3604499698 -0.1418896168 0.6850636005 4280028953
-0.3609707355 -0.1413323581 0.6860533953 4280357148
-0.3610332012 -0.1405944377 0.6861721277 4280422941
-0.3610953689 -0.1398561299 0.6862903237 4280554527
-0.3606989384 -0.1389409006 0.6855368018 4280686113
-0.3603020012 -0.1380271614 0.6847824454 4280621090
-0.3599046171 -0.1371149272 0.6840271950 4280555297
-0.3599653244 -0.1363779306 0.6841425300 4280621090
-0.3600257337 -0.1356405467 0.6842573285 4280621090
-0.3596271276 -0.1347309500 0.6834997535 4280686883
-0.3592280447 -0.1338228732 0.6827412844 4280752676
-0.3588285148 -0.1329163015 0.6819819212 4280621090
-0.3588874638 -0.1321802735 0.6820939779 4280357918
-0.3584870696 -0.1312758029 0.6813330054 4280292125
-0.3590044081 -0.1307071596 0.6823162436 4280357918
-0.3586032689 -0.1298038512 0.6815538406 4280423711
-0.3577424288 -0.1287368089 0.6799177527 4280423711
-0.3564217091 -0.1275088936 0.6774076223 4280423711
-0.3551002145 -0.1262862682 0.6748960018 4280489504
-0.3560752273 -0.1258811057 0.6767491102 4280555297
-0.3556716740 -0.1249873713 0.6759821177 4280489504
-0.3548080623 -0.1239346489 0.6743407249 4279503378
-0.3539438546 -0.1228853613 0.6726982594 4281871926
-0.3535387814 -0.1219981685 0.6719284058 4282664006
-0.3522136509 -0.1207971349 0.6694098711 4286743172
-0.3513476849 -0.1197582036 0.6677640080 4292534242
-0.3515824378 -0.1907717139 0.6696237326 4290560455
-0.3516643345 -0.1900719702 0.6697797179 4284966250
-0.3521969020 -0.1896145344 0.6707940698 4283189839
-0.3522783816 -0.1889129132 0.6709492207 4283977556
-0.3523595929 -0.1882108152 0.6711038947 4283845970
-0.3524405360 -0.1875082403 0.6712580323 4282266423
-0.3529725671 -0.1870443523 0.6722713709 4281871665
-0.3526015878 -0.1861016154 0.6715648174 4281674288
-0.3526817262 -0.1853975952 0.6717174649 4281411116
-0.3527615964 -0.1846930832 0.6718695760 4281411629
-0.3523894250 -0.1837525219 0.6711606979 4281214250
-0.3515648842 -0.1825786084 0.6695902944 4281147944
-0.3507396877 -0.1814078242 0.6680186391 4280753186
-0.3490096331 -0.1797744632 0.6647235751 4280555807
-0.3463741541 -0.1776839495 0.6597040296 4280687393
-0.3446417451 -0.1760659516 0.6564044952 4280950565
-0.3438130617 -0.1749150455 0.6548261642 4281213737
-0.3438886702 -0.1742257923 0.6549701691 4281279530
-0.3439640403 -0.1735360920 0.6551136971 4281411116
-0.3444918096 -0.1730733663 0.6561188698 4281411116
-0.3436611593 -0.1719288081 0.6545368433 4281411116
-0.3432827294 -0.1710130572 0.6538161039 4281147944
-0.3438098133 -0.1705480665 0.6548199654 4281016358
-0.3443368077 -0.1700808257 0.6558236480 4281082153
-0.3448637128 -0.1696113050 0.6568272710 4281147946
-0.3453905582 -0.1691395193 0.6578306556 4281082153
-0.3463706970 -0.1688865274 0.6596974134 4281147946
-0.3473509252 -0.1686294377 0.6615644097 4280950565
-0.3483312726 -0.1683682501 0.6634315848 4280950565
-0.3497653902 -0.1683212817 0.6661629677 4280818979
-0.3511998057 -0.1682683825 0.6688949466 4280555807
-0.3521806598 -0.1679930687 0.6707630754 4280358941
-0.3536155522 -0.1679292172 0.6734959483 4280424734
-0.3541426659 -0.1674301177 0.6744999290 4280490527
-0.3546696901 -0.1669287533 0.6755036712 4280556320
-0.3551965952 -0.1664251089 0.6765072346 4280687652
-0.3557234108 -0.1659191847 0.6775106192 4280687652
-0.3562501371 -0.1654109806 0.6785138249 4280819238
-0.3563222885 -0.1646904498 0.6786512136 4280885031
-0.3563941419 -0.1639694721 0.6787880659 4280885031
-0.3569203615 -0.1634562910 0.6797903180 4280885031
-0.3569917381 -0.1627335250 0.6799262762 4280621859
-0.3570628166 -0.1620103270 0.6800616384 4280227101
-0.3571335971 -0.1612866968 0.6801964641 4280095769
-0.3572040796 -0.1605626345 0.6803306937 4279964183
-0.3572742939 -0.1598381549 0.6804644465 4279898390
-0.3568890095 -0.1589105427 0.6797305942 4279832597
-0.3565032184 -0.1579843611 0.6789958477 4279766804
-0.3561170101 -0.1570596099 0.6782602668 4280095769
-0.3557302952 -0.1561362892 0.6775237322 4280622113
-0.3553431332 -0.1552143991 0.6767863631 4280885285
-0.3544998467 -0.1540958732 0.6751801968 4280687906
-0.3541116714 -0.1531777829 0.6744408607 4280622113
-0.3532671928 -0.1520649195 0.6728324890 4280556320
-0.3524220586 -0.1509553641 0.6712228656 4280556320
-0.3515763283 -0.1498491168 0.6696120501 4280687906
-0.3511860371 -0.1489395946 0.6688687205 4280819492
-0.3507952690 -0.1480315477 0.6681244969 4280950824
-0.3513165712 -0.1475080848 0.6691173315 4280950824
-0.3518377542 -0.1469823718 0.6701099873 4280885031
-0.3519023657 -0.1462647021 0.6702330709 4281016617
-0.3524232209 -0.1457353979 0.6712250710 4281082410
-0.3529439270 -0.1452038437 0.6722168326 4281082410
-0.3543778360 -0.1450438648 0.6749478579 4281082153
-0.3553552330 -0.1446918994 0.6768093705 4281213739
-0.3563326299 -0.1443358213 0.6786709428 4281411118
-0.3573100567 -0.1439756304 0.6805325150 4281345325
-0.3578305244 -0.1434281170 0.6815237999 4281082153
-0.3583508432 -0.1428783536 0.6825147867 4280292637
-0.3588710129 -0.1423263252 0.6835055351 4280226844
-0.3593910336 -0.1417720467 0.6844959855 4280358430
-0.3599109352 -0.1412155032 0.6854861975 4280226331
-0.3604306877 -0.1406567097 0.6864761114 4280357917
-0.3604927957 -0.1399181038 0.6865943670 4280489503
-0.3605546057 -0.1391791105 0.6867121458 4280423710
-0.3601585031 -0.1382640451 0.6859576702 4280489504
-0.3597618937 -0.1373504847 0.6852023005 4280555297
-0.3598226309 -0.1366122365 0.6853179932 4280489504
-0.3598830700 -0.1358736157 0.6854330897 4280555297
-0.3599431813 -0.1351346225 0.6855475903 4280686883
-0.3590869606 -0.1340532899 0.6839168668 4280752676
-0.3586882353 -0.1331453919 0.6831574440 4280686883
-0.3582890332 -0.1322390288 0.6823971272 4280686883
-0.3583476245 -0.1315023303 0.6825087070 4280489504
-0.3584059179 -0.1307652742 0.6826196909 4280423711
-0.3580054939 -0.1298615932 0.6818570495 4280357918
-0.3580630720 -0.1291247755 0.6819667220 4280357918
-0.3567447364 -0.1278944314 0.6794558167 4280489504
-0.3558842540 -0.1268328428 0.6778169870 4280489504
-0.3554818630 -0.1259371787 0.6770505905 4280555297
-0.3555377722 -0.1252046227 0.6771570444 4280621090
-0.3546757400 -0.1241504997 0.6755151749 4279963929
-0.3542719781 -0.1232594773 0.6747462153 4280753445
-0.3534088135 -0.1222112924 0.6731022596 4281412658
-0.3534631431 -0.1214821041 0.6732056737 4286018168
-0.3525989354 -0.1204389334 0.6715597510 4292269530
-0.3500894606 -0.1903643012 0.6681936979 4289507254
-0.3501710892 -0.1896660924 0.6683494449 4284242527
-0.3502524197 -0.1889674067 0.6685047150 4283255632
-0.3503335118 -0.1882682145 0.6686595082 4283911763
-0.3508647382 -0.1878096461 0.6696733832 4283385419
-0.3509454131 -0.1871085912 0.6698273420 4281740592
-0.3510257900 -0.1864070594 0.6699808240 4281477420
-0.3511059284 -0.1857050508 0.6701337695 4281609008
-0.3507349789 -0.1847650707 0.6694257259 4281543215
-0.3508144915 -0.1840630025 0.6695774794 4281542961
-0.3504427075 -0.1831247807 0.6688678861 4281148203
-0.3496192992 -0.1819531024 0.6672963500 4281213737
-0.3492464721 -0.1810184419 0.6665847301 4280884772
-0.3475192189 -0.1793862134 0.6632879972 4280818979
-0.3453394473 -0.1775287092 0.6591276526 4280884772
-0.3440614641 -0.1761420965 0.6566883922 4281082151
-0.3432342410 -0.1749907285 0.6551095247 4281345323
-0.3433097899 -0.1743012220 0.6552537680 4281476909
-0.3433850706 -0.1736112535 0.6553974748 4281476909
-0.3439120352 -0.1731483638 0.6564031839 4281213739
-0.3430828452 -0.1720033437 0.6548206210 4281279532
-0.3427051306 -0.1710872203 0.6540996432 4281213739
-0.3432313800 -0.1706220657 0.6551040411 4281213739
-0.3437575400 -0.1701546460 0.6561083198 4281279532
-0.3442836404 -0.1696849614 0.6571124792 4281213739
-0.3452621698 -0.1694350690 0.6589801311 4281082153
-0.3457882106 -0.1689599156 0.6599841118 4281082153
-0.3467668593 -0.1687027514 0.6618520617 4280753186
-0.3477456272 -0.1684414893 0.6637201309 4280884772
-0.3491773903 -0.1683945209 0.6664528847 4280884772
-0.3506094515 -0.1683416367 0.6691861749 4280753186
-0.3515887260 -0.1680662334 0.6710551977 4280753186
-0.3530212641 -0.1680023968 0.6737894416 4280753186
-0.3535475433 -0.1675031036 0.6747938991 4280687393
-0.3540737629 -0.1670015454 0.6757982373 4280687393
-0.3541463912 -0.1662847996 0.6759368777 4280687652
-0.3546723127 -0.1657796055 0.6769406796 4280753445
-0.3551981151 -0.1652721316 0.6779442430 4280885031
-0.3557238281 -0.1647623777 0.6789476275 4280950824
-0.3557956219 -0.1640411168 0.6790846586 4280885031
-0.3558671176 -0.1633194238 0.6792211533 4280819238
-0.3559383452 -0.1625972986 0.6793570518 4280556066
-0.3560092747 -0.1618747264 0.6794924140 4280292894
-0.3560799062 -0.1611517370 0.6796272397 4280161562
-0.3561502695 -0.1604283154 0.6797615290 4279964183
-0.3562203050 -0.1597044617 0.6798952818 4279964183
-0.3562901020 -0.1589801759 0.6800284386 4279964183
-0.3559050262 -0.1580536216 0.6792935133 4279964183
-0.3550648689 -0.1569275558 0.6776899695 4280227355
-0.3542240858 -0.1558047682 0.6760851741 4280622113
-0.3529278338 -0.1544861943 0.6736111045 4280687906
-0.3525405824 -0.1535690576 0.6728719473 4280490527
-0.3521528542 -0.1526533812 0.6721318960 4280490527
-0.3508545160 -0.1513465345 0.6696538925 4280687906
-0.3500105441 -0.1502402276 0.6680430174 4280753699
-0.3487106860 -0.1489427835 0.6655620933 4280884772
-0.3487759829 -0.1482310593 0.6656867266 4280950565
-0.3488410115 -0.1475189328 0.6658108830 4281082151
-0.3493612409 -0.1469980627 0.6668037772 4281082151
-0.3498813510 -0.1464749277 0.6677964926 4281016617
-0.3504013419 -0.1459495425 0.6687889099 4281213996
-0.3509211838 -0.1454218924 0.6697811484 4281213996
-0.3514409065 -0.1448919922 0.6707731485 4281148203
-0.3533282578 -0.1449208260 0.6743753552 4281082153
-0.3543039560 -0.1445696801 0.6762376428 4281016360
-0.3552796841 -0.1442143917 0.6780999303 4281147946
-0.3562554717 -0.1438549906 0.6799623370 4281608497
-0.3572312593 -0.1434914619 0.6818248034 4281411118
-0.3577507734 -0.1429414749 0.6828163266 4280621602
-0.3578137159 -0.1422078460 0.6829364896 4280358430
-0.3583328724 -0.1416542679 0.6839273572 4280358430
-0.3588518500 -0.1410984397 0.6849179268 4280357917
-0.3598273396 -0.1407189369 0.6867797971 4280423710
-0.3594326973 -0.1398023814 0.6860265732 4280555296
-0.3594943881 -0.1390640140 0.6861442924 4280489503
-0.3595557809 -0.1383252740 0.6862614155 4280423711
-0.3596168458 -0.1375861615 0.6863780022 4280489504
-0.3592205942 -0.1366727799 0.6856216788 4280423711
-0.3592809737 -0.1359338462 0.6857369542 4280555297
-0.3593410552 -0.1351945549 0.6858516335 4280818469
-0.3584863245 -0.1341127604 0.6842202544 4280950055
-0.3580882847 -0.1332044750 0.6834605336 4280818469
-0.3576898277 -0.1322977245 0.6827000380 4280752676
-0.3577483594 -0.1315607280 0.6828117371 4280555297
-0.3578065932 -0.1308233589 0.6829228997 4280555297
-0.3574068844 -0.1299192905 0.6821600199 4280555297
-0.3570067286 -0.1290167570 0.6813962460 4280489504
-0.3561483622 -0.1279512942 0.6797578931 4280489504
-0.3552893698 -0.1268892437 0.6781184077 4280555297
-0.3548876941 -0.1259932071 0.6773517728 4280555297
-0.3554015756 -0.1254219711 0.6783325672 4280621090
-0.3540830016 -0.1242057607 0.6758159399 4279963672
-0.3541381061 -0.1234740987 0.6759210825 4280161051
-0.3537347317 -0.1225833073 0.6751511693 4279701527
-0.3533308804 -0.1216940731 0.6743803620 4285030760
-0.3543016016 -0.1212770715 0.6762331128 4291480014
-0.3485171795 -0.1906525940 0.6666058898 4293125099
-0.3481495380 -0.1897116154 0.6659026742 4288124831
-0.3482307792 -0.1890158355 0.6660580635 4283649620
-0.3483117223 -0.1883195788 0.6662129164 4283518034
-0.3483924568 -0.1876228303 0.6663672924 4283583568
-0.3489225209 -0.1871667951 0.6673811674 4282662466
-0.3490028083 -0.1864681840 0.6675347686 4281411629
-0.3490828276 -0.1857690960 0.6676878333 4281345836
-0.3491626084 -0.1850695163 0.6678403616 4281609008
-0.3492420912 -0.1843694597 0.6679924130 4281674801
-0.3488711715 -0.1834322512 0.6672829390 4281542704
-0.3489500284 -0.1827321351 0.6674337983 4281213739
-0.3485782444 -0.1817966849 0.6667227149 4281082153
-0.3477555513 -0.1806285977 0.6651491523 4280753188
-0.3464816511 -0.1792305708 0.6627125144 4280753188
-0.3443055153 -0.1773732007 0.6585502625 4280884774
-0.3434804082 -0.1762181967 0.6569721103 4280950567
-0.3431055248 -0.1752967089 0.6562550068 4281213739
-0.3427301347 -0.1743765771 0.6555370688 4281345325
-0.3432564437 -0.1739148796 0.6565436721 4281279532
-0.3433314860 -0.1732232869 0.6566872597 4281213739
-0.3429550529 -0.1723045260 0.6559672356 4281147946
-0.3421267569 -0.1711613238 0.6543830037 4281213739
-0.3426521719 -0.1706960052 0.6553879380 4281213739
-0.3431775272 -0.1702284068 0.6563927531 4281147946
-0.3441544473 -0.1699816287 0.6582612991 4281082153
-0.3446797431 -0.1695085764 0.6592660546 4281082153
-0.3452049494 -0.1690332592 0.6602706313 4281082153
-0.3461820185 -0.1687760204 0.6621394753 4280884772
-0.3471592069 -0.1685146689 0.6640084982 4280950565
-0.3481364846 -0.1682492048 0.6658777595 4281016358
-0.3495661020 -0.1681972444 0.6686121821 4281016358
-0.3509960175 -0.1681393385 0.6713471413 4281082151
-0.3519738019 -0.1678597480 0.6732172966 4281082151
-0.3529516757 -0.1675760299 0.6750876904 4281016358
-0.3530244529 -0.1668603569 0.6752268672 4280884772
-0.3535496294 -0.1663572490 0.6762313843 4280950567
-0.3536219299 -0.1656397730 0.6763697267 4280950567
-0.3541468382 -0.1651330292 0.6773737073 4281016360
-0.3546716273 -0.1646240056 0.6783774495 4281082153
-0.3547432721 -0.1639033854 0.6785144806 4281016360
-0.3548146188 -0.1631823182 0.6786509752 4280884774
-0.3548856974 -0.1624608189 0.6787868738 4280621602
-0.3549564779 -0.1617389023 0.6789222360 4280424223
-0.3550269604 -0.1610165387 0.6790570617 4280292894
-0.3550971746 -0.1602937430 0.6791913509 4280095515
-0.3551670909 -0.1595705301 0.6793251038 4280161308
-0.3547830284 -0.1586440206 0.6785905361 4280161308
-0.3543984890 -0.1577189267 0.6778550148 4280095769
-0.3535596430 -0.1565942466 0.6762505770 4280358941
-0.3522661924 -0.1552727520 0.6737765670 4280818979
-0.3509719372 -0.1539563984 0.6713010669 4280884772
-0.3496768475 -0.1526452005 0.6688240170 4280818979
-0.3483809829 -0.1513391435 0.6663453579 4280818979
-0.3470842838 -0.1500382572 0.6638652086 4281016358
-0.3453324139 -0.1485470682 0.6605144143 4281082151
-0.3444885015 -0.1474519670 0.6589002609 4281082151
-0.3440985382 -0.1465537995 0.6581543684 4281213737
-0.3446173966 -0.1460424215 0.6591467857 4281345323
-0.3455908298 -0.1457205266 0.6610087156 4281345323
-0.3465643525 -0.1453945041 0.6628707051 4281279789
-0.3470830023 -0.1448745131 0.6638627648 4281477168
-0.3480565250 -0.1445411891 0.6657248139 4281411375
-0.3494851291 -0.1443917602 0.6684572697 4281345582
-0.3513691127 -0.1444234252 0.6720607281 4281345325
-0.3527981937 -0.1442610770 0.6747941375 4280950567
-0.3542275131 -0.1440927535 0.6775279641 4280950567
-0.3552016020 -0.1437341422 0.6793911457 4281740083
-0.3561757505 -0.1433714032 0.6812543273 4281608497
-0.3566943407 -0.1428221315 0.6822462678 4280818981
-0.3572128117 -0.1422706097 0.6832379103 4280490016
-0.3577311337 -0.1417168230 0.6842293143 4280490016
-0.3582493067 -0.1411607713 0.6852204800 4280555297
-0.3592232168 -0.1407811195 0.6870832443 4280555297
-0.3592852354 -0.1400418878 0.6872018576 4280489504
-0.3588909209 -0.1391255111 0.6864476800 4280489504
-0.3589522541 -0.1383864582 0.6865649819 4280423711
-0.3590132892 -0.1376470327 0.6866816878 4280423711
-0.3586177528 -0.1367332786 0.6859251857 4280423711
-0.3586780727 -0.1359940320 0.6860405803 4280621090
-0.3582817018 -0.1350823492 0.6852824092 4280950055
-0.3578848541 -0.1341721714 0.6845234036 4281147434
-0.3574875593 -0.1332635134 0.6837634444 4281015848
-0.3575464487 -0.1325256228 0.6838760972 4280884262
-0.3576050103 -0.1317873746 0.6839880943 4280686883
-0.3576632738 -0.1310487688 0.6840995550 4280621090
-0.3572643697 -0.1301433742 0.6833365560 4280686883
-0.3568650186 -0.1292395145 0.6825727224 4280621090
-0.3564651906 -0.1283371747 0.6818079948 4280555297
-0.3556078374 -0.1272727847 0.6801681519 4280555297
-0.3556641936 -0.1265371293 0.6802759171 4280621090
-0.3552630246 -0.1256394088 0.6795085669 4280555297
-0.3557759821 -0.1250647455 0.6804897189 4280029465
-0.3549166620 -0.1240084320 0.6788461208 4279963672
-0.3545142114 -0.1231144145 0.6780763268 4280096285
-0.3541112840 -0.1222219542 0.6773056984 4285622897
-0.3537079096 -0.1213310584 0.6765341759 4290887620
-0.3465806842 -0.1899968684 0.6643131971 4292532703
-0.3462134302 -0.1890582293 0.6636092663 4286742919
-0.3467428386 -0.1886088848 0.6646240354 4283386446
-0.3468235433 -0.1879141629 0.6647787094 4283452239
-0.3469039500 -0.1872189492 0.6649328470 4283320396
-0.3469841480 -0.1865232587 0.6650865078 4282267708
-0.3475130200 -0.1860674769 0.6661002636 4281411629
-0.3475927711 -0.1853699237 0.6662531495 4281477422
-0.3476722538 -0.1846718937 0.6664054990 4281609008
-0.3477514982 -0.1839733720 0.6665573716 4281740594
-0.3473810554 -0.1830375940 0.6658473015 4281476911
-0.3474596441 -0.1823390424 0.6659979820 4281345325
-0.3470883667 -0.1814050227 0.6652863026 4281213737
-0.3467166424 -0.1804723442 0.6645737886 4280621600
-0.3449950218 -0.1788415015 0.6612738967 4280621600
-0.3437222540 -0.1774497032 0.6588342786 4280950565
-0.3428986371 -0.1762942225 0.6572555900 4281147944
-0.3425244093 -0.1753723770 0.6565383077 4281279530
-0.3425999582 -0.1746814251 0.6566830873 4281345325
-0.3426752090 -0.1739900261 0.6568273306 4281345325
-0.3432006240 -0.1735258847 0.6578344107 4281213739
-0.3423744440 -0.1723790318 0.6562508941 4281147946
-0.3419982493 -0.1714612693 0.6555297375 4281082153
-0.3420722485 -0.1707698703 0.6556715965 4280950567
-0.3425967693 -0.1703021079 0.6566769481 4280884774
-0.3435720801 -0.1700552553 0.6585464478 4280884774
-0.3440965712 -0.1695820391 0.6595517397 4281016360
-0.3446209431 -0.1691065431 0.6605568528 4281147946
-0.3455964327 -0.1688492149 0.6624266505 4281082151
-0.3465720415 -0.1685877740 0.6642966270 4281082151
-0.3475477397 -0.1683222502 0.6661667824 4281082151
-0.3489749730 -0.1682702899 0.6689025164 4281147944
-0.3499509692 -0.1679956168 0.6707732677 4281213737
-0.3513787091 -0.1679326892 0.6735098958 4281279530
-0.3519032598 -0.1674339622 0.6745153666 4281213739
-0.3524277210 -0.1669329405 0.6755205989 4281082153
-0.3525001705 -0.1662165374 0.6756594777 4281082153
-0.3530243337 -0.1657118797 0.6766641736 4281016360
-0.3535484076 -0.1652049571 0.6776686907 4280950824
-0.3540723920 -0.1646957397 0.6786730289 4281016617
-0.3541439474 -0.1639748216 0.6788102388 4281016617
-0.3542152643 -0.1632534713 0.6789468527 4280819238
-0.3538337946 -0.1623241156 0.6782156825 4280621859
-0.3539044261 -0.1616028249 0.6783511043 4280424480
-0.3539747596 -0.1608811021 0.6784859300 4280358687
-0.3535920680 -0.1599541456 0.6777523756 4280227101
-0.3536617756 -0.1592324823 0.6778859496 4280292894
-0.3532782495 -0.1583074331 0.6771508455 4280358687
-0.3528942466 -0.1573838294 0.6764147878 4280292894
-0.3516035974 -0.1560594141 0.6739409566 4280490273
-0.3503121138 -0.1547401547 0.6714655161 4280950824
-0.3485665619 -0.1532267779 0.6681196690 4281148203
-0.3468200266 -0.1517204046 0.6647719741 4281213739
-0.3446190655 -0.1500236541 0.6605532765 4281147946
-0.3378816247 -0.1463710517 0.6476392150 4281082151
-0.3388528526 -0.1460701525 0.6495007873 4281147944
-0.3393704295 -0.1455705166 0.6504928470 4281147944
-0.3398878872 -0.1450686306 0.6514847279 4281345323
-0.3396234214 -0.1427859068 0.6509777904 4281477422
-0.3437731266 -0.1437984109 0.6589317322 4281543215
-0.3456529677 -0.1438486278 0.6625350118 4281280043
-0.3466246128 -0.1435147971 0.6643973589 4281280043
-0.3489594162 -0.1437383145 0.6688726544 4281411118
-0.3508402705 -0.1437658966 0.6724778414 4280884774
-0.3527215123 -0.1437855959 0.6760837436 4280818981
-0.3541485071 -0.1436130852 0.6788189411 4281740083
-0.3551209569 -0.1432511508 0.6806828976 4281345325
-0.3556386828 -0.1427025944 0.6816751957 4280753188
-0.3566111028 -0.1423333287 0.6835391521 4280555554
-0.3571285903 -0.1417793185 0.6845310926 4280555554
-0.3576459587 -0.1412230432 0.6855227351 4280555297
-0.3586182892 -0.1408432424 0.6873864532 4280555297
-0.3586802483 -0.1401037127 0.6875052452 4280489504
-0.3587419093 -0.1393637955 0.6876234412 4280489504
-0.3583479524 -0.1384475976 0.6868682504 4280423711
-0.3584089279 -0.1377078593 0.6869851351 4280489504
-0.3580141068 -0.1367937177 0.6862283945 4280489504
-0.3576188385 -0.1358810812 0.6854707003 4280686883
-0.3576787412 -0.1351421028 0.6855855584 4280950055
-0.3572826087 -0.1342315525 0.6848262548 4281147434
-0.3568860292 -0.1333225071 0.6840661168 4281081641
-0.3569448590 -0.1325843036 0.6841788888 4280950055
-0.3574593365 -0.1320141405 0.6851649880 4280752676
-0.3575176299 -0.1312742680 0.6852767467 4280686883
-0.3575755954 -0.1305340528 0.6853878498 4280686883
-0.3567209542 -0.1294623613 0.6837496758 4280621090
-0.3563219309 -0.1285586953 0.6829848886 4280555297
-0.3559224606 -0.1276565790 0.6822191477 4280621090
-0.3559789062 -0.1269187182 0.6823273897 4280621090
-0.3555786014 -0.1260187179 0.6815600991 4280555297
-0.3556343615 -0.1252811104 0.6816669703 4279832086
-0.3561463952 -0.1247030199 0.6826484203 4280095258
-0.3552882969 -0.1236459017 0.6810036302 4281872696
-0.3548862934 -0.1227502227 0.6802331209 4286609792
-0.3544838727 -0.1218560934 0.6794617772 4289571760
-0.3446480036 -0.1893404573 0.6620180607 4291348429
-0.3447288275 -0.1886491477 0.6621733308 4285492852
-0.3448094130 -0.1879573464 0.6623281240 4283518032
-0.3448897004 -0.1872650534 0.6624823809 4283386446
-0.3449697793 -0.1865722835 0.6626361609 4283123015
-0.3454976678 -0.1861204356 0.6636501551 4282070327
-0.3455772996 -0.1854258031 0.6638031602 4281411627
-0.3461050093 -0.1849702895 0.6648167372 4281543213
-0.3461842239 -0.1842737943 0.6649689078 4281674801
-0.3462631702 -0.1835768223 0.6651205420 4281740594
-0.3458932340 -0.1826424748 0.6644099355 4281476911
-0.3459715545 -0.1819454581 0.6645604372 4281542704
-0.3460496068 -0.1812479645 0.6647103429 4281147944
-0.3452295363 -0.1800816506 0.6631351113 4280292635
-0.3444087803 -0.1789184958 0.6615585685 4280226842
-0.3431382477 -0.1775261313 0.6591180563 4280884772
-0.3423160911 -0.1763702035 0.6575387716 4281279530
-0.3419425786 -0.1754479855 0.6568213701 4281279530
-0.3424674869 -0.1749864072 0.6578295827 4281213737
