VERSION 0.7
FIELDS x y z rgba
SIZE 4 4 4 4
TYPE F F F U
COUNT 1 1 1 1
WIDTH 920
HEIGHT 1
VIEWPOINT 0.0 0.0 0.0 1.0 0.0 0.0 0.0
POINTS 920
DATA ascii
-0.2647038400 -0.1499475986 0.5732787848 4289112244
-0.2647637725 -0.1493444443 0.5734085441 4288520107
-0.2648234665 -0.1487408727 0.5735378861 4288256935
-0.2648829520 -0.1481368989 0.5736666918 4288191142
-0.2645339966 -0.1473052055 0.5729109645 4288125349
-0.2641846240 -0.1464749575 0.5721543431 4287138454
-0.2642433047 -0.1458716393 0.5722813606 4284440690
-0.2638932168 -0.1450433880 0.5715231895 4282137935
-0.2639513612 -0.1444401890 0.5716491342 4280032813
-0.2640092969 -0.1438366026 0.5717745423 4280493364
-0.2636581957 -0.1430108994 0.5710142255 4282467154
-0.2637155950 -0.1424074471 0.5711385012 4285164667
-0.2637727857 -0.1418036073 0.5712623596 4285954183
-0.2638297379 -0.1411993802 0.5713856816 4284967288
-0.2638864815 -0.1405947655 0.5715085864 4282072394
-0.2639429867 -0.1399897486 0.5716309547 4282072394
-0.2639992833 -0.1393843442 0.5717529058 4282467151
-0.2640553713 -0.1387785673 0.5718743801 4283388253
-0.2641112208 -0.1381723881 0.5719953179 4285033078
-0.2641668618 -0.1375658363 0.5721158385 4287401626
-0.2646319270 -0.1371712387 0.5731230378 4289901760
-0.2650969326 -0.1367743760 0.5741301179 4291546585
-0.2655618787 -0.1363752484 0.5751370788 4291613143
-0.2656168938 -0.1357643455 0.5752562284 4292007901
-0.2660816610 -0.1353616267 0.5762627721 4293192175
-0.2603517771 -0.1842614263 0.5652129650 4293258999
-0.2604232132 -0.1836838126 0.5653679967 4293193206
-0.2604944706 -0.1831057370 0.5655226707 4293127413
-0.2605655193 -0.1825271696 0.5656769872 4293061620
-0.2606364191 -0.1819481403 0.5658308268 4292930034
-0.2607070804 -0.1813686490 0.5659843087 4292732655
-0.2607775927 -0.1807886660 0.5661373734 4292600556
-0.2608478963 -0.1802082211 0.5662900209 4292403177
-0.2609180212 -0.1796273142 0.5664422512 4292337384
-0.2605858147 -0.1787700504 0.5657210350 4292205798
-0.2606554627 -0.1781890988 0.5658721924 4291876833
-0.2607249022 -0.1776076853 0.5660229921 4291613661
-0.2611966431 -0.1772989929 0.5670470595 4291482075
-0.2612658143 -0.1767157614 0.5671972632 4291350489
-0.2613348067 -0.1761320531 0.5673469901 4291218903
-0.2614035904 -0.1755478829 0.5674963593 4291218903
-0.2614721954 -0.1749632657 0.5676452518 4291349717
-0.2619435787 -0.1746468544 0.5686686635 4291481303
-0.2620118856 -0.1740604192 0.5688169599 4291547096
-0.2620800138 -0.1734735072 0.5689648390 4291612889
-0.2621479332 -0.1728861481 0.5691123009 4291810268
-0.2626190782 -0.1725634038 0.5701351762 4291876061
-0.2622832060 -0.1717100441 0.5694059730 4291941854
-0.2623505592 -0.1711213291 0.5695521832 4291941854
-0.2628214061 -0.1707945019 0.5705744028 4291941854
-0.2628884614 -0.1702039540 0.5707199574 4291876061
-0.2625513971 -0.1693524271 0.5699881911 4291678682
-0.2626179457 -0.1687618941 0.5701326728 4291415510
-0.2626842856 -0.1681709141 0.5702766776 4291086545
-0.2627504468 -0.1675794870 0.5704203248 4290625994
-0.2632207274 -0.1672445089 0.5714412928 4290231236
-0.2632865608 -0.1666512787 0.5715842247 4290033857
-0.2633522153 -0.1660576016 0.5717267394 4289507256
-0.2634176612 -0.1654634923 0.5718688369 4289178291
-0.2634828985 -0.1648689359 0.5720104575 4288849326
-0.2635479569 -0.1642739326 0.5721516609 4288783533
-0.2636127770 -0.1636784822 0.5722924471 4288849326
-0.2636774182 -0.1630825996 0.5724327564 4289112498
-0.2637418509 -0.1624862850 0.5725726485 4289638842
-0.2638060749 -0.1618895233 0.5727120638 4290099393
-0.2638701200 -0.1612923443 0.5728510618 4290691787
-0.2639339268 -0.1606947184 0.5729895830 4291086545
-0.2639975250 -0.1600966603 0.5731276870 4291349717
-0.2640609443 -0.1594981700 0.5732653737 4291152338
-0.2633126974 -0.1584110707 0.5716409087 4290625996
-0.2633754909 -0.1578135639 0.5717772841 4290099652
-0.2634380758 -0.1572156250 0.5719131231 4289770687
-0.2630944252 -0.1563759446 0.5711671114 4289639101
-0.2631565034 -0.1557780951 0.5713018775 4289770174
-0.2632183731 -0.1551797986 0.5714361668 4289112244
-0.2632800341 -0.1545810997 0.5715700388 4288059556
-0.2633414865 -0.1539819688 0.5717034340 4286809489
-0.2634027004 -0.1533824205 0.5718363523 4285625215
-0.2630571723 -0.1525466889 0.5710861683 4285427836
-0.2631178796 -0.1519472301 0.5712180138 4286546317
-0.2631783783 -0.1513473690 0.5713493824 4287862177
-0.2636455595 -0.1509800851 0.5723635554 4288914865
-0.2637057304 -0.1503784657 0.5724942088 4289770174
-0.2637656927 -0.1497764289 0.5726243854 4290362565
-0.2638254464 -0.1491739899 0.5727540851 4290296772
-0.2638849616 -0.1485711336 0.5728833675 4289836221
-0.2635369897 -0.1477395296 0.5721278787 4289704635
-0.2635959983 -0.1471368074 0.5722559690 4289375670
-0.2632472813 -0.1463071853 0.5714989901 4288388775
-0.2633057833 -0.1457045823 0.5716259480 4287664801
-0.2629563808 -0.1448769569 0.5708674192 4286612113
-0.2630143464 -0.1442744881 0.5709933043 4284901495
-0.2630721033 -0.1436716169 0.5711186528 4284440944
-0.2627217174 -0.1428465247 0.5703579187 4284111979
-0.2627789378 -0.1422438025 0.5704821944 4284440944
-0.2628359497 -0.1416406780 0.5706059933 4285493632
-0.2628927529 -0.1410371661 0.5707292557 4286085769
-0.2629493475 -0.1404332668 0.5708521008 4284572528
-0.2630057037 -0.1398289800 0.5709744692 4284111977
-0.2630618513 -0.1392243057 0.5710963607 4285296251
-0.2631177604 -0.1386192292 0.5712177753 4288191143
-0.2631734610 -0.1380137801 0.5713387132 4290625483
-0.2632289529 -0.1374079436 0.5714591742 4291546585
-0.2636930346 -0.1370141506 0.5724666715 4291546586
-0.2637481689 -0.1364066154 0.5725863576 4291283414
-0.2642120719 -0.1360092312 0.5735934973 4291152592
-0.2642668486 -0.1353999823 0.5737123489 4292468452
-0.2586656809 -0.1866377443 0.5629097819 4293258231
-0.2587377131 -0.1860641241 0.5630665421 4293126645
-0.2588095665 -0.1854900122 0.5632229447 4293060852
-0.2596814930 -0.1854870319 0.5651203990 4292929266
-0.2589527369 -0.1843403578 0.5635344982 4292863473
-0.2590240538 -0.1837648302 0.5636896491 4292666349
-0.2594956160 -0.1834719479 0.5647159219 4292600556
-0.2595666647 -0.1828945726 0.5648705363 4292468970
-0.2596375346 -0.1823167205 0.5650247335 4292205798
-0.2597082257 -0.1817383915 0.5651785731 4292008419
-0.2597787082 -0.1811596006 0.5653319359 4291876833
-0.2598490119 -0.1805803329 0.5654849410 4291745247
-0.2595180273 -0.1797228158 0.5647646189 4291745247
-0.2595878541 -0.1791435033 0.5649166107 4291416282
-0.2596574724 -0.1785637289 0.5650681257 4291350489
-0.2597269118 -0.1779834926 0.5652192235 4291350489
-0.2593946457 -0.1771285832 0.5644961596 4291350489
-0.2598652542 -0.1768216044 0.5655202866 4291482075
-0.2599341273 -0.1762399822 0.5656701326 4291547868
-0.2600027919 -0.1756578833 0.5658196211 4291679454
-0.2600713074 -0.1750753224 0.5659686923 4291811040
-0.2605416775 -0.1747619957 0.5669922829 4292008417
-0.2606098950 -0.1741776168 0.5671407580 4292140003
-0.2606779039 -0.1735927910 0.5672888160 4292205798
-0.2607457340 -0.1730074883 0.5674363971 4292337384
-0.2612158656 -0.1726878285 0.5684595108 4292271591
-0.2612833977 -0.1721007079 0.5686064959 4292074212
-0.2613507509 -0.1715131551 0.5687530637 4291810268
-0.2610151172 -0.1706617624 0.5680226088 4291547096
-0.2614848614 -0.1703366637 0.5690448880 4291020752
-0.2615516186 -0.1697477400 0.5691902041 4290560201
-0.2612150609 -0.1688977182 0.5684577823 4289968066
-0.2612813413 -0.1683088094 0.5686019659 4289441722
-0.2613474131 -0.1677194536 0.5687457323 4289046964
-0.2618166804 -0.1673875600 0.5697669983 4288783792
-0.2618824542 -0.1667963862 0.5699101090 4288652204
-0.2619480193 -0.1662047803 0.5700528026 4288652204
-0.2620133758 -0.1656127274 0.5701950788 4288915119
-0.2620785534 -0.1650202423 0.5703368783 4289573049
-0.2621435225 -0.1644272953 0.5704782605 4290165186
-0.2622082829 -0.1638339162 0.5706191659 4290625737
-0.2622728348 -0.1632401049 0.5707597136 4291152081
-0.2623372078 -0.1626458466 0.5708997250 4291744218
-0.2624013424 -0.1620511562 0.5710393786 4291941854
-0.2624652982 -0.1614560336 0.5711785555 4291941854
-0.2625290453 -0.1608604789 0.5713172555 4292073440
-0.2625925839 -0.1602644771 0.5714555383 4291678682
-0.2626559138 -0.1596680582 0.5715933442 4291086547
-0.2627190650 -0.1590711921 0.5717307329 4290625996
-0.2627819777 -0.1584739089 0.5718677044 4290297031
-0.2624396980 -0.1576329321 0.5711228251 4289902273
-0.2625021040 -0.1570357084 0.5712586045 4289441722
-0.2621591091 -0.1561966538 0.5705122352 4289046964
-0.2622210383 -0.1555995047 0.5706469417 4289244344
-0.2622827291 -0.1550019383 0.5707811713 4288981172
-0.2623442113 -0.1544039398 0.5709149837 4288520620
-0.2624054849 -0.1538055390 0.5710483789 4287336346
-0.2624665499 -0.1532067060 0.5711812377 4285625728
-0.2621216476 -0.1523715854 0.5704306364 4284244075
-0.2621822059 -0.1517728567 0.5705624223 4283980903
-0.2622425258 -0.1511736959 0.5706937313 4284244075
-0.2623026669 -0.1505741328 0.5708246231 4284573040
-0.2627687156 -0.1502063125 0.5718388557 4285033591
-0.2628285289 -0.1496050060 0.5719689727 4286349451
-0.2624817789 -0.1487729847 0.5712144375 4287731104
-0.2625410855 -0.1481717825 0.5713434219 4288717999
-0.2626001537 -0.1475701630 0.5714719892 4289441722
-0.2626589835 -0.1469681561 0.5716000199 4289704894
-0.2623109519 -0.1461391598 0.5708426237 4289704894
-0.2619625032 -0.1453116387 0.5700843334 4289572798
-0.2620205283 -0.1447102726 0.5702106357 4289704384
-0.2620783448 -0.1441085190 0.5703364611 4289243831
-0.2621359527 -0.1435063630 0.5704618096 4289572796
-0.2617861927 -0.1426819265 0.5697006583 4289770175
-0.2618432641 -0.1420799047 0.5698248744 4289638589
-0.2619001269 -0.1414775103 0.5699486136 4289638589
-0.2619567811 -0.1408747137 0.5700718760 4289704382
-0.2620131969 -0.1402715296 0.5701946616 4289770688
-0.2620694041 -0.1396679580 0.5703170300 4289375930
-0.2621254027 -0.1390639991 0.5704388618 4289639102
-0.2621811628 -0.1384596527 0.5705602169 4290362825
-0.2622367144 -0.1378549337 0.5706810951 4290494410
-0.2622920573 -0.1372498125 0.5708014965 4290297031
-0.2627551854 -0.1368568242 0.5718093514 4290691790
-0.2632182240 -0.1364615709 0.5728170872 4291415513
-0.2636812627 -0.1360640526 0.5738247037 4292140001
-0.2569080293 -0.1895547807 0.5604393482 4293258744
-0.2569808066 -0.1889856309 0.5605981350 4293192438
-0.2574519813 -0.1887081116 0.5616259575 4293060852
-0.2575245202 -0.1881371140 0.5617842674 4292995059
-0.2571981549 -0.1872752905 0.5610722303 4292929266
-0.2572702467 -0.1867042035 0.5612295270 4292797680
-0.2577411234 -0.1864212304 0.5622567534 4292666094
-0.2578129470 -0.1858483106 0.5624134541 4292468715
-0.2578846216 -0.1852748990 0.5625697374 4292337129
-0.2579560876 -0.1847010255 0.5627256632 4292205543
-0.2580273747 -0.1841266602 0.5628811717 4292205543
-0.2580984831 -0.1835518330 0.5630363226 4292139750
-0.2581694126 -0.1829765290 0.5631910563 4292008164
-0.2586399019 -0.1826831102 0.5642173886 4291876578
-0.2583107054 -0.1818244904 0.5634992719 4291679199
-0.2587810457 -0.1815283448 0.5645253062 4291613406
-0.2584512532 -0.1806705743 0.5638058782 4291613406
-0.2585212588 -0.1800929159 0.5639585853 4291744992
-0.2585910857 -0.1795147806 0.5641108751 4291876578
-0.2586607039 -0.1789361686 0.5642628074 4292073957
-0.2587301433 -0.1783571094 0.5644142628 4292073957
-0.2587993741 -0.1777775735 0.5645653009 4292205543
-0.2588684559 -0.1771975756 0.5647159815 4292402922
-0.2585364878 -0.1763437092 0.5639918447 4292600301
-0.2586050630 -0.1757636815 0.5641414523 4292600301
-0.2586734593 -0.1751831919 0.5642905831 4292600301
-0.2587416470 -0.1746022552 0.5644393563 4292534508
-0.2592109144 -0.1742906421 0.5654630661 4292534763
-0.2592788339 -0.1737078726 0.5656112432 4292271591
-0.2593465745 -0.1731246561 0.5657589436 4292008419
-0.2594141066 -0.1725409776 0.5659062862 4291613661
-0.2598831058 -0.1722230315 0.5669294596 4291021524
-0.2599503696 -0.1716375351 0.5670761466 4290495180
-0.2600174248 -0.1710515767 0.5672224164 4289968836
-0.2600842714 -0.1704651862 0.5673683286 4289639871
-0.2601509392 -0.1698783338 0.5675137043 4289113527
-0.2602174282 -0.1692910194 0.5676587224 4288916148
-0.2602837086 -0.1687032729 0.5678033233 4288981171
-0.2599473894 -0.1678552330 0.5670696497 4289244343
-0.2604156435 -0.1675264239 0.5680911541 4289704894
-0.2600787282 -0.1666793078 0.5673562288 4290165445
-0.2605468333 -0.1663477868 0.5683773160 4290691789
-0.2606121004 -0.1657577902 0.5685197115 4291020754
-0.2606771886 -0.1651673764 0.5686616898 4291810011
-0.2607420683 -0.1645765007 0.5688032508 4292204769
-0.2608067691 -0.1639851928 0.5689443946 4292402405
-0.2608712316 -0.1633934379 0.5690850616 4292336612
-0.2609355152 -0.1628012508 0.5692252517 4292139233
-0.2609996200 -0.1622086316 0.5693650842 4291876061
-0.2610634863 -0.1616155654 0.5695043802 4291349719
-0.2611271441 -0.1610220671 0.5696433187 4290889168
-0.2611906230 -0.1604281366 0.5697817802 4290033859
-0.2616576850 -0.1600808203 0.5708006620 4289770687
-0.2617208362 -0.1594851017 0.5709384084 4289507515
-0.2617838085 -0.1588889658 0.5710757971 4289310136
-0.2618465424 -0.1582923979 0.5712126493 4289375929
-0.2619090974 -0.1576953977 0.5713490844 4289573308
-0.2619714439 -0.1570979655 0.5714851022 4289836480
-0.2616291940 -0.1562585980 0.5707384944 4290033859
-0.2616910040 -0.1556612402 0.5708733797 4290297031
-0.2617526352 -0.1550634652 0.5710077882 4290297031
-0.2618140578 -0.1544652581 0.5711417198 4290033859
-0.2618752420 -0.1538666487 0.5712752342 4289112757
-0.2619362473 -0.1532676071 0.5714083314 4288389034
-0.2619970143 -0.1526681483 0.5715408921 4288520620
-0.2620576024 -0.1520682722 0.5716730356 4288586413
-0.2617128193 -0.1512338817 0.5709209442 4288125862
-0.2617728710 -0.1506340951 0.5710519552 4287138967
-0.2618327439 -0.1500339210 0.5711824894 4285230970
-0.2618923783 -0.1494333148 0.5713126063 4283915110
-0.2615462840 -0.1486019194 0.5705576539 4283586145
-0.2616054118 -0.1480014324 0.5706865788 4283783524
-0.2616643012 -0.1474005431 0.5708150864 4284178282
-0.2613172233 -0.1465716511 0.5700579286 4284836212
-0.2613756061 -0.1459708810 0.5701853037 4285625728
-0.2610278428 -0.1451439857 0.5694266558 4286546831
-0.2610856891 -0.1445433497 0.5695528984 4287336347
-0.2611433566 -0.1439423114 0.5696786642 4288323242
-0.2612007856 -0.1433408707 0.5698039532 4288718000
-0.2612580061 -0.1427390426 0.5699287653 4288454828
-0.2613150179 -0.1421368271 0.5700531602 4288981172
-0.2605588436 -0.1410939842 0.5684035420 4289112758
-0.2614283860 -0.1409312040 0.5703004599 4289112758
-0.2614847422 -0.1403277963 0.5704233646 4288783792
-0.2615408897 -0.1397240013 0.5705458522 4288783792
-0.2615967989 -0.1391198337 0.5706678629 4289046964
-0.2616524994 -0.1385152638 0.5707893372 4289770687
-0.2617079914 -0.1379103214 0.5709103942 4290625996
-0.2617632449 -0.1373049766 0.5710309148 4291415512
-0.2622254789 -0.1369118541 0.5720393062 4292533993
-0.2553704977 -0.1907393932 0.5584383607 4293060852
-0.2554435134 -0.1901732832 0.5585979819 4292995059
-0.2555163503 -0.1896066815 0.5587573051 4292929266
-0.2555890083 -0.1890396029 0.5589161515 4292797680
-0.2560591102 -0.1887651533 0.5599441528 4292666094
-0.2557338178 -0.1879040003 0.5592327714 4292534508
-0.2558059394 -0.1873354763 0.5593904853 4292534508
-0.2562758327 -0.1870569289 0.5604180694 4292468715
-0.2563477159 -0.1864865571 0.5605752468 4292337129
-0.2564194202 -0.1859157085 0.5607320666 4292271336
-0.2564909458 -0.1853443682 0.5608884692 4292139750
-0.2565622628 -0.1847725660 0.5610444546 4292073957
-0.2566334307 -0.1842002869 0.5612000823 4292008164
-0.2567044199 -0.1836275160 0.5613552928 4292008164
-0.2567752302 -0.1830542833 0.5615101457 4292008164
-0.2572446465 -0.1827639341 0.5625367165 4292008164
-0.2581130862 -0.1827537864 0.5644357204 4292073957
-0.2569864988 -0.1813317537 0.5619722009 4292139750
-0.2570565641 -0.1807566285 0.5621253848 4292205543
-0.2575257123 -0.1804608107 0.5631513000 4292337129
-0.2575955093 -0.1798838526 0.5633039474 4292402922
-0.2572656572 -0.1790284365 0.5625826120 4292468715
-0.2573349774 -0.1784514487 0.5627341866 4292731373
-0.2574041188 -0.1778739840 0.5628854036 4292599787
-0.2574730814 -0.1772960573 0.5630361438 4292599787
-0.2575418353 -0.1767176539 0.5631865263 4292599787
-0.2576104105 -0.1761388034 0.5633364916 4292533994
-0.2572786510 -0.1752868891 0.5626110435 4292270822
-0.2573467493 -0.1747080088 0.5627599359 4291941857
-0.2574146688 -0.1741286665 0.5629084110 4291678685
-0.2578828037 -0.1738187820 0.5639321804 4291087317
-0.2579504251 -0.1732376218 0.5640800595 4290824145
-0.2580178678 -0.1726560146 0.5642275214 4290429387
-0.2580851018 -0.1720739603 0.5643745661 4290034629
-0.2585529983 -0.1717577279 0.5653977394 4289639871
-0.2586199641 -0.1711738408 0.5655441880 4289508285
-0.2586867213 -0.1705895215 0.5656901598 4289574078
-0.2587532997 -0.1700047255 0.5658357739 4289639871
-0.2588196993 -0.1694194973 0.5659809113 4290100422
-0.2588858604 -0.1688338220 0.5661256313 4290363594
-0.2589518428 -0.1682476848 0.5662699342 4290889938
-0.2590176463 -0.1676611006 0.5664138198 4291416282
-0.2590832412 -0.1670740694 0.5665572882 4291811040
-0.2591486275 -0.1664866060 0.5667002797 4292008419
-0.2592138350 -0.1658986807 0.5668428540 4292336614
-0.2592788339 -0.1653103232 0.5669850111 4292402407
-0.2593436539 -0.1647215337 0.5671266913 4292139233
-0.2598104179 -0.1643867493 0.5681474805 4291612889
-0.2598749399 -0.1637961566 0.5682885051 4291086545
-0.2599392533 -0.1632051170 0.5684291124 4290625994
-0.2600033283 -0.1626136452 0.5685693026 4290165445
-0.2600672543 -0.1620217413 0.5687090755 4289704894
-0.2601309419 -0.1614293903 0.5688483715 4289441722
-0.2601944506 -0.1608366072 0.5689871907 4289375929
-0.2602577209 -0.1602433920 0.5691255927 4289573308
-0.2603208125 -0.1596497446 0.5692635775 4289968066
-0.2603837252 -0.1590556651 0.5694010854 4290625996
-0.2604463995 -0.1584611684 0.5695381761 4291152340
-0.2605088651 -0.1578662246 0.5696747899 4291481305
-0.2605711520 -0.1572708637 0.5698109865 4291612891
-0.2606332302 -0.1566750705 0.5699467063 4291481305
-0.2606950700 -0.1560788602 0.5700820088 4291349719
-0.2607567310 -0.1554822177 0.5702168345 4291415510
-0.2604144216 -0.1546453983 0.5694682598 4290889166
-0.2604755759 -0.1540488452 0.5696020126 4290691787
-0.2605365217 -0.1534518600 0.5697352290 4290560201
-0.2605972588 -0.1528544575 0.5698680282 4290297029
-0.2606577575 -0.1522566527 0.5700004101 4290099650
-0.2607180774 -0.1516584158 0.5701322556 4289573306
-0.2611824870 -0.1512939781 0.5711477995 4288652204
-0.2612424791 -0.1506939977 0.5712789893 4287138965
-0.2613022327 -0.1500936002 0.5714097023 4285691519
-0.2605526149 -0.1490299553 0.5697704554 4285099382
-0.2606118023 -0.1484306008 0.5698998570 4284902003
-0.2606707513 -0.1478308290 0.5700287819 4284770417
-0.2607294917 -0.1472306699 0.5701572299 4284375659
-0.2603830695 -0.1464024037 0.5693996549 4283783522
-0.2604413033 -0.1458023489 0.5695270300 4283783522
-0.2600941658 -0.1449760795 0.5687679052 4283849317
-0.2601518631 -0.1443761587 0.5688941479 4283980903
-0.2606146932 -0.1439998001 0.5699061751 4284573040
-0.2602666616 -0.1431751400 0.5691450834 4285362556
-0.2603237033 -0.1425740272 0.5692698956 4285954693
-0.2603805661 -0.1419725269 0.5693942308 4286810002
-0.2600315213 -0.1411504298 0.5686309338 4287599516
-0.2604936063 -0.1407683492 0.5696414113 4288915376
-0.2605498135 -0.1401656717 0.5697643161 4289639099
-0.2606057823 -0.1395625919 0.5698867440 4290625994
-0.2606615722 -0.1389591396 0.5700086951 4291679452
-0.2607170939 -0.1383552998 0.5701301694 4292666347
-0.2607724369 -0.1377510726 0.5702511668 4293455863
-0.2540551126 -0.1902189106 0.5569145083 4292797680
-0.2541278005 -0.1896543801 0.5570738316 4292666094
-0.2542003393 -0.1890893728 0.5572327971 4292534508
-0.2542726696 -0.1885238886 0.5573914051 4292468715
-0.2547416091 -0.1882511377 0.5584194064 4292402922
-0.2548137307 -0.1876838058 0.5585774183 4292402922
-0.2548856437 -0.1871159822 0.5587351322 4292468715
-0.2549574077 -0.1865476817 0.5588923693 4292402922
-0.2550289631 -0.1859789044 0.5590492487 4292337129
-0.2551003397 -0.1854096502 0.5592057705 4292337129
-0.2551715672 -0.1848399043 0.5593618751 4292271336
-0.2552425861 -0.1842696965 0.5595175624 4292205543
-0.2553134263 -0.1836990118 0.5596728921 4292205543
-0.2553841174 -0.1831278503 0.5598278046 4292205543
-0.2558524907 -0.1828405708 0.5608545542 4292337129
-0.2555249035 -0.1819841117 0.5601364374 4292402922
-0.2559931576 -0.1816941053 0.5611628890 4292468715
-0.2556649745 -0.1808384806 0.5604434609 4292534508
-0.2561330795 -0.1805457473 0.5614695549 4292600301
-0.2562027574 -0.1799708605 0.5616223216 4292534508
-0.2558736801 -0.1791165024 0.5609009862 4292599787
-0.2559429109 -0.1785415858 0.5610526800 4292533994
-0.2560119033 -0.1779661924 0.5612040162 4292468201
-0.2560807467 -0.1773903370 0.5613548756 4292336615
-0.2561494112 -0.1768140197 0.5615053773 4292205028
-0.2562178671 -0.1762372404 0.5616554618 4292073442
-0.2562861443 -0.1756599844 0.5618051291 4291876063
-0.2563542128 -0.1750822812 0.5619543791 4291612891
-0.2564221323 -0.1745041162 0.5621032119 4291283926
-0.2560903132 -0.1736545861 0.5613758564 4290954961
-0.2561577260 -0.1730764061 0.5615236163 4290560973
-0.2566246688 -0.1727668792 0.5625472069 4290429387
-0.2566918135 -0.1721868813 0.5626944304 4290363594
-0.2567587495 -0.1716064364 0.5628411770 4290363594
-0.2568255067 -0.1710255295 0.5629875064 4290495180
-0.2572922409 -0.1707096696 0.5640105605 4290758352
-0.2573587000 -0.1701269597 0.5641562939 4291153110
-0.2574249804 -0.1695437878 0.5643016100 4291416282
-0.2574910820 -0.1689601690 0.5644464493 4291678684
-0.2575569749 -0.1683761179 0.5645909309 4292007649
-0.2576226592 -0.1677916050 0.5647349358 4292205028
-0.2576881647 -0.1672066450 0.5648785233 4292139235
-0.2577534914 -0.1666212380 0.5650216937 4291876063
-0.2578185797 -0.1660353988 0.5651644468 4291415512
-0.2578835189 -0.1654491127 0.5653067231 4291020754
-0.2579482198 -0.1648623794 0.5654485822 4290823375
-0.2580127418 -0.1642751992 0.5655900240 4290099650
-0.2584784329 -0.1639421582 0.5666108727 4289770685
-0.2585426569 -0.1633531898 0.5667516589 4289507513
-0.2586066723 -0.1627637893 0.5668919683 4289639099
-0.2586705089 -0.1621739417 0.5670319200 4290033857
-0.2587341368 -0.1615836620 0.5671713948 4290428615
-0.2587975562 -0.1609929502 0.5673103929 4291020752
-0.2588607669 -0.1604018062 0.5674489737 4291547096
-0.2589237988 -0.1598102152 0.5675871372 4292139233
-0.2589866221 -0.1592182070 0.5677248240 4292599784
-0.2594514787 -0.1588720828 0.5687438846 4292665577
-0.2595139742 -0.1582782865 0.5688809156 4292270819
-0.2595762908 -0.1576840729 0.5690174699 4292139233
-0.2596383989 -0.1570894271 0.5691536069 4292073440
-0.2597002983 -0.1564943492 0.5692892671 4291349717
-0.2597619593 -0.1558988541 0.5694245100 4290428615
-0.2598234415 -0.1553029269 0.5695592761 4290034627
-0.2594818175 -0.1544667333 0.5688103437 4289310904
-0.2595427930 -0.1538708955 0.5689440370 4289113525
-0.2596035600 -0.1532746255 0.5690771937 4289179318
-0.2596641183 -0.1526779532 0.5692099929 4288916146
-0.2597244680 -0.1520808637 0.5693422556 4288916146
-0.2597846091 -0.1514833421 0.5694741011 4289310134
-0.2598445415 -0.1508854181 0.5696054697 4289441720
-0.2603078485 -0.1505204439 0.5706210732 4288652204
-0.2603674531 -0.1499207616 0.5707517266 4287073172
-0.2600230873 -0.1490891725 0.5699968338 4285954945
-0.2600821555 -0.1484896094 0.5701264143 4285231222
-0.2601410449 -0.1478896290 0.5702554584 4284836464
-0.2601997256 -0.1472892463 0.5703840852 4285033843
-0.2598540485 -0.1464606673 0.5696263313 4285297015
-0.2595079839 -0.1456335634 0.5688676834 4285625980
-0.2595658302 -0.1450338364 0.5689945221 4286481035
-0.2596234679 -0.1444337070 0.5691208839 4287073172
-0.2596808970 -0.1438331753 0.5692467690 4287467930
-0.2593335211 -0.1430091560 0.5684852600 4288586411
-0.2593904138 -0.1424087584 0.5686100125 4289836478
-0.2594470978 -0.1418079883 0.5687342882 4290823373
-0.2590987384 -0.1409865171 0.5679706335 4291547350
-0.2591549158 -0.1403858960 0.5680937767 4292665831
-0.2596158981 -0.1400032938 0.5691042542 4293127150
-0.2527423799 -0.1896978766 0.5553890467 4292797680
-0.2528147399 -0.1891349405 0.5555480719 4292731887
-0.2528869510 -0.1885715276 0.5557067394 4292600301
-0.2529589832 -0.1880076230 0.5558649898 4292534508
-0.2534267902 -0.1877365708 0.5568929911 4292534508
-0.2534985840 -0.1871708333 0.5570507646 4292600301
-0.2539663911 -0.1868961751 0.5580787659 4292468715
-0.2536416054 -0.1860378981 0.5573650599 4292468715
-0.2537128627 -0.1854707152 0.5575216413 4292468715
-0.2537839413 -0.1849030554 0.5576778650 4292468715
-0.2538548410 -0.1843349189 0.5578336120 4292599787
-0.2539255619 -0.1837663054 0.5579890013 4292533994
-0.2539961040 -0.1831972152 0.5581440330 4292468201
-0.2540664673 -0.1826276481 0.5582986474 4292468201
-0.2545337379 -0.1823420823 0.5593254566 4292402922
-0.2546038330 -0.1817706823 0.5594794750 4292402922
-0.2546737492 -0.1811988056 0.5596331358 4292402922
-0.2547434866 -0.1806264669 0.5597864389 4292337129
-0.2548130751 -0.1800536513 0.5599392653 4292402408
-0.2548824251 -0.1794803739 0.5600917339 4292336615
-0.2545538843 -0.1786275208 0.5593697429 4292270821
-0.2546227872 -0.1780541986 0.5595211387 4292270821
-0.2546915114 -0.1774804294 0.5596721768 4292007649
-0.2547600567 -0.1769061834 0.5598227382 4292007649
-0.2548283935 -0.1763314605 0.5599729419 4291941856
-0.2544982731 -0.1754816771 0.5592475533 4291744477
-0.2545661330 -0.1749069393 0.5593966842 4291547098
-0.2546338141 -0.1743317544 0.5595453978 4291283926
-0.2550999224 -0.1740280241 0.5605695844 4290954959
-0.2547686100 -0.1731799841 0.5598416328 4290823373
-0.2548357546 -0.1726034284 0.5599890947 4291021524
-0.2553015649 -0.1722956151 0.5610127449 4290955731
-0.2553684115 -0.1717172414 0.5611596704 4290955729
-0.2554350793 -0.1711384058 0.5613061190 4290955729
-0.2555015385 -0.1705591232 0.5614521503 4291218131
-0.2559671402 -0.1702449918 0.5624753237 4291283924
-0.2560333312 -0.1696638912 0.5626207590 4291349719
-0.2560993135 -0.1690823585 0.5627657771 4291547098
-0.2561651170 -0.1685003638 0.5629103780 4291415512
-0.2562307119 -0.1679179221 0.5630545020 4291612891
-0.2562961280 -0.1673350334 0.5631982684 4291349717
-0.2563613653 -0.1667516977 0.5633415580 4290823373
-0.2564263642 -0.1661679298 0.5634844303 4290494408
-0.2568913400 -0.1658420265 0.5645062327 4290231236
-0.2569560707 -0.1652564555 0.5646484494 4290099652
-0.2566202879 -0.1644139439 0.5639105439 4290165445
-0.2570849657 -0.1640839726 0.5649316311 4290560201
-0.2571491003 -0.1634970754 0.5650725961 4291152338
-0.2572130561 -0.1629097462 0.5652131438 4291678682
-0.2572768033 -0.1623219699 0.5653532147 4292073440
-0.2573403418 -0.1617337614 0.5654928088 4292533991
-0.2574036717 -0.1611451209 0.5656320453 4292731370
-0.2574668229 -0.1605560333 0.5657708049 4292731370
-0.2575297654 -0.1599665284 0.5659090877 4292665577
-0.2575925291 -0.1593765765 0.5660470128 4292336612
-0.2576550543 -0.1587862074 0.5661844015 4291876061
-0.2581188381 -0.1584418118 0.5672035217 4291218131
-0.2577795386 -0.1576041728 0.5664579868 4290560201
-0.2582431138 -0.1572570801 0.5674766302 4289968064
-0.2583049238 -0.1566640735 0.5676124692 4289375927
-0.2583665550 -0.1560706347 0.5677478909 4288981423
-0.2580260634 -0.1552349776 0.5669996738 4288849837
-0.2584891915 -0.1548825055 0.5680173635 4289047732
-0.2581481040 -0.1540478468 0.5672678351 4289310904
-0.2586109936 -0.1536926776 0.5682850480 4289837248
-0.2582693100 -0.1528590322 0.5675342083 4290034627
-0.2583296001 -0.1522639990 0.5676667094 4290166213
-0.2583896816 -0.1516685635 0.5677987337 4290297799
-0.2584495842 -0.1510726959 0.5679303408 4289771455
-0.2585092485 -0.1504764110 0.5680614710 4288718767
-0.2589714527 -0.1501131803 0.5690771341 4288060067
-0.2590308189 -0.1495151520 0.5692075491 4287138965
-0.2586870193 -0.1486851126 0.5684520602 4287073172
-0.2587458491 -0.1480872035 0.5685813427 4287402137
-0.2588044703 -0.1474888772 0.5687102079 4287731102
-0.2588628829 -0.1468901485 0.5688385367 4288520618
-0.2589210868 -0.1462910026 0.5689664483 4289178802
-0.2585756779 -0.1454645395 0.5682074428 4289639353
-0.2586333752 -0.1448655277 0.5683342218 4290626248
-0.2582872510 -0.1440410465 0.5675736666 4291481557
-0.2583444417 -0.1434421837 0.5676993132 4292073694
-0.2584013939 -0.1428429186 0.5678244829 4293060589
-0.2580543160 -0.1420210004 0.5670617223 4293192689
-0.2520429790 -0.1877851486 0.5552072525 4292731887
-0.2521146238 -0.1872214824 0.5553650260 4292600556
-0.2521860898 -0.1866573244 0.5555225015 4292468970
-0.2526527643 -0.1863843650 0.5565505028 4292666349
-0.2527239919 -0.1858183742 0.5567073822 4292600556
-0.2531906664 -0.1855418086 0.5577353835 4292534508
-0.2524701953 -0.1843959242 0.5561482906 4292402922
-0.2529366314 -0.1841175109 0.5571757555 4292402922
-0.2526111901 -0.1832623631 0.5564588904 4292402922
-0.2526814342 -0.1826948822 0.5566135645 4292468715
-0.2531476319 -0.1824123859 0.5576405525 4292468715
-0.2528213263 -0.1815584749 0.5569217801 4292468200
-0.2532874048 -0.1812732518 0.5579484701 4292599786
-0.2533570230 -0.1807029843 0.5581018329 4292599786
-0.2534264624 -0.1801322550 0.5582547784 4292468200
-0.2534957230 -0.1795610487 0.5584073067 4292402407
-0.2535647750 -0.1789893806 0.5585594773 4292336614
-0.2536336780 -0.1784172356 0.5587112308 4292139235
-0.2537023723 -0.1778446287 0.5588625669 4292073442
-0.2537708879 -0.1772715598 0.5590135455 4291744477
-0.2538392544 -0.1766980290 0.5591640472 4291547098
-0.2539073825 -0.1761240214 0.5593141913 4291218903
-0.2535778880 -0.1752748489 0.5585883856 4291021524
-0.2536455691 -0.1747008264 0.5587374568 4290824145
-0.2537130713 -0.1741263419 0.5588861108 4290626766
-0.2537803650 -0.1735514104 0.5590343475 4290626766
-0.2542453706 -0.1732471287 0.5600586534 4290626766
-0.2543123960 -0.1726703793 0.5602063537 4290757582
-0.2543792427 -0.1720931679 0.5603535771 4290889168
-0.2540476918 -0.1712470949 0.5596232414 4291020754
-0.2545123696 -0.1709373891 0.5606468320 4291086547
-0.2545786202 -0.1703588217 0.5607928038 4291283926
-0.2546447217 -0.1697798073 0.5609384179 4291349719
-0.2547106147 -0.1692003310 0.5610835552 4291415512
-0.2551750243 -0.1688843071 0.5621065497 4291415512
-0.2548418343 -0.1680400521 0.5613725781 4291283926
-0.2549071312 -0.1674592346 0.5615164638 4291152340
-0.2549722791 -0.1668779701 0.5616599321 4291086547
-0.2550371885 -0.1662962735 0.5618029833 4291152340
-0.2555011511 -0.1659734547 0.5628249645 4291349719
-0.2555657923 -0.1653899550 0.5629674196 4291612891
-0.2556302547 -0.1648060083 0.5631093383 4291876063
-0.2552949786 -0.1639650166 0.5623708367 4292007649
-0.2557585537 -0.1636367887 0.5633919835 4292270821
-0.2558224201 -0.1630515158 0.5635327101 4292599786
-0.2558860779 -0.1624658257 0.5636729002 4292862958
-0.2559495568 -0.1618796736 0.5638127327 4292797165
-0.2560128272 -0.1612931043 0.5639520884 4292468200
-0.2560758889 -0.1607060879 0.5640910268 4292007649
-0.2561387718 -0.1601186395 0.5642295480 4291283924
-0.2562014461 -0.1595307738 0.5643675923 4290560201
-0.2562639117 -0.1589424610 0.5645051599 4289770685
-0.2563261688 -0.1583537310 0.5646423697 4289178548
-0.2563882470 -0.1577645689 0.5647791028 4288783790
-0.2568508089 -0.1574205607 0.5657980442 4288717997
-0.2569125891 -0.1568296105 0.5659341216 4288849583
-0.2569741309 -0.1562382430 0.5660697222 4289046962
-0.2570354939 -0.1556464583 0.5662048459 4289507767
-0.2570966482 -0.1550542414 0.5663395524 4289968318
-0.2571575940 -0.1544616073 0.5664738417 4290362824
-0.2572183311 -0.1538685560 0.5666075945 4290560203
-0.2572788596 -0.1532750726 0.5667409897 4290494410
-0.2569377422 -0.1524429917 0.5659894943 4290099652
-0.2569977641 -0.1518496126 0.5661217570 4289639101
-0.2570576072 -0.1512558013 0.5662535429 4289112757
-0.2571172118 -0.1506615877 0.5663848519 4288915378
-0.2571766376 -0.1500669718 0.5665157437 4289046964
-0.2576377690 -0.1497054845 0.5675315261 4289245113
-0.2576968372 -0.1491090953 0.5676617026 4289705664
-0.2573536038 -0.1482806206 0.5669056177 4290166213
-0.2574121952 -0.1476843506 0.5670346618 4290560971
-0.2574705482 -0.1470876932 0.5671632290 4291021522
-0.2575287223 -0.1464906037 0.5672913194 4291284694
-0.2575866580 -0.1458931267 0.5674189925 4291745245
-0.2572418153 -0.1450682282 0.5666593909 4292337382
-0.2572992742 -0.1444708705 0.5667858720 4292797417
-0.2573564947 -0.1438731253 0.5669119358 4293126382
-0.2508051395 -0.1867058277 0.5538354516 4292797935
-0.2512707412 -0.1864359528 0.5548636317 4292732142
-0.2513418198 -0.1858720332 0.5550206304 4292797935
-0.2514127493 -0.1853076220 0.5551772118 4292732142
-0.2518782616 -0.1850327700 0.5562052131 4292731887
-0.2515540421 -0.1841773838 0.5554891825 4292666094
-0.2512294054 -0.1833233237 0.5547723174 4292665580
-0.2512995005 -0.1827578992 0.5549271107 4292599787
-0.2513694167 -0.1821920127 0.5550815463 4292599786
-0.2514391541 -0.1816256493 0.5552355051 4292533993
-0.2515087128 -0.1810588241 0.5553891063 4292402407
-0.2515780926 -0.1804915220 0.5555423498 4292402407
-0.2520429492 -0.1802066565 0.5565688610 4292336614
-0.2521120906 -0.1796375215 0.5567215085 4292139235
-0.2521810234 -0.1790679246 0.5568737984 4292007649
-0.2522498071 -0.1784978509 0.5570256114 4291810270
-0.2523183823 -0.1779273152 0.5571770668 4291678684
-0.2523867786 -0.1773563176 0.5573281050 4291481305
-0.2524549961 -0.1767848581 0.5574787855 4290955731
-0.2525230348 -0.1762129366 0.5576289892 4290758352
-0.2525908947 -0.1756405532 0.5577788353 4290495180
-0.2526585758 -0.1750677079 0.5579282641 4290363594
-0.2527260482 -0.1744944006 0.5580772758 4290429387
-0.2527933419 -0.1739206463 0.5582258701 4290626766
-0.2528604567 -0.1733464152 0.5583741069 4290889938
-0.2529273629 -0.1727717370 0.5585218668 4291087317
-0.2529941201 -0.1721966118 0.5586692095 4291415512
-0.2530606687 -0.1716210097 0.5588161945 4291612891
-0.2531270087 -0.1710449755 0.5589627028 4291810270
-0.2531931996 -0.1704684794 0.5591088533 4291941856
-0.2532591820 -0.1698915362 0.5592545271 4291876063
-0.2533249557 -0.1693141311 0.5593998432 4291810270
-0.2537883520 -0.1690011770 0.5604231358 4291678684
-0.2538538873 -0.1684219688 0.5605677962 4291612891
-0.2539191842 -0.1678423285 0.5607120395 4291547098
-0.2539843321 -0.1672622263 0.5608558655 4291547098
-0.2540492713 -0.1666816771 0.5609992743 4291612891
-0.2541140318 -0.1661006957 0.5611422658 4291941856
-0.2541785836 -0.1655192673 0.5612847805 4292205028
-0.2542429268 -0.1649373919 0.5614269376 4292336614
-0.2547056973 -0.1646126807 0.5624487996 4292336614
-0.2543710768 -0.1637723148 0.5617098808 4292270821
-0.2544348538 -0.1631891131 0.5618507266 4292073442
-0.2548973262 -0.1628603488 0.5628719926 4291744477
-0.2545618117 -0.1620214134 0.5621310472 4291152340
-0.2546249926 -0.1614369154 0.5622705817 4290494410
-0.2550871968 -0.1611040831 0.5632912517 4289968064
-0.2551500797 -0.1605177969 0.5634300709 4289507513
-0.2552127540 -0.1599310786 0.5635685325 4289178548
-0.2552752495 -0.1593439132 0.5637065172 4289046962
-0.2553375661 -0.1587563306 0.5638440847 4288915376
-0.2553996444 -0.1581683159 0.5639812350 4289244341
-0.2554615438 -0.1575798690 0.5641179085 4289704892
-0.2555232346 -0.1569909900 0.5642541051 4290297029
-0.2555847168 -0.1564016938 0.5643898845 4290691787
-0.2556460202 -0.1558119655 0.5645252466 4290954959
-0.2557070851 -0.1552218199 0.5646601319 4290955729
-0.2557679713 -0.1546312571 0.5647946000 4291087315
-0.2558286488 -0.1540402621 0.5649285913 4291020754
-0.2558891475 -0.1534488499 0.5650621057 4291020754
-0.2563499510 -0.1530962437 0.5660797358 4290692559
-0.2560094893 -0.1522647738 0.5653278828 4290495180
-0.2560693324 -0.1516721100 0.5654600263 4290495180
-0.2561289966 -0.1510790437 0.5655917525 4290758352
-0.2561884522 -0.1504855454 0.5657230616 4291218901
-0.2562476993 -0.1498916447 0.5658538938 4291679452
-0.2563067377 -0.1492973268 0.5659842491 4291547866
-0.2563655674 -0.1487026066 0.5661141872 4291811038
-0.2564241886 -0.1481074691 0.5662435889 4292074210
-0.2564826012 -0.1475119293 0.5663725734 4292337382
-0.2565407753 -0.1469159722 0.5665011406 4292534761
-0.2565987706 -0.1463196278 0.5666291714 4292797933
-0.2562549114 -0.1454948187 0.5658698678 4293126898
-0.2501041293 -0.1847963333 0.5536453724 4292862958
-0.2501745522 -0.1842330545 0.5538012981 4292862959
-0.2502447963 -0.1836692989 0.5539568067 4292731373
-0.2503148913 -0.1831050664 0.5541118979 4292533994
-0.2503847778 -0.1825403720 0.5542666316 4292468201
-0.2500600815 -0.1816886216 0.5535478592 4292468200
-0.2501294911 -0.1811238676 0.5537015200 4292336614
-0.2501987517 -0.1805586368 0.5538548231 4292270821
-0.2502678335 -0.1799929440 0.5540077090 4292073442
-0.2507315576 -0.1797097772 0.5550342798 4291876063
-0.2508004010 -0.1791422516 0.5551866293 4291744477
-0.2508690357 -0.1785742640 0.5553386211 4291481305
-0.2509374917 -0.1780058146 0.5554901361 4291349719
-0.2510057688 -0.1774368882 0.5556412935 4291349719
-0.2510738671 -0.1768674999 0.5557920337 4291218133
-0.2511417866 -0.1762976497 0.5559424162 4291087317
-0.2512095273 -0.1757273376 0.5560923219 4291153110
-0.2512770593 -0.1751565784 0.5562418699 4291153110
-0.2513444424 -0.1745853424 0.5563910007 4291218903
-0.2514116168 -0.1740136445 0.5565397143 4291547868
-0.2514786124 -0.1734414995 0.5566880107 4291811040
-0.2515454292 -0.1728688926 0.5568358898 4292008419
-0.2516120672 -0.1722958386 0.5569834113 4292140005
-0.2516784966 -0.1717223227 0.5571304560 4292205029
-0.2517447472 -0.1711483598 0.5572771430 4292139236
-0.2518108189 -0.1705739349 0.5574234128 4292139236
-0.2522733510 -0.1702667773 0.5584473014 4292073443
-0.2523391545 -0.1696905494 0.5585929155 4291876064
-0.2520079017 -0.1688479632 0.5578596592 4291744478
-0.2524701655 -0.1685367376 0.5588829517 4291612892
-0.2525354028 -0.1679591537 0.5590273738 4291547099
-0.2526004314 -0.1673811376 0.5591713190 4291547098
-0.2526652813 -0.1668026596 0.5593148470 4291481305
-0.2527299225 -0.1662237495 0.5594580173 4291547098
-0.2527943850 -0.1656443924 0.5596007109 4291678684
-0.2528586686 -0.1650645882 0.5597429872 4291744477
-0.2529227436 -0.1644843370 0.5598847866 4291547098
-0.2529866099 -0.1639036536 0.5600262284 4291152340
-0.2530502975 -0.1633225381 0.5601671934 4290823375
-0.2531138062 -0.1627409756 0.5603077412 4290362824
-0.2531771064 -0.1621589661 0.5604478717 4290099652
-0.2532401979 -0.1615765393 0.5605875850 4289770685
-0.2533031106 -0.1609936655 0.5607268214 4289704892
-0.2533658147 -0.1604103595 0.5608656406 4289836478
-0.2534283400 -0.1598266214 0.5610040426 4289968064
-0.2534906566 -0.1592424512 0.5611419678 4290362822
-0.2539514303 -0.1589073241 0.5621619821 4290823373
-0.2540134490 -0.1583213806 0.5622993112 4291218131
-0.2540752888 -0.1577350050 0.5624361634 4291744475
-0.2541368902 -0.1571481973 0.5625725389 4292139233
-0.2541983128 -0.1565609723 0.5627084970 4292270819
-0.2542595565 -0.1559733152 0.5628440380 4292205796
-0.2543205619 -0.1553852260 0.5629791021 4292205796
-0.2543813884 -0.1547967345 0.5631137490 4292008417
-0.2544420063 -0.1542078108 0.5632479191 4291876831
-0.2549019456 -0.1538596302 0.5642660856 4291745247
-0.2549622357 -0.1532689333 0.5643996000 4291745247
-0.2546226382 -0.1524385214 0.5636478066 4291876833
-0.2546824217 -0.1518479288 0.5637801886 4291876833
-0.2547420263 -0.1512569189 0.5639120936 4291876833
-0.2548014224 -0.1506654918 0.5640435815 4291876833
-0.2548606098 -0.1500736475 0.5641745925 4291942624
-0.2549195886 -0.1494814008 0.5643051863 4292008417
-0.2549783587 -0.1488887370 0.5644352436 4292337382
-0.2546365559 -0.1480628550 0.5636786222 4292600554
-0.2550953031 -0.1477021873 0.5646941066 4292995312
-0.2483350188 -0.1845537126 0.5510840416 4292797680
-0.2484051883 -0.1839933842 0.5512397885 4292731887
-0.2484751791 -0.1834325939 0.5513951182 4292731373
-0.2485450059 -0.1828713268 0.5515500307 4292599787
-0.2486146539 -0.1823095828 0.5517045856 4292402408
-0.2482906282 -0.1814597994 0.5509855747 4292336615
-0.2483598143 -0.1808980107 0.5511391163 4292270822
-0.2488225251 -0.1806215495 0.5521659255 4292270822
-0.2488914728 -0.1800579280 0.5523189306 4292007649
-0.2489602417 -0.1794938296 0.5524715185 4291876063
-0.2490288168 -0.1789292842 0.5526236892 4291744477
-0.2494913638 -0.1786464751 0.5536501408 4291678684
-0.2495597005 -0.1780800968 0.5538017750 4291547098
-0.2496278584 -0.1775132418 0.5539530516 4291481305
-0.2496958375 -0.1769459397 0.5541039109 4291416282
-0.2497636378 -0.1763781607 0.5542543530 4291547868
-0.2498312443 -0.1758099347 0.5544043779 4291547868
-0.2498986721 -0.1752412319 0.5545540452 4291811040
-0.2499659210 -0.1746720821 0.5547032356 4292074212
-0.2500329912 -0.1741024554 0.5548520684 4292205798
-0.2500998676 -0.1735323817 0.5550004840 4292271591
-0.2501665652 -0.1729618609 0.5551485419 4292205798
-0.2502330840 -0.1723908782 0.5552961230 4292074212
-0.2502994239 -0.1718194336 0.5554433465 4291942626
-0.2503655553 -0.1712475419 0.5555900931 4291876064
-0.2504315376 -0.1706751883 0.5557364821 4291678685
-0.2504973114 -0.1701023877 0.5558824539 4291481306
-0.2509587109 -0.1697969586 0.5569064021 4291415513
-0.2510242164 -0.1692223549 0.5570517182 4291415513
-0.2510895431 -0.1686473042 0.5571966767 4291415513
-0.2507585287 -0.1678066999 0.5564621091 4291415513
-0.2516158521 -0.1677600294 0.5583646297 4291481306
-0.2516807020 -0.1671827286 0.5585085154 4291415512
-0.2513489127 -0.1663426012 0.5577722192 4291349719
-0.2514132559 -0.1657653153 0.5579150915 4291283926
-0.2514774501 -0.1651875824 0.5580574870 4291218133
-0.2515414357 -0.1646094173 0.5581994653 4291086547
-0.2516052127 -0.1640308052 0.5583410263 4290889168
-0.2516688108 -0.1634517610 0.5584821701 4290691789
-0.2517322302 -0.1628722697 0.5586228967 4290560203
-0.2517954409 -0.1622923464 0.5587631464 4290625994
-0.2518584430 -0.1617119759 0.5589029789 4290889166
-0.2519212663 -0.1611311734 0.5590423942 4291283924
-0.2519839108 -0.1605499387 0.5591813922 4291810268
-0.2520463467 -0.1599682868 0.5593199134 4292139233
-0.2521085739 -0.1593861878 0.5594580770 4292336612
-0.2521706223 -0.1588036567 0.5595957041 4292599784
-0.2526303232 -0.1584702581 0.5606158376 4292862956
-0.2526920438 -0.1578859538 0.5607528687 4293191921
-0.2527536154 -0.1573012173 0.5608894229 4293191921
-0.2528149486 -0.1567160636 0.5610255599 4292929519
-0.2528761029 -0.1561304778 0.5611612797 4292600554
-0.2529370487 -0.1555444598 0.5612965226 4292403177
-0.2529977858 -0.1549580395 0.5614312887 4292271591
-0.2534568608 -0.1546142846 0.5624500513 4292140005
-0.2535172999 -0.1540260762 0.5625841618 4292008419
-0.2535775304 -0.1534374654 0.5627178550 4291942626
-0.2536375821 -0.1528484225 0.5628510714 4291942626
-0.2532985210 -0.1520195603 0.5620986819 4292008419
-0.2533580661 -0.1514306217 0.5622307658 4292074212
-0.2534174025 -0.1508412659 0.5623624325 4292271589
-0.2534765303 -0.1502514780 0.5624936819 4292534761
-0.2535354495 -0.1496613026 0.5626244545 4292929519
-0.2535941899 -0.1490706950 0.5627547503 4293192691
-0.2471724600 -0.1829217225 0.5498594642 4292600301
-0.2472419590 -0.1823620647 0.5500140786 4292402922
-0.2473112941 -0.1818019301 0.5501683354 4292271338
-0.2477731258 -0.1815290004 0.5511956811 4292139752
-0.2478422225 -0.1809670329 0.5513494015 4292204775
-0.2479111403 -0.1804046035 0.5515027046 4292138982
-0.2475868762 -0.1795566827 0.5507813692 4291941857
-0.2480484396 -0.1792783141 0.5518081784 4291941857
-0.2481168211 -0.1787144840 0.5519602895 4291744992
-0.2481850386 -0.1781501770 0.5521120429 4291810785
-0.2486464977 -0.1778668314 0.5531386137 4291810785
-0.2487144470 -0.1773007065 0.5532897711 4291810785
-0.2487822324 -0.1767341048 0.5534405708 4291810785
-0.2488498241 -0.1761670560 0.5535909534 4291942371
-0.2489172518 -0.1755995303 0.5537409186 4291876578
-0.2489844859 -0.1750315577 0.5538904667 4291876578
-0.2490515411 -0.1744631231 0.5540396571 4291942371
-0.2491184175 -0.1738942116 0.5541884303 4291810785
-0.2491851002 -0.1733248681 0.5543367863 4291613406
-0.2492516041 -0.1727550477 0.5544847250 4291481820
-0.2493179291 -0.1721847802 0.5546323061 4291284441
-0.2493840754 -0.1716140658 0.5547794104 4291152855
-0.2494500279 -0.1710428894 0.5549261570 4291087062
-0.2495158017 -0.1704712510 0.5550724268 4291021269
-0.2495813817 -0.1698991805 0.5552183390 4291087062
-0.2496467680 -0.1693266481 0.5553638339 4291218648
-0.2501071095 -0.1690206826 0.5563878417 4291481820
-0.2501722276 -0.1684463471 0.5565327406 4291613406
-0.2502371669 -0.1678715646 0.5566772223 4291613661
-0.2503018975 -0.1672963202 0.5568212271 4291613661
-0.2507619858 -0.1669840366 0.5578447580 4291613661
-0.2504308522 -0.1661445349 0.5571080446 4291547868
-0.2504950166 -0.1655679643 0.5572508574 4291547868
-0.2505590022 -0.1649909467 0.5573931932 4291482075
-0.2506228089 -0.1644134969 0.5575351119 4291482075
-0.2506864071 -0.1638356149 0.5576766133 4291679454
-0.2507498264 -0.1632572860 0.5578176975 4291942624
-0.2508130670 -0.1626785100 0.5579583645 4292205796
-0.2508760989 -0.1620993167 0.5580985546 4292468200
-0.2509389222 -0.1615196615 0.5582383275 4292797165
-0.2513733208 -0.1574500650 0.5592046976 4292732142
-0.2514345944 -0.1568669677 0.5593410134 4292468970
-0.2514956892 -0.1562834531 0.5594769120 4292271591
-0.2515565455 -0.1556995213 0.5596123338 4292140005
-0.2516172528 -0.1551151574 0.5597473383 4292140005
-0.2516777217 -0.1545303762 0.5598818660 4292140005
-0.2517380118 -0.1539451629 0.5600159764 4292205798
-0.2521958649 -0.1536018103 0.5610345006 4292271591
-0.2522558272 -0.1530148387 0.5611679554 4292468198
-0.2519176304 -0.1521870345 0.5604155660 4292665577
-0.2519771159 -0.1516001523 0.5605478883 4292928749
-0.2520363927 -0.1510128677 0.5606797338 4293126128
-0.2520954609 -0.1504251510 0.5608111620 4293323507
-0.2458724231 -0.1824103296 0.5483222008 4292534510
-0.2459416091 -0.1818522662 0.5484765172 4292337131
-0.2460106313 -0.1812937409 0.5486304164 4292271338
-0.2460794896 -0.1807347387 0.5487839580 4292073959
-0.2465401143 -0.1804621667 0.5498112440 4291942373
-0.2466087192 -0.1799013317 0.5499642491 4292008166
-0.2462849766 -0.1790549159 0.5492422581 4291942371
-0.2467454076 -0.1787782758 0.5502690673 4291942371
-0.2468134910 -0.1782160401 0.5504208803 4291876578
-0.2472738922 -0.1779357791 0.5514476299 4291876578
-0.2473417222 -0.1773717254 0.5515989065 4292008164
-0.2474093735 -0.1768072098 0.5517497659 4291942371
-0.2474768460 -0.1762422323 0.5519002676 4291876578
-0.2479370683 -0.1759556383 0.5529266000 4291942371
-0.2480043024 -0.1753888428 0.5530765057 4291942371
-0.2480713427 -0.1748215854 0.5532259941 4291810785
-0.2477449477 -0.1739777029 0.5524981618 4291613406
-0.2478115261 -0.1734104156 0.5526465774 4291547613
-0.2478779256 -0.1728426814 0.5527946949 4291481820
-0.2479441315 -0.1722745001 0.5529423356 4291547613
-0.2480101585 -0.1717058420 0.5530895591 4291679199
-0.2480759919 -0.1711367518 0.5532364249 4291679199
-0.2481416464 -0.1705671996 0.5533828139 4291679199
-0.2482071221 -0.1699971855 0.5535288453 4291744992
-0.2482724190 -0.1694267392 0.5536744595 4291876578
-0.2487317026 -0.1691238582 0.5546987057 4292008164
-0.2487967312 -0.1685515940 0.5548437238 4292205798
-0.2488615662 -0.1679788828 0.5549883246 4292205798
-0.2489262074 -0.1674057245 0.5551324487 4292140005
-0.2493852675 -0.1670965254 0.5561562181 4292205798
-0.2494496405 -0.1665215641 0.5562998056 4292205798
-0.2495138198 -0.1659461707 0.5564429164 4292271591
-0.2495778203 -0.1653703153 0.5565856099 4292403177
-0.2496416271 -0.1647940278 0.5567279458 4292468970
-0.2497052401 -0.1642173082 0.5568698049 4292600556
-0.2499347180 -0.1581753194 0.5573815703 4292797935
-0.2499961108 -0.1575947255 0.5575184822 4292403177
-0.2500573099 -0.1570136994 0.5576549172 4292337384
-0.2505146861 -0.1566801816 0.5586749315 4292140005
-0.2505756021 -0.1560973823 0.5588107705 4292140005
-0.2506362796 -0.1555141658 0.5589461327 4292337384
-0.2506968081 -0.1549305320 0.5590810776 4292468970
-0.2507570982 -0.1543464661 0.5592155457 4292600556
