VERSION 0.7
FIELDS x y z rgba
SIZE 4 4 4 4
TYPE F F F U
COUNT 1 1 1 1
WIDTH 920
HEIGHT 1
VIEWPOINT 0.0 0.0 0.0 1.0 0.0 0.0 0.0
POINTS 920
DATA ascii
-0.2889900208 -0.1172774956 0.5850638747 4292798193
-0.2894759476 -0.1168235615 0.5860477090 4293522167
-0.2963559628 -0.2307773978 0.6013284922 4292798456
-0.2960286438 -0.2298551351 0.6006643176 4291285217
-0.2961191535 -0.2292578220 0.6008479595 4289443528
-0.2962094843 -0.2286599725 0.6010312438 4288325047
-0.2958811224 -0.2277394384 0.6003649831 4287011766
-0.2959709466 -0.2271413356 0.6005472541 4286090664
-0.2960605919 -0.2265426815 0.6007291675 4285433522
-0.2961500585 -0.2259434909 0.6009107232 4284644006
-0.2958203554 -0.2250250131 0.6002416611 4284118959
-0.2959093153 -0.2244255841 0.6004222035 4283526822
-0.2955788374 -0.2235085815 0.5997516513 4283067813
-0.2956673205 -0.2229089290 0.5999311805 4282673055
-0.2953361273 -0.2219933867 0.5992591381 4282739107
-0.2954241037 -0.2213935107 0.5994376540 4282739107
-0.2955119014 -0.2207930982 0.5996158123 4282673057
-0.2951796353 -0.2198793590 0.5989416242 4282607264
-0.2956869304 -0.2195906490 0.5999709964 4282869666
-0.2957741618 -0.2189886272 0.6001480222 4283067045
-0.2958612144 -0.2183860838 0.6003246307 4283132577
-0.2959480882 -0.2177829891 0.6005008817 4283000991
-0.2960347533 -0.2171793729 0.6006767154 4282934948
-0.2957006097 -0.2162676007 0.5999987125 4282934948
-0.2953660190 -0.2153570056 0.5993198156 4282803612
-0.2954518795 -0.2147535235 0.5994940400 4282606233
-0.2955375612 -0.2141495198 0.5996678472 4282605971
-0.2956230044 -0.2135449797 0.5998412967 4282079627
-0.2952870727 -0.2126365900 0.5991595984 4281224823
-0.2953720391 -0.2120318711 0.5993319750 4280895858
-0.2954567969 -0.2114266306 0.5995039940 4280500581
-0.2955413759 -0.2108208835 0.5996755958 4281092718
-0.2956257463 -0.2102146000 0.5998468399 4282472827
-0.2957099378 -0.2096077949 0.6000176668 4283920273
-0.2957939506 -0.2090004832 0.6001880765 4285300897
-0.2958777249 -0.2083926499 0.6003581285 4286353585
-0.2963835299 -0.2080807090 0.6013844013 4287406016
-0.2956224084 -0.2068798989 0.5998400450 4287800774
-0.2957054973 -0.2062713802 0.6000086665 4288524748
-0.2957883775 -0.2056623697 0.6001768112 4288787920
-0.2954483926 -0.2047598958 0.5994869471 4288919506
-0.2955307662 -0.2041507214 0.5996540785 4288656334
-0.2956129313 -0.2035410404 0.5998208523 4288853713
-0.2952718735 -0.2026405334 0.5991287827 4288787920
-0.2953535318 -0.2020307183 0.5992944837 4289117396
-0.2954349816 -0.2014203817 0.5994597673 4289248982
-0.2955162227 -0.2008095533 0.5996246338 4289446361
-0.2951737940 -0.1999114007 0.5989297628 4289577947
-0.2952545285 -0.1993004382 0.5990935564 4289577946
-0.2949113250 -0.1984039098 0.5983971953 4289643739
-0.2949915230 -0.1977928281 0.5985599160 4289709532
-0.2950715125 -0.1971812546 0.5987222791 4290170083
-0.2947272658 -0.1962867379 0.5980237126 4289906909
-0.2948067188 -0.1956750453 0.5981850028 4289972702
-0.2940374017 -0.1945015341 0.5966239572 4289841633
-0.2941162586 -0.1938906014 0.5967839360 4290104805
-0.2941948771 -0.1932791919 0.5969434977 4290760940
-0.2942733169 -0.1926672906 0.5971026421 4291287284
-0.2943515182 -0.1920549124 0.5972613096 4292206846
-0.2944295406 -0.1914420277 0.5974196196 4292601599
-0.2945073247 -0.1908286661 0.5975775123 4293192447
-0.2945849299 -0.1902148128 0.5977349281 4293060863
-0.2946623266 -0.1896004826 0.5978919268 4293191674
-0.2947394848 -0.1889856756 0.5980485082 4293191674
-0.2952418625 -0.1886421889 0.5990679264 4293324026
-0.2953187227 -0.1880255193 0.5992238522 4293455612
-0.2953953743 -0.1874083728 0.5993794203 4293324539
-0.2954718173 -0.1867907345 0.5995345116 4293258746
-0.2955480516 -0.1861726344 0.5996891856 4292995833
-0.2956240773 -0.1855540425 0.5998433828 4292995833
-0.2956998646 -0.1849349737 0.5999972224 4293126647
-0.2957754433 -0.1843154430 0.6001505852 4293060854
-0.2958508134 -0.1836954206 0.6003034711 4292995061
-0.2959259748 -0.1830749363 0.6004559994 4293060854
-0.2960008979 -0.1824539751 0.6006080508 4293060854
-0.2960756123 -0.1818325520 0.6007596254 4292797682
-0.2961501181 -0.1812106520 0.6009108424 4292666096
-0.2953707278 -0.1800678521 0.5993293524 4292797682
-0.2954445779 -0.1794468015 0.5994791985 4292929268
-0.2950911522 -0.1785668880 0.5987620950 4292797682
-0.2951644659 -0.1779458076 0.5989108682 4292928498
-0.2952375710 -0.1773242801 0.5990591645 4292862705
-0.2953104377 -0.1767022759 0.5992070436 4292862959
-0.2953830659 -0.1760798246 0.5993544459 4292862959
-0.2954555154 -0.1754569113 0.5995013714 4292731373
-0.2951000333 -0.1745805293 0.5987800956 4292402408
-0.2951719165 -0.1739576012 0.5989259481 4292665326
-0.2952435613 -0.1733342111 0.5990713239 4292467947
-0.2948870063 -0.1724600792 0.5983478427 4292270822
-0.2945300341 -0.1715873033 0.5976235271 4292073443
-0.2941726148 -0.1707158685 0.5968983173 4291876061
-0.2942430675 -0.1700934023 0.5970412493 4291744475
-0.2938849032 -0.1692238152 0.5963144898 4291678936
-0.2935262918 -0.1683555841 0.5955868363 4291613143
-0.2935958803 -0.1677335948 0.5957280397 4291349717
-0.2932365239 -0.1668672115 0.5949988961 4291283924
-0.2928767204 -0.1660021991 0.5942688584 4291152341
-0.2920876145 -0.1648964286 0.5926676989 4291415513
-0.2921558917 -0.1642763317 0.5928062201 4291283422
-0.2917948365 -0.1634154618 0.5920736194 4290888664
-0.2910041511 -0.1623165905 0.5904692411 4290822873
-0.2910714447 -0.1616979241 0.5906057954 4290559701
-0.2907091081 -0.1608412564 0.5898705721 4290558689
-0.2907758653 -0.1602226496 0.5900059938 4290098138
-0.2908423841 -0.1596036106 0.5901409984 4288979414
-0.2909086645 -0.1589841545 0.5902755260 4288782035
-0.2909747362 -0.1583642662 0.5904095769 4289110246
-0.2910405695 -0.1577439755 0.5905431509 4289307625
-0.2911061943 -0.1571232527 0.5906763077 4289570286
-0.2911715508 -0.1565020978 0.5908089280 4289899251
-0.2912366986 -0.1558805406 0.5909411311 4289965044
-0.2913016379 -0.1552585661 0.5910728574 4289899251
-0.2909359336 -0.1544077545 0.5903308392 4289965555
-0.2910003066 -0.1537858695 0.5904614329 4290031348
-0.2906338573 -0.1529370099 0.5897179246 4289834222
-0.2906976640 -0.1523152143 0.5898473859 4289768429
-0.2903304994 -0.1514682919 0.5891023278 4290031340
-0.2903937399 -0.1508466005 0.5892306566 4290228719
-0.2904567420 -0.1502245218 0.5893585086 4289506285
-0.2905195355 -0.1496020257 0.5894858837 4289177320
-0.2905820608 -0.1489791274 0.5896128416 4288978913
-0.2906443775 -0.1483558416 0.5897392631 4288649948
-0.2911377847 -0.1479513347 0.5907403827 4288386777
-0.2911997139 -0.1473263055 0.5908660293 4288057812
-0.2912614048 -0.1467008889 0.5909912586 4287137741
-0.2913228571 -0.1460750699 0.5911159515 4286348225
-0.2913840711 -0.1454488635 0.5912401676 4286085312
-0.2914450765 -0.1448222548 0.5913639069 4286151105
-0.2915058136 -0.1441952586 0.5914871693 4286282178
-0.2915663421 -0.1435678750 0.5916099548 4286742729
-0.2916266024 -0.1429400891 0.5917322636 4287335118
-0.2916866243 -0.1423119158 0.5918540359 4287795669
-0.2917464077 -0.1416833699 0.5919753909 4288256731
-0.2918059826 -0.1410544217 0.5920962095 4288914661
-0.2918652892 -0.1404251009 0.5922165513 4289966313
-0.2919243574 -0.1397953928 0.5923364162 4290887415
-0.2919831872 -0.1391652972 0.5924557447 4290822136
-0.2920417488 -0.1385348290 0.5925746560 4291216894
-0.2921001017 -0.1379039735 0.5926930308 4291350015
-0.2917253673 -0.1370693892 0.5919326544 4291284223
-0.2917831540 -0.1364387274 0.5920498967 4290892287
-0.2914076746 -0.1356061846 0.5912880301 4290497535
-0.2910317779 -0.1347751468 0.5905253291 4289972991
-0.2910886407 -0.1341452450 0.5906407237 4289644027
-0.2907120287 -0.1333162785 0.5898765326 4288329461
-0.2907683253 -0.1326865703 0.5899907351 4287408359
-0.2903909385 -0.1318596900 0.5892249942 4286290918
-0.2900131643 -0.1310343295 0.5884584785 4284909265
-0.2900685668 -0.1304054111 0.5885708332 4283659724
-0.2896900475 -0.1295821518 0.5878028274 4283593931
-0.2897448540 -0.1289534569 0.5879140496 4282939594
-0.2893655896 -0.1281323135 0.5871444941 4283465938
-0.2894198298 -0.1275038421 0.5872545838 4284256226
-0.2894738317 -0.1268750280 0.5873641372 4285374707
-0.2895275950 -0.1262458712 0.5874732137 4286556667
-0.2891469300 -0.1254280210 0.5867008567 4287017215
-0.2887658775 -0.1246117130 0.5859276056 4286360058
-0.2888187170 -0.1239833981 0.5860348344 4284846819
-0.2880025506 -0.1229837388 0.5843787789 4286297087
-0.2880547345 -0.1223566234 0.5844846964 4285770750
-0.2881066799 -0.1217291653 0.5845900774 4285376758
-0.2877237499 -0.1209187135 0.5838130713 4285705723
-0.2873404026 -0.1201098189 0.5830352902 4285966827
-0.2869566679 -0.1193024889 0.5822566152 4284979932
-0.2870073915 -0.1186765283 0.5823595524 4285176020
-0.2866229415 -0.1178713813 0.5815794468 4285899743
-0.2866730690 -0.1172457114 0.5816811919 4286686410
-0.2867229581 -0.1166197136 0.5817824006 4287410133
-0.2867726088 -0.1159933954 0.5818831325 4288527844
-0.2872572541 -0.1155418083 0.5828664899 4289514739
-0.2873064578 -0.1149138883 0.5829663873 4290696952
-0.2877908051 -0.1144588068 0.5839491487 4291223295
-0.2878395915 -0.1138292924 0.5840481520 4292405757
-0.2883236706 -0.1133707091 0.5850303769 4293195263
-0.2947332859 -0.2287002802 0.5993867517 4292535282
-0.2948232591 -0.2281039357 0.5995697379 4291943145
-0.2949130535 -0.2275070399 0.5997523069 4291155690
-0.2945848107 -0.2265881896 0.5990847945 4290037209
-0.2946740985 -0.2259910554 0.5992664099 4288656083
-0.2947632372 -0.2253933698 0.5994476080 4287340223
-0.2940157056 -0.2241574228 0.5979274511 4286551744
-0.2949409187 -0.2241963744 0.5998089910 4285696435
-0.2946110070 -0.2232799232 0.5991380811 4284842670
-0.2942806482 -0.2223646194 0.5984662771 4284316326
-0.2939498723 -0.2214504778 0.5977935791 4283790756
-0.2940375209 -0.2208521217 0.5979717970 4283264412
-0.2941249907 -0.2202532142 0.5981496572 4282935711
-0.2942122519 -0.2196537852 0.5983271599 4282804125
-0.2942993343 -0.2190538198 0.5985042453 4282540703
-0.2943862379 -0.2184533179 0.5986809731 4282540703
-0.2944729328 -0.2178522944 0.5988572836 4282606494
-0.2945594788 -0.2172507346 0.5990332365 4282474908
-0.2946457863 -0.2166486382 0.5992088318 4282342550
-0.2947319448 -0.2160460204 0.5993840098 4282539929
-0.2948178947 -0.2154428810 0.5995588303 4282934685
-0.2944835722 -0.2145331651 0.5988789201 4283066271
-0.2941488028 -0.2136246562 0.5981981158 4283067037
-0.2942339480 -0.2130216509 0.5983712673 4282935451
-0.2943188846 -0.2124181241 0.5985440016 4282672788
-0.2944036424 -0.2118140757 0.5987163782 4282738581
-0.2949089110 -0.2115112394 0.5997439027 4282540942
-0.2949934006 -0.2109052837 0.5999156833 4282146184
-0.2950776815 -0.2102988064 0.6000871658 4282013309
-0.2951617837 -0.2096918076 0.6002581716 4281947516
-0.2952456772 -0.2090843022 0.6004288197 4282275450
-0.2953293920 -0.2084762752 0.6005990505 4282801794
-0.2954128981 -0.2078677267 0.6007688642 4283985555
-0.2954962254 -0.2072586715 0.6009383202 4284709278
-0.2955793440 -0.2066490948 0.6011072993 4286156206
-0.2952404916 -0.2057450712 0.6004182100 4286879929
-0.2953230739 -0.2051353455 0.6005861759 4287734980
-0.2949834764 -0.2042329162 0.5998955369 4288063945
-0.2950655520 -0.2036230415 0.6000624895 4288392910
-0.2951474488 -0.2030126452 0.6002290249 4288261324
-0.2948067784 -0.2021121979 0.5995361805 4288261322
-0.2948881388 -0.2015016675 0.5997016430 4288195529
-0.2949692905 -0.2008906305 0.5998666883 4288458955
-0.2950502634 -0.2002790868 0.6000313759 4288656334
-0.2947081923 -0.1993809938 0.5993357301 4288655562
-0.2943657041 -0.1984841526 0.5986391902 4288721355
-0.2944458127 -0.1978728622 0.5988021493 4289050575
-0.2945257425 -0.1972610801 0.5989646316 4289247954
-0.2941821516 -0.1963662505 0.5982659459 4289116882
-0.2942615449 -0.1957543492 0.5984274149 4289380054
-0.2934937179 -0.1945803910 0.5968658924 4289511900
-0.2935724854 -0.1939692795 0.5970260501 4289182935
-0.2936510146 -0.1933576614 0.5971857905 4289445082
-0.2937293649 -0.1927455515 0.5973451138 4289774047
-0.2938075066 -0.1921329498 0.5975040197 4290299365
-0.2938854396 -0.1915198714 0.5976625085 4290825709
-0.2939631641 -0.1909063011 0.5978205800 4291482093
-0.2940406799 -0.1902922392 0.5979782343 4291679472
-0.2941179872 -0.1896777004 0.5981354117 4291613157
-0.2941950858 -0.1890626699 0.5982922316 4291810536
-0.2946965992 -0.1887190938 0.5993121266 4292073707
-0.2947733700 -0.1881022155 0.5994682908 4292205293
-0.2948499620 -0.1874848455 0.5996239781 4292337392
-0.2945013344 -0.1865977496 0.5989150405 4292403185
-0.2945773900 -0.1859803051 0.5990697145 4292272112
-0.2946532071 -0.1853623986 0.5992239118 4292337905
-0.2947288156 -0.1847440153 0.5993776321 4292599533
-0.2948042154 -0.1841251552 0.5995309949 4292402154
-0.2948794067 -0.1835058182 0.5996838808 4292336361
-0.2949543595 -0.1828860044 0.5998363495 4292467947
-0.2950291038 -0.1822657287 0.5999883413 4292665326
-0.2946778238 -0.1813828647 0.5992739201 4292665326
-0.2947520316 -0.1807625443 0.5994248390 4292599533
-0.2943999767 -0.1798814237 0.5987088680 4292665326
-0.2940474749 -0.1790016443 0.5979920626 4292665326
-0.2941208184 -0.1783817112 0.5981411934 4292533740
-0.2937675714 -0.1775036901 0.5974228382 4292533740
-0.2938403785 -0.1768837422 0.5975708961 4292467947
-0.2939129770 -0.1762633175 0.5977184772 4292402154
-0.2935586572 -0.1753875315 0.5969979167 4292402154
-0.2936306894 -0.1747670919 0.5971444249 4292336361
-0.2937025130 -0.1741462052 0.5972905159 4292138982
-0.2933471203 -0.1732726544 0.5965677500 4291875810
-0.2934183776 -0.1726517677 0.5967127085 4291875810
-0.2934894264 -0.1720304191 0.5968571901 4291876064
-0.2931329608 -0.1711591184 0.5961322188 4291810271
-0.2927760482 -0.1702891886 0.5954064131 4291612892
-0.2928462327 -0.1696683019 0.5955491066 4291415513
-0.2920609415 -0.1685534120 0.5939521194 4291283926
-0.2925581932 -0.1681793332 0.5949633718 4291152340
-0.2921997905 -0.1673130691 0.5942344666 4291349207
-0.2918409407 -0.1664481759 0.5935047269 4291349207
-0.2914817035 -0.1655846536 0.5927740932 4291217371
-0.2911219895 -0.1647225171 0.5920426250 4291348957
-0.2911901176 -0.1641031057 0.5921811461 4291348704
-0.2908296585 -0.1632428318 0.5914481282 4291217118
-0.2904688120 -0.1623839587 0.5907142758 4291282913
-0.2905360460 -0.1617650539 0.5908509493 4291282913
-0.2901744246 -0.1609080583 0.5901156068 4291085283
-0.2902410924 -0.1602892280 0.5902512074 4291019490
-0.2903075516 -0.1596699655 0.5903863311 4290229732
-0.2903737724 -0.1590502709 0.5905210376 4289506009
-0.2904397845 -0.1584301740 0.5906552672 4289439462
-0.2905055583 -0.1578096300 0.5907890201 4289242083
-0.2905710936 -0.1571886837 0.5909222960 4289175782
-0.2906364202 -0.1565673202 0.5910550952 4289307368
-0.2907015085 -0.1559455246 0.5911874771 4289372907
-0.2907663584 -0.1553233117 0.5913193822 4289570286
-0.2904013991 -0.1544721872 0.5905771852 4289833969
-0.2900359929 -0.1536224782 0.5898340940 4290031348
-0.2900999784 -0.1530008614 0.5899642110 4289900013
-0.2897338569 -0.1521531045 0.5892195702 4289768427
-0.2897972465 -0.1515315920 0.5893485546 4290031338
-0.2894303799 -0.1506857872 0.5886024833 4290360303
-0.2894932330 -0.1500643790 0.5887302756 4289768430
-0.2895558476 -0.1494425833 0.5888576508 4289373672
-0.2896182537 -0.1488203853 0.5889844894 4288978913
-0.2896804214 -0.1481977701 0.5891109109 4288584155
-0.2897423208 -0.1475747675 0.5892368555 4288189397
-0.2898040116 -0.1469513625 0.5893623233 4287728846
-0.2898654640 -0.1463275701 0.5894872546 4287136456
-0.2899266779 -0.1457033604 0.5896117687 4286675905
-0.2899876833 -0.1450787783 0.5897358060 4285821114
-0.2900484204 -0.1444537938 0.5898593068 4286215872
-0.2901089191 -0.1438284069 0.5899823904 4286281925
-0.2906003594 -0.1434154212 0.5909817815 4285887167
-0.2906604707 -0.1427883357 0.5911040306 4285689279
-0.2907203436 -0.1421608627 0.5912258029 4285491900
-0.2907800078 -0.1415330023 0.5913470984 4285425339
-0.2908394039 -0.1409047395 0.5914679170 4285556925
-0.2908985615 -0.1402761191 0.5915882587 4285492162
-0.2909574807 -0.1396470964 0.5917080641 4286084299
-0.2910161614 -0.1390177011 0.5918273926 4286019270
-0.2910746038 -0.1383879185 0.5919462442 4286348235
-0.2911328077 -0.1377577633 0.5920646191 4286941391
-0.2907587290 -0.1369237751 0.5913038254 4287599321
-0.2903842330 -0.1360912770 0.5905422568 4288323806
-0.2904415429 -0.1354618669 0.5906587839 4288915943
-0.2904985845 -0.1348320842 0.5907748342 4289376744
-0.2901230156 -0.1340022385 0.5900110602 4289574123
-0.2901794910 -0.1333726496 0.5901259184 4289640693
-0.2898032069 -0.1325448751 0.5893606544 4289903865
-0.2894264758 -0.1317186058 0.5885945559 4289313535
-0.2894820571 -0.1310898066 0.5887075663 4288063471
-0.2895374000 -0.1304606348 0.5888200998 4285696221
-0.2891596258 -0.1296370476 0.5880517960 4284314568
-0.2887814343 -0.1288149804 0.5872827172 4283067839
-0.2884028256 -0.1279944479 0.5865127444 4282738874
-0.2884569466 -0.1273666769 0.5866228342 4282544587
-0.2885107994 -0.1267385632 0.5867323279 4283005138
-0.2881311476 -0.1259207428 0.5859602690 4283268562
-0.2881844342 -0.1252928674 0.5860686302 4283992285
-0.2878040373 -0.1244771779 0.5852950215 4284254684
-0.2878567576 -0.1238495559 0.5854022503 4283333582
-0.2866084278 -0.1226648614 0.5828635693 4285046000
-0.2866604030 -0.1220393926 0.5829693079 4285374965
-0.2867121398 -0.1214135811 0.5830745101 4285901558
-0.2858959734 -0.1204219609 0.5814146996 4286164730
-0.2859470546 -0.1197973713 0.5815185905 4286624497
-0.2855639160 -0.1189916134 0.5807393789 4287085048
-0.2851803601 -0.1181874126 0.5799593925 4286953460
-0.2852305770 -0.1175637245 0.5800614357 4286229737
-0.2852804959 -0.1169397086 0.5801630020 4286231295
-0.2853302062 -0.1163153648 0.5802640915 4285375992
-0.2853796482 -0.1156906933 0.5803646445 4283927518
-0.2854288518 -0.1150657013 0.5804647207 4283730139
-0.2854777873 -0.1144403815 0.5805642605 4285241312
-0.2855264843 -0.1138147488 0.5806632638 4285767656
-0.2860096097 -0.1133610681 0.5816457272 4286949598
-0.2860578597 -0.1127338409 0.5817438960 4287936493
-0.2865406871 -0.1122766733 0.5827258229 4290039535
-0.2865885198 -0.1116478592 0.5828230977 4290763258
-0.2866361141 -0.1110187322 0.5829198956 4292011507
-0.2871184647 -0.1105567962 0.5839008093 4292669437
-0.2936182022 -0.2263559699 0.5984708071 4292601845
-0.2937072814 -0.2257595062 0.5986523628 4292141302
-0.2937961817 -0.2251624912 0.5988335609 4291351786
-0.2934674323 -0.2242459357 0.5981635451 4290431205
-0.2927207053 -0.2230124176 0.5966414809 4289707482
-0.2936440706 -0.2230509073 0.5985235572 4288788179
-0.2928964496 -0.2218197137 0.5969997048 4287735491
-0.2929840684 -0.2212225497 0.5971782804 4286552506
-0.2930714786 -0.2206248641 0.5973564982 4285368232
-0.2931587398 -0.2200266272 0.5975342989 4284316843
-0.2932457924 -0.2194278687 0.5977117419 4284053671
-0.2933326364 -0.2188285738 0.5978888273 4283593130
-0.2934193313 -0.2182287425 0.5980654955 4283395751
-0.2935058177 -0.2176283747 0.5982417464 4283527085
-0.2935921252 -0.2170274854 0.5984176993 4283395499
-0.2936782539 -0.2164260745 0.5985932350 4283197087
-0.2937641740 -0.2158241123 0.5987683535 4282933915
-0.2938499153 -0.2152216434 0.5989431143 4282868892
-0.2935161591 -0.2143124789 0.5982628465 4283066271
-0.2936013937 -0.2137098014 0.5984365940 4283198370
-0.2932668924 -0.2128021717 0.5977547765 4283132577
-0.2933516204 -0.2121993154 0.5979274511 4282739101
-0.2934361696 -0.2115959525 0.5980998278 4282804894
-0.2939404249 -0.2112938911 0.5991276503 4282804376
-0.2940247059 -0.2106886059 0.5992994308 4282606997
-0.2941088080 -0.2100828141 0.5994707942 4282540429
-0.2941927016 -0.2094764858 0.5996417999 4282540429
-0.2942763865 -0.2088696510 0.5998123884 4282539653
-0.2943598926 -0.2082622945 0.5999825597 4282276481
-0.2944431901 -0.2076544166 0.6001523733 4282604930
-0.2945262790 -0.2070460320 0.6003217697 4282802309
-0.2946091890 -0.2064371258 0.6004907489 4283590283
-0.2942709327 -0.2055336684 0.5998012424 4283985041
-0.2943533063 -0.2049245983 0.5999692082 4284642458
-0.2944355309 -0.2043150365 0.6001367569 4285497767
-0.2940961719 -0.2034135312 0.5994450450 4286155695
-0.2941778600 -0.2028038055 0.5996115208 4286682039
-0.2942593396 -0.2021935880 0.5997776389 4287406015
-0.2943406105 -0.2015828639 0.5999432802 4287932359
-0.2939998806 -0.2006836981 0.5992488265 4288063943
-0.2945025563 -0.2003598809 0.6002733707 4287669185
-0.2941612005 -0.1994614601 0.5995776057 4288063427
-0.2938193977 -0.1985643059 0.5988809466 4287931841
-0.2938994467 -0.1979528069 0.5990440845 4288589512
-0.2939792871 -0.1973408163 0.5992068052 4288786891
-0.2940589190 -0.1967283338 0.5993691087 4288655562
-0.2937157154 -0.1958335787 0.5986695886 4288589769
-0.2933720946 -0.1949400753 0.5979692340 4288721359
-0.2930280566 -0.1940478534 0.5972679257 4288523980
-0.2931065261 -0.1934360415 0.5974279046 4288852692
-0.2931847870 -0.1928237230 0.5975874066 4289050071
-0.2932628393 -0.1922109127 0.5977464914 4288983765
-0.2933406830 -0.1915976256 0.5979051590 4289246937
-0.2934183180 -0.1909838468 0.5980634093 4289640917
-0.2934957445 -0.1903695762 0.5982212424 4289969882
-0.2935729921 -0.1897548288 0.5983786583 4289903311
-0.2936500013 -0.1891395897 0.5985355973 4290100690
-0.2937268019 -0.1885238737 0.5986921787 4290297810
-0.2938033938 -0.1879076660 0.5988482833 4290297810
-0.2938797772 -0.1872909814 0.5990039706 4290824154
-0.2939559519 -0.1866738200 0.5991592407 4290889947
-0.2940318882 -0.1860561818 0.5993140340 4290824154
-0.2941076458 -0.1854380518 0.5994684696 4290955740
-0.2941831946 -0.1848194599 0.5996224284 4291283673
-0.2942585051 -0.1842003763 0.5997759104 4291152087
-0.2943336070 -0.1835808307 0.5999289751 4291152087
-0.2944085002 -0.1829608083 0.6000816226 4291283673
-0.2944831550 -0.1823403090 0.6002338529 4291481052
-0.2941325903 -0.1814571172 0.5995192528 4291678431
-0.2942067087 -0.1808365732 0.5996703506 4291744224
-0.2938553691 -0.1799551398 0.5989542603 4291678431
-0.2939289510 -0.1793345660 0.5991042256 4291875810
-0.2931513786 -0.1781962514 0.5975193381 4291810017
-0.2932243347 -0.1775765419 0.5976679921 4291875812
-0.2928713858 -0.1766995341 0.5969486237 4291875812
-0.2929437757 -0.1760798097 0.5970962048 4291875812
-0.2925900817 -0.1752045900 0.5963752270 4291810019
-0.2922359407 -0.1743307114 0.5956534147 4291678433
-0.2923074663 -0.1737114042 0.5957992077 4291546847
-0.2919525802 -0.1728393286 0.5950758457 4291546845
-0.2920235693 -0.1722200364 0.5952205658 4291546845
-0.2920943499 -0.1716002822 0.5953648090 4291546334
-0.2921648920 -0.1709800661 0.5955085754 4291480541
-0.2918086052 -0.1701107174 0.5947824121 4291480541
-0.2914518714 -0.1692427248 0.5940552950 4291414748
-0.2915215492 -0.1686230004 0.5941973329 4291414748
-0.2911641002 -0.1677568406 0.5934687257 4291414748
-0.2912332416 -0.1671371311 0.5936096311 4291348957
-0.2908750176 -0.1662728190 0.5928794742 4291414750
-0.2905163765 -0.1654098928 0.5921484828 4291348704
-0.2905846238 -0.1647906750 0.5922876000 4291282911
-0.2902252376 -0.1639296114 0.5915550590 4291348706
-0.2898654044 -0.1630699188 0.5908216834 4291348706
-0.2899328172 -0.1624512374 0.5909590125 4291217120
-0.2899999619 -0.1618321240 0.5910959244 4290953948
-0.2900668979 -0.1612125784 0.5912323594 4290888155
-0.2901336253 -0.1605926007 0.5913683176 4291151327
-0.2902001143 -0.1599721909 0.5915038586 4291480049
-0.2902663648 -0.1593513638 0.5916389227 4291085291
-0.2903323770 -0.1587301195 0.5917735100 4290755827
-0.2903981805 -0.1581084430 0.5919076204 4290032104
-0.2904637754 -0.1574863344 0.5920412540 4289702123
-0.2905291021 -0.1568638235 0.5921744704 4289307365
-0.2905942202 -0.1562408805 0.5923071504 4289109989
-0.2902304232 -0.1553879976 0.5915656090 4289175782
-0.2898661792 -0.1545365453 0.5908232331 4289307879
-0.2895015180 -0.1536865085 0.5900799632 4289505258
-0.2895654142 -0.1530646682 0.5902101994 4289571048
-0.2892000079 -0.1522165835 0.5894653797 4289505255
-0.2892633677 -0.1515948325 0.5895945430 4289702373
-0.2888972163 -0.1507486999 0.5888482332 4289965545
-0.2889600098 -0.1501270682 0.5889762044 4289833195
-0.2885931134 -0.1492828876 0.5882284045 4289438437
-0.2886553407 -0.1486613750 0.5883552432 4288978400
-0.2887173593 -0.1480394602 0.5884816051 4288781021
-0.2887791097 -0.1474171430 0.5886074901 4288452056
-0.2888406515 -0.1467944384 0.5887329578 4287991505
-0.2889019549 -0.1461713314 0.5888578892 4287595980
-0.2889630198 -0.1455478221 0.5889823437 4287267015
-0.2890238464 -0.1449239254 0.5891063213 4287004359
-0.2890844345 -0.1442996264 0.5892298222 4287070152
-0.2891448140 -0.1436749399 0.5893528461 4287071435
-0.2892049253 -0.1430498660 0.5894753933 4286610884
-0.2892647982 -0.1424244046 0.5895974636 4286084288
-0.2893244624 -0.1417985559 0.5897190571 4285886909
-0.2893838584 -0.1411723047 0.5898401141 4285819836
-0.2894430161 -0.1405456811 0.5899606943 4285819836
-0.2895019650 -0.1399186850 0.5900808573 4285689790
-0.2895606458 -0.1392912865 0.5902004242 4285755583
-0.2896190882 -0.1386635154 0.5903195739 4285229752
-0.2896772921 -0.1380353719 0.5904382467 4284834994
-0.2897352576 -0.1374068409 0.5905563831 4284967096
-0.2897929847 -0.1367779374 0.5906740427 4285230268
-0.2894191444 -0.1359460503 0.5899120569 4285229237
-0.2894763052 -0.1353173405 0.5900285244 4285163444
-0.2895332277 -0.1346882433 0.5901445746 4285096364
-0.2891583145 -0.1338589936 0.5893803835 4284964778
-0.2892146409 -0.1332301050 0.5894952416 4285425842
-0.2888390124 -0.1324029416 0.5887295604 4285886393
-0.2888947725 -0.1317742616 0.5888432264 4285560516
-0.2889502943 -0.1311452091 0.5889564157 4285626309
-0.2890055776 -0.1305158138 0.5890690684 4284379332
-0.2886285484 -0.1296918839 0.5883005857 4283589816
-0.2882511020 -0.1288695037 0.5875312686 4283193265
-0.2878732383 -0.1280486286 0.5867610574 4282864300
-0.2874949574 -0.1272293031 0.5859900713 4281948855
-0.2875486910 -0.1266018748 0.5860995650 4282475199
-0.2871696949 -0.1257846802 0.5853270888 4282609091
-0.2867902815 -0.1249690056 0.5845537186 4282740677
-0.2864104807 -0.1241548806 0.5837795734 4282676416
-0.2864629924 -0.1235289052 0.5838866234 4283005381
-0.2860824466 -0.1227169260 0.5831109881 4283403484
-0.2852686048 -0.1217217967 0.5814521909 4282942933
-0.2848871946 -0.1209138706 0.5806747079 4282942419
-0.2845053375 -0.1201075092 0.5798964500 4282679247
-0.2841231227 -0.1193027049 0.5791173577 4283466957
-0.2841736674 -0.1186803803 0.5792204142 4285243368
-0.2837907374 -0.1178777516 0.5784398317 4286296058
-0.2838407159 -0.1172557175 0.5785417557 4285703921
-0.2838904560 -0.1166333482 0.5786431432 4286428671
-0.2839399576 -0.1160106584 0.5787439942 4286955007
-0.2839891911 -0.1153876409 0.5788443685 4286231546
-0.2840381861 -0.1147643030 0.5789442658 4285902581
-0.2840869427 -0.1141406447 0.5790436268 4285704684
-0.2841354311 -0.1135166585 0.5791425109 4283665101
-0.2841837108 -0.1128923595 0.5792408586 4282676153
-0.2842316926 -0.1122677401 0.5793386698 4283070911
-0.2847134769 -0.1118132547 0.5803206563 4283727044
-0.2847610414 -0.1111870483 0.5804175735 4284779732
-0.2848083675 -0.1105605364 0.5805140734 4286554339
-0.2848554254 -0.1099337116 0.5806099772 4287738613
-0.2849022448 -0.1093065739 0.5807054043 4288922103
-0.2849487960 -0.1086791232 0.5808003545 4289711615
-0.2854295671 -0.1082160845 0.5817802548 4290763007
-0.2863447070 -0.1079145819 0.5836455822 4291223551
-0.2863907218 -0.1072833464 0.5837393403 4293455345
-0.2923249304 -0.2252067924 0.5971867442 4292601847
-0.2924135029 -0.2246112972 0.5973676443 4292338675
-0.2920852005 -0.2236961424 0.5966969728 4292141554
-0.2922611237 -0.2225041389 0.5970563889 4291286763
-0.2923488319 -0.2219073325 0.5972355604 4290892005
-0.2920191586 -0.2209942788 0.5965620875 4290300129
-0.2921063602 -0.2203972638 0.5967402458 4289642199
-0.2921933830 -0.2197996974 0.5969179869 4288393423
-0.2922802269 -0.2192015946 0.5970954299 4287406528
-0.2923668921 -0.2186029702 0.5972723961 4286354103
-0.2924533486 -0.2180038095 0.5974490643 4285630380
-0.2925396264 -0.2174041271 0.5976253152 4284972452
-0.2926256955 -0.2168039083 0.5978012085 4284511901
-0.2927116156 -0.2162031531 0.5979766846 4283790507
-0.2927973270 -0.2156018764 0.5981518030 4283329956
-0.2928828597 -0.2150000632 0.5983265042 4283461541
-0.2925496697 -0.2140914500 0.5976458192 4283856299
-0.2922160327 -0.2131840289 0.5969642997 4283724967
-0.2923007607 -0.2125823647 0.5971373320 4283330209
-0.2923852801 -0.2119801939 0.5973100066 4283460766
-0.2928886116 -0.2116803229 0.5983383060 4283460766
-0.2929728925 -0.2110762298 0.5985104442 4283394971
-0.2930569351 -0.2104716152 0.5986821651 4283066006
-0.2931408286 -0.2098664790 0.5988535285 4282868627
-0.2932245135 -0.2092608362 0.5990244746 4282737041
-0.2933079898 -0.2086546719 0.5991950035 4282670990
-0.2933912873 -0.2080479860 0.5993651748 4282605197
-0.2934743762 -0.2074407786 0.5995349288 4282604423
-0.2935572863 -0.2068330646 0.5997042656 4282341251
-0.2936399877 -0.2062248290 0.5998732448 4282668678
-0.2937224805 -0.2056160867 0.6000417471 4282405506
-0.2933844626 -0.2047135383 0.5993512273 4282142586
-0.2934664488 -0.2041046470 0.5995187759 4282208379
-0.2931276858 -0.2032036930 0.5988267064 4282537341
-0.2932091653 -0.2025946528 0.5989931226 4283129478
-0.2932904661 -0.2019851059 0.5991591811 4283920275
-0.2933715284 -0.2013750523 0.5993248224 4284841377
-0.2934524119 -0.2007644922 0.5994900465 4286025392
-0.2935330868 -0.2001534253 0.5996548533 4286485943
-0.2931922972 -0.1992555708 0.5989586711 4286682805
-0.2932724655 -0.1986443698 0.5991224051 4286814391
-0.2933524251 -0.1980326772 0.5992857814 4287011257
-0.2934321761 -0.1974204779 0.5994486809 4286945464
-0.2930899858 -0.1965250224 0.5987496972 4287011258
-0.2931692302 -0.1959127188 0.5989115238 4287011258
-0.2928262949 -0.1950189024 0.5982109904 4287207356
-0.2929050028 -0.1944064796 0.5983717442 4287273149
-0.2925613523 -0.1935143322 0.5976697206 4287536319
-0.2926395237 -0.1929018050 0.5978294015 4287865284
-0.2927174866 -0.1922888011 0.5979887247 4287997125
-0.2927952707 -0.1916753054 0.5981475711 4287931332
-0.2928728163 -0.1910613179 0.5983060002 4288325059
-0.2929501832 -0.1904468387 0.5984640121 4288785610
-0.2930273116 -0.1898318827 0.5986216068 4288917449
-0.2931042612 -0.1892164350 0.5987787843 4289049035
-0.2931809723 -0.1886004955 0.5989355445 4289114313
-0.2932574749 -0.1879840940 0.5990918279 4289048520
-0.2933337986 -0.1873671860 0.5992476940 4289246153
-0.2934098840 -0.1867498159 0.5994031429 4289377739
-0.2934857607 -0.1861319542 0.5995581746 4289508551
-0.2935614288 -0.1855136305 0.5997127295 4289640137
-0.2936368883 -0.1848948151 0.5998668671 4290034127
-0.2937121093 -0.1842755228 0.6000205874 4290034127
-0.2937871516 -0.1836557537 0.6001738906 4290165972
-0.2934379280 -0.1827713996 0.5994604230 4290560730
-0.2935124040 -0.1821515858 0.5996125937 4290955486
-0.2935866714 -0.1815312952 0.5997643471 4291152865
-0.2932363749 -0.1806491017 0.5990486741 4291349984
-0.2933101058 -0.1800287813 0.5991992950 4291481570
-0.2929590344 -0.1791483462 0.5984821320 4291546847
-0.2926075459 -0.1782692373 0.5977640748 4291612640
-0.2931052148 -0.1779071540 0.5987807512 4291415777
-0.2927530706 -0.1770289242 0.5980613828 4291547363
-0.2919754982 -0.1758960038 0.5964728594 4291678950
-0.2920475006 -0.1752764881 0.5966199636 4291481571
-0.2916940749 -0.1744022965 0.5958979726 4291481571
-0.2917655408 -0.1737827808 0.5960439444 4291613157
-0.2914113700 -0.1729103774 0.5953204036 4291546849
-0.2914822996 -0.1722908467 0.5954653025 4291546849
-0.2915529907 -0.1716708690 0.5956097245 4291415777
-0.2911977470 -0.1708007455 0.5948840380 4291481570
-0.2912679017 -0.1701807678 0.5950273275 4291481824
-0.2909118831 -0.1693124622 0.5943000317 4291350238
-0.2905554771 -0.1684455127 0.5935719013 4291481052
-0.2906247675 -0.1678260267 0.5937134624 4291415259
-0.2906938195 -0.1672060937 0.5938545465 4291546588
-0.2903363109 -0.1663414538 0.5931242108 4291546588
-0.2899783850 -0.1654781997 0.5923930407 4291349468
-0.2900465727 -0.1648587734 0.5925323367 4291612640
-0.2896879017 -0.1639973670 0.5917996168 4291415263
-0.2897555530 -0.1633779854 0.5919377804 4291546849
-0.2898229659 -0.1627581567 0.5920755267 4291414750
-0.2894632220 -0.1618991196 0.5913406014 4291414750
-0.2895300984 -0.1612793356 0.5914772153 4290822372
-0.2900238931 -0.1608960927 0.5924859643 4291282923
-0.2896631658 -0.1600385010 0.5917490125 4291546095
-0.2897293568 -0.1594174504 0.5918842554 4291546095
-0.2897953093 -0.1587959677 0.5920190215 4291546097
-0.2898610532 -0.1581740677 0.5921533108 4291546097
-0.2899265587 -0.1575517356 0.5922871232 4291085041
-0.2899918258 -0.1569289863 0.5924204588 4290690283
-0.2900568843 -0.1563058197 0.5925533772 4290426864
-0.2901217043 -0.1556822360 0.5926857591 4290163692
-0.2897582948 -0.1548295319 0.5919433832 4289900013
-0.2893944383 -0.1539782584 0.5912001133 4289768427
-0.2890301943 -0.1531284004 0.5904559493 4289505257
-0.2890937924 -0.1525059193 0.5905858874 4289176292
-0.2887288034 -0.1516580135 0.5898402333 4289439465
-0.2887918651 -0.1510356367 0.5899690390 4289768430
-0.2884261012 -0.1501896977 0.5892218947 4289569257
-0.2880599499 -0.1493451893 0.5884738564 4289503464
-0.2881221175 -0.1487234384 0.5886008739 4289241575
-0.2881840467 -0.1481013000 0.5887274146 4288978403
-0.2882457674 -0.1474787444 0.5888534784 4288584156
-0.2883072495 -0.1468558013 0.5889790654 4288255191
-0.2879393697 -0.1460148543 0.5882275105 4288123092
-0.2880002558 -0.1453920305 0.5883519650 4288057299
-0.2880609334 -0.1447688341 0.5884758830 4287465162
-0.2881214023 -0.1441452354 0.5885993838 4287596748
-0.2881816030 -0.1435212344 0.5887223482 4287465423
-0.2882415652 -0.1428968608 0.5888448954 4287202251
-0.2883012891 -0.1422720850 0.5889669061 4286939595
-0.2883608043 -0.1416469216 0.5890884399 4286808009
-0.2884200513 -0.1410213858 0.5892094970 4286676425
-0.2884790599 -0.1403954476 0.5893300772 4286544839
-0.2881078422 -0.1395608336 0.5885717273 4286281675
-0.2881662846 -0.1389350742 0.5886911154 4285886917
-0.2882245183 -0.1383089274 0.5888100266 4285624250
-0.2882824838 -0.1376824081 0.5889284611 4285558457
-0.2883402407 -0.1370555162 0.5890464187 4285558455
-0.2883977294 -0.1364282370 0.5891638994 4285426869
-0.2880244553 -0.1355978996 0.5884013176 4285163961
-0.2880813777 -0.1349708140 0.5885176063 4285032375
-0.2881380618 -0.1343433708 0.5886334181 4284572338
-0.2881945074 -0.1337155402 0.5887487531 4284835510
-0.2878198326 -0.1328884065 0.5879833698 4285295798
-0.2878757119 -0.1322607845 0.5880975127 4285427384
-0.2875003219 -0.1314357519 0.5873305798 4285033143
-0.2875556052 -0.1308083385 0.5874435902 4284704178
-0.2876106799 -0.1301805675 0.5875560641 4284177331
-0.2872342169 -0.1293582171 0.5867869854 4283585194
-0.2872886956 -0.1287306696 0.5868983269 4283649966
-0.2869115174 -0.1279104203 0.5861276984 4283715759
-0.2865338922 -0.1270917058 0.5853562951 4283062710
-0.2861558795 -0.1262745261 0.5845840573 4283062710
-0.2862091660 -0.1256483942 0.5846928954 4282278071
-0.2858304083 -0.1248333454 0.5839191675 4282475450
-0.2858831286 -0.1242074668 0.5840268135 4283068090
-0.2855036557 -0.1233945638 0.5832515955 4283989192
-0.2846917510 -0.1223974749 0.5815930367 4285697741
-0.2843114138 -0.1215886176 0.5808160305 4285960913
-0.2839306295 -0.1207813248 0.5800381303 4286158795
-0.2835494876 -0.1199755818 0.5792595148 4286093002
-0.2836002409 -0.1193533391 0.5793631673 4285240270
-0.2832183540 -0.1185497791 0.5785830021 4284713926
-0.2832685411 -0.1179278269 0.5786855221 4283796176
-0.2828859389 -0.1171264499 0.5779039264 4283796176
-0.2829355597 -0.1165047884 0.5780053139 4283797978
-0.2829849124 -0.1158827990 0.5781061649 4284521701
-0.2826012671 -0.1150842458 0.5773223639 4286230778
-0.2826500535 -0.1144625619 0.5774220824 4286888703
-0.2826986313 -0.1138405576 0.5775212646 4285966826
-0.2827469110 -0.1132182330 0.5776199698 4284190415
-0.2827949822 -0.1125955880 0.5777181387 4283466706
-0.2828427851 -0.1119726300 0.5778157711 4284190429
-0.2833235562 -0.1115198731 0.5787979364 4284189915
-0.2833709419 -0.1108953282 0.5788947344 4284124122
-0.2834180892 -0.1102704704 0.5789910555 4285832667
-0.2834649682 -0.1096453071 0.5790867805 4287411699
-0.2835115790 -0.1090198308 0.5791820884 4288002549
-0.2831243873 -0.1082283035 0.5783910751 4287410412
-0.2836040854 -0.1077679545 0.5793710351 4287212770
-0.2845173776 -0.1074692085 0.5812367797 4287212770
-0.2845631540 -0.1068405882 0.5813302994 4289050591
-0.2846086621 -0.1062116772 0.5814232230 4289445349
-0.2846539021 -0.1055824533 0.5815156698 4290039275
-0.2851328850 -0.1051129252 0.5824941993 4290894584
-0.2851777077 -0.1044821516 0.5825857520 4291946495
-0.2852222621 -0.1038510799 0.5826767683 4292670207
-0.2912722230 -0.2255687118 0.5963893533 4293060852
-0.2913607359 -0.2249744236 0.5965705514 4292863988
-0.2910332978 -0.2240595073 0.5959001184 4292666609
-0.2911213040 -0.2234649807 0.5960803628 4292469491
-0.2912091315 -0.2228699178 0.5962601900 4292272112
-0.2917129397 -0.2225918472 0.5972917676 4291943662
-0.2918005288 -0.2219948620 0.5974711180 4291812076
-0.2910551727 -0.2207656652 0.5959449410 4291483372
-0.2911421657 -0.2201693058 0.5961230397 4291483372
-0.2912289798 -0.2195724249 0.5963007808 4291287024
-0.2913155854 -0.2189749926 0.5964781642 4291155438
-0.2914020121 -0.2183770388 0.5966551304 4290695145
-0.2919052839 -0.2180901021 0.5976855755 4289905629
-0.2919914722 -0.2174902260 0.5978620052 4288852941
-0.2920774519 -0.2168898284 0.5980380774 4288063425
-0.2917459011 -0.2159799039 0.5973591805 4286815429
-0.2918313742 -0.2153792977 0.5975342393 4286157499
-0.2919166982 -0.2147781551 0.5977089405 4285696694
-0.2920018137 -0.2141764909 0.5978832245 4285367729
-0.2916688919 -0.2132687569 0.5972015262 4284644776
-0.2917535007 -0.2126669139 0.5973747969 4284315811
-0.2918379307 -0.2120645344 0.5975477099 4284315041
-0.2919221818 -0.2114616483 0.5977202058 4283920283
-0.2920062244 -0.2108582258 0.5978922844 4283986850
-0.2920900881 -0.2102542818 0.5980639458 4283723678
-0.2921737432 -0.2096498311 0.5982352495 4283658143
-0.2926759422 -0.2093443424 0.5992634892 4283592350
-0.2927593291 -0.2087379843 0.5994342566 4283197594
-0.2928425372 -0.2081311047 0.5996046066 4282868629
-0.2929255366 -0.2075237036 0.5997745991 4282802834
-0.2930083573 -0.2069157809 0.5999441147 4282802834
-0.2930909693 -0.2063073665 0.6001132727 4282669705
-0.2931733727 -0.2056984156 0.6002820134 4282406533
-0.2928360701 -0.2047955543 0.5995913744 4282143102
-0.2924983203 -0.2038939297 0.5988998413 4282011516
-0.2925799191 -0.2032852024 0.5990668535 4281880183
-0.2926613092 -0.2026759535 0.5992335081 4281551218
-0.2927424908 -0.2020662129 0.5993997455 4281551218
-0.2928234637 -0.2014559507 0.5995656252 4281748597
-0.2929042578 -0.2008451968 0.5997310281 4282668927
-0.2925645113 -0.1999466419 0.5990353227 4283524236
-0.2926447690 -0.1993357539 0.5991997123 4284379799
-0.2927248478 -0.1987243593 0.5993636847 4284971936
-0.2928047180 -0.1981124580 0.5995271802 4285234854
-0.2928843796 -0.1975000650 0.5996903181 4285234854
-0.2925429046 -0.1966042817 0.5989911556 4285366442
-0.2922010124 -0.1957097650 0.5982910991 4285366442
-0.2922798395 -0.1950976402 0.5984525084 4285562533
-0.2923584580 -0.1944850087 0.5986135006 4285825705
-0.2924368978 -0.1938719004 0.5987740159 4285957291
-0.2920936048 -0.1929798126 0.5980711579 4285957291
-0.2921715081 -0.1923666000 0.5982306600 4286088875
-0.2922491729 -0.1917528957 0.5983896852 4286417840
-0.2923266590 -0.1911386997 0.5985483527 4286746545
-0.2924039364 -0.1905240119 0.5987065434 4286943924
-0.2924809754 -0.1899088472 0.5988643169 4287535545
-0.2925578356 -0.1892931908 0.5990216732 4287864510
-0.2926344872 -0.1886770576 0.5991786122 4288127680
-0.2927109003 -0.1880604327 0.5993351340 4288259266
-0.2927871346 -0.1874433160 0.5994911790 4288390850
-0.2928631604 -0.1868257374 0.5996468067 4288390850
-0.2929389477 -0.1862076670 0.5998020172 4288324799
-0.2930145264 -0.1855891198 0.5999568105 4288324799
-0.2930898964 -0.1849700958 0.6001111269 4288915653
-0.2931650579 -0.1843505949 0.6002650261 4288784067
-0.2932400107 -0.1837306172 0.6004185081 4288784580
-0.2928915024 -0.1828459352 0.5997048616 4289179338
-0.2929659188 -0.1822258979 0.5998572111 4289639889
-0.2926166356 -0.1813429594 0.5991420746 4290034647
-0.2926905155 -0.1807228774 0.5992933512 4290363351
-0.2927641571 -0.1801023334 0.5994441509 4290626523
-0.2924138010 -0.1792215854 0.5987268090 4290757850
-0.2920630276 -0.1783421636 0.5980085731 4290823643
-0.2925598323 -0.1779799461 0.5990257859 4290758361
-0.2922084033 -0.1771014035 0.5983062387 4290955740
-0.2914323509 -0.1759680510 0.5967172384 4291087325
-0.2915042639 -0.1753483266 0.5968645215 4291021532
-0.2915759981 -0.1747281402 0.5970113277 4291152859
-0.2912229598 -0.1738540679 0.5962885022 4291350238
-0.2908695042 -0.1729813367 0.5955647826 4291283424
-0.2909403443 -0.1723615974 0.5957098007 4291415010
-0.2910109758 -0.1717413962 0.5958544612 4291152606
-0.2906564474 -0.1708709449 0.5951285362 4291086813
-0.2903014719 -0.1700018495 0.5944017172 4291021020
-0.2903712392 -0.1693821251 0.5945445895 4291021020
-0.2900155485 -0.1685148478 0.5938162208 4291283677
-0.2900847495 -0.1678951383 0.5939579606 4291481056
-0.2901537418 -0.1672749817 0.5940992236 4290954710
-0.2902224958 -0.1666543782 0.5942400098 4291349468
-0.2898654044 -0.1657899022 0.5935088396 4291218650
-0.2895078659 -0.1649267823 0.5927768350 4291087064
-0.2895757854 -0.1643067002 0.5929158330 4290889683
-0.2896434367 -0.1636861712 0.5930544138 4290955476
-0.2897109091 -0.1630652100 0.5931925178 4290954961
-0.2893519700 -0.1622049212 0.5924575925 4290823375
-0.2894188762 -0.1615840048 0.5925945640 4290691552
-0.2894855440 -0.1609626710 0.5927310586 4290888931
-0.2899784446 -0.1605770439 0.5937402844 4291020519
-0.2896182239 -0.1597186923 0.5930027366 4291152105
-0.2896842062 -0.1590960771 0.5931378603 4291283693
-0.2897499800 -0.1584730148 0.5932725072 4291349486
-0.2898155153 -0.1578495502 0.5934066772 4291414256
-0.2898808122 -0.1572256535 0.5935404301 4291414256
-0.2895188630 -0.1563706994 0.5927993059 4291348465
-0.2895836234 -0.1557468772 0.5929318666 4291282672
-0.2892209291 -0.1548938602 0.5921892524 4291151088
-0.2888578176 -0.1540422440 0.5914458036 4291151088
-0.2889216840 -0.1534190327 0.5915765762 4291019248
-0.2885578573 -0.1525693685 0.5908315778 4290690283
-0.2886211574 -0.1519462466 0.5909612179 4290426601
-0.2882565558 -0.1510985196 0.5902146697 4290163429
-0.2878915370 -0.1502522528 0.5894673467 4289965545
-0.2879539728 -0.1496297568 0.5895951390 4289570787
-0.2875882089 -0.1487854421 0.5888462663 4289044958
-0.2876501083 -0.1481630653 0.5889729261 4288715993
-0.2877117395 -0.1475402862 0.5890991688 4288452567
-0.2877731621 -0.1469171047 0.5892248750 4288386774
-0.2874059975 -0.1460758299 0.5884731412 4288255190
-0.2874668539 -0.1454527825 0.5885977149 4288057811
-0.2875274718 -0.1448293328 0.5887218714 4287991506
-0.2875878513 -0.1442054957 0.5888454914 4288123092
-0.2876479924 -0.1435812712 0.5889686346 4287991767
-0.2872791290 -0.1427436024 0.5882133842 4287794388
-0.2873387039 -0.1421195269 0.5883353949 4287662804
-0.2873980701 -0.1414950639 0.5884568691 4287728597
-0.2874571681 -0.1408702135 0.5885779262 4287662802
-0.2875160277 -0.1402449757 0.5886984468 4287597009
-0.2871454656 -0.1394109726 0.5879396796 4286940360
-0.2872037590 -0.1387859136 0.5880590677 4286677188
-0.2868324518 -0.1379539371 0.5872987509 4286413764
-0.2868902087 -0.1373290569 0.5874170065 4286282178
-0.2869476974 -0.1367037892 0.5875347853 4286216136
-0.2870049775 -0.1360781491 0.5876520276 4285952964
-0.2870619893 -0.1354521364 0.5877687931 4285624259
-0.2866889536 -0.1346239150 0.5870049596 4285426880
-0.2867454290 -0.1339980811 0.5871205926 4285295547
-0.2868016362 -0.1333719045 0.5872356892 4285361340
-0.2864275575 -0.1325463206 0.5864697099 4285295798
-0.2864831984 -0.1319203377 0.5865836740 4285098419
-0.2861083746 -0.1310968548 0.5858162045 4284900787
-0.2861634493 -0.1304710805 0.5859289765 4284900787
-0.2862182856 -0.1298449486 0.5860412717 4284835261
-0.2862728834 -0.1292184740 0.5861530900 4284769468
-0.2858966887 -0.1283982545 0.5853827596 4284702905
-0.2855200768 -0.1275795549 0.5846115947 4284439733
-0.2855737805 -0.1269538850 0.5847215652 4283850165
-0.2856272161 -0.1263278723 0.5848310590 4283981751
-0.2856804430 -0.1257015020 0.5849400163 4284313276
-0.2853024602 -0.1248861253 0.5841660500 4285760722
-0.2849240303 -0.1240722910 0.5833912492 4287471834
-0.2841140926 -0.1230732575 0.5817328691 4288919280
-0.2837348282 -0.1222634688 0.5809562802 4289313242
-0.2833551168 -0.1214552373 0.5801788568 4289247449
-0.2829750478 -0.1206485629 0.5794005990 4289051089
-0.2830259800 -0.1200264171 0.5795049071 4288985296
-0.2826451659 -0.1192219108 0.5787251592 4288394460
-0.2822639644 -0.1184189767 0.5779446363 4287933909
-0.2823140025 -0.1177977249 0.5780471563 4287014627
-0.2823638320 -0.1171761453 0.5781491399 4286685662
-0.2824133933 -0.1165542379 0.5782506466 4285373668
-0.2820308208 -0.1157547385 0.5774672627 4284649945
-0.2820798159 -0.1151331291 0.5775675774 4284189651
-0.2821285725 -0.1145111993 0.5776674151 4284123858
-0.2817449570 -0.1137145311 0.5768819451 4283467209
-0.2817931175 -0.1130929142 0.5769805908 4283072451
-0.2818410695 -0.1124709770 0.5770787597 4283467472
-0.2823210955 -0.1120202690 0.5780616403 4284520160
-0.2819361985 -0.1112261489 0.5772735476 4286361331
-0.2819833755 -0.1106032729 0.5773701668 4287019261
-0.2820303142 -0.1099800766 0.5774662495 4288662783
-0.2820770144 -0.1093565673 0.5775618553 4289715455
-0.2821234465 -0.1087327525 0.5776569247 4290042623
-0.2821696401 -0.1081086323 0.5777515173 4289450495
-0.2826484144 -0.1076490581 0.5787318349 4288923123
-0.2826941907 -0.1070233658 0.5788255334 4288265193
-0.2827396691 -0.1063973755 0.5789186954 4287211742
-0.2827849388 -0.1057710797 0.5790113807 4286816984
-0.2832630575 -0.1053055078 0.5799903274 4286423769
-0.2833078802 -0.1046776548 0.5800821185 4286686941
-0.2833524346 -0.1040495038 0.5801733136 4287278567
-0.2833967507 -0.1034210548 0.5802640319 4288133876
-0.2838741839 -0.1029494926 0.5812416673 4289644268
-0.2839180529 -0.1023195013 0.5813314319 4290302198
-0.2843951881 -0.1018444672 0.5823084116 4291814121
-0.2844386101 -0.1012129262 0.5823972821 4292603637
-0.2900705338 -0.2238273174 0.5952826142 4293060854
-0.2901583314 -0.2232334614 0.5954627991 4292797941
-0.2902459502 -0.2226390690 0.5956426263 4292666355
-0.2903333902 -0.2220441401 0.5958220363 4292534771
-0.2904206514 -0.2214486748 0.5960010886 4292403185
-0.2905077338 -0.2208526731 0.5961797833 4292337650
-0.2905946076 -0.2202561200 0.5963581204 4292206064
-0.2902654707 -0.2193448097 0.5956826210 4291943662
-0.2899358869 -0.2184346616 0.5950062871 4291943662
-0.2900219858 -0.2178382277 0.5951829553 4291944174
-0.2905240953 -0.2175529450 0.5962134600 4291878381
-0.2906099558 -0.2169545889 0.5963895917 4291681256
-0.2906956077 -0.2163557112 0.5965653658 4291483877
-0.2907810807 -0.2157563120 0.5967407823 4291023852
-0.2908663750 -0.2151563764 0.5969158411 4290431715
-0.2909514606 -0.2145559043 0.5970904231 4289839836
-0.2910363674 -0.2139549255 0.5972647071 4289050320
-0.2911210954 -0.2133534104 0.5974385738 4287998152
-0.2912056148 -0.2127513587 0.5976120234 4287406015
-0.2912899554 -0.2121488005 0.5977851152 4286682552
-0.2909566760 -0.2112426311 0.5971011519 4285695657
-0.2910405099 -0.2106398940 0.5972731709 4284972965
-0.2911241651 -0.2100366205 0.5974448323 4284512414
-0.2912076116 -0.2094328403 0.5976161361 4284250018
-0.2912908792 -0.2088285387 0.5977869630 4284447397
-0.2917919755 -0.2085224539 0.5988153815 4283987107
-0.2918749750 -0.2079162598 0.5989856720 4283658142
-0.2919577658 -0.2073095292 0.5991556048 4283658913
-0.2920403779 -0.2067022920 0.5993251204 4283790499
-0.2921227813 -0.2060945332 0.5994942188 4283986597
-0.2917863429 -0.2051918805 0.5988038182 4283657632
-0.2918682396 -0.2045839727 0.5989719033 4283393688
