VERSION 0.7
FIELDS x y z rgba
SIZE 4 4 4 4
TYPE F F F U
COUNT 1 1 1 1
WIDTH 920
HEIGHT 1
VIEWPOINT 0.0 0.0 0.0 1.0 0.0 0.0 0.0
POINTS 920
DATA ascii
-0.2735350430 -0.1430426538 0.5867592096 4283591595
-0.2735929489 -0.1424208730 0.5868834853 4283328423
-0.2736506462 -0.1417986900 0.5870072246 4282933665
-0.2732952535 -0.1409631968 0.5862448812 4282933665
-0.2733524144 -0.1403411627 0.5863674879 4283064740
-0.2734093368 -0.1397187561 0.5864895582 4282867361
-0.2734660208 -0.1390959620 0.5866111517 4283129764
-0.2735224664 -0.1384727806 0.5867322683 4283195557
-0.2735787034 -0.1378491968 0.5868528485 4283195812
-0.2736347020 -0.1372252405 0.5869730115 4283195812
-0.2732770145 -0.1363945603 0.5862057805 4283064226
-0.2733324766 -0.1357707977 0.5863246918 4282735261
-0.2733877003 -0.1351466328 0.5864431262 4282537882
-0.2734426558 -0.1345221102 0.5865610838 4282406296
-0.2734974325 -0.1338972002 0.5866785049 4282209431
-0.2735519409 -0.1332719177 0.5867954493 4282012052
-0.2736062109 -0.1326462626 0.5869119167 4281749134
-0.2736602724 -0.1320202351 0.5870278478 4281485962
-0.2737140954 -0.1313938349 0.5871433020 4281420169
-0.2737676799 -0.1307670772 0.5872582197 4281354376
-0.2738210261 -0.1301399469 0.5873726606 4281354376
-0.2738741338 -0.1295124441 0.5874865651 4281420169
-0.2743414044 -0.1290795654 0.5884889364 4281486219
-0.2743941247 -0.1284503937 0.5886020660 4281683598
-0.2744466066 -0.1278208494 0.5887145996 4281749134
-0.2744988501 -0.1271909475 0.5888266563 4281880720
-0.2745508552 -0.1265607029 0.5889382362 4282406294
-0.2750174105 -0.1261203140 0.5899390578 4282603673
-0.2750689983 -0.1254883856 0.5900497437 4282800280
-0.2751203775 -0.1248561069 0.5901598930 4282997659
-0.2751714885 -0.1242234707 0.5902695656 4283194268
-0.2756374776 -0.1237768978 0.5912691951 4283260061
-0.2756882012 -0.1231426150 0.5913779736 4283325595
-0.2753234208 -0.1223234758 0.5905954242 4283391388
-0.2757889032 -0.1218729839 0.5915939808 4283587997
-0.2754234672 -0.1210550666 0.5908101201 4283653790
-0.2754731476 -0.1204203442 0.5909166336 4283850656
-0.2755225599 -0.1197852865 0.5910226703 4284048035
-0.2755717635 -0.1191498786 0.5911281705 4284179362
-0.2756206989 -0.1185141355 0.5912331343 4284245155
-0.2756693959 -0.1178780571 0.5913376212 4284573350
-0.2761336863 -0.1174184754 0.5923336148 4284704936
-0.2761819661 -0.1167807654 0.5924371481 4284770729
-0.2762300074 -0.1161427125 0.5925401449 4284968108
-0.2762777805 -0.1155043393 0.5926426649 4285099949
-0.2763253152 -0.1148656309 0.5927446485 4285034156
-0.2763726115 -0.1142265946 0.5928460956 4285362606
-0.2764196396 -0.1135872304 0.5929470062 4285428399
-0.2764664292 -0.1129475385 0.5930473804 4285362606
-0.2765129805 -0.1123075262 0.5931472182 4285231020
-0.2769757807 -0.1118353605 0.5941399336 4285427883
-0.2770218849 -0.1111937389 0.5942388773 4285691055
-0.2770677507 -0.1105517969 0.5943372250 4285888434
-0.2771133780 -0.1099095345 0.5944350958 4285888434
-0.2771587372 -0.1092669591 0.5945323706 4285888432
-0.2767869830 -0.1084607244 0.5937349796 4285954225
-0.2768317759 -0.1078184843 0.5938310623 4286085813
-0.2768763304 -0.1071759388 0.5939266086 4286151606
-0.2769206166 -0.1065330803 0.5940216184 4286086329
-0.2765475214 -0.1057304442 0.5932213068 4286152122
-0.2765912414 -0.1050879434 0.5933151245 4286349501
-0.2766347229 -0.1044451371 0.5934083462 4286481087
-0.2762606144 -0.1036454663 0.5926058292 4286152376
-0.2763034999 -0.1030030251 0.5926978588 4286283962
-0.2763461471 -0.1023602933 0.5927892923 4286283443
-0.2763885260 -0.1017172635 0.5928802490 4286151857
-0.2768482268 -0.1012266129 0.5938663483 4286743475
-0.2768901587 -0.1005820185 0.5939562917 4287401405
-0.2765141428 -0.0997864008 0.5931497216 4288387782
-0.2765555084 -0.0991421938 0.5932384729 4289243091
-0.2765966356 -0.0984977037 0.5933266282 4289967312
-0.2762196064 -0.0977051109 0.5925178528 4290493656
-0.2762601376 -0.0970610231 0.5926048160 4290888666
-0.2758824229 -0.0962707922 0.5917946100 4291151838
-0.2755043209 -0.0954822227 0.5909835100 4291348957
-0.2751258314 -0.0946953297 0.5901716352 4291348957
-0.2751651704 -0.0940530524 0.5902560353 4291283416
-0.2752042413 -0.0934104994 0.5903398395 4291349209
-0.2752430439 -0.0927676708 0.5904231071 4291612378
-0.2748632431 -0.0919845626 0.5896083713 4291612378
-0.2744830847 -0.0912031457 0.5887928605 4291744218
-0.2745209932 -0.0905614644 0.5888742208 4291744218
-0.2741401494 -0.0897824466 0.5880572200 4291810009
-0.2745960951 -0.0892773122 0.5890352726 4291875802
-0.2742145956 -0.0884997323 0.5882169008 4292007388
-0.2742514312 -0.0878579840 0.5882959366 4292007388
-0.2738692462 -0.0870828182 0.5874761343 4292007137
-0.2734867036 -0.0863093659 0.5866555572 4292007137
-0.2731037736 -0.0855376124 0.5858341455 4292072929
-0.2731394172 -0.0848977864 0.5859106183 4292072929
-0.2727558315 -0.0841284841 0.5850877166 4292138722
-0.2727908790 -0.0834891424 0.5851629376 4292007136
-0.2724066079 -0.0827222914 0.5843386650 4292007390
-0.2720219791 -0.0819571614 0.5835135579 4292007390
-0.2720561624 -0.0813190565 0.5835868716 4292270562
-0.2716708481 -0.0805563927 0.5827603340 4292204769
-0.2717044652 -0.0799187869 0.5828324556 4292270308
-0.2717378139 -0.0792809576 0.5829040408 4292336101
-0.2713515162 -0.0785215199 0.5820753574 4292467171
-0.2713842988 -0.0778842047 0.5821456909 4292532964
-0.2714168429 -0.0772466585 0.5822154880 4292796134
-0.2714490891 -0.0766088814 0.5822846889 4292993513
-0.2714811265 -0.0759708807 0.5823533535 4293388525
-0.2710932195 -0.0752162188 0.5815212727 4293651697
-0.2711246610 -0.0745787546 0.5815886855 4293914869
-0.2711558342 -0.0739410669 0.5816556215 4294243834
-0.2711867392 -0.0733031631 0.5817219019 4294507006
-0.2707975805 -0.0725525618 0.5808870792 4294638591
-0.2708279192 -0.0719152093 0.5809521675 4294704383
-0.2712779343 -0.0713881552 0.5819175243 4294835967
-0.2708878219 -0.0706398785 0.5810807347 4294901759
-0.2709173858 -0.0700018927 0.5811441541 4294835967
-0.2709467113 -0.0693637058 0.5812069774 4294704382
-0.2705556154 -0.0686187521 0.5803681016 4294704382
-0.2705843449 -0.0679811463 0.5804297328 4294770175
-0.2706128359 -0.0673433319 0.5804908276 4294770175
-0.2706410289 -0.0667053163 0.5805513263 4294704382
-0.2702486813 -0.0659645125 0.5797097087 4294704382
-0.2702763379 -0.0653270930 0.5797689557 4294770175
-0.2707240880 -0.0647900924 0.5807294846 4294835967
-0.2707512379 -0.0641512945 0.5807877183 4294770175
-0.2707781494 -0.0635123029 0.5808454156 4294770175
-0.2703842521 -0.0627754927 0.5800005198 4294835967
-0.2704105973 -0.0621371232 0.5800569654 4294770175
-0.2700160742 -0.0614029206 0.5792106986 4294704383
-0.2700418234 -0.0607651733 0.5792659521 4294770175
-0.2700673044 -0.0601272397 0.5793206096 4294309626
-0.2700925469 -0.0594891310 0.5793747306 4294243833
-0.2701174915 -0.0588508435 0.5794282556 4294112248
-0.2701421976 -0.0582123771 0.5794812441 4294046455
-0.2701666355 -0.0575737394 0.5795336366 4293849076
-0.2701908052 -0.0569349304 0.5795854926 4293585904
-0.2702147067 -0.0562959462 0.5796367526 4293585650
-0.2706592679 -0.0557434894 0.5805904269 4293783029
-0.2706826627 -0.0551031791 0.5806406140 4293849075
-0.2707058191 -0.0544627011 0.5806902647 4293651696
-0.2711497247 -0.0539057627 0.5816425085 4293783282
-0.2707637548 -0.1652188152 0.5822016001 4293259257
-0.2708294690 -0.1646119058 0.5823429823 4293127671
-0.2708950043 -0.1640045494 0.5824838281 4292996855
-0.2709603012 -0.1633967459 0.5826242566 4292931062
-0.2710253894 -0.1627885103 0.5827642083 4292865015
-0.2710902691 -0.1621798277 0.5829037428 4292733429
-0.2715639174 -0.1618144065 0.5839222074 4292667897
-0.2716284990 -0.1612039506 0.5840610266 4292602104
-0.2716928124 -0.1605930477 0.5841993690 4292404728
-0.2717569470 -0.1599817127 0.5843372345 4292207349
-0.2718208730 -0.1593699455 0.5844746828 4292797944
-0.2722940445 -0.1589968354 0.5854920745 4292600565
-0.2723576128 -0.1583832800 0.5856288075 4292600565
-0.2724209726 -0.1577693075 0.5857650042 4292468979
-0.2724841237 -0.1571548879 0.5859007835 4292206319
-0.2725470364 -0.1565400660 0.5860360861 4292140526
-0.2726097405 -0.1559247971 0.5861709714 4291812588
-0.2722622156 -0.1550755650 0.5854236484 4291681002
-0.2723243833 -0.1544603854 0.5855573416 4291155175
-0.2723863423 -0.1538447887 0.5856905580 4290760417
-0.2724480927 -0.1532287747 0.5858233571 4290103008
-0.2725096047 -0.1526123285 0.5859556198 4289510871
-0.2725709081 -0.1519954801 0.5860874057 4288787669
-0.2726320028 -0.1513781995 0.5862187743 4288129739
-0.2726928592 -0.1507605165 0.5863496065 4287274178
-0.2727534771 -0.1501424164 0.5864800215 4286616248
-0.2724030316 -0.1492987275 0.5857264400 4285563584
-0.2724631429 -0.1486807317 0.5858556628 4285497791
-0.2725230157 -0.1480623335 0.5859844089 4284840374
-0.2725826502 -0.1474435329 0.5861126781 4284182444
-0.2726421058 -0.1468243301 0.5862404704 4284051369
-0.2722899914 -0.1459841877 0.5854833722 4284314541
-0.2723488808 -0.1453651190 0.5856099725 4284643506
-0.2724075317 -0.1447456330 0.5857361555 4284709299
-0.2724659741 -0.1441257447 0.5858618021 4284775862
-0.2725242078 -0.1435054690 0.5859869719 4284644276
-0.2725821733 -0.1428847909 0.5861116648 4284841912
-0.2726399601 -0.1422637254 0.5862358809 4285039291
-0.2726974785 -0.1416422576 0.5863595605 4284579510
-0.2727547884 -0.1410204023 0.5864828229 4284382131
-0.2723997533 -0.1401860565 0.5857194066 4284250545
-0.2724565268 -0.1395643651 0.5858414769 4283789994
-0.2725130618 -0.1389422715 0.5859630108 4283590568
-0.2725693583 -0.1383198053 0.5860841274 4283458982
-0.2726254463 -0.1376969367 0.5862046480 4283327394
-0.2726812959 -0.1370736957 0.5863247514 4282998429
-0.2727369070 -0.1364500821 0.5864443183 4282801050
-0.2723795772 -0.1356205791 0.5856760144 4282866843
-0.2724346519 -0.1349971443 0.5857944489 4282932638
-0.2724894881 -0.1343733221 0.5859123468 4282932638
-0.2725440860 -0.1337491274 0.5860297680 4283195297
-0.2725984752 -0.1331245601 0.5861466527 4282997918
-0.2726525962 -0.1324996203 0.5862630606 4282603414
-0.2727065086 -0.1318743080 0.5863789916 4282406035
-0.2731734514 -0.1314474940 0.5873830318 4282274449
-0.2732269764 -0.1308204830 0.5874981284 4282077070
-0.2732802629 -0.1301931143 0.5876126885 4281945230
-0.2733333111 -0.1295653880 0.5877267122 4281945230
-0.2733861208 -0.1289372891 0.5878403187 4281419399
-0.2734386921 -0.1283088177 0.5879533291 4281353606
-0.2734910250 -0.1276800036 0.5880658627 4281156227
-0.2735431194 -0.1270508170 0.5881779194 4281090434
-0.2735949755 -0.1264212728 0.5882894397 4281287813
-0.2736466229 -0.1257913709 0.5884004235 4281419399
-0.2741120756 -0.1253504604 0.5894012451 4281616519
-0.2741633058 -0.1247189045 0.5895113945 4281879691
-0.2742142677 -0.1240869835 0.5896210074 4282076557
-0.2742650211 -0.1234547123 0.5897301435 4282142350
-0.2747299075 -0.1230076253 0.5907297134 4282470799
-0.2743657827 -0.1221891269 0.5899468064 4282602385
-0.2744158208 -0.1215558127 0.5900543332 4282668178
-0.2744655907 -0.1209221482 0.5901613832 4282733971
-0.2745151222 -0.1202881411 0.5902678967 4282997141
-0.2745644152 -0.1196537986 0.5903739333 4283194520
-0.2746134698 -0.1190191060 0.5904793739 4283653018
-0.2746622860 -0.1183840781 0.5905843377 4283718811
-0.2751258016 -0.1179265827 0.5915810466 4284047006
-0.2751742005 -0.1172899157 0.5916850567 4284244385
-0.2752223611 -0.1166529208 0.5917885900 4284244385
-0.2752702534 -0.1160155907 0.5918915868 4284441764
-0.2753179073 -0.1153779253 0.5919940472 4284639398
-0.2753653228 -0.1147399321 0.5920960307 4284705191
-0.2754124701 -0.1141016111 0.5921974182 4284836262
-0.2758748829 -0.1136341020 0.5931916833 4284836262
-0.2759216130 -0.1129941642 0.5932921767 4285230506
-0.2759681046 -0.1123538986 0.5933921337 4285296299
-0.2760143280 -0.1117133126 0.5934915543 4285296297
-0.2760603428 -0.1110724062 0.5935904384 4285427883
-0.2761060596 -0.1104311794 0.5936887860 4285559469
-0.2761515677 -0.1097896323 0.5937865973 4285493676
-0.2761968076 -0.1091477722 0.5938838720 4285362088
-0.2762418091 -0.1085055992 0.5939806700 4285493674
-0.2758704424 -0.1077006683 0.5931821465 4285625262
-0.2759148777 -0.1070588380 0.5932776928 4285691055
-0.2759590447 -0.1064166948 0.5933726430 4285822643
-0.2760029435 -0.1057742462 0.5934670568 4285888436
-0.2760466337 -0.1051314920 0.5935609937 4286020020
-0.2760900259 -0.1044884324 0.5936543345 4286085813
-0.2761332095 -0.1038450748 0.5937471390 4286414778
-0.2757595479 -0.1030457541 0.5929437280 4286348985
-0.2758021355 -0.1024027616 0.5930352807 4286085813
-0.2762611508 -0.1019131914 0.5940222740 4286085813
-0.2763033211 -0.1012686417 0.5941129327 4286283190
-0.2763451934 -0.1006237939 0.5942029953 4286348983
-0.2763868272 -0.0999786481 0.5942925215 4286415031
-0.2764282227 -0.0993332192 0.5943815112 4286612410
-0.2760523558 -0.0985386521 0.5935732722 4287532473
-0.2760931551 -0.0978936180 0.5936610103 4288124610
-0.2757165730 -0.0971013978 0.5928513408 4288980170
-0.2757568061 -0.0964567661 0.5929378271 4289769686
-0.2753795683 -0.0956669077 0.5921266079 4290493658
-0.2750019133 -0.0948787257 0.5913146138 4291020002
-0.2750412524 -0.0942352116 0.5913991928 4291349215
-0.2746629119 -0.0934494063 0.5905857086 4291612387
-0.2747016847 -0.0928063169 0.5906690955 4291349466
-0.2747402191 -0.0921629667 0.5907518864 4291415259
-0.2743608654 -0.0913802534 0.5899362564 4291612632
-0.2743988037 -0.0907373354 0.5900177956 4291612632
-0.2744365036 -0.0900941566 0.5900988579 4291546839
-0.2744739354 -0.0894507095 0.5901793242 4291678425
-0.2740932703 -0.0886718333 0.5893608332 4291810009
-0.2741301358 -0.0880288482 0.5894400477 4291875802
-0.2737487853 -0.0872523934 0.5886201262 4291678425
-0.2737850547 -0.0866098702 0.5886980891 4291678425
-0.2734030485 -0.0858358443 0.5878766775 4291809757
-0.2730206549 -0.0850635320 0.5870544314 4292007136
-0.2730560303 -0.0844222158 0.5871305466 4292007136
-0.2726729512 -0.0836523473 0.5863068700 4291941343
-0.2722895145 -0.0828841999 0.5854823589 4291941597
-0.2719057202 -0.0821177810 0.5846571326 4291941597
-0.2719399333 -0.0814784318 0.5847306848 4291875804
-0.2715554535 -0.0807144716 0.5839039683 4291941597
-0.2720075548 -0.0801990107 0.5848760605 4292007390
-0.2716224492 -0.0794365481 0.5840480328 4292138976
-0.2712369859 -0.0786758214 0.5832191706 4292335585
-0.2712697685 -0.0780372620 0.5832897425 4292269792
-0.2708836496 -0.0772790238 0.5824594498 4292401378
-0.2709158957 -0.0766409934 0.5825287700 4292598757
-0.2709478438 -0.0760027245 0.5825974941 4292335585
-0.2709795535 -0.0753642395 0.5826656818 4292532964
-0.2705921531 -0.0746100321 0.5818326473 4292861929
-0.2706232965 -0.0739720911 0.5818996429 4293256687
-0.2706541717 -0.0733339265 0.5819660425 4293717236
-0.2711038291 -0.0728080720 0.5829328299 4294046201
-0.2707151473 -0.0720569491 0.5820971727 4294309627
-0.2707452476 -0.0714181364 0.5821619034 4294572799
-0.2707751095 -0.0707791075 0.5822260380 4294572798
-0.2703854740 -0.0700313002 0.5813882351 4294704383
-0.2704147398 -0.0693928450 0.5814511776 4294770175
-0.2700244486 -0.0686475933 0.5806120038 4294835967
-0.2700531781 -0.0680097193 0.5806736946 4294901759
-0.2700816095 -0.0673716441 0.5807348490 4294836222
-0.2701097727 -0.0667333677 0.5807954669 4294638843
-0.2697182298 -0.0659922585 0.5799535513 4294573050
-0.2701653540 -0.0654562190 0.5809149146 4294573564
-0.2701927423 -0.0648173541 0.5809738040 4294639357
-0.2698002756 -0.0640786365 0.5801299214 4294770429
-0.2698270977 -0.0634403750 0.5801876187 4294704636
-0.2698536515 -0.0628019273 0.5802447200 4294638843
-0.2698799372 -0.0621632896 0.5803012252 4294638843
-0.2694862187 -0.0614287853 0.5794546604 4294704382
-0.2695119381 -0.0607907698 0.5795099735 4294704382
-0.2695373893 -0.0601525754 0.5795646906 4294835967
-0.2695626020 -0.0595142022 0.5796188712 4294572798
-0.2695875466 -0.0588756502 0.5796725154 4294440699
-0.2696121931 -0.0582369193 0.5797255635 4294440699
-0.2692166269 -0.0575083010 0.5788749456 4294309113
-0.2692407072 -0.0568702221 0.5789268017 4293914355
-0.2696846128 -0.0563196950 0.5798812509 4293783283
-0.2697082460 -0.0556802787 0.5799320340 4294178041
-0.2697315812 -0.0550406985 0.5799822211 4294046454
-0.2697546482 -0.0544009507 0.5800318718 4293783282
-0.2697774768 -0.0537610389 0.5800809264 4293651696
-0.2706405222 -0.0532864518 0.5819366574 4293980661
-0.2702071965 -0.1613914222 0.5823957920 4293063160
-0.2702714801 -0.1607825905 0.5825343728 4292997367
-0.2707439363 -0.1604152620 0.5835526586 4293062905
-0.2708078921 -0.1598046422 0.5836904645 4292865526
-0.2708716094 -0.1591935754 0.5838278532 4293258495
-0.2709351480 -0.1585820764 0.5839647651 4293258495
-0.2709984481 -0.1579701602 0.5841012597 4293324287
-0.2710615396 -0.1573578119 0.5842372179 4293126908
-0.2711244226 -0.1567450315 0.5843727589 4292864501
-0.2711870968 -0.1561318338 0.5845078230 4292732915
-0.2712495327 -0.1555182040 0.5846424103 4292404718
-0.2713117599 -0.1549041569 0.5847765803 4292404718
-0.2709644735 -0.1540569663 0.5840280056 4292272880
-0.2710261643 -0.1534430087 0.5841609836 4292141294
-0.2710876465 -0.1528286189 0.5842934847 4292009970
-0.2711489201 -0.1522138268 0.5844255686 4291944177
-0.2712099552 -0.1515986025 0.5845571160 4291681521
-0.2712707818 -0.1509829760 0.5846881866 4291484142
-0.2713313997 -0.1503669322 0.5848188400 4291155175
-0.2713917792 -0.1497504711 0.5849489570 4290694624
-0.2710418701 -0.1489083171 0.5841948390 4289904607
-0.2711017430 -0.1482919753 0.5843238235 4289904607
-0.2711613476 -0.1476752162 0.5844523311 4289050071
-0.2712207437 -0.1470580697 0.5845803618 4287800004
-0.2712799311 -0.1464405060 0.5847079158 4286615996
-0.2713389099 -0.1458225250 0.5848349929 4285826480
-0.2713976204 -0.1452041566 0.5849615932 4285037228
-0.2714561224 -0.1445853859 0.5850877166 4284839849
-0.2715144157 -0.1439662278 0.5852133632 4284445869
-0.2715724707 -0.1433466524 0.5853384733 4284116904
-0.2716303170 -0.1427266896 0.5854631066 4283986094
-0.2716879249 -0.1421063244 0.5855872631 4284249266
-0.2717452943 -0.1414855719 0.5857109427 4284052916
-0.2718024552 -0.1408644319 0.5858341455 4284381881
-0.2718593776 -0.1402428895 0.5859568119 4284645055
-0.2719160616 -0.1396209598 0.5860790610 4284513469
-0.2719725370 -0.1389986426 0.5862007737 4283855019
-0.2720287740 -0.1383759379 0.5863219500 4283920812
-0.2720847726 -0.1377528459 0.5864427090 4284381104
-0.2717288435 -0.1369219273 0.5856755376 4284315311
-0.2717843354 -0.1362990141 0.5857950449 4284052139
-0.2718395591 -0.1356757134 0.5859141350 4283920553
-0.2718945444 -0.1350520402 0.5860326886 4283656613
-0.2719493210 -0.1344279945 0.5861507058 4283327648
-0.2724159956 -0.1340063065 0.5871565938 4283261342
-0.2724703848 -0.1333805472 0.5872737765 4283129756
-0.2725245357 -0.1327544302 0.5873905420 4282997657
-0.2721661031 -0.1319280416 0.5866179466 4282931864
-0.2722197175 -0.1313021332 0.5867334604 4282997143
-0.2722730935 -0.1306758374 0.5868484974 4282799764
-0.2723262310 -0.1300491840 0.5869630575 4282799510
-0.2723791301 -0.1294221729 0.5870770812 4282996889
-0.2720190287 -0.1285996437 0.5863009095 4282799512
-0.2720713615 -0.1279728413 0.5864138007 4282536340
-0.2725364268 -0.1275389344 0.5874161124 4282142350
-0.2725884020 -0.1269104630 0.5875281096 4282010764
-0.2726401091 -0.1262816340 0.5876396298 4281879691
-0.2726916075 -0.1256524473 0.5877506137 4281682312
-0.2727428377 -0.1250229031 0.5878610611 4281616006
-0.2727938592 -0.1243930086 0.5879709721 4281616006
-0.2728446424 -0.1237627640 0.5880804062 4281352832
-0.2728951573 -0.1231321618 0.5881893635 4281352832
-0.2733590007 -0.1226868257 0.5891891122 4281549697
-0.2734091282 -0.1220545694 0.5892971754 4281615490
-0.2730453312 -0.1212382764 0.5885129571 4281484672
-0.2735086679 -0.1207890213 0.5895116925 4281682051
-0.2735580802 -0.1201557368 0.5896181464 4282011273
-0.2736072242 -0.1195221022 0.5897241235 4282274445
-0.2736561596 -0.1188881323 0.5898295641 4282863755
-0.2737048268 -0.1182538196 0.5899344683 4283061134
-0.2737532556 -0.1176191717 0.5900388956 4283455122
-0.2742156982 -0.1171611622 0.5910355449 4283652501
-0.2742637098 -0.1165248826 0.5911390185 4283783574
-0.2743114829 -0.1158882678 0.5912420154 4283915160
-0.2743590176 -0.1152513176 0.5913444757 4284112793
-0.2744062841 -0.1146140471 0.5914463997 4284310172
-0.2748678923 -0.1141486093 0.5924413204 4284441758
-0.2749147713 -0.1135097146 0.5925423503 4284244379
-0.2749613822 -0.1128704920 0.5926427841 4284637854
-0.2750077546 -0.1122309417 0.5927427411 4284769440
-0.2750538588 -0.1115910709 0.5928421617 4284637854
-0.2755146623 -0.1111182272 0.5938353539 4284769440
-0.2755603492 -0.1104767546 0.5939338207 4285164452
-0.2756057978 -0.1098349616 0.5940317512 4285361831
-0.2756509781 -0.1091928482 0.5941291451 4284902560
-0.2752807140 -0.1083869413 0.5933310986 4284968353
-0.2753253579 -0.1077451706 0.5934273005 4285230502
-0.2753697038 -0.1071030945 0.5935229063 4285296295
-0.2754138410 -0.1064606979 0.5936180353 4285427370
-0.2754577100 -0.1058179960 0.5937125683 4285558956
-0.2755013108 -0.1051749960 0.5938065648 4285690544
-0.2755446732 -0.1045316830 0.5939000249 4285690544
-0.2751721442 -0.1037313715 0.5930970311 4285756337
-0.2752149105 -0.1030884311 0.5931892991 4285887923
-0.2756732702 -0.1025999412 0.5941771865 4285888436
-0.2757156193 -0.1019554287 0.5942684412 4286020022
-0.2757577002 -0.1013106182 0.5943591595 4286020790
-0.2757995427 -0.1006655172 0.5944494009 4285954997
-0.2758411467 -0.1000201181 0.5945389867 4285823921
-0.2758824825 -0.0993744358 0.5946280956 4286021300
-0.2755073905 -0.0985795483 0.5938196182 4286348212
-0.2755481303 -0.0979342535 0.5939074755 4286348212
-0.2751723528 -0.0971417204 0.5930975080 4286480048
-0.2752125263 -0.0964968354 0.5931841135 4286940599
-0.2752524614 -0.0958516747 0.5932701826 4287664825
-0.2748756707 -0.0950621963 0.5924580693 4288651720
-0.2749150395 -0.0944174454 0.5925428867 4289638349
-0.2745375335 -0.0936303511 0.5917292237 4290164693
-0.2745763063 -0.0929860324 0.5918128490 4290888919
-0.2746148407 -0.0923414379 0.5918958783 4291086298
-0.2746531069 -0.0916965753 0.5919783711 4291283673
-0.2746911347 -0.0910514444 0.5920603275 4291349466
-0.2743119895 -0.0902688652 0.5912431479 4291349206
-0.2743494511 -0.0896241814 0.5913238525 4291349206
-0.2739696205 -0.0888440087 0.5905051827 4291546585
-0.2740064859 -0.0881997868 0.5905846357 4291612378
-0.2740431130 -0.0875552967 0.5906635523 4291744218
-0.2736622691 -0.0867782682 0.5898427367 4291612632
-0.2732810974 -0.0860029534 0.5890211463 4291678171
-0.2733168304 -0.0853596628 0.5890981555 4291809757
-0.2729349434 -0.0845867842 0.5882750750 4291809757
-0.2725527287 -0.0838156268 0.5874512196 4291809757
-0.2725875378 -0.0831735581 0.5875263214 4291810011
-0.2722046375 -0.0824048519 0.5867010355 4291744218
-0.2718213499 -0.0816378742 0.5858749151 4291810009
-0.2718553245 -0.0809970424 0.5859481096 4291875802
-0.2718890011 -0.0803559721 0.5860207081 4291810011
-0.2715047598 -0.0795922130 0.5851925015 4291875804
-0.2711201310 -0.0788301900 0.5843634605 4292007390
-0.2711529434 -0.0781903788 0.5844342113 4292007390
-0.2711854875 -0.0775503442 0.5845043659 4292138976
-0.2707999051 -0.0767915696 0.5836732388 4292336355
-0.2708318830 -0.0761520565 0.5837422013 4292598759
-0.2708635926 -0.0755123273 0.5838105679 4292532966
-0.2704770267 -0.0747568235 0.5829773545 4292467171
-0.2705081701 -0.0741176307 0.5830445290 4292598757
-0.2705390751 -0.0734782144 0.5831111073 4292796134
-0.2709878981 -0.0729511678 0.5840784907 4292993513
-0.2706000805 -0.0721987411 0.5832425952 4293256939
-0.2706302106 -0.0715586767 0.5833075047 4293585904
-0.2702417076 -0.0708087906 0.5824701786 4293980661
-0.2702712715 -0.0701692924 0.5825338960 4294243833
-0.2698821127 -0.0694219619 0.5816951394 4294573050
-0.2699111104 -0.0687830374 0.5817576051 4294770429
-0.2695212960 -0.0680382624 0.5809174180 4294901757
-0.2695496976 -0.0673999265 0.5809786320 4294836220
-0.2695778608 -0.0667613894 0.5810393095 4294770427
-0.2696057260 -0.0661226511 0.5810994506 4294770427
-0.2696333528 -0.0654837191 0.5811589360 4294507771
-0.2692419887 -0.0647438988 0.5803154111 4294573564
-0.2692690492 -0.0641055629 0.5803737044 4294639357
-0.2692958415 -0.0634670407 0.5804314613 4294639357
-0.2693223655 -0.0628283322 0.5804886222 4294770429
-0.2693486214 -0.0621894300 0.5805452466 4294770429
-0.2689557076 -0.0614546202 0.5796983242 4294705151
-0.2689813972 -0.0608163439 0.5797536969 4294705151
-0.2690068185 -0.0601778850 0.5798085332 4294573567
-0.2686129510 -0.0594465062 0.5789595842 4294639359
-0.2690569162 -0.0589004308 0.5799164772 4294901759
-0.2686624229 -0.0581706874 0.5790662169 4294638591
-0.2686867416 -0.0575325154 0.5791186690 4294572285
-0.2682916224 -0.0568054095 0.5782670379 4294572285
-0.2687346339 -0.0562556535 0.5792219043 4294309627
-0.2687581778 -0.0556169711 0.5792726278 4294309627
-0.2683621645 -0.0548923500 0.5784190297 4294243833
-0.2688044906 -0.0543391034 0.5793724060 4294375419
-0.2688272297 -0.0536999218 0.5794214606 4294112247
-0.2692691386 -0.0531433597 0.5803739429 4293783282
-0.2698597908 -0.1596272886 0.5830427408 4293324788
-0.2699233592 -0.1590169370 0.5831800699 4293259510
-0.2699867189 -0.1584061533 0.5833169818 4293193717
-0.2700498402 -0.1577949375 0.5834533572 4293061877
-0.2701127827 -0.1571833044 0.5835893154 4292930291
-0.2701754868 -0.1565712392 0.5837247968 4292798706
-0.2702379823 -0.1559587419 0.5838598609 4292667120
-0.2703002691 -0.1553458273 0.5839943886 4292470257
-0.2703623176 -0.1547324806 0.5841284990 4292404464
-0.2700156569 -0.1538859159 0.5833795071 4292272882
-0.2700771987 -0.1532726586 0.5835124850 4292207089
-0.2697298229 -0.1524280310 0.5827619433 4292009455
-0.2697908282 -0.1518148631 0.5828937888 4291877869
-0.2698516250 -0.1512012929 0.5830250978 4291746285
-0.2699121833 -0.1505873054 0.5831559300 4291680492
-0.2699725330 -0.1499729007 0.5832863450 4291614701
-0.2696235180 -0.1491317749 0.5825322866 4291548908
-0.2696833313 -0.1485174894 0.5826615095 4291417571
-0.2697429359 -0.1479027867 0.5827902555 4291417571
-0.2698023021 -0.1472876817 0.5829185843 4291286245
-0.2698614597 -0.1466721594 0.5830463767 4291088866
-0.2699204087 -0.1460562497 0.5831736922 4290562788
-0.2699791193 -0.1454399228 0.5833005309 4290102237
-0.2700375915 -0.1448232085 0.5834268928 4289444056
-0.2700958550 -0.1442060769 0.5835527778 4288917712
-0.2701538801 -0.1435885578 0.5836781859 4288128717
-0.2702116966 -0.1429706365 0.5838030577 4287207615
-0.2706794143 -0.1425683349 0.5848135948 4286155446
-0.2707368731 -0.1419486851 0.5849376917 4285234344
-0.2707940936 -0.1413286477 0.5850613117 4284510629
-0.2708511055 -0.1407082081 0.5851845145 4284379043
-0.2709078491 -0.1400873959 0.5853071213 4284444840
-0.2709644139 -0.1394661814 0.5854293108 4284247461
-0.2710207105 -0.1388445646 0.5855509639 4283788713
-0.2710767984 -0.1382225752 0.5856721401 4283986092
-0.2711326778 -0.1376002133 0.5857928395 4283986605
-0.2711882889 -0.1369774491 0.5859130621 4284052398
-0.2708327174 -0.1361477077 0.5851448178 4284380850
-0.2708878219 -0.1355251372 0.5852637887 4284644022
-0.2709426582 -0.1349021792 0.5853823423 4284906678
-0.2709972858 -0.1342788339 0.5855003595 4284840885
-0.2714629769 -0.1338579357 0.5865065455 4284840627
-0.2715172470 -0.1332329065 0.5866237283 4284248490
-0.2715712488 -0.1326075047 0.5867404342 4283853989
-0.2712134719 -0.1317817420 0.5859674215 4283459231
-0.2712669373 -0.1311565489 0.5860829353 4283130009
-0.2713201642 -0.1305309832 0.5861979723 4282998423
-0.2713731527 -0.1299050450 0.5863124728 4282866322
-0.2714259326 -0.1292787343 0.5864264369 4282734736
-0.2714784443 -0.1286520660 0.5865399241 4282930069
-0.2711187005 -0.1278307587 0.5857626796 4282798483
-0.2715828121 -0.1273976415 0.5867654085 4282732686
-0.2716346383 -0.1267698854 0.5868773460 4282732686
-0.2716862261 -0.1261417717 0.5869888067 4282667918
-0.2717375755 -0.1255133003 0.5870997310 4282536332
-0.2717886865 -0.1248844787 0.5872101784 4282207112
-0.2718395591 -0.1242552996 0.5873200893 4282009733
-0.2718901932 -0.1236257702 0.5874294639 4281812615
-0.2719405890 -0.1229958907 0.5875383615 4281549443
-0.2719907463 -0.1223656535 0.5876467228 4281549445
-0.2720406651 -0.1217350736 0.5877546072 4281549445
-0.2720903456 -0.1211041510 0.5878618956 4281221248
-0.2721397579 -0.1204728782 0.5879687071 4281221248
-0.2721889615 -0.1198412627 0.5880750418 4281221500
-0.2722379267 -0.1192093119 0.5881807804 4281024121
-0.2726998329 -0.1187569499 0.5891787410 4281483650
-0.2727483809 -0.1181233525 0.5892836452 4281615236
-0.2727966607 -0.1174894199 0.5893880129 4281878151
-0.2728447318 -0.1168551520 0.5894918442 4281812358
-0.2728925645 -0.1162205487 0.5895951390 4282205833
-0.2729401290 -0.1155856103 0.5896979570 4282534798
-0.2738146782 -0.1152986810 0.5915874839 4282995090
-0.2738619149 -0.1146611571 0.5916895270 4283521434
-0.2739089131 -0.1140233055 0.5917910337 4283849369
-0.2739556432 -0.1133851260 0.5918920040 4284244127
-0.2740021348 -0.1127466261 0.5919924378 4284572574
-0.2740483582 -0.1121077910 0.5920923352 4284638367
-0.2740943730 -0.1114686430 0.5921916962 4284769953
-0.2745542228 -0.1109965891 0.5931852460 4284769953
-0.2745997906 -0.1103558242 0.5932837129 4284638883
-0.2746451199 -0.1097147539 0.5933815837 4284770469
-0.2746901810 -0.1090733558 0.5934789777 4285295784
-0.2743206024 -0.1082681045 0.5926805139 4285361577
-0.2743651271 -0.1076270491 0.5927766562 4285427370
-0.2744093835 -0.1069856882 0.5928723216 4285427370
-0.2744533718 -0.1063440144 0.5929673910 4285624749
-0.2744971216 -0.1057020277 0.5930618644 4285624749
-0.2745406330 -0.1050597429 0.5931558609 4285625003
-0.2745838761 -0.1044171527 0.5932493210 4285690796
-0.2746268809 -0.1037742570 0.5933422446 4285822382
-0.2742547095 -0.1029752716 0.5925381184 4285953968
-0.2747121155 -0.1024875641 0.5935263634 4286019507
-0.2747543454 -0.1018437669 0.5936176181 4286085300
-0.2747963369 -0.1011996791 0.5937083364 4286151093
-0.2748380601 -0.1005552933 0.5937985182 4286151093
-0.2748795450 -0.0999106169 0.5938881040 4286151347
-0.2749207616 -0.0992656499 0.5939772129 4286282933
-0.2749617398 -0.0986203924 0.5940657258 4286349236
-0.2750024498 -0.0979748517 0.5941536427 4286283443
-0.2746274471 -0.0971819982 0.5933434367 4286546104
-0.2746675909 -0.0965368599 0.5934301615 4286480311
-0.2747074664 -0.0958914384 0.5935163498 4286414519
-0.2743314505 -0.0951016471 0.5927039385 4286611898
-0.2743707597 -0.0944566429 0.5927888751 4287072185
-0.2744098008 -0.0938113630 0.5928732157 4287664322
-0.2744486034 -0.0931658074 0.5929570794 4289045961
-0.2744871676 -0.0925199836 0.5930403471 4289835477
-0.2745254338 -0.0918738842 0.5931230783 4290888407
-0.2745634615 -0.0912275240 0.5932052135 4291348958
-0.2746012509 -0.0905808881 0.5932868123 4291612379
-0.2742226422 -0.0897977203 0.5924688578 4291612379
-0.2738436460 -0.0890162513 0.5916500092 4291677657
-0.2738805413 -0.0883707926 0.5917297006 4291809243
-0.2739171684 -0.0877250656 0.5918088555 4291875800
-0.2735371888 -0.0869467407 0.5909878612 4291678421
-0.2731568217 -0.0861701295 0.5901661515 4291744216
-0.2731925547 -0.0855255947 0.5902433395 4291875802
-0.2728115320 -0.0847514272 0.5894200802 4292007136
-0.2728466988 -0.0841073766 0.5894960761 4292138722
-0.2724649906 -0.0833356529 0.5886713862 4292335334
-0.2720829248 -0.0825656578 0.5878459215 4292269541
-0.2725339234 -0.0820482969 0.5888202786 4292137953
-0.2721512318 -0.0812797770 0.5879934430 4292137953
-0.2717681527 -0.0805129930 0.5871658325 4292138206
-0.2713847458 -0.0797479376 0.5863374472 4292138206
-0.2714178562 -0.0791061297 0.5864090323 4292138204
-0.2710337639 -0.0783435628 0.5855791569 4292203997
-0.2710663378 -0.0777022764 0.5856495500 4292335583
-0.2710986435 -0.0770607665 0.5857193470 4292467169
-0.2707135677 -0.0763014555 0.5848873854 4292335585
-0.2707453072 -0.0756604746 0.5849559307 4292269792
-0.2703595757 -0.0749036744 0.5841225386 4292335587
-0.2708080113 -0.0743778348 0.5850914121 4292401380
-0.2708389759 -0.0737361833 0.5851582885 4292401380
-0.2708696723 -0.0730943158 0.5852246284 4292467173
-0.2704826891 -0.0723405927 0.5843885541 4292598755
-0.2700953484 -0.0715886354 0.5835517049 4292598755
-0.2701251805 -0.0709480941 0.5836160779 4292927973
-0.2697371840 -0.0701986849 0.5827778578 4292993766
-0.2697664201 -0.0695587173 0.5828410387 4293256938
-0.2693777680 -0.0688118562 0.5820013285 4293717489
-0.2694064677 -0.0681724697 0.5820633173 4294112247
-0.2690171301 -0.0674281791 0.5812221766 4294507005
-0.2690452635 -0.0667893738 0.5812829137 4294705151
-0.2690730989 -0.0661503747 0.5813431144 4294770687
-0.2691006958 -0.0655111820 0.5814027190 4294835967
-0.2691280246 -0.0648717880 0.5814617276 4294835967
-0.2687371373 -0.0641324595 0.5806172490 4294835967
-0.2687638998 -0.0634936765 0.5806750655 4294835967
-0.2687903941 -0.0628546998 0.5807322860 4294901759
-0.2688166499 -0.0622155368 0.5807889700 4294901759
-0.2684245110 -0.0614804253 0.5799417496 4294901759
-0.2684501708 -0.0608418845 0.5799972415 4294770175
-0.2684755921 -0.0602031611 0.5800520778 4294835967
-0.2689189613 -0.0596570410 0.5810100436 4294704382
-0.2685256004 -0.0589251816 0.5801602006 4294835967
-0.2681319118 -0.0581951365 0.5793095827 4294901759
-0.2681562304 -0.0575567000 0.5793620944 4294901759
-0.2677618861 -0.0568292961 0.5785101652 4294901759
-0.2677856386 -0.0561915115 0.5785614848 4294901759
-0.2678091228 -0.0555535592 0.5786122084 4294704382
-0.2678323388 -0.0549154393 0.5786623359 4294704125
-0.2678552866 -0.0542771555 0.5787119865 4294572539
-0.2678779960 -0.0536387078 0.5787609816 4294375419
-0.2683190107 -0.0530829132 0.5797138214 4294178040
-0.2687598169 -0.0525249615 0.5806662440 4293717489
-0.2691649795 -0.1570085287 0.5829403996 4293324788
-0.2692275047 -0.1563971639 0.5830758810 4293127924
-0.2692898512 -0.1557853818 0.5832108259 4292996338
-0.2693519592 -0.1551731825 0.5833453536 4292930292
-0.2694138587 -0.1545605510 0.5834794044 4292864499
-0.2690678537 -0.1537145972 0.5827300549 4292601329
-0.2687214315 -0.1528700739 0.5819798112 4292535536
-0.2687824965 -0.1522580385 0.5821120739 4292469491
-0.2692512870 -0.1518757045 0.5831273794 4292272112
-0.2689039707 -0.1510327309 0.5823751092 4291943662
-0.2689643502 -0.1504194438 0.5825059414 4291746283
-0.2690245509 -0.1498057544 0.5826362967 4291680492
-0.2690845132 -0.1491916478 0.5827661157 4291614699
-0.2691442668 -0.1485771388 0.5828955173 4291483364
-0.2692037821 -0.1479622126 0.5830244422 4291614950
-0.2692630887 -0.1473468840 0.5831528902 4291614952
-0.2689134777 -0.1465084851 0.5823957324 4291483366
-0.2689722478 -0.1458932906 0.5825230479 4291352040
-0.2690308094 -0.1452776790 0.5826498270 4291352040
-0.2690891325 -0.1446616650 0.5827761292 4291417581
-0.2691472173 -0.1440452635 0.5829020143 4291351788
-0.2692051232 -0.1434284598 0.5830273628 4291154411
-0.2692627609 -0.1428112537 0.5831522346 4290759653
-0.2693201900 -0.1421936452 0.5832766294 4290365412
-0.2693774104 -0.1415756494 0.5834004879 4290036447
-0.2698438764 -0.1411714852 0.5844107270 4289378265
-0.2699007094 -0.1405517608 0.5845338106 4288654542
-0.2699573338 -0.1399316490 0.5846564770 4287667648
-0.2700137198 -0.1393111497 0.5847786069 4286746546
-0.2700698972 -0.1386902630 0.5849002004 4285169331
-0.2701258361 -0.1380689889 0.5850213766 4284840366
-0.2701815367 -0.1374473274 0.5851420164 4284248488
-0.2702369988 -0.1368252784 0.5852621794 4283919523
-0.2702922523 -0.1362028569 0.5853818059 4283985316
-0.2703472674 -0.1355800480 0.5855009556 4284182695
-0.2704020739 -0.1349568665 0.5856196284 4283985316
-0.2704566419 -0.1343332976 0.5857378244 4283656351
-0.2705109715 -0.1337093562 0.5858554840 4283722144
-0.2705650628 -0.1330850273 0.5859726071 4284248488
-0.2706189156 -0.1324603409 0.5860893130 4284511919
-0.2706725597 -0.1318352818 0.5862054229 4284314540
-0.2707259655 -0.1312098503 0.5863211155 4283986345
-0.2707791328 -0.1305840462 0.5864362717 4283986345
-0.2708320618 -0.1299578696 0.5865508914 4283327899
-0.2708847523 -0.1293313354 0.5866650343 4282209418
-0.2709372342 -0.1287044287 0.5867786407 4282863501
-0.2705782354 -0.1278828084 0.5860012174 4282731915
-0.2706301510 -0.1272561252 0.5861136317 4282534536
-0.2710932195 -0.1268215328 0.5871164799 4282534536
-0.2711447477 -0.1261931956 0.5872280598 4282666635
-0.2707844973 -0.1253739446 0.5864478946 4282798221
-0.2708354890 -0.1247458383 0.5865582824 4282798479
-0.2708862126 -0.1241173819 0.5866681933 4282864272
-0.2709366977 -0.1234885678 0.5867775083 4282865042
-0.2709869742 -0.1228594035 0.5868864059 4282667663
-0.2710369825 -0.1222298890 0.5869947076 4282536592
-0.2710867822 -0.1216000244 0.5871025324 4282470799
-0.2711363137 -0.1209698170 0.5872098207 4282141834
-0.2711856365 -0.1203392670 0.5873166323 4281944455
-0.2712346911 -0.1197083667 0.5874229074 4281681799
-0.2712835073 -0.1190771312 0.5875286460 4281352834
-0.2713321149 -0.1184455529 0.5876338482 4281680768
-0.2717928886 -0.1179926842 0.5886317492 4281549182
-0.2718410492 -0.1173594669 0.5887361169 4281548412
-0.2718890011 -0.1167259216 0.5888398886 4281219447
-0.2719366848 -0.1160920337 0.5889431834 4281153397
-0.2723968327 -0.1156330183 0.5899397731 4281350776
-0.2724441290 -0.1149975061 0.5900421739 4281482362
-0.2724911571 -0.1143616661 0.5901440382 4281811327
-0.2725379467 -0.1137254983 0.5902453661 4282271364
-0.2729974687 -0.1132603511 0.5912406445 4282600329
-0.2730438411 -0.1126225665 0.5913410187 4283060364
-0.2730899751 -0.1119844541 0.5914409161 4283389329
-0.2731358409 -0.1113460213 0.5915402770 4283783574
-0.2731814682 -0.1107072681 0.5916390419 4284046746
-0.2736401856 -0.1102347076 0.5926325321 4284309920
-0.2736853957 -0.1095943525 0.5927304626 4284441506
-0.2737303376 -0.1089536771 0.5928277969 4284835746
-0.2733614743 -0.1081490740 0.5920289755 4284901539
-0.2734058797 -0.1075087413 0.5921250582 4284835748
-0.2734500170 -0.1068680957 0.5922206640 4284901541
-0.2734938860 -0.1062271371 0.5923156738 4284967334
-0.2735375166 -0.1055858806 0.5924102068 4285033127
-0.2735809088 -0.1049443111 0.5925041437 4285164198
-0.2736240327 -0.1043024361 0.5925976038 4285295784
-0.2740809321 -0.1038170829 0.5935871005 4285427370
-0.2737095654 -0.1030177847 0.5927827954 4285558956
-0.2737519443 -0.1023750082 0.5928745270 4285624749
-0.2737940550 -0.1017319337 0.5929657817 4285690542
-0.2742502093 -0.1012414992 0.5939536691 4285822128
-0.2738775611 -0.1004449055 0.5931466222 4285887921
-0.2739189267 -0.0998009443 0.5932362080 4286019248
-0.2739600241 -0.0991567001 0.5933252573 4286085041
-0.2740008831 -0.0985121652 0.5934137106 4286085551
-0.2740415037 -0.0978673398 0.5935016870 4286217137
-0.2740818560 -0.0972222313 0.5935890675 4286348725
-0.2741219401 -0.0965768322 0.5936759114 4286414518
-0.2737470269 -0.0957860276 0.5928639174 4286480312
-0.2737865448 -0.0951410532 0.5929495096 4286480312
-0.2738257945 -0.0944957882 0.5930345654 4286545591
-0.2738648057 -0.0938502550 0.5931190252 4286808763
-0.2743185759 -0.0933456644 0.5941017866 4286413740
-0.2739420831 -0.0925583616 0.5932863355 4287005877
-0.2739803195 -0.0919120088 0.5933691859 4287927480
-0.2740182877 -0.0912653804 0.5934514403 4288848582
-0.2736407816 -0.0904811919 0.5926338434 4289967051
-0.2736781836 -0.0898350105 0.5927148461 4290756567
-0.2737153471 -0.0891885683 0.5927953124 4291217369
-0.2737522423 -0.0885418653 0.5928752422 4291546334
-0.2737888694 -0.0878949016 0.5929545760 4291415253
-0.2738252580 -0.0872476771 0.5930333734 4291481046
-0.2734458148 -0.0864687860 0.5922115445 4291612632
-0.2730659842 -0.0856916010 0.5913890004 4291875804
-0.2731014788 -0.0850455761 0.5914658308 4291941343
-0.2727209628 -0.0842708424 0.5906417966 4291809757
-0.2723400891 -0.0834978223 0.5898169279 4291875551
-0.2723747194 -0.0828530192 0.5898918509 4292007137
-0.2724090517 -0.0822079703 0.5899662375 4291678171
-0.2720271945 -0.0814381614 0.5891392231 4291809757
-0.2720609605 -0.0807936117 0.5892123580 4292072413
-0.2716784477 -0.0800262764 0.5883839130 4292138206
-0.2712955475 -0.0792606771 0.5875546336 4292138204
-0.2713284194 -0.0786173865 0.5876259208 4292072411
-0.2709448636 -0.0778542832 0.5867952108 4292138206
-0.2709771991 -0.0772115141 0.5868651867 4292269792
-0.2705929577 -0.0764509067 0.5860330462 4292204001
-0.2706246972 -0.0758086815 0.5861017704 4292138208
-0.2702398002 -0.0750505850 0.5852681994 4292204001
-0.2706874311 -0.0745235458 0.5862376094 4292269794
-0.2707183957 -0.0738806427 0.5863047242 4292269792
-0.2707490921 -0.0732375234 0.5863711834 4292269792
-0.2703629732 -0.0724825040 0.5855349302 4292204767
-0.2703931034 -0.0718399361 0.5856001973 4292204767
-0.2700062990 -0.0710874572 0.5847625136 4292336353
-0.2696191370 -0.0703367442 0.5839239955 4292336353
-0.2696484029 -0.0696955249 0.5839874148 4292402146
-0.2692605853 -0.0689473748 0.5831474662 4292467939
-0.2692892849 -0.0683067292 0.5832096338 4292796902
-0.2689008117 -0.0675611421 0.5823683143 4293191660
-0.2693458796 -0.0670248419 0.5833321810 4293586673
-0.2693737745 -0.0663835928 0.5833926201 4293915638
-0.2689844072 -0.0656403825 0.5825493336 4294375417
-0.2690117359 -0.0649997294 0.5826085210 4294704382
-0.2690388262 -0.0643588901 0.5826671720 4294901759
-0.2686484754 -0.0636190698 0.5818217993 4294901759
-0.2686749697 -0.0629788339 0.5818791986 4294901759
-0.2682839930 -0.0622416176 0.5810324550 4294901759
-0.2683099210 -0.0616020039 0.5810886025 4294836222
-0.2683356106 -0.0609622076 0.5811442137 4294770429
-0.2683610320 -0.0603222251 0.5811992884 4294770429
-0.2683861852 -0.0596820638 0.5812537670 4294704636
-0.2684110701 -0.0590417273 0.5813076496 4294704636
-0.2680182159 -0.0583103821 0.5804568529 4294770429
-0.2676250339 -0.0575808547 0.5796052814 4294770427
-0.2672314942 -0.0568531491 0.5787529945 4294836220
-0.2672552168 -0.0562151037 0.5788043737 4294901757
-0.2672786713 -0.0555768870 0.5788551569 4294836220
-0.2673018575 -0.0549385063 0.5789054036 4294835711
-0.2669070959 -0.0542151146 0.5780504346 4294769918
-0.2673474550 -0.0536612459 0.5790041685 4294638589
-0.2677876353 -0.0531052202 0.5799574256 4294441210
-0.2678097785 -0.0524651892 0.5800054669 4293980659
-0.2682495415 -0.0519058518 0.5809578300 4293651694
-0.2686890662 -0.0513443574 0.5819097161 4294046195
-0.2680595815 -0.1541544348 0.5819462538 4293258997
-0.2681210041 -0.1535430104 0.5820795894 4293061365
-0.2677752674 -0.1526991129 0.5813289881 4292995572
-0.2678361535 -0.1520877928 0.5814611912 4292929781
-0.2683039606 -0.1517062634 0.5824767947 4292732402
-0.2679572701 -0.1508639008 0.5817241669 4292468976
-0.2680175006 -0.1502513289 0.5818549395 4292271597
-0.2680775225 -0.1496383548 0.5819852352 4292074731
-0.2681373358 -0.1490249634 0.5821150541 4292008938
-0.2681969106 -0.1484111696 0.5822443962 4291746283
-0.2682562768 -0.1477969587 0.5823732615 4291746283
-0.2683154345 -0.1471823454 0.5825016499 4291746283
-0.2679664791 -0.1463445723 0.5817441344 4291680490
-0.2680251002 -0.1457300782 0.5818713903 4291548904
-0.2680834830 -0.1451151818 0.5819981098 4291548904
-0.2681416571 -0.1444998980 0.5821244121 4291745513
-0.2677913904 -0.1436651945 0.5813639760 4291877099
-0.2678490281 -0.1430500448 0.5814890862 4291942892
-0.2683148086 -0.1426516175 0.5825003386 4291613927
-0.2683720887 -0.1420347244 0.5826247334 4291548134
-0.2684291601 -0.1414174438 0.5827485919 4291613927
-0.2684859931 -0.1407997757 0.5828719139 4291548134
-0.2685425878 -0.1401817054 0.5829948187 4291613927
-0.2685989738 -0.1395632476 0.5831172466 4291547877
-0.2686551213 -0.1389444172 0.5832391381 4291153119
-0.2687110305 -0.1383251846 0.5833605528 4290299617
-0.2687667310 -0.1377055645 0.5834814906 4289707480
-0.2688222229 -0.1370855570 0.5836018920 4288852432
-0.2692867219 -0.1366728842 0.5846102834 4288128709
-0.2693417966 -0.1360511780 0.5847299099 4287536832
-0.2693966925 -0.1354290843 0.5848490596 4287076281
-0.2694513202 -0.1348066032 0.5849676728 4286089906
-0.2695057392 -0.1341837645 0.5850858092 4285168804
-0.2695599198 -0.1335605383 0.5852034092 4284380066
-0.2696138620 -0.1329369396 0.5853205323 4283656343
-0.2696675956 -0.1323129535 0.5854371786 4283393179
-0.2697210908 -0.1316886097 0.5855532885 4283985316
-0.2697743475 -0.1310638934 0.5856689215 4284117162
-0.2698273659 -0.1304388046 0.5857840180 4283656611
-0.2698801458 -0.1298133433 0.5858986378 4283195808
-0.2699327171 -0.1291875243 0.5860127211 4282932636
-0.2699850202 -0.1285613477 0.5861263275 4283325848
-0.2700371146 -0.1279347986 0.5862393975 4283128469
-0.2700889707 -0.1273078769 0.5863519907 4282799249
-0.2701405883 -0.1266806126 0.5864640474 4282536077
-0.2701919973 -0.1260529757 0.5865756273 4282536081
-0.2702431381 -0.1254249960 0.5866866708 4282404495
-0.2698832750 -0.1246069893 0.5859053731 4282338700
-0.2699338496 -0.1239792407 0.5860152245 4282470286
-0.2699842155 -0.1233511493 0.5861245990 4282602125
-0.2700343430 -0.1227227002 0.5862333775 4282404746
-0.2700842321 -0.1220939085 0.5863416791 4282470539
-0.2701338828 -0.1214647666 0.5864495039 4282602125
-0.2701832950 -0.1208352745 0.5865567327 4282732686
-0.2702324688 -0.1202054396 0.5866634846 4282732686
-0.2702814043 -0.1195752621 0.5867697597 4282732688
-0.2703301013 -0.1189447492 0.5868754387 4282535309
-0.2703785598 -0.1183138862 0.5869806409 4282600842
-0.2708383799 -0.1178618148 0.5879788995 4282535049
-0.2708864212 -0.1172293201 0.5880832076 4282403461
-0.2709342241 -0.1165964901 0.5881869793 4282206082
-0.2709817886 -0.1159633249 0.5882902145 4282009216
-0.2714409828 -0.1155050993 0.5892871618 4281877630
-0.2714881301 -0.1148703098 0.5893895030 4281548667
-0.2715350389 -0.1142351851 0.5894913673 4281482874
-0.2715817094 -0.1135997325 0.5895926356 4281482874
-0.2716281116 -0.1129639596 0.5896934271 4281482874
-0.2720865309 -0.1124983057 0.5906886458 4281810813
-0.2717202306 -0.1116914302 0.5898933411 4281942399
-0.2717658877 -0.1110546812 0.5899925232 4282270850
-0.2718113363 -0.1104176193 0.5900911093 4282534022
-0.2722690403 -0.1099468172 0.5910848379 4282928267
-0.2723140419 -0.1093081459 0.5911825299 4283125646
-0.2723588049 -0.1086691618 0.5912796855 4283651988
-0.2724033296 -0.1080298573 0.5913763642 4283783574
-0.2724475861 -0.1073902473 0.5914724469 4283980953
-0.2724916041 -0.1067503169 0.5915679932 4284178332
-0.2725353837 -0.1061100885 0.5916630030 4284506783
-0.2725788951 -0.1054695472 0.5917574763 4284638369
-0.2726221681 -0.1048287004 0.5918514132 4284704162
-0.2730783224 -0.1043454036 0.5928416848 4284704162
-0.2731211483 -0.1037029773 0.5929346681 4284966819
-0.2731637061 -0.1030602530 0.5930271149 4285098405
-0.2727927268 -0.1022622809 0.5922217369 4285229991
-0.2728347480 -0.1016199291 0.5923129320 4285295784
-0.2732899487 -0.1011302769 0.5933011770 4285427113
-0.2733315229 -0.1004863605 0.5933914185 4285558699
-0.2729592621 -0.0996911004 0.5925832391 4285690283
-0.2730002701 -0.0990475789 0.5926722884 4285821869
-0.2730410099 -0.0984037593 0.5927607417 4285690796
-0.2730815113 -0.0977596566 0.5928486586 4285888175
-0.2731217444 -0.0971152708 0.5929360390 4285953968
-0.2731617391 -0.0964705944 0.5930228233 4286019761
-0.2732014656 -0.0958256423 0.5931090713 4286282420
-0.2728269696 -0.0950361937 0.5922960043 4286216627
-0.2728661299 -0.0943916589 0.5923810601 4286282422
-0.2729050219 -0.0937468484 0.5924655199 4286348215
-0.2733578682 -0.0932430401 0.5934485793 4286085043
-0.2733963132 -0.0925966948 0.5935320854 4286282422
-0.2730202079 -0.0918107703 0.5927155614 4286610866
-0.2730580866 -0.0911648646 0.5927978158 4286479280
-0.2730957270 -0.0905186981 0.5928794742 4286611367
-0.2731330991 -0.0898722559 0.5929605961 4287466676
-0.2731702030 -0.0892255604 0.5930411816 4288914626
-0.2732070386 -0.0885785967 0.5931211710 4290033107
-0.2732436359 -0.0879313722 0.5932006240 4290757078
-0.2732799649 -0.0872838870 0.5932794809 4291349215
-0.2733160555 -0.0866361484 0.5933578014 4291481054
-0.2729370594 -0.0858576670 0.5925350785 4291283675
-0.2729725838 -0.0852104053 0.5926121473 4291415002
-0.2730078101 -0.0845628828 0.5926886797 4291809760
