VERSION 0.7
FIELDS x y z rgba
SIZE 4 4 4 4
TYPE F F F U
COUNT 1 1 1 1
WIDTH 920
HEIGHT 1
VIEWPOINT 0.0 0.0 0.0 1.0 0.0 0.0 0.0
POINTS 920
DATA ascii
-0.2824209630 -0.1875160486 0.5333855152 4291015101
-0.2820524275 -0.1866795272 0.5326895714 4290032317
-0.2825777233 -0.1864342391 0.5336816311 4289505973
-0.2826558650 -0.1858926564 0.5338291526 4288323756
-0.2827337682 -0.1853506267 0.5339763761 4287600033
-0.2832590044 -0.1851005554 0.5349683166 4287402654
-0.2828890979 -0.1842652112 0.5342696905 4287271068
-0.2834141850 -0.1840125322 0.5352613926 4287007120
-0.2830436528 -0.1831780225 0.5345615745 4287401878
-0.2835686207 -0.1829227358 0.5355530977 4287730075
-0.2836455703 -0.1823771596 0.5356984138 4288124833
-0.2837223113 -0.1818311512 0.5358433127 4288124833
-0.2837988734 -0.1812846959 0.5359879136 4288322212
-0.2838752568 -0.1807377934 0.5361321568 4287204760
-0.2835028470 -0.1799058020 0.5354288220 4286612623
-0.2835787237 -0.1793588847 0.5355721116 4285888647
-0.2836543918 -0.1788115352 0.5357150435 4285559682
-0.2837298810 -0.1782637388 0.5358576179 4285623937
-0.2833561301 -0.1774343252 0.5351517200 4285294972
-0.2829819322 -0.1766061932 0.5344450474 4285360254
-0.2830566168 -0.1760588437 0.5345860720 4285491840
-0.2835805118 -0.1757896394 0.5355755091 4285229438
-0.2836548984 -0.1752405316 0.5357159972 4285426817
-0.2837291062 -0.1746910065 0.5358561873 4285756812
-0.2838031352 -0.1741410494 0.5359959602 4285691019
-0.2843268514 -0.1738657653 0.5369850397 4286348949
-0.2844005823 -0.1733140796 0.5371243358 4286480535
-0.2844741344 -0.1727619618 0.5372632146 4287072674
-0.2845474780 -0.1722094119 0.5374017358 4286677916
-0.2841702998 -0.1713848412 0.5366894007 4286480537
-0.2846935987 -0.1711030453 0.5376777053 4286348951
-0.2843157649 -0.1702793688 0.5369641185 4285757330
-0.2843882143 -0.1697259992 0.5371009707 4285625744
-0.2844604552 -0.1691721976 0.5372374058 4285296781
-0.2845324874 -0.1686179936 0.5373734832 4284770437
-0.2850553691 -0.1683297008 0.5383609533 4284178557
-0.2851271331 -0.1677737683 0.5384964943 4283783799
-0.2847474217 -0.1669528186 0.5377793908 4283586420
-0.2848186791 -0.1663969308 0.5379139185 4283586420
-0.2853412032 -0.1661034524 0.5389007926 4283126899
-0.2854121327 -0.1655458361 0.5390347838 4282863727
-0.2854828835 -0.1649878174 0.5391683578 4283257715
-0.2851015925 -0.1641692072 0.5384482741 4283191922
-0.2851718366 -0.1636112481 0.5385808945 4283520630
-0.2852418423 -0.1630528718 0.5387131572 4283652216
-0.2853116691 -0.1624940783 0.5388450027 4283257198
-0.2853812575 -0.1619348824 0.5389764309 4283586163
-0.2854506671 -0.1613752842 0.5391075611 4286941084
-0.2859723568 -0.1610701233 0.5400927663 4288849081
-0.2864940464 -0.1607627869 0.5410780907 4287927971
-0.2861103415 -0.1599470973 0.5403534174 4287927971
-0.2866318524 -0.1596371680 0.5413383245 4287927452
-0.2871533334 -0.1593250632 0.5423232317 4288256417
-0.2872218192 -0.1587603539 0.5424525738 4288716709
-0.2872900963 -0.1581952423 0.5425814986 4289900983
-0.2878113985 -0.1578783542 0.5435660481 4290164416
-0.2878793478 -0.1573115438 0.5436943769 4290230209
-0.2884005308 -0.1569911689 0.5446786880 4290098621
-0.2884681821 -0.1564226747 0.5448064208 4289703863
-0.2885355949 -0.1558537632 0.5449337959 4288848808
-0.2886027992 -0.1552844644 0.5450606942 4287730327
-0.2886697948 -0.1547147632 0.5451872349 4286480776
-0.2887365520 -0.1541446745 0.5453132987 4285362295
-0.2888031304 -0.1535741836 0.5454390049 4284704114
-0.2888694704 -0.1530033052 0.5455642939 4285164665
-0.2884812951 -0.1521923542 0.5448312163 4285559431
-0.2885470986 -0.1516215801 0.5449554920 4285164673
-0.2886126637 -0.1510504186 0.5450793505 4283980149
-0.2882234454 -0.1502418965 0.5443441868 4283453805
-0.2887431979 -0.1499069333 0.5453258753 4283716979
-0.2888081372 -0.1493346244 0.5454484820 4283914358
-0.2888728380 -0.1487619132 0.5455706716 4283652214
-0.2889373302 -0.1481888145 0.5456925035 4283586421
-0.2890015841 -0.1476153433 0.5458138585 4283651956
-0.2890656590 -0.1470414847 0.5459348559 4283388784
-0.2895847857 -0.1466979086 0.5469152927 4283519598
-0.2896485031 -0.1461223811 0.5470356345 4283782770
-0.2897119820 -0.1455464810 0.5471555591 4283520370
-0.2893196344 -0.1447422653 0.5464144945 4283520370
-0.2898382843 -0.1443935484 0.5473940969 4283454834
-0.2894452810 -0.1435903907 0.5466518402 4283520627
-0.2899636924 -0.1432391107 0.5476309061 4283389041
-0.2900260687 -0.1426613182 0.5477486849 4283389041
-0.2900882065 -0.1420831680 0.5478660464 4283651956
-0.2896938920 -0.1412821561 0.5471213460 4283520370
-0.2902117968 -0.1409257501 0.5480994582 4283454575
-0.2902732491 -0.1403464973 0.5482155681 4283783540
-0.2903344929 -0.1397668570 0.5483312011 4283587703
-0.2903954983 -0.1391868591 0.5484464169 4285232528
-0.2899995744 -0.1383885741 0.5476986766 4286416802
-0.2900600433 -0.1378087550 0.5478128791 4286679974
-0.2901202440 -0.1372285932 0.5479266047 4286022042
-0.2901802361 -0.1366480589 0.5480399132 4285627284
-0.2902400196 -0.1360671669 0.5481527448 4285363594
-0.2902995348 -0.1354859024 0.5482652187 4285232008
-0.2903588414 -0.1349042952 0.5483772159 4283982194
-0.2904179096 -0.1343223304 0.5484887958 4285034882
-0.2904767692 -0.1337400228 0.5485998988 4286744985
-0.2900778353 -0.1329476535 0.5478464961 4287666087
-0.2901361287 -0.1323655397 0.5479565859 4287929513
-0.2906518877 -0.1319909394 0.5489306450 4288258478
-0.2911676168 -0.1316141635 0.5499046445 4288521648
-0.2912253737 -0.1310291737 0.5500137806 4288390062
-0.2912829220 -0.1304438263 0.5501224399 4288585900
-0.2913402021 -0.1298581362 0.5502306223 4288849072
-0.2913972735 -0.1292721033 0.5503383875 4288388521
-0.2919123471 -0.1288880706 0.5513111949 4285954180
-0.2919690311 -0.1283004284 0.5514182448 4282927702
-0.2920254767 -0.1277124435 0.5515248179 4281414463
-0.2920816839 -0.1271241307 0.5516309738 4282467405
-0.2916790247 -0.1263368279 0.5508705378 4282730577
-0.2917346656 -0.1257487535 0.5509756207 4282467405
-0.2922488749 -0.1253571361 0.5519466996 4282533198
-0.2918452322 -0.1245715991 0.5511844158 4282862161
-0.2919001579 -0.1239825189 0.5512881279 4282598989
-0.2919548452 -0.1233931109 0.5513914227 4282533196
-0.2920092940 -0.1228033677 0.5514942408 4282927954
-0.2925226986 -0.1224054620 0.5524638891 4282993747
-0.2925767601 -0.1218141317 0.5525659919 4282927954
-0.2930899560 -0.1214127839 0.5535352230 4283388766
-0.2931436002 -0.1208198741 0.5536364913 4283322973
-0.2931969762 -0.1202266440 0.5537374020 4283322460
-0.2932501435 -0.1196330860 0.5538377762 4284177769
-0.2933030725 -0.1190392151 0.5539377332 4285099125
-0.2933557332 -0.1184450164 0.5540371537 4285428090
-0.2934081554 -0.1178504974 0.5541362166 4286086020
-0.2934603393 -0.1172556579 0.5542347431 4286480778
-0.2930522263 -0.1164776534 0.5534639359 4287270294
-0.2931038141 -0.1158831194 0.5535614491 4288191396
-0.2931551933 -0.1152882725 0.5536584258 4288717738
-0.2927460074 -0.1145130619 0.5528856516 4289244082
-0.2932571769 -0.1140976399 0.5538510084 4289902012
-0.2933077812 -0.1135018617 0.5539466143 4290099391
-0.2933581471 -0.1129057705 0.5540417433 4290230977
-0.2938688993 -0.1124856919 0.5550063252 4290559942
-0.2939188480 -0.1118880510 0.5551006794 4290954702
-0.2939685583 -0.1112901121 0.5551945567 4291678425
-0.2944788635 -0.1108653694 0.5561583042 4291612889
-0.2945281267 -0.1102658883 0.5562514067 4291547096
-0.2945771515 -0.1096661091 0.5563439727 4291546839
-0.2946259379 -0.1090660244 0.5564361215 4291546839
-0.2946744561 -0.1084656492 0.5565277934 4291217874
-0.2947227359 -0.1078649759 0.5566189289 4291086288
-0.2943094671 -0.1070961431 0.5558384061 4290691530
-0.2943571508 -0.1064958274 0.5559285283 4290296772
-0.2948660553 -0.1060611904 0.5568895936 4289902014
-0.2944518030 -0.1052943096 0.5561072230 4289375670
-0.2944987416 -0.1046931222 0.5561958551 4288388775
-0.2950070798 -0.1042547971 0.5571559668 4287994017
-0.2950535715 -0.1036520973 0.5572437644 4287467419
-0.2946380079 -0.1028878391 0.5564589500 4286480524
-0.2946839333 -0.1022855118 0.5565456152 4285428349
-0.2947295904 -0.1016829014 0.5566318631 4284967798
-0.2952370346 -0.1012384519 0.5575902462 4284046694
-0.2948201597 -0.1004768535 0.5568029284 4283388764
-0.2948650420 -0.0998734087 0.5568876863 4282533455
-0.2944474518 -0.0991140977 0.5560989976 4281743939
-0.2944917381 -0.0985110551 0.5561826825 4281941318
-0.2945358157 -0.0979077369 0.5562658906 4284046694
-0.2945795953 -0.0973041505 0.5563486218 4284638831
-0.2946231365 -0.0967002958 0.5564308167 4284967796
-0.2946664095 -0.0960961804 0.5565125346 4286283656
-0.2947094440 -0.0954917893 0.5565938354 4287204758
-0.2947522104 -0.0948871449 0.5566745400 4287796895
-0.2947947085 -0.0942822322 0.5567548275 4287994274
-0.2948369384 -0.0936770588 0.5568346381 4284573038
-0.2953418493 -0.0932177305 0.5577881932 4280625458
-0.2953836322 -0.0926110893 0.5578671098 4281941572
-0.2954251468 -0.0920041949 0.5579455495 4285625980
-0.2954664230 -0.0913970396 0.5580234528 4288191907
-0.2959705889 -0.0909319371 0.5589756370 4288323493
-0.2964746356 -0.0904646814 0.5599275827 4287994528
-0.2969785631 -0.0899952650 0.5608792901 4287994528
-0.2965555787 -0.0892447978 0.5600804687 4288191394
-0.2965956628 -0.0886344835 0.5601561666 4288125601
-0.2966354787 -0.0880239233 0.5602313876 4288388773
-0.2966750264 -0.0874131247 0.5603060722 4288191394
-0.2967143059 -0.0868020728 0.5603802204 4288059292
-0.2972170115 -0.0863254592 0.5613296628 4287401362
-0.2972558141 -0.0857129693 0.5614029169 4285822330
-0.2972943485 -0.0851002485 0.5614757538 4283651161
-0.2973326445 -0.0844872817 0.5615480542 4283387989
-0.2973706424 -0.0838740841 0.5616198182 4283651161
-0.2974084020 -0.0832606480 0.5616911054 4283321170
-0.2974458635 -0.0826469883 0.5617619157 4282136896
-0.2970190048 -0.0819051117 0.5609557033 4281742138
-0.2965917289 -0.0811649263 0.5601487160 4282860619
-0.2961640656 -0.0804264247 0.5593410730 4283781721
-0.2957360446 -0.0796896219 0.5585326552 4283715928
-0.2953076363 -0.0789545104 0.5577235818 4283255377
-0.2948788404 -0.0782210976 0.5569137335 4282860619
-0.2949140966 -0.0776116028 0.5569803715 4282992205
-0.2954135835 -0.0771231577 0.5579236746 4282729033
-0.2954483628 -0.0765122697 0.5579893589 4283912793
-0.2954828739 -0.0759011731 0.5580545664 4284702309
-0.2959817648 -0.0754082352 0.5589967966 4284307550
-0.2960157990 -0.0747957528 0.5590610504 4283583827
-0.2960495651 -0.0741830543 0.5591247678 4282728519
-0.2965478599 -0.0736856386 0.5600658655 4282202175
-0.2965811193 -0.0730715618 0.5601287484 4283648338
-0.2966141403 -0.0724572837 0.5601910353 4284174682
-0.2971118093 -0.0719554052 0.5611310005 4283320656
-0.2966793180 -0.0712281093 0.5603141189 4282662726
-0.2967115045 -0.0706132203 0.5603749156 4282136896
-0.2967433929 -0.0699981302 0.5604351759 4282597447
-0.2972401977 -0.0694915950 0.5613734722 4283387476
-0.2972716391 -0.0688751414 0.5614327788 4284308578
-0.2968375087 -0.0681516826 0.5606129169 4283979100
-0.2973336279 -0.0676416680 0.5615499020 4283057998
-0.2973642349 -0.0670246407 0.5616077185 4282464834
-0.2969291508 -0.0663034990 0.5607860088 4282530627
-0.2974245846 -0.0657900199 0.5617216825 4281871414
-0.2974543571 -0.0651724339 0.5617779493 4282463551
-0.2979494035 -0.0646556839 0.5627129078 4286739839
-0.2984442711 -0.0641368106 0.5636475086 4291147970
-0.2984732985 -0.0635167435 0.5637023449 4293118670
-0.2985020578 -0.0628964901 0.5637566447 4290026399
-0.2985305488 -0.0622760542 0.5638104081 4286668389
-0.2990245223 -0.0617516339 0.5647433400 4286536803
-0.2995183170 -0.0612250976 0.5656759143 4287322983
-0.2995460629 -0.0606022030 0.5657283068 4287388776
-0.2995735109 -0.0599791370 0.5657801628 4287388262
-0.3000666201 -0.0594482087 0.5667114854 4287256676
-0.2996276021 -0.0587324910 0.5658823252 4287322983
-0.2996542156 -0.0581089184 0.5659325719 4287322983
-0.2996805608 -0.0574851818 0.5659823418 4287257702
-0.3001727164 -0.0569497086 0.5669118762 4287257702
-0.3006646931 -0.0564121343 0.5678409934 4287389031
-0.3011564612 -0.0558724590 0.5687697530 4287389031
-0.3011817932 -0.0552451648 0.5688176155 4287585640
-0.3016731143 -0.0547022559 0.5697455406 4287651433
-0.3016979396 -0.0540736765 0.5697923899 4287914606
-0.3021888137 -0.0535275452 0.5707194805 4287980399
-0.3022131026 -0.0528976880 0.5707653761 4288243571
-0.3027034998 -0.0523483343 0.5716915727 4288506743
-0.3027272522 -0.0517172031 0.5717363954 4288704122
-0.3036836982 -0.0512433536 0.5735427737 4289164673
-0.3037069738 -0.0506099835 0.5735867023 4289625224
-0.3041965067 -0.0500532351 0.5745112300 4289427845
-0.3046858013 -0.0494943969 0.5754353404 4288967294
-0.3061081469 -0.0490831174 0.5781216621 4288769915
-0.3070637584 -0.0485920049 0.5799264312 4288441464
-0.3080192208 -0.0480968580 0.5817309022 4288112499
-0.3094412386 -0.0476695746 0.5844165683 4287783536
-0.3099296391 -0.0470944606 0.5853390098 4287849329
-0.3108846247 -0.0465872139 0.5871425867 4287980915
-0.3118394315 -0.0460759327 0.5889458060 4287849329
-0.3123272061 -0.0454926193 0.5898670554 4287849329
-0.3132816255 -0.0449742526 0.5916696191 4287783536
-0.3142358959 -0.0444518551 0.5934718251 4287651950
-0.3161238730 -0.0440555774 0.5970374942 4287388778
-0.3166108727 -0.0434590727 0.5979572535 4286994533
-0.3175646067 -0.0429236107 0.5997585058 4286797154
-0.3185181618 -0.0423841253 0.6015594602 4286337630
-0.3190044761 -0.0417794399 0.6024779081 4286206044
-0.3199576437 -0.0412328765 0.6042780280 4286206557
-0.3218448460 -0.0408007242 0.6078422666 4286272350
-0.3232648075 -0.0403023995 0.6105239987 4286009694
-0.3514604867 -0.0371801294 0.6637749076 4290290089
-0.3519447446 -0.0364928395 0.6646895409 4289041048
-0.3528961539 -0.0358509757 0.6664863229 4289304220
-0.4402629733 -0.3660682738 0.8332367539 4287598228
-0.4408444464 -0.3656247556 0.8343372941 4286019196
-0.4409902394 -0.3648183644 0.8346132040 4283979612
-0.4389562607 -0.3622126877 0.8307637572 4282203201
-0.4404090345 -0.3624853492 0.8335132003 4281874236
-0.4401176572 -0.3613200486 0.8329617381 4282729545
-0.4402620792 -0.3605128527 0.8332351446 4284303688
-0.4404063225 -0.3597048521 0.8335080743 4284895825
-0.4405502975 -0.3588960767 0.8337805867 4285748306
-0.4398205280 -0.3573766947 0.8323994279 4285485134
-0.4382161498 -0.3551515937 0.8293629885 4285941834
-0.4401067793 -0.3557583690 0.8329411745 4286073420
-0.4402495623 -0.3549480438 0.8332113624 4286269770
-0.2724570632 -0.2190936357 0.5156491995 4286072391
-0.2729825974 -0.2189421952 0.5166438222 4286270283
-0.2726330161 -0.2180885226 0.5159822106 4286270283
-0.2740340233 -0.2186330110 0.5186337233 4286204490
-0.2728083730 -0.2170814723 0.5163140893 4286138697
-0.2742099464 -0.2176201344 0.5189666748 4286334534
-0.2742976546 -0.2171129584 0.5191326737 4286202948
-0.2743852437 -0.2166053057 0.5192984343 4286332479
-0.2740342319 -0.2157519609 0.5186340809 4286200893
-0.2741213739 -0.2152441442 0.5187990069 4286200893
-0.2742083669 -0.2147358507 0.5189636946 4286200893
-0.2742952108 -0.2142270654 0.5191280246 4286266941
-0.2748208940 -0.2140597552 0.5201229453 4286135355
-0.2749075592 -0.2135491967 0.5202869773 4286069562
-0.2749941051 -0.2130381465 0.5204507709 4286069562
-0.2750804722 -0.2125266194 0.5206142068 4286069562
-0.2751666903 -0.2120146006 0.5207774043 4286135355
-0.2752527595 -0.2115021199 0.5209403038 4286266171
-0.2753386497 -0.2109891474 0.5211028457 4286266171
-0.2754244208 -0.2104756981 0.5212651491 4286201148
-0.2759501338 -0.2102971673 0.5222601295 4286201148
-0.2755954564 -0.2094473541 0.5215888619 4286397757
-0.2756807208 -0.2089324743 0.5217502713 4286397757
-0.2744443119 -0.2074182928 0.5194101930 4286331964
-0.2754101753 -0.2075691521 0.5212382078 4286266171
-0.2759356499 -0.2073849440 0.5222327113 4286529084
-0.2760202885 -0.2068681419 0.5223929286 4286463291
-0.2761047781 -0.2063508779 0.5225528479 4286397757
-0.2761891186 -0.2058331370 0.5227124095 4286331964
-0.2758319676 -0.2049869299 0.5220364928 4286331964
-0.2759158313 -0.2044690698 0.5221952200 4286331964
-0.2759995461 -0.2039507329 0.5223536491 4286528314
-0.2760831118 -0.2034319341 0.5225117803 4286396728
-0.2766083479 -0.2032373101 0.5235058665 4286593592
-0.2762497067 -0.2023929060 0.5228271484 4286462006
-0.2763327658 -0.2018726915 0.5229843259 4286265912
-0.2768579423 -0.2016741633 0.5239782333 4286397498
-0.2769408226 -0.2011521757 0.5241351128 4286266686
-0.2756959200 -0.1996682435 0.5217790008 4286332479
-0.2766633928 -0.1997871399 0.5236100554 4286266947
-0.2767456174 -0.1992645860 0.5237656832 4286266947
-0.2768276930 -0.1987415552 0.5239210129 4286266950
-0.2769095898 -0.1982180774 0.5240759850 4286398536
-0.2769913375 -0.1976941228 0.5242307186 4286201414
-0.2775162160 -0.1974851787 0.5252240896 4286596172
-0.2775977552 -0.1969594657 0.5253784060 4286860626
-0.2781226933 -0.1967470795 0.5263718963 4286860626
-0.2782039940 -0.1962195933 0.5265257955 4286465866
-0.2787289917 -0.1960037649 0.5275193453 4285873729
-0.2788100839 -0.1954745203 0.5276728868 4285742397
-0.2788910270 -0.1949447989 0.5278260112 4285808190
-0.2794159949 -0.1947242171 0.5288196206 4286268226
-0.2794967294 -0.1941927373 0.5289723873 4285939261
-0.2795772552 -0.1936607957 0.5291247964 4286005315
-0.2796576321 -0.1931284070 0.5292769074 4286400073
-0.2797378004 -0.1925955415 0.5294286609 4286006347
-0.2798178196 -0.1920622289 0.5295801163 4286203726
-0.2798976600 -0.1915284693 0.5297312140 4286530383
-0.2799773216 -0.1909942329 0.5298819542 4286661969
-0.2800568044 -0.1904595494 0.5300323963 4286202184
-0.2801361084 -0.1899244189 0.5301824808 4285939012
-0.2802152336 -0.1893888265 0.5303322673 4285873732
-0.2802941799 -0.1888527870 0.5304816365 4285742146
-0.2803729475 -0.1883162856 0.5306307077 4285545796
-0.2808974087 -0.1880778670 0.5316233039 4285940554
-0.2809759378 -0.1875396222 0.5317719579 4286536290
-0.2806081772 -0.1867040843 0.5310758948 4287654771
-0.2806862295 -0.1861657947 0.5312236547 4288053642
-0.2812104523 -0.1859221607 0.5322157741 4289040537
-0.2812882662 -0.1853820980 0.5323629975 4289569708
-0.2813658714 -0.1848416030 0.5325099230 4290293431
-0.2814433277 -0.1843006462 0.5326564908 4290425787
-0.2815205753 -0.1837592572 0.5328027010 4290359994
-0.2815976441 -0.1832174212 0.5329485536 4289833909
-0.2816745043 -0.1826751381 0.5330940485 4289504944
-0.2821984291 -0.1824215055 0.5340856314 4288979629
-0.2822750509 -0.1818774641 0.5342306495 4288782250
-0.2823514938 -0.1813329905 0.5343753099 4288256935
-0.2824277580 -0.1807880700 0.5345196128 4288191142
-0.2820561230 -0.1799570769 0.5338162780 4287665311
-0.2825796902 -0.1796969175 0.5348072052 4287796897
-0.2822074294 -0.1788667738 0.5341026783 4287927973
-0.2818347514 -0.1780379117 0.5333973169 4287796387
-0.2819098234 -0.1774925292 0.5335393548 4287861412
-0.2815363705 -0.1766653955 0.5328326225 4287729826
-0.2816109657 -0.1761200130 0.5329737663 4287663779
-0.2816853225 -0.1755741984 0.5331144929 4287203228
-0.2817595005 -0.1750279516 0.5332549214 4286348690
-0.2818334997 -0.1744812727 0.5333949327 4286217104
-0.2819072902 -0.1739341766 0.5335345864 4285822345
-0.2824299037 -0.1736627370 0.5345237255 4285624966
-0.2825034559 -0.1731138974 0.5346628428 4285624967
-0.2825767696 -0.1725646257 0.5348016620 4285164416
-0.2826499045 -0.1720149368 0.5349400640 4285032830
-0.2827228606 -0.1714648157 0.5350781083 4284703865
-0.2827956080 -0.1709142774 0.5352157950 4285033087
-0.2828681469 -0.1703633070 0.5353531241 4285493638
-0.2829405069 -0.1698119044 0.5354900360 4285822605
-0.2830126584 -0.1692600995 0.5356265903 4286019984
-0.2835346758 -0.1689760685 0.5366145372 4286217365
-0.2831563652 -0.1681551933 0.5358985662 4286348951
-0.2836782038 -0.1678685844 0.5368862152 4286217879
-0.2832992971 -0.1670486331 0.5361690521 4286152086
-0.2838209569 -0.1667594165 0.5371563435 4286020500
-0.2838920355 -0.1662041992 0.5372908711 4286020500
-0.2839628756 -0.1656485647 0.5374249816 4285560721
-0.2840335667 -0.1650925279 0.5375587344 4285297549
-0.2836530507 -0.1642749012 0.5368385911 4284902791
-0.2837232053 -0.1637189090 0.5369713902 4284113275
-0.2833419740 -0.1629031152 0.5362498760 4284047225
-0.2834115922 -0.1623471826 0.5363816619 4283849846
-0.2839324176 -0.1620484740 0.5373673439 4283980917
-0.2840017676 -0.1614908576 0.5374985337 4285757328
-0.2840708792 -0.1609328091 0.5376293659 4287467683
-0.2841398120 -0.1603743732 0.5377598405 4288125613
-0.2851122022 -0.1603236794 0.5396001935 4287138455
-0.2847289741 -0.1595094502 0.5388748646 4288125350
-0.2852494419 -0.1592012048 0.5398598909 4288585382
-0.2857699096 -0.1588907689 0.5408449769 4289769656
-0.2858381271 -0.1583276242 0.5409740806 4290296253
-0.2863585055 -0.1580137163 0.5419589281 4290296253
-0.2864263952 -0.1574488878 0.5420874357 4289441974
-0.2864940763 -0.1568836570 0.5422155261 4288586665
-0.2865615487 -0.1563180089 0.5423431993 4287205012
-0.2866288126 -0.1557519883 0.5424705148 4285691773
-0.2866958678 -0.1551855505 0.5425974131 4284441452
-0.2867626846 -0.1546187252 0.5427238941 4283520350
-0.2868293226 -0.1540514976 0.5428499579 4283257181
-0.2868957222 -0.1534838825 0.5429756641 4283257181
-0.2869619131 -0.1529158652 0.5431008935 4283585896
-0.2870278955 -0.1523474604 0.5432257652 4283717482
-0.2870936394 -0.1517786533 0.5433502197 4283454573
-0.2867055535 -0.1509705931 0.5426157117 4283191401
-0.2867707610 -0.1504019201 0.5427391529 4283191150
-0.2868357897 -0.1498328596 0.5428621769 4283520115
-0.2869005799 -0.1492633969 0.5429847836 4283651703
-0.2869651318 -0.1486935616 0.5431070328 4283520117
-0.2870295048 -0.1481233537 0.5432288051 4283980921
-0.2870936394 -0.1475527436 0.5433502197 4283717749
-0.2871575356 -0.1469817609 0.5434711576 4283520368
-0.2876757085 -0.1466420591 0.5444518328 4283388782
-0.2877392769 -0.1460694075 0.5445721745 4283388782
-0.2878026366 -0.1454963684 0.5446920395 4283454575
-0.2878657877 -0.1449229717 0.5448115468 4283454575
-0.2874738276 -0.1441211402 0.5440697670 4283586161
-0.2879913747 -0.1437750310 0.5450492501 4283455088
-0.2880538404 -0.1432004869 0.5451675057 4283586674
-0.2881160975 -0.1426255852 0.5452852845 4283455088
-0.2881781161 -0.1420503110 0.5454027057 4283389295
-0.2882398963 -0.1414746493 0.5455196500 4283389293
-0.2878460288 -0.1406760514 0.5447741747 4283191914
-0.2883628309 -0.1403222531 0.5457522869 4283849844
-0.2884239554 -0.1397454888 0.5458679795 4285099911
-0.2884848416 -0.1391683668 0.5459831953 4286022044
-0.2885455191 -0.1385908872 0.5460980535 4286351009
-0.2886059582 -0.1380130351 0.5462124348 4286416030
-0.2886661589 -0.1374348253 0.5463263988 4286218651
-0.2887261510 -0.1368562430 0.5464398861 4285692561
-0.2883296907 -0.1360620260 0.5456895828 4285100424
-0.2883891463 -0.1354836524 0.5458020568 4284179320
-0.2884483337 -0.1349049062 0.5459141135 4283981941
-0.2885073125 -0.1343258172 0.5460257530 4285298054
-0.2885660529 -0.1337463707 0.5461369157 4286811293
-0.2886245847 -0.1331665814 0.5462476611 4287600294
-0.2886828780 -0.1325864196 0.5463579893 4287797673
-0.2887409329 -0.1320059299 0.5464678407 4287995306
-0.2887987494 -0.1314250678 0.5465772748 4287863720
-0.2893134058 -0.1310508996 0.5475512743 4288061097
-0.2898279727 -0.1306745559 0.5485252142 4288192683
-0.2898852825 -0.1300908178 0.5486336350 4288388521
-0.2899423540 -0.1295067370 0.5487416983 4287862177
-0.2899991870 -0.1289223135 0.5488492250 4284769906
-0.2905133069 -0.1285399795 0.5498222113 4281809221
-0.2901121676 -0.1277524382 0.5490630865 4282006854
-0.2906259894 -0.1273675710 0.5500354767 4284112230
-0.2906819582 -0.1267808676 0.5501414537 4285230711
-0.2902798653 -0.1259950846 0.5493804216 4283980644
-0.2903352678 -0.1254086196 0.5494853258 4282664784
-0.2908484936 -0.1250187010 0.5504565835 4281546303
-0.2909035385 -0.1244306415 0.5505607724 4281743680
-0.2905001044 -0.1236472279 0.5497972965 4282335817
-0.2905545831 -0.1230594292 0.5499003530 4282796368
-0.2906088233 -0.1224713027 0.5500029922 4283585884
-0.2906627953 -0.1218828559 0.5501051545 4284835181
-0.2911750972 -0.1214853898 0.5510747433 4286282627
-0.2916873097 -0.1210857406 0.5520441532 4286875282
-0.2917407453 -0.1204944476 0.5521453023 4286677903
-0.2917939425 -0.1199028343 0.5522459745 4285230457
-0.2918469012 -0.1193108931 0.5523461699 4284967285
-0.2918995917 -0.1187186316 0.5524459481 4285099125
-0.2914930284 -0.1179403216 0.5516764522 4283783265
-0.2915451527 -0.1173483580 0.5517750978 4283191128
-0.2915970683 -0.1167560741 0.5518733263 4283717472
-0.2916487157 -0.1161634773 0.5519710779 4283585886
-0.2912407517 -0.1153885648 0.5511989594 4283914851
-0.2912918329 -0.1147962734 0.5512956381 4284375400
-0.2913426459 -0.1142036691 0.5513918400 4284901744
-0.2918528616 -0.1137899533 0.5523574352 4285296502
-0.2919032872 -0.1131957993 0.5524528623 4285559674
-0.2919534445 -0.1126013324 0.5525478721 4285888639
-0.2924632430 -0.1121829525 0.5535126328 4286480776
-0.2925129831 -0.1115869433 0.5536068082 4287599516
-0.2925624847 -0.1109906286 0.5537005067 4288586411
-0.2926117480 -0.1103940159 0.5537937284 4288915376
-0.2931209207 -0.1099697351 0.5547574162 4289310134
-0.2931697667 -0.1093715802 0.5548498631 4289704892
-0.2932183743 -0.1087731272 0.5549417734 4290033857
-0.2932667136 -0.1081743762 0.5550332665 4290165445
-0.2933147848 -0.1075753346 0.5551242828 4290691789
-0.2933626175 -0.1069759950 0.5552148223 4291283413
-0.2929495871 -0.1062093675 0.5544331670 4291480792
-0.2929968536 -0.1056103855 0.5545225739 4291876063
-0.2930438519 -0.1050111130 0.5546115637 4291941856
-0.2930906117 -0.1044115573 0.5547000170 4291876063
-0.2931371033 -0.1038117111 0.5547880530 4291941856
-0.2931833565 -0.1032115892 0.5548755527 4291678171
-0.2927682996 -0.1024498343 0.5540900230 4291546585
-0.2928139567 -0.1018500850 0.5541764498 4291283413
-0.2928593755 -0.1012500599 0.5542623997 4291151827
-0.2933658063 -0.1008082554 0.5552208424 4290625483
-0.2929494381 -0.1000491679 0.5544328690 4290296518
-0.2929940820 -0.0994483083 0.5545173287 4289704381
-0.2930384874 -0.0988471732 0.5546013713 4289046451
-0.2926210761 -0.0980910510 0.5538113713 4288256935
-0.2926648855 -0.0974903181 0.5538942814 4287006868
-0.2931701243 -0.0970421433 0.5548505187 4285033078
-0.2932134867 -0.0964399278 0.5549325943 4284375148
-0.2932566106 -0.0958374441 0.5550141931 4284178023
-0.2932994664 -0.0952346995 0.5550953150 4283980644
-0.2938040197 -0.0947807133 0.5560501814 4284046437
-0.2938464284 -0.0941764936 0.5561304688 4283388507
-0.2938885689 -0.0935720131 0.5562102199 4281677889
-0.2939304411 -0.0929672718 0.5562894940 4282335819
-0.2939720750 -0.0923622698 0.5563682318 4285625726
-0.2940134406 -0.0917570144 0.5564465523 4287599516
-0.2940545380 -0.0911515057 0.5565243363 4288059808
-0.2940953672 -0.0905457437 0.5566016436 4287928222
-0.2950609028 -0.0902225524 0.5584290028 4287665050
-0.2955639064 -0.0897548422 0.5593809485 4288257187
-0.2951415479 -0.0890059620 0.5585815907 4288322980
-0.2951814830 -0.0883972943 0.5586571693 4288388773
-0.2952211201 -0.0877883807 0.5587322116 4287796634
-0.2957233191 -0.0873158649 0.5596826673 4287928220
-0.2957625091 -0.0867055058 0.5597568154 4287203983
-0.2958014309 -0.0860949084 0.5598304868 4285427572
-0.2958400846 -0.0854840651 0.5599036813 4283980125
-0.2958784997 -0.0848729834 0.5599763393 4283387988
-0.2954535186 -0.0841298029 0.5591720343 4283914333
-0.2954913378 -0.0835192129 0.5592436194 4283124817
-0.2955288887 -0.0829083845 0.5593146682 4282400068
-0.2951028943 -0.0821683332 0.5585083961 4282136896
-0.2951398194 -0.0815579966 0.5585783720 4282926412
-0.2947131395 -0.0808203593 0.5577707887 4283847514
-0.2942860425 -0.0800844133 0.5569624901 4283847514
-0.2943220735 -0.0794753209 0.5570306778 4283123791
-0.2938942909 -0.0787418038 0.5562210679 4282400068
-0.2934661210 -0.0780099854 0.5554107428 4282400068
-0.2939649224 -0.0775244310 0.5563547611 4282860619
-0.2939998507 -0.0769154131 0.5564208031 4283715928
-0.2940344810 -0.0763061792 0.5564863682 4284702309
-0.2940688729 -0.0756967366 0.5565514565 4284439137
-0.2945668697 -0.0752055049 0.5574939251 4283386449
-0.2946007550 -0.0745946765 0.5575581193 4282860105
-0.2950983644 -0.0741001442 0.5584998727 4282991691
-0.2951317728 -0.0734879300 0.5585631132 4283123277
-0.2951649129 -0.0728755072 0.5586258173 4284109659
-0.2956619561 -0.0723764971 0.5595664978 4283714901
-0.2956945896 -0.0717627034 0.5596283078 4282531140
-0.2952627242 -0.0710370168 0.5588109493 4282004796
-0.2952947915 -0.0704237819 0.5588716269 4281940030
-0.2957909107 -0.0699201152 0.5598105788 4283650648
-0.2953580916 -0.0691967234 0.5589914322 4285163887
-0.2953893244 -0.0685828999 0.5590505600 4284769129
-0.2954203188 -0.0679688752 0.5591091514 4283847514
-0.2959155440 -0.0674605668 0.5600464940 4282860619
-0.2959460318 -0.0668452010 0.5601041317 4282464834
-0.2959762216 -0.0662296414 0.5601612926 4282070076
-0.2960061729 -0.0656139031 0.5602179766 4282331707
-0.2960358262 -0.0649979711 0.5602740645 4286279287
-0.2960652113 -0.0643818527 0.5603296757 4291409344
-0.2965591252 -0.0638656616 0.5612645149 4292593618
-0.2965880036 -0.0632482097 0.5613191724 4289893015
-0.2966166139 -0.0626305863 0.5613732934 4286471779
-0.2966449559 -0.0620127842 0.5614269376 4286601312
-0.2976030111 -0.0615872629 0.5632401109 4287127656
-0.2976308763 -0.0609671697 0.5632928610 4287783789
-0.2976584733 -0.0603469051 0.5633450747 4287520617
-0.2981508970 -0.0598197915 0.5642771125 4287454054
-0.2981779873 -0.0591982119 0.5643283129 4287322468
-0.2982047796 -0.0585764684 0.5643790364 4287454569
-0.2982313037 -0.0579545572 0.5644292235 4287322983
-0.2987228334 -0.0574219227 0.5653595328 4287257703
-0.2987488508 -0.0567987114 0.5654087067 4287323496
-0.2992399633 -0.0562628359 0.5663381815 4287454569
-0.2997308671 -0.0557248630 0.5672672987 4287388776
-0.3002215624 -0.0551847853 0.5681959391 4287388776
-0.2997810543 -0.0544734374 0.5673623085 4287520362
-0.3002712727 -0.0539311022 0.5682900548 4287585641
-0.3007612824 -0.0533866696 0.5692174435 4287783020
-0.3007854819 -0.0527584739 0.5692632198 4288440950
-0.3012750447 -0.0522108227 0.5701897740 4289033087
-0.3012987077 -0.0515813492 0.5702345371 4288967294
-0.3022535145 -0.0511092357 0.5720416307 4289033087
-0.3027424514 -0.0505553000 0.5729669929 4289427845
-0.3032311499 -0.0499992780 0.5738919377 4289362052
-0.3037196696 -0.0494411625 0.5748164654 4288835708
-0.3051396608 -0.0490306690 0.5775039196 4288375157
-0.3060936928 -0.0485403091 0.5793095231 4288046192
-0.3070475459 -0.0480459146 0.5811147690 4287914606
-0.3084672391 -0.0476194173 0.5838016272 4287717743
-0.3094208241 -0.0471159741 0.5856063962 4287783536
-0.3103742301 -0.0466085002 0.5874108076 4287915122
-0.3108614385 -0.0460279807 0.5883328915 4287849329
-0.3118144870 -0.0455134138 0.5901366472 4287652463
-0.3127673864 -0.0449948087 0.5919400454 4287586670
-0.3137201071 -0.0444721766 0.5937431455 4287323498
-0.3151388168 -0.0440106168 0.5964282155 4286928740
-0.3160912097 -0.0434789434 0.5982306600 4286666082
-0.3170433939 -0.0429432429 0.6000328064 4286666082
-0.3179954290 -0.0424035117 0.6018345952 4286403423
-0.3184809387 -0.0417985506 0.6027534604 4286140251
-0.3203652203 -0.0413721837 0.6063196063 4286008924
-0.3213166893 -0.0408193916 0.6081203818 4285943131
-0.3227343261 -0.0403208435 0.6108033657 4285812315
-0.4374826550 -0.3663665354 0.8297189474 4287861399
-0.4371936917 -0.3652032614 0.8291708231 4286150781
-0.4377736449 -0.3647652268 0.8302707672 4284045406
-0.4379188120 -0.3639633656 0.8305460811 4282334788
-0.4384987652 -0.3635213673 0.8316460252 4281611065
-0.4386436045 -0.3627171218 0.8319207430 4281611065
-0.4353057742 -0.3590397537 0.8255903125 4281808186
-0.4376262724 -0.3600315452 0.8299912810 4282005565
-0.4373344183 -0.3588698506 0.8294377923 4283251260
-0.4379135370 -0.3584222794 0.8305360675 4283974983
-0.4380568266 -0.3576164842 0.8308078647 4285024840
-0.4381998777 -0.3568098843 0.8310791850 4285090633
-0.4374703765 -0.3552940190 0.8296956420 4285810246
-0.4376126826 -0.3544874489 0.8299655318 4285876039
-0.2723419666 -0.2200362682 0.5165171027 4286072132
-0.2715570331 -0.2188298702 0.5150284171 4285940546
-0.2725183070 -0.2190302312 0.5168515444 4286335304
-0.2726062536 -0.2185264826 0.5170183778 4286335304
-0.2731311023 -0.2183716446 0.5180137157 4286269511
-0.2732189000 -0.2178661078 0.5181802511 4286203718
-0.2733065486 -0.2173600942 0.5183465481 4286268226
-0.2725192010 -0.2161596566 0.5168532729 4286136640
-0.2734814286 -0.2163465917 0.5186781883 4286200893
-0.2731309235 -0.2154937685 0.5180134177 4286135100
-0.2732178569 -0.2149866223 0.5181782842 4286069820
-0.2733046412 -0.2144789845 0.5183428526 4286135613
-0.2733912468 -0.2139708698 0.5185071826 4286201406
-0.2734777331 -0.2134622633 0.5186711550 4286201406
-0.2735640705 -0.2129531801 0.5188348889 4286004026
-0.2740887702 -0.2127840668 0.5198300481 4285938233
-0.2737362385 -0.2119335681 0.5191614628 4286135355
-0.2738221288 -0.2114230394 0.5193243027 4286069562
-0.2739078403 -0.2109120339 0.5194869041 4286201148
-0.2739933729 -0.2104005516 0.5196491480 4286266941
-0.2736395597 -0.2095522285 0.5189781189 4286201148
-0.2741640508 -0.2093761414 0.5199728012 4286135355
-0.2742491364 -0.2088632137 0.5201342106 4286201148
-0.2743340731 -0.2083498240 0.5202952623 4286266941
-0.2739790678 -0.2075028718 0.5196220279 4286397757
-0.2740635574 -0.2069893479 0.5197822452 4286397757
-0.2741478980 -0.2064753473 0.5199421644 4286462521
-0.2742320597 -0.2059608698 0.5201017857 4286462521
-0.2743160725 -0.2054459155 0.5202611685 4286331964
-0.2739594877 -0.2046015561 0.5195848346 4286331964
-0.2740430534 -0.2040864825 0.5197433233 4286331964
-0.2741264403 -0.2035709471 0.5199015141 4286397757
-0.2742096782 -0.2030549347 0.5200593472 4286463037
-0.2742927670 -0.2025384605 0.5202169418 4286397244
-0.2748167813 -0.2023463100 0.5212107897 4286463037
-0.2735759318 -0.2008561790 0.5188574195 4286331451
-0.2749824226 -0.2013093531 0.5215249062 4286200893
-0.2746234536 -0.2004678696 0.5208441019 4286398272
-0.2751473784 -0.2002705187 0.5218377709 4286398787
-0.2752296031 -0.1997503936 0.5219936967 4286332994
-0.2753116786 -0.1992298067 0.5221493840 4286267201
-0.2749515176 -0.1983898133 0.5214663148 4286267201
-0.2750331461 -0.1978691369 0.5216211081 4286398795
-0.2751145661 -0.1973479986 0.5217755437 4286135623
-0.2756382823 -0.1971428245 0.5227687955 4287254872
-0.2757195234 -0.1966199279 0.5229228735 4289491834
-0.2758005857 -0.1960965693 0.5230766535 4291335065
-0.2763243020 -0.1958866566 0.5240699053 4291335065
-0.2764051855 -0.1953615248 0.5242232680 4288309613
-0.2764858603 -0.1948359460 0.5243763328 4285546307
-0.2770096064 -0.1946212798 0.5253696442 4286468179
-0.2766467333 -0.1937833875 0.5246813893 4286665558
-0.2771703899 -0.1935661286 0.5256745815 4286335822
-0.2772504985 -0.1930378526 0.5258265138 4285546306
-0.2773304582 -0.1925091296 0.5259782076 4285546306
-0.2778541148 -0.1922871172 0.5269712806 4286006857
-0.2779338658 -0.1917566210 0.5271225572 4286138444
-0.2780134082 -0.1912256777 0.5272734165 4286006858
-0.2780928016 -0.1906942874 0.5274239779 4286007628
-0.2781720161 -0.1901624203 0.5275742412 4286336593
-0.2782510519 -0.1896301210 0.5277241468 4286269772
-0.2783299088 -0.1890973598 0.5278736949 4285875014
-0.2784085870 -0.1885641366 0.5280229449 4286268490
-0.2784871161 -0.1880304813 0.5281718373 4286597455
-0.2785654366 -0.1874963641 0.5283203721 4286465869
-0.2790887058 -0.1872604489 0.5293127894 4286268490
-0.2791667879 -0.1867245883 0.5294609070 4285940041
-0.2792446911 -0.1861882657 0.5296086669 4285808455
-0.2788769305 -0.1853553951 0.5289111733 4285611591
-0.2789543569 -0.1848190427 0.5290580392 4285480005
-0.2790316045 -0.1842822284 0.5292044878 4285348676
-0.2795545459 -0.1840385050 0.5301962495 4285677641
-0.2796315253 -0.1834999472 0.5303423405 4286665565
-0.2801544666 -0.1832527518 0.5313341022 4288178804
-0.2797849774 -0.1824215055 0.5306333303 4288318352
-0.2803077996 -0.1821717024 0.5316249132 4288647317
-0.2803841829 -0.1816305071 0.5317697525 4289373609
-0.2809069753 -0.1813772321 0.5327612758 4290163125
-0.2805363834 -0.1805468053 0.5320584178 4289968058
-0.2806122303 -0.1800042838 0.5322022438 4290033851
-0.2806878686 -0.1794613302 0.5323457122 4289638324
-0.2807632983 -0.1789179444 0.5324888229 4289638324
-0.2808385789 -0.1783741117 0.5326315761 4289242801
-0.2804663181 -0.1775466800 0.5319255590 4288584871
-0.2800936699 -0.1767205298 0.5312187672 4287796898
-0.2801681161 -0.1761771291 0.5313599706 4287994277
-0.2802423835 -0.1756332964 0.5315008163 4288061612
-0.2803164721 -0.1750890315 0.5316413641 4287732647
-0.2803903520 -0.1745443344 0.5317814946 4287206817
-0.2804640532 -0.1739992052 0.5319212079 4287272610
-0.2805375457 -0.1734536588 0.5320606232 4288256684
-0.2806108594 -0.1729076654 0.5321996808 4287927719
-0.2811323404 -0.1726365834 0.5331887007 4287664549
-0.2812053859 -0.1720888764 0.5333272219 4287401377
-0.2812782228 -0.1715407372 0.5334653854 4287006619
-0.2813508809 -0.1709921658 0.5336031914 4286348689
-0.2814233303 -0.1704431772 0.5337405801 4286020235
-0.2814956009 -0.1698937714 0.5338776708 4285888649
-0.2815676630 -0.1693439335 0.5340143442 4285362307
-0.2820886970 -0.1690628827 0.5350025296 4285099135
-0.2821604908 -0.1685113311 0.5351386666 4284835708
-0.2822320759 -0.1679593474 0.5352744460 4284704122
-0.2823034525 -0.1674069613 0.5354098082 4284901501
-0.2823746502 -0.1668541431 0.5355448127 4285427845
-0.2824456096 -0.1663009077 0.5356794596 4285954444
-0.2825164199 -0.1657472551 0.5358136892 4286217616
-0.2830369771 -0.1654562354 0.5368009806 4286284696
-0.2831074595 -0.1649008691 0.5369346738 4286547868
-0.2822773457 -0.1638225317 0.5353603363 4286876320
-0.2823472321 -0.1632681191 0.5354928374 4286678941
-0.2824168801 -0.1627132744 0.5356249809 4286547355
-0.2824863493 -0.1621580422 0.5357567072 4286547355
-0.2821049690 -0.1613446474 0.5350333452 4286744477
-0.2821739018 -0.1607894748 0.5351641178 4286941856
-0.2822426558 -0.1602338850 0.5352944732 4287007132
-0.2827621698 -0.1599329859 0.5362797976 4287138718
-0.2828305960 -0.1593756974 0.5364095569 4287467422
-0.2833500206 -0.1590713114 0.5373947024 4288322731
-0.2834181488 -0.1585123390 0.5375239253 4288848556
-0.2839374840 -0.1582044810 0.5385088921 4289177521
-0.2840053141 -0.1576438099 0.5386375189 4288322464
-0.2845245600 -0.1573324651 0.5396223068 4286480260
-0.2850438356 -0.1570189446 0.5406071544 4284705392
-0.2855630815 -0.1567032337 0.5415919423 4283652704
-0.2856303751 -0.1561382711 0.5417196155 4282863192
-0.2856974900 -0.1555729210 0.5418468714 4282665813
-0.2857643664 -0.1550071687 0.5419737101 4283060318
-0.2858310342 -0.1544410288 0.5421001315 4283520869
-0.2854451239 -0.1536310166 0.5413682461 4283586410
-0.2855112851 -0.1530649662 0.5414937139 4283586410
-0.2851246297 -0.1522568613 0.5407603979 4283257448
-0.2851902246 -0.1516909301 0.5408847928 4283454827
-0.2848028541 -0.1508847475 0.5401501060 4283191401
-0.2848679125 -0.1503189355 0.5402735472 4282928229
-0.2849327922 -0.1497527361 0.5403965712 4283059815
-0.2849974334 -0.1491861641 0.5405191779 4283257194
-0.2850618660 -0.1486192048 0.5406413674 4283257196
-0.2851260900 -0.1480518579 0.5407631397 4283257196
-0.2851900756 -0.1474841237 0.5408844948 4283454573
-0.2852538526 -0.1469160020 0.5410054922 4283454573
-0.2857710123 -0.1465801895 0.5419863462 4283454573
-0.2858344615 -0.1460103989 0.5421066284 4283520366
-0.2858977020 -0.1454402506 0.5422265530 4283322987
-0.2859607041 -0.1448697150 0.5423460603 4283191401
-0.2860234976 -0.1442988068 0.5424651504 4283257709
-0.2860860527 -0.1437275261 0.5425837636 4283389295
-0.2861483991 -0.1431558579 0.5427020192 4283455086
-0.2866648138 -0.1428101510 0.5436814427 4283718258
-0.2867268026 -0.1422368437 0.5437990427 4283586670
-0.2867885828 -0.1416631490 0.5439162254 4283455084
-0.2868501544 -0.1410890967 0.5440329313 4283718771
-0.2869114876 -0.1405146718 0.5441492796 4284376701
-0.2869725823 -0.1399398893 0.5442651510 4285364112
-0.2870334685 -0.1393647194 0.5443806052 4286548386
-0.2870941162 -0.1387892067 0.5444956422 4286679202
-0.2871545553 -0.1382133216 0.5446102619 4286284444
-0.2872147560 -0.1376370639 0.5447244644 4285889429
-0.2872747183 -0.1370604485 0.5448381901 4285297292
-0.2873344719 -0.1364834756 0.5449514985 4284113016
-0.2869385481 -0.1356907636 0.5442005992 4283586672
-0.2869977355 -0.1351139843 0.5443128943 4284244854
-0.2870567143 -0.1345368624 0.5444247127 4285889679
-0.2871154547 -0.1339593679 0.5445361137 4287271331
-0.2871739566 -0.1333815306 0.5446470976 4287731882
-0.2872322500 -0.1328033358 0.5447576642 4287600035
-0.2872903049 -0.1322247982 0.5448677540 4287929000
-0.2873481214 -0.1316459030 0.5449774265 4288192170
-0.2874057293 -0.1310666502 0.5450866818 4288126377
-0.2879193723 -0.1306941807 0.5460608602 4288258476
-0.2884329855 -0.1303195208 0.5470349193 4287666339
-0.2884900570 -0.1297374070 0.5471432209 4286941588
-0.2885469198 -0.1291549355 0.5472510457 4283520352
-0.2886035442 -0.1285721213 0.5473583937 4281546562
-0.2886599004 -0.1279889643 0.5474653244 4283454559
-0.2891728878 -0.1276070625 0.5484381914 4286612110
-0.2892288864 -0.1270222962 0.5485444069 4288980658
-0.2888276577 -0.1262374520 0.5477834344 4289572795
-0.2888830900 -0.1256529391 0.5478885770 4289309623
-0.2889382839 -0.1250680983 0.5479933023 4287927970
-0.2889932692 -0.1244829074 0.5480975509 4285033078
-0.2895053327 -0.1240934357 0.5490687490 4283190358
-0.2891024649 -0.1233115494 0.5483046770 4283848288
-0.2891567349 -0.1227253675 0.5484075546 4284769390
-0.2892107368 -0.1221388578 0.5485100150 4284572011
-0.2892645299 -0.1215520203 0.5486119986 4284506218
-0.2897758484 -0.1211562604 0.5495817661 4284769390
-0.2898292243 -0.1205678433 0.5496830344 4284375148
-0.2898823619 -0.1199790984 0.5497838259 4284111976
-0.2899352610 -0.1193900332 0.5498841405 4285559422
-0.2899879217 -0.1188006476 0.5499839783 4286348938
-0.2900403440 -0.1182109416 0.5500833988 4284835699
-0.2900925279 -0.1176209152 0.5501824021 4283848804
-0.2896860838 -0.1168456897 0.5494115353 4284177769
-0.2897377014 -0.1162559614 0.5495094061 4284111976
-0.2897890806 -0.1156659201 0.5496068597 4283256667
-0.2898401916 -0.1150755584 0.5497038364 4283322460
-0.2894323766 -0.1143037453 0.5489303470 4283322714
-0.2894829512 -0.1137137040 0.5490262508 4283585886
-0.2899920940 -0.1133026332 0.5499919057 4283914851
-0.2900422513 -0.1127110347 0.5500870347 4283125335
-0.2905511558 -0.1122965440 0.5510522127 4282664784
-0.2906008661 -0.1117034033 0.5511465073 4283717472
-0.2906503677 -0.1111099571 0.5512403846 4287073942
-0.2906996012 -0.1105162054 0.5513337255 4288521388
-0.2907485962 -0.1099221557 0.5514266491 4288850353
-0.2912567258 -0.1095005199 0.5523903966 4288521388
-0.2913053036 -0.1089049354 0.5524825454 4288192425
-0.2913536429 -0.1083090529 0.5525741577 4288324011
-0.2914017141 -0.1077128723 0.5526653528 4288389804
-0.2914495468 -0.1071164012 0.5527560711 4288652976
-0.2914971113 -0.1065196320 0.5528462529 4288717999
-0.2910845876 -0.1057555005 0.5520638824 4288586413
-0.2911315858 -0.1051590964 0.5521530509 4288652976
-0.2911783159 -0.1045624018 0.5522416830 4288784562
-0.2912248373 -0.1039654240 0.5523298979 4289508285
-0.2912710607 -0.1033681557 0.5524175763 4290166215
-0.2913170755 -0.1027706042 0.5525048375 4290494410
-0.2913628221 -0.1021727771 0.5525915623 4290691789
-0.2914083004 -0.1015746593 0.5526778102 4291810270
-0.2914535403 -0.1009762660 0.5527636409 4291876063
-0.2914985120 -0.1003775969 0.5528489351 4291744477
-0.2915432453 -0.0997786522 0.5529337525 4291810270
-0.2915877104 -0.0991794318 0.5530180931 4291876063
-0.2916319370 -0.0985799357 0.5531020164 4291547098
-0.2912151217 -0.0978253782 0.5523114800 4291612891
-0.2917196155 -0.0973801315 0.5532682538 4291612891
-0.2917630672 -0.0967798233 0.5533506870 4291218133
-0.2918062508 -0.0961792469 0.5534325838 4290494410
-0.2923102677 -0.0957294032 0.5543884635 4289836480
-0.2923530042 -0.0951273516 0.5544695854 4289507515
-0.2923955023 -0.0945250317 0.5545501709 4288849585
-0.2924377620 -0.0939224511 0.5546302795 4288323241
-0.2924797237 -0.0933196098 0.5547099113 4287731104
-0.2929828465 -0.0928627551 0.5556640625 4287731104
-0.2930243611 -0.0922584459 0.5557428598 4288388775
-0.2930656374 -0.0916538835 0.5558211207 4288257189
-0.2931066453 -0.0910490602 0.5558989048 4288191394
-0.2931473851 -0.0904439911 0.5559761524 4288191394
-0.2936495841 -0.0899801478 0.5569286346 4288256417
-0.2941516638 -0.0895141438 0.5578808188 4288256417
-0.2937299013 -0.0887668431 0.5570809245 4287861659
-0.2937696874 -0.0881598219 0.5571563840 4288453796
-0.2942711413 -0.0876902118 0.5581074357 4287532948
-0.2943104506 -0.0870817453 0.5581820011 4286875018
-0.2943494916 -0.0864730328 0.5582560301 4285098606
-0.2943882644 -0.0858640820 0.5583295822 4283387988
-0.2944267690 -0.0852548927 0.5584025979 4284045916
-0.2944650352 -0.0846454576 0.5584751368 4284243295
-0.2940406799 -0.0839038640 0.5576703548 4283453781
-0.2940783501 -0.0832949206 0.5577417612 4281874749
-0.2936532795 -0.0825557336 0.5569356084 4282005310
-0.2936903536 -0.0819472820 0.5570059419 4283189584
-0.2937271595 -0.0813385993 0.5570757389 4284439136
-0.2933010757 -0.0806025565 0.5562676787 4284702308
-0.2928746343 -0.0798682123 0.5554588437 4284175964
-0.2924477756 -0.0791355520 0.5546492934 4283452241
-0.2924833596 -0.0785288513 0.5547167659 4282860105
-0.2925186753 -0.0779219270 0.5547837615 4282728519
-0.2925537229 -0.0773147792 0.5548502207 4283649621
-0.2925885022 -0.0767074227 0.5549161434 4284570723
-0.2926230133 -0.0760998428 0.5549815893 4284372830
-0.2931202948 -0.0756115019 0.5559247732 4283320142
-0.2931543291 -0.0750025362 0.5559893250 4282596419
-0.2936512828 -0.0745108873 0.5569317937 4282530626
-0.2941480577 -0.0740171000 0.5578739643 4283254350
-0.2941813767 -0.0734055787 0.5579372048 4283714901
-0.2937511206 -0.0726792142 0.5571211576 4284635233
-0.2942472398 -0.0721819177 0.5580621362 4283648338
-0.2947432101 -0.0716824904 0.5590027571 4282662726
-0.2943120301 -0.0709574446 0.5581849813 4282728519
-0.2938804626 -0.0702341273 0.5573664904 4283190097
-0.2943757176 -0.0697321668 0.5583058000 4284834922
-0.2939435244 -0.0690103844 0.5574861169 4285229680
-0.2935109735 -0.0682903305 0.5566657186 4284176992
-0.2940055132 -0.0677858591 0.5576036572 4283518804
-0.2940360904 -0.0671733022 0.5576616526 4282795081
-0.2945302427 -0.0666655526 0.5585988164 4281542961
-0.2945603132 -0.0660516545 0.5586558580 4281740340
-0.2945901453 -0.0654375702 0.5587124228 4286014318
-0.2946196795 -0.0648232996 0.5587684512 4291804102
-0.2941849232 -0.0641077310 0.5579439402 4293118422
-0.2942138910 -0.0634940639 0.5579988360 4289762979
-0.2947066724 -0.0629793927 0.5589334369 4286865255
-0.2947351038 -0.0623643957 0.5589873791 4287128427
-0.2952274680 -0.0618464686 0.5599212050 4287258473
-0.2952554226 -0.0612301491 0.5599741936 4287258473
-0.2957473695 -0.0607089624 0.5609072447 4287388262
-0.2957748175 -0.0600913279 0.5609592795 4287585641
-0.2962663472 -0.0595668890 0.5618914962 4287519848
-0.2962932587 -0.0589479469 0.5619425774 4287454055
-0.2963199317 -0.0583288334 0.5619931221 4287520362
-0.2968107760 -0.0578000098 0.5629240870 4287322983
-0.2973014712 -0.0572690777 0.5638546944 4287191910
-0.2973273695 -0.0566475317 0.5639038086 4287389289
-0.2973529994 -0.0560258217 0.5639523864 4287586157
-0.2983076274 -0.0555770881 0.5657629967 4287520364
-0.2987974882 -0.0550387129 0.5666919947 4287586157
-0.2983576655 -0.0543289892 0.5658578277 4287915122
-0.2983822525 -0.0537047051 0.5659044385 4288375157
-0.2988713384 -0.0531629473 0.5668320656 4288704122
-0.2993602455 -0.0526190922 0.5677593350 4289230466
-0.2998489738 -0.0520731434 0.5686861873 4289427845
-0.2998725474 -0.0514453351 0.5687308908 4289098880
-0.3003607690 -0.0508961678 0.5696569085 4289033087
-0.3013138175 -0.0504227206 0.5714643598 4289230466
-0.3022666872 -0.0499452315 0.5732715726 4289164673
-0.3027543724 -0.0493878424 0.5741965175 4288638329
-0.3041720092 -0.0489781387 0.5768852234 4288046192
