VERSION 0.7
FIELDS x y z rgba
SIZE 4 4 4 4
TYPE F F F U
COUNT 1 1 1 1
WIDTH 920
HEIGHT 1
VIEWPOINT 0.0 0.0 0.0 1.0 0.0 0.0 0.0
POINTS 920
DATA ascii
-0.3048453629 -0.0690608099 0.5733314157 4284186734
-0.3048766553 -0.0684308261 0.5733903050 4285107067
-0.3049076796 -0.0678006485 0.5734486580 4285633411
-0.3044714630 -0.0670674145 0.5726282597 4285567107
-0.3045018911 -0.0664378256 0.5726854205 4285303935
-0.3045320213 -0.0658080429 0.5727421045 4285632900
-0.3050290048 -0.0652780384 0.5736768246 4286422416
-0.3050586283 -0.0646469221 0.5737325549 4287211421
-0.3050879538 -0.0640156195 0.5737876892 4287935144
-0.3051170111 -0.0633841380 0.5738423467 4288000169
-0.3051458001 -0.0627524778 0.5738964677 4288131755
-0.3051742911 -0.0621206351 0.5739500523 4288657588
-0.3052025139 -0.0614886209 0.5740031004 4288657588
-0.3052304387 -0.0608564280 0.5740556717 4287669923
-0.3052580655 -0.0602240637 0.5741076469 4285630340
-0.3052854240 -0.0595915318 0.5741590858 4284181869
-0.3053125143 -0.0589588284 0.5742099881 4283194974
-0.3053393066 -0.0583259575 0.5742604136 4283456867
-0.3048981726 -0.0576045699 0.5734307766 4285233278
-0.3053920269 -0.0570597202 0.5743595362 4287074968
-0.3049502373 -0.0563399456 0.5735287070 4288325035
-0.3049758673 -0.0557073914 0.5735768676 4288850866
-0.3050011694 -0.0550746806 0.5736244917 4289114038
-0.3045583963 -0.0543583147 0.5727916956 4289049783
-0.3045831025 -0.0537262596 0.5728381872 4288589232
-0.3046075404 -0.0530940555 0.5728841424 4287669924
-0.3046316803 -0.0524616987 0.5729295611 4287735717
-0.3046555519 -0.0518291928 0.5729744434 4286948762
-0.3051471412 -0.0512751825 0.5738990307 4285764488
-0.3051704764 -0.0506414101 0.5739428997 4285372548
-0.3051935136 -0.0500074923 0.5739862323 4285175169
-0.3047481477 -0.0492977053 0.5731486082 4284386932
-0.3043024242 -0.0485897250 0.5723103285 4284189553
-0.3043245375 -0.0479573309 0.5723518729 4283925867
-0.3043463528 -0.0473248027 0.5723929405 4283596902
-0.3043678999 -0.0466921367 0.5724334121 4283135325
-0.3043891490 -0.0460593365 0.5724734068 4283003739
-0.3048784137 -0.0454962924 0.5733935833 4283463776
-0.3044307828 -0.0447933450 0.5725517273 4283134811
-0.3049195409 -0.0442280956 0.5734709501 4283262044
-0.3049396873 -0.0435938090 0.5735087991 4282801493
-0.3058964312 -0.0430913717 0.5753082037 4283062871
-0.3049790859 -0.0423248559 0.5735829473 4282141769
-0.3049983382 -0.0416901968 0.5736191273 4282929234
-0.3050173223 -0.0410554223 0.5736548305 4284771438
-0.3055045903 -0.0404826142 0.5745712519 4285296500
-0.3055230081 -0.0398466289 0.5746058822 4285362293
-0.3055411577 -0.0392105281 0.5746400356 4286019709
-0.3055589795 -0.0385743156 0.5746735930 4286875018
-0.3055765629 -0.0379379913 0.5747066140 4288255130
-0.3055938184 -0.0373015590 0.5747390985 4289242025
-0.3060795367 -0.0367212556 0.5756525397 4290490548
-0.3060962260 -0.0360836349 0.5756840110 4290753720
-0.3061126471 -0.0354459099 0.5757148862 4289765539
-0.3056599796 -0.0347547792 0.5748635530 4288120714
-0.3056758046 -0.0341178291 0.5748932958 4286668640
-0.3056913316 -0.0334807821 0.5749224424 4285879124
-0.3057065606 -0.0328436382 0.5749511123 4285943634
-0.3057214916 -0.0322064012 0.5749792457 4286338392
-0.3062050641 -0.0316174887 0.5758886933 4286928989
-0.3062194586 -0.0309790913 0.5759157538 4286928989
-0.3062335551 -0.0303406026 0.5759422183 4286731358
-0.3062473536 -0.0297020283 0.5759682059 4286533979
-0.3057918549 -0.0290188603 0.5751115084 4286403676
-0.3048669994 -0.0282940362 0.5733721256 4286732641
-0.3058179319 -0.0277432483 0.5751605630 4286604136
-0.3062995970 -0.0271468926 0.5760664940 4287788410
-0.3053737879 -0.0264267214 0.5743252635 4289041816
-0.3035469353 -0.2494286150 0.5720844865 4285097834
-0.3027717173 -0.2481575906 0.5706233978 4285226847
-0.3015580773 -0.2465314269 0.5683361292 4285226847
-0.3034081757 -0.2474085838 0.5718229413 4285685344
-0.3017555475 -0.2454291135 0.5687083006 4285685344
-0.3014159501 -0.2445217222 0.5680682659 4285487965
-0.3010759056 -0.2436154187 0.5674273968 4285816930
-0.3002970219 -0.2423563600 0.5659594536 4287856513
-0.2995173931 -0.2410999835 0.5644901395 4286935411
-0.2991757393 -0.2401984781 0.5638462305 4286343274
-0.2992724478 -0.2396494448 0.5640285015 4286343274
-0.2984910905 -0.2383987159 0.5625559092 4286409067
-0.2981480956 -0.2375004590 0.5619094372 4285948516
-0.2978046834 -0.2366032749 0.5612621903 4285356379
-0.2974607944 -0.2357071936 0.5606141090 4285290586
-0.2966769636 -0.2344648391 0.5591368675 4285422172
-0.2954527438 -0.2328786552 0.5568296313 4285159000
-0.2964265347 -0.2330254912 0.5586648583 4285290586
-0.2956409454 -0.2317888588 0.5571843386 4285093207
-0.2952947319 -0.2308990657 0.5565317869 4285420889
-0.2945078313 -0.2296670824 0.5550487638 4285420889
-0.2946009636 -0.2291228175 0.5552242994 4285618268
-0.2938129306 -0.2278946787 0.5537390709 4285091924
-0.2930241525 -0.2266692817 0.5522525311 4284565580
-0.2922346890 -0.2254466414 0.5507646203 4284236615
-0.2918854058 -0.2245659828 0.5501064062 4284039236
-0.2915357053 -0.2236864567 0.5494472980 4284170822
-0.2911855280 -0.2228080481 0.5487873554 4284960338
-0.2912762761 -0.2222675383 0.5489583611 4284697166
-0.2909253836 -0.2213905752 0.5482970476 4284499529
-0.2901324332 -0.2201796323 0.5468026400 4284302150
-0.2897805274 -0.2193057686 0.5461393595 4284433736
-0.2898700535 -0.2187665403 0.5463081002 4284565322
-0.2895174026 -0.2178941369 0.5456435084 4284433736
-0.2891643345 -0.2170228958 0.5449780226 4284236357
-0.2888107896 -0.2161528021 0.5443117619 4283711041
-0.2884568274 -0.2152838558 0.5436446667 4283711041
-0.2881024480 -0.2144160718 0.5429767370 4284170309
-0.2877475917 -0.2135494500 0.5423079729 4284630860
-0.2873923182 -0.2126839906 0.5416384339 4285287762
-0.2870366275 -0.2118196934 0.5409680009 4285550934
-0.2857942879 -0.2103044540 0.5386266708 4285682263
-0.2858806551 -0.2097693831 0.5387894511 4285682263
-0.2855235040 -0.2089094222 0.5381163359 4285812820
-0.2851659060 -0.2080506533 0.5374423862 4285944406
-0.2852515280 -0.2075157911 0.5376037359 4286206293
-0.2848931849 -0.2066585571 0.5369284153 4286206293
-0.2845344245 -0.2058025002 0.5362522602 4286534229
-0.2846192718 -0.2052678615 0.5364121199 4286863194
-0.2847039402 -0.2047327459 0.5365716815 4287191902
-0.2834555507 -0.2032414824 0.5342189074 4287323488
-0.2830950618 -0.2023901939 0.5335394740 4287322720
-0.2831786871 -0.2018570006 0.5336970687 4287322720
-0.2832621336 -0.2013233304 0.5338543653 4287257441
-0.2829005718 -0.2004739791 0.5331729650 4287191648
-0.2829835713 -0.1999402195 0.5333293676 4287191648
-0.2826212943 -0.1990924478 0.5326465964 4287191648
-0.2827037871 -0.1985585839 0.5328021049 4287191648
-0.2827861011 -0.1980242431 0.5329572558 4287125855
-0.2828682661 -0.1974894404 0.5331120491 4287388513
-0.2825046480 -0.1966440231 0.5324267745 4287059548
-0.2825863063 -0.1961091310 0.5325806737 4286993755
-0.2822219431 -0.1952653080 0.5318940282 4287256927
-0.2823031545 -0.1947303414 0.5320470333 4286994269
-0.2828302681 -0.1945016980 0.5330404639 4287060062
-0.2829112411 -0.1939649582 0.5331930518 4287323747
-0.2829920053 -0.1934277564 0.5333452821 4287060575
-0.2830726206 -0.1928901076 0.5334972143 4287125341
-0.2831530571 -0.1923519820 0.5336487889 4287125341
-0.2836800516 -0.1921159625 0.5346420407 4286271061
-0.2837602496 -0.1915760785 0.5347931385 4287718507
-0.2833932638 -0.1907348931 0.5341015458 4289826453
-0.2839201093 -0.1904949397 0.5350944400 4292326587
-0.2839997411 -0.1899536848 0.5352445841 4291210421
-0.2840792239 -0.1894119829 0.5353943110 4287526013
-0.2841585279 -0.1888698190 0.5355437398 4284567899
-0.2842376232 -0.1883272082 0.5356928706 4284041555
-0.2852120399 -0.1883755922 0.5375292897 4284569442
-0.2839474082 -0.1869457513 0.5351459384 4284964200
-0.2853698134 -0.1872846782 0.5378266573 4284767337
-0.2841040790 -0.1858590841 0.5354412198 4283583063
-0.2841821611 -0.1853150725 0.5355883241 4282398019
-0.2842600048 -0.1847706139 0.5357350707 4282529605
-0.2843376994 -0.1842257082 0.5358814597 4283780953
-0.2844152153 -0.1836803555 0.5360275507 4284044125
-0.2844925225 -0.1831345558 0.5361732244 4283583574
-0.2845696211 -0.1825883090 0.5363186002 4283188816
-0.2850955427 -0.1823287606 0.5373097658 4283057230
-0.2851724029 -0.1817807555 0.5374546051 4284241504
-0.2852490842 -0.1812323332 0.5375990868 4284833641
-0.2857748866 -0.1809679866 0.5385900736 4284636262
-0.2858512998 -0.1804178059 0.5387341380 4283780953
-0.2859275341 -0.1798671782 0.5388777852 4282991437
-0.2860035598 -0.1793161184 0.5390210748 4282662726
-0.2860793769 -0.1787646115 0.5391639471 4282991691
-0.2861550450 -0.1782126725 0.5393065214 4283123277
-0.2862304747 -0.1776603013 0.5394487381 4283320656
-0.2863057256 -0.1771074831 0.5395905375 4283583828
-0.2868310809 -0.1768318266 0.5405806303 4283518035
-0.2869060636 -0.1762772799 0.5407219529 4282860105
-0.2869808376 -0.1757222861 0.5408629179 4282202175
-0.2870554328 -0.1751668602 0.5410034657 4282531140
-0.2875805795 -0.1748851240 0.5419932008 4283254863
-0.2876548767 -0.1743279546 0.5421332121 4283978332
-0.2877289653 -0.1737703681 0.5422729254 4284373090
-0.2878028750 -0.1732123494 0.5424121618 4284110690
-0.2883278131 -0.1729245037 0.5434014797 4284308069
-0.2884014249 -0.1723647565 0.5435402393 4284373862
-0.2884748578 -0.1718045622 0.5436786413 4284242276
-0.2885480821 -0.1712439507 0.5438166261 4283847518
-0.2890727818 -0.1709500253 0.5448054671 4284308069
-0.2886939049 -0.1701214463 0.5440914631 4284505705
-0.2887665033 -0.1695595682 0.5442283154 4284045154
-0.2888389230 -0.1689972430 0.5443647504 4284045408
-0.2889111340 -0.1684345156 0.5445008278 4284571752
-0.2885308862 -0.1676086485 0.5437842011 4283913822
-0.2876978517 -0.1665222943 0.5422142148 4284111201
-0.2877691090 -0.1659609526 0.5423485041 4285229428
-0.2878401577 -0.1653991938 0.5424823761 4285887358
-0.2874583006 -0.1645778269 0.5417627692 4286348422
-0.2879815996 -0.1642744094 0.5427490473 4286545801
-0.2880520523 -0.1637113988 0.5428817272 4286874766
-0.2881222665 -0.1631479859 0.5430141091 4286348422
-0.2881922722 -0.1625841558 0.5431460142 4285099125
-0.2887153029 -0.1622746587 0.5441318154 4283454300
-0.2892383635 -0.1619629860 0.5451175570 4282730577
-0.2893079519 -0.1613961458 0.5452487469 4282796370
-0.2893773317 -0.1608289033 0.5453795195 4283388764
-0.2894465327 -0.1602612436 0.5455098748 4285954691
-0.2895154953 -0.1596931815 0.5456398726 4288323239
-0.2891303599 -0.1588753015 0.5449140072 4288915376
-0.2891987860 -0.1583073288 0.5450429916 4289573309
-0.2888129056 -0.1574913263 0.5443156958 4289704895
-0.2888807952 -0.1569234282 0.5444436669 4289902273
-0.2884941697 -0.1561093032 0.5437150002 4290297031
-0.2885615230 -0.1555415094 0.5438419580 4290691789
-0.2886286676 -0.1549733132 0.5439684987 4291020754
-0.2891502678 -0.1546478868 0.5449514985 4291217620
-0.2892170846 -0.1540780067 0.5450774431 4291414999
-0.2892836928 -0.1535077244 0.5452030301 4291612632
-0.2898050249 -0.1531775296 0.5461855531 4291546839
-0.2898713350 -0.1526055783 0.5463104844 4291612632
-0.2903925478 -0.1522718966 0.5472928286 4291020495
-0.2904585004 -0.1516982615 0.5474171042 4290756553
-0.2905242145 -0.1511242241 0.5475410223 4290296002
-0.2905897200 -0.1505498141 0.5476644635 4289572277
-0.2906550169 -0.1499750018 0.5477874875 4288651175
-0.2911757529 -0.1496339887 0.5487689376 4287599259
-0.2912407219 -0.1490575075 0.5488913655 4286743950
-0.2913054526 -0.1484806389 0.5490133166 4286151813
-0.2918259203 -0.1481348425 0.5499942899 4285493883
-0.2914342284 -0.1473257542 0.5492560267 4284835953
-0.2914982736 -0.1467477381 0.5493767858 4284506988
-0.2915621102 -0.1461693496 0.5494970679 4284309609
-0.2911693454 -0.1453627348 0.5487568378 4284112230
-0.2912326455 -0.1447844803 0.5488761067 4283651679
-0.2908391356 -0.1439798325 0.5481345057 4283717472
-0.2909018695 -0.1434017420 0.5482527018 4284112230
-0.2905076146 -0.1425990760 0.5475096703 4284572781
-0.2905697823 -0.1420211494 0.5476268530 4285164918
-0.2906317413 -0.1414428502 0.5477436781 4285888641
-0.2906934917 -0.1408641785 0.5478600264 4286678157
-0.2907550037 -0.1402851492 0.5479758978 4287072915
-0.2912735343 -0.1399254054 0.5489531755 4287665563
-0.2913346887 -0.1393447220 0.5490684509 4288389286
-0.2913956046 -0.1387636811 0.5491832495 4289113009
-0.2914562821 -0.1381822675 0.5492976308 4289441974
-0.2919743955 -0.1378165185 0.5502740741 4289770939
-0.2920347154 -0.1372334659 0.5503877997 4290099904
-0.2920947969 -0.1366500705 0.5505010486 4290428356
-0.2921546698 -0.1360663027 0.5506138206 4290494149
-0.2922143042 -0.1354821771 0.5507262349 4289704633
-0.2918155789 -0.1346862465 0.5499747992 4289770426
-0.2918746769 -0.1341023296 0.5500861406 4290165184
-0.2923918068 -0.1337276697 0.5510607362 4290494149
-0.2919920981 -0.1329334378 0.5503074527 4290953930
-0.2920504808 -0.1323484480 0.5504174829 4291348688
-0.2921086252 -0.1317631304 0.5505270362 4291085516
-0.2926251888 -0.1313833743 0.5515006185 4290822344
-0.2926829457 -0.1307964325 0.5516094565 4291349458
-0.2927404642 -0.1302091330 0.5517178774 4291217872
-0.2927977443 -0.1296215057 0.5518258214 4291481044
-0.2923957705 -0.1288312674 0.5510682464 4291744216
-0.2924524844 -0.1282438636 0.5511751771 4291086286
-0.2925089896 -0.1276561320 0.5512816310 4290954700
-0.2925652266 -0.1270680428 0.5513876081 4291415251
-0.2926212251 -0.1264796257 0.5514931679 4291744216
-0.2922175527 -0.1256932318 0.5507323742 4291678425
-0.2922729850 -0.1251050532 0.5508368611 4290691530
-0.2918685675 -0.1243207753 0.5500746369 4288717740
-0.2919234335 -0.1237328574 0.5501780510 4286546571
-0.2919780910 -0.1231446192 0.5502810478 4284638831
-0.2924923599 -0.1227490455 0.5512502789 4283388764
-0.2925466001 -0.1221592203 0.5513525009 4282730834
-0.2926006019 -0.1215690598 0.5514543056 4282270283
-0.2926543653 -0.1209785789 0.5515556335 4282138187
-0.2927078903 -0.1203877777 0.5516564846 4281940808
-0.2927611768 -0.1197966486 0.5517568588 4281875014
-0.2932746112 -0.1193926260 0.5527245402 4281611842
-0.2933274806 -0.1187999174 0.5528241992 4282270026
-0.2938406765 -0.1183924675 0.5537914038 4282927956
-0.2938931286 -0.1177981943 0.5538902283 4282598221
-0.2939453423 -0.1172036007 0.5539886951 4282137670
-0.2939973176 -0.1166086942 0.5540866256 4282400840
-0.2940490544 -0.1160134748 0.5541841388 4284637802
-0.2936395705 -0.1152370349 0.5534123778 4287072396
-0.2936907113 -0.1146421209 0.5535087585 4290033081
-0.2942027450 -0.1142259315 0.5544737577 4291217355
-0.2947146893 -0.1138075665 0.5554386377 4290888390
-0.2947652638 -0.1132098585 0.5555339456 4290625218
-0.2943542302 -0.1124356091 0.5547592640 4290822597
-0.2944042087 -0.1118382215 0.5548534989 4290294961
-0.2944539487 -0.1112405360 0.5549471974 4288189585
-0.2945034504 -0.1106425449 0.5550404787 4285360486
-0.2940910161 -0.1098717675 0.5542631745 4283255110
-0.2941399217 -0.1092741117 0.5543553829 4282860095
-0.2941885889 -0.1086761579 0.5544471145 4284439127
-0.2937750816 -0.1079082415 0.5536677837 4287070847
-0.2942851484 -0.1074793711 0.5546290874 4288978844
-0.2943330705 -0.1068805307 0.5547193885 4289504164
-0.2948428690 -0.1064482555 0.5556801558 4289109406
-0.2948903441 -0.1058478951 0.5557696819 4288780443
-0.2953998446 -0.1054122150 0.5567299128 4288780443
-0.2954469025 -0.1048103347 0.5568186045 4289108895
-0.2959561050 -0.1043712497 0.5577782989 4289372067
-0.2960027158 -0.1037678570 0.5578661561 4289438114
-0.2960490584 -0.1031641811 0.5579534769 4289372321
-0.2960951626 -0.1025602221 0.5580403805 4289635493
-0.2961409986 -0.1019559801 0.5581267476 4289240735
-0.2961865962 -0.1013514623 0.5582126975 4289109149
-0.2966947854 -0.1009040773 0.5591704249 4288911770
-0.2972028553 -0.1004545242 0.5601279736 4288253838
-0.2972477973 -0.0998472869 0.5602126718 4287924873
-0.2972925007 -0.0992397666 0.5602969527 4288122254
-0.2973369360 -0.0986319780 0.5603806376 4288253840
-0.2973811030 -0.0980239138 0.5604639053 4288911770
-0.2974250019 -0.0974155813 0.5605466962 4288977563
-0.2974686623 -0.0968069732 0.5606289506 4288582551
-0.2975120544 -0.0961981043 0.5607107282 4288714137
-0.2975551784 -0.0955889747 0.5607919693 4289109149
-0.2971344888 -0.0948316306 0.5599991679 4289635493
-0.2971770465 -0.0942229182 0.5600793362 4289043356
-0.2967556417 -0.0934679061 0.5592851043 4288056461
-0.2967975736 -0.0928596258 0.5593641996 4286281079
-0.2968392670 -0.0922510847 0.5594427586 4284702047
-0.2968806922 -0.0916422904 0.5595208406 4282926663
-0.2964579165 -0.0908910036 0.5587240458 4282005561
-0.2964987457 -0.0902826563 0.5588009953 4282992969
-0.2965393066 -0.0896740556 0.5588774681 4283650899
-0.2961154878 -0.0889258236 0.5580787063 4283388754
-0.2961554825 -0.0883176848 0.5581540465 4282138687
-0.2961952090 -0.0877092928 0.5582289100 4281613626
-0.2962346375 -0.0871006623 0.5583032370 4281942591
-0.2967382073 -0.0866273567 0.5592523217 4282074690
-0.2967771888 -0.0860172883 0.5593257546 4282469448
-0.2972804308 -0.0855406299 0.5602741838 4282601291
-0.2973189354 -0.0849291310 0.5603467822 4281680189
-0.2978218198 -0.0844491348 0.5612944961 4281482810
-0.2978598475 -0.0838362053 0.5613662004 4282140740
-0.2983623445 -0.0833528712 0.5623132586 4283788639
-0.2983999252 -0.0827385187 0.5623840690 4283459674
-0.2993669212 -0.0823797658 0.5642065406 4283723616
-0.2994040549 -0.0817630365 0.5642765164 4284447339
-0.2999058962 -0.0812720805 0.5652223229 4283263576
-0.2999425828 -0.0806539357 0.5652914047 4283526748
-0.2999789417 -0.0800355673 0.5653600097 4283461469
-0.3000150621 -0.0794169679 0.5654280782 4282671953
-0.3005160987 -0.0789203197 0.5663723350 4282014536
-0.3005517423 -0.0783003196 0.5664395094 4282672466
-0.3005870879 -0.0776801035 0.5665061474 4284909941
-0.3006221652 -0.0770596638 0.5665722489 4285765250
-0.3006569743 -0.0764390156 0.5666378736 4285108090
-0.3011569679 -0.0759355128 0.5675801635 4284186988
-0.3011913002 -0.0753134713 0.5676448345 4284713330
-0.3012253344 -0.0746912137 0.5677090287 4285173881
-0.3012591004 -0.0740687549 0.5677726269 4284713840
-0.3012925982 -0.0734460801 0.5678357482 4283792738
-0.3017915189 -0.0729357526 0.5687760711 4282279499
-0.3018245101 -0.0723117068 0.5688382983 4282213706
-0.3018572330 -0.0716874599 0.5688999295 4282871124
-0.3018896580 -0.0710630044 0.5689610243 4282805331
-0.3019218147 -0.0704383478 0.5690216422 4282936919
-0.3024196923 -0.0699212328 0.5699599385 4283397470
-0.3029173613 -0.0694019943 0.5708979368 4283133530
-0.3034148514 -0.0688806251 0.5718355179 4284778355
-0.3034460545 -0.0682522878 0.5718943477 4285567105
-0.3034769595 -0.0676237643 0.5719525814 4285040761
-0.3030413687 -0.0668921322 0.5711316466 4285566848
-0.3030716777 -0.0662641898 0.5711887479 4285961606
-0.3031017184 -0.0656360611 0.5712453723 4286224524
-0.3035978079 -0.0651077554 0.5721803308 4286882454
-0.3036273122 -0.0644782931 0.5722359419 4288065962
-0.3036565483 -0.0638486445 0.5722910762 4288723892
-0.3036855161 -0.0632188097 0.5723456144 4289249723
-0.3041807115 -0.0626849458 0.5732789040 4289052344
-0.3037425578 -0.0619586185 0.5724531412 4288722611
-0.3037706614 -0.0613282546 0.5725060701 4288985783
-0.3037984669 -0.0606977195 0.5725585222 4289314236
-0.3038260043 -0.0600670092 0.5726104379 4288656306
-0.3038532734 -0.0594361275 0.5726618171 4288260267
-0.3038802445 -0.0588050783 0.5727126598 4286023305
-0.3034400940 -0.0580845028 0.5718831420 4283719525
-0.3029995859 -0.0573657006 0.5710529089 4282337872
-0.3034925461 -0.0568235181 0.5719819665 4282797910
-0.3030514121 -0.0561063290 0.5711505413 4284705907
-0.3030768633 -0.0554764047 0.5711985230 4286416014
-0.3031020761 -0.0548463203 0.5712460279 4287139737
-0.3031269610 -0.0542160794 0.5712929964 4287469726
-0.3031516075 -0.0535856858 0.5713393688 4287140761
-0.3031759262 -0.0529551394 0.5713852644 4286484624
-0.3032000065 -0.0523244403 0.5714305639 4287339933
-0.3032237589 -0.0516935922 0.5714753866 4287342239
-0.3032472432 -0.0510625951 0.5715196729 4286157965
-0.3032704592 -0.0504314564 0.5715633631 4285699974
-0.3037607074 -0.0498769060 0.5724872947 4286292111
-0.3033159971 -0.0491687432 0.5716492534 4283924843
-0.3028709590 -0.0484623872 0.5708104372 4282806362
-0.3024255633 -0.0477578416 0.5699710250 4282148432
-0.3024472594 -0.0471279435 0.5700119138 4282477397
-0.3024686873 -0.0464979149 0.5700523257 4282081869
-0.3024898171 -0.0458677486 0.5700921416 4281621318
-0.3034457862 -0.0453772917 0.5718938112 4282410836
-0.3029988408 -0.0446759760 0.5710514784 4282805594
-0.3044220209 -0.0442483574 0.5737336874 4282735187
-0.3030391634 -0.0434127934 0.5711274743 4283195738
-0.3035265803 -0.0428470373 0.5720461011 4283917923
-0.3035460711 -0.0422141626 0.5720828176 4283128407
-0.3049684763 -0.0417733751 0.5747635961 4283718750
-0.3035841584 -0.0409480520 0.5721546412 4285692540
-0.3040705919 -0.0403769389 0.5730713606 4286810254
-0.3040889502 -0.0397426151 0.5731059313 4287139219
-0.3041070104 -0.0391081758 0.5731400251 4287007633
-0.3036569059 -0.0384144373 0.5722917318 4287139219
-0.3041422963 -0.0378389657 0.5732064843 4287007118
-0.3041594923 -0.0372041948 0.5732389092 4286743946
-0.3041763902 -0.0365693197 0.5732707977 4287662993
-0.3041930199 -0.0359343402 0.5733021498 4288913060
-0.3042093515 -0.0352992564 0.5733329058 4290161585
-0.3037573695 -0.0346107408 0.5724810362 4290556343
-0.3037731051 -0.0339764319 0.5725107193 4290354336
-0.3037885427 -0.0333420262 0.5725398064 4289038476
-0.3038036823 -0.0327075273 0.5725683570 4286998123
-0.3033504188 -0.0320235118 0.5717141032 4285550677
-0.3033649623 -0.0313898027 0.5717415214 4285549394
-0.3038474023 -0.0308034644 0.5726507902 4285878359
-0.3038614094 -0.0301685985 0.5726771355 4286140761
-0.3043433428 -0.0295791514 0.5735853910 4286206554
-0.3043567538 -0.0289431345 0.5736107230 4286469726
-0.3043698967 -0.0283070337 0.5736354589 4286732898
-0.3034462035 -0.0275857113 0.5718945861 4286602082
-0.3043953180 -0.0270345900 0.5736833811 4286141531
-0.3039392829 -0.0263576377 0.5728238821 4286077021
-0.3020778894 -0.0255636685 0.5693157911 4287327088
-0.3016211092 -0.0248934198 0.5684549212 4288775304
-0.3016324043 -0.0242627338 0.5684762001 4290091164
-0.3034694493 -0.2498880029 0.5731381178 4284768867
-0.3019213378 -0.2473461479 0.5702143312 4285226333
-0.3015832603 -0.2464363426 0.5695758462 4285553504
-0.3012447655 -0.2455276102 0.5689365268 4285553504
-0.3009057939 -0.2446199208 0.5682963729 4285553504
-0.3010039032 -0.2440680563 0.5684816837 4285816676
-0.3006642163 -0.2431617081 0.5678400993 4287658880
-0.2994484901 -0.2415501326 0.5655440688 4286474606
-0.2991076410 -0.2406475395 0.5649003386 4286474606
-0.2987663150 -0.2397460043 0.5642557144 4286803571
-0.2984245718 -0.2388455570 0.5636103153 4286935411
-0.2980823815 -0.2379461825 0.5629640222 4285685344
-0.2973012626 -0.2366987914 0.5614887476 4285356379
-0.2969580293 -0.2358023971 0.5608405471 4285356379
-0.2970531583 -0.2352546006 0.5610201955 4285422172
-0.2962702811 -0.2340129018 0.5595416427 4285224793
-0.2954866886 -0.2327739298 0.5580617189 4285355866
-0.2951415777 -0.2318827212 0.5574099422 4285290073
-0.2947960198 -0.2309926301 0.5567573309 4285618268
-0.2940105498 -0.2297602147 0.5552738309 4285486682
-0.2936639488 -0.2288731486 0.5546193123 4285749854
-0.2933169305 -0.2279872000 0.5539638996 4285552475
-0.2920897007 -0.2264203727 0.5516461134 4285091924
-0.2917415202 -0.2255382985 0.5509885550 4284565580
-0.2913928926 -0.2246573269 0.5503301620 4284104516
-0.2910438478 -0.2237775028 0.5496709347 4284236102
-0.2906943560 -0.2228987962 0.5490108728 4285354583
-0.2903444171 -0.2220212072 0.5483499765 4284762446
-0.2899940610 -0.2211447805 0.5476882458 4284499274
-0.2896432579 -0.2202694714 0.5470257401 4284762446
-0.2888510227 -0.2190608680 0.5455294847 4284630860
-0.2889403403 -0.2185222954 0.5456981659 4284762446
-0.2885882258 -0.2176504135 0.5450331569 4284631115
-0.2882356644 -0.2167796940 0.5443673134 4284631115
-0.2878826559 -0.2159101218 0.5437006354 4284302408
-0.2875292301 -0.2150416970 0.5430331230 4283973443
-0.2876171768 -0.2145039439 0.5431992412 4283907137
-0.2872630060 -0.2136370093 0.5425303578 4284104516
-0.2864663303 -0.2124433964 0.5410257578 4284893005
-0.2861111462 -0.2115796357 0.5403549671 4285353556
-0.2853132188 -0.2103908509 0.5388479233 4285616470
-0.2849570215 -0.2095302492 0.5381752253 4285748056
-0.2846004069 -0.2086708248 0.5375016928 4285813077
-0.2846861184 -0.2081362754 0.5376635790 4285944663
-0.2843287587 -0.2072783858 0.5369886756 4286075990
-0.2839709818 -0.2064216733 0.5363129377 4286010197
-0.2840558887 -0.2058873475 0.5364733338 4286272086
-0.2841406465 -0.2053525448 0.5366334319 4286469465
-0.2837818265 -0.2044977248 0.5359557271 4286732378
-0.2834225893 -0.2036441118 0.5352772474 4286929757
-0.2826192081 -0.2024738342 0.5337600112 4287454306
-0.2827027738 -0.2019404620 0.5339177847 4287454306
-0.2823421955 -0.2010904551 0.5332368016 4287257441
-0.2819812298 -0.2002416402 0.5325550437 4287191648
-0.2820639908 -0.1997085363 0.5327113867 4287191648
-0.2817022502 -0.1988613009 0.5320281982 4287257441
-0.2813400924 -0.1980152875 0.5313442349 4287191648
-0.2814221084 -0.1974824667 0.5314990878 4287125855
-0.2806144953 -0.1963268965 0.5299738050 4287388513
-0.2815855742 -0.1964154243 0.5318078399 4287059548
-0.2812220752 -0.1955717504 0.5311213136 4287124828
-0.2813032269 -0.1950379163 0.5312746167 4287388000
-0.2804937661 -0.1938880980 0.5297458172 4287190621
-0.2810196877 -0.1936619431 0.5307390690 4287059035
-0.2815456986 -0.1934336424 0.5317324996 4287256927
-0.2816261649 -0.1928979605 0.5318844914 4287125341
-0.2817064524 -0.1923618168 0.5320361257 4286862683
-0.2817865610 -0.1918252259 0.5321874022 4287323234
-0.2818664908 -0.1912881732 0.5323383808 4286796892
-0.2819462419 -0.1907506585 0.5324890018 4286533720
-0.2820258141 -0.1902126968 0.5326392651 4286139991
-0.2821052074 -0.1896742731 0.5327891707 4288969090
-0.2821843922 -0.1891354024 0.5329387784 4291735479
-0.2827100456 -0.1888944805 0.5339315534 4292064444
-0.2823422849 -0.1880562901 0.5332369804 4288777622
-0.2824209630 -0.1875160486 0.5333855152 4284632663
-0.2820524275 -0.1866795272 0.5326895714 4283976792
-0.2816835046 -0.1858442575 0.5319927931 4284832101
-0.2822086215 -0.1855985224 0.5329844952 4285029741
-0.2822864056 -0.1850573421 0.5331314802 4284569190
-0.2819165587 -0.1842233092 0.5324329138 4283252818
-0.2819938660 -0.1836820990 0.5325789452 4282331716
-0.2820709944 -0.1831404418 0.5327246189 4282136128
-0.2821479440 -0.1825983375 0.5328699350 4282859851
-0.2822247148 -0.1820558012 0.5330148935 4283451988
-0.2827493846 -0.1818009317 0.5340058208 4283583574
-0.2832741141 -0.1815439016 0.5349968076 4282728265
-0.2833505273 -0.1809983104 0.5351411700 4282530886
-0.2838752568 -0.1807377934 0.5361321568 4282333248
-0.2839514315 -0.1801904589 0.5362760425 4282135869
-0.2844761312 -0.1799264699 0.5372669697 4283912280
-0.2845520377 -0.1793773919 0.5374103785 4283912280
-0.2846277654 -0.1788278669 0.5375533700 4283714901
-0.2847033143 -0.1782779098 0.5376960039 4283320143
-0.2847786546 -0.1777275056 0.5378383398 4282728006
-0.2848537862 -0.1771766692 0.5379802585 4282333248
-0.2849287391 -0.1766254008 0.5381218195 4282662213
-0.2850035131 -0.1760737002 0.5382630229 4283122764
-0.2850780785 -0.1755215526 0.5384038091 4283780440
-0.2851524353 -0.1749689877 0.5385442972 4283846233
-0.2856765091 -0.1746910810 0.5395340323 4283189070
-0.2857505977 -0.1741367728 0.5396739841 4282925898
-0.2858244777 -0.1735820323 0.5398135185 4282465347
-0.2858981788 -0.1730268598 0.5399526954 4282267968
-0.2864220440 -0.1727428734 0.5409420729 4283254863
-0.2864954472 -0.1721859723 0.5410807133 4283715414
-0.2870192528 -0.1718984991 0.5420699716 4284308065
-0.2870923877 -0.1713398695 0.5422080755 4284571237
-0.2871653140 -0.1707808077 0.5423458219 4284768618
-0.2872380316 -0.1702213287 0.5424832106 4284439653
-0.2873105705 -0.1696614176 0.5426201820 4283847775
-0.2869317532 -0.1688356251 0.5419046879 4283979361
-0.2870037556 -0.1682757437 0.5420407057 4284505705
-0.2870755494 -0.1677154452 0.5421763062 4284374119
-0.2866956592 -0.1668919176 0.5414588451 4284242787
-0.2867669463 -0.1663316637 0.5415934920 4283716443
-0.2863863111 -0.1655099243 0.5408746004 4284243044
-0.2860052586 -0.1646895558 0.5401549339 4284506216
-0.2860757113 -0.1641298234 0.5402879715 4285295732
-0.2861459553 -0.1635696739 0.5404206514 4285822076
-0.2866681218 -0.1632666290 0.5414068699 4286020225
-0.2867380679 -0.1627047807 0.5415389538 4286283397
-0.2868078053 -0.1621425152 0.5416706204 4286875534
-0.2873298228 -0.1618347019 0.5426565409 4287072913
-0.2873992324 -0.1612707227 0.5427876711 4287533977
-0.2874684632 -0.1607063413 0.5429183841 4288191907
-0.2875374556 -0.1601415575 0.5430486798 4289112755
-0.2876062691 -0.1595763564 0.5431786180 4290033857
-0.2876748443 -0.1590107530 0.5433081388 4291086545
-0.2877432406 -0.1584447473 0.5434373021 4291941854
-0.2873581350 -0.1576297134 0.5427100062 4291612891
-0.2874259949 -0.1570638120 0.5428381562 4291810270
-0.2874936163 -0.1564974934 0.5429658890 4291810270
-0.2875610292 -0.1559307724 0.5430932045 4291547098
-0.2871745825 -0.1551185995 0.5423633456 4291152338
-0.2876952291 -0.1547961533 0.5433466434 4290757580
-0.2877620161 -0.1542282403 0.5434727669 4290033857
-0.2878285944 -0.1536599398 0.5435984731 4289244341
-0.2878949344 -0.1530912519 0.5437238216 4288322982
-0.2884152532 -0.1527627259 0.5447065234 4287270294
-0.2884812951 -0.1521923542 0.5448312163 4286414983
-0.2890014946 -0.1518603563 0.5458136797 4285230709
-0.2886126637 -0.1510504186 0.5450793505 4284374630
-0.2886780500 -0.1504788697 0.5452027917 4283650907
-0.2887431979 -0.1499069333 0.5453258753 4283387735
-0.2888081372 -0.1493346244 0.5454484820 4283124563
-0.2893277407 -0.1489961743 0.5464298725 4283059540
-0.2898473740 -0.1486555487 0.5474112034 4283125333
-0.2899118364 -0.1480802745 0.5475329757 4283651677
-0.2899760902 -0.1475046128 0.5476543307 4284243814
-0.2900401354 -0.1469285637 0.5477752686 4284835951
-0.2901039422 -0.1463521421 0.5478957891 4285362295
-0.2901675105 -0.1457753330 0.5480158329 4285888639
-0.2897752523 -0.1449701935 0.5472750068 4286414983
-0.2893825769 -0.1441665143 0.5465334058 4287665050
-0.2899011075 -0.1438165158 0.5475127101 4288257187
-0.2890518606 -0.1427886635 0.5459088087 4288849324
-0.2886580229 -0.1419883966 0.5451650023 4289244082
-0.2891759574 -0.1416363716 0.5461431742 4289573047
-0.2892376781 -0.1410596669 0.5462597609 4289902012
-0.2892991900 -0.1404825896 0.5463759303 4290362563
-0.2893604636 -0.1399051547 0.5464916229 4290823114
-0.2894214988 -0.1393273473 0.5466068983 4290428615
-0.2894822955 -0.1387491673 0.5467217565 4290625994
-0.2895428836 -0.1381706297 0.5468361378 4291086545
-0.2900600433 -0.1378087550 0.5478128791 4291415510
-0.2901202440 -0.1372285932 0.5479266047 4291546839
-0.2901802361 -0.1366480589 0.5480399132 4291481046
-0.2902400196 -0.1360671669 0.5481527448 4291612632
-0.2902995348 -0.1354859024 0.5482652187 4291810011
-0.2903588414 -0.1349042952 0.5483772159 4291020495
-0.2904179096 -0.1343223304 0.5484887958 4290757323
-0.2900193334 -0.1335293949 0.5477359891 4291019725
-0.2905353606 -0.1331573427 0.5487105846 4291085518
-0.2905937433 -0.1325743198 0.5488208532 4291348690
-0.2901941836 -0.1317830831 0.5480661988 4291809241
-0.2907097936 -0.1314072162 0.5490400195 4291546069
-0.2907674909 -0.1308231503 0.5491489768 4290953932
-0.2908249199 -0.1302387267 0.5492574573 4291678423
-0.2908821404 -0.1296539605 0.5493654609 4291415251
-0.2909390926 -0.1290688515 0.5494731069 4291086286
-0.2909958363 -0.1284833997 0.5495802164 4291086286
-0.2905939817 -0.1276961863 0.5488212705 4290757321
-0.2906501591 -0.1271109730 0.5489273667 4291020493
-0.2907060981 -0.1265254319 0.5490330458 4290954702
-0.2907617986 -0.1259395331 0.5491382480 4290559944
-0.2908172607 -0.1253533065 0.5492429733 4291744218
-0.2904137075 -0.1245699599 0.5484808087 4291810011
-0.2904686034 -0.1239839941 0.5485845208 4291086288
-0.2905232608 -0.1233976930 0.5486877561 4289967807
-0.2905777097 -0.1228110641 0.5487905145 4288323239
-0.2910910249 -0.1224171966 0.5497599840 4286086277
-0.2911450565 -0.1218289807 0.5498620272 4284112489
-0.2911988497 -0.1212404445 0.5499636531 4283059801
-0.2912523746 -0.1206515729 0.5500647426 4282335566
-0.2913056910 -0.1200623885 0.5501654148 4281809222
-0.2913587689 -0.1194728762 0.5502656698 4282006601
-0.2918712199 -0.1190705523 0.5512335300 4282006601
-0.2923836112 -0.1186660454 0.5522012115 4281940807
-0.2919763029 -0.1178880632 0.5514320135 4282138186
-0.2920284867 -0.1172963381 0.5515305400 4282269256
-0.2920804322 -0.1167043000 0.5516285896 4282598221
-0.2921321094 -0.1161119491 0.5517262220 4282795598
-0.2921835780 -0.1155192778 0.5518233776 4282071875
-0.2922347486 -0.1149263009 0.5519201159 4281677371
-0.2918254137 -0.1141529530 0.5511469841 4283453782
-0.2923364341 -0.1137394086 0.5521121025 4286348674
-0.2928473353 -0.1133236811 0.5530769825 4289177773
-0.2924371064 -0.1125512794 0.5523022413 4290164667
-0.2924870551 -0.1119567603 0.5523965955 4290296253
-0.2925367951 -0.1113619357 0.5524904728 4290689719
-0.2925862670 -0.1107668057 0.5525839329 4290558133
-0.2926354706 -0.1101713777 0.5526769161 4290360754
-0.2926844358 -0.1095756516 0.5527693629 4288584343
-0.2927331626 -0.1089796200 0.5528613925 4285688940
-0.2927816510 -0.1083832979 0.5529529452 4283254599
-0.2923687100 -0.1076169312 0.5521730781 4282991427
-0.2928778529 -0.1071897671 0.5531346202 4284570459
-0.2929255664 -0.1065925583 0.5532247424 4287925386
-0.2934344113 -0.1061619818 0.5541858077 4289636004
-0.2939431667 -0.1057292297 0.5551465750 4289964969
-0.2939902842 -0.1051292717 0.5552355647 4289043867
-0.2940371335 -0.1045290232 0.5553240776 4288977561
-0.2945454121 -0.1040916443 0.5562840104 4289174940
-0.2945918441 -0.1034898832 0.5563717484 4289174942
-0.2946380079 -0.1028878391 0.5564589500 4289240735
-0.2946839333 -0.1022855118 0.5565456152 4289372067
-0.2947295904 -0.1016829014 0.5566318631 4289043102
-0.2952370346 -0.1012384519 0.5575902462 4289174942
-0.2952822447 -0.1006343365 0.5576756597 4289240735
-0.2953272164 -0.1000299528 0.5577605367 4288714391
-0.2958341539 -0.0995808840 0.5587179661 4288319633
-0.2958786786 -0.0989749953 0.5588020682 4288319633
-0.2959229350 -0.0983688384 0.5588856339 4288319633
-0.2959669530 -0.0977624133 0.5589687824 4288451219
-0.2960106730 -0.0971557200 0.5590513945 4288780184
-0.2960541844 -0.0965487510 0.5591334701 4288911770
-0.2960973978 -0.0959415212 0.5592151284 4288977563
-0.2961403430 -0.0953340232 0.5592962503 4288648598
-0.2957202792 -0.0945782512 0.5585029125 4288517012
-0.2957626581 -0.0939711779 0.5585829020 4288911768
-0.2953418493 -0.0932177305 0.5577881932 4289503905
-0.2953836322 -0.0926110893 0.5578671098 4289175971
-0.2949621081 -0.0918599889 0.5570710301 4288123283
-0.2950032949 -0.0912537873 0.5571488142 4286084213
-0.2955074310 -0.0907896385 0.5581008792 4283320907
-0.2955481708 -0.0901819766 0.5581778288 4282991942
-0.2951253355 -0.0894336700 0.5573793054 4282597184
-0.2956288457 -0.0889659077 0.5583302379 4282466112
-0.2952053845 -0.0882190093 0.5575304627 4283124042
-0.2952449918 -0.0876113102 0.5576052666 4283519826
-0.2952843606 -0.0870033726 0.5576795936 4283585619
-0.2953234613 -0.0863951892 0.5577534437 4283060302
-0.2953622937 -0.0857867673 0.5578268170 4283257681
-0.2958646119 -0.0853118151 0.5587754846 4284377445
-0.2959029675 -0.0847019628 0.5588479042 4283719515
-0.2964049280 -0.0842236727 0.5597959161 4282733131
-0.2964428067 -0.0836123899 0.5598675013 4282996303
-0.2964804471 -0.0830008686 0.5599385500 4284117091
-0.2974458635 -0.0826469883 0.5617619157 4283919712
-0.2974830866 -0.0820330903 0.5618321896 4282932817
-0.2979841828 -0.0815459788 0.5627785325 4283590747
-0.2980208993 -0.0809306651 0.5628479123 4283130707
-0.2980573773 -0.0803151280 0.5629167557 4283657051
-0.2980935574 -0.0796993598 0.5629851222 4285039476
-0.2985938489 -0.0792065561 0.5639299750 4285171062
-0.2986295521 -0.0785893872 0.5639974475 4283197783
-0.2986649871 -0.0779719949 0.5640643239 4281355579
-0.2991647124 -0.0774746910 0.5650081038 4282869332
-0.2991996408 -0.0768559054 0.5650740862 4285172087
-0.2992343307 -0.0762368962 0.5651395917 4286027909
-0.2992687225 -0.0756176785 0.5652045608 4285238393
-0.2997676134 -0.0751147047 0.5661467910 4285765250
-0.2998015285 -0.0744941011 0.5662108064 4285370492
-0.2998351455 -0.0738732889 0.5662743449 4285897855
-0.2998685241 -0.0732522681 0.5663373470 4286226820
-0.3003665507 -0.0727436468 0.5672779679 4285239927
-0.3003994226 -0.0721212476 0.5673400164 4284450411
-0.3004320264 -0.0714986473 0.5674015880 4284713328
-0.3004643321 -0.0708758458 0.5674626231 4284844914
-0.3004963696 -0.0702528432 0.5675231218 4284580974
-0.3005281091 -0.0696296468 0.5675830841 4283988837
-0.3010248542 -0.0691130683 0.5685212612 4283198810
-0.3015214205 -0.0685943663 0.5694590807 4285041014
-0.3020178080 -0.0680735409 0.5703965425 4285172089
-0.3020486236 -0.0674466640 0.5704547167 4283987815
-0.3020791411 -0.0668196008 0.5705123544 4285172090
-0.3021093607 -0.0661923438 0.5705694556 4286224778
-0.3021393120 -0.0655649006 0.5706260204 4286289803
-0.3021689951 -0.0649372712 0.5706821084 4286421389
-0.3021984100 -0.0643094629 0.5707376003 4286092172
-0.3022275269 -0.0636814684 0.5707926154 4286552723
-0.3027220964 -0.0631504431 0.5717266202 4287539105
-0.3027506769 -0.0625211224 0.5717806816 4288065449
-0.3023132086 -0.0617964044 0.5709543824 4288327853
-0.3023411930 -0.0611676984 0.5710073113 4288722611
-0.3023689091 -0.0605388172 0.5710596442 4288721586
-0.3028622866 -0.0600020736 0.5719914436 4287668898
-0.3024234772 -0.0592805408 0.5711627007 4287009943
-0.3019843400 -0.0585607775 0.5703333020 4285957255
-0.3020108938 -0.0579321869 0.5703834295 4284640627
-0.3015710413 -0.0572150014 0.5695527792 4283127388
-0.3011308312 -0.0564995967 0.5687214136 4282271566
-0.3011564612 -0.0558724590 0.5687697530 4282074187
-0.3011817932 -0.0552451648 0.5688176155 4282402641
-0.3012068570 -0.0546177104 0.5688649416 4282665813
-0.3012316227 -0.0539900996 0.5689117312 4282864216
-0.3012561202 -0.0533623360 0.5689579844 4282535251
-0.3012803197 -0.0527344234 0.5690037012 4281812296
-0.3013042510 -0.0521063544 0.5690489411 4282207054
-0.3013279140 -0.0514781401 0.5690935850 4283918950
-0.3013512790 -0.0508497804 0.5691376925 4286419084
-0.3013743460 -0.0502212718 0.5691812634 4287670175
-0.3018637002 -0.0496693924 0.5701054931 4287999140
-0.3018862307 -0.0490396246 0.5701480508 4287013524
-0.3009752333 -0.0482600741 0.5684275627 4284973941
-0.3009971678 -0.0476319790 0.5684689283 4283790694
-0.3010187745 -0.0470037460 0.5685097575 4284317038
-0.3010401130 -0.0463753790 0.5685500503 4283396965
-0.3010611832 -0.0457468778 0.5685898066 4282015312
-0.3015487492 -0.0451881960 0.5695106387 4282212691
-0.3020360768 -0.0446274392 0.5704310536 4282607449
-0.3020563424 -0.0439965986 0.5704693198 4283787362
-0.3016094565 -0.0432986096 0.5696253181 4285103222
-0.3020960391 -0.0427345484 0.5705442429 4286089349
-0.3021154404 -0.0421033353 0.5705808997 4286155142
-0.3021345437 -0.0414720066 0.5706170201 4286614668
-0.3021533787 -0.0408405550 0.5706526041 4286812047
-0.3026389778 -0.0402711332 0.5715696812 4286942354
-0.3026572466 -0.0396384746 0.5716041923 4287008147
-0.3022081554 -0.0389455073 0.5707560778 4286809741
-0.3022258580 -0.0383135974 0.5707894564 4286875534
-0.3022432625 -0.0376815796 0.5708222985 4287006604
-0.3022603691 -0.0370494537 0.5708546042 4286875018
-0.3022771776 -0.0364172198 0.5708864331 4286874247
-0.3022937179 -0.0357848816 0.5709176064 4287071626
-0.3023099601 -0.0351524390 0.5709483027 4287925906
-0.3023259342 -0.0345198959 0.5709784627 4288518043
-0.3018743098 -0.0338348784 0.5701255202 4290028968
-0.3018896580 -0.0332031175 0.5701545477 4290555312
-0.3019047379 -0.0325712636 0.5701829791 4290685871
-0.3019195199 -0.0319393128 0.5702109337 4289633183
-0.3019340038 -0.0313072689 0.5702382922 4288117891
-0.3019482195 -0.0306751393 0.5702651143 4286407273
-0.3024295866 -0.0300894231 0.5711742043 4286142559
-0.3024432361 -0.0294561386 0.5712000132 4286471524
-0.3024565876 -0.0288227666 0.5712252259 4286338140
-0.3029371500 -0.0282328837 0.5721328259 4286074968
-0.3024824560 -0.0275557786 0.5712740421 4286403676
-0.3024949431 -0.0269221645 0.5712976456 4286666848
-0.3015720248 -0.0262072086 0.5695546269 4286732126
-0.3025190532 -0.0256547034 0.5713431835 4286403161
-0.3025306761 -0.0250208620 0.5713651776 4286403161
-0.3016068041 -0.0243115630 0.5696203113 4287061091
-0.3006825745 -0.0236061141 0.5678747892 4287262582
-0.3011609018 -0.0230117142 0.5687781572 4288775821
-0.3011713028 -0.0223805346 0.5687978268 4289633699
-0.3050327599 -0.2523446977 0.5773016214 4287860624
-0.3038257360 -0.2507072985 0.5750172138 4284636767
-0.3030537367 -0.2494329959 0.5735561252 4284963160
-0.3022809923 -0.2481613457 0.5720936656 4285028953
-0.3015075326 -0.2468923479 0.5706297755 4285290332
-0.3011698127 -0.2459825128 0.5699906349 4285421918
-0.3008316755 -0.2450737357 0.5693506598 4285619297
-0.3004930615 -0.2441660166 0.5687098503 4286079848
-0.3001540303 -0.2432593554 0.5680681467 4287527294
-0.2989404500 -0.2416471988 0.5657713413 4286343020
-0.2986002564 -0.2407442927 0.5651274920 4286671985
-0.2982595861 -0.2398424745 0.5644827485 4287198329
-0.2974810302 -0.2385908514 0.5630092621 4287789953
-0.2975769639 -0.2380420566 0.5631908178 4286013542
-0.2967972457 -0.2367942184 0.5617151260 4285684577
-0.2964546680 -0.2358975261 0.5610668063 4285487198
-0.2961116731 -0.2350019366 0.5604176521 4285421405
-0.2957682312 -0.2341074347 0.5597676635 4285355612
-0.2949860394 -0.2328680009 0.5582873225 4285355866
-0.2942031324 -0.2316313088 0.5568055511 4285355866
-0.2934195101 -0.2303973436 0.5553224683 4285618268
-0.2930738926 -0.2295096815 0.5546683669 4285486682
-0.2927278280 -0.2286231220 0.5540134311 4285684061
-0.2915033102 -0.2270537913 0.5516959429 4285749854
-0.2911561131 -0.2261711061 0.5510388017 4285486682
-0.2908084691 -0.2252895385 0.5503808260 4284894545
-0.2904603779 -0.2244090885 0.5497220755 4284499274
-0.2901118398 -0.2235297710 0.5490624309 4284762446
-0.2897628844 -0.2226515859 0.5484020114 4285749341
-0.2894134820 -0.2217745334 0.5477406979 4284959825
-0.2890636325 -0.2208986133 0.5470786095 4285157204
-0.2882732451 -0.2196884304 0.5455827117 4286144099
-0.2883626521 -0.2191501856 0.5457519293 4285025618
-0.2875711322 -0.2179439366 0.5442538857 4284959825
-0.2876599133 -0.2174063325 0.5444219708 4284893517
-0.2873078883 -0.2165361345 0.5437557101 4284959310
-0.2873962224 -0.2159983665 0.5439229012 4284565067
-0.2870434523 -0.2151296586 0.5432552695 4284236102
-0.2866902649 -0.2142620981 0.5425868034 4283907137
-0.2863366306 -0.2133956999 0.5419175029 4283841344
-0.2859825790 -0.2125304490 0.5412474275 4284367174
-0.2851866186 -0.2113392353 0.5397409797 4284827725
-0.2848315239 -0.2104771584 0.5390689969 4285287762
-0.2844760120 -0.2096162587 0.5383961201 4285616727
-0.2841200829 -0.2087565362 0.5377225280 4285616468
-0.2842057049 -0.2082218230 0.5378845334 4285748054
-0.2838490307 -0.2073636204 0.5372095108 4285813847
-0.2834919095 -0.2065066099 0.5365336537 4285748054
-0.2831343710 -0.2056507915 0.5358569622 4285944663
-0.2832189202 -0.2051166445 0.5360170007 4286142042
-0.2833033204 -0.2045820355 0.5361766815 4286339162
-0.2829447389 -0.2037281096 0.5354980230 4286404955
-0.2825857103 -0.2028753906 0.5348185897 4287126368
-0.2817831933 -0.2017067224 0.5332997441 4287192161
-0.2814231813 -0.2008572370 0.5326184034 4287257441
-0.2810627520 -0.2000089586 0.5319362283 4287191648
-0.2811453342 -0.1994765252 0.5320925117 4287257441
-0.2807841301 -0.1986298263 0.5314089060 4287257441
-0.2804225385 -0.1977843493 0.5307245851 4287191648
-0.2805043161 -0.1972521991 0.5308793783 4287191648
-0.2801419795 -0.1964083165 0.5301935673 4287256414
-0.2797791958 -0.1955656409 0.5295069814 4287190621
-0.2798602283 -0.1950337887 0.5296603441 4287190108
-0.2794967294 -0.1941927373 0.5289723873 4287321694
-0.2795772552 -0.1936607957 0.5291247964 4287321694
-0.2801022232 -0.1934354454 0.5301183462 4287321694
-0.2801825404 -0.1929017454 0.5302703381 4287321694
-0.2802626789 -0.1923675835 0.5304220319 4287124315
-0.2803426683 -0.1918329597 0.5305733681 4286862683
-0.2804224491 -0.1912978888 0.5307244062 4286599511
-0.2805020511 -0.1907623559 0.5308750272 4286994269
-0.2805814743 -0.1902263612 0.5310254097 4286994269
-0.2806607485 -0.1896899194 0.5311753750 4286402647
-0.2807398140 -0.1891530305 0.5313250422 4286271061
-0.2808187008 -0.1886156797 0.5314743519 4286931560
-0.2808974087 -0.1880778670 0.5316233039 4290747554
-0.2805299461 -0.1872419417 0.5309278369 4292066500
-0.2801620662 -0.1864072680 0.5302315950 4290619054
-0.2797937393 -0.1855738461 0.5295345187 4286672763
-0.2798713744 -0.1850368083 0.5296813846 4283448906
-0.2803952694 -0.1847935915 0.5306729674 4283646546
-0.2800260484 -0.1839614064 0.5299741626 4284962406
-0.2814433277 -0.1843006462 0.5326564908 4285686132
-0.2801800072 -0.1828842163 0.5302655101 4284633444
-0.2802566886 -0.1823449582 0.5304107070 4283122510
-0.2803332210 -0.1818052530 0.5305554867 4282596166
-0.2804095447 -0.1812651008 0.5306999683 4282793545
-0.2809330225 -0.1810127646 0.5316907167 4283122510
-0.2810091078 -0.1804708689 0.5318347216 4283254096
-0.2815325856 -0.1802150607 0.5328254104 4283254096
-0.2820561230 -0.1799570769 0.5338162780 4282464834
-0.2825796902 -0.1796969175 0.5348072052 4281872697
-0.2826553881 -0.1791506857 0.5349504352 4282267455
-0.2831789553 -0.1788870543 0.5359413028 4282991178
-0.2828061879 -0.1780568957 0.5352358222 4283780694
-0.2833296061 -0.1777906567 0.5362264514 4284043866
-0.2834046483 -0.1772418022 0.5363684893 4283649108
-0.2834795117 -0.1766925156 0.5365101099 4282859592
-0.2835541666 -0.1761427820 0.5366514325 4282662213
-0.2836286128 -0.1755926311 0.5367923379 4283254350
-0.2837028801 -0.1750420332 0.5369329453 4283648854
-0.2837769687 -0.1744910032 0.5370731354 4283648854
-0.2838508487 -0.1739395559 0.5372129083 4283912280
-0.2839245200 -0.1733876765 0.5373523831 4283714901
-0.2844473720 -0.1731088310 0.5383419394 4282531139
-0.2845207751 -0.1725552082 0.5384808779 4281873209
-0.2845939994 -0.1720011681 0.5386193991 4282267965
-0.2846669853 -0.1714466959 0.5387575626 4282399551
-0.2851896286 -0.1711617708 0.5397467017 4283057483
-0.2852623761 -0.1706055701 0.5398843884 4284044378
-0.2853348851 -0.1700489372 0.5400216579 4285032043
-0.2854072154 -0.1694918871 0.5401585102 4284834664
-0.2850290537 -0.1686679572 0.5394428372 4284373860
-0.2851008773 -0.1681109369 0.5395787358 4284176481
-0.2851724923 -0.1675534993 0.5397142768 4284110690
-0.2847932577 -0.1667318344 0.5389965773 4284571241
-0.2848643661 -0.1661744416 0.5391311049 4285032814
-0.2849352360 -0.1656166315 0.5392652750 4285822330
-0.2845549881 -0.1647972316 0.5385455489 4287467155
-0.2846253514 -0.1642394811 0.5386787653 4288519843
-0.2846955061 -0.1636813134 0.5388115644 4289638324
-0.2847654819 -0.1631227285 0.5389439464 4290493633
-0.2848352492 -0.1625637412 0.5390759706 4290823114
-0.2849047780 -0.1620043367 0.5392076373 4291744216
-0.2854257524 -0.1617003828 0.5401936173 4291875802
-0.2854950130 -0.1611392647 0.5403246880 4291875802
-0.2860158980 -0.1608318388 0.5413104892 4291876315
-0.2856328785 -0.1600158364 0.5405855775 4291547350
-0.2861535549 -0.1597058028 0.5415710211 4291547350
-0.2862221003 -0.1591421813 0.5417007208 4291547350
-0.2862904072 -0.1585781425 0.5418300033 4291415764
-0.2859061360 -0.1577640921 0.5411027670 4290889420
-0.2859739065 -0.1572001576 0.5412310362 4289770687
-0.2855888903 -0.1563879699 0.5405023694 4288717999
-0.2856561542 -0.1558241248 0.5406296253 4287665309
-0.2861759961 -0.1555059254 0.5416135192 4286941586
-0.2862429321 -0.1549403965 0.5417401791 4285888898
-0.2863096595 -0.1543744504 0.5418664813 4284375659
-0.2863761783 -0.1538081318 0.5419923663 4283125592
-0.2864424884 -0.1532414109 0.5421178341 4282401869
