VERSION 0.7
FIELDS x y z rgba
SIZE 4 4 4 4
TYPE F F F U
COUNT 1 1 1 1
WIDTH 920
HEIGHT 1
VIEWPOINT 0.0 0.0 0.0 1.0 0.0 0.0 0.0
POINTS 920
DATA ascii
-0.2527440190 -0.0420135148 0.5447562337 4290691253
-0.2536013722 -0.0415487140 0.5466040969 4290757046
-0.2536187768 -0.0409442112 0.5466416478 4290757046
-0.2540558577 -0.0404063687 0.5475837588 4290757046
-0.2540728152 -0.0398006178 0.5476202369 4290888119
-0.2540894747 -0.0391947441 0.5476561785 4290888119
-0.2545259297 -0.0386525393 0.5485968590 4290822326
-0.2545421124 -0.0380454287 0.5486317873 4290888119
-0.2545580864 -0.0374382064 0.5486661792 4291019703
-0.2549938560 -0.0368916467 0.5496054292 4290888117
-0.2550093234 -0.0362831950 0.5496387482 4290953396
-0.2550245225 -0.0356746353 0.5496715307 4290953396
-0.2554596364 -0.0351237357 0.5506094098 4290953396
-0.2554743588 -0.0345139578 0.5506411195 4290953396
-0.2554888129 -0.0339040756 0.5506722927 4290953396
-0.2555030286 -0.0332940891 0.5507029295 4290953396
-0.2559372485 -0.0327377617 0.5516387820 4291019188
-0.2555306852 -0.0320738181 0.5507625341 4290953395
-0.2559644282 -0.0315152854 0.5516973734 4290953395
-0.2563979626 -0.0309546515 0.5526317954 4290953395
-0.2564109266 -0.0303421728 0.5526597500 4290953395
-0.2564236224 -0.0297296010 0.5526871085 4290953395
-0.2568564713 -0.0291646719 0.5536200404 4291019188
-0.2568686903 -0.0285509191 0.5536463857 4290953395
-0.2568806410 -0.0279370788 0.5536721349 4291019188
-0.2573127747 -0.0273678713 0.5546035767 4291019188
-0.2573242486 -0.0267528575 0.5546282530 4291019188
-0.2577559054 -0.0261804722 0.5555586815 4291084981
-0.2577668726 -0.0255642943 0.5555822849 4291019188
-0.2577775717 -0.0249480363 0.5556053519 4291084981
-0.2577880025 -0.0243317038 0.5556278825 4291084981
-0.2582187355 -0.0237539858 0.5565562248 4291084981
-0.2582286596 -0.0231365021 0.5565776229 4290888629
-0.2586589158 -0.0225556232 0.5575050116 4290888629
-0.2582477331 -0.0219013244 0.5566187501 4290888629
-0.2586775124 -0.0213182978 0.5575450659 4290888629
-0.2586863935 -0.0206995383 0.5575642586 4290954165
-0.2586950362 -0.0200807154 0.5575828552 4290954165
-0.2595447302 -0.0195251219 0.5594142675 4290954165
-0.2595528662 -0.0189041663 0.5594317913 4290954165
-0.2595607638 -0.0182831511 0.5594487786 4291019958
-0.2595683634 -0.0176620819 0.5594652295 4291085751
-0.2599964142 -0.0170685779 0.5603878498 4291150774
-0.2600035369 -0.0164463967 0.5604031682 4291150774
-0.2604311109 -0.0158497710 0.5613247156 4291150774
-0.2604376972 -0.0152264833 0.5613389015 4291150774
-0.2608647645 -0.0146267423 0.5622593760 4291084981
-0.2608708143 -0.0140023576 0.5622724891 4291150774
-0.2604558766 -0.0133563532 0.5613780618 4291150772
-0.2608821690 -0.0127534624 0.5622969270 4291084979
-0.2608874440 -0.0121289548 0.5623083115 4291019958
-0.2608924508 -0.0115044117 0.5623190999 4291019958
-0.2608971894 -0.0108798323 0.5623293519 4291019958
-0.2613224983 -0.0102717616 0.5632460117 4290954165
-0.2613267303 -0.0096461102 0.5632550716 4291084981
-0.2613306642 -0.0090204300 0.5632635951 4291084981
-0.2613343596 -0.0083947228 0.5632715821 4290822579
-0.2621794641 -0.0077940105 0.5650931001 4290954165
-0.2621826231 -0.0071662385 0.5650998950 4290888372
-0.2621855438 -0.0065384447 0.5651061535 4290822579
-0.2621881962 -0.0059106308 0.5651118755 4290822579
-0.2626114190 -0.0052912785 0.5660240650 4290756786
-0.2630343735 -0.0046698945 0.5669357181 4290954165
-0.2634570897 -0.0040464806 0.5678467751 4291348923
-0.2634586692 -0.0034155827 0.5678502321 4294177777
-0.2595203221 -0.2432207316 0.5607039332 4285953395
-0.2600004077 -0.2430465370 0.5617411733 4285688942
-0.2596984208 -0.2421408296 0.5610887408 4284636254
-0.2590047717 -0.2408723384 0.5595900416 4283253831
-0.2590932250 -0.2403326333 0.5597811341 4282135350
-0.2576154768 -0.2383434772 0.5565884113 4282201141
-0.2573114634 -0.2374445200 0.5559315681 4282135348
-0.2581823766 -0.2376284301 0.5578132272 4281016867
-0.2559183836 -0.2349303365 0.5529217720 4283977552
-0.2560049295 -0.2343952507 0.5531088114 4288451217
-0.2549148202 -0.2327852249 0.5507535338 4289109147
-0.2542160749 -0.2315368950 0.5492438674 4289503392
-0.2531242371 -0.2299348265 0.5468848944 4289108634
-0.2539943159 -0.2301154733 0.5487647653 4289502877
-0.2521158457 -0.2278084159 0.5447062850 4289437084
-0.2498431057 -0.2251550406 0.5397959352 4289502877
-0.2511053383 -0.2256897688 0.5425230265 4289568670
-0.2476510704 -0.2219906151 0.5350599289 4289109146
-0.2461604327 -0.2200635225 0.5318393707 4289174939
-0.2442752570 -0.2177918255 0.5277663469 4289174427
-0.2463235259 -0.2190267146 0.5321916938 4289042841
-0.2405005991 -0.2132717371 0.5196110606 4289371292
-0.2390048504 -0.2113716155 0.5163794160 4289371292
-0.2375079393 -0.2094776332 0.5131453276 4287068023
-0.2375858873 -0.2089760453 0.5133137107 4284238924
-0.2325399369 -0.2039795071 0.5024117231 4282922550
-0.2310388833 -0.2021081895 0.4991686344 4286212200
-0.2342693657 -0.2043717951 0.5061482191 4288711822
-0.2292168289 -0.1994138360 0.4952320457 4288382857
-0.2273180336 -0.1972162277 0.4911295772 4289237653
-0.2262073606 -0.1957096308 0.4887299538 4289566618
-0.2243059874 -0.1935261637 0.4846219718 4291014063
-0.2235883176 -0.1923702359 0.4830713868 4292198337
-0.2224748284 -0.1908781677 0.4806656539 4290884017
-0.2213604599 -0.1893906742 0.4782580137 4288581262
-0.2214314193 -0.1889198422 0.4784113467 4287331195
-0.2207111865 -0.1877755374 0.4768552482 4287528574
-0.2180119753 -0.1849557757 0.4710235000 4287792259
-0.2180814147 -0.1844911873 0.4711735249 4288318603
-0.2161711454 -0.1823562235 0.4670462906 4289239705
-0.2138634324 -0.1798961163 0.4620603919 4289831842
-0.2115540951 -0.1774457246 0.4570709765 4290293163
-0.2112245858 -0.1766622961 0.4563590884 4290556335
-0.2124803811 -0.1772025377 0.4590722620 4290885300
-0.2117540836 -0.1760885119 0.4575030506 4291148472
-0.2114238143 -0.1753063351 0.4567895234 4291346108
-0.2118867636 -0.1751815677 0.4577897191 4291543487
-0.2115559876 -0.1744002402 0.4570750594 4291609280
-0.2120189071 -0.1742729247 0.4580752552 4291543487
-0.2124819607 -0.1741434634 0.4590756595 4291609029
-0.2125478387 -0.1736872196 0.4592179954 4291543236
-0.2126135677 -0.1732305586 0.4593600333 4291412163
-0.2122816592 -0.1724505424 0.4586429000 4291280577
-0.2123470008 -0.1719938815 0.4587841034 4291148991
-0.2124122232 -0.1715368181 0.4589250088 4291083198
-0.2124773115 -0.1710793227 0.4590656459 4291082685
-0.2129402906 -0.1709409207 0.4600659013 4291016892
-0.2130052298 -0.1704817414 0.4602062106 4291017146
-0.2134682834 -0.1703399271 0.4612066746 4291082939
-0.2135330737 -0.1698790342 0.4613466561 4290951610
-0.2139962316 -0.1697338074 0.4623473287 4290885817
-0.2140608728 -0.1692712158 0.4624869823 4290885817
-0.2145241201 -0.1691225618 0.4634878337 4290820024
-0.2145885974 -0.1686582714 0.4636271298 4290885817
-0.2150519192 -0.1685061902 0.4646281600 4291017403
-0.2151162475 -0.1680402011 0.4647671282 4291149242
-0.2151804268 -0.1675737947 0.4649057984 4291083449
-0.2152444571 -0.1671069711 0.4650441706 4290952633
-0.2149089128 -0.1663305610 0.4643191993 4290952633
-0.2153721303 -0.1661720723 0.4653199911 4290821047
-0.2154357433 -0.1657039970 0.4654574394 4290755254
-0.2158990353 -0.1655420661 0.4664583802 4290557875
-0.2159624845 -0.1650723070 0.4665954709 4290228910
-0.2160257846 -0.1646021158 0.4667322636 4289965736
-0.2160889506 -0.1641315222 0.4668687284 4289768357
-0.2165522575 -0.1639635861 0.4678696990 4289571491
-0.2166152447 -0.1634912938 0.4680058062 4289308319
-0.2166780978 -0.1630185843 0.4681415856 4288847768
-0.2171414196 -0.1628459245 0.4691426158 4288321424
-0.2172040939 -0.1623715311 0.4692780375 4287926666
-0.2172666192 -0.1618967205 0.4694131017 4287597701
-0.2173289955 -0.1614214927 0.4695478678 4287203460
-0.2177923173 -0.1612428129 0.4705488980 4287137667
-0.2178544998 -0.1607658863 0.4706832767 4287137666
-0.2179165483 -0.1602885723 0.4708173275 4287203459
-0.2183798850 -0.1601051390 0.4718183577 4287335045
-0.2184417397 -0.1596261263 0.4719520211 4287400838
-0.2181017846 -0.1588541567 0.4712175429 4287466631
-0.2181632370 -0.1583752036 0.4713502824 4287466631
-0.2186264098 -0.1581866294 0.4723510146 4287860875
-0.2186876684 -0.1577059925 0.4724833667 4288124047
-0.2187487781 -0.1572249383 0.4726153612 4288255631
-0.2192119509 -0.1570316255 0.4736160934 4288387217
-0.2188705206 -0.1562616378 0.4728784263 4288716182
-0.2193336189 -0.1560657471 0.4738789499 4288847768
-0.2193942070 -0.1555822194 0.4740098715 4289045147
-0.2194546610 -0.1550982744 0.4741404653 4289308319
-0.2203205079 -0.1551813334 0.4760111570 4289572007
-0.2199779749 -0.1544120014 0.4752711058 4289769386
-0.2204410583 -0.1542079002 0.4762716293 4289835433
-0.2205011100 -0.1537205875 0.4764013588 4289835433
-0.2205609828 -0.1532328725 0.4765307307 4289901226
-0.2210240364 -0.1530240029 0.4775311947 4289835433
-0.2210837156 -0.1525346041 0.4776601195 4289769386
-0.2215467840 -0.1523222625 0.4786605835 4289769386
-0.2216062546 -0.1518311799 0.4787890613 4289901226
-0.2220693231 -0.1516153663 0.4797895253 4289703847
-0.2221285701 -0.1511225998 0.4799175560 4289638054
-0.2221876681 -0.1506294310 0.4800452292 4289638054
-0.2226506770 -0.1504088491 0.4810455739 4289572259
-0.2227095515 -0.1499140114 0.4811727703 4289572259
-0.2227682620 -0.1494187713 0.4812996387 4289638054
-0.2228268087 -0.1489231437 0.4814261198 4289638054
-0.2228851914 -0.1484271139 0.4815522730 4289638052
-0.2229434103 -0.1479307115 0.4816780388 4289638052
-0.2230014652 -0.1474339068 0.4818034768 4289703845
-0.2230593562 -0.1469367296 0.4819285572 4289769638
-0.2235220075 -0.1467049271 0.4829281271 4289769638
-0.2235796601 -0.1462060660 0.4830527008 4289835431
-0.2236371636 -0.1457068175 0.4831769168 4289966247
-0.2236944884 -0.1452071816 0.4833007753 4290032040
-0.2241569906 -0.1449693292 0.4843000472 4290097833
-0.2242140919 -0.1444680244 0.4844233990 4290097833
-0.2242710143 -0.1439663321 0.4845463932 4290163626
-0.2243277729 -0.1434642673 0.4846690297 4290097833
-0.2247901112 -0.1432203352 0.4856679440 4290097833
-0.2248466313 -0.1427166015 0.4857900441 4290097833
-0.2249029875 -0.1422124803 0.4859117866 4290097833
-0.2249591649 -0.1417079866 0.4860331416 4290163626
-0.2250151634 -0.1412031054 0.4861541390 4290163369
-0.2254772633 -0.1409518272 0.4871525168 4290097576
-0.2255330235 -0.1404452920 0.4872730076 4290032040
-0.2255886048 -0.1399383694 0.4873931110 4290032040
-0.2256440222 -0.1394310892 0.4875128269 4289966247
-0.2261059284 -0.1391737461 0.4885107875 4290032040
-0.2261610776 -0.1386647969 0.4886299670 4290097833
-0.2262160778 -0.1381554753 0.4887487590 4290032040
-0.2262708843 -0.1376457810 0.4888671935 4290097833
-0.2263255119 -0.1371357143 0.4889852405 4290097833
-0.2263799757 -0.1366252899 0.4891029000 4289901224
-0.2264342606 -0.1361144930 0.4892201722 4289901224
-0.2268957198 -0.1358472109 0.4902171791 4289835431
-0.2269497365 -0.1353347600 0.4903338850 4289769638
-0.2270035893 -0.1348219514 0.4904502034 4289966247
-0.2270572484 -0.1343087703 0.4905661643 4290032040
-0.2271107435 -0.1337952167 0.4906817079 4289901222
-0.2271640450 -0.1332813203 0.4907968938 4289901222
-0.2272171676 -0.1327670515 0.4909116626 4289835429
-0.2272701114 -0.1322524101 0.4910260737 4289835429
-0.2277310044 -0.1319739372 0.4920218289 4289901222
-0.2277836800 -0.1314576715 0.4921356440 4289769636
-0.2278361619 -0.1309410483 0.4922490418 4289834915
-0.2282968760 -0.1306577921 0.4932444394 4289900708
-0.2279406041 -0.1299067140 0.4924747050 4289900707
-0.2279925495 -0.1293890178 0.4925869107 4289834914
-0.2280443162 -0.1288709790 0.4926987588 4289900707
-0.2285046577 -0.1285825968 0.4936933517 4289900707
-0.2285561562 -0.1280629188 0.4938046038 4289900707
-0.2290164083 -0.1277710497 0.4947989881 4289900707
-0.2290676087 -0.1272497326 0.4949096143 4289900707
-0.2291186303 -0.1267280728 0.4950198531 4289834914
-0.2291694582 -0.1262060553 0.4951296747 4290032034
-0.2292201072 -0.1256837100 0.4952390790 4289966241
-0.2296799719 -0.1253845096 0.4962326586 4289966241
-0.2297303230 -0.1248605251 0.4963414371 4289900448
-0.2297804952 -0.1243361980 0.4964498281 4289900448
-0.2298304737 -0.1238115281 0.4965578020 4289834655
-0.2298802584 -0.1232865229 0.4966653883 4289834655
-0.2299298495 -0.1227611676 0.4967725277 4289900448
-0.2303892076 -0.1224533692 0.4977650046 4289966241
-0.2304385155 -0.1219264045 0.4978715181 4289834655
-0.2304876298 -0.1213990971 0.4979776144 4289900448
-0.2309467494 -0.1210865378 0.4989695847 4289900448
-0.2309955657 -0.1205576211 0.4990750551 4289834655
-0.2310441881 -0.1200283691 0.4991801083 4289900448
-0.2310926169 -0.1194987893 0.4992847443 4289966241
-0.2311408520 -0.1189688742 0.4993889332 4289834655
-0.2311888933 -0.1184386238 0.4994927347 4289900446
-0.2312367260 -0.1179080531 0.4995960891 4289966239
-0.2312843800 -0.1173771471 0.4996990561 4289966239
-0.2317427248 -0.1170534566 0.5006893277 4289966239
-0.2317900658 -0.1165209487 0.5007916093 4289966239
-0.2318372130 -0.1159881204 0.5008934736 4289900446
-0.2318841666 -0.1154549718 0.5009949207 4289834655
-0.2319309115 -0.1149214953 0.5010958910 4289966241
-0.2323887646 -0.1145905107 0.5020851493 4289900448
-0.2324352115 -0.1140554473 0.5021854639 4289966241
-0.2324814498 -0.1135200560 0.5022853613 4289900448
-0.2325274795 -0.1129843518 0.5023848414 4289900448
-0.2325733155 -0.1124483272 0.5024838448 4290032034
-0.2330306768 -0.1121100634 0.5034719706 4289966241
-0.2330761999 -0.1115724593 0.5035703182 4289965987
-0.2331215143 -0.1110345423 0.5036682487 4290097573
-0.2331666201 -0.1104963124 0.5037657022 4289834653
-0.2336235791 -0.1101520360 0.5047529936 4289834653
-0.2336683571 -0.1096122339 0.5048497319 4289900446
-0.2337129563 -0.1090721190 0.5049460530 4289900446
-0.2337573320 -0.1085316911 0.5050419569 4289966239
-0.2342138588 -0.1081814244 0.5060282946 4289966239
-0.2342579216 -0.1076394320 0.5061234832 4289900446
-0.2343017608 -0.1070971340 0.5062181950 4289834653
-0.2343454063 -0.1065545306 0.5063124895 4289834655
-0.2352141589 -0.1063849106 0.5081894994 4289900448
-0.2352575362 -0.1058397964 0.5082831979 4290032034
-0.2353007197 -0.1052943766 0.5083764791 4289966241
-0.2357565761 -0.1049324274 0.5093613863 4289966241
-0.2357994020 -0.1043854505 0.5094539523 4290032034
-0.2358420342 -0.1038381830 0.5095460415 4289966241
-0.2358844578 -0.1032906175 0.5096377134 4289834655
-0.2359266579 -0.1027427539 0.5097289085 4289900448
-0.2359686643 -0.1021945998 0.5098196268 4289900448
-0.2364237905 -0.1018241644 0.5108029246 4289834912
-0.2364654392 -0.1012744680 0.5108929276 4289834912
-0.2365068793 -0.1007244736 0.5109824538 4289834912
-0.2365481108 -0.1001741961 0.5110715628 4289834912
-0.2365891337 -0.0996236354 0.5111601949 4289900448
-0.2370436192 -0.0992459878 0.5121421218 4289900448
-0.2370842844 -0.0986938924 0.5122299790 4289966241
-0.2371247411 -0.0981415063 0.5123173594 4289966241
-0.2371649891 -0.0975888446 0.5124043226 4289834912
-0.2376189828 -0.0972052440 0.5133851767 4289769119
-0.2376588583 -0.0966510624 0.5134713650 4289900705
-0.2376985252 -0.0960965902 0.5135570765 4289900705
-0.2377379835 -0.0955418497 0.5136423111 4289900448
-0.2381914556 -0.0951523110 0.5146220326 4289966241
-0.2382305413 -0.0945960507 0.5147064924 4289966241
-0.2382694185 -0.0940395147 0.5147904754 4289900448
-0.2383080721 -0.0934827104 0.5148739815 4289900448
-0.2383465022 -0.0929256305 0.5149570704 4289900448
-0.2392138988 -0.0926895663 0.5168311000 4289834655
-0.2392520308 -0.0921300203 0.5169134736 4289768862
-0.2392899394 -0.0915701985 0.5169953704 4289768862
-0.2393276393 -0.0910101160 0.5170768499 4289834655
-0.2393651158 -0.0904497653 0.5171577930 4289966241
-0.2394023687 -0.0898891538 0.5172382593 4289900448
-0.2398543805 -0.0894830972 0.5182148814 4290032034
-0.2398912609 -0.0889209956 0.5182945728 4290097827
-0.2399279177 -0.0883586332 0.5183737278 4290032034
-0.2399643511 -0.0877960175 0.5184524655 4290097827
-0.2400005758 -0.0872331411 0.5185307264 4290097827
-0.2404518574 -0.0868199617 0.5195057392 4290097827
-0.2404876798 -0.0862556025 0.5195831656 4290097573
-0.2405232936 -0.0856909975 0.5196600556 4290031780
-0.2405586839 -0.0851261392 0.5197365284 4290032034
-0.2405938357 -0.0845610350 0.5198125243 4290032034
-0.2414599657 -0.0842858180 0.5216838121 4290032034
-0.2414948046 -0.0837182626 0.5217590332 4290097827
-0.2415294051 -0.0831504688 0.5218338370 4290163366
-0.2415637821 -0.0825824291 0.5219081044 4290163366
-0.2415979505 -0.0820141435 0.5219818950 4290098086
-0.2416318804 -0.0814456195 0.5220552087 4290098086
-0.2416655719 -0.0808768645 0.5221280456 4290163879
-0.2421150655 -0.0804460868 0.5230991840 4290163879
-0.2421483696 -0.0798758715 0.5231711268 4290163879
-0.2421814501 -0.0793054253 0.5232425928 4290163879
-0.2422142923 -0.0787347406 0.5233135819 4290163879
-0.2422469109 -0.0781638324 0.5233840346 4290163879
-0.2422793061 -0.0775926858 0.5234540105 4290229670
-0.2423114777 -0.0770213157 0.5235235095 4290295463
-0.2427598089 -0.0765810758 0.5244921446 4290229670
-0.2427915633 -0.0760082677 0.5245607495 4290163877
-0.2432395965 -0.0755646303 0.5255287886 4290295463
-0.2432709485 -0.0749903917 0.5255964994 4290229670
-0.2433020771 -0.0744159371 0.5256637335 4290163879
-0.2433329672 -0.0738412589 0.5257304907 4290229672
-0.2437803447 -0.0733918250 0.5266970396 4290098086
-0.2438108176 -0.0728157237 0.5267629027 4290032293
-0.2438410670 -0.0722394139 0.5268282294 4290098086
-0.2442879528 -0.0717853904 0.5277937651 4290163879
-0.2443177700 -0.0712076724 0.5278581977 4290098087
-0.2443473786 -0.0706297383 0.5279221535 4290098087
-0.2443767339 -0.0700515956 0.5279855728 4290163880
-0.2444058657 -0.0694732442 0.5280485153 4290163880
-0.2444347590 -0.0688946843 0.5281109214 4290361258
-0.2452977598 -0.0685490891 0.5299754739 4290361258
-0.2453262806 -0.0679681450 0.5300371051 4290230187
-0.2453545630 -0.0673870072 0.5300981998 4290230187
-0.2457999289 -0.0669192821 0.5310604572 4290164394
-0.2458277792 -0.0663367510 0.5311206579 4290164394
-0.2458554059 -0.0657540262 0.5311803222 4290229672
-0.2463002503 -0.0652817488 0.5321413875 4290229672
-0.2463274300 -0.0646976456 0.5322001576 4290163879
-0.2463543862 -0.0641133487 0.5322583914 4290163879
-0.2463811040 -0.0635288581 0.5323160887 4290032808
-0.2468252182 -0.0630508661 0.5332756042 4290098601
-0.2468514889 -0.0624650083 0.5333324075 4290164649
-0.2472952604 -0.0619836673 0.5342912078 4290230442
-0.2473211139 -0.0613964461 0.5343470573 4290427051
-0.2473467141 -0.0608090423 0.5344023705 4290361258
-0.2477899343 -0.0603231825 0.5353599191 4290230187
-0.2478150874 -0.0597344264 0.5354142785 4290230187
-0.2478400171 -0.0591454878 0.5354681611 4290295980
-0.2482826859 -0.0586551204 0.5364245176 4290295980
-0.2483071536 -0.0580648407 0.5364774466 4290295980
-0.2487494648 -0.0575711429 0.5374330282 4290361773
-0.2491915971 -0.0570752844 0.5383883119 4290427566
-0.2487972826 -0.0563877262 0.5375363827 4290427566
-0.2492390126 -0.0558895394 0.5384907126 4290559152
-0.2492623478 -0.0552964173 0.5385411382 4290493359
-0.2492854446 -0.0547031276 0.5385910869 4290493359
-0.2493083030 -0.0541096739 0.5386404395 4290493359
-0.2497492433 -0.0536058508 0.5395931005 4290690224
-0.2493532598 -0.0529222786 0.5387375951 4290690224
-0.2497937977 -0.0524161458 0.5396893620 4290690224
-0.2506526113 -0.0519946590 0.5415448546 4290690224
-0.2506743371 -0.0513974205 0.5415918231 4290625200
-0.2506958246 -0.0508000255 0.5416381955 4290559407
-0.2507170439 -0.0502024814 0.5416840911 4290625200
-0.2511566281 -0.0496875942 0.5426338315 4290690993
-0.2511774004 -0.0490887500 0.5426787138 4290690993
-0.2511979342 -0.0484897569 0.5427230597 4290690993
-0.2512182295 -0.0478906184 0.5427668691 4290690993
-0.2512382567 -0.0472913347 0.5428101420 4290756786
-0.2516767979 -0.0467697307 0.5437576771 4290690738
-0.2521151602 -0.0462459847 0.5447047353 4290756531
-0.2521345019 -0.0456442833 0.5447465181 4290756531
-0.2521535754 -0.0450424403 0.5447878242 4290756531
-0.2525913119 -0.0445142873 0.5457335711 4290822324
-0.2526099384 -0.0439111739 0.5457738042 4290822324
-0.2526283264 -0.0433079302 0.5458135009 4290756531
-0.2526464462 -0.0427045561 0.5458526015 4290822324
-0.2526643276 -0.0421010517 0.5458912253 4291018935
-0.2535200119 -0.0416350588 0.5477400422 4291018935
-0.2535374463 -0.0410292968 0.5477776527 4290953142
-0.2535546124 -0.0404234156 0.5478147268 4290953142
-0.2535715401 -0.0398174115 0.5478513241 4290953396
-0.2535881996 -0.0392112844 0.5478873253 4290953396
-0.2540237904 -0.0386688523 0.5488284230 4290887603
-0.2540399730 -0.0380614884 0.5488634109 4290887603
-0.2544751167 -0.0375158153 0.5498035550 4290953910
-0.2549100816 -0.0369680226 0.5507433414 4290888117
-0.2549255490 -0.0363583155 0.5507767797 4290888117
-0.2549407780 -0.0357484967 0.5508096218 4290888117
-0.2549557388 -0.0351385698 0.5508419275 4290888117
-0.2549704313 -0.0345285349 0.5508736968 4290822324
-0.2554042637 -0.0339741856 0.5518110394 4290822324
-0.2554184794 -0.0333629400 0.5518417358 4290756531
-0.2558518648 -0.0328053720 0.5527781248 4291019189
-0.2558656037 -0.0321929231 0.5528077483 4290953396
-0.2558790743 -0.0315803774 0.5528368354 4291019189
-0.2558922768 -0.0309677348 0.5528653860 4291019189
-0.2563247383 -0.0304047614 0.5537997484 4290953396
-0.2563374639 -0.0297909286 0.5538272262 4291019189
-0.2563499212 -0.0291770045 0.5538541675 4291019189
-0.2563621402 -0.0285629909 0.5538805127 4291019189
-0.2567936778 -0.0279946364 0.5548128486 4291019189
-0.2568053603 -0.0273794457 0.5548381209 4291019189
-0.2572364509 -0.0268079061 0.5557695031 4291019189
-0.2572476566 -0.0261915475 0.5557937026 4291084982
-0.2572585940 -0.0255751088 0.5558173656 4291084982
-0.2572692633 -0.0249585919 0.5558404326 4291150775
-0.2576994002 -0.0243817102 0.5567697287 4291150775
-0.2577095926 -0.0237640366 0.5567917228 4291150775
-0.2581392527 -0.0231839903 0.5577200055 4291216568
-0.2581489086 -0.0225651693 0.5577409267 4291084982
-0.2581583261 -0.0219462793 0.5577612519 4291150774
-0.2581674755 -0.0213273223 0.5577810407 4291216567
-0.2581763864 -0.0207083002 0.5578002334 4291084981
-0.2581849992 -0.0200892165 0.5578188896 4291084981
-0.2586131990 -0.0195017289 0.5587440133 4291216567
-0.2590411603 -0.0189121701 0.5596686602 4291150774
-0.2590490282 -0.0182908941 0.5596856475 4291216567
-0.2590566278 -0.0176695623 0.5597020984 4291150774
-0.2594838738 -0.0170758069 0.5606251359 4291150772
-0.2594909668 -0.0164533611 0.5606404543 4291216565
-0.2594977915 -0.0158308670 0.5606552362 4291216565
-0.2599242628 -0.0152329328 0.5615766644 4291216565
-0.2599305809 -0.0146093359 0.5615903139 4291216565
-0.2603565753 -0.0140082883 0.5625106692 4291150772
-0.2603623569 -0.0133835971 0.5625231862 4291150772
-0.2603679001 -0.0127588641 0.5625351071 4291084979
-0.2603731751 -0.0121340938 0.5625464916 4291150774
-0.2607981265 -0.0115278484 0.5634647012 4291150774
-0.2608028948 -0.0109019978 0.5634749532 4291150774
-0.2608073652 -0.0102761127 0.5634846091 4291150774
-0.2608115971 -0.0096501978 0.5634937286 4291150772
-0.2612355351 -0.0090387845 0.5644096732 4291084979
-0.2612392306 -0.0084118033 0.5644176602 4290822577
-0.2616626620 -0.0077973129 0.5653325319 4290756784
-0.2616658211 -0.0071692751 0.5653393865 4290888372
-0.2616687417 -0.0065412153 0.5653456450 4291019958
-0.2620913982 -0.0059226267 0.5662587881 4290690993
-0.2625137866 -0.0053020036 0.5671713948 4290888372
-0.2641960084 -0.0047017732 0.5708059072 4290756786
-0.2633577883 -0.0040546623 0.5689949393 4291677888
-0.2650395036 -0.0034443229 0.5726283193 4294638330
-0.2586912215 -0.2424044013 0.5602570176 4285886834
-0.2576090097 -0.2407704443 0.5579132438 4285031525
-0.2580876648 -0.2405967712 0.5589498878 4283517773
-0.2577852607 -0.2396945655 0.5582949519 4282333499
-0.2570917606 -0.2384310812 0.5567929745 4282135348
-0.2571792603 -0.2378934026 0.5569825172 4282003762
-0.2568756640 -0.2369944453 0.5563250184 4281214246
-0.2561805546 -0.2357366830 0.5548195839 4282530106
-0.2550935149 -0.2341225594 0.5524653196 4287661701
-0.2543969154 -0.2328710854 0.5509566665 4289043354
-0.2544826865 -0.2323372364 0.5511424541 4289503392
-0.2526100874 -0.2300197482 0.5470868945 4289240220
-0.2526949048 -0.2294889241 0.5472705960 4289502877
-0.2516038716 -0.2278926522 0.5449076891 4289568670
-0.2493358105 -0.2252383530 0.5399956703 4289306268
-0.2482425421 -0.2236534059 0.5376279354 4289503647
-0.2467560470 -0.2217203826 0.5344085693 4289043353
-0.2464456558 -0.2208484709 0.5337363482 4289109146
-0.2437795103 -0.2178726345 0.5279622078 4289109147
-0.2415040880 -0.2152578980 0.5230342150 4288911768
-0.2384413481 -0.2119542509 0.5164011121 4289108634
-0.2400917709 -0.2128436118 0.5199755430 4289240220
-0.2401707917 -0.2123357356 0.5201466680 4287858052
-0.2355311811 -0.2076670825 0.5100984573 4285226332
-0.2356083691 -0.2071682066 0.5102656484 4283975752
-0.2321442366 -0.2035636306 0.5027632713 4285488991
-0.2337943763 -0.2044480294 0.5063370466 4285356636
-0.2291458696 -0.1998316199 0.4962695837 4282790709
-0.2272510976 -0.1976324171 0.4921660125 4283053881
-0.2257488817 -0.1957827806 0.4889126122 4284830292
-0.2242455333 -0.1939393729 0.4856567383 4288448649
-0.2227410227 -0.1921022087 0.4823983610 4291606713
-0.2228128016 -0.1916279644 0.4825538099 4291674563
-0.2217009813 -0.1901382953 0.4801459312 4290950840
-0.2190098315 -0.1873032600 0.4743175805 4291016633
-0.2194746882 -0.1871727109 0.4753243625 4291411391
-0.2175704837 -0.1850252151 0.4712003469 4291214525
-0.2156648785 -0.1828857064 0.4670733213 4291148732
-0.2141530067 -0.1810883135 0.4637989998 4291346109
-0.2142209709 -0.1806303114 0.4639461935 4291609281
-0.2123119682 -0.1785097718 0.4598118067 4291411902
-0.2115880698 -0.1773919761 0.4582440257 4291346109
-0.2120503932 -0.1772693247 0.4592452645 4291149243
-0.2113256007 -0.1761549115 0.4576755762 4290951864
-0.2121836543 -0.1763595790 0.4595339000 4290820278
-0.2118541002 -0.1755758822 0.4588201642 4290820278
-0.2123163939 -0.1754481196 0.4598213732 4290951864
-0.2123825699 -0.1749917567 0.4599646926 4290886071
-0.2128449827 -0.1748605818 0.4609661400 4290688692
-0.2129110247 -0.1744025052 0.4611091614 4290622899
-0.2117871046 -0.1729722619 0.4586750567 4290426290
-0.2130426913 -0.1734850854 0.4613943398 4290426290
-0.2123146355 -0.1723813117 0.4598175585 4290426290
-0.2135708034 -0.1728873104 0.4625380933 4290557876
-0.2124450207 -0.1714647710 0.4600999355 4290886071
-0.2129072249 -0.1713255048 0.4611009359 4290886071
-0.2133695334 -0.1711840928 0.4621022046 4290951864
-0.2134345025 -0.1707226336 0.4622429013 4291017657
-0.2138969153 -0.1705778092 0.4632443488 4290886841
-0.2139617205 -0.1701146364 0.4633847177 4290821048
-0.2144242078 -0.1699663848 0.4643863440 4290755255
-0.2144888639 -0.1695015132 0.4645263851 4290360497
-0.2149514556 -0.1693498343 0.4655281901 4289965739
-0.2146177739 -0.1685705185 0.4648055434 4289702567
-0.2146820128 -0.1681043953 0.4649446607 4289242015
-0.2147461176 -0.1676378399 0.4650835097 4289110429
-0.2152086049 -0.1674810201 0.4660851359 4288847255
-0.2152725458 -0.1670127809 0.4662236273 4288452497
-0.2157351226 -0.1668525338 0.4672254324 4288057739
-0.2153999954 -0.1660750359 0.4664996564 4287728774
-0.2158625275 -0.1659122109 0.4675013423 4287334529
-0.2159260064 -0.1654414237 0.4676388502 4287137150
-0.2163885981 -0.1652751714 0.4686406851 4286939771
-0.2164519131 -0.1648026854 0.4687778056 4286939771
-0.2169145644 -0.1646329761 0.4697797894 4286939771
-0.2165781260 -0.1638564765 0.4690511525 4287071357
-0.2170407027 -0.1636841893 0.4700529873 4287202943
-0.2171035707 -0.1632091850 0.4701891243 4287334529
-0.2171662748 -0.1627337486 0.4703249335 4287531908
-0.2176288813 -0.1625567377 0.4713268280 4287729287
-0.2176914066 -0.1620796174 0.4714622498 4288190354
-0.2177537978 -0.1616020799 0.4715973437 4288321940
-0.2178160250 -0.1611241400 0.4717321098 4288519573
-0.2182786167 -0.1609410942 0.4727339745 4288782745
-0.2183406651 -0.1604614407 0.4728683531 4288980124
-0.2188033015 -0.1602749377 0.4738703072 4289177503
-0.2184643149 -0.1595009416 0.4731361270 4289308835
-0.2185259014 -0.1590200663 0.4732695222 4289440421
-0.2185873538 -0.1585388035 0.4734025896 4289505698
-0.2186486423 -0.1580571234 0.4735353291 4289571491
-0.2191110849 -0.1578641683 0.4745368659 4289571491
-0.2191721797 -0.1573807895 0.4746691883 4289571491
-0.2192331254 -0.1568970233 0.4748011827 4289703075
-0.2192939073 -0.1564128399 0.4749328494 4289703075
-0.2197563052 -0.1562138498 0.4759342372 4289637284
-0.2198168933 -0.1557279676 0.4760654569 4289703077
-0.2198773324 -0.1552416980 0.4761963487 4289506468
-0.2203396857 -0.1550379395 0.4771977067 4289572261
-0.2208021134 -0.1548320055 0.4781992137 4289506468
-0.2204599977 -0.1540616155 0.4774582684 4289440675
-0.2209223360 -0.1538531035 0.4784595668 4289506468
-0.2209821939 -0.1533630490 0.4785892069 4289572261
-0.2210419178 -0.1528725922 0.4787185490 4289506468
-0.2215041965 -0.1526593119 0.4797197282 4289506468
-0.2215636969 -0.1521671712 0.4798485935 4289769640
-0.2220259905 -0.1519504189 0.4808498025 4289769640
-0.2220852822 -0.1514565796 0.4809781909 4289835431
-0.2225475758 -0.1512363404 0.4819793999 4289835431
-0.2226066440 -0.1507408321 0.4821073413 4289835431
-0.2226655483 -0.1502449214 0.4822349250 4289769638
-0.2231277823 -0.1500199139 0.4832359850 4289769640
-0.2231864631 -0.1495223194 0.4833630919 4289835433
-0.2232449949 -0.1490243375 0.4834898412 4289769638
-0.2233033478 -0.1485259533 0.4836162329 4289769638
-0.2233615518 -0.1480271965 0.4837422669 4289835431
-0.2230155617 -0.1472612619 0.4829929471 4289901224
-0.2234774381 -0.1470284909 0.4839932323 4289901224
-0.2235351354 -0.1465285569 0.4841181934 4289901224
-0.2235926539 -0.1460282356 0.4842427969 4289901224
-0.2236500233 -0.1455275416 0.4843670130 4289901224
-0.2237072140 -0.1450264454 0.4844908714 4290032810
-0.2237642407 -0.1445249766 0.4846143723 4290032810
-0.2238210887 -0.1440231204 0.4847375154 4290163626
-0.2242826223 -0.1437804103 0.4857370555 4290097833
-0.2243392467 -0.1432768852 0.4858596921 4290097833
-0.2243956923 -0.1427729726 0.4859819412 4290097833
-0.2244519740 -0.1422686875 0.4861038327 4290097833
-0.2245080769 -0.1417640150 0.4862253368 4290097833
-0.2245640159 -0.1412589699 0.4863464832 4290097574
-0.2246197760 -0.1407535523 0.4864672720 4290097574
-0.2250809222 -0.1405009031 0.4874659777 4289966501
-0.2251364440 -0.1399938166 0.4875862002 4289966501
-0.2251917869 -0.1394863576 0.4877060652 4289900708
-0.2252469510 -0.1389785260 0.4878255725 4289900708
-0.2253019512 -0.1384703219 0.4879446626 4289900708
-0.2257628292 -0.1382103115 0.4889428020 4289900708
-0.2258175761 -0.1377004534 0.4890613556 4289900708
-0.2258721441 -0.1371902078 0.4891795516 4289834915
-0.2259265333 -0.1366796046 0.4892973304 4289638050
-0.2259807438 -0.1361686289 0.4894147515 4289638050
-0.2260347903 -0.1356572807 0.4895317852 4289638050
-0.2260886431 -0.1351455748 0.4896484315 4289638050
-0.2265490592 -0.1348756552 0.4906455874 4289769122
-0.2266026586 -0.1343622953 0.4907616675 4289769122
-0.2266560793 -0.1338485628 0.4908773601 4289703329
-0.2267093211 -0.1333344728 0.4909926653 4289769122
-0.2267623842 -0.1328200251 0.4911075830 4289703329
-0.2268152684 -0.1323052198 0.4912221134 4289769122
-0.2268679738 -0.1317900568 0.4913362563 4289834914
-0.2273278832 -0.1315102130 0.4923323095 4289834914
-0.2273803204 -0.1309933960 0.4924458563 4289769121
-0.2274325639 -0.1304762214 0.4925590158 4289834914
-0.2274846286 -0.1299587041 0.4926717877 4289834914
-0.2275365144 -0.1294408292 0.4927841425 4289900707
-0.2275882065 -0.1289225966 0.4928961098 4289900707
-0.2280476838 -0.1286341250 0.4938912094 4289900707
-0.2280991077 -0.1281142533 0.4940025806 4289834912
-0.2281503379 -0.1275940388 0.4941135347 4289900705
-0.2282013893 -0.1270734668 0.4942241013 4289900705
-0.2286605835 -0.1267789453 0.4952185750 4289966498
-0.2287113518 -0.1262567490 0.4953285158 4289900448
-0.2287619412 -0.1257342100 0.4954380691 4289900448
-0.2288123220 -0.1252113134 0.4955472052 4289834655
-0.2288625389 -0.1246880814 0.4956559539 4289768862
-0.2289125472 -0.1241644993 0.4957642853 4289768862
-0.2289623767 -0.1236405745 0.4958721995 4289768862
-0.2294209749 -0.1233361661 0.4968653917 4289834655
-0.2294705063 -0.1228106245 0.4969726801 4289900448
-0.2295198590 -0.1222847477 0.4970795512 4289834655
-0.2299782336 -0.1219755635 0.4980722666 4289834655
-0.2300272882 -0.1214480698 0.4981784821 4289900448
-0.2300761491 -0.1209202409 0.4982843101 4289900448
-0.2301248163 -0.1203920692 0.4983897209 4289834655
-0.2301732898 -0.1198635697 0.4984947145 4289900448
-0.2302215844 -0.1193347350 0.4985992908 4289900448
-0.2306794077 -0.1190169603 0.4995908141 4289900448
-0.2307273895 -0.1184865236 0.4996947348 4289966239
-0.2307751775 -0.1179557517 0.4997982085 4289966239
-0.2308227718 -0.1174246520 0.4999012947 4289900446
-0.2308701575 -0.1168932244 0.5000039339 4289900446
-0.2309173644 -0.1163614690 0.5001061559 4289966239
-0.2309643626 -0.1158293858 0.5002079606 4289966239
-0.2314215004 -0.1155017763 0.5011979938 4289966241
-0.2314682007 -0.1149680987 0.5012991428 4289966241
-0.2315146923 -0.1144341007 0.5013998151 4289834655
-0.2315609902 -0.1138997898 0.5015000701 4289834655
-0.2320177406 -0.1135661528 0.5024893284 4289834655
-0.2320637256 -0.1130302474 0.5025888681 4289900448
-0.2321095169 -0.1124940217 0.5026880503 4289966241
-0.2321550995 -0.1119574830 0.5027867556 4289900448
-0.2322004735 -0.1114206314 0.5028850436 4289834655
-0.2326567173 -0.1110797152 0.5038731694 4289900448
-0.2327017784 -0.1105412841 0.5039707422 4289834653
-0.2327466458 -0.1100025401 0.5040678978 4289834653
-0.2327913046 -0.1094634831 0.5041646361 4289768860
-0.2332471311 -0.1091165617 0.5051518083 4289768860
-0.2332914621 -0.1085759327 0.5052478313 4289768860
-0.2337471098 -0.1082255319 0.5062346458 4289768860
-0.2342027128 -0.1078729257 0.5072214007 4289834653
-0.2342465818 -0.1073294654 0.5073164105 4289900446
-0.2342902571 -0.1067857072 0.5074109435 4289768862
-0.2347455472 -0.1064283550 0.5083970428 4289834655
-0.2347888798 -0.1058830321 0.5084908605 4289966241
-0.2348320186 -0.1053374037 0.5085842609 4289900448
-0.2348749340 -0.1047914848 0.5086772442 4289900448
-0.2349176407 -0.1042452604 0.5087696910 4289900448
-0.2353723645 -0.1038806662 0.5097545385 4289900448
-0.2354147285 -0.1033328921 0.5098462701 4289703069
-0.2354568839 -0.1027848199 0.5099375844 4289768862
-0.2354988456 -0.1022364497 0.5100284219 4289768862
-0.2355405837 -0.1016877964 0.5101188421 4289768862
-0.2355821133 -0.1011388451 0.5102087855 4289768862
-0.2360360771 -0.1007657722 0.5111919641 4289703326
-0.2360772640 -0.1002152860 0.5112811327 4289703326
-0.2361182421 -0.0996645093 0.5113698840 4289834655
-0.2361589968 -0.0991134495 0.5114581585 4289834655
-0.2361995429 -0.0985620990 0.5115459561 4289834655
-0.2366528809 -0.0981818140 0.5125278234 4289900448
-0.2366930842 -0.0976289362 0.5126148462 4289834912
-0.2367330492 -0.0970757827 0.5127014518 4289834912
-0.2367728204 -0.0965223461 0.5127875209 4289900705
-0.2372256517 -0.0961361155 0.5137682557 4289900705
-0.2372650653 -0.0955811515 0.5138536096 4289900705
-0.2373042554 -0.0950259194 0.5139384866 4289966498
-0.2373432219 -0.0944704115 0.5140228868 4289966241
-0.2377955467 -0.0940782428 0.5150024891 4289966241
-0.2382477820 -0.0936838612 0.5159819126 4289900448
-0.2382862419 -0.0931256041 0.5160651803 4289900448
-0.2387382388 -0.0927277729 0.5170441270 4289900448
-0.2387763262 -0.0921680033 0.5171266198 4289900448
-0.2388141900 -0.0916079655 0.5172086358 4289966241
-0.2388518453 -0.0910476670 0.5172901750 4289966241
-0.2388892770 -0.0904871002 0.5173712373 4290032034
-0.2389265001 -0.0899262652 0.5174518228 4290032034
-0.2389634848 -0.0893651769 0.5175319314 4289966498
-0.2390002608 -0.0888038203 0.5176115632 4290032291
-0.2394510806 -0.0883951485 0.5185879469 4289966498
-0.2394874841 -0.0878323093 0.5186668038 4290032291
-0.2395236492 -0.0872692093 0.5187451243 4290098084
-0.2395596057 -0.0867058560 0.5188229680 4290032291
-0.2395953387 -0.0861422569 0.5189003348 4290098086
-0.2400454283 -0.0857264623 0.5198751688 4290032293
-0.2400807738 -0.0851613805 0.5199517012 4290032291
-0.2401158959 -0.0845960453 0.5200277567 4289966498
-0.2409803271 -0.0843207315 0.5218998790 4290032291
-0.2410151213 -0.0837529525 0.5219752192 4290032291
-0.2410496920 -0.0831849352 0.5220500827 4290163879
-0.2410840243 -0.0826166645 0.5221244693 4290163879
-0.2411181480 -0.0820481554 0.5221983790 4290098086
-0.2411520332 -0.0814794078 0.5222717524 4290098086
-0.2411856949 -0.0809104219 0.5223446488 4290163879
-0.2416343093 -0.0804794729 0.5233162642 4290163879
-0.2416675836 -0.0799090341 0.5233883262 4290163879
-0.2417006195 -0.0793383569 0.5234598517 4290163879
-0.2417334318 -0.0787674487 0.5235309601 4290033063
-0.2417660207 -0.0781963021 0.5236014724 4290033063
-0.2417983711 -0.0776249319 0.5236715674 4290163879
-0.2418304980 -0.0770533308 0.5237411261 4290163879
-0.2418624014 -0.0764815062 0.5238102078 4290163879
-0.2427253127 -0.0761703104 0.5256791115 4290163879
-0.2427568585 -0.0755960643 0.5257474184 4290163879
-0.2427881807 -0.0750216022 0.5258152485 4290098086
-0.2428192645 -0.0744469166 0.5258825421 4290032293
-0.2428501248 -0.0738720074 0.5259493589 4290032293
-0.2432966381 -0.0734223872 0.5269163847 4289966500
-0.2433270812 -0.0728460625 0.5269823670 4289900707
-0.2437732816 -0.0723930523 0.5279486775 4289966501
-0.2438033074 -0.0718153119 0.5280137658 4290032294
-0.2438331097 -0.0712373555 0.5280782580 4290032294
-0.2438626736 -0.0706591904 0.5281422734 4290032294
-0.2438919991 -0.0700808093 0.5282058120 4290163880
-0.2439210862 -0.0695022270 0.5282688141 4290163880
-0.2447825372 -0.0691586658 0.5301344991 4290163879
-0.2448112667 -0.0685776994 0.5301967263 4290229672
-0.2448397577 -0.0679965243 0.5302584171 4290098601
-0.2452844530 -0.0675297976 0.5312215090 4290164394
-0.2453125119 -0.0669472292 0.5312822461 4290164394
-0.2453403324 -0.0663644671 0.5313425064 4290164394
-0.2453679293 -0.0657815039 0.5314022899 4290229672
-0.2458119094 -0.0653090328 0.5323638320 4290229672
-0.2458390594 -0.0647246912 0.5324226618 4290295465
-0.2458659858 -0.0641401559 0.5324809551 4290361258
-0.2458926737 -0.0635554269 0.5325387120 4290230442
-0.2467527390 -0.0631839707 0.5344014168 4290296235
-0.2467790246 -0.0625968799 0.5344583392 4290296235
-0.2468050867 -0.0620096065 0.5345147848 4290362028
-0.2468308955 -0.0614221469 0.5345706940 4290558637
-0.2468564659 -0.0608345009 0.5346260667 4290558637
-0.2472988367 -0.0603484437 0.5355840921 4290492844
-0.2473239750 -0.0597594455 0.5356385708 4290492844
-0.2473488599 -0.0591702648 0.5356924534 4290558637
-0.2473735213 -0.0585809126 0.5357458591 4290558637
-0.2478151172 -0.0580891743 0.5367022753 4290558637
-0.2478393316 -0.0574984774 0.5367546678 4290624430
-0.2482805699 -0.0570034087 0.5377103090 4290493614
-0.2483043373 -0.0564113744 0.5377617478 4290493614
-0.2487452030 -0.0559129827 0.5387166142 4290559407
-0.2487685233 -0.0553196110 0.5387670994 4290625200
-0.2487915903 -0.0547260791 0.5388170481 4290625200
-0.2488144189 -0.0541323796 0.5388664603 4290625200
-0.2488369942 -0.0535385199 0.5389153957 4290559407
-0.2488593310 -0.0529444963 0.5389637351 4290559407
-0.2492990047 -0.0524381511 0.5399159789 4290625200
-0.2493208796 -0.0518428162 0.5399633646 4290625200
-0.2501778305 -0.0514190085 0.5418192744 4290756016
-0.2501992881 -0.0508213677 0.5418657660 4290756016
-0.2502414882 -0.0496256277 0.5419570804 4290821809
-0.2506799996 -0.0491093807 0.5429068208 4290887602
-0.2507005036 -0.0485101417 0.5429512262 4290887602
-0.2507207394 -0.0479107536 0.5429950953 4290887602
-0.2507407665 -0.0473112240 0.5430384278 4290953395
-0.2515963912 -0.0468672551 0.5448914766 4290953395
-0.2516159713 -0.0462654382 0.5449338555 4290953395
-0.2516352832 -0.0456634834 0.5449756980 4290953395
-0.2516543567 -0.0450613946 0.5450170040 4290953395
-0.2520912290 -0.0445330180 0.5459632277 4290953395
-0.2521098554 -0.0439296551 0.5460035205 4290953395
-0.2521281838 -0.0433261618 0.5460432172 4290953396
-0.2521463037 -0.0427225344 0.5460824370 4290953396
-0.2521641552 -0.0421187803 0.5461211205 4291019189
-0.2525999546 -0.0415837429 0.5470649600 4291019189
-0.2526173294 -0.0409787335 0.5471025705 4291019189
-0.2530527115 -0.0404404439 0.5480455160 4291019189
-0.2534879148 -0.0399000272 0.5489880443 4291019189
-0.2535045743 -0.0392926484 0.5490241647 4291019189
-0.2535209954 -0.0386851467 0.5490596890 4291019189
-0.2535371780 -0.0380775295 0.5490947366 4291019189
-0.2543898821 -0.0375934616 0.5509414673 4290953910
-0.2544055879 -0.0369836092 0.5509755015 4290953910
-0.2544210553 -0.0363736451 0.5510089993 4290953910
-0.2544362545 -0.0357635692 0.5510419011 4290888117
-0.2548696995 -0.0352112055 0.5519806147 4290888117
-0.2548844218 -0.0345999151 0.5520125031 4290822324
-0.2548988760 -0.0339885168 0.5520437956 4290822324
-0.2549130619 -0.0333770141 0.5520745516 4290888117
-0.2553456128 -0.0328192152 0.5530112982 4290953396
-0.2553593218 -0.0322065093 0.5530409813 4291019189
-0.2557914257 -0.0316454992 0.5539768338 4291019189
-0.2558046281 -0.0310315937 0.5540054440 4291019189
-0.2558175921 -0.0304175951 0.5540335178 4291019189
-0.2562490106 -0.0298522823 0.5549678206 4291019189
-0.2562614679 -0.0292370953 0.5549948215 4291019189
-0.2562736869 -0.0286218189 0.5550212860 4291084982
-0.2562856078 -0.0280064568 0.5550471544 4291084982
-0.2567161024 -0.0274357647 0.5559794307 4291084982
-0.2567275465 -0.0268192273 0.5560042262 4291084982
-0.2567387223 -0.0262026098 0.5560284853 4291084982
-0.2567496598 -0.0255859122 0.5560521483 4291084982
-0.2571792006 -0.0250098687 0.5569823980 4291150775
-0.2571896315 -0.0243920106 0.5570049882 4291150775
-0.2576186955 -0.0238127969 0.5579341650 4291216568
-0.2576286197 -0.0231937859 0.5579556823 4291216568
-0.2576382756 -0.0225747041 0.5579766035 4291150775
-0.2576476634 -0.0219555534 0.5579969883 4291150774
-0.2580757737 -0.0213710293 0.5589241385 4291150774
-0.2576656938 -0.0207170527 0.5580360293 4291150774
-0.2580932975 -0.0201303866 0.5589621067 4291150774
-0.2585206628 -0.0195416454 0.5598876476 4291216567
-0.2589477897 -0.0189508293 0.5608127117 4291216567
-0.2589556873 -0.0183282830 0.5608297586 4291084981
-0.2589632869 -0.0177056827 0.5608462691 4291084981
-0.2589706481 -0.0170830265 0.5608621836 4291150774
-0.2589777410 -0.0164603181 0.5608775020 4291150774
-0.2589845657 -0.0158375613 0.5608922839 4291150774
-0.2598292828 -0.0152639933 0.5627217293 4291150774
-0.2598356009 -0.0146391252 0.5627354383 4291150774
-0.2598416507 -0.0140142124 0.5627485514 4291150774
-0.2598474324 -0.0133892577 0.5627610683 4291216565
-0.2598529756 -0.0127642611 0.5627730489 4291150772
-0.2602773607 -0.0121588055 0.5636921525 4291216567
-0.2602823675 -0.0115327248 0.5637030005 4291150774
-0.2602871060 -0.0109066088 0.5637133121 4291019188
-0.2602915764 -0.0102804601 0.5637229681 4291019188
-0.2602958083 -0.0096542798 0.5637320876 4291019186
-0.2602997422 -0.0090280697 0.5637406707 4290953393
-0.2603034377 -0.0084018325 0.5637486577 4290756784
-0.2607260346 -0.0077880910 0.5646638870 4290822577
-0.2611483634 -0.0071723084 0.5655785203 4290954165
-0.2615704536 -0.0065544867 0.5664926767 4290954165
-0.2615730762 -0.0059251324 0.5664983988 4290690993
-0.2619946599 -0.0053042471 0.5674113631 4290822579
-0.2632543445 -0.0046962844 0.5701395273 4290625200
-0.2636753917 -0.0040693167 0.5710514188 4291941060
-0.2574729919 -0.2412235588 0.5589631796 4285361004
-0.2567819059 -0.2399566919 0.5574628711 4284044630
-0.2572594881 -0.2397824675 0.5584996939 4282728770
-0.2561775446 -0.2381560951 0.5561508536 4282004532
-0.2558747530 -0.2372574210 0.5554934740 4281807153
-0.2551813722 -0.2359989733 0.5539882183 4281543981
-0.2544873357 -0.2347432524 0.5524814725 4281083430
-0.2549639940 -0.2345679253 0.5535162687 4286148975
-0.2538784444 -0.2329568267 0.5511595607 4288912281
-0.2535733581 -0.2320652604 0.5504972935 4289503392
-0.2528770566 -0.2308180630 0.5489856005 4289240220
-0.2506161928 -0.2281498909 0.5440773368 4289371291
-0.2495269179 -0.2265563756 0.5417125821 4289634463
-0.2472629994 -0.2239044607 0.5367977023 4289371291
-0.2481283396 -0.2240895480 0.5386763215 4289700256
-0.2470365614 -0.2225076556 0.5363061428 4289240733
-0.2428108156 -0.2181158215 0.5271322131 4289174940
-0.2448502481 -0.2193572372 0.5315597653 4289306013
-0.2433638275 -0.2174385488 0.5283327699 4289108634
-0.2410921901 -0.2148273736 0.5234011412 4289174427
-0.2380345613 -0.2115286887 0.5167631507 4289174427
-0.2365438342 -0.2096333951 0.5135268569 4288516497
-0.2370139956 -0.2094783634 0.5145475268 4285950570
-0.2351290435 -0.2072452605 0.5104554296 4282726199
-0.2320646942 -0.2039845437 0.5038028359 4283581508
-0.2305693179 -0.2021139562 0.5005564094 4283778887
-0.2306444645 -0.2016234845 0.5007196069 4282199855
-0.2287542373 -0.1994193345 0.4966159761 4283383616
-0.2272557765 -0.1975648701 0.4933628738 4285883750
-0.2257561684 -0.1957166344 0.4901072979 4289173399
-0.2242553979 -0.1938746423 0.4868491888 4291212982
-0.2227534950 -0.1920388937 0.4835886061 4291017403
-0.2204630673 -0.1895325184 0.4786162078 4290556852
-0.2193524241 -0.1880486012 0.4762050509 4290425266
-0.2202105820 -0.1882531196 0.4780680537 4290359473
-0.2190987915 -0.1867741942 0.4756544232 4290293680
-0.2168035656 -0.1842946261 0.4706715345 4290425266
-0.2152953148 -0.1824932247 0.4673972130 4290491059
-0.2122081816 -0.1793645769 0.4606951773 4290425266
-0.2122754306 -0.1789093912 0.4608411491 4290557876
-0.2119478583 -0.1781220734 0.4601300061 4290492083
-0.2112250924 -0.1770051718 0.4585609436 4290557876
-0.2112915814 -0.1765512228 0.4587052763 4290623669
-0.2113579363 -0.1760968566 0.4588493407 4290557876
-0.2118193507 -0.1759703755 0.4598510563 4290755255
-0.2114902735 -0.1751868427 0.4591366053 4290886841
-0.2119516730 -0.1750577986 0.4601382911 4290886841
-0.2120176405 -0.1746008694 0.4602814913 4290623668
-0.2120834589 -0.1741435230 0.4604244232 4290557875
-0.2121491581 -0.1736857444 0.4605670273 4290558386
-0.2122147232 -0.1732275337 0.4607093632 4290426800
-0.2122801542 -0.1727689058 0.4608514309 4290097835
-0.2119492888 -0.1719883829 0.4601331353 4289703077
-0.2128069103 -0.1721709967 0.4619949758 4289373599
-0.2124756575 -0.1713904887 0.4612758458 4289044634
-0.2133336067 -0.1715679616 0.4631384313 4288716182
-0.2133986056 -0.1711055040 0.4632795453 4288387217
-0.2134634852 -0.1706426293 0.4634203613 4287860873
-0.2139250934 -0.1704956442 0.4644225240 4287400322
-0.2147838324 -0.1706619710 0.4662868083 4287137150
-0.2144515216 -0.1698806286 0.4655653834 4286939771
-0.2149133235 -0.1697280705 0.4665679336 4286742392
-0.2145804912 -0.1689476371 0.4658453763 4286742392
-0.2146447748 -0.1684805006 0.4659849107 4286742392
-0.2147089094 -0.1680129468 0.4661241472 4286873978
-0.2151706368 -0.1678552479 0.4671265483 4287071357
-0.2152346224 -0.1673859805 0.4672654271 4287268736
-0.2156964242 -0.1672248393 0.4682679772 4287466115
-0.2153621465 -0.1664462090 0.4675422907 4287597701
-0.2158239037 -0.1662825048 0.4685447514 4287795080
-0.2158874273 -0.1658107042 0.4686826468 4287992459
-0.2163492441 -0.1656435430 0.4696852267 4288584594
-0.2164125890 -0.1651700437 0.4698227942 4288650387
-0.2168744653 -0.1649994403 0.4708254933 4288716180
-0.2165388763 -0.1642217934 0.4700969160 4288716180
-0.2170006931 -0.1640486121 0.4710995257 4288913559
-0.2170635760 -0.1635725796 0.4712360501 4289045145
-0.2171263248 -0.1630961299 0.4713722467 4289242524
-0.2175881714 -0.1629182100 0.4723748863 4289439903
-0.2176507264 -0.1624400616 0.4725107253 4289440421
-0.2181126177 -0.1622586846 0.4735134542 4289506214
-0.2177754194 -0.1614825279 0.4727814198 4289572261
-0.2182372361 -0.1612985730 0.4737839997 4289506468
-0.2182993144 -0.1608178914 0.4739187956 4289440675
-0.2187611759 -0.1606304646 0.4749214649 4289440675
-0.2188230753 -0.1601480991 0.4750558436 4289440675
