VERSION 0.7
FIELDS x y z rgba
SIZE 4 4 4 4
TYPE F F F U
COUNT 1 1 1 1
WIDTH 920
HEIGHT 1
VIEWPOINT 0.0 0.0 0.0 1.0 0.0 0.0 0.0
POINTS 920
DATA ascii
-0.3175596595 -0.0957294479 0.6458078027 4284305996
-0.3180383742 -0.0951551348 0.6467813253 4284503375
-0.3180793822 -0.0944486856 0.6468647122 4284569681
-0.3181200922 -0.0937419683 0.6469475031 4284767060
-0.3181605041 -0.0930349752 0.6470296979 4284767575
-0.3182005882 -0.0923277214 0.6471112370 4284964954
-0.3182404339 -0.0916201994 0.6471922398 4285096540
-0.3182799518 -0.0909124091 0.6472725868 4285359712
-0.3183191717 -0.0902043581 0.6473523378 4285622630
-0.3183580935 -0.0894960463 0.6474315524 4285754216
-0.3183967173 -0.0887874737 0.6475101113 4285952366
-0.3184350431 -0.0880786479 0.6475880146 4286347124
-0.3184731007 -0.0873695686 0.6476653814 4286478967
-0.3185108304 -0.0866602287 0.6477421522 4286807932
-0.3185482621 -0.0859506428 0.6478182673 4287399812
-0.3185853958 -0.0852408037 0.6478937864 4287597191
-0.3190605044 -0.0846469998 0.6488599777 4288057742
-0.3186587691 -0.0838203952 0.6480429769 4288320914
-0.3191333711 -0.0832241401 0.6490082145 4288518293
-0.3191693723 -0.0825123489 0.6490813494 4288913051
-0.3192050457 -0.0818003193 0.6491539478 4289702567
-0.3192404211 -0.0810880512 0.6492258906 4290031532
-0.3192755282 -0.0803755447 0.6492972374 4289900205
-0.3193103075 -0.0796628073 0.6493679881 4290163377
-0.3193447590 -0.0789498389 0.6494380832 4290689721
-0.3193789423 -0.0782366395 0.6495075822 4291281858
-0.3194128275 -0.0775232092 0.6495764852 4291873995
-0.3194463849 -0.0768095553 0.6496447325 4292202960
-0.3194796443 -0.0760956779 0.6497123837 4292400339
-0.3195126057 -0.0753815770 0.6497794390 4292531925
-0.3195452690 -0.0746672526 0.6498458385 4292466648
-0.3195776343 -0.0739527121 0.6499116421 4292335062
-0.3196096718 -0.0732379630 0.6499767900 4292532441
-0.3196414113 -0.0725229904 0.6500413418 4292664027
-0.3201119602 -0.0719064474 0.6509982944 4292729820
-0.3201431334 -0.0711900741 0.6510617137 4292729820
-0.3201740086 -0.0704734921 0.6511244774 4292795613
-0.3206438124 -0.0698523968 0.6520798802 4292795613
-0.3206741214 -0.0691344216 0.6521415114 4292730333
-0.3207041025 -0.0684162378 0.6522024870 4292861919
-0.3207337856 -0.0676978603 0.6522628665 4292598747
-0.3207631409 -0.0669792816 0.6523225904 4292664540
-0.3207922280 -0.0662605092 0.6523817182 4292730333
-0.3212604523 -0.0656313300 0.6533339620 4292796126
-0.3208494186 -0.0648223832 0.6524980664 4292861919
-0.3208775520 -0.0641030371 0.6525552869 4292927712
-0.3209053874 -0.0633834973 0.6526118517 4293059811
-0.3204932809 -0.0625779256 0.6517737508 4293257190
-0.3200807869 -0.0617741533 0.6509348750 4293190884
-0.3201076090 -0.0610560328 0.6509894729 4293322470
-0.2927898169 -0.1653781682 0.5967823863 4293125089
-0.2924306095 -0.1645130217 0.5960502028 4292796124
-0.2916433215 -0.1634096503 0.5944455266 4292532693
-0.2908554375 -0.1623094976 0.5928395391 4292335314
-0.2900668979 -0.1612125784 0.5912323594 4292727486
-0.2892777622 -0.1601188779 0.5896238685 4292530107
-0.2880599797 -0.1587924510 0.5871416926 4292594619
-0.2868413925 -0.1574711204 0.5846579075 4292528826
-0.2860502005 -0.1563889533 0.5830452442 4292528314
-0.2852584124 -0.1553100497 0.5814313889 4292462521
-0.2844659984 -0.1542344093 0.5798162222 4292528829
-0.2836729586 -0.1531620175 0.5781998038 4292660415
-0.2833079398 -0.1523233354 0.5774558187 4292660161
-0.2825137973 -0.1512565613 0.5758371353 4292660161
-0.2821478546 -0.1504216641 0.5750912428 4292726208
-0.2817814648 -0.1495881975 0.5743444562 4292857794
-0.2814146876 -0.1487561762 0.5735968947 4292922815
-0.2810474932 -0.1479256004 0.5728484392 4292857022
-0.2806798816 -0.1470964700 0.5720991492 4292857022
-0.2803118527 -0.1462687999 0.5713490248 4292988608
-0.2799434364 -0.1454425752 0.5705980659 4292858312
-0.2800040245 -0.1448399425 0.5707215667 4292792519
-0.2800644040 -0.1442369372 0.5708446503 4292857540
-0.2801245749 -0.1436335295 0.5709672570 4292791747
-0.2801845074 -0.1430297345 0.5710894465 4292857281
-0.2806740403 -0.1426440030 0.5720872283 4292923074
-0.2807335854 -0.1420385092 0.5722086430 4292922814
-0.2807929218 -0.1414326280 0.5723295808 4292857021
-0.2808520496 -0.1408263743 0.5724500418 4292791480
-0.2813411057 -0.1404344589 0.5734468699 4292988859
-0.2813998461 -0.1398265064 0.5735666156 4292923577
-0.2818887234 -0.1394310445 0.5745630860 4292857784
-0.2823775411 -0.1390333474 0.5755594373 4292726457
-0.2828662992 -0.1386334002 0.5765556693 4292594871
-0.2829243839 -0.1380211413 0.5766740441 4292529080
-0.2834129632 -0.1376176476 0.5776698589 4292660666
-0.2834706604 -0.1370037049 0.5777874589 4292791991
-0.2839590311 -0.1365966648 0.5787828565 4292726198
-0.2844473124 -0.1361873895 0.5797781348 4292725685
-0.2845044732 -0.1355704516 0.5798946619 4292594099
-0.2849925756 -0.1351576149 0.5808895230 4292462513
-0.2850493491 -0.1345390081 0.5810052752 4292330927
-0.2855372131 -0.1341226399 0.5819996595 4292396204
-0.2855935991 -0.1335023493 0.5821145773 4292330411
-0.2860812545 -0.1330824196 0.5831085443 4292396203
-0.2865688205 -0.1326602548 0.5841023326 4292330410
-0.2870563269 -0.1322358549 0.5850960016 4292461483
-0.2875437438 -0.1318092048 0.5860894918 4292395690
-0.2880311012 -0.1313803196 0.5870828629 4292132772
-0.2880864739 -0.1307531446 0.5871956944 4291935393
-0.2885735929 -0.1303207129 0.5881885886 4291803807
-0.2890606225 -0.1298860461 0.5891813040 4291672221
-0.2895475626 -0.1294491291 0.5901738405 4291474842
-0.2900344431 -0.1290099621 0.5911661983 4291409049
-0.2909535468 -0.1287598759 0.5930395722 4291409049
-0.2914403379 -0.1283152848 0.5940317512 4291343256
-0.2919270098 -0.1278684586 0.5950237513 4291539863
-0.2924136221 -0.1274193823 0.5960155725 4291539863
-0.2937654257 -0.1273431480 0.5987709165 4291473811
-0.2942520082 -0.1268876940 0.5997626781 4291144846
-0.2951712906 -0.1266156435 0.6016364098 4291144586
-0.2956577539 -0.1261547655 0.6026279926 4290684035
-0.2965770662 -0.1258753836 0.6045017838 4290551931
-0.2974964678 -0.1255918741 0.6063757539 4290486138
-0.2984158993 -0.1253042072 0.6082497835 4290617211
-0.2989021838 -0.1248314977 0.6092410088 4290551418
-0.2998216450 -0.1245364994 0.6111150980 4290551418
-0.3003078103 -0.1240583360 0.6121059656 4290551418
-0.3012272716 -0.1237559989 0.6139801145 4290617472
-0.3017132878 -0.1232723966 0.6149707437 4290683265
-0.3026327491 -0.1229627132 0.6168448329 4290354298
-0.3031186163 -0.1224736646 0.6178351641 4289893747
-0.3040380776 -0.1221566275 0.6197093129 4289565552
-0.3045237958 -0.1216621324 0.6206992865 4289433966
-0.3050093651 -0.1211653873 0.6216890216 4289105001
-0.3054948449 -0.1206663921 0.6226785183 4288907622
-0.3064141870 -0.1203356087 0.6245523691 4288709991
-0.3068994582 -0.1198311672 0.6255415082 4288381026
-0.3078188002 -0.1194930151 0.6274153590 4287920476
-0.3087381124 -0.1191507131 0.6292892098 4287328339
-0.3092231750 -0.1186376214 0.6302778125 4286801743
-0.3097080886 -0.1181222796 0.6312662363 4286538571
-0.3101928532 -0.1176046953 0.6322543025 4286406988
-0.3106774986 -0.1170848608 0.6332421303 4286078023
-0.3107274175 -0.1163999885 0.6333439350 4285290826
-0.3112117350 -0.1158766225 0.6343310475 4284961861
-0.3112611771 -0.1151901335 0.6344318390 4284501568
-0.3117451072 -0.1146632358 0.6354182363 4284172603
-0.3117940724 -0.1139751300 0.6355180144 4284041530
-0.3122776747 -0.1134447083 0.6365036964 4284041530
-0.3127611279 -0.1129120439 0.6374890804 4284107325
-0.3132444322 -0.1123771295 0.6384742260 4283975739
-0.3137275875 -0.1118399799 0.6394590139 4283975487
-0.3137753904 -0.1111464351 0.6395564675 4283843901
-0.3142581880 -0.1106057614 0.6405405402 4283581759
-0.3147408366 -0.1100628525 0.6415242553 4283647552
-0.3147879243 -0.1093664318 0.6416202784 4283713091
-0.3148347139 -0.1086697057 0.6417156458 4283713091
-0.3148812354 -0.1079726666 0.6418104768 4283779138
-0.3144918978 -0.1071269438 0.6410169005 4283910724
-0.3145377934 -0.1064302549 0.6411104202 4284042310
-0.3145833910 -0.1057332605 0.6412034035 4283910724
-0.3146287203 -0.1050359681 0.6412957311 4284042310
-0.3151095808 -0.1044828817 0.6422758698 4284042310
-0.3151543736 -0.1037840247 0.6423671842 4284239689
-0.3151988983 -0.1030848697 0.6424579024 4284437068
-0.3152431250 -0.1023854166 0.6425480843 4284437068
-0.3152870536 -0.1016856655 0.6426376104 4284568654
-0.3153306842 -0.1009856313 0.6427266002 4284568654
-0.3158102632 -0.1004240066 0.6437040567 4284700240
-0.3158533871 -0.0997224227 0.6437919736 4285094744
-0.3158962131 -0.0990205556 0.6438792944 4285357916
-0.3159387708 -0.0983183980 0.6439659595 4285292893
-0.3159810305 -0.0976159573 0.6440520883 4285556065
-0.3160229921 -0.0969132408 0.6441376209 4285885030
-0.3160646558 -0.0962102413 0.6442225575 4286345581
-0.3161060214 -0.0955069661 0.6443068981 4286412146
-0.3161471188 -0.0948034152 0.6443906426 4286741111
-0.3166246414 -0.0942295566 0.6453639269 4286873468
-0.3166651726 -0.0935244933 0.6454465985 4287465605
-0.3171422780 -0.0929471776 0.6464190483 4287531398
-0.3167454004 -0.0921135470 0.6456101537 4287991949
-0.3167850673 -0.0914076716 0.6456909776 4288255121
-0.3168244660 -0.0907015353 0.6457712650 4288715672
-0.3168635368 -0.0899951383 0.6458508968 4288913310
-0.3169023097 -0.0892884806 0.6459299326 4289308068
-0.3169407845 -0.0885815620 0.6460083723 4289374377
-0.3169789910 -0.0878743902 0.6460862160 4289703342
-0.3170168698 -0.0871669576 0.6461634636 4289900721
-0.3170544803 -0.0864592791 0.6462401152 4289966514
-0.3170917630 -0.0857513398 0.6463161111 4290427065
-0.3175661862 -0.0851604640 0.6472830772 4290690237
-0.3176029325 -0.0844510570 0.6473580003 4290821823
-0.3176393807 -0.0837414041 0.6474323273 4291216581
-0.3176755309 -0.0830315128 0.6475059986 4291610823
-0.3177114129 -0.0823213756 0.6475790739 4291676616
-0.3177469373 -0.0816110000 0.6476515532 4291939788
-0.3173444867 -0.0807889551 0.6468312144 4292137167
-0.3173793852 -0.0800790861 0.6469023824 4292006099
-0.3174139857 -0.0793689862 0.6469728947 4292269271
-0.3178861439 -0.0787671432 0.6479352713 4292335577
-0.3183581233 -0.0781631172 0.6488972306 4292269784
-0.3183919191 -0.0774503648 0.6489661336 4292401370
-0.3184253871 -0.0767373890 0.6490343809 4292598749
-0.3184585869 -0.0760241896 0.6491020322 4292598749
-0.3180533648 -0.0752071738 0.6482761502 4292532956
-0.3180859089 -0.0744945109 0.6483424306 4292533215
-0.3181181550 -0.0737816319 0.6484081149 4292664801
-0.3181500733 -0.0730685368 0.6484732032 4292730335
-0.3181816936 -0.0723552331 0.6485376954 4292730335
-0.3186513484 -0.0717403889 0.6494948864 4292729822
-0.3186824024 -0.0710256770 0.6495582461 4292729822
-0.3187131584 -0.0703107566 0.6496208906 4292927201
-0.3191820383 -0.0696913600 0.6505766511 4293058787
-0.3192122281 -0.0689750463 0.6506381631 4293059298
-0.3192420900 -0.0682585314 0.6506990790 4293256677
-0.3192716837 -0.0675418079 0.6507593393 4292861919
-0.3193009496 -0.0668248981 0.6508190036 4292927712
-0.3193298876 -0.0661077872 0.6508780122 4293125091
-0.3193585575 -0.0653904825 0.6509364247 4293256677
-0.3193868995 -0.0646729842 0.6509941816 4293322470
-0.2911200523 -0.1674512625 0.5947253108 4293517790
-0.2907626629 -0.1665857136 0.5939951539 4293254618
-0.2899783850 -0.1654781997 0.5923930407 4292990925
-0.2891935110 -0.1643738896 0.5907896161 4292661960
-0.2884080112 -0.1632727832 0.5891848803 4292595136
-0.2876218557 -0.1621749103 0.5875788927 4292595136
-0.2868351042 -0.1610802412 0.5859716535 4292726206
-0.2860477269 -0.1599888057 0.5843631625 4292660413
-0.2852597535 -0.1589005888 0.5827533603 4292660413
-0.2844711542 -0.1578156054 0.5811423063 4292726206
-0.2836819291 -0.1567338854 0.5795300603 4292792001
-0.2824647427 -0.1554202586 0.5770435333 4292923587
-0.2816742063 -0.1543459296 0.5754284859 4292988867
-0.2813105881 -0.1535081714 0.5746856332 4292923074
-0.2809465230 -0.1526718140 0.5739419460 4292923072
-0.2805820704 -0.1518369019 0.5731974244 4292857279
-0.2802172005 -0.1510034204 0.5724520087 4293054913
-0.2794240117 -0.1499417424 0.5708315969 4293120706
-0.2794862092 -0.1493407488 0.5709586740 4293120706
-0.2795481980 -0.1487393528 0.5710852742 4293120706
-0.2796099484 -0.1481375545 0.5712114573 4293185986
-0.2792432010 -0.1473094225 0.5704622269 4293185986
-0.2788760364 -0.1464827508 0.5697121620 4293185984
-0.2789369524 -0.1458816081 0.5698366165 4293251777
-0.2785690427 -0.1450569034 0.5690850616 4293186499
-0.2790580690 -0.1446781456 0.5700840354 4293186499
-0.2791182995 -0.1440758407 0.5702071190 4293120704
-0.2791783214 -0.1434731334 0.5703296661 4293054911
-0.2792380750 -0.1428700387 0.5704517961 4292989118
-0.2792976499 -0.1422665566 0.5705734491 4292923325
-0.2797860801 -0.1418803036 0.5715712905 4292923325
-0.2798452675 -0.1412751228 0.5716921687 4292989118
-0.2803335190 -0.1408853084 0.5726896524 4292989118
-0.2803923488 -0.1402784437 0.5728098154 4292989118
-0.2808804214 -0.1398850828 0.5738068819 4293054909
-0.2809388638 -0.1392765194 0.5739263296 4292989116
-0.2814267576 -0.1388796121 0.5749229789 4292857530
-0.2819145620 -0.1384804547 0.5759195685 4292857530
-0.2824023366 -0.1380790621 0.5769160390 4292923323
-0.2824601233 -0.1374661922 0.5770340562 4292923323
-0.2829476893 -0.1370612383 0.5780301094 4292987576
-0.2830051184 -0.1364466846 0.5781474113 4292855990
-0.2834924757 -0.1360381842 0.5791429877 4292724658
-0.2839797735 -0.1356274486 0.5801385045 4292593072
-0.2844670117 -0.1352144629 0.5811338425 4292461484
-0.2845237255 -0.1345956177 0.5812497735 4292329898
-0.2850107253 -0.1341790855 0.5822446942 4292329897
-0.2854976952 -0.1337603182 0.5832394361 4292461483
-0.2855538726 -0.1331384927 0.5833542347 4292330151
-0.2860405743 -0.1327161640 0.5843484998 4292132772
-0.2865272462 -0.1322916150 0.5853427052 4292132770
-0.2870137990 -0.1318648010 0.5863367319 4292132770
-0.2875003219 -0.1314357519 0.5873305798 4291935389
-0.2879867256 -0.1310044527 0.5883243084 4291869596
-0.2884730697 -0.1305709183 0.5893178582 4291738010
-0.2889593542 -0.1301351339 0.5903112292 4291343252
-0.2894455194 -0.1296971142 0.5913044214 4291277461
-0.2899316251 -0.1292568445 0.5922974944 4291474840
-0.2908491790 -0.1290057302 0.5941719413 4291671702
-0.2913351953 -0.1285600364 0.5951647758 4291605909
-0.2926844954 -0.1284911186 0.5979212523 4291474323
-0.2931704819 -0.1280390322 0.5989140868 4291540116
-0.2936563790 -0.1275847107 0.5999067426 4291342738
-0.2945741117 -0.1273148209 0.6017815471 4290882187
-0.2954919040 -0.1270407736 0.6036565304 4290816394
-0.2959776819 -0.1265778244 0.6046488881 4290816394
-0.2968955040 -0.1262964457 0.6065239310 4290684548
-0.2978134155 -0.1260109395 0.6083990335 4290487169
-0.2982990444 -0.1255393326 0.6093911529 4290618242
-0.2992169559 -0.1252464801 0.6112663150 4290552449
-0.2997024357 -0.1247694343 0.6122581363 4290289536
-0.3006203771 -0.1244692355 0.6141333580 4290092157
-0.3011057079 -0.1239867434 0.6151248813 4289500282
-0.3020236492 -0.1236791909 0.6170001626 4289368696
-0.3025088608 -0.1231912524 0.6179913282 4289039731
-0.3029939532 -0.1227010638 0.6189823151 4288710766
-0.3039118350 -0.1223829538 0.6208574772 4288381803
-0.3043967783 -0.1218873113 0.6218481064 4287855459
-0.3048815727 -0.1213894263 0.6228385568 4287198046
-0.3053662479 -0.1208892837 0.6238287091 4286869081
-0.3058508337 -0.1203868985 0.6248185635 4286540123
-0.3067685366 -0.1200518236 0.6266934276 4286013779
-0.3076862991 -0.1197125912 0.6285682321 4285356366
-0.3081706166 -0.1192015484 0.6295576692 4285158987
-0.3086548150 -0.1186882555 0.6305468082 4285158989
-0.3091388643 -0.1181727126 0.6315357089 4285158989
-0.3096227944 -0.1176549196 0.6325243115 4285093709
-0.3096728921 -0.1169710606 0.6326266527 4285093709
-0.3101564646 -0.1164497286 0.6336145401 4284633932
-0.3102060854 -0.1157642454 0.6337158680 4284502346
-0.3106893301 -0.1152393892 0.6347030997 4284436553
-0.3107384443 -0.1145522892 0.6348034143 4284502346
-0.3112213314 -0.1140239015 0.6357899308 4284502346
-0.3112699389 -0.1133351922 0.6358892322 4284436553
-0.3117524981 -0.1128032804 0.6368750334 4284436553
-0.3118006289 -0.1121129692 0.6369733810 4284568139
-0.3122828007 -0.1115775257 0.6379584074 4284765004
-0.3123304248 -0.1108856201 0.6380556822 4284699211
-0.3132466972 -0.1104999185 0.6399275661 4284633418
-0.3132939041 -0.1098054573 0.6400239468 4284699211
-0.3133408129 -0.1091106832 0.6401198506 4284699211
-0.3133874536 -0.1084155962 0.6402150989 4284765004
-0.3134337962 -0.1077201962 0.6403097510 4284962383
-0.3130450845 -0.1068760529 0.6395156384 4285028176
-0.3130908012 -0.1061810106 0.6396090388 4284963675
-0.3131362200 -0.1054856628 0.6397018433 4285226847
-0.3131813705 -0.1047900170 0.6397941113 4285556325
-0.3132262230 -0.1040940657 0.6398857236 4285753704
-0.3137059212 -0.1035414264 0.6408656240 4285951083
-0.3137502670 -0.1028439179 0.6409562230 4286477427
-0.3137943149 -0.1021461114 0.6410462260 4287069564
-0.3138380945 -0.1014480144 0.6411356926 4287398529
-0.3143169284 -0.1008893624 0.6421138644 4287530115
-0.3143601716 -0.1001897082 0.6422022581 4287990666
-0.3144031465 -0.0994897708 0.6422899961 4288385683
-0.3144458234 -0.0987895504 0.6423771977 4288583062
-0.3144882023 -0.0980890468 0.6424638033 4288649625
-0.3145302832 -0.0973882526 0.6425497532 4289044383
-0.3145720959 -0.0966871902 0.6426351666 4289701543
-0.3146136105 -0.0959858373 0.6427199841 4290030508
-0.3146548271 -0.0952842161 0.6428042054 4290031793
-0.3146957755 -0.0945823118 0.6428878307 4290097586
-0.3151723444 -0.0940101668 0.6438614130 4290360758
-0.3152127266 -0.0933067575 0.6439439058 4290623930
-0.3156888783 -0.0927311480 0.6449166536 4290756030
-0.3152926564 -0.0918991119 0.6441072226 4291019202
-0.3153321743 -0.0911948979 0.6441879272 4291282628
-0.3149352074 -0.0903652534 0.6433769464 4291348421
-0.3149740994 -0.0896614790 0.6434563994 4291480007
-0.3150126636 -0.0889574513 0.6435351968 4291611593
-0.3150509596 -0.0882531628 0.6436134577 4291677386
-0.3150889575 -0.0875486210 0.6436910629 4291677386
-0.3151266575 -0.0868438259 0.6437680721 4291808972
-0.3151640594 -0.0861387700 0.6438444853 4291940558
-0.3152011633 -0.0854334757 0.6439203024 4292006351
-0.3156746030 -0.0848452747 0.6448874474 4292006351
-0.3157111704 -0.0841385052 0.6449621320 4291875283
-0.3157474399 -0.0834314898 0.6450362206 4291941076
-0.3157833815 -0.0827242285 0.6451097131 4291941076
-0.3158190548 -0.0820167288 0.6451826096 4292006869
-0.3158544302 -0.0813089907 0.6452548504 4292138198
-0.3158895075 -0.0806010142 0.6453264952 4292138198
-0.3154873252 -0.0797823071 0.6445048451 4292203991
-0.3155217469 -0.0790748447 0.6445751786 4292269784
-0.3159929216 -0.0784756914 0.6455377936 4292203991
-0.3164639175 -0.0778743476 0.6464999318 4292269784
-0.3164975345 -0.0771642402 0.6465686560 4292269784
-0.3165308535 -0.0764539018 0.6466367245 4292269784
-0.3165638745 -0.0757433400 0.6467041373 4292335577
-0.3165965974 -0.0750325620 0.6467710137 4292401370
-0.3161916733 -0.0742189065 0.6459437609 4292335577
-0.3162237406 -0.0735086724 0.6460093260 4292269784
-0.3162555099 -0.0727982223 0.6460741758 4292401370
-0.3162869811 -0.0720875561 0.6461384892 4292401370
-0.3167556524 -0.0714754090 0.6470959187 4292335577
-0.3172240853 -0.0708610788 0.6480529308 4292335577
-0.3172547519 -0.0701478198 0.6481155157 4292467163
-0.3172850907 -0.0694343597 0.6481775045 4292598749
-0.3177527785 -0.0688154772 0.6491329670 4292730335
-0.3177825511 -0.0681006238 0.6491937637 4292993507
-0.3178120255 -0.0673855692 0.6492539644 4293125093
-0.3178411722 -0.0666703209 0.6493135095 4293256679
-0.2910813689 -0.1711207479 0.5959985852 4293453025
-0.2903014719 -0.1700018495 0.5944017172 4293058009
-0.2895209491 -0.1688861251 0.5928035975 4292663251
-0.2887398005 -0.1677735895 0.5912041664 4292596427
-0.2879580259 -0.1666642427 0.5896034241 4292399048
-0.2871756256 -0.1655580848 0.5880014300 4292463811
-0.2863925993 -0.1644551307 0.5863981247 4292463811
-0.2851832807 -0.1631119400 0.5839220881 4292594622
-0.2843989134 -0.1620163172 0.5823160410 4292528829
-0.2836139202 -0.1609239131 0.5807087421 4292594362
-0.2824023664 -0.1595940143 0.5782280564 4292660155
-0.2816160321 -0.1585089713 0.5766180158 4292857019
-0.2808291018 -0.1574271619 0.5750067234 4292922812
-0.2800415456 -0.1563485861 0.5733941793 4292923072
-0.2805323899 -0.1559844464 0.5743991733 4292923072
-0.2793174684 -0.1546734720 0.5719115734 4292988865
-0.2785282731 -0.1536028087 0.5702956915 4292988865
-0.2781651020 -0.1527697146 0.5695521235 4292988865
-0.2778015137 -0.1519380510 0.5688076615 4292988865
-0.2778643370 -0.1513402909 0.5689362884 4292989120
-0.2775000334 -0.1505105644 0.5681903958 4293054913
-0.2775623500 -0.1499129087 0.5683179498 4293120193
-0.2771973014 -0.1490851492 0.5675705075 4293120193
-0.2772590518 -0.1484876126 0.5676969886 4293185986
-0.2773205936 -0.1478896737 0.5678229928 4293251779
-0.2773819268 -0.1472913474 0.5679485202 4293251779
-0.2774430215 -0.1466926187 0.5680736303 4293251779
-0.2770763040 -0.1458683908 0.5673227906 4293185984
-0.2775645554 -0.1454939842 0.5683224797 4293185984
-0.2776249945 -0.1448940784 0.5684462190 4293251777
-0.2776851952 -0.1442937702 0.5685694814 4293185984
-0.2781731188 -0.1439144909 0.5695685744 4293120445
-0.2782329917 -0.1433124840 0.5696910620 4293054652
-0.2782925963 -0.1427100897 0.5698131919 4292988859
-0.2783519924 -0.1421073228 0.5699347854 4292857273
-0.2788394988 -0.1417218596 0.5709329844 4292791480
-0.2793269455 -0.1413341463 0.5719310641 4292791480
-0.2793858647 -0.1407283545 0.5720516443 4292857273
-0.2798731327 -0.1403370947 0.5730493069 4292791480
-0.2799316645 -0.1397296190 0.5731691718 4292857271
-0.2804187238 -0.1393347979 0.5741664767 4292857271
-0.2809057534 -0.1389377564 0.5751636624 4292725685
-0.2813927233 -0.1385384500 0.5761607885 4292659892
-0.2814505994 -0.1379266530 0.5762792826 4292594101
-0.2819373608 -0.1375238150 0.5772759318 4292462515
-0.2819948792 -0.1369103342 0.5773936510 4292658095
-0.2824814320 -0.1365039200 0.5783899426 4292592302
-0.2825385630 -0.1358887702 0.5785068870 4292460714
-0.2830249071 -0.1354788095 0.5795027018 4292329128
-0.2835111916 -0.1350666136 0.5804983974 4292329383
-0.2839974165 -0.1346521825 0.5814939737 4292329383
-0.2844835818 -0.1342355013 0.5824894309 4292329381
-0.2849696875 -0.1338165700 0.5834847093 4292395174
-0.2854557037 -0.1333954036 0.5844798684 4292197793
-0.2855116725 -0.1327720284 0.5845944285 4292000414
-0.2859974802 -0.1323473006 0.5855891109 4291869082
-0.2869133651 -0.1321184188 0.5874644518 4291803289
-0.2873990834 -0.1316882670 0.5884589553 4291671703
-0.2878847420 -0.1312558800 0.5894533396 4291605910
-0.2883703113 -0.1308212280 0.5904476047 4291605909
-0.2888558209 -0.1303843409 0.5914416909 4291408530
-0.2893412113 -0.1299452186 0.5924355388 4291145875
-0.2898265421 -0.1295038462 0.5934292674 4291211668
-0.2911732495 -0.1294431835 0.5961866975 4291474324
-0.2920893729 -0.1291859597 0.5980625153 4291408531
-0.2925747037 -0.1287350208 0.5990561843 4291276945
-0.2930599153 -0.1282818168 0.6000497341 4291211152
-0.2939760983 -0.1280140728 0.6019256115 4291013519
-0.2948923409 -0.1277422011 0.6038016677 4290684554
-0.2953774333 -0.1272803545 0.6047949195 4290618761
-0.2962937057 -0.1270011365 0.6066710353 4290684554
-0.2972100675 -0.1267177761 0.6085472703 4290684808
-0.2976950109 -0.1262473017 0.6095402241 4290619015
-0.2986113727 -0.1259565800 0.6114165187 4290552709
-0.2995277941 -0.1256617308 0.6132929325 4290223744
-0.3000125885 -0.1251825988 0.6142855883 4289763454
-0.3009290397 -0.1248803884 0.6161620021 4289368696
-0.3014136851 -0.1243958026 0.6171543598 4288645749
-0.3018982112 -0.1239089742 0.6181464195 4288119405
-0.3023826480 -0.1234198883 0.6191383004 4287527268
-0.3028669655 -0.1229285598 0.6201299429 4287000924
-0.3033511639 -0.1224349737 0.6211213470 4286343766
-0.3042674363 -0.1221125945 0.6229974627 4286146387
-0.3047514558 -0.1216135547 0.6239885092 4286015062
-0.3052353561 -0.1211122647 0.6249793768 4285817683
-0.3057191372 -0.1206087247 0.6259698868 4285817430
-0.3066352904 -0.1202725768 0.6278457642 4285620051
-0.3071188927 -0.1197635755 0.6288359761 4285422933
-0.3076023757 -0.1192523316 0.6298258901 4285422933
-0.3080857396 -0.1187388375 0.6308155656 4285291862
-0.3081361651 -0.1180572808 0.6309188604 4285160276
-0.3086191714 -0.1175402403 0.6319078207 4284897106
-0.3086691499 -0.1168570593 0.6320101023 4284765520
-0.3091518283 -0.1163364872 0.6329984069 4284831315
-0.3096343577 -0.1158136651 0.6339864135 4284897108
-0.3096836209 -0.1151275784 0.6340872645 4284963158
-0.3101657927 -0.1146012247 0.6350746155 4285094744
-0.3102145791 -0.1139135212 0.6351744533 4285226330
-0.3102630973 -0.1132254973 0.6352738142 4285160537
-0.3103113174 -0.1125371531 0.6353725195 4285160537
-0.3107927442 -0.1120047048 0.6363582611 4285357916
-0.3108404875 -0.1113147587 0.6364560127 4285358686
-0.3108879328 -0.1106244996 0.6365531683 4285490272
-0.3113687634 -0.1100872457 0.6375376582 4285819239
-0.3118494451 -0.1095477492 0.6385219097 4286279790
-0.3118961751 -0.1088546216 0.6386175752 4286806134
-0.3119426370 -0.1081611812 0.6387127042 4287332478
-0.3115549088 -0.1073179618 0.6379188299 4287661700
-0.3116007149 -0.1066248715 0.6380126476 4287924872
-0.3116462827 -0.1059314758 0.6381058693 4288319890
-0.3112574220 -0.1050911993 0.6373097301 4288780441
-0.3117364943 -0.1045437753 0.6382906437 4289241762
-0.3117811978 -0.1038494706 0.6383821368 4289636520
-0.3118256032 -0.1031548753 0.6384730935 4289899692
-0.3118697107 -0.1024599746 0.6385633945 4290228657
-0.3119135499 -0.1017647907 0.6386531591 4290557622
-0.3119570911 -0.1010693088 0.6387423277 4290820794
-0.3124349117 -0.1005133316 0.6397206187 4290952380
-0.3124779463 -0.0998163074 0.6398087740 4291281345
-0.3125206828 -0.0991189927 0.6398962736 4291413444
-0.3125631511 -0.0984213874 0.6399832368 4291479237
-0.3126053214 -0.0977235064 0.6400695443 4291479239
-0.3130820394 -0.0971602798 0.6410456300 4291610825
-0.3131236732 -0.0964608639 0.6411309242 4291808204
-0.3131650388 -0.0957611725 0.6412156224 4291873997
-0.3132061064 -0.0950611979 0.6412997246 4291742925
-0.3132468760 -0.0943609551 0.6413831711 4291808718
-0.3132873774 -0.0936604366 0.6414660811 4291808718
-0.3133275807 -0.0929596424 0.6415483952 4291808718
-0.3133674562 -0.0922585875 0.6416301131 4291874511
-0.3138423562 -0.0916844234 0.6426024437 4291940304
-0.3138817549 -0.0909818560 0.6426830888 4292006097
-0.3134854138 -0.0901538208 0.6418716311 4292071890
-0.3135241568 -0.0894517004 0.6419509053 4291940817
-0.3135626018 -0.0887493268 0.6420296431 4292006610
-0.3136007488 -0.0880466998 0.6421077251 4292006610
-0.3136385977 -0.0873438120 0.6421852708 4292006610
-0.3136761487 -0.0866406709 0.6422621608 4292072403
-0.3137134314 -0.0859372839 0.6423384547 4292138196
-0.3137503862 -0.0852336437 0.6424141526 4292203989
-0.3142228723 -0.0846471563 0.6433815956 4292203989
-0.3142592907 -0.0839420408 0.6434561610 4292269784
-0.3142954409 -0.0832366869 0.6435301304 4292269784
-0.3143312633 -0.0825310871 0.6436035037 4292269784
-0.3143668175 -0.0818252414 0.6436762810 4292269784
-0.3144020438 -0.0811191648 0.6437484026 4292203991
-0.3144370019 -0.0804128498 0.6438199878 4292203991
-0.3140354753 -0.0795957521 0.6429978609 4292203991
-0.3140697777 -0.0788899511 0.6430680752 4292203991
-0.3141037822 -0.0781839192 0.6431376934 4292269784
-0.3150100708 -0.0776928738 0.6449933648 4292269784
-0.3150435686 -0.0769844279 0.6450619698 4292335577
-0.3150767684 -0.0762757510 0.6451299191 4292401370
-0.3151096702 -0.0755668581 0.6451972723 4292401370
-0.3147057891 -0.0747540593 0.6443703175 4292467163
-0.3147380352 -0.0740457028 0.6444363594 4292532954
-0.3147699833 -0.0733371302 0.6445017457 4292532954
-0.3148016334 -0.0726283491 0.6445665956 4292664542
-0.3148329556 -0.0719193444 0.6446307302 4292730335
-0.3157374263 -0.0714076683 0.6464826465 4292796128
-0.3157682419 -0.0706962869 0.6465457678 4292861921
-0.3157987893 -0.0699846894 0.6466082931 4292927971
-0.3158290088 -0.0692728907 0.6466701627 4293125350
-0.2894085050 -0.1731646806 0.5939239860 4293518561
-0.2882077694 -0.1717890799 0.5914598703 4292990926
-0.2878541052 -0.1709219217 0.5907340646 4292727754
-0.2870759666 -0.1698052883 0.5891371369 4292661191
-0.2862971723 -0.1686918437 0.5875388980 4292463812
-0.2859420180 -0.1678306013 0.5868100524 4292266175
-0.2847377360 -0.1664745212 0.5843386650 4292266175
-0.2839570940 -0.1653706282 0.5827366114 4292462782
-0.2827512622 -0.1640236676 0.5802620053 4292462782
-0.2815445960 -0.1626817286 0.5777856708 4292725693
-0.2820361257 -0.1623226702 0.5787944198 4292791486
-0.2808282375 -0.1609871536 0.5763155818 4292922814
-0.2800444663 -0.1598993093 0.5747071505 4292988607
-0.2796851695 -0.1590564251 0.5739697218 4293054398
-0.2784751058 -0.1577333212 0.5714864731 4293120191
-0.2776895165 -0.1566551626 0.5698742867 4293317056
-0.2773286402 -0.1558192372 0.5691336989 4293448642
-0.2769673765 -0.1549847275 0.5683922768 4293120706
-0.2766056657 -0.1541516334 0.5676500201 4293120706
-0.2762435675 -0.1533199549 0.5669069290 4293120706
-0.2758810520 -0.1524897069 0.5661630034 4293120706
-0.2755181491 -0.1516608894 0.5654181838 4293185986
-0.2755807340 -0.1510669887 0.5655466318 4293120193
-0.2756431103 -0.1504726708 0.5656746626 4293120191
-0.2757052779 -0.1498779655 0.5658022761 4293120191
-0.2757672369 -0.1492828578 0.5659293532 4293251777
-0.2758289576 -0.1486873329 0.5660560727 4293185984
-0.2763168812 -0.1483203173 0.5670573711 4293120191
-0.2763782740 -0.1477230787 0.5671833158 4293120191
-0.2764394283 -0.1471254528 0.5673088431 4293317056
-0.2765003741 -0.1465274245 0.5674339533 4293382849
-0.2761342824 -0.1457038075 0.5666826963 4293382849
-0.2766215801 -0.1453301907 0.5676826835 4293382849
-0.2766818702 -0.1447309852 0.5678063631 4293317054
-0.2771689892 -0.1443538219 0.5688060522 4293251261
-0.2772288918 -0.1437529027 0.5689290166 4293185468
-0.2772886157 -0.1431515962 0.5690515637 4293119675
-0.2773480713 -0.1425499171 0.5691735744 4293053882
-0.2778347731 -0.1421665549 0.5701723695 4292922296
-0.2787489295 -0.1419987381 0.5720484257 4292790710
-0.2783803642 -0.1411762536 0.5712921023 4292724917
-0.2788668275 -0.1407870948 0.5722903609 4292659124
-0.2793532312 -0.1403957009 0.5732886195 4292527538
-0.2794117033 -0.1397879869 0.5734086037 4292593329
-0.2798979282 -0.1393930316 0.5744063854 4292593329
-0.2803840935 -0.1389958262 0.5754041076 4292527279
-0.2808702290 -0.1385963857 0.5764017105 4292461486
-0.2809280455 -0.1379843652 0.5765203834 4292329900
-0.2814139426 -0.1375813782 0.5775175691 4292132521
-0.2814714015 -0.1369676590 0.5776354671 4292329383
-0.2819570899 -0.1365611106 0.5786322355 4292329383
-0.2820141613 -0.1359457076 0.5787492990 4292197797
-0.2824996710 -0.1355356127 0.5797456503 4292132004
-0.2829850912 -0.1351232678 0.5807418823 4292197795
-0.2834704816 -0.1347086728 0.5817379951 4292132002
-0.2839557827 -0.1342918426 0.5827339292 4292066209
-0.2844410241 -0.1338727623 0.5837297440 4292066209
-0.2849261761 -0.1334514320 0.5847253799 4291999901
-0.2854112983 -0.1330278665 0.5857208967 4291736729
-0.2858963013 -0.1326020509 0.5867162943 4291539604
-0.2863812745 -0.1321739852 0.5877115130 4291473811
-0.2872955799 -0.1319409013 0.5895878673 4291342225
-0.2877804637 -0.1315073967 0.5905829668 4291276432
-0.2886948884 -0.1312669963 0.5924594998 4291276431
-0.2891796827 -0.1308280528 0.5934544206 4291210638
-0.2896644175 -0.1303868741 0.5944491625 4291145105
-0.2905789018 -0.1301359534 0.5963258743 4291145105
-0.2914934456 -0.1298809052 0.5982027650 4291276432
-0.2919780910 -0.1294310838 0.5991972685 4291276432
-0.2928927243 -0.1291686893 0.6010742784 4291079312
-0.2933772504 -0.1287134290 0.6020686626 4290881933
-0.2942919433 -0.1284437031 0.6039457321 4290618765
-0.2952066660 -0.1281698346 0.6058229804 4290289800
-0.2956910729 -0.1277059317 0.6068170667 4290092935
-0.2966058552 -0.1274247169 0.6086944342 4289961349
-0.2970901430 -0.1269553602 0.6096882820 4289961350
-0.2980049849 -0.1266667992 0.6115656495 4289895557
-0.2989198565 -0.1263740808 0.6134431362 4289632385
-0.2994039655 -0.1258960813 0.6144366860 4289171834
-0.2998879850 -0.1254158169 0.6154299974 4288579956
-0.3008028567 -0.1251125485 0.6173074841 4288119405
-0.3012867272 -0.1246268228 0.6183004379 4287067750
-0.3017704785 -0.1241388544 0.6192932129 4286672992
-0.3022541404 -0.1236486286 0.6202858090 4286606944
-0.3027376533 -0.1231561527 0.6212781072 4286541151
-0.3027897477 -0.1224869415 0.6213849783 4286146908
-0.3032729924 -0.1219909117 0.6223766804 4286146908
-0.3037560880 -0.1214926317 0.6233680844 4286212449
-0.3042390645 -0.1209921017 0.6243592501 4285949277
-0.3051535487 -0.1206599846 0.6262359619 4285686620
-0.3056363463 -0.1201540008 0.6272267699 4285620827
-0.3061190248 -0.1196457595 0.6282173395 4285555549
-0.3066015840 -0.1191352680 0.6292076111 4285555549
-0.3066520989 -0.1184556931 0.6293113232 4285424479
-0.3071343303 -0.1179416552 0.6303009391 4285424479
-0.3071843684 -0.1172604486 0.6304036379 4285358688
-0.3076662719 -0.1167428792 0.6313925385 4285358688
-0.3077158332 -0.1160600483 0.6314942837 4285489505
-0.3081973791 -0.1155389398 0.6324825287 4285884263
-0.3082464635 -0.1148544997 0.6325832605 4286147949
-0.3087276518 -0.1143298522 0.6335707903 4286542707
-0.3087762594 -0.1136437953 0.6336705089 4286937465
-0.3088245988 -0.1129574180 0.6337696910 4287266430
-0.3093052208 -0.1124279648 0.6347560287 4287530115
-0.3093530536 -0.1117399782 0.6348541975 4287924873
-0.3094006181 -0.1110516787 0.6349517703 4288452246
-0.3098806739 -0.1105174199 0.6359369755 4288781211
-0.3099277616 -0.1098275259 0.6360335946 4289110689
-0.3099745214 -0.1091373116 0.6361295581 4289571240
-0.3100210130 -0.1084467918 0.6362249851 4289966768
-0.3100672364 -0.1077559665 0.6363198757 4290361526
-0.3101131916 -0.1070648283 0.6364141107 4290558905
-0.3101588488 -0.1063733846 0.6365078092 4290756284
-0.3102042079 -0.1056816354 0.6366009116 4291084481
-0.3098160028 -0.1048429534 0.6358042359 4291347653
-0.3098607361 -0.1041515693 0.6358960271 4291479753
-0.3103386164 -0.1036045849 0.6368767619 4291611339
-0.3103828728 -0.1029116362 0.6369675398 4291677132
-0.3104268014 -0.1022183895 0.6370577812 4291611339
-0.3109041154 -0.1016666517 0.6380372643 4291677132
-0.3109475374 -0.1009718478 0.6381264329 4291874511
-0.3109906912 -0.1002767608 0.6382149458 4291742925
-0.3110335767 -0.0995813832 0.6383029819 4291808718
-0.3115100265 -0.0990236402 0.6392807364 4291809231
-0.3111184537 -0.0981897712 0.6384771466 4291809231
-0.3111604750 -0.0974935442 0.6385633945 4291809231
-0.3112021983 -0.0967970341 0.6386489868 4291809231
-0.3116777241 -0.0962342694 0.6396248341 4291874511
-0.3112847805 -0.0954031721 0.6388184428 4291940304
-0.3113256395 -0.0947058275 0.6389023066 4291808718
-0.3118004501 -0.0941393226 0.6398767829 4291940304
-0.3118408024 -0.0934404582 0.6399595141 4292006097
-0.3114464581 -0.0926121622 0.6391502619 4292006097
-0.3119205832 -0.0920419246 0.6401233077 4292071890
-0.3119600415 -0.0913422555 0.6402042508 4292137683
-0.3124337792 -0.0907685682 0.6411764026 4292071892
-0.3124727011 -0.0900673941 0.6412563324 4292137685
-0.3125113547 -0.0893659666 0.6413356066 4292072405
-0.3125496805 -0.0886642709 0.6414143443 4292006612
-0.3121529818 -0.0878399834 0.6406002045 4292072405
-0.3121907115 -0.0871387571 0.6406776309 4292138198
-0.3122281134 -0.0864372775 0.6407544017 4292138198
-0.3122652471 -0.0857355446 0.6408305764 4292138198
-0.3127370179 -0.0851520002 0.6417987943 4292138198
-0.3127736151 -0.0844487920 0.6418738961 4292072405
-0.3128099144 -0.0837453380 0.6419483423 4292401368
-0.3124108016 -0.0829261467 0.6411292553 4292401368
-0.3124464452 -0.0822231919 0.6412024498 4292335575
-0.3124817908 -0.0815199912 0.6412749887 4292335575
-0.3125168681 -0.0808165520 0.6413469315 4292335575
-0.3125516176 -0.0801128820 0.6414182782 4292335575
-0.3125860989 -0.0794089735 0.6414890289 4292335575
-0.3126202524 -0.0787048414 0.6415591240 4292335575
-0.3130895793 -0.0781091079 0.6425222754 4292401370
-0.3131231964 -0.0774035305 0.6425912976 4292335577
-0.3135920763 -0.0768043995 0.6435534954 4292467163
-0.3136251271 -0.0760973915 0.6436213851 4292598749
-0.3136579096 -0.0753901601 0.6436886191 4292664542
-0.3136903942 -0.0746827051 0.6437552571 4292796128
-0.3132868409 -0.0738722906 0.6429271102 4292993507
-0.3133186698 -0.0731653869 0.6429924369 4293059300
-0.3133502007 -0.0724582672 0.6430571079 4293191145
-0.2880877554 -0.1760601103 0.5925641656 4293650146
-0.2877369225 -0.1751881242 0.5918425322 4293189595
-0.2869630158 -0.1740611345 0.5902507305 4293056978
-0.2866112292 -0.1731927395 0.5895271897 4292728013
-0.2858361900 -0.1720711589 0.5879330039 4292595397
-0.2850605249 -0.1709527522 0.5863375068 4292266432
-0.2842842042 -0.1698375046 0.5847406983 4292331448
-0.2839304209 -0.1689772606 0.5840130448 4292265655
-0.2827297151 -0.1676165462 0.5815432668 4292331450
-0.2819515169 -0.1665108353 0.5799426436 4292463036
-0.2811727226 -0.1654083133 0.5783407092 4292528829
-0.2799697220 -0.1640608013 0.5758662820 4292726208
-0.2791895568 -0.1629655808 0.5742616057 4292988867
-0.2779850364 -0.1616271883 0.5717840195 4293054660
-0.2772035301 -0.1605392992 0.5701766014 4293120706
-0.2764214277 -0.1594546288 0.5685678720 4293186499
-0.2769108713 -0.1591041386 0.5695745945 4293186497
-0.2761278450 -0.1580231786 0.5679639578 4293252290
-0.2757684588 -0.1571872830 0.5672247410 4293383365
-0.2749842703 -0.1561118662 0.5656118393 4293251779
-0.2746239603 -0.1552797109 0.5648707151 4293185986
-0.2742632329 -0.1544489563 0.5641286969 4293185986
-0.2739020884 -0.1536196172 0.5633859038 4293317570
-0.2739652991 -0.1530289650 0.5635159016 4293317570
-0.2736034393 -0.1522015482 0.5627715588 4293317570
-0.2736661136 -0.1516110003 0.5629004836 4293317570
-0.2737285793 -0.1510200351 0.5630289912 4293317570
-0.2737908065 -0.1504286677 0.5631570220 4293251777
-0.2738528550 -0.1498368979 0.5632845759 4293185984
-0.2739146650 -0.1492447257 0.5634117126 4293120191
-0.2744016945 -0.1488829851 0.5644134879 4293185984
-0.2744631469 -0.1482890993 0.5645399094 4293120191
-0.2749500275 -0.1479237825 0.5655413866 4293185470
-0.2750111520 -0.1473281831 0.5656670928 4293119677
-0.2750720680 -0.1467321664 0.5657923818 4293119677
-0.2755586505 -0.1463619918 0.5667932630 4293185470
-0.2756192386 -0.1457642764 0.5669178367 4293251263
-0.2756795585 -0.1451661587 0.5670419335 4293251263
-0.2757396996 -0.1445676535 0.5671656132 4292988089
-0.2762258649 -0.1441912800 0.5681656003 4292922296
-0.2762856185 -0.1435910612 0.5682885051 4292922296
-0.2763451636 -0.1429904699 0.5684109926 4292856503
-0.2768310308 -0.1426092237 0.5694103837 4292856244
-0.2768902183 -0.1420069188 0.5695320964 4292790451
-0.2773759067 -0.1416221112 0.5705311298 4292724658
-0.2778615654 -0.1412350535 0.5715300441 4292658865
-0.2783471644 -0.1408457607 0.5725288987 4292527279
-0.2788327038 -0.1404542327 0.5735276341 4292461486
-0.2788911164 -0.1398462951 0.5736477375 4292395693
-0.2793764770 -0.1394511908 0.5746461153 4292329900
-0.2798618078 -0.1390538514 0.5756443143 4292329128
-0.2803470492 -0.1386542767 0.5766424537 4292329128
-0.2804048061 -0.1380420178 0.5767612457 4292329128
-0.2808898687 -0.1376388818 0.5777589679 4292263335
-0.2813748717 -0.1372334957 0.5787565708 4292066979
-0.2814321220 -0.1366182417 0.5788742900 4292198565
-0.2819169164 -0.1362092942 0.5798714161 4292132772
-0.2819737494 -0.1355923563 0.5799883604 4291935393
-0.2824583352 -0.1351798624 0.5809851289 4292000416
-0.2833709121 -0.1349689960 0.5828621387 4291868830
-0.2838554382 -0.1345510781 0.5838587880 4291737242
-0.2843399048 -0.1341308951 0.5848553181 4291737242
-0.2848243117 -0.1337084770 0.5858516693 4291737242
-0.2853086293 -0.1332838088 0.5868478417 4291474070
-0.2857928872 -0.1328569055 0.5878438950 4291408531
-0.2867056429 -0.1326259822 0.5897213221 4291408531
-0.2871898115 -0.1321936399 0.5907172561 4291342225
-0.2881026566 -0.1319554001 0.5925948620 4291276432
-0.2890155613 -0.1317130327 0.5944725871 4291210639
-0.2890707850 -0.1310775727 0.5945861936 4291144846
-0.2899837196 -0.1308288127 0.5964639783 4291144592
-0.2908967137 -0.1305759102 0.5983418822 4291078799
-0.2913806438 -0.1301272362 0.5993373394 4291078799
-0.2922937274 -0.1298670024 0.6012153625 4290947213
-0.2932068408 -0.1296026409 0.6030936241 4290750349
-0.2936906815 -0.1291453093 0.6040887833 4290750349
-0.2941744328 -0.1286857426 0.6050837636 4290421901
-0.2950876057 -0.1284108311 0.6069620848 4289961350
-0.2960008383 -0.1281317621 0.6088405252 4289830025
-0.2969141304 -0.1278485507 0.6107190251 4289501060
-0.2973977029 -0.1273771226 0.6117137074 4289106304
-0.2978811860 -0.1269034296 0.6127082109 4288777339
-0.2987944782 -0.1266096681 0.6145867109 4288317304
-0.2992778420 -0.1261305213 0.6155809164 4287790960
-0.2997610569 -0.1256491244 0.6165748835 4287133288
-0.3002442122 -0.1251654774 0.6175686121 4286672737
-0.3011574447 -0.1248579398 0.6194470525 4286409826
-0.3016404212 -0.1243688315 0.6204405427 4286278240
-0.3016929328 -0.1237009987 0.6205484867 4286409828
-0.3021756113 -0.1232083291 0.6215413213 4286541414
-0.3022276461 -0.1225388572 0.6216483712 4286344550
-0.3027100265 -0.1220426336 0.6226405501 4286344550
-0.3027615845 -0.1213715151 0.6227466464 4286476136
-0.3036743999 -0.1210434362 0.6246241927 4286476136
-0.3041563928 -0.1205404624 0.6256155968 4285950307
-0.3046382964 -0.1200352311 0.6266067624 4286081893
-0.3046890795 -0.1193589270 0.6267112494 4286082407
-0.3051706553 -0.1188501492 0.6277017593 4286279786
-0.3052209616 -0.1181722134 0.6278052926 4286674548
-0.3057022095 -0.1176598892 0.6287951469 4287135099
-0.3057520688 -0.1169803292 0.6288976669 4287595908
-0.3062329590 -0.1164644733 0.6298868060 4287859080
-0.3067137003 -0.1159463599 0.6308757067 4288056972
-0.3067628741 -0.1152638942 0.6309768558 4288583316
-0.3068117797 -0.1145810932 0.6310774088 4289175453
-0.3072919846 -0.1140581593 0.6320651770 4289701797
-0.3073404133 -0.1133737490 0.6321647167 4290031532
-0.3073885441 -0.1126890182 0.6322637796 4290492083
-0.3078682125 -0.1121612787 0.6332503557 4290887100
-0.3079158664 -0.1114749387 0.6333483458 4291281858
-0.3083951473 -0.1109436676 0.6343342662 4291216835
-0.3080103397 -0.1101013198 0.6335427165 4291414214
-0.3084892035 -0.1095674932 0.6345276833 4291480266
-0.3085358143 -0.1088789329 0.6346235275 4291677645
-0.3081499338 -0.1080385372 0.6338298321 4291809231
-0.3081959188 -0.1073503196 0.6339244246 4291809231
-0.3082416058 -0.1066617966 0.6340184212 4291678158
-0.3082870245 -0.1059729680 0.6341118217 4291678158
-0.3083321750 -0.1052838415 0.6342046857 4291875024
-0.3083770275 -0.1045944020 0.6342969537 4291875024
-0.3084216118 -0.1039046720 0.6343886256 4291809231
-0.3088985085 -0.1033594012 0.6353695989 4291743438
-0.3089425862 -0.1026681066 0.6354602575 4291809231
-0.3089863658 -0.1019765139 0.6355503201 4291809231
-0.3094626963 -0.1014264897 0.6365300417 4291875024
-0.3095059693 -0.1007333398 0.6366190910 4292006610
-0.3095489740 -0.1000399068 0.6367074847 4291940817
-0.3095916808 -0.0993461832 0.6367953420 4292006610
-0.3096341193 -0.0986521766 0.6368826032 4292072403
-0.3096762300 -0.0979578868 0.6369692683 4292138196
-0.3097181022 -0.0972633064 0.6370553970 4292138196
-0.3097596467 -0.0965684503 0.6371408701 4292138196
-0.3102342188 -0.0960074067 0.6381170154 4292203989
-0.3098419309 -0.0951779038 0.6373100877 4292335575
-0.3098826408 -0.0944822207 0.6373938322 4292071890
-0.3099230528 -0.0937862620 0.6374769211 4292203476
-0.3103967011 -0.0932202265 0.6384511590 4292203476
-0.3104365766 -0.0925227478 0.6385332346 4292269269
-0.3104761839 -0.0918250084 0.6386146545 4292335062
-0.3105154932 -0.0911269933 0.6386955380 4292400855
-0.3105545342 -0.0904287249 0.6387758255 4292400855
-0.3105932474 -0.0897301883 0.6388554573 4292400855
-0.3110655546 -0.0891557336 0.6398268938 4292401368
-0.3111037314 -0.0884557068 0.6399055123 4292335575
-0.3107077181 -0.0876330286 0.6390908957 4292401368
-0.3107452691 -0.0869334564 0.6391681433 4292532954
-0.3107825518 -0.0862336382 0.6392448545 4292532956
-0.3108195364 -0.0855335742 0.6393209100 4292467163
-0.3112903833 -0.0849517360 0.6402893662 4292467163
-0.3113268316 -0.0842501894 0.6403643489 4292467163
-0.3113629818 -0.0835484043 0.6404387355 4292467161
-0.3109645247 -0.0827308223 0.6396191716 4292467161
-0.3110000491 -0.0820295289 0.6396921873 4292532954
-0.3106008768 -0.0812144056 0.6388711333 4292598747
-0.3106357455 -0.0805136189 0.6389428973 4292730335
-0.3106703162 -0.0798125863 0.6390140057 4292796128
-0.3111391664 -0.0792219713 0.6399783492 4292730592
-0.3111732006 -0.0785195008 0.6400483847 4292796385
-0.3112069368 -0.0778167993 0.6401177645 4292796385
-0.3116751015 -0.0772215724 0.6410806775 4292862178
-0.3117083013 -0.0765174329 0.6411489844 4292993764
-0.3117412031 -0.0758130774 0.6412166357 4293191143
-0.2864157259 -0.1780633032 0.5904739499 4293583324
-0.2860666811 -0.1771910489 0.5897543430 4293254359
-0.2852957845 -0.1760600656 0.5881651044 4292925133
-0.2849457860 -0.1751913726 0.5874435306 4292727754
-0.2841737270 -0.1740657687 0.5858518481 4292529858
-0.2834010422 -0.1729433239 0.5842589140 4292266686
-0.2826277316 -0.1718240380 0.5826646090 4292397243
-0.2822757065 -0.1709634513 0.5819389224 4292463036
-0.2815012336 -0.1698495895 0.5803422928 4292528316
-0.2803040147 -0.1684851497 0.5778740644 4292528316
-0.2795281708 -0.1673785299 0.5762746334 4292594362
-0.2774846852 -0.1655192971 0.5720617175 4292791741
-0.2788195610 -0.1656768918 0.5748137236 4292923072
-0.2771969438 -0.1640777886 0.5714685917 4293054658
-0.2764186263 -0.1629839391 0.5698639750 4293186246
-0.2756397128 -0.1618932784 0.5682581663 4293186246
-0.2748601437 -0.1608058214 0.5666510463 4293120451
-0.2740799785 -0.1597215980 0.5650426149 4293120451
-0.2737222612 -0.1588861495 0.5643051863 4293186499
-0.2733641267 -0.1580521017 0.5635668635 4293120706
-0.2734288573 -0.1574632078 0.5637002587 4293252292
-0.2730700076 -0.1566310674 0.5629604459 4293383878
-0.2727107406 -0.1558003277 0.5622197986 4293383623
-0.2723510563 -0.1549710035 0.5614783168 4293252037
-0.2719909847 -0.1541430950 0.5607359409 4293120451
-0.2720542550 -0.1535557806 0.5608664155 4292988865
-0.2721173167 -0.1529680640 0.5609963536 4293054398
-0.2717562020 -0.1521425843 0.5602518916 4293120191
-0.2718187273 -0.1515549719 0.5603808165 4293120191
-0.2718810439 -0.1509669572 0.5605093241 4293120191
-0.2723673880 -0.1506131291 0.5615119934 4293054398
-0.2724293768 -0.1500233859 0.5616397262 4293054398
-0.2729156017 -0.1496659964 0.5626421571 4292988605
-0.2729772329 -0.1490745395 0.5627692342 4292988605
-0.2734633088 -0.1487135887 0.5637713075 4292922812
-0.2735246420 -0.1481204033 0.5638977289 4292922812
-0.2740105391 -0.1477558911 0.5648995042 4293053884
-0.2740715146 -0.1471609920 0.5650251508 4293053884
-0.2745572925 -0.1467929184 0.5660266280 4292988091
-0.2746179104 -0.1461963058 0.5661516190 4292922298
-0.2746783197 -0.1455992907 0.5662761331 4292856505
-0.2747384906 -0.1450018734 0.5664002299 4292790712
-0.2752238512 -0.1446276158 0.5674008131 4292658611
-0.2752836943 -0.1440284997 0.5675241947 4292658611
-0.2757688761 -0.1436506659 0.5685244203 4292592818
-0.2758283317 -0.1430498511 0.5686470270 4292527025
-0.2758876085 -0.1424486339 0.5687692165 4292461486
-0.2763724923 -0.1420659423 0.5697688460 4292461486
-0.2768573165 -0.1416810006 0.5707683563 4292461486
-0.2773421109 -0.1412938088 0.5717678070 4292395693
-0.2778268456 -0.1409043819 0.5727671385 4292658095
-0.2778853178 -0.1402975172 0.5728877187 4292658095
-0.2783698738 -0.1399045289 0.5738866925 4292592302
-0.2788543999 -0.1395093054 0.5748855472 4292526509
-0.2793388367 -0.1391118169 0.5758842826 4292394921
-0.2798232436 -0.1387120932 0.5768828988 4292263335
-0.2803075910 -0.1383101195 0.5778814554 4292131749
-0.2803651392 -0.1376963258 0.5780000687 4292065956
-0.2808492780 -0.1372907907 0.5789982080 4291935393
-0.2813333571 -0.1368830204 0.5799961686 4291869600
