VERSION 0.7
FIELDS x y z rgba
SIZE 4 4 4 4
TYPE F F F U
COUNT 1 1 1 1
WIDTH 920
HEIGHT 1
VIEWPOINT 0.0 0.0 0.0 1.0 0.0 0.0 0.0
POINTS 920
DATA ascii
-0.2327508181 -0.1404228956 0.4184608459 4287264878
-0.2328117043 -0.1399950087 0.4185703099 4287199085
-0.2328724414 -0.1395667791 0.4186795056 4287066986
-0.2333998233 -0.1394170523 0.4196276963 4287132779
-0.2334603816 -0.1389872879 0.4197365642 4286803814
-0.2335207760 -0.1385572106 0.4198451340 4286409056
-0.2335810214 -0.1381267756 0.4199534655 4286080602
-0.2341083735 -0.1379714161 0.4209015965 4285620051
-0.2346358299 -0.1378140002 0.4218498766 4285290573
-0.2346958369 -0.1373808533 0.4219577909 4284961608
-0.2352233231 -0.1372201741 0.4229061604 4284698436
-0.2348153740 -0.1365135610 0.4221726954 4284632643
-0.2353427857 -0.1363504976 0.4231209159 4284632643
-0.2358702719 -0.1361853778 0.4240692854 4284764229
-0.2363978326 -0.1360181868 0.4250177741 4284764229
-0.2364572436 -0.1355804652 0.4251245856 4284698436
-0.2369848341 -0.1354100108 0.4260731339 4284830535
-0.2370440215 -0.1349707544 0.4261795580 4284896328
-0.2375716418 -0.1347970515 0.4271281660 4285027914
-0.2376306206 -0.1343562752 0.4272342324 4285356879
-0.2381582707 -0.1341792941 0.4281828403 4285751637
-0.2386859655 -0.1340002567 0.4291315973 4285685844
-0.2392137349 -0.1338191479 0.4300804734 4285422672
-0.2402107418 -0.1338974833 0.4318729639 4285291086
-0.2398001999 -0.1331900507 0.4311348796 4285488463
-0.2412668169 -0.1335231513 0.4337716997 4285291084
-0.2408559471 -0.1328150779 0.4330329895 4285225293
-0.2423231453 -0.1331405193 0.4356708527 4285159500
-0.2419119328 -0.1324317902 0.4349315464 4285027914
-0.2419701666 -0.1319807619 0.4350362420 4285093707
-0.2429681420 -0.1320402026 0.4368304908 4285159498
-0.2430262566 -0.1315867603 0.4369349778 4285027912
-0.2435543835 -0.1313866377 0.4378844798 4285027655
-0.2436122596 -0.1309316903 0.4379885495 4284961862
-0.2436699718 -0.1304764003 0.4380922914 4284764229
-0.2437275052 -0.1300207824 0.4381957352 4284566850
-0.2437848598 -0.1295648515 0.4382988513 4284632897
-0.2433713078 -0.1288593560 0.4375553429 4284764483
-0.2434282005 -0.1284036636 0.4376576245 4284961862
-0.2434849292 -0.1279476583 0.4377596080 4285356620
-0.2435414791 -0.1274913251 0.4378612936 4285093709
-0.2435978502 -0.1270346791 0.4379626513 4284698951
-0.2436540425 -0.1265777200 0.4380636811 4284369986
-0.2441814542 -0.1263643950 0.4390119016 4284106814
-0.2442374080 -0.1259059161 0.4391125143 4284041021
-0.2442931831 -0.1254471242 0.4392127693 4284238400
-0.2443487793 -0.1249880120 0.4393127263 4284501318
-0.2448760122 -0.1247689947 0.4402606487 4284567111
-0.2449313551 -0.1243083701 0.4403601587 4284172353
-0.2454585582 -0.1240860671 0.4413079917 4283843388
-0.2459857911 -0.1238616779 0.4422558844 4283251251
-0.2460408062 -0.1233983412 0.4423547983 4283646009
-0.2465679795 -0.1231706589 0.4433026314 4284501318
-0.2470951974 -0.1229408905 0.4442504942 4284435525
-0.2480950058 -0.1229432002 0.4460480213 4283974975
-0.2490950376 -0.1229416355 0.4478459656 4283974975
-0.2500953078 -0.1229361966 0.4496443570 4283778109
-0.2515686452 -0.1231583729 0.4522933066 4283778109
-0.2530424595 -0.1233748868 0.4549430311 4283778108
-0.2549897730 -0.1238154322 0.4584440589 4283909694
-0.2574108839 -0.1244773269 0.4627969563 4283975488
-0.2593595386 -0.1249020398 0.4663004577 4284107074
-0.2810750604 -0.1314331144 0.5053426027 4284568400
-0.2887794673 -0.1338831037 0.5191943049 4284699988
-0.2874165773 -0.1326776445 0.5167440176 4284765781
-0.2898479402 -0.1332215518 0.5211153030 4284568400
-0.2922800779 -0.1337561011 0.5254880190 4284699986
-0.2951875329 -0.1344975233 0.5307152867 4284634193
-0.2966718972 -0.1345817745 0.5333840251 4284371021
-0.2976818383 -0.1344458312 0.5351998210 4284107849
-0.2986919284 -0.1343059242 0.5370158553 4284107849
-0.2997021973 -0.1341620535 0.5388321877 4284173642
-0.3012479842 -0.1336516142 0.5416113734 4284963160
-0.3013080955 -0.1330769509 0.5417194366 4285094746
-0.3018433154 -0.1327109337 0.5426816940 4284766551
-0.3014276028 -0.1319265813 0.5419343114 4284371793
-0.2289699018 -0.1910737157 0.4124858975 4279530172
-0.2294971645 -0.1910547763 0.4134357572 4279858363
-0.2309249043 -0.1917815804 0.4160078168 4279397812
-0.2319031656 -0.1921302676 0.4177701175 4279726525
-0.2328819036 -0.1924754530 0.4195333421 4279331767
-0.2329599559 -0.1920741051 0.4196739197 4278474132
-0.2321363837 -0.1909308732 0.4181902707 4278210189
-0.2326648086 -0.1909002215 0.4191422164 4280501357
-0.2318402529 -0.1897600740 0.4176568091 4280698736
-0.2310149968 -0.1886226386 0.4161701202 4281288547
-0.2301890403 -0.1874879301 0.4146821499 4281683305
-0.2302653491 -0.1870896220 0.4148196578 4282141536
-0.2294382602 -0.1859588027 0.4133296609 4282273122
-0.2290622741 -0.1851959974 0.4126523137 4282927435
-0.2286858559 -0.1844343692 0.4119741917 4282730056
-0.2283090353 -0.1836739033 0.4112953544 4283188028
-0.2283840477 -0.1832775474 0.4114305079 4283385407
-0.2280065566 -0.1825186610 0.4107504785 4284370760
-0.2280812114 -0.1821223199 0.4108849168 4284962897
-0.2277030498 -0.1813650131 0.4102036655 4285422674
-0.2273244709 -0.1806088984 0.4095216990 4285554260
-0.2269454896 -0.1798539609 0.4088389575 4286144085
-0.2265661061 -0.1791002303 0.4081555009 4286275671
-0.2266395837 -0.1787050962 0.4082878828 4286406744
-0.2267129570 -0.1783095896 0.4084200263 4286406744
-0.2267861962 -0.1779136807 0.4085519910 4286078541
-0.2264056206 -0.1771623641 0.4078663886 4285683783
-0.2264784873 -0.1767664999 0.4079976678 4286209876
-0.2265512496 -0.1763702482 0.4081287384 4288249459
-0.2266238928 -0.1759736091 0.4082596004 4288117616
-0.2266964167 -0.1755765975 0.4083902538 4286078033
-0.2263143659 -0.1748281419 0.4077019989 4286209876
-0.2268411070 -0.1747814268 0.4086509049 4289565319
-0.2269132733 -0.1743832678 0.4087809324 4291802283
-0.2274402082 -0.1743333936 0.4097301662 4289565321
-0.2275122851 -0.1739336699 0.4098600149 4286210648
-0.2280393988 -0.1738806516 0.4108096361 4285355339
-0.2276560664 -0.1731331050 0.4101190567 4286144855
-0.2281832397 -0.1730777174 0.4110687375 4286934371
-0.2282549739 -0.1726756841 0.4111979902 4287394922
-0.2283265889 -0.1722732633 0.4113269746 4287855473
-0.2283980846 -0.1718704700 0.4114557803 4288513662
-0.2280134261 -0.1711250544 0.4107628167 4289303178
-0.2280845195 -0.1707223058 0.4108909070 4289172364
-0.2281555086 -0.1703191847 0.4110187888 4288317055
-0.2282263637 -0.1699156910 0.4111464322 4287198572
-0.2282970995 -0.1695118248 0.4112738371 4286672228
-0.2283677012 -0.1691075712 0.4114010334 4286540894
-0.2284381837 -0.1687029600 0.4115280211 4286672480
-0.2285085320 -0.1682979614 0.4116547704 4286803295
-0.2285787612 -0.1678925902 0.4117812812 4286145365
-0.2286488712 -0.1674868464 0.4119075835 4285947729
-0.2287188470 -0.1670807302 0.4120336473 4286013522
-0.2287887037 -0.1666742414 0.4121594727 4286079315
-0.2288584262 -0.1662673801 0.4122850597 4285947729
-0.2284701616 -0.1655284315 0.4115856290 4286275922
-0.2285394818 -0.1651216447 0.4117105007 4286144336
-0.2286086828 -0.1647144854 0.4118351638 4285947207
-0.2286777496 -0.1643069535 0.4119595885 4286605137
-0.2287466973 -0.1638990492 0.4120838046 4287396724
-0.2288154960 -0.1634907871 0.4122077525 4287462517
-0.2288841754 -0.1630821526 0.4123314619 4288913575
-0.2289527208 -0.1626731604 0.4124549627 4291479502
-0.2290211469 -0.1622637808 0.4125782251 4292464853
-0.2290894240 -0.1618540436 0.4127012193 4287859343
-0.2291575819 -0.1614439487 0.4128240049 4284702049
-0.2292255908 -0.1610334814 0.4129465520 4285162600
-0.2292934805 -0.1606226563 0.4130688310 4287003773
-0.2289015949 -0.1598903835 0.4123628438 4286609015
-0.2289690822 -0.1594796479 0.4124844372 4285619024
-0.2294963449 -0.1593879610 0.4134342670 4284961094
-0.2295636982 -0.1589756757 0.4135556221 4284960060
-0.2296309024 -0.1585630327 0.4136767089 4284499509
-0.2296979874 -0.1581500173 0.4137975574 4284499503
-0.2293044776 -0.1574205309 0.4130886495 4284170538
-0.2293711603 -0.1570076197 0.4132087529 4284432944
-0.2298984081 -0.1569088101 0.4141586125 4284564530
-0.2299649417 -0.1564943492 0.4142784476 4284564530
-0.2300313413 -0.1560795307 0.4143980742 4284498737
-0.2296364754 -0.1553523988 0.4136867225 4284630323
-0.2292412221 -0.1546265781 0.4129746854 4285222460
-0.2293069363 -0.1542123556 0.4130930603 4285946437
-0.2293725163 -0.1537977755 0.4132111967 4286406988
-0.2294379473 -0.1533828378 0.4133290946 4286933078
-0.2290414721 -0.1526597738 0.4126148224 4288709489
-0.2286445946 -0.1519380212 0.4118998647 4286604113
-0.2287093401 -0.1515236944 0.4120165110 4285288253
-0.2292361259 -0.1514142901 0.4129655063 4285946183
-0.2293007374 -0.1509984285 0.4130818844 4286275148
-0.2298276275 -0.1508858055 0.4140310884 4286341195
-0.2298920751 -0.1504683942 0.4141471982 4285749058
-0.2299563885 -0.1500506401 0.4142630398 4285485634
-0.2295577377 -0.1493314505 0.4135448635 4285419841
-0.2296216339 -0.1489138305 0.4136599898 4284959803
-0.2296853811 -0.1484958678 0.4137748182 4284894010
-0.2292857766 -0.1477790177 0.4130549431 4285552197
-0.2288857847 -0.1470635086 0.4123343527 4286736471
-0.2289488465 -0.1466461867 0.4124479592 4288644470
-0.2291371524 -0.1453921646 0.4127871990 4286802785
-0.2287356704 -0.1446800083 0.4120639265 4286803046
-0.2292619646 -0.1445544511 0.4130120575 4286671460
-0.2297883779 -0.1444268376 0.4139603674 4286474851
-0.2298505455 -0.1440062821 0.4140723646 4286474851
-0.2303770334 -0.1438754350 0.4150208235 4286474847
-0.2299744338 -0.1431641281 0.4142955542 4286672226
-0.2309655845 -0.1433192790 0.4160811007 4286738023
-0.2305625677 -0.1426081210 0.4153550565 4286869609
-0.2315540463 -0.1427583396 0.4171411991 4287132781
-0.2316156924 -0.1423331797 0.4172522426 4287395953
-0.2321423888 -0.1421926320 0.4182011187 4287132781
-0.2322038561 -0.1417659372 0.4183118343 4287461746
-0.2322651744 -0.1413388997 0.4184222817 4288119674
-0.2323263288 -0.1409115195 0.4185324609 4287790709
-0.2323873341 -0.1404838115 0.4186423719 4287198572
-0.2324481905 -0.1400557607 0.4187519848 4287264365
-0.2325088829 -0.1396273822 0.4188613296 4287395951
-0.2325694263 -0.1391986758 0.4189704061 4287330158
-0.2326298207 -0.1387696117 0.4190791845 4286672228
-0.2331563681 -0.1386174709 0.4200277627 4285882712
-0.2332165539 -0.1381868869 0.4201361835 4285487952
-0.2332766056 -0.1377559751 0.4202443659 4285027401
-0.2333364785 -0.1373247355 0.4203522503 4284896069
-0.2338630110 -0.1371669322 0.4213007689 4284698690
-0.2343896031 -0.1370070875 0.4222494066 4284567104
-0.2344492525 -0.1365731210 0.4223568738 4284632897
-0.2345087379 -0.1361388266 0.4224640429 4284698690
-0.2350353450 -0.1359745264 0.4234127104 4284764483
-0.2355620116 -0.1358081549 0.4243614972 4284830276
-0.2356212586 -0.1353711337 0.4244682193 4284830276
-0.2361479700 -0.1352015138 0.4254170656 4284896326
-0.2366747409 -0.1350298226 0.4263660610 4285027912
-0.2367337346 -0.1345900744 0.4264723361 4285093705
-0.2372605354 -0.1344151199 0.4274213612 4285291084
-0.2373193204 -0.1339738518 0.4275272489 4285488463
-0.2373779267 -0.1335322559 0.4276328385 4285422670
-0.2379046977 -0.1333528310 0.4285818040 4285422670
-0.2384315431 -0.1331713349 0.4295308888 4285488463
-0.2384898961 -0.1327270120 0.4296360314 4285356879
-0.2390167415 -0.1325422525 0.4305851161 4285356879
-0.2395436466 -0.1323554218 0.4315343499 4285356879
-0.2400706112 -0.1321665049 0.4324836731 4285159500
-0.2405976355 -0.1319755316 0.4334330857 4284896328
-0.2411247045 -0.1317824572 0.4343826175 4284962121
-0.2421210706 -0.1318428367 0.4361775517 4285093448
-0.2421790361 -0.1313901097 0.4362819791 4284830276
-0.2427062839 -0.1311908066 0.4372317791 4284764483
-0.2427640110 -0.1307365447 0.4373357892 4284698690
-0.2428215742 -0.1302819699 0.4374394715 4284764483
-0.2428789586 -0.1298270673 0.4375428557 4284830276
-0.2429361641 -0.1293718368 0.4376459122 4284830276
-0.2429931909 -0.1289162934 0.4377486706 4284961862
-0.2430500537 -0.1284604371 0.4378511012 4285290827
-0.2435769737 -0.1282518357 0.4388003349 4285290827
-0.2431632578 -0.1275477409 0.4380550385 4284830537
-0.2436900437 -0.1273367405 0.4390040040 4284435779
-0.2437463105 -0.1268787235 0.4391053617 4284172607
-0.2438023984 -0.1264203787 0.4392064214 4284172607
-0.2443290800 -0.1262048930 0.4401552379 4284238400
-0.2443849146 -0.1257450283 0.4402558208 4284501572
-0.2444405854 -0.1252848655 0.4403561056 4284830283
-0.2444960773 -0.1248243749 0.4404560626 4284830283
-0.2450225800 -0.1246031970 0.4414045513 4284435525
-0.2450778037 -0.1241411939 0.4415040612 4284040767
-0.2451328635 -0.1236788854 0.4416032434 4283448630
-0.2456592470 -0.1234532148 0.4425515234 4283580216
-0.2461856604 -0.1232254580 0.4434998333 4284435525
-0.2467121035 -0.1229956076 0.4444482327 4284567111
-0.2472385764 -0.1227636635 0.4453966320 4284106560
-0.2482369989 -0.1227630153 0.4471952915 4284106560
-0.2492356598 -0.1227584854 0.4489943683 4284041027
-0.2507066727 -0.1229816824 0.4516443908 4284041027
-0.2521781325 -0.1231992021 0.4542952180 4284041027
-0.2536500394 -0.1234110519 0.4569467902 4284238406
-0.2555947900 -0.1238461360 0.4604502618 4284304199
-0.2565950751 -0.1238176972 0.4622522593 4284435785
-0.2937833667 -0.1341252625 0.5292463899 4284765781
-0.2952652872 -0.1342113763 0.5319160819 4284568402
-0.2967475653 -0.1342917383 0.5345863700 4284239437
-0.2982302010 -0.1343663186 0.5372573137 4284107851
-0.2978162766 -0.1335842609 0.5365116000 4284371023
-0.2992992103 -0.1336509138 0.5391830802 4284371023
-0.2984103858 -0.1326572746 0.5375819206 4284963160
-0.2998934984 -0.1327168941 0.5402537584 4284897367
-0.3004277647 -0.1323525459 0.5412161946 4284634195
-0.3014366627 -0.1321942210 0.5430337191 4284107851
-0.3010213375 -0.1314101219 0.5422855020 4283844679
-0.2280783802 -0.1911679059 0.4117026627 4279398073
-0.2290537953 -0.1915265024 0.4134633839 4279727038
-0.2300297022 -0.1918816119 0.4152249694 4279595190
-0.2314555496 -0.1926072091 0.4177987576 4279397811
-0.2301847041 -0.1910884380 0.4155047536 4279463613
-0.2316112369 -0.1918085963 0.4180797935 4279200441
-0.2312390208 -0.1910370141 0.4174079299 4278211730
-0.2304163873 -0.1898957044 0.4159229696 4278209674
-0.2300432026 -0.1891272068 0.4152493477 4281418852
-0.2301199585 -0.1887291968 0.4153878987 4281747817
-0.2292956263 -0.1875936985 0.4138998985 4282206563
-0.2284705788 -0.1864609122 0.4124106169 4283127665
-0.2276448309 -0.1853308529 0.4109200537 4283653748
-0.2281711698 -0.1853021681 0.4118701518 4283127404
-0.2277955413 -0.1845406592 0.4111920893 4283124555
-0.2269682586 -0.1834156960 0.4096987844 4282861383
-0.2274944037 -0.1833850443 0.4106485248 4283253562
-0.2275692225 -0.1829893589 0.4107835591 4283450941
-0.2271922380 -0.1822309941 0.4101030827 4284370245
-0.2272666842 -0.1818353236 0.4102374613 4284962382
-0.2268890291 -0.1810785532 0.4095557630 4285487952
-0.2260588557 -0.1799630374 0.4080572426 4285685331
-0.2261325121 -0.1795685589 0.4081901908 4286012497
-0.2262060493 -0.1791736931 0.4083229303 4285815118
-0.2258269191 -0.1784209013 0.4076385498 4285880654
-0.2259000838 -0.1780260652 0.4077706337 4286209619
-0.2259731293 -0.1776308417 0.4079024792 4286210899
-0.2260460556 -0.1772352308 0.4080341160 4286210899
-0.2261188775 -0.1768392473 0.4081655741 4286209619
-0.2261915803 -0.1764428765 0.4082967937 4286801756
-0.2262641639 -0.1760461181 0.4084278345 4287196514
-0.2258830518 -0.1752969921 0.4077398777 4286735963
-0.2264089882 -0.1752514690 0.4086892307 4286012497
-0.2264812142 -0.1748535782 0.4088196158 4287262564
-0.2270073444 -0.1748049110 0.4097693264 4290223249
-0.2270794809 -0.1744054556 0.4098995626 4291670695
-0.2271514982 -0.1740056276 0.4100295603 4289039747
-0.2272233963 -0.1736054122 0.4101593494 4285750097
-0.2277497798 -0.1735512167 0.4111094773 4285815890
-0.2278215736 -0.1731494367 0.4112391174 4286934371
-0.2278932631 -0.1727472842 0.4113684893 4286934371
-0.2279648185 -0.1723447442 0.4114976525 4286736992
-0.2280362546 -0.1719418317 0.4116266072 4287987059
-0.2276522666 -0.1711961478 0.4109334946 4288710782
-0.2277233154 -0.1707932800 0.4110617340 4288513662
-0.2277942449 -0.1703900397 0.4111897647 4287658353
-0.2278650403 -0.1699864268 0.4113175571 4286803298
-0.2279357165 -0.1695824265 0.4114451408 4286605919
-0.2280062735 -0.1691780537 0.4115725160 4286474331
-0.2280767113 -0.1687733084 0.4116996229 4286474331
-0.2281470150 -0.1683681905 0.4118265510 4286671452
-0.2282171845 -0.1679626852 0.4119532108 4286079315
-0.2282872349 -0.1675568223 0.4120796621 4285947727
-0.2283571661 -0.1671505719 0.4122058749 4285816141
-0.2284269631 -0.1667439640 0.4123318791 4285947725
-0.2284966260 -0.1663369685 0.4124576449 4285816139
-0.2281090319 -0.1655977517 0.4117580056 4286078795
-0.2281783074 -0.1651908308 0.4118830562 4285947209
-0.2282474637 -0.1647835523 0.4120078683 4285618242
-0.2283164710 -0.1643758863 0.4121324420 4286276172
-0.2283853590 -0.1639678627 0.4122568071 4287001966
-0.2279963046 -0.1632317007 0.4115544856 4287791482
-0.2280647904 -0.1628237516 0.4116781354 4291084999
-0.2285912484 -0.1627415717 0.4126284420 4293519340
-0.2286596149 -0.1623320729 0.4127518237 4294241262
-0.2282694727 -0.1615977138 0.4120475948 4291083198
-0.2283374369 -0.1611883044 0.4121702909 4287859341
-0.2288639247 -0.1611013710 0.4131206274 4287464583
-0.2289317548 -0.1606904119 0.4132430851 4287661701
-0.2285405397 -0.1599578708 0.4125369191 4286674806
-0.2286079824 -0.1595470011 0.4126586318 4285750350
-0.2286752760 -0.1591357738 0.4127801061 4284960834
-0.2292017639 -0.1590428948 0.4137304723 4284894006
-0.2292689383 -0.1586301178 0.4138517082 4284630834
-0.2293359637 -0.1582169682 0.4139727056 4284433708
-0.2294028550 -0.1578034461 0.4140934646 4284236329
-0.2290097624 -0.1570741683 0.4133838713 4284630323
-0.2295362353 -0.1569753438 0.4143342376 4284696116
-0.2296027243 -0.1565607488 0.4144542515 4284762163
-0.2296690792 -0.1561457962 0.4145739973 4285025335
-0.2292748988 -0.1554183960 0.4138624668 4285222714
-0.2288803011 -0.1546923071 0.4131502211 4285617472
-0.2289459705 -0.1542779505 0.4132687449 4286340941
-0.2290115058 -0.1538632214 0.4133870304 4286669906
-0.2290768921 -0.1534481496 0.4135050774 4286340943
-0.2286810875 -0.1527248025 0.4127906263 4287591010
-0.2282848954 -0.1520027816 0.4120754302 4286209359
-0.2283495963 -0.1515883207 0.4121922255 4285485636
-0.2288756073 -0.1514789015 0.4131417274 4286275150
-0.2289401740 -0.1510628909 0.4132582843 4286340943
-0.2294662893 -0.1509502679 0.4142079651 4286077771
-0.2295306921 -0.1505327076 0.4143242240 4285551427
-0.2295949608 -0.1501148045 0.4144402146 4285091389
-0.2291969806 -0.1493953615 0.4137218595 4285420354
-0.2292608321 -0.1489775926 0.4138371050 4285551940
-0.2293245345 -0.1485594958 0.4139520824 4284894010
-0.2289256305 -0.1478423625 0.4132319987 4286473301
-0.2285263091 -0.1471265703 0.4125111997 4288249712
-0.2285893261 -0.1467091143 0.4126249552 4288381300
-0.2286521941 -0.1462913156 0.4127384424 4287131233
-0.2282519341 -0.1455778629 0.4120159447 4286605406
-0.2283143848 -0.1451602280 0.4121286869 4287000164
-0.2283767015 -0.1447422355 0.4122411609 4286868839
-0.2284388691 -0.1443239003 0.4123533666 4286737253
-0.2289643735 -0.1441971213 0.4133019447 4286606437
-0.2294899821 -0.1440683156 0.4142507315 4286606437
-0.2295519561 -0.1436472535 0.4143626094 4286672230
-0.2296137810 -0.1432258636 0.4144741893 4286869609
-0.2301394492 -0.1430926174 0.4154230952 4287066988
-0.2302011102 -0.1426696926 0.4155343771 4287264367
-0.2307268381 -0.1425332129 0.4164833724 4287395953
-0.2312526852 -0.1423946768 0.4174325764 4287330160
-0.2317786217 -0.1422541142 0.4183819294 4287264367
-0.2318400443 -0.1418272555 0.4184927940 4287724918
-0.2319013029 -0.1414000690 0.4186033905 4287659123
-0.2319624275 -0.1409725547 0.4187137187 4287001193
-0.2320233881 -0.1405446827 0.4188237488 4287198572
-0.2320841998 -0.1401164830 0.4189335108 4287132779
-0.2321448475 -0.1396879554 0.4190430045 4287461744
-0.2322053462 -0.1392590851 0.4191522300 4287066986
-0.2322656959 -0.1388298720 0.4192611575 4286080089
-0.2323258817 -0.1384003311 0.4193697870 4285224780
-0.2323859185 -0.1379704624 0.4194781780 4285027401
-0.2329116315 -0.1378158778 0.4204271138 4284764229
-0.2329714745 -0.1373844743 0.4205351472 4284896326
-0.2334972173 -0.1372266561 0.4214841723 4284633154
-0.2340230495 -0.1370667666 0.4224333167 4284501568
-0.2340826541 -0.1366326362 0.4225409329 4284501568
-0.2346085161 -0.1364694834 0.4234901667 4284567361
-0.2346679270 -0.1360338330 0.4235973954 4284633154
-0.2351938337 -0.1358674318 0.4245467186 4284764483
-0.2352530360 -0.1354302466 0.4246535599 4284830276
-0.2357789725 -0.1352605820 0.4256029427 4284961862
-0.2363049686 -0.1350888461 0.4265524149 4285093448
-0.2368310392 -0.1349150389 0.4275020361 4285225034
-0.2368899584 -0.1344739348 0.4276083708 4285225034
-0.2369486988 -0.1340325028 0.4277144074 4285093448
-0.2370072752 -0.1335907280 0.4278201461 4285027655
-0.2375332713 -0.1334112585 0.4287696183 4285093448
-0.2375916392 -0.1329679787 0.4288749695 4285356620
-0.2381176502 -0.1327852309 0.4298244715 4285158987
-0.2386437207 -0.1326004267 0.4307740629 4285290573
-0.2391698509 -0.1324135363 0.4317238033 4285422159
-0.2392278910 -0.1319663078 0.4318285584 4285290573
-0.2397540361 -0.1317761540 0.4327782989 4285027401
-0.2402802259 -0.1315838993 0.4337281287 4284895815
-0.2408064753 -0.1313895881 0.4346780479 4284830022
-0.2408641726 -0.1309384406 0.4347822070 4284698436
-0.2413904220 -0.1307408363 0.4357321262 4284501311
-0.2414478958 -0.1302881688 0.4358358681 4284501311
-0.2419741303 -0.1300872862 0.4367857873 4284698690
-0.2420313656 -0.1296330839 0.4368890822 4285159241
-0.2420884222 -0.1291785687 0.4369921088 4285159241
-0.2426145822 -0.1289732009 0.4379418790 4285290827
-0.2426714152 -0.1285171509 0.4380444288 4285488206
-0.2427280545 -0.1280607879 0.4381466806 4285093448
-0.2427845299 -0.1276041120 0.4382486343 4284304450
-0.2437802553 -0.1276389807 0.4400459826 4284107071
-0.2438365966 -0.1271798909 0.4401476979 4284172607
-0.2438927591 -0.1267204881 0.4402490556 4284435779
-0.2439487427 -0.1262607723 0.4403501153 4284633158
-0.2440045476 -0.1258007437 0.4404508471 4284830537
-0.2445304245 -0.1255818903 0.4414001107 4284830537
-0.2445859760 -0.1251203418 0.4415003955 4284830537
-0.2446413487 -0.1246584654 0.4416003525 4284501318
-0.2446965426 -0.1241962910 0.4416999817 4284106560
-0.2452222407 -0.1239717454 0.4426489174 4283646009
-0.2457479537 -0.1237451136 0.4435978830 4283580216
-0.2462737113 -0.1235163808 0.4445469081 4284172353
-0.2467994839 -0.1232855618 0.4454959929 4284567111
-0.2473252863 -0.1230526492 0.4464451075 4284172353
-0.2483223230 -0.1230511367 0.4482448399 4284106560
-0.2497908771 -0.1232783347 0.4508957267 4284238406
-0.2507884800 -0.1232681647 0.4526964724 4284501578
-0.2527292967 -0.1237157211 0.4561998546 4284501578
-0.2541991472 -0.1239259019 0.4588530958 4284567371
-0.2533108592 -0.1229852736 0.4572496414 4284633164
-0.2585555911 -0.1250135750 0.4667168558 4284633164
-0.2534201443 -0.1220227629 0.4574469030 4284699729
-0.2567786574 -0.1231253743 0.4635092914 4284831315
-0.2591941059 -0.1237642393 0.4678694606 4284765522
-0.2851082981 -0.1321392059 0.5146469474 4284896854
-0.2875319421 -0.1326863617 0.5190218687 4284963158
-0.2885373235 -0.1325721592 0.5208366513 4284831572
-0.2900159657 -0.1326704323 0.5235057473 4284831574
-0.2919681966 -0.1329784691 0.5270296931 4284897367
-0.2939209640 -0.1332789212 0.5305545926 4284239437
-0.2954008579 -0.1333580911 0.5332260132 4283778886
-0.2964076102 -0.1332186610 0.5350432992 4284568402
-0.2974145412 -0.1330752820 0.5368608236 4285226332
-0.2974742055 -0.1325059235 0.5369685888 4285094744
-0.2989550233 -0.1325664967 0.5396415591 4284436814
-0.2994883955 -0.1322029233 0.5406043530 4284042056
-0.3000217378 -0.1318371892 0.5415670872 4284042056
-0.2996068895 -0.1310545802 0.5408182740 4283910470
-0.3001399636 -0.1306863427 0.5417804718 4283976263
-0.2997244596 -0.1299048662 0.5410304666 4284305230
-0.2263687253 -0.1901156455 0.4094364941 4279331767
-0.2282389998 -0.1912281513 0.4128192663 4279726525
-0.2292132527 -0.1915842146 0.4145814478 4279464118
-0.2301880121 -0.1919367909 0.4163444936 4279464118
-0.2307144105 -0.1919125021 0.4172965884 4279332540
-0.2303429693 -0.1911410689 0.4166247845 4279464126
-0.2299711257 -0.1903707832 0.4159522057 4278935451
-0.2304974943 -0.1903437227 0.4169042706 4278343314
-0.2296756655 -0.1892039329 0.4154178202 4282141546
-0.2293027341 -0.1884363294 0.4147433043 4282536304
-0.2284796387 -0.1873012036 0.4132545292 4283257966
-0.2290055752 -0.1872725487 0.4142057896 4284573826
-0.2277314365 -0.1857733876 0.4119012654 4285297290
-0.2273567170 -0.1850112379 0.4112235010 4283586672
-0.2274319530 -0.1846158355 0.4113595784 4283255882
-0.2270565629 -0.1838552356 0.4106806219 4283190089
-0.2266807705 -0.1830958277 0.4100009203 4283647803
-0.2267553806 -0.1827008277 0.4101358354 4283910975
-0.2263789177 -0.1819429845 0.4094549119 4284633667
-0.2264531404 -0.1815479845 0.4095892012 4284962632
-0.2265272588 -0.1811525971 0.4097232521 4285619789
-0.2256984711 -0.1800366640 0.4082241952 4285553996
-0.2253205180 -0.1792827994 0.4075405896 4286210129
-0.2258455455 -0.1792471111 0.4084902108 4286604887
-0.2254670858 -0.1784940511 0.4078056812 4286406998
-0.2250882089 -0.1777421832 0.4071204066 4285880654
-0.2251610458 -0.1773476452 0.4072521627 4285750348
-0.2252337784 -0.1769527048 0.4073837101 4286145106
-0.2253063917 -0.1765574068 0.4075150490 4286209618
-0.2258314639 -0.1765154451 0.4084647298 4286209618
-0.2254512757 -0.1757656336 0.4077771008 4286406998
-0.2259764075 -0.1757213324 0.4087269008 4286933342
-0.2255956978 -0.1749723554 0.4080383182 4287130978
-0.2261208743 -0.1749256849 0.4089882076 4285880911
-0.2266462296 -0.1748770475 0.4099384248 4286670427
-0.2267183065 -0.1744774729 0.4100688100 4291078558
-0.2267902792 -0.1740775108 0.4101989567 4291933867
-0.2273158431 -0.1740245372 0.4111495614 4288446838
-0.2269338518 -0.1732764691 0.4104586542 4286342234
-0.2274594605 -0.1732211113 0.4114093184 4286144855
-0.2275310904 -0.1728188396 0.4115388691 4286473820
-0.2276026011 -0.1724161804 0.4116682112 4285881683
-0.2276739776 -0.1720131487 0.4117973149 4287000164
-0.2268360704 -0.1709246635 0.4102818072 4287921266
-0.2273616493 -0.1708642095 0.4112324119 4287855986
-0.2274325192 -0.1704608351 0.4113606215 4287198056
-0.2275032699 -0.1700570881 0.4114885628 4286605919
-0.2275739014 -0.1696529686 0.4116163254 4286540126
-0.2276443988 -0.1692484766 0.4117438197 4286539611
-0.2277147770 -0.1688436121 0.4118711054 4286473818
-0.2273294628 -0.1681014895 0.4111741781 4286605659
-0.2273994386 -0.1676966697 0.4113007784 4286145108
-0.2279251516 -0.1676267385 0.4122516215 4285816139
-0.2279950231 -0.1672203690 0.4123780131 4285487174
-0.2276086360 -0.1664800048 0.4116791487 4285618242
-0.2276781201 -0.1660736948 0.4118048251 4285552449
-0.2272910625 -0.1653350294 0.4111047387 4285684035
-0.2273601443 -0.1649287939 0.4112296999 4285486656
-0.2274290919 -0.1645222008 0.4113544226 4285289277
-0.2274979204 -0.1641152352 0.4114789069 4286144586
-0.2275666296 -0.1637078971 0.4116031528 4286870380
-0.2276351899 -0.1633001864 0.4117271900 4287791482
-0.2277036309 -0.1628921032 0.4118509591 4291807952
-0.2277719378 -0.1624836624 0.4119745195 4294373879
-0.2278401256 -0.1620748490 0.4120978415 4294965243
-0.2279081643 -0.1616656780 0.4122208953 4294043370
-0.2279760838 -0.1612561345 0.4123437405 4291872714
-0.2280438691 -0.1608462334 0.4124663472 4290820026
-0.2281115204 -0.1604359448 0.4125887156 4288253325
-0.2281790376 -0.1600253135 0.4127108157 4286476914
-0.2282464206 -0.1596143097 0.4128327072 4285946957
-0.2283136696 -0.1592029333 0.4129543602 4285025855
-0.2288393825 -0.1591100693 0.4139052033 4284827955
-0.2289064974 -0.1586971432 0.4140266180 4284893748
-0.2289734781 -0.1582838595 0.4141477644 4284564781
-0.2290403247 -0.1578702182 0.4142686725 4284696367
-0.2291070372 -0.1574562043 0.4143893123 4285091128
-0.2291736156 -0.1570418328 0.4145097435 4284827956
-0.2292400450 -0.1566271037 0.4146299064 4284959799
-0.2293063402 -0.1562120169 0.4147498012 4285551936
-0.2289128453 -0.1554843485 0.4140380919 4285749315
-0.2285189331 -0.1547579765 0.4133256078 4285946694
-0.2285845578 -0.1543434858 0.4134443104 4286407247
-0.2286500335 -0.1539286226 0.4135627449 4286473040
-0.2287153751 -0.1535134166 0.4136809111 4285749319
-0.2283202559 -0.1527898014 0.4129662812 4286802007
-0.2279247344 -0.1520674974 0.4122508764 4286406995
-0.2279894054 -0.1516529024 0.4123678505 4285683272
-0.2280539274 -0.1512379348 0.4124845266 4286209616
-0.2285791487 -0.1511273235 0.4134345353 4286275409
-0.2286435217 -0.1507108212 0.4135509431 4285749065
-0.2287077457 -0.1502939761 0.4136671126 4285420100
-0.2287718356 -0.1498767734 0.4137830436 4285025596
-0.2288357764 -0.1494592130 0.4138987064 4285222975
-0.2288995832 -0.1490413100 0.4140141010 4285354307
-0.2289632410 -0.1486230642 0.4141292274 4285091135
-0.2285650074 -0.1479056627 0.4134089351 4287394405
-0.2281663716 -0.1471896023 0.4126879275 4288381300
-0.2282293439 -0.1467719972 0.4128018320 4287263334
-0.2282921672 -0.1463540494 0.4129154682 4286868576
-0.2278925925 -0.1456403434 0.4121927321 4287065957
-0.2279549986 -0.1452225447 0.4123056233 4287000164
-0.2280172706 -0.1448044032 0.4124182463 4286737505
-0.2280793935 -0.1443859339 0.4125306010 4286737505
-0.2286041230 -0.1442591399 0.4134796858 4286738023
-0.2286660671 -0.1438391209 0.4135917425 4286869609
-0.2291908860 -0.1437090933 0.4145409763 4287132526
-0.2292526662 -0.1432875544 0.4146527350 4287264112
-0.2297775596 -0.1431542933 0.4156021178 4287395953
-0.2298391759 -0.1427312046 0.4157135487 4287527539
-0.2308276445 -0.1428816170 0.4175014198 4287593332
-0.2304255813 -0.1421701014 0.4167741835 4287264367
-0.2314143628 -0.1423155516 0.4185626209 4287395953
-0.2314757407 -0.1418885440 0.4186736345 4287659125
-0.2315369695 -0.1414612085 0.4187843800 4287330160
-0.2315980494 -0.1410335302 0.4188948572 4287593332
-0.2316589653 -0.1406055093 0.4190050364 4287922295
-0.2317197323 -0.1401771605 0.4191149473 4287001193
-0.2317803353 -0.1397484690 0.4192245603 4286738021
-0.2318408042 -0.1393194497 0.4193339050 4286080091
-0.2319011092 -0.1388900876 0.4194429815 4285356366
-0.2319612503 -0.1384603828 0.4195517898 4284830022
-0.2320212424 -0.1380303651 0.4196603000 4284764229
-0.2320810854 -0.1375999898 0.4197685122 4284566850
-0.2326059788 -0.1374441832 0.4207178950 4284962121
-0.2326656133 -0.1370123029 0.4208257794 4284764742
-0.2331905514 -0.1368532330 0.4217752516 4284633156
-0.2337155789 -0.1366921067 0.4227248430 4284567363
-0.2337749749 -0.1362574995 0.4228323102 4284633156
-0.2338342220 -0.1358225495 0.4229394495 4284633156
-0.2343592346 -0.1356569678 0.4238890707 4284632643
-0.2348843217 -0.1354893148 0.4248387814 4284632643
-0.2354094833 -0.1353196055 0.4257886410 4284632643
-0.2354684472 -0.1348807365 0.4258953035 4284632643
-0.2359936237 -0.1347077489 0.4268451929 4284764229
-0.2360523790 -0.1342673451 0.4269514680 4284830022
-0.2361109704 -0.1338266283 0.4270574152 4284698436
-0.2361693829 -0.1333855689 0.4271630943 4284698436
-0.2362276465 -0.1329441816 0.4272684753 4284830022
-0.2362857312 -0.1325024813 0.4273735285 4284895815
-0.2363436669 -0.1320604384 0.4274783134 4284895815
-0.2364014238 -0.1316180825 0.4275828004 4284895815
-0.2369263321 -0.1314346343 0.4285322130 4284830276
-0.2374513000 -0.1312491149 0.4294817150 4284830276
-0.2379763275 -0.1310615242 0.4304313362 4284830276
-0.2385014147 -0.1308718622 0.4313810766 4284698690
-0.2390265614 -0.1306801140 0.4323309064 4284698690
-0.2395517528 -0.1304862946 0.4332808256 4284896069
-0.2400770038 -0.1302903891 0.4342308640 4284896069
-0.2401342094 -0.1298393011 0.4343343377 4284830276
-0.2406594604 -0.1296401173 0.4352843463 4284896068
-0.2407164276 -0.1291875094 0.4353874028 4285290826
-0.2407732308 -0.1287345737 0.4354901314 4285356619
-0.2412983924 -0.1285309047 0.4364400208 4285422412
-0.2418236136 -0.1283251494 0.4373899698 4285290826
-0.2418801188 -0.1278694868 0.4374921620 4284632896
-0.2419364452 -0.1274135262 0.4375940561 4284304191
-0.2424615622 -0.1272032708 0.4385438561 4284369984
-0.2429867387 -0.1269909292 0.4394937456 4284501572
-0.2430427521 -0.1265322417 0.4395950437 4284698951
-0.2435678840 -0.1263166219 0.4405448735 4284962123
-0.2440930754 -0.1260989010 0.4414947927 4284962123
-0.2441487610 -0.1256374866 0.4415955245 4284896330
-0.2442042828 -0.1251757443 0.4416959286 4284830537
-0.2447293550 -0.1249535382 0.4426456392 4284435779
-0.2447846085 -0.1244902909 0.4427455962 4284041021
-0.2448396981 -0.1240267232 0.4428452253 4283711802
-0.2453646511 -0.1238000169 0.4437946975 4283646009
-0.2454194725 -0.1233349368 0.4438938797 4283974974
-0.2459443808 -0.1231049299 0.4448432624 4284369732
-0.2464693040 -0.1228728294 0.4457927048 4284303682
-0.2469942570 -0.1226386353 0.4467422068 4284237889
-0.2475192398 -0.1224023402 0.4476917386 4284369992
-0.2485149056 -0.1223957613 0.4494926333 4284896336
-0.2499815822 -0.1226162091 0.4521454275 4284962129
-0.2509778142 -0.1226009578 0.4539473057 4284896336
-0.2562130690 -0.1246439368 0.4634163976 4284962129
-0.2543841600 -0.1232434586 0.4601084292 4284896336
-0.2549101412 -0.1229864955 0.4610598087 4284962129
-0.2587351501 -0.1243124679 0.4679781199 4285093715
-0.2612030506 -0.1244493425 0.4724418819 4284962131
-0.2866716683 -0.1319792569 0.5185073018 4284766033
-0.2905096412 -0.1331629306 0.5254490972 4284963158
-0.2924590707 -0.1334693134 0.5289750695 4285094744
-0.2939364612 -0.1335534155 0.5316472650 4284239435
-0.2949415743 -0.1334179193 0.5334652066 4283976263
-0.2959468067 -0.1332784593 0.5352834463 4285028951
-0.2945879400 -0.1320750415 0.5328255892 4285555295
-0.2974848151 -0.1327765435 0.5380651951 4284963412
-0.2980173528 -0.1324158907 0.5390284657 4283976517
-0.2985498905 -0.1320530772 0.5399916172 4283647552
-0.2976626456 -0.1310630143 0.5383868814 4283910724
-0.2986681163 -0.1309060752 0.5402054787 4283976263
-0.2987268865 -0.1303320676 0.5403117537 4284042056
-0.2227214426 -0.1883247048 0.4036495686 4279660984
-0.2259288579 -0.1905822456 0.4094625115 4279726777
-0.2242154032 -0.1886857897 0.4063571393 4279595193
-0.2260821313 -0.1898018867 0.4097402990 4279332021
-0.2270542830 -0.1901612580 0.4115021825 4279463864
-0.2275789380 -0.1901428252 0.4124530554 4279463864
-0.2294482291 -0.1912430078 0.4158408642 4279727038
-0.2281805575 -0.1897273809 0.4135434031 4279727038
-0.2287056595 -0.1897038817 0.4144950807 4280051098
-0.2283337563 -0.1889360398 0.4138210416 4279393168
-0.2284101993 -0.1885397732 0.4139595926 4282405231
-0.2284865230 -0.1881431043 0.4140979052 4283063161
-0.2281136960 -0.1873771995 0.4134222269 4284507776
-0.2272912711 -0.1862443686 0.4119316936 4286744738
-0.2269174755 -0.1854815781 0.4112542272 4287007649
-0.2269927561 -0.1850864589 0.4113906920 4283915378
-0.2266182899 -0.1843252182 0.4107120335 4283518025
-0.2262434214 -0.1835651547 0.4100326300 4283781197
-0.2263180763 -0.1831704229 0.4101679325 4284238908
-0.2259425372 -0.1824119240 0.4094873071 4284567873
-0.2260168195 -0.1820172071 0.4096219540 4284962372
-0.2260909975 -0.1816220880 0.4097563624 4285159751
-0.2261650562 -0.1812265813 0.4098905921 4285290560
-0.2253376395 -0.1801102459 0.4083910286 4285422146
-0.2254111916 -0.1797155440 0.4085243046 4286276174
-0.2250336409 -0.1789618284 0.4078400731 4286605139
-0.2246556878 -0.1782092899 0.4071550965 4286341202
-0.2247285843 -0.1778150201 0.4072872102 4286143823
-0.2248013765 -0.1774203628 0.4074191451 4285750600
-0.2248740494 -0.1770253181 0.4075508416 4285355842
-0.2249466181 -0.1766298860 0.4076823592 4285749067
-0.2250190526 -0.1762340814 0.4078136384 4285288516
-0.2255433798 -0.1761909872 0.4087638855 4285683274
-0.2251635939 -0.1754413247 0.4080756009 4286406997
-0.2256879658 -0.1753958613 0.4090259671 4287065440
-0.2257600874 -0.1749977320 0.4091566503 4286539096
-0.2262846678 -0.1749491245 0.4101073742 4285881166
-0.2263567001 -0.1745494306 0.4102379084 4288118128
-0.2264285982 -0.1741493493 0.4103682339 4291407523
-0.2265003920 -0.1737488955 0.4104983509 4291868074
-0.2270252109 -0.1736947596 0.4114494920 4289237124
-0.2270969003 -0.1732927412 0.4115794301 4286144853
-0.2271684706 -0.1728903353 0.4117091298 4286013267
-0.2272399217 -0.1724875569 0.4118386209 4285815888
-0.2273112535 -0.1720843911 0.4119679034 4286671197
-0.2264747471 -0.1709955037 0.4104518592 4287526506
-0.2265455425 -0.1705932021 0.4105801582 4287592812
-0.2266162187 -0.1701905131 0.4107082784 4287066468
-0.2271410525 -0.1701277196 0.4116594493 4286408538
-0.2272116244 -0.1697234660 0.4117873609 4286276952
-0.2272820771 -0.1693188548 0.4119150341 4286408027
-0.2273523957 -0.1689138561 0.4120424688 4286473820
-0.2269677520 -0.1681714654 0.4113453627 4286605404
-0.2270376831 -0.1677665263 0.4114720821 4286408025
-0.2271074802 -0.1673612148 0.4115986228 4286012748
-0.2276324332 -0.1672901213 0.4125500023 4285617990
-0.2272467166 -0.1665494740 0.4118509591 4285617729
-0.2273161411 -0.1661430448 0.4119767845 4285551936
-0.2269297540 -0.1654041111 0.4112765193 4285551936
-0.2269987911 -0.1649977565 0.4114016294 4285222971
-0.2270676941 -0.1645910293 0.4115265012 4285091389
-0.2271364629 -0.1641839296 0.4116511345 4285946698
-0.2272051126 -0.1637764573 0.4117755592 4286935659
-0.2272736281 -0.1633686274 0.4118997455 4287725175
-0.2273420244 -0.1629604250 0.4120236635 4291347140
-0.2274102718 -0.1625518501 0.4121473730 4294570997
-0.2274783999 -0.1621429026 0.4122708440 4294966268
-0.2275463939 -0.1617335975 0.4123940766 4294966268
-0.2276142687 -0.1613239199 0.4125170708 4293978090
-0.2276819944 -0.1609138846 0.4126398265 4292662230
-0.2277496010 -0.1605034769 0.4127623439 4288845464
-0.2278170735 -0.1600926965 0.4128846228 4286476916
-0.2278843969 -0.1596815586 0.4130066633 4286012750
-0.2279516011 -0.1592700630 0.4131284356 4284960062
-0.2284765393 -0.1591771841 0.4140798151 4284630576
-0.2285436094 -0.1587641388 0.4142013788 4284762162
-0.2286105305 -0.1583507061 0.4143226743 4284433197
-0.2286773324 -0.1579369307 0.4144437313 4284762162
-0.2287440002 -0.1575227827 0.4145645499 4285157431
-0.2288105190 -0.1571082771 0.4146851003 4284696880
-0.2288769037 -0.1566934139 0.4148054123 4285025845
-0.2289431542 -0.1562781781 0.4149254858 4285815361
-0.2290092707 -0.1558625847 0.4150453210 4286078535
-0.2281571031 -0.1548236161 0.4135008752 4286012742
-0.2282226682 -0.1544089764 0.4136197269 4286078280
-0.2282881141 -0.1539939791 0.4137383103 4285946694
-0.2283533961 -0.1535786241 0.4138566554 4285420352
-0.2279589623 -0.1528547406 0.4131417871 4287130970
-0.2275641263 -0.1521321684 0.4124262035 4287196765
-0.2276287377 -0.1517174244 0.4125432968 4285880905
-0.2276932150 -0.1513023376 0.4126601517 4286077773
-0.2277575433 -0.1508868784 0.4127767682 4286209359
-0.2282819897 -0.1507750601 0.4137272239 4285617222
-0.2283461690 -0.1503580660 0.4138435423 4285288257
-0.2284102142 -0.1499407291 0.4139595926 4285354561
-0.2284741104 -0.1495230347 0.4140754044 4285157182
-0.2285378575 -0.1491049826 0.4141909480 4285288514
-0.2286014706 -0.1486865878 0.4143062532 4286406995
-0.2282039225 -0.1479689181 0.4135857522 4288315252
-0.2278059721 -0.1472525895 0.4128645360 4287657322
-0.2278688997 -0.1468348354 0.4129785597 4286605406
-0.2283930779 -0.1467131376 0.4139285684 4287197543
-0.2279943228 -0.1459982991 0.4132058620 4287132263
-0.2280568033 -0.1455795169 0.4133191109 4286671712
-0.2276573777 -0.1448665410 0.4125952125 4286540126
-0.2277194560 -0.1444479227 0.4127077162 4286803298
-0.2282434106 -0.1443210989 0.4136573076 4286803816
-0.2283053100 -0.1439009458 0.4137695134 4287066988
-0.2288293540 -0.1437708884 0.4147192538 4287329907
-0.2288910896 -0.1433492005 0.4148311317 4287461493
-0.2294152081 -0.1432159096 0.4157810211 4287330160
-0.2294767797 -0.1427926868 0.4158926010 4287395953
-0.2300009727 -0.1426561475 0.4168426394 4287659382
-0.2305252552 -0.1425175816 0.4177928269 4287593589
-0.2305866182 -0.1420916170 0.4179040194 4287725175
-0.2311109751 -0.1419497877 0.4188543558 4287659382
-0.2311721593 -0.1415223032 0.4189652503 4287922297
-0.2312331945 -0.1410944760 0.4190758467 4289632915
-0.2312940657 -0.1406663060 0.4191861749 4288711811
-0.2313547879 -0.1402377933 0.4192962348 4286738021
-0.2309516072 -0.1395287663 0.4185655117 4285883223
-0.2314757705 -0.1393797696 0.4195154905 4285225293
-0.2315360308 -0.1389502585 0.4196247160 4285027914
-0.2315961421 -0.1385204047 0.4197336435 4284896328
-0.2316560894 -0.1380902231 0.4198422730 4284895815
-0.2321802527 -0.1379355639 0.4207922518 4284566850
-0.2322400063 -0.1375038475 0.4209005535 4284830022
-0.2327642143 -0.1373459548 0.4218505919 4284830022
-0.2332884818 -0.1371859908 0.4228007793 4284830022
-0.2333480120 -0.1367515475 0.4229086339 4284830022
-0.2334073782 -0.1363167614 0.4230162203 4284764229
-0.2339316607 -0.1361523420 0.4239664078 4284566850
-0.2344560176 -0.1359858513 0.4249167442 4284435264
-0.2349804491 -0.1358172894 0.4258671701 4284369471
-0.2350395173 -0.1353785843 0.4259742498 4284304191
-0.2350984365 -0.1349395514 0.4260810316 4284172605
-0.2351571918 -0.1345001906 0.4261875153 4284172605
-0.2352157831 -0.1340605021 0.4262937009 4284304191
-0.2352742106 -0.1336204857 0.4263995886 4284435777
-0.2353324741 -0.1331801265 0.4265051782 4284633156
-0.2353905737 -0.1327394545 0.4266104996 4284698949
-0.2349822819 -0.1320364773 0.4258705080 4284501570
-0.2350399345 -0.1315960288 0.4259750247 4284632896
-0.2355639040 -0.1314154863 0.4269246161 4284369724
-0.2360879183 -0.1312328577 0.4278743267 4284106552
-0.2366120070 -0.1310481727 0.4288241267 4284106552
-0.2371361405 -0.1308614016 0.4297740757 4284369724
-0.2376603335 -0.1306725442 0.4307240844 4284567103
-0.2381846011 -0.1304816157 0.4316742420 4284830275
-0.2387089133 -0.1302886158 0.4326244593 4285290826
-0.2392332703 -0.1300935298 0.4335747957 4285422412
-0.2392903268 -0.1296431571 0.4336782098 4285290826
-0.2398146838 -0.1294447929 0.4346285462 4285290824
-0.2398715168 -0.1289928854 0.4347315133 4285488203
-0.2399281561 -0.1285406798 0.4348341823 4285619789
-0.2404524535 -0.1283378154 0.4357843697 4285356617
-0.2409767807 -0.1281328797 0.4367346466 4284830273
-0.2415011525 -0.1279258579 0.4376850128 4284106550
-0.2420255840 -0.1277167350 0.4386354387 4284435777
-0.2425500453 -0.1275055408 0.4395859540 4284567363
-0.2426061928 -0.1270469874 0.4396877289 4284633156
-0.2431306392 -0.1268325001 0.4406381845 4284764742
-0.2436551005 -0.1266159117 0.4415887296 4284962121
-0.2437109500 -0.1261546314 0.4416899085 4284896328
-0.2442353815 -0.1259347498 0.4426403940 4284764744
-0.2442909777 -0.1254719645 0.4427411258 4284764744
-0.2443463802 -0.1250088364 0.4428415596 4284435779
-0.2444016039 -0.1245454103 0.4429416358 4284041021
-0.2449258566 -0.1243198290 0.4438917637 4283777849
-0.2449808270 -0.1238548830 0.4439913929 4283712056
-0.2455050349 -0.1236260012 0.4449414313 4283909435
-0.2455597520 -0.1231595427 0.4450406134 4284172607
-0.2460839003 -0.1229273602 0.4459905624 4284238146
-0.2470778078 -0.1229267865 0.4477918744 4284303939
-0.2476021200 -0.1226895154 0.4487420917 4284369732
-0.2485963851 -0.1226820648 0.4505440593 4285093455
-0.2500609159 -0.1229017377 0.4531983137 4285159249
-0.2510557473 -0.1228856072 0.4550012648 4285027663
-0.2501697838 -0.1219486743 0.4533956349 4285093969
-0.2502239645 -0.1214716733 0.4534937739 4285028176
-0.2512188256 -0.1214492321 0.4552968144 4284962383
-0.2531549931 -0.1218759641 0.4588058293 4285093969
-0.2546211183 -0.1220695600 0.4614630044 4284896336
-0.2886415720 -0.1325726658 0.5231199861 4285094998
-0.2905877233 -0.1328819245 0.5266470909 4285029205
-0.2925344110 -0.1331836134 0.5301752090 4284437068
-0.2949535847 -0.1336916089 0.5345596075 4284634447
-0.2959574163 -0.1335512102 0.5363788605 4285358170
-0.2946007848 -0.1323463619 0.5339202285 4285094998
-0.2965488732 -0.1326249242 0.5374508500 4284502861
-0.2975528538 -0.1324753314 0.5392704010 4283910724
-0.2971397936 -0.1316936463 0.5385217667 4283713345
-0.2962538302 -0.1307049692 0.5369160771 4283844931
-0.2963124216 -0.1301347017 0.5370222926 4283976517
-0.2200554162 -0.1868888885 0.3996212780 4279530938
-0.2205769420 -0.1868871599 0.4005683661 4279528628
-0.2219919860 -0.1876385808 0.4031381011 4279660214
-0.2238546610 -0.1887617558 0.4065207243 4279726776
-0.2270593494 -0.1910063326 0.4123404324 4279397811
-0.2280304581 -0.1913635731 0.4141039550 4279659962
-0.2285547853 -0.1913428605 0.4150561690 4279594169
-0.2281844765 -0.1905728579 0.4143836796 4280119474
-0.2282613218 -0.1901769042 0.4145232439 4279593130
-0.2287857980 -0.1901526749 0.4154756665 4280637571
-0.2279668301 -0.1890124530 0.4139884114 4280308606
-0.2275951803 -0.1882455200 0.4133135080 4282667888
-0.2276712954 -0.1878495216 0.4134517312 4283720576
-0.2272989750 -0.1870841235 0.4127756059 4285822605
-0.2273747325 -0.1866881251 0.4129131734 4288980669
-0.2265531272 -0.1855568439 0.4114211202 4289506751
-0.2266283482 -0.1851616055 0.4115577340 4285032827
-0.2262545526 -0.1844001114 0.4108788967 4284240718
-0.2258803397 -0.1836397797 0.4101993442 4284569683
-0.2259549350 -0.1832449436 0.4103348255 4285092677
-0.2255800515 -0.1824861914 0.4096540213 4285224263
-0.2256542742 -0.1820913553 0.4097888172 4285224515
-0.2252787352 -0.1813341826 0.4091068506 4285224515
-0.2253525853 -0.1809393615 0.4092409611 4285224254
-0.2245264202 -0.1798233986 0.4077406228 4285619012
-0.2245997638 -0.1794293821 0.4078738093 4286012487
-0.2246729732 -0.1790349782 0.4080067873 4286209866
-0.2242956907 -0.1782821864 0.4073216319 4286604113
-0.2243685424 -0.1778877974 0.4074539244 4286275148
-0.2244412750 -0.1774930209 0.4075860083 4285684288
-0.2245138884 -0.1770978570 0.4077178836 4285750081
-0.2245863974 -0.1767023206 0.4078495204 4285617479
-0.2246587723 -0.1763063967 0.4079809785 4285288514
-0.2247310430 -0.1759100854 0.4081122279 4285289029
-0.2252546102 -0.1758658439 0.4090630412 4285881166
-0.2248752415 -0.1751163304 0.4083741009 4286473303
-0.2253988683 -0.1750697196 0.4093249738 4286868061
-0.2259226590 -0.1750211418 0.4102762043 4286407510
-0.2259946316 -0.1746213287 0.4104068875 4286670682
-0.2260664850 -0.1742211282 0.4105373919 4288776058
-0.2265904993 -0.1741681993 0.4114889801 4291605157
-0.2262098342 -0.1734195948 0.4107977152 4291671465
-0.2267338932 -0.1733642966 0.4117493927 4288908159
-0.2268054038 -0.1729617715 0.4118792713 4286934882
-0.2268767953 -0.1725588739 0.4120089114 4285421643
-0.2269480675 -0.1721555889 0.4121383429 4285881936
-0.2261129618 -0.1710662991 0.4106217921 4287000417
-0.2261836976 -0.1706638634 0.4107502699 4287395951
-0.2262543291 -0.1702610701 0.4108785093 4286935400
-0.2263248265 -0.1698578745 0.4110065401 4286474331
-0.2263952047 -0.1694543213 0.4111343324 4286145366
-0.2269192934 -0.1693891585 0.4120860994 4286342232
-0.2269895524 -0.1689840406 0.4122136831 4286539611
-0.2266055793 -0.1682413965 0.4115163982 4286605404
-0.2266754657 -0.1678363234 0.4116432965 4286539611
-0.2267452180 -0.1674308926 0.4117699564 4286276694
-0.2268148363 -0.1670250893 0.4118964076 4286013522
-0.2268843353 -0.1666188985 0.4120226204 4286144075
-0.2269537151 -0.1662123501 0.4121485949 4286012489
-0.2265679985 -0.1654731333 0.4114481509 4285683524
-0.2266369760 -0.1650666595 0.4115734100 4285025594
-0.2267058343 -0.1646597981 0.4116984606 4284828217
-0.2267745584 -0.1642525792 0.4118232429 4285288768
-0.2268431485 -0.1638449728 0.4119478166 4286145884
-0.2269116193 -0.1634370089 0.4120721519 4287659123
-0.2269799560 -0.1630286723 0.4121962488 4290360243
-0.2270481586 -0.1626199782 0.4123201072 4294176237
-0.2271162421 -0.1622108966 0.4124437273 4294966008
-0.2271841764 -0.1618014574 0.4125671387 4294966008
-0.2272519916 -0.1613916606 0.4126902819 4294240749
-0.2273196727 -0.1609814763 0.4128131866 4293056475
-0.2273872197 -0.1605709344 0.4129358530 4288977563
-0.2274546474 -0.1601600349 0.4130582809 4286345843
