VERSION 0.7
FIELDS x y z rgba
SIZE 4 4 4 4
TYPE F F F U
COUNT 1 1 1 1
WIDTH 920
HEIGHT 1
VIEWPOINT 0.0 0.0 0.0 1.0 0.0 0.0 0.0
POINTS 920
DATA ascii
-0.3507395983 -0.1425948143 0.5744497180 4290212624
-0.3513167799 -0.1421901733 0.5753950477 4290212624
-0.3513839245 -0.1415779144 0.5755050182 4290212624
-0.3514508009 -0.1409653127 0.5756145716 4290146831
-0.3515174091 -0.1403523535 0.5757236481 4290146833
-0.3515837789 -0.1397390515 0.5758323073 4290081040
-0.3516498506 -0.1391254067 0.5759405494 4290080527
-0.3517156541 -0.1385114193 0.5760483146 4290080527
-0.3517812192 -0.1378970742 0.5761556625 4290080528
-0.3518464863 -0.1372824013 0.5762625933 4290014735
-0.3519115150 -0.1366673857 0.5763691068 4290013965
-0.3519762456 -0.1360520124 0.5764751434 4290013965
-0.3520407081 -0.1354363263 0.5765807033 4289948172
-0.3515938818 -0.1346246004 0.5758488774 4289882379
-0.3521688581 -0.1342039108 0.5767906308 4289816588
-0.3522325456 -0.1335871965 0.5768948793 4289685002
-0.3522959352 -0.1329701543 0.5769987106 4289553932
-0.3523590565 -0.1323527843 0.5771021247 4289685518
-0.3524219096 -0.1317350715 0.5772050619 4289553930
-0.3524844944 -0.1311170310 0.5773075223 4289619723
-0.3525468111 -0.1304986775 0.5774096251 4289553930
-0.3526088297 -0.1298799813 0.5775111914 4289422344
-0.3526706100 -0.1292609572 0.5776123405 4289422346
-0.3522201478 -0.1284549087 0.5768746138 4289356553
-0.3522812724 -0.1278361380 0.5769746900 4289290762
-0.3523421288 -0.1272170544 0.5770744085 4289224969
-0.3524027169 -0.1265976429 0.5771735907 4288963848
-0.3519507051 -0.1257948130 0.5764333010 4288898055
-0.3520106673 -0.1251756698 0.5765314698 4288897542
-0.3520703316 -0.1245562062 0.5766292214 4288831749
-0.3521296978 -0.1239364371 0.5767264962 4288962824
-0.3521888256 -0.1233163476 0.5768232942 4288962824
-0.3522476554 -0.1226959527 0.5769196749 4288962826
-0.3517934084 -0.1218975484 0.5761756301 4288897033
-0.3513386846 -0.1211006492 0.5754309297 4289093642
-0.3513965309 -0.1204811335 0.5755256414 4288896263
-0.3514540792 -0.1198613122 0.5756199360 4288961543
-0.3515113592 -0.1192411855 0.5757137537 4289224715
-0.3510551155 -0.1184475943 0.5749664903 4289290762
-0.3505984545 -0.1176555082 0.5742185116 4289027590
-0.3511681259 -0.1172076464 0.5751515627 4288896004
-0.3512242138 -0.1165872291 0.5752434134 4289027590
-0.3507664204 -0.1157969683 0.5744936466 4288765954
-0.3508218825 -0.1151768640 0.5745844841 4288634368
-0.3508770168 -0.1145564690 0.5746747851 4288896513
-0.3509319127 -0.1139357835 0.5747646689 4289028099
-0.3515003920 -0.1134807095 0.5756957531 4288962308
-0.3515547812 -0.1128585339 0.5757848620 4288764929
-0.3516089022 -0.1122360677 0.5758734941 4288633857
-0.3516627252 -0.1116133183 0.5759616494 4288765443
-0.3517162800 -0.1109902784 0.5760493279 4289094408
-0.3517695367 -0.1103669554 0.5761365294 4289028615
-0.3513081372 -0.1095829085 0.5753809214 4288371724
-0.3508463204 -0.1088004038 0.5746245384 4287845380
-0.3498695493 -0.1078608260 0.5730247498 4286731550
-0.3494067788 -0.1070823297 0.5722668171 4286402585
-0.3489435613 -0.1063053831 0.5715081096 4284695849
-0.3484799266 -0.1055299938 0.5707487464 4283314196
-0.3485306799 -0.1049111262 0.5708318949 4281738513
-0.3475513458 -0.1039838865 0.5692279339 4281080583
-0.3470863998 -0.1032131761 0.5684664249 4280227341
-0.3466210365 -0.1024440229 0.5677042007 4280753685
-0.3477005661 -0.1021303609 0.5694723129 4280689436
-0.3472345471 -0.1013616025 0.5687090755 4280097299
-0.3467681110 -0.1005944088 0.5679451227 4280032023
-0.3457859159 -0.0996802449 0.5663364530 4285098084
-0.3291738033 -0.1622758359 0.5401112437 4282333497
-0.3307614923 -0.1624555290 0.5427163243 4282201394
-0.3298280239 -0.1613957584 0.5411847234 4281411878
-0.3324249387 -0.1620604843 0.5454457402 4280558367
-0.3314909041 -0.1610008031 0.5439131856 4280360988
-0.3330795169 -0.1611651480 0.5465197563 4280624421
-0.3331542313 -0.1605939418 0.5466423631 4281084972
-0.3337335885 -0.1602648050 0.5475929976 4281281072
-0.3348179758 -0.1601751447 0.5493722558 4281083693
-0.3359025419 -0.1600816399 0.5511518121 4281017112
-0.3375670314 -0.1596440673 0.5538828969 4280884485
-0.3381466866 -0.1593017429 0.5548340082 4280423936
-0.3387263119 -0.1589573026 0.5557850599 4281409024
-0.3398115933 -0.1588471085 0.5575658679 4282264323
-0.3403913081 -0.1584975421 0.5585170388 4283841797
-0.3424886763 -0.1588497758 0.5619584322 4285091864
-0.3415506780 -0.1577920467 0.5604193211 4287063585
-0.3431425393 -0.1579018980 0.5630312562 4288313652
-0.3442285955 -0.1577741057 0.5648132563 4289824565
-0.3448084891 -0.1574113071 0.5657647848 4290087737
-0.3453883827 -0.1570463628 0.5667162538 4290939694
-0.3454616666 -0.1564498991 0.5668365359 4291268659
-0.3455347419 -0.1558530629 0.5669564009 4291726890
-0.3461143076 -0.1554834843 0.5679073930 4291463718
-0.3461869657 -0.1548850089 0.5680266023 4291332643
-0.3462593853 -0.1542861611 0.5681453943 4291201057
-0.3463315666 -0.1536869407 0.5682638288 4291135005
-0.3464034796 -0.1530873328 0.5683818460 4290937626
-0.3464751244 -0.1524873674 0.5684994459 4290871320
-0.3465465605 -0.1518870145 0.5686165690 4290739734
-0.3466176987 -0.1512863040 0.5687333345 4290870806
-0.3471962214 -0.1509058326 0.5696825385 4291068185
-0.3477746546 -0.1505232453 0.5706316829 4290936599
-0.3478452563 -0.1499196589 0.5707475543 4290936599
-0.3479156196 -0.1493157148 0.5708629489 4290674453
-0.3484937251 -0.1489284933 0.5718115568 4290674453
-0.3485636711 -0.1483229399 0.5719262958 4290544150
-0.3481251299 -0.1475016773 0.5712067485 4290544150
-0.3481944501 -0.1468962729 0.5713204741 4290347284
-0.3482635319 -0.1462905109 0.5714338422 4290215698
-0.3493493497 -0.1461097300 0.5732154846 4290476562
-0.3494181037 -0.1455014795 0.5733282566 4290410769
-0.3494865894 -0.1448928714 0.5734406710 4290410769
-0.3495548368 -0.1442838907 0.5735526085 4290410769
-0.3496227860 -0.1436745673 0.5736641288 4290344976
-0.3496904969 -0.1430648863 0.5737752318 4290344976
-0.3497579396 -0.1424548477 0.5738858581 4290279185
-0.3503343165 -0.1420509368 0.5748316050 4290213392
-0.3504013419 -0.1414393038 0.5749415755 4290081808
-0.3504680991 -0.1408273280 0.5750511289 4290016015
-0.3505345881 -0.1402149945 0.5751602054 4289949968
-0.3506008089 -0.1396023184 0.5752688646 4289884175
-0.3506667614 -0.1389892995 0.5753771067 4289884176
-0.3502226770 -0.1381748021 0.5746484399 4289752590
-0.3502880037 -0.1375619918 0.5747556090 4289686797
-0.3503530622 -0.1369488239 0.5748623610 4289621004
-0.3504178822 -0.1363353282 0.5749686956 4289752592
-0.3504824042 -0.1357214749 0.5750745535 4289621006
-0.3505466580 -0.1351072937 0.5751799941 4289620752
-0.3506106734 -0.1344927847 0.5752850175 4289554959
-0.3506743908 -0.1338779330 0.5753895640 4289554445
-0.3507378399 -0.1332627386 0.5754936934 4289488652
-0.3513116539 -0.1328403056 0.5764352083 4289554445
-0.3513746560 -0.1322235465 0.5765386224 4289620238
-0.3514374197 -0.1316064745 0.5766415596 4289619723
-0.3514998853 -0.1309890598 0.5767440796 4289553930
-0.3515620828 -0.1303713173 0.5768461227 4289554184
-0.3516239822 -0.1297532469 0.5769476891 4289422598
-0.3516856432 -0.1291348636 0.5770488381 4289356551
-0.3517470360 -0.1285161376 0.5771495700 4289356551
-0.3512967825 -0.1277112067 0.5764108300 4289421830
-0.3513575196 -0.1270927340 0.5765104890 4289356037
-0.3509064615 -0.1262898594 0.5757703781 4289421828
-0.3509665728 -0.1256716698 0.5758690238 4289356035
-0.3510263860 -0.1250531524 0.5759671926 4289356037
-0.3510859609 -0.1244343147 0.5760648847 4289356037
-0.3511452377 -0.1238151640 0.5761621594 4289224715
-0.3506922722 -0.1230161190 0.5754189491 4289158922
-0.3507509232 -0.1223972514 0.5755151510 4289093130
-0.3508092761 -0.1217780784 0.5756109357 4289093130
-0.3508673906 -0.1211585924 0.5757062435 4289027850
-0.3504128754 -0.1203628257 0.5749605298 4289093643
-0.3504703343 -0.1197436303 0.5750547647 4289159435
-0.3505275249 -0.1191241369 0.5751485825 4289159435
-0.3500718474 -0.1183310822 0.5744009614 4288765445
-0.3501283824 -0.1177118868 0.5744937062 4288568066
-0.3496719301 -0.1169209555 0.5737447739 4288568320
-0.3502406180 -0.1164726019 0.5746778846 4288699904
-0.3502963185 -0.1158525199 0.5747692585 4288962073
-0.3503517210 -0.1152321324 0.5748601556 4288896280
-0.3504068553 -0.1146114543 0.5749506354 4288503072
-0.3504617214 -0.1139904857 0.5750406384 4288437279
-0.3505162895 -0.1133692265 0.5751302242 4287716654
-0.3505705893 -0.1127476767 0.5752192736 4287782447
-0.3506245911 -0.1121258438 0.5753079057 4287325756
-0.3506783247 -0.1115037203 0.5753960609 4287457342
-0.3507317901 -0.1108813062 0.5754837394 4287458369
-0.3507849574 -0.1102586165 0.5755710006 4286997818
-0.3503241539 -0.1094751209 0.5748149157 4285550374
-0.3498629332 -0.1086931676 0.5740581155 4285024030
-0.3488874137 -0.1077540666 0.5724575520 4285420601
-0.3484252393 -0.1069761217 0.5716992021 4284696878
-0.3484766185 -0.1063565984 0.5717834830 4282134310
-0.3475502431 -0.1048066542 0.5702634454 4279703580
-0.3476006091 -0.1041881517 0.5703460574 4279177236
-0.3455935717 -0.1029565334 0.5670529604 4279177753
-0.3461574316 -0.1024934500 0.5679780841 4279506718
-0.3456922770 -0.1017255113 0.5672149062 4280295195
-0.3436832428 -0.1005077660 0.5639184713 4279439886
-0.3447607458 -0.1001943499 0.5656864047 4281149728
-0.3437796831 -0.0992825106 0.5640767217 4285755238
-0.3282975554 -0.1615397334 0.5396569371 4282332731
-0.3288758695 -0.1612236500 0.5406076312 4281609008
-0.3294542134 -0.1609054506 0.5415582657 4281149736
-0.3301068842 -0.1600184143 0.5426311493 4280558369
-0.3301810026 -0.1594513059 0.5427529812 4280426783
-0.3312633038 -0.1593689620 0.5445320606 4280492324
-0.3303285539 -0.1583159417 0.5429955125 4280294945
-0.3324196935 -0.1587110460 0.5464329123 4280424730
-0.3340069652 -0.1588588357 0.5490421057 4280490523
-0.3335760534 -0.1580446512 0.5483337641 4280229402
-0.3346589804 -0.1579465121 0.5501138568 4280492574
-0.3357420862 -0.1578445137 0.5518943071 4280493344
-0.3368254304 -0.1577386558 0.5536751151 4280032793
-0.3374038637 -0.1573933214 0.5546259880 4279506449
-0.3384875059 -0.1572806090 0.5564072132 4279506449
-0.3395713270 -0.1571640223 0.5581888556 4279635721
-0.3406553566 -0.1570435762 0.5599707365 4279898893
-0.3417395651 -0.1569192559 0.5617529750 4281407744
-0.3423183262 -0.1565598100 0.5627043843 4282394638
-0.3423913121 -0.1559678465 0.5628243089 4284364288
-0.3429698944 -0.1556050181 0.5637754202 4285153799
-0.3435484767 -0.1552400589 0.5647264719 4287058688
-0.3436209261 -0.1546452194 0.5648455620 4288374545
-0.3441992998 -0.1542768776 0.5657963157 4289099802
-0.3442713618 -0.1536804140 0.5659148097 4289428767
-0.3443431854 -0.1530835629 0.5660328269 4290150943
-0.3444147706 -0.1524863541 0.5661504865 4290282529
-0.3444860876 -0.1518887579 0.5662677288 4290412826
-0.3445571661 -0.1512908041 0.5663845539 4290215447
-0.3446279764 -0.1506924778 0.5665009618 4290739989
-0.3457123637 -0.1505352259 0.5682834983 4291200540
-0.3457828760 -0.1499344110 0.5683994293 4291134229
-0.3463602662 -0.1495521814 0.5693485141 4291200022
-0.3464303613 -0.1489497274 0.5694637299 4291068182
-0.3470075428 -0.1485641301 0.5704125166 4290936596
-0.3470772505 -0.1479600817 0.5705271363 4290739734
-0.3476542234 -0.1475710869 0.5714755654 4290542355
-0.3472158909 -0.1467508823 0.5707550049 4290279444
-0.3472848535 -0.1461457461 0.5708683133 4290213651
-0.3478613496 -0.1457530260 0.5718160272 4290410001
-0.3479298651 -0.1451462805 0.5719286203 4290344208
-0.3479981422 -0.1445391774 0.5720408559 4290278415
-0.3480661213 -0.1439317167 0.5721526146 4290278415
-0.3486421108 -0.1435331404 0.5730993748 4290146829
-0.3482013643 -0.1427157372 0.5723748803 4290146829
-0.3487769961 -0.1423146725 0.5733211637 4290146831
-0.3488440514 -0.1417049021 0.5734313726 4290015245
-0.3489108384 -0.1410947889 0.5735411644 4290080527
-0.3494860828 -0.1406891197 0.5744867921 4290080527
-0.3495524526 -0.1400774121 0.5745958686 4290080527
-0.3491096497 -0.1392623633 0.5738679767 4290014734
-0.3486663997 -0.1384487450 0.5731393099 4290211344
-0.3482226729 -0.1376365572 0.5724099278 4290145551
-0.3482877016 -0.1370261610 0.5725167990 4290014735
-0.3478431702 -0.1362159699 0.5717861056 4290014735
-0.3479075432 -0.1356057674 0.5718919635 4289686031
-0.3479716778 -0.1349952370 0.5719973445 4289554445
-0.3480355442 -0.1343843639 0.5721023679 4289488398
-0.3480991423 -0.1337731630 0.5722069144 4289488398
-0.3491819799 -0.1335515529 0.5739868879 4289422605
-0.3492452204 -0.1329378933 0.5740908384 4289422605
-0.3498181403 -0.1325170547 0.5750325918 4289553932
-0.3498809636 -0.1319018304 0.5751358271 4289553932
-0.3504536152 -0.1314776540 0.5760771632 4289553932
-0.3505159616 -0.1308608651 0.5761796832 4289488139
-0.3505780399 -0.1302437633 0.5762817264 4289618955
-0.3506398499 -0.1296263188 0.5763832927 4289553162
-0.3507013917 -0.1290085465 0.5764844418 4289421576
-0.3507626355 -0.1283904612 0.5765851736 4289421576
-0.3503129780 -0.1275860667 0.5758460164 4289421576
-0.3503735960 -0.1269682199 0.5759456754 4289355783
-0.3494122922 -0.1259817034 0.5743654370 4289291011
-0.3499831259 -0.1255483180 0.5753037930 4289291011
-0.3500428498 -0.1249304265 0.5754019618 4289159687
-0.3495911956 -0.1241307408 0.5746595263 4289093894
-0.3496502638 -0.1235131249 0.5747566223 4289028366
-0.3497090936 -0.1228951961 0.5748533010 4289028366
-0.3497676253 -0.1222769544 0.5749495029 4288962835
-0.3493144214 -0.1214805469 0.5742045641 4289028628
-0.3493723273 -0.1208625883 0.5742997527 4288568854
-0.3489183486 -0.1200682744 0.5735535026 4288568854
-0.3489755988 -0.1194506213 0.5736476183 4288305940
-0.3490325809 -0.1188326553 0.5737412572 4287976975
-0.3480655551 -0.1178677231 0.5721517205 4287978257
-0.3486337662 -0.1174234003 0.5730857253 4288373015
-0.3486898541 -0.1168054417 0.5731778741 4288241683
-0.3482335210 -0.1160165742 0.5724278092 4287715339
-0.3482889533 -0.1153989285 0.5725188851 4288175922
-0.3488563895 -0.1149497926 0.5734516382 4288899645
-0.3494236767 -0.1144985333 0.5743841529 4288969046
-0.3494784236 -0.1138781980 0.5744741559 4289298011
-0.3495329022 -0.1132575646 0.5745637417 4288579958
-0.3495871127 -0.1126366481 0.5746527910 4289106302
-0.3496410251 -0.1120154336 0.5747414231 4288386964
-0.3496946394 -0.1113939434 0.5748295784 4288123792
-0.3492351770 -0.1106097400 0.5740742683 4286809225
-0.3492881656 -0.1099885851 0.5741614103 4284506470
-0.3488278687 -0.1092065573 0.5734047890 4282333758
-0.3483671546 -0.1084260643 0.5726474524 4281675828
-0.3473928869 -0.1074883565 0.5710459352 4282333497
-0.3469312191 -0.1067118794 0.5702870488 4281412395
-0.3464691043 -0.1059369594 0.5695274472 4280097046
-0.3460066020 -0.1051635966 0.5687671304 4279504909
-0.3460570574 -0.1045469046 0.5688501000 4279571471
-0.3455937505 -0.1037757471 0.5680885315 4279374092
-0.3441028297 -0.1026995853 0.5656377077 4279505431
-0.3436385095 -0.1019333899 0.5648744702 4279176466
-0.3406050801 -0.1004115120 0.5598881245 4279833878
-0.3427085578 -0.1004057080 0.5633458495 4279570706
-0.3401874602 -0.0990457609 0.5592015982 4282268215
-0.3407490253 -0.0985869318 0.5601247549 4285689451
-0.3258384764 -0.1606229991 0.5365943909 4282006076
-0.3269185722 -0.1605572701 0.5383731127 4281611318
-0.3269927800 -0.1599954069 0.5384953022 4281413426
-0.3275699317 -0.1596784294 0.5394457579 4280821289
-0.3276437819 -0.1591149420 0.5395674109 4280754978
-0.3272140324 -0.1583075225 0.5388596654 4280294427
-0.3272873163 -0.1577441245 0.5389803648 4280294425
-0.3278639913 -0.1574221849 0.5399300456 4279965460
-0.3289444447 -0.1573390663 0.5417093039 4279310091
-0.3295212388 -0.1570120156 0.5426591635 4279375884
-0.3300980031 -0.1566828638 0.5436090231 4279507218
-0.3311788738 -0.1565899253 0.5453889966 4279573011
-0.3322599232 -0.1564931422 0.5471692681 4279571733
-0.3333411813 -0.1563924849 0.5489499569 4279505940
-0.3339182734 -0.1560522467 0.5499002337 4280030744
-0.3349998295 -0.1559447497 0.5516813993 4280425502
-0.3365862072 -0.1560673565 0.5542938709 4280687130
-0.3361540735 -0.1552519202 0.5535822511 4280752923
-0.3377408683 -0.1553667933 0.5561953783 4280949528
-0.3383181393 -0.1550133228 0.5571460128 4280752149
-0.3388954103 -0.1546577364 0.5580966473 4280620045
-0.3394726217 -0.1543000191 0.5590472817 4280291080
-0.3400498331 -0.1539401710 0.5599977970 4280159234
-0.3401216269 -0.1533503383 0.5601159930 4280225027
-0.3401931524 -0.1527601480 0.5602338314 4280686352
-0.3402644694 -0.1521695703 0.5603512526 4281081110
-0.3408412039 -0.1518038511 0.5613010526 4282329361
-0.3414179087 -0.1514360011 0.5622507930 4283184670
-0.3419945836 -0.1510660350 0.5632004738 4284563726
-0.3425712287 -0.1506939381 0.5641500354 4285221656
-0.3426417112 -0.1500979960 0.5642661452 4286929419
-0.3432181478 -0.1497225165 0.5652154088 4287784728
-0.3432882130 -0.1491249651 0.5653308034 4288769290
-0.3438644707 -0.1487461179 0.5662798285 4288966669
-0.3444406986 -0.1483651251 0.5672286749 4289557256
-0.3445101976 -0.1477647126 0.5673431754 4289754635
-0.3450862169 -0.1473803669 0.5682917833 4289951244
-0.3451553285 -0.1467783451 0.5684055686 4290017037
-0.3452242017 -0.1461759657 0.5685189962 4290214164
-0.3452928066 -0.1455732137 0.5686319470 4290345750
-0.3458682895 -0.1451829970 0.5695797205 4290083095
-0.3454292417 -0.1443666518 0.5688566566 4290148888
-0.3454970717 -0.1437628418 0.5689683557 4290345752
-0.3455646634 -0.1431586742 0.5690796375 4290214166
-0.3461395204 -0.1427634805 0.5700263381 4290147860
-0.3462066650 -0.1421577185 0.5701369643 4290147860
-0.3462735713 -0.1415515989 0.5702471137 4290278933
-0.3463402092 -0.1409451365 0.5703568459 4290213140
-0.3469145000 -0.1405441016 0.5713025928 4290541076
-0.3469807208 -0.1399360448 0.5714116693 4290475283
-0.3475548029 -0.1395316273 0.5723570585 4290540047
-0.3471123576 -0.1387188882 0.5716284513 4290342668
-0.3461611569 -0.1377053708 0.5700619817 4290144776
-0.3457177281 -0.1368964016 0.5693317652 4290013190
-0.3452738225 -0.1360888779 0.5686007142 4289881604
-0.3453380764 -0.1354823261 0.5687065721 4289881604
-0.3448933959 -0.1346768141 0.5679742098 4289882378
-0.3449570239 -0.1340704858 0.5680789948 4289816585
-0.3455292583 -0.1336606592 0.5690214038 4289619976
-0.3455924690 -0.1330527663 0.5691254735 4289554183
-0.3466735482 -0.1328346580 0.5709058046 4289488391
-0.3477546871 -0.1326126456 0.5726862550 4289554184
-0.3483267128 -0.1321934313 0.5736282468 4289619977
-0.3483893275 -0.1315797269 0.5737313628 4289488391
-0.3489610851 -0.1311571747 0.5746729374 4289357064
-0.3490232229 -0.1305419058 0.5747752786 4289291271
-0.3490850925 -0.1299263239 0.5748771429 4289094410
-0.3491466939 -0.1293104142 0.5749785900 4289094410
-0.3492080271 -0.1286941618 0.5750796199 4289028617
-0.3492690921 -0.1280776113 0.5751801729 4288962824
-0.3488199115 -0.1272746474 0.5744404793 4288962822
-0.3488803506 -0.1266583353 0.5745399594 4289028615
-0.3489404917 -0.1260417104 0.5746390224 4289355522
-0.3490003645 -0.1254247725 0.5747376680 4289223936
-0.3485496640 -0.1246250421 0.5739954114 4288698633
-0.3480985165 -0.1238268018 0.5732524395 4288698633
-0.3481573761 -0.1232107207 0.5733494163 4288306462
-0.3482159972 -0.1225943193 0.5734459162 4288438048
-0.3482743502 -0.1219776124 0.5735419989 4287914292
-0.3478216529 -0.1211826503 0.5727965236 4287914292
-0.3478793502 -0.1205662340 0.5728915334 4287720529
-0.3479367793 -0.1199495047 0.5729861259 4288312666
-0.3474829495 -0.1191572472 0.5722387433 4288118896
-0.3465175629 -0.1181921661 0.5706489086 4288316275
-0.3470850885 -0.1177506745 0.5715835094 4288055423
-0.3471412361 -0.1171345487 0.5716760159 4288515974
-0.3471971154 -0.1165181324 0.5717680454 4288714638
-0.3467413187 -0.1157307252 0.5710173845 4288846224
-0.3473080397 -0.1152844056 0.5719507337 4288910477
-0.3473631144 -0.1146671027 0.5720413923 4288844684
-0.3479295373 -0.1142174676 0.5729742050 4288582541
-0.3479841053 -0.1135986671 0.5730640292 4288253576
-0.3480384052 -0.1129795760 0.5731534362 4287201916
-0.3480924070 -0.1123601943 0.5732424259 4285622884
-0.3481461406 -0.1117405295 0.5733308792 4283189059
-0.3476875424 -0.1109571606 0.5725756288 4281281062
-0.3456920981 -0.1096878350 0.5692895055 4279702290
-0.3472812176 -0.1095566377 0.5719065666 4279175946
-0.3468213975 -0.1087769866 0.5711492896 4279308563
-0.3463611007 -0.1079988778 0.5703912973 4279440149
-0.3453879654 -0.1070634723 0.5687887073 4278981138
-0.3449267447 -0.1062893867 0.5680291653 4278783759
-0.3444650769 -0.1055168509 0.5672689080 4278653452
-0.3440029919 -0.1047458723 0.5665079355 4278324487
-0.3435404897 -0.1039764583 0.5657462478 4279176197
-0.3430775404 -0.1032086089 0.5649839044 4279307783
-0.3421012759 -0.1022889614 0.5633761287 4279504913
-0.3411244452 -0.1013727188 0.5617674589 4279373327
-0.3386079073 -0.1000053138 0.5576232076 4279702292
-0.3335247636 -0.0978937894 0.5492522717 4279570706
-0.3330585957 -0.0971475616 0.5484845638 4281151024
-0.3372113407 -0.0977418423 0.5553233624 4283256400
-0.3253928721 -0.1606972665 0.5368424654 4281416498
-0.3249647915 -0.1598901600 0.5361362100 4281219119
-0.3260433674 -0.1598231792 0.5379156470 4281217069
-0.3256146908 -0.1590161771 0.5372084379 4280822311
-0.3256881833 -0.1584550589 0.5373296738 4280952359
-0.3252587318 -0.1576498896 0.5366211534 4280360222
-0.3248288333 -0.1568460763 0.5359118581 4280293914
-0.3254043460 -0.1565274894 0.5368614197 4280030742
-0.3254767954 -0.1559657156 0.5369809270 4279897614
-0.3260522187 -0.1556437612 0.5379302502 4279766028
-0.3266276121 -0.1553197056 0.5388795733 4279701261
-0.3277063966 -0.1552319825 0.5406593680 4279701261
-0.3277783692 -0.1546652317 0.5407781601 4279439371
-0.3288573623 -0.1545715332 0.5425582528 4279768336
-0.3299365342 -0.1544739902 0.5443387628 4280031506
-0.3310159147 -0.1543725729 0.5461195707 4279834127
-0.3315915763 -0.1540331990 0.5470692515 4279767821
-0.3326712549 -0.1539249271 0.5488505960 4279833614
-0.3332469761 -0.1535804421 0.5498003960 4280096018
-0.3338226974 -0.1532338411 0.5507501960 4280227604
-0.3343983591 -0.1528851092 0.5516999960 4280228121
-0.3344695270 -0.1523045450 0.5518174171 4280359707
-0.3350450397 -0.1519524455 0.5527669191 4280360220
-0.3356205523 -0.1515982300 0.5537163615 4280294427
-0.3361960053 -0.1512418836 0.5546658039 4280228885
-0.3367714286 -0.1508834213 0.5556151271 4279768334
-0.3373468220 -0.1505228430 0.5565644503 4279832326
-0.3379221857 -0.1501601189 0.5575137138 4279766533
-0.3384975195 -0.1497952789 0.5584629178 4280092928
-0.3390727937 -0.1494283229 0.5594120026 4280027136
-0.3396480680 -0.1490592360 0.5603610873 4280616960
-0.3402232528 -0.1486880183 0.5613100529 4280945920
-0.3407984376 -0.1483146697 0.5622590184 4281273600
-0.3408678174 -0.1477200240 0.5623734593 4281602560
-0.3414427936 -0.1473433077 0.5633220673 4282194688
-0.3420177102 -0.1469644606 0.5642706156 4282589440
-0.3420865536 -0.1463669688 0.5643841624 4282721792
-0.3421551287 -0.1457691193 0.5644973516 4282919168
-0.3427297175 -0.1453856528 0.5654453039 4283248896
-0.3427978754 -0.1447861940 0.5655577779 4283577860
-0.3428657949 -0.1441863924 0.5656698346 4284366601
-0.3429334760 -0.1435862184 0.5657814145 4284827152
-0.3435075283 -0.1431968957 0.5667285323 4285221396
-0.3435747623 -0.1425951272 0.5668395162 4285418775
-0.3436417580 -0.1419930160 0.5669500232 4285681172
-0.3437084854 -0.1413905472 0.5670601130 4285812758
-0.3442820311 -0.1409953833 0.5680063367 4286206487
-0.3443483412 -0.1403913200 0.5681157708 4286403866
-0.3444143832 -0.1397869140 0.5682247281 4286928668
-0.3449875414 -0.1393871456 0.5691702962 4286928668
-0.3450531662 -0.1387811452 0.5692785978 4287256344
-0.3435959518 -0.1375652254 0.5668744445 4287387930
-0.3426455259 -0.1365566105 0.5653064251 4287584280
-0.3422021866 -0.1357526332 0.5645749569 4287650073
-0.3422662020 -0.1351506263 0.5646805763 4287715866
-0.3418220580 -0.1343486607 0.5639477968 4287715866
-0.3423934579 -0.1339456141 0.5648905039 4287518746
-0.3424566984 -0.1333425939 0.5649948120 4287518746
-0.3425196707 -0.1327392459 0.5650987029 4287387930
-0.3430906534 -0.1323316097 0.5660407543 4287256344
-0.3446783125 -0.1323121637 0.5686601400 4287125017
-0.3457577825 -0.1320927441 0.5704411268 4287125017
-0.3463288248 -0.1316760480 0.5713831782 4287125276
-0.3463911116 -0.1310647726 0.5714859962 4286993690
-0.3469618857 -0.1306447238 0.5724276304 4286533658
-0.3470237255 -0.1300318986 0.5725296736 4286402072
-0.3470852971 -0.1294187307 0.5726312995 4286073883
-0.3471466303 -0.1288052499 0.5727324486 4286008090
-0.3472076654 -0.1281914413 0.5728331208 4285877530
-0.3472684324 -0.1275773048 0.5729333758 4285877530
-0.3468196392 -0.1267766953 0.5721929669 4285942810
-0.3468797803 -0.1261628121 0.5722922087 4286140189
-0.3469396532 -0.1255486161 0.5723909736 4285944352
-0.3469992578 -0.1249341071 0.5724893212 4285944352
-0.3470585644 -0.1243192852 0.5725871921 4286011182
-0.3466078937 -0.1235224903 0.5718436241 4287063870
-0.3466666043 -0.1229079440 0.5719404817 4288183650
-0.3462151289 -0.1221132353 0.5711956024 4289367924
-0.3462731838 -0.1214989722 0.5712913871 4289763723
-0.3463309705 -0.1208843961 0.5713867545 4290026895
-0.3458783329 -0.1200923845 0.5706399679 4289436821
-0.3459354937 -0.1194780990 0.5707342625 4288778891
-0.3454820514 -0.1186882034 0.5699861646 4287399042
-0.3455385864 -0.1180742159 0.5700794458 4286214768
-0.3450843394 -0.1172864363 0.5693300366 4284440156
-0.3451402485 -0.1166727617 0.5694222450 4282532159
-0.3451958597 -0.1160587892 0.5695139766 4280953384
-0.3447404504 -0.1152737513 0.5687626600 4280295454
-0.3447954357 -0.1146600917 0.5688533783 4279769102
-0.3453610241 -0.1142151058 0.5697864890 4280032274
-0.3454155326 -0.1135999560 0.5698764324 4280295967
-0.3454697728 -0.1129845232 0.5699658990 4280295967
-0.3455237150 -0.1123687923 0.5700549483 4279506201
-0.3455773890 -0.1117527783 0.5701434612 4278782478
-0.3451195061 -0.1109720767 0.5693880320 4279044876
-0.3421043456 -0.1093754545 0.5644135475 4279571220
-0.3447138667 -0.1095778644 0.5687187910 4279702290
-0.3442547321 -0.1088008732 0.5679613352 4279241739
-0.3391907811 -0.1065786630 0.5596066713 4279308048
-0.3428235054 -0.1070916951 0.5656000376 4279176462
-0.3423630297 -0.1063202694 0.5648403168 4279176462
-0.3413902521 -0.1053923890 0.5632354021 4279110669
-0.3414407372 -0.1047820821 0.5633186698 4279307019
-0.3409789503 -0.1040153280 0.5625568032 4279109640
-0.3400046825 -0.1030948684 0.5609494448 4278915094
-0.3395419419 -0.1023321599 0.5601860285 4278717715
-0.3385666013 -0.1014175862 0.5585768819 4278782478
-0.3375906944 -0.1005064175 0.5569667816 4279177236
-0.3361018300 -0.0994470641 0.5545104146 4279440147
-0.3351247013 -0.0985436365 0.5528983474 4279637526
-0.3341470063 -0.0976436287 0.5512853265 4280559657
-0.3300933540 -0.0958539918 0.5445974469 4282401861
-0.3222915828 -0.1606415957 0.5327019691 4281874749
-0.3228669167 -0.1603354514 0.5336529613 4281545784
-0.3234422803 -0.1600271910 0.5346039534 4281808954
-0.3245192170 -0.1599640548 0.5363839865 4281677368
-0.3250946999 -0.1596507132 0.5373351574 4281480243
-0.3246665895 -0.1588442326 0.5366275311 4281348657
-0.3242380023 -0.1580391079 0.5359191895 4281084972
-0.3233069479 -0.1569915563 0.5343802571 4280690214
-0.3228773475 -0.1561900079 0.5336701870 4280427040
-0.3229495585 -0.1556318551 0.5337895751 4280098075
-0.3225191832 -0.1548321694 0.5330781937 4280293397
-0.3225908279 -0.1542741358 0.5331966281 4280096018
-0.3231648505 -0.1539551765 0.5341453552 4279964432
-0.3237388432 -0.1536341012 0.5350941420 4280030225
-0.3238100410 -0.1530732214 0.5352118015 4280096018
-0.3243839145 -0.1527488083 0.5361602902 4280161811
-0.3264668584 -0.1531300992 0.5396031737 4280227604
-0.3255316317 -0.1520936042 0.5380573273 4280293397
-0.3271119595 -0.1522312462 0.5406693816 4280161811
-0.3276860118 -0.1518966258 0.5416182280 4280161811
-0.3282600343 -0.1515598744 0.5425670147 4280161811
-0.3283304572 -0.1509894282 0.5426834226 4280227604
-0.3294080198 -0.1508800387 0.5444644690 4280293397
-0.3299819827 -0.1505369395 0.5454131365 4280293397
-0.3305559456 -0.1501917243 0.5463618040 4280359190
-0.3311298490 -0.1498443782 0.5473104119 4280293397
-0.3322078586 -0.1497221291 0.5490921736 4280359190
-0.3322775960 -0.1491433531 0.5492074490 4280359190
-0.3328514397 -0.1487896591 0.5501559377 4280293397
-0.3334252238 -0.1484338343 0.5511043668 4280293397
-0.3345035315 -0.1482995749 0.5528866053 4280424983
-0.3350773752 -0.1479386389 0.5538350940 4280556569
-0.3361559212 -0.1477974802 0.5556177497 4280622362
-0.3367297947 -0.1474314034 0.5565662980 4280622362
-0.3373036087 -0.1470632106 0.5575147271 4280425753
-0.3373723328 -0.1464736164 0.5576283336 4280359960
-0.3379459977 -0.1461020410 0.5585765243 4280228374
-0.3385195732 -0.1457283497 0.5595245957 4280030995
-0.3390931189 -0.1453525275 0.5604725480 4279965202
-0.3396666348 -0.1449745893 0.5614205003 4279833616
-0.3397345245 -0.1443796605 0.5615326762 4279702030
-0.3403078318 -0.1439983398 0.5624802709 4279504651
-0.3403753042 -0.1434018165 0.5625918508 4279374093
-0.3404425383 -0.1428049505 0.5627029538 4279439886
-0.3405095339 -0.1422077119 0.5628136992 4279570702
-0.3410823047 -0.1418205500 0.5637603998 4279570702
-0.3411488831 -0.1412217319 0.5638704300 4279832846
-0.3412151933 -0.1406225562 0.5639800429 4279964432
-0.3417876065 -0.1402307898 0.5649261475 4280423695
-0.3418534994 -0.1396300346 0.5650350451 4280489488
-0.3419191539 -0.1390289366 0.5651435852 4280750858
-0.3424911797 -0.1386325657 0.5660890341 4280750858
-0.3425563872 -0.1380298734 0.5661968589 4281209350
-0.3405940235 -0.1366136670 0.5629532933 4281275143
-0.3391375244 -0.1354066581 0.5605459809 4281669124
-0.3386942744 -0.1346076876 0.5598133206 4281866503
-0.3377434611 -0.1336095631 0.5582417250 4281998087
-0.3378064334 -0.1330141127 0.5583458543 4281932294
-0.3383764625 -0.1326171458 0.5592880249 4281603584
-0.3394538164 -0.1324160099 0.5610687137 4281866752
-0.3395162821 -0.1318168789 0.5611720085 4281933574
-0.3405936956 -0.1316096932 0.5629527569 4282262539
-0.3421788812 -0.1315938383 0.5655728579 4282197006
-0.3432565928 -0.1313779354 0.5673541427 4281999627
-0.3438265324 -0.1309646517 0.5682961941 4281343246
-0.3443963826 -0.1305492520 0.5692381263 4280751109
-0.3444581330 -0.1299400628 0.5693401098 4281278744
-0.3450277150 -0.1295213103 0.5702816248 4283581499
-0.3450889885 -0.1289105862 0.5703828931 4285754216
-0.3451500237 -0.1282995343 0.5704837441 4286806904
-0.3452107608 -0.1276881546 0.5705841184 4286676350
-0.3447627425 -0.1268893033 0.5698436499 4286610557
-0.3448228538 -0.1262781769 0.5699430108 4286544764
-0.3443740308 -0.1254813820 0.5692011714 4286610557
-0.3444335163 -0.1248705313 0.5692994595 4286611582
-0.3444927335 -0.1242593601 0.5693973899 4286479996
-0.3445517123 -0.1236478761 0.5694947839 4286414203
-0.3441013396 -0.1228543371 0.5687504411 4286216824
-0.3441596627 -0.1222431362 0.5688468218 4285953395
-0.3442177176 -0.1216316149 0.5689427853 4285492844
-0.3442755044 -0.1210197881 0.5690382719 4284374109
-0.3438236415 -0.1202295423 0.5682914257 4283124042
-0.3433713317 -0.1194407940 0.5675438643 4281742389
-0.3434281349 -0.1188298613 0.5676377416 4281150252
-0.3434846699 -0.1182186306 0.5677311420 4280229150
-0.3430311978 -0.1174326092 0.5669816136 4279373841
-0.3425773084 -0.1166480929 0.5662314296 4279044876
-0.3426328301 -0.1160377786 0.5663232207 4279110669
-0.3426881135 -0.1154271662 0.5664145350 4279176462
-0.3422330618 -0.1146454066 0.5656624436 4279176462
-0.3422876894 -0.1140351146 0.5657526851 4279110155
-0.3423420489 -0.1134245321 0.5658425689 4279175948
-0.3423961401 -0.1128136590 0.5659319758 4279110155
-0.3419395685 -0.1120352820 0.5651773214 4279175948
-0.3425034583 -0.1115910485 0.5661093593 4279308048
-0.3420462012 -0.1108139232 0.5653535724 4279637013
-0.3415884972 -0.1100383326 0.5645970702 4279702806
-0.3370449841 -0.1079557315 0.5570873022 4279505427
-0.3411825597 -0.1086544394 0.5639261007 4279373841
-0.3402128220 -0.1077208295 0.5623232722 4279308048
-0.3397533894 -0.1069514230 0.5615639091 4279242255
-0.3336727321 -0.1044245064 0.5515134335 4279242255
-0.3378111422 -0.1050992757 0.5583536029 4279242255
-0.3373502791 -0.1043363735 0.5575918555 4279242255
-0.3374001980 -0.1037321910 0.5576744080 4279242255
-0.3364272714 -0.1028152406 0.5560662746 4279176462
-0.3354537785 -0.1019016877 0.5544572473 4278979598
-0.3355025649 -0.1013003811 0.5545378923 4278979598
-0.3345280588 -0.1003918052 0.5529271960 4279110930
-0.3335529864 -0.0994866341 0.5513155460 4279637274
-0.3325773776 -0.0985848755 0.5497029424 4279966752
-0.3316011727 -0.0976865366 0.5480894446 4280427303
-0.3296007812 -0.0964919552 0.5447831154 4280625197
-0.3311826885 -0.0963468701 0.5473977327 4282862159
-0.3196984231 -0.1608185172 0.5293877125 4281217334
-0.3202727735 -0.1605181992 0.5303388238 4281151541
-0.3214215636 -0.1599112451 0.5322411060 4280822061
-0.3234982789 -0.1603492647 0.5356799364 4281216817
-0.3235721588 -0.1597905606 0.5358022451 4281085231
-0.3236458004 -0.1592314839 0.5359241962 4281019179
-0.3207125366 -0.1571982801 0.5310670137 4280887593
-0.3227899671 -0.1576226652 0.5345069766 4280690214
-0.3218600452 -0.1565763950 0.5329671502 4280558628
-0.3214308619 -0.1557762474 0.5322564840 4280427040
-0.3215028346 -0.1552196145 0.5323756337 4280295454
-0.3210728765 -0.1544213146 0.5316636562 4280490776
-0.3211442828 -0.1538648009 0.5317819118 4280293397
-0.3212154210 -0.1533079296 0.5318997502 4280096018
-0.3217883706 -0.1529893428 0.5328484774 4280030225
-0.3218592107 -0.1524308473 0.5329657197 4280096018
-0.3219297826 -0.1518719941 0.5330826640 4280096018
-0.3225024939 -0.1515488178 0.5340309739 4280161811
-0.3230752051 -0.1512235403 0.5349792838 4280161811
-0.3231453300 -0.1506618261 0.5350954533 4280161811
-0.3232152164 -0.1500997543 0.5352111459 4280227604
-0.3237876594 -0.1497698873 0.5361590385 4280293397
-0.3238571882 -0.1492062211 0.5362741947 4280359190
-0.3244294822 -0.1488729864 0.5372218490 4280359190
-0.3250017762 -0.1485376507 0.5381695032 4280359190
-0.3255740106 -0.1482001990 0.5391170979 4280424983
-0.3261462450 -0.1478606313 0.5400646925 4280424983
-0.3267184794 -0.1475189328 0.5410122275 4280424470
-0.3272906542 -0.1471751332 0.5419597030 4280424470
-0.3278628290 -0.1468292177 0.5429071188 4280227604
-0.3289386928 -0.1467058361 0.5446886420 4280161811
-0.3295108974 -0.1463548094 0.5456361771 4280161811
-0.3305870295 -0.1462245435 0.5474181175 4280227604
-0.3311592638 -0.1458683908 0.5483657122 4280293397
-0.3317314982 -0.1455101073 0.5493132472 4280293397
-0.3323036730 -0.1451497078 0.5502607226 4280161811
-0.3323714435 -0.1445678174 0.5503729582 4280096018
-0.3329434395 -0.1442040503 0.5513200760 4279899410
-0.3335154057 -0.1438381672 0.5522671938 4279965203
-0.3340873122 -0.1434701681 0.5532142520 4280096789
-0.3346591592 -0.1431000382 0.5541611910 4280228375
-0.3352310061 -0.1427277774 0.5551080704 4280228375
-0.3352977931 -0.1421393305 0.5552186966 4280162582
-0.3353643715 -0.1415505409 0.5553289056 4280162328
-0.3359358311 -0.1411736906 0.5562751889 4280096535
-0.3365072608 -0.1407947093 0.5572214127 4280161558
-0.3365732729 -0.1402030885 0.5573307276 4280095765
-0.3366390169 -0.1396111250 0.5574396253 4280096018
-0.3372100890 -0.1392275542 0.5583851933 4280161811
-0.3377810717 -0.1388418525 0.5593307614 4280227858
-0.3378462791 -0.1382470727 0.5594387054 4280293651
-0.3379111886 -0.1376519501 0.5595462322 4280161550
-0.3379758894 -0.1370564699 0.5596532822 4280161550
-0.3370282054 -0.1360521019 0.5580840707 4280292877
-0.3345614672 -0.1344407946 0.5539993644 4280227084
-0.3341184556 -0.1336480528 0.5532658100 4280292106
-0.3331686854 -0.1326551735 0.5516930819 4280423692
-0.3322182596 -0.1316655278 0.5501192808 4280424460
-0.3327867687 -0.1312785745 0.5510606766 4280424460
-0.3333552480 -0.1308895051 0.5520020127 4280554251
-0.3339236379 -0.1304983348 0.5529432297 4280751630
-0.3344919682 -0.1301050186 0.5538842678 4280818193
-0.3365809023 -0.1302983016 0.5573433638 4280949779
-0.3386703432 -0.1304840744 0.5608032942 4280950037
-0.3397460878 -0.1302734762 0.5625845790 4281015830
-0.3408219218 -0.1300589442 0.5643661022 4280950553
-0.3408833444 -0.1294552237 0.5644677877 4280818967
-0.3414518535 -0.1290429085 0.5654091835 4280688155
-0.3415128589 -0.1284376383 0.5655101538 4281017120
-0.3415735662 -0.1278320402 0.5656107068 4280821539
-0.3416340053 -0.1272261143 0.5657107830 4280360988
-0.3411864936 -0.1264317334 0.5649697185 4279900950
-0.3412463069 -0.1258260757 0.5650687814 4279966743
-0.3413058817 -0.1252200902 0.5651674271 4280032025
-0.3413651586 -0.1246137917 0.5652655959 4279966232
-0.3414241970 -0.1240071803 0.5653633475 4279505681
-0.3409748077 -0.1232166290 0.5646191835 4279242509
-0.3410331905 -0.1226102933 0.5647159219 4278650372
-0.3403604627 -0.1186112091 0.5636019111 4278386946
-0.3404168189 -0.1180045456 0.5636952519 4278781704
-0.3399639726 -0.1172220930 0.5629453659 4279308048
-0.3400196731 -0.1166157275 0.5630376339 4279571220
-0.3395660520 -0.1158354059 0.5622864366 4279637015
-0.3391119540 -0.1150566041 0.5615345240 4279571222
-0.3391667008 -0.1144511700 0.5616251826 4279308050
-0.3387118578 -0.1136745065 0.5608720183 4279110671
-0.3382565379 -0.1128993705 0.5601180792 4279110669
-0.3383103013 -0.1122948900 0.5602070689 4279110669
-0.3383637965 -0.1116901189 0.5602957010 4279110669
-0.3384170234 -0.1110850573 0.5603837967 4279110669
-0.3379602432 -0.1103133336 0.5596274137 4279308048
-0.3369931877 -0.1093776748 0.5580260754 4279505427
-0.3370453715 -0.1087745056 0.5581124425 4279505427
-0.3309774995 -0.1062072814 0.5480647087 4279308048
-0.3356187046 -0.1070791185 0.5557500720 4279242255
-0.3346495628 -0.1061542183 0.5541452765 4279242255
-0.3341900408 -0.1053936034 0.5533843040 4279176462
-0.3337300718 -0.1046345457 0.5526226759 4279176462
-0.3296971321 -0.1027635112 0.5459445715 4279111182
-0.3328089118 -0.1031211093 0.5510973334 4279176975
-0.3328582048 -0.1025239900 0.5511789918 4279176975
-0.3318860531 -0.1016139388 0.5495691895 4279176975
-0.3309133053 -0.1007072926 0.5479584336 4279242516
-0.3309614956 -0.1001130491 0.5480381846 4279242516
-0.3310093880 -0.0995185450 0.5481175184 4279374615
-0.3300352693 -0.0986184627 0.5465044379 4279966752
-0.3295715153 -0.0978735387 0.5457365513 4280427303
-0.3291073740 -0.0971301943 0.5449679494 4280822061
-0.3296650052 -0.0966882482 0.5458913445 4280822576
-0.3292001486 -0.0959462449 0.5451216102 4282993745
-0.3224782050 -0.1607325375 0.5349746346 4280624682
-0.3220520616 -0.1599265337 0.5342677236 4280756009
-0.3221256733 -0.1593693346 0.5343897939 4280624423
-0.3226993680 -0.1590583622 0.5353415608 4280624421
-0.3222722113 -0.1582538038 0.5346329212 4280361249
-0.3218446076 -0.1574506015 0.5339235663 4280426783
-0.3204152584 -0.1561607569 0.5315523148 4280558369
-0.3199865222 -0.1553620100 0.5308411121 4280492576
-0.3190564811 -0.1543223560 0.5292981863 4280426783
-0.3196287155 -0.1540099829 0.5302475095 4280425753
-0.3196998537 -0.1534549892 0.5303655267 4280228374
-0.3197707534 -0.1528996229 0.5304831266 4280030995
-0.3198414445 -0.1523438841 0.5306004286 4279965202
-0.3199118972 -0.1517877877 0.5307173133 4279965202
-0.3199821413 -0.1512313038 0.5308337808 4280030995
-0.3195504844 -0.1504383087 0.5301177502 4280030995
-0.3196201622 -0.1498819739 0.5302333236 4280030995
-0.3201914728 -0.1495597064 0.5311810374 4280162581
-0.3202607930 -0.1490017772 0.5312960744 4280162581
-0.3198277950 -0.1482108086 0.5305777192 4280162581
-0.3198965490 -0.1476530284 0.5306918025 4280162581
-0.3204673529 -0.1473258138 0.5316387415 4280162581
-0.3205357492 -0.1467664540 0.5317522287 4280162581
-0.3211064339 -0.1464358866 0.5326989889 4280228374
-0.3216770887 -0.1461032033 0.5336456895 4280294167
-0.3222477436 -0.1457684189 0.5345923305 4280490776
-0.3228183687 -0.1454315186 0.5355389714 4280359190
-0.3233889639 -0.1450925022 0.5364855528 4280359190
-0.3244625628 -0.1449761391 0.5382665992 4280293397
-0.3250332177 -0.1446320117 0.5392132998 4280161812
-0.3256038427 -0.1442857683 0.5401599407 4280096019
-0.3261744380 -0.1439374089 0.5411065221 4280161812
-0.3262415528 -0.1433656812 0.5412178040 4280161812
-0.3268119693 -0.1430139691 0.5421641469 4280096789
-0.3273823559 -0.1426601410 0.5431103706 4279965203
-0.3279527128 -0.1423041970 0.5440565348 4279899410
-0.3280191422 -0.1417284161 0.5441668034 4279899410
-0.3285893202 -0.1413691193 0.5451126695 4279965203
-0.3291594386 -0.1410076916 0.5460584760 4280030996
-0.3297295570 -0.1406441480 0.5470042229 4280030996
-0.3302995861 -0.1402784884 0.5479499102 4279965203
-0.3308695853 -0.1399107128 0.5488955379 4279899158
-0.3314395547 -0.1395408064 0.5498410463 4279833365
-0.3320094645 -0.1391687840 0.5507864952 4279832593
-0.3320746422 -0.1385840178 0.5508946180 4279766800
-0.3326443434 -0.1382086426 0.5518397689 4279570445
-0.3327091336 -0.1376222968 0.5519472361 4279504652
-0.3327736557 -0.1370356232 0.5520542860 4279439371
-0.3333429992 -0.1366556585 0.5529987812 4279373578
-0.3334071338 -0.1360674053 0.5531051755 4279439885
-0.3334710002 -0.1354788244 0.5532111526 4279439885
-0.3305025101 -0.1336636245 0.5482865572 4279440399
-0.3295543790 -0.1326727420 0.5467136502 4279440399
-0.3291111887 -0.1318877041 0.5459784269 4279374352
-0.3281619251 -0.1309024096 0.5444036126 4279571731
-0.3277177513 -0.1301211864 0.5436667800 4279703832
-0.3282848001 -0.1297412366 0.5446074605 4279769625
-0.3283458650 -0.1291601509 0.5447087884 4280031257
-0.3294186890 -0.1289749891 0.5464885831 4280097050
-0.3309977949 -0.1289831400 0.5491082072 4280031771
-0.3325771689 -0.1289855838 0.5517283082 4279900185
-0.3341568708 -0.1289823204 0.5543489456 4279834392
-0.3352304697 -0.1287788302 0.5561299920 4279834392
-0.3357976675 -0.1283777803 0.5570709705 4279834392
-0.3368713856 -0.1281673461 0.5588521957 4279965978
-0.3369318843 -0.1275693178 0.5589525700 4279768853
-0.3369921148 -0.1269709766 0.5590524673 4279637267
-0.3370520771 -0.1263723224 0.5591519475 4279703060
-0.3371118009 -0.1257733405 0.5592510104 4279703060
-0.3366641998 -0.1249858066 0.5585085154 4279834646
-0.3367232978 -0.1243870929 0.5586065650 4280097818
-0.3367821276 -0.1237880588 0.5587041378 4279900696
-0.3373479843 -0.1233742461 0.5596428514 4279637524
-0.3368990123 -0.1225890666 0.5588980317 4279965978
-0.3369570374 -0.1219891012 0.5589942932 4280097564
-0.3370147943 -0.1213888302 0.5590901375 4279965978
-0.3365646899 -0.1206063330 0.5583434105 4279637013
-0.3366218209 -0.1200063527 0.5584381819 4279505427
-0.3366787136 -0.1194060594 0.5585325956 4279505427
-0.3367353380 -0.1188054681 0.5586265326 4279439634
-0.3362837136 -0.1180262864 0.5578773022 4279308048
-0.3358316422 -0.1172486171 0.5571273565 4279242257
-0.3353791535 -0.1164724603 0.5563766360 4279373843
-0.3354344666 -0.1158733889 0.5564684272 4279505429
-0.3354894817 -0.1152740270 0.5565596819 4279505429
-0.3350358605 -0.1145006195 0.5558071733 4279373843
-0.3345817924 -0.1137287319 0.5550538898 4279242257
-0.3341272771 -0.1129583716 0.5542998910 4279242257
-0.3341810107 -0.1123605669 0.5543889999 4279373843
-0.3337257206 -0.1115923673 0.5536336899 4279242255
-0.3332700133 -0.1108256951 0.5528777242 4279176462
-0.3333227634 -0.1102288514 0.5529652238 4279242255
-0.3328662813 -0.1094643548 0.5522079468 4279242255
-0.3324093521 -0.1087013930 0.5514499545 4279308048
-0.3314428926 -0.1077744290 0.5498465896 4279373841
-0.3314942420 -0.1071801111 0.5499318242 4279242768
-0.3315453231 -0.1065855250 0.5500165820 4279176975
-0.3270118833 -0.1045253500 0.5424957871 4279176977
-0.3306278288 -0.1050717309 0.5484944582 4279242770
-0.3301684260 -0.1043171659 0.5477323532 4279176977
-0.3297086358 -0.1035641655 0.5469695330 4279111184
-0.3297580481 -0.1029718816 0.5470515490 4279242770
-0.3298072219 -0.1023793295 0.5471331477 4279308563
-0.3288849592 -0.1008806303 0.5456031561 4279571735
-0.3289331794 -0.1002891287 0.5456830859 4279703580
-0.3289811015 -0.0996973589 0.5457626581 4279637787
-0.3295389116 -0.0992589891 0.5466880202 4279835166
-0.3290761709 -0.0985130593 0.5459203720 4280295717
-0.3291233182 -0.0979205221 0.5459985733 4280624683
-0.3286598325 -0.0971768424 0.5452296734 4280953648
-0.3292630911 -0.0961414054 0.5462304354 4283322710
-0.3188894689 -0.1604149491 0.5299977064 4281085750
-0.3200351298 -0.1598093063 0.5319017768 4280558890
-0.3216067553 -0.1600002050 0.5345138311 4280690216
-0.3211808205 -0.1591952145 0.5338059068 4280558630
-0.3217536807 -0.1588849872 0.5347580314 4280623908
-0.3213270605 -0.1580809653 0.5340489745 4280294943
-0.3199003339 -0.1567883193 0.5316777229 4280491806
-0.3209724724 -0.1567210853 0.5334596038 4280754978
-0.3195444942 -0.1554337740 0.5310863256 4280491806
-0.3191159666 -0.1546360403 0.5303741097 4280360220
-0.3186869919 -0.1538396925 0.5296611786 4280294168
-0.3187579811 -0.1532853395 0.5297791362 4280162582
-0.3178277314 -0.1522510797 0.5282330513 4280030996
-0.3178980350 -0.1516977400 0.5283499360 4280030996
-0.3179681301 -0.1511440128 0.5284664035 4280096789
-0.3180380166 -0.1505899429 0.5285825133 4280162582
-0.3171057403 -0.1495629400 0.5270330906 4280162582
-0.3181770742 -0.1494806856 0.5288136601 4280162582
-0.3182462454 -0.1489255130 0.5289286375 4280294168
-0.3183152080 -0.1483699828 0.5290432572 4280228375
-0.3178825676 -0.1475813091 0.5283241868 4280162582
-0.3179509640 -0.1470259279 0.5284378529 4280162582
-0.3180191219 -0.1464701891 0.5285511613 4280228375
-0.3180870712 -0.1459140927 0.5286640525 4280228375
-0.3181547821 -0.1453576535 0.5287765861 4280228375
-0.3187241852 -0.1450292319 0.5297229886 4280228375
-0.3187915385 -0.1444711983 0.5298349261 4280294168
-0.3193607926 -0.1441394538 0.5307810307 4280228375
-0.3199300468 -0.1438055784 0.5317271352 4280228375
-0.3199969232 -0.1432447284 0.5318382382 4280294168
-0.3205659986 -0.1429075152 0.5327841043 4280162582
-0.3211350739 -0.1425681859 0.5337298512 4280096789
-0.3212014437 -0.1420045197 0.5338401794 4280096789
-0.3217703402 -0.1416618526 0.5347856879 4280162582
-0.3223392069 -0.1413170695 0.5357311964 4280031253
-0.3224050999 -0.1407505870 0.5358406901 4279899667
-0.3224707246 -0.1401837617 0.5359497666 4279833874
-0.3225361109 -0.1396165937 0.5360584259 4279768081
-0.3231045604 -0.1392659992 0.5370032191 4279768083
-0.3236729503 -0.1389133036 0.5379478931 4279702290
-0.3242413104 -0.1385584772 0.5388925076 4279702290
-0.3248096406 -0.1382015347 0.5398370624 4279768083
-0.3253779113 -0.1378424913 0.5407815576 4279703060
-0.3259461522 -0.1374813169 0.5417259336 4279637267
-0.3260104656 -0.1369064301 0.5418328047 4279702290
-0.3265784979 -0.1365419179 0.5427769423 4279570704
-0.3271465003 -0.1361752748 0.5437209606 4279570445
-0.3272102773 -0.1355975866 0.5438269377 4279504652
-0.3277780712 -0.1352276057 0.5447705984 4279439116
-0.3273370862 -0.1344412118 0.5440376997 4279439116
-0.3279045820 -0.1340687722 0.5449808836 4279242509
-0.3259491920 -0.1326673925 0.5417309999 4279176716
-0.3239927888 -0.1312728077 0.5384794474 4279176462
-0.3240544200 -0.1306993663 0.5385818481 4279242255
-0.3241157830 -0.1301256120 0.5386838317 4279504659
-0.3231669962 -0.1291479319 0.5371069908 4279767831
-0.3237327337 -0.1287762076 0.5380471945 4280031003
-0.3237932622 -0.1282023638 0.5381478071 4280096796
-0.3243587613 -0.1278273016 0.5390877128 4279966230
-0.3249242306 -0.1274501383 0.5400274992 4279834644
-0.3270058632 -0.1276627928 0.5434872508 4279900950
-0.3285824955 -0.1276715547 0.5461075902 4279703571
-0.3296538293 -0.1274790764 0.5478881598 4279637524
-0.3307252824 -0.1272826791 0.5496689081 4279505938
-0.3307852447 -0.1266949326 0.5497685671 4279374095
-0.3308449686 -0.1261068732 0.5498678684 4279439888
-0.3314104080 -0.1257104129 0.5508075953 4279833876
-0.3314697146 -0.1251208037 0.5509061813 4279768083
-0.3315287530 -0.1245308891 0.5510042906 4279899669
-0.3310813010 -0.1237514317 0.5502606034 4279833876
-0.3311397433 -0.1231617853 0.5503577590 4279768085
-0.3311979175 -0.1225718334 0.5504544377 4279899671
-0.3312558234 -0.1219815612 0.5505506992 4279767831
