VERSION 0.7
FIELDS x y z rgba
SIZE 4 4 4 4
TYPE F F F U
COUNT 1 1 1 1
WIDTH 920
HEIGHT 1
VIEWPOINT 0.0 0.0 0.0 1.0 0.0 0.0 0.0
POINTS 920
DATA ascii
-0.3552781641 -0.1296233386 0.5735365748 4289558031
-0.3553401828 -0.1290086359 0.5736367702 4289558031
-0.3554019630 -0.1283935905 0.5737364888 4289426447
-0.3554634452 -0.1277782321 0.5738357306 4289360654
-0.3550071716 -0.1269774586 0.5730991364 4289294861
-0.3550680280 -0.1263623685 0.5731973648 4289229068
-0.3551286161 -0.1257469505 0.5732951760 4289163275
-0.3551889062 -0.1251312196 0.5733925700 4289163275
-0.3552489579 -0.1245151907 0.5734894276 4289163276
-0.3553087115 -0.1238988340 0.5735859275 4289097483
-0.3558862209 -0.1234618872 0.5745182037 4289097483
-0.3559454978 -0.1228440180 0.5746139288 4289097483
-0.3560045063 -0.1222258434 0.5747091770 4289031690
-0.3565815389 -0.1217843667 0.5756406784 4289031690
-0.3566400707 -0.1211646795 0.5757351518 4288899850
-0.3566983342 -0.1205446795 0.5758292079 4288834057
-0.3567562997 -0.1199243814 0.5759227872 4288834057
-0.3568139970 -0.1193037853 0.5760159492 4288834057
-0.3568713963 -0.1186828837 0.5761086345 4288834057
-0.3569285572 -0.1180616841 0.5762009025 4288834057
-0.3564665318 -0.1172694862 0.5754550099 4288702471
-0.3560040593 -0.1164788082 0.5747084618 4288702471
-0.3560601771 -0.1158585250 0.5747990608 4288637193
-0.3561160266 -0.1152379513 0.5748891830 4288637193
-0.3561715782 -0.1146170869 0.5749788880 4288636678
-0.3557075858 -0.1138297617 0.5742298365 4288570885
-0.3557624817 -0.1132092252 0.5743184686 4288570885
-0.3558171093 -0.1125884056 0.5744066834 4288570885
-0.3553519547 -0.1118038371 0.5736557245 4288505094
-0.3554059267 -0.1111833528 0.5737428665 4288439301
-0.3549399376 -0.1104009449 0.5729906559 4288570887
-0.3549932837 -0.1097808033 0.5730767250 4288570887
-0.3550463319 -0.1091603860 0.5731623769 4288439560
-0.3550991118 -0.1085396931 0.5732475519 4288439560
-0.3546316028 -0.1077607125 0.5724928379 4288505094
-0.3546837270 -0.1071403772 0.5725769997 4288570887
-0.3547355533 -0.1065197662 0.5726606846 4288570887
-0.3542668819 -0.1057436094 0.5719040632 4288505094
-0.3543180525 -0.1051233709 0.5719866753 4288243721
-0.3543689549 -0.1045028567 0.5720688701 4288309514
-0.3544195890 -0.1038820818 0.5721505880 4288375050
-0.3539493978 -0.1031094119 0.5713915229 4288375050
-0.3534787595 -0.1023382992 0.5706318021 4288571148
-0.3530077040 -0.1015687510 0.5698713660 4288636941
-0.3530569375 -0.1009496674 0.5699508190 4288768017
-0.3525851071 -0.1001823395 0.5691891313 4288833810
-0.3521128297 -0.0994165838 0.5684266686 4288571149
-0.3526819944 -0.0989447087 0.5693455338 4288636942
-0.3522090018 -0.0981802717 0.5685819387 4288506644
-0.3517355621 -0.0974174142 0.5678176880 4288638230
-0.3517828584 -0.0967995450 0.5678940415 4288442922
-0.3513086438 -0.0960389376 0.5671285391 4288640301
-0.3508340120 -0.0952799097 0.5663622618 4288377917
-0.3508802950 -0.0946631283 0.5664370060 4288114745
-0.3509263098 -0.0940461084 0.5665112734 4285620277
-0.3509720266 -0.0934288427 0.5665851235 4283449108
-0.3504959047 -0.0926734358 0.5658164620 4281280526
-0.3505409658 -0.0920566097 0.5658892393 4282596386
-0.3505857587 -0.0914395452 0.5659615397 4285295462
-0.3409963548 -0.1564976573 0.5514698029 4280493348
-0.3415810764 -0.1561522484 0.5524154902 4282335552
-0.3421657979 -0.1558047235 0.5533610582 4289962337
-0.3422389030 -0.1552230567 0.5534793139 4291475576
-0.3433351219 -0.1551033258 0.5552521348 4291866949
-0.3444315493 -0.1549797356 0.5570253134 4291669570
-0.3455281556 -0.1548523009 0.5587987900 4291734072
-0.3466249406 -0.1547210068 0.5605725050 4291734072
-0.3461855948 -0.1539028436 0.5598620176 4292127792
-0.3467701972 -0.1535396427 0.5608074665 4291733034
-0.3468424678 -0.1529484242 0.5609242916 4291536170
-0.3474268913 -0.1525818557 0.5618695021 4291338791
-0.3474987745 -0.1519890130 0.5619857311 4291272483
-0.3475703895 -0.1513958126 0.5621015429 4291338276
-0.3476417363 -0.1508022249 0.5622169375 4291338530
-0.3482257128 -0.1504298300 0.5631613731 4291075358
-0.3482966721 -0.1498346478 0.5632761121 4290877464
-0.3488804400 -0.1494589001 0.5642202497 4290811671
-0.3494641781 -0.1490810215 0.5651642680 4290942232
-0.3495346010 -0.1484829932 0.5652781129 4290744853
-0.3501181304 -0.1481017768 0.5662218332 4290547222
-0.3501881361 -0.1475021392 0.5663350224 4290613015
-0.3507714570 -0.1471175551 0.5672784448 4290809373
-0.3508410454 -0.1465163380 0.5673909783 4290743580
-0.3509103954 -0.1459147632 0.5675030947 4290743069
-0.3509794772 -0.1453128159 0.5676148534 4290808862
-0.3515622616 -0.1449224055 0.5685573816 4290612246
-0.3516309261 -0.1443188787 0.5686684251 4290546453
-0.3516993523 -0.1437149942 0.5687789917 4290480147
-0.3517674804 -0.1431107670 0.5688892007 4290414354
-0.3518353701 -0.1425061822 0.5689989924 4290414354
-0.3519029915 -0.1419012547 0.5691083670 4290480147
-0.3519703448 -0.1412959695 0.5692172647 4290348561
-0.3520374298 -0.1406903416 0.5693258047 4290216975
-0.3521042764 -0.1400843710 0.5694338679 4290282255
-0.3526857197 -0.1396819800 0.5703741908 4290348048
-0.3527521193 -0.1390744299 0.5704815984 4290282255
-0.3528182507 -0.1384665370 0.5705885291 4290282255
-0.3533992767 -0.1380595565 0.5715281963 4290216462
-0.3534649909 -0.1374500990 0.5716344714 4290150669
-0.3540457785 -0.1370397806 0.5725737214 4290019083
-0.3541110456 -0.1364287585 0.5726792812 4290019083
-0.3546915650 -0.1360150874 0.5736181736 4290149644
-0.3547563851 -0.1354025006 0.5737229586 4290149644
-0.3548209369 -0.1347895712 0.5738273859 4290018317
-0.3548852205 -0.1341763139 0.5739313364 4289886731
-0.3549492359 -0.1335627139 0.5740348697 4289820938
-0.3550129831 -0.1329488009 0.5741379857 4289820938
-0.3550764620 -0.1323345453 0.5742406249 4289820940
-0.3546234667 -0.1315285116 0.5735080242 4289755147
-0.3546863198 -0.1309144944 0.5736096501 4289689099
-0.3547488749 -0.1303001493 0.5737107992 4289689099
-0.3548111618 -0.1296854913 0.5738115907 4289689101
-0.3548731804 -0.1290705055 0.5739118457 4289689101
-0.3549349308 -0.1284551919 0.5740117431 4289623310
-0.3549964130 -0.1278395653 0.5741111636 4289557517
-0.3545407951 -0.1270384192 0.5733742714 4289491724
-0.3546016216 -0.1264230460 0.5734726787 4289491724
-0.3546621799 -0.1258073598 0.5735706091 4289294861
-0.3547224700 -0.1251913607 0.5736681223 4289229068
-0.3547824621 -0.1245750487 0.5737651587 4289229068
-0.3548422158 -0.1239584237 0.5738617778 4289163275
-0.3554190099 -0.1235212833 0.5747945905 4289097483
-0.3554782867 -0.1229031309 0.5748904347 4289097483
-0.3560547829 -0.1224626750 0.5758227706 4289031690
-0.3561135828 -0.1218430102 0.5759178996 4289031690
-0.3561721146 -0.1212230399 0.5760124922 4288899850
-0.3562303483 -0.1206027716 0.5761066675 4288834057
-0.3562882841 -0.1199821904 0.5762004256 4288768264
-0.3563459814 -0.1193613112 0.5762937069 4288702471
-0.3564033806 -0.1187401265 0.5763865113 4288768264
-0.3564604819 -0.1181186438 0.5764788985 4288702471
-0.3559991121 -0.1173260882 0.5757327676 4288702471
-0.3560555875 -0.1167049184 0.5758240819 4288636678
-0.3555934131 -0.1159144789 0.5750766397 4288570887
-0.3556492329 -0.1152936220 0.5751669407 4288636680
-0.3557047844 -0.1146724746 0.5752567649 4288636680
-0.3557600379 -0.1140510440 0.5753461123 4288570887
-0.3552963436 -0.1132639647 0.5745961666 4288636164
-0.3553509414 -0.1126428619 0.5746845007 4288636164
-0.3548864424 -0.1118579358 0.5739333034 4288635910
-0.3549403846 -0.1112371683 0.5740205646 4288570117
-0.3549940884 -0.1106161103 0.5741073489 4288439301
-0.3545283973 -0.1098339707 0.5733542442 4288439301
-0.3545814455 -0.1092132702 0.5734400153 4288373510
-0.3546341956 -0.1085922867 0.5735253096 4288307717
-0.3541673422 -0.1078129485 0.5727703571 4288373510
-0.3537000418 -0.1070351526 0.5720146298 4288439303
-0.3542712629 -0.1065714285 0.5729383826 4288635910
-0.3543227911 -0.1059502587 0.5730217099 4288570117
-0.3538544178 -0.1051743850 0.5722642541 4288897544
-0.3539052904 -0.1045535877 0.5723465681 4288897544
-0.3534361422 -0.1037799045 0.5715878010 4288832512
-0.3534863591 -0.1031594947 0.5716690421 4288766720
-0.3535363078 -0.1025388166 0.5717498064 4288636416
-0.3535859585 -0.1019178703 0.5718301535 4288570624
-0.3531152904 -0.1011477038 0.5710689425 4288570117
-0.3526441753 -0.1003791019 0.5703070164 4288570117
-0.3526928127 -0.0997592136 0.5703856945 4288833040
-0.3517006636 -0.0988466218 0.5687811375 4288833040
-0.3512282372 -0.0980827436 0.5680171847 4288833038
-0.3512758315 -0.0974648371 0.5680940747 4288833038
-0.3508026302 -0.0967032015 0.5673288107 4288768014
-0.3503290117 -0.0959431455 0.5665628910 4288702221
-0.3508962095 -0.0954679698 0.5674801469 4288702735
-0.3504218757 -0.0947092623 0.5667130351 4288900114
-0.3504678607 -0.0940919518 0.5667874217 4288311083
-0.3510343730 -0.0936132893 0.5677036047 4288442669
-0.3500380814 -0.0927186310 0.5660923719 4286604851
-0.3500831425 -0.0921015143 0.5661652684 4284302096
-0.3501279056 -0.0914841592 0.5662376881 4280622342
-0.3501724005 -0.0908665732 0.5663095713 4282464546
-0.3502165973 -0.0902487487 0.5663810372 4286677118
-0.3401792943 -0.1551789045 0.5511384010 4290883690
-0.3428064883 -0.1557602733 0.5553948283 4291081069
-0.3439745903 -0.1550526470 0.5572873354 4291472693
-0.3450697958 -0.1549251676 0.5590617061 4291602741
-0.3456538916 -0.1545652002 0.5600080490 4291602741
-0.3457265198 -0.1539753228 0.5601257086 4291535919
-0.3468219638 -0.1538388878 0.5619004369 4291733298
-0.3468942940 -0.1532465369 0.5620176792 4291337778
-0.3469663858 -0.1526538134 0.5621344447 4291206192
-0.3475500941 -0.1522849947 0.5630801320 4291008809
-0.3476217687 -0.1516906619 0.5631963015 4291008809
-0.3476932049 -0.1510959566 0.5633120537 4291074596
-0.3477644026 -0.1505008936 0.5634273887 4290877217
-0.3478353620 -0.1499054581 0.5635423064 4290941978
-0.3484184146 -0.1495295465 0.5644869804 4290941978
-0.3490014374 -0.1491515338 0.5654315352 4290941208
-0.3495844305 -0.1487713903 0.5663760304 4290743829
-0.3496546447 -0.1481718719 0.5664898157 4290611732
-0.3502374291 -0.1477883607 0.5674340129 4290677525
-0.3503072560 -0.1471872479 0.5675471425 4290808601
-0.3508898318 -0.1468003839 0.5684909821 4290808601
-0.3509592414 -0.1461976618 0.5686034560 4290873626
-0.3510283828 -0.1455945969 0.5687154531 4290939419
-0.3510972857 -0.1449911594 0.5688270926 4290742806
-0.3511659205 -0.1443873793 0.5689383149 4290611220
-0.3512342870 -0.1437832415 0.5690490603 4290545427
-0.3513024151 -0.1431787461 0.5691594481 4290479634
-0.3513702750 -0.1425738931 0.5692693591 4290479634
-0.3514378667 -0.1419687122 0.5693788528 4290479634
-0.3515051901 -0.1413631588 0.5694879889 4290413843
-0.3515722752 -0.1407572776 0.5695966482 4290282257
-0.3516390920 -0.1401510388 0.5697048903 4290413073
-0.3522198200 -0.1397484690 0.5706457496 4290478866
-0.3522861898 -0.1391406655 0.5707532763 4290413073
-0.3528666794 -0.1387347430 0.5716937780 4290281487
-0.3529326320 -0.1381253600 0.5718005896 4290412816
-0.3535128832 -0.1377160996 0.5727407336 4290347023
-0.3535783887 -0.1371051371 0.5728468299 4290215437
-0.3536436260 -0.1364938468 0.5729525089 4290281230
-0.3542234600 -0.1360800117 0.5738919377 4290215435
-0.3542882800 -0.1354671419 0.5739969015 4290149642
-0.3543528020 -0.1348539591 0.5741015077 4290083851
-0.3544170558 -0.1342404336 0.5742055774 4290018058
-0.3544810414 -0.1336265653 0.5743092895 4289952265
-0.3545447588 -0.1330123693 0.5744125247 4289952265
-0.3546082079 -0.1323978454 0.5745152831 4289886218
-0.3546713889 -0.1317829937 0.5746176243 4289886218
-0.3547343016 -0.1311678141 0.5747195482 4289820427
-0.3547969460 -0.1305523068 0.5748210549 4289820427
-0.3548592925 -0.1299364716 0.5749220848 4289820428
-0.3549213707 -0.1293203235 0.5750226378 4289820428
-0.3549832106 -0.1287038326 0.5751228333 4289754635
-0.3545286953 -0.1279008687 0.5743864179 4289688842
-0.3545898497 -0.1272846311 0.5744855404 4289622795
-0.3546507657 -0.1266680956 0.5745842457 4289557002
-0.3547113836 -0.1260512322 0.5746824741 4289491470
-0.3547717333 -0.1254340559 0.5747802258 4289425677
-0.3548318148 -0.1248165742 0.5748775601 4289360138
-0.3548916280 -0.1241987646 0.5749744177 4289360138
-0.3549511433 -0.1235806569 0.5750708580 4289294091
-0.3550103903 -0.1229622290 0.5751668811 4289228298
-0.3555862010 -0.1225215793 0.5760997534 4289162506
-0.3561618924 -0.1220788211 0.5770324469 4289096713
-0.3562204838 -0.1214576662 0.5771273971 4289030920
-0.3562787771 -0.1208362132 0.5772218108 4288899334
-0.3558196127 -0.1200399771 0.5764779449 4288833541
-0.3558772802 -0.1194188148 0.5765713453 4288833541
-0.3559346497 -0.1187973544 0.5766643286 4288833543
-0.3559917510 -0.1181755885 0.5767567754 4288833543
-0.3555310369 -0.1173826680 0.5760104060 4288767750
-0.3555874825 -0.1167612150 0.5761018395 4288701957
-0.3556436598 -0.1161394641 0.5761928558 4288767496
-0.3551817834 -0.1153492779 0.5754445791 4288701703
-0.3552373052 -0.1147278473 0.5755345225 4288701703
-0.3552925587 -0.1141061261 0.5756239891 4288635910
-0.3548294902 -0.1133186892 0.5748738050 4288570117
-0.3548840880 -0.1126973033 0.5749622583 4288570117
-0.3544202447 -0.1119120121 0.5742107630 4288570117
-0.3544741869 -0.1112909615 0.5742981434 4288504324
-0.3545278609 -0.1106696203 0.5743851066 4288439301
-0.3545812368 -0.1100480035 0.5744715929 4288439301
-0.3541158438 -0.1092661321 0.5737175941 4288439303
-0.3536500335 -0.1084857956 0.5729628801 4288373510
-0.3537023962 -0.1078651622 0.5730477571 4288373510
-0.3532357812 -0.1070870012 0.5722917318 4288439303
-0.3532875180 -0.1064667329 0.5723755360 4288635910
-0.3538577855 -0.1060016230 0.5732995272 4288701703
-0.3539090157 -0.1053798944 0.5733824968 4288765192
-0.3534409404 -0.1046042964 0.5726241469 4288830985
-0.3534915447 -0.1039829478 0.5727061033 4288700424
-0.3530226648 -0.1032095551 0.5719465017 4288766217
-0.3530726135 -0.1025885940 0.5720273852 4288570121
-0.3531222343 -0.1019673645 0.5721077919 4288570121
-0.3526522219 -0.1011968330 0.5713463426 4288307976
-0.3527012169 -0.1005759984 0.5714256763 4288307976
-0.3522303998 -0.0998076946 0.5706629157 4288242433
-0.3522787690 -0.0991872624 0.5707412362 4288439812
-0.3512875140 -0.0982758105 0.5691352487 4288439552
-0.3508154154 -0.0975122377 0.5683704019 4288307968
-0.3508626819 -0.0968937948 0.5684469938 4288635904
-0.3503897786 -0.0961324647 0.5676808357 4288767488
-0.3499164879 -0.0953727290 0.5669140220 4289095432
-0.3499627411 -0.0947553739 0.5669889450 4289358604
-0.3505288064 -0.0942776501 0.5679060817 4288899351
-0.3500544131 -0.0935199335 0.5671374798 4288833558
-0.3495796025 -0.0927638113 0.5663682222 4288179750
-0.3496246338 -0.0921464041 0.5664412379 4288245543
-0.3496693969 -0.0915287659 0.5665137172 4284698661
-0.3497138619 -0.0909108818 0.5665857792 4281606400
-0.3492375612 -0.0901584104 0.5658140779 4281150239
-0.3487608433 -0.0894075334 0.5650417209 4285163612
-0.3408196867 -0.1551366895 0.5531713367 4290949230
-0.3424233496 -0.1552491486 0.5557742119 4291340860
-0.3435170054 -0.1551255137 0.5575492382 4291077688
-0.3446108401 -0.1549980193 0.5593245625 4291471151
-0.3451941907 -0.1546379030 0.5602714419 4291668530
-0.3457775414 -0.1542756706 0.5612182617 4291338276
-0.3463608623 -0.1539113224 0.5621649623 4291206690
-0.3469441235 -0.1535448432 0.5631116629 4291402276
-0.3470163047 -0.1529510021 0.5632287860 4291270690
-0.3475993872 -0.1525811702 0.5641751885 4291204897
-0.3476711512 -0.1519857049 0.5642917156 4291139104
-0.3477426767 -0.1513898671 0.5644077659 4291073564
-0.3478139639 -0.1507936716 0.5645234585 4290876185
-0.3483965695 -0.1504179835 0.5654690862 4291006742
-0.3484674394 -0.1498201787 0.5655840635 4290875156
-0.3490498364 -0.1494411230 0.5665293932 4290940949
-0.3496322334 -0.1490599513 0.5674746037 4290809363
-0.3497025371 -0.1484593004 0.5675887465 4290677779
-0.3502846956 -0.1480747610 0.5685336590 4290743572
-0.3503546119 -0.1474725157 0.5686470866 4290874392
-0.3504242599 -0.1468698978 0.5687600970 4290808599
-0.3510060608 -0.1464807540 0.5697044134 4290873624
-0.3510752916 -0.1458765417 0.5698167682 4290873624
-0.3511442542 -0.1452719718 0.5699287653 4290742806
-0.3512129784 -0.1446670294 0.5700402856 4290545427
-0.3512814045 -0.1440617591 0.5701513886 4290479634
-0.3513496220 -0.1434561163 0.5702620149 4290479634
-0.3509045243 -0.1426415890 0.5695396066 4290479634
-0.3509720862 -0.1420361400 0.5696492791 4290479634
-0.3510394096 -0.1414303333 0.5697585344 4290610706
-0.3516197503 -0.1410300583 0.5707005262 4290544913
-0.3516866267 -0.1404226720 0.5708090663 4290478866
-0.3517532647 -0.1398149431 0.5709171891 4290478866
-0.3518196046 -0.1392068714 0.5710248947 4290478609
-0.3523994088 -0.1388007849 0.5719659328 4290347023
-0.3524653316 -0.1381911337 0.5720729232 4290347023
-0.3530448675 -0.1377816945 0.5730135441 4290347023
-0.3531103432 -0.1371704787 0.5731198192 4290281230
-0.3531755507 -0.1365589201 0.5732256770 4290281230
-0.3537546992 -0.1361449063 0.5741656423 4290281228
-0.3538194597 -0.1355317831 0.5742707849 4290281228
-0.3538839817 -0.1349183172 0.5743754506 4290281230
-0.3539482057 -0.1343045235 0.5744797587 4290149644
-0.3540121615 -0.1336903870 0.5745835304 4290083851
-0.3540758789 -0.1330759227 0.5746869445 4290083851
-0.3541392982 -0.1324611306 0.5747898817 4290148876
-0.3542024493 -0.1318459958 0.5748924017 4290083083
-0.3542653322 -0.1312305480 0.5749944448 4290017036
-0.3543279469 -0.1306147724 0.5750960708 4290017036
-0.3543902934 -0.1299986690 0.5751972198 4289886220
-0.3544523418 -0.1293822378 0.5752980113 4289820427
-0.3545141518 -0.1287654787 0.5753982663 4289820428
-0.3545756638 -0.1281484067 0.5754981041 4289754635
-0.3541214466 -0.1273456514 0.5747609138 4289753865
-0.3541823328 -0.1267288327 0.5748597383 4289753865
-0.3542429209 -0.1261116862 0.5749580860 4289753613
-0.3543032706 -0.1254942417 0.5750560164 4289687820
-0.3543633223 -0.1248764768 0.5751534700 4289622025
-0.3544230759 -0.1242583990 0.5752505064 4289556232
-0.3544825912 -0.1236400083 0.5753470659 4289556234
-0.3545418084 -0.1230213046 0.5754432082 4289490441
-0.3546007574 -0.1224022955 0.5755388737 4289293834
-0.3546594381 -0.1217829734 0.5756340623 4289228041
-0.3557504714 -0.1215160787 0.5774049163 4289227786
-0.3558087647 -0.1208943427 0.5774995089 4289096200
-0.3558667600 -0.1202723011 0.5775936246 4289030662
-0.3554078937 -0.1194763035 0.5768488646 4289030662
-0.3554652631 -0.1188545600 0.5769419670 4288964614
-0.3555223346 -0.1182325110 0.5770345926 4288964614
-0.3550622761 -0.1174392253 0.5762879252 4288898823
-0.3551187217 -0.1168174893 0.5763795376 4288767237
-0.3551748693 -0.1161954626 0.5764706731 4288898823
-0.3547136486 -0.1154049113 0.5757220984 4288833030
-0.3547691405 -0.1147831976 0.5758121610 4288701703
-0.3543071449 -0.1139947772 0.5750622749 4288701703
-0.3543619812 -0.1133733913 0.5751513243 4288570117
-0.3544165790 -0.1127517223 0.5752398968 4288570117
-0.3539533913 -0.1119660661 0.5744881034 4288570117
-0.3540073037 -0.1113447323 0.5745756626 4288570117
-0.3540609479 -0.1107231155 0.5746627450 4288570117
-0.3541142941 -0.1101012155 0.5747492909 4288570117
-0.3536495864 -0.1093189716 0.5739950538 4288504326
-0.3531844318 -0.1085382774 0.5732401013 4288372740
-0.3532367945 -0.1079173610 0.5733250380 4288372740
-0.3532888591 -0.1072961688 0.5734095573 4288306947
-0.3528225422 -0.1065182835 0.5726526976 4288241924
-0.3533921242 -0.1060529575 0.5735771656 4288241924
-0.3534433246 -0.1054309532 0.5736603141 4288176903
-0.3534942567 -0.1048086733 0.5737429261 4288111110
-0.3530264795 -0.1040333584 0.5729837418 4288176388
-0.3530767560 -0.1034114510 0.5730653405 4288110595
-0.3526082039 -0.1026383489 0.5723048449 4288110595
-0.3526578248 -0.1020168364 0.5723853707 4288176388
-0.3521884978 -0.1012459472 0.5716235638 4288176903
-0.3522374630 -0.1006248221 0.5717030764 4288242696
-0.3522861600 -0.1000034362 0.5717821121 4288307977
-0.3518156409 -0.0992354378 0.5710184574 4288110598
-0.3513447046 -0.0984690115 0.5702540874 4288175878
-0.3498352766 -0.0974150971 0.5678041577 4288373257
-0.3504015803 -0.0969408974 0.5687233210 4288766732
-0.3509677052 -0.0964646116 0.5696421862 4288635146
-0.3494566977 -0.0954191163 0.5671897531 4288635401
-0.3495029509 -0.0948014706 0.5672647953 4288964366
-0.3500683010 -0.0943235308 0.5681824088 4288700173
-0.3495945930 -0.0935654566 0.5674135685 4288568587
-0.3496399820 -0.0929470807 0.5674871802 4288440340
-0.3496850729 -0.0923284665 0.5675603747 4288703512
-0.3492102325 -0.0915733501 0.5667896867 4287722291
-0.3492546678 -0.0909551829 0.5668618083 4286340638
-0.3492988348 -0.0903367773 0.5669335127 4281544470
-0.3488228321 -0.0895846337 0.5661609173 4281018126
-0.3397825956 -0.1555577666 0.5524839759 4286672687
-0.3388363421 -0.1545124203 0.5509454012 4290422888
-0.3414568603 -0.1550905406 0.5552063584 4291734862
-0.3425490260 -0.1549677402 0.5569822192 4291405897
-0.3441511989 -0.1550708264 0.5595873594 4291010340
-0.3447338641 -0.1547105759 0.5605347753 4291010340
-0.3453164995 -0.1543482095 0.5614821315 4291601189
-0.3458991051 -0.1539837122 0.5624294281 4291272224
-0.3464816511 -0.1536170989 0.5633766651 4291335456
-0.3465538025 -0.1530230045 0.5634939671 4291138077
-0.3471361697 -0.1526530236 0.5644409060 4291138590
-0.3472079337 -0.1520573050 0.5645575523 4291138590
-0.3472794294 -0.1514612287 0.5646737814 4291072797
-0.3473506570 -0.1508647799 0.5647896528 4291072797
-0.3474216461 -0.1502679586 0.5649050474 4291072537
-0.3474923968 -0.1496707797 0.5650200844 4290940951
-0.3485851288 -0.1495116800 0.5667968392 4291006744
-0.3491667807 -0.1491303593 0.5677426457 4290875158
-0.3492370546 -0.1485294402 0.5678569078 4290678038
-0.3498185277 -0.1481447518 0.5688023567 4290678038
-0.3498883843 -0.1475422382 0.5689159632 4290743831
-0.3504696488 -0.1471541971 0.5698611140 4290612245
-0.3505391181 -0.1465500742 0.5699740648 4290611986
-0.3506083190 -0.1459455937 0.5700865388 4290743572
-0.3506772518 -0.1453407705 0.5701986551 4290677525
-0.3507459462 -0.1447355747 0.5703103542 4290480146
-0.3503022194 -0.1439196318 0.5695888996 4290479889
-0.3503702879 -0.1433146149 0.5696995258 4290545682
-0.3504380882 -0.1427092552 0.5698097944 4290479889
-0.3505056500 -0.1421035379 0.5699196458 4290545682
-0.3505729139 -0.1414974630 0.5700290203 4290611220
-0.3506399393 -0.1408910602 0.5701379776 4290545427
-0.3512194455 -0.1404893845 0.5710802674 4290676499
-0.3512860239 -0.1398813874 0.5711885095 4290676499
-0.3513523638 -0.1392730623 0.5712963939 4290544913
-0.3519314528 -0.1388667971 0.5722379684 4290479120
-0.3519973457 -0.1382568926 0.5723450780 4290413073
-0.3525761664 -0.1378472745 0.5732862949 4290413073
-0.3526416421 -0.1372357905 0.5733927488 4290412816
-0.3532202244 -0.1368228346 0.5743334889 4290412816
-0.3532852530 -0.1362097710 0.5744392276 4290347023
-0.3533499837 -0.1355963796 0.5745444894 4290412816
-0.3534144759 -0.1349826455 0.5746493340 4290281487
-0.3534786999 -0.1343685836 0.5747537613 4290215694
-0.3535426259 -0.1337541789 0.5748577714 4290149901
-0.3536063135 -0.1331394464 0.5749613047 4290149901
-0.3536697030 -0.1325243860 0.5750643611 4290149390
-0.3537328541 -0.1319089830 0.5751670003 4290083597
-0.3537957072 -0.1312932670 0.5752692223 4290082829
-0.3538582921 -0.1306772083 0.5753709674 4290017036
-0.3539206088 -0.1300608367 0.5754722953 4289886220
-0.3539826572 -0.1294441223 0.5755732059 4289886220
-0.3540444076 -0.1288270950 0.5756736398 4290017037
-0.3541059196 -0.1282097548 0.5757735968 4289951244
-0.3541671336 -0.1275920868 0.5758731961 4289885451
-0.3542280793 -0.1269740909 0.5759722590 4289819658
-0.3542887568 -0.1263557822 0.5760709047 4289819147
-0.3543491364 -0.1257371604 0.5761691332 4289819147
-0.3544092476 -0.1251182109 0.5762668848 4289884425
-0.3544690907 -0.1244989634 0.5763641596 4289818632
-0.3545286655 -0.1238793954 0.5764610171 4289621768
-0.3545879722 -0.1232595146 0.5765574574 4289555975
-0.3546469808 -0.1226393208 0.5766533613 4289490441
-0.3547056913 -0.1220188215 0.5767489076 4289490441
-0.3547641635 -0.1213980168 0.5768439174 4289622029
-0.3548223376 -0.1207769066 0.5769385099 4289424650
-0.3553960323 -0.1203301325 0.5778713822 4289358857
-0.3549378514 -0.1195337623 0.5771263242 4289358857
-0.3549951613 -0.1189117432 0.5772195458 4289292809
-0.3545361757 -0.1181174815 0.5764732361 4289227016
-0.3545928597 -0.1174957678 0.5765653849 4289030409
-0.3546492755 -0.1168737486 0.5766571164 4288833030
-0.3541890681 -0.1160822213 0.5759088397 4288964614
-0.3542448282 -0.1154605225 0.5759995580 4288833028
-0.3537838459 -0.1146711260 0.5752499700 4288898569
-0.3538389802 -0.1140497476 0.5753395557 4288898569
-0.3533771634 -0.1132624894 0.5745887160 4288767498
-0.3534316421 -0.1126414463 0.5746772885 4288701705
-0.3534858227 -0.1120201051 0.5747653842 4288635910
-0.3535397351 -0.1113984883 0.5748530626 4288570117
-0.3535933793 -0.1107765883 0.5749402642 4288570117
-0.3536466956 -0.1101543978 0.5750269890 4288504324
-0.3531826437 -0.1093717963 0.5742724538 4288438533
-0.3532353640 -0.1087499633 0.5743581057 4288438533
-0.3527705073 -0.1079695374 0.5736022592 4288438535
-0.3528225422 -0.1073480621 0.5736868978 4288504328
-0.3528743088 -0.1067263111 0.5737710595 4288373256
-0.3524082899 -0.1059487015 0.5730133057 4288373256
-0.3524594009 -0.1053273231 0.5730964541 4288308224
-0.3530278802 -0.1048594192 0.5740207434 4288308224
-0.3530784845 -0.1042365879 0.5741030574 4288438531
-0.3526110351 -0.1034615561 0.5733429790 4288438531
-0.3526610136 -0.1028391048 0.5734242201 4288634629
-0.3527106941 -0.1022163853 0.5735049844 4288634629
-0.3522420824 -0.1014442220 0.5727430582 4288634631
-0.3517730236 -0.1006736308 0.5719803572 4288568838
-0.3518216908 -0.1000519618 0.5720595121 4288437769
-0.3518700898 -0.0994300321 0.5721381903 4288635148
-0.3513998985 -0.0986623317 0.5713736415 4288569868
-0.3509292603 -0.0978962034 0.5706084371 4288504075
-0.3494213521 -0.0968442932 0.5681566000 4288439049
-0.3494682312 -0.0962259397 0.5682328343 4288504842
-0.3500334024 -0.0957491845 0.5691517591 4288308228
-0.3490425050 -0.0948475525 0.5675405264 4288242435
-0.3490884304 -0.0942293778 0.5676152706 4288305934
-0.3491340876 -0.0936109573 0.5676894784 4288437520
-0.3491794765 -0.0929922983 0.5677632689 4288241670
-0.3487056494 -0.0922361389 0.5669928193 4288175877
-0.3487503529 -0.0916179195 0.5670655370 4287720478
-0.3493138254 -0.0911348760 0.5679817796 4288181029
-0.3488389552 -0.0903807655 0.5672096014 4284372276
-0.3483636379 -0.0896282643 0.5664367080 4281937935
-0.3473686576 -0.0887447223 0.5648189187 4280363307
-0.3474117219 -0.0881280974 0.5648889542 4286284677
-0.3356944621 -0.1545717716 0.5468242764 4282070327
-0.3372929394 -0.1546973437 0.5494281054 4282197760
-0.3383829594 -0.1545848548 0.5512036681 4284763685
-0.3399821520 -0.1547001004 0.5538086295 4290221361
-0.3415817618 -0.1548097432 0.5564143062 4291405635
-0.3426725864 -0.1546839327 0.5581911802 4291666733
-0.3437635899 -0.1545542479 0.5599683523 4291666733
-0.3443454206 -0.1541926116 0.5609161258 4291007518
-0.3449271917 -0.1538288593 0.5618637800 4291599655
-0.3455089331 -0.1534629762 0.5628114343 4291206179
-0.3460906446 -0.1530949771 0.5637589693 4291206179
-0.3461624980 -0.1525002569 0.5638760328 4291271203
-0.3467440307 -0.1521288902 0.5648233294 4291139617
-0.3468154967 -0.1515325457 0.5649397373 4291401508
-0.3468867242 -0.1509358436 0.5650557280 4291467301
-0.3469576836 -0.1503387839 0.5651713014 4291664163
-0.3470283747 -0.1497413516 0.5652865171 4291598370
-0.3481197357 -0.1495822072 0.5670642257 4291466782
-0.3487006724 -0.1492007375 0.5680105686 4291137817
-0.3487709463 -0.1485995650 0.5681250095 4291006491
-0.3488409221 -0.1479980350 0.5682390332 4291203870
-0.3494215310 -0.1476119459 0.5691847801 4291204129
-0.3494911194 -0.1470088214 0.5692981482 4291204129
-0.3500715196 -0.1466193646 0.5702435374 4291073313
-0.3501406908 -0.1460146308 0.5703562498 4291007520
-0.3502095938 -0.1454095393 0.5704684854 4291072032
-0.3502782583 -0.1448040903 0.5705803037 4290743067
-0.3498352170 -0.1439877898 0.5698586106 4290808599
-0.3499032557 -0.1433825195 0.5699694753 4290874392
-0.3499710262 -0.1427768916 0.5700798631 4290611733
-0.3495267928 -0.1419630647 0.5693562031 4290545940
-0.3501057923 -0.1415645778 0.5702993870 4290678039
-0.3501727879 -0.1409579068 0.5704085231 4290678039
-0.3507515788 -0.1405560821 0.5713512897 4290545939
-0.3508181274 -0.1399478167 0.5714597702 4290545939
-0.3508844376 -0.1393392086 0.5715677738 4290610705
-0.3514628112 -0.1389327943 0.5725098848 4290479119
-0.3515286744 -0.1383226067 0.5726171732 4290478607
-0.3521068096 -0.1379128397 0.5735589266 4290478607
-0.3521722555 -0.1373010874 0.5736654997 4290609425
-0.3522374034 -0.1366889924 0.5737716556 4290741011
-0.3523023129 -0.1360765547 0.5738773942 4290478355
-0.3523669541 -0.1354637742 0.5739826560 4290478355
-0.3524312973 -0.1348506659 0.5740875006 4290412562
-0.3524954021 -0.1342372298 0.5741919279 4290346769
-0.3525592387 -0.1336234510 0.5742958784 4290346769
-0.3526227772 -0.1330093443 0.5743994117 4290280976
-0.3526860774 -0.1323948950 0.5745025277 4290346001
-0.3527490795 -0.1317801327 0.5746051669 4290280208
-0.3528118432 -0.1311650276 0.5747073293 4290214415
-0.3528743088 -0.1305495948 0.5748091340 4290148622
-0.3529365063 -0.1299338490 0.5749104619 4290082830
-0.3529984355 -0.1293177605 0.5750113130 4290017037
-0.3530600965 -0.1287013590 0.5751117468 4290016524
-0.3531214893 -0.1280846298 0.5752117634 4290016524
-0.3531825840 -0.1274675876 0.5753113031 4290016524
-0.3532434106 -0.1268502176 0.5754103661 4290016524
-0.3533039689 -0.1262325346 0.5755090117 4289950733
-0.3533642590 -0.1256145388 0.5756072402 4289819147
-0.3534242809 -0.1249962226 0.5757049918 4289753611
-0.3534840047 -0.1243775859 0.5758022666 4289753611
-0.3535434604 -0.1237586439 0.5758991241 4289622027
-0.3536026478 -0.1231393889 0.5759955645 4289622027
-0.3536615372 -0.1225198209 0.5760914683 4289687307
-0.3537201881 -0.1218999475 0.5761869550 4289621514
-0.3537785113 -0.1212797612 0.5762820244 4289687307
-0.3538365960 -0.1206592768 0.5763766170 4289621514
-0.3544095159 -0.1202132106 0.5773098469 4289556236
-0.3544670939 -0.1195912063 0.5774036646 4289424650
-0.3545244336 -0.1189689040 0.5774970651 4289293064
-0.3540660739 -0.1181742847 0.5767503977 4289293064
-0.3541227281 -0.1175522879 0.5768427253 4289227271
-0.3536635935 -0.1167597845 0.5760948062 4289161478
-0.3537196219 -0.1161380932 0.5761860609 4288833289
-0.3537753522 -0.1155161113 0.5762768388 4288899082
-0.3533150256 -0.1147263572 0.5755270123 4288899082
-0.3533701301 -0.1141046956 0.5756167769 4288767496
-0.3529089987 -0.1133170798 0.5748656392 4288701703
-0.3529634476 -0.1126957461 0.5749543309 4288701703
-0.3530176282 -0.1120741293 0.5750425458 4288701705
-0.3525553346 -0.1112892851 0.5742895007 4288570119
-0.3526088595 -0.1106680036 0.5743767023 4288635912
-0.3526620865 -0.1100464463 0.5744634271 4288570119
-0.3527150452 -0.1094246060 0.5745496750 4288570121
-0.3527677059 -0.1088024825 0.5746355057 4288570121
-0.3528200984 -0.1081800908 0.5747208595 4288504328
-0.3523555696 -0.1073999330 0.5739641190 4288504328
-0.3524073064 -0.1067778990 0.5740483999 4288438535
-0.3524587750 -0.1061555892 0.5741322041 4288438535
-0.3519930542 -0.1053782627 0.5733736157 4288765704
-0.3525608182 -0.1049101502 0.5742984414 4288699911
-0.3526114225 -0.1042870283 0.5743808746 4288503560
-0.3526617289 -0.1036636382 0.5744628310 4288569353
-0.3521945775 -0.1028888971 0.5737018585 4288373256
-0.3522442281 -0.1022658944 0.5737828016 4288307463
-0.3522936106 -0.1016426235 0.5738632083 4288372740
-0.3518253267 -0.1008707583 0.5731003881 4288438533
-0.3518740237 -0.1002478823 0.5731797218 4288570119
-0.3514049351 -0.0994782448 0.5724156499 4288570119
-0.3514530361 -0.0988557711 0.5724939108 4288635914
-0.3509831429 -0.0980883762 0.5717285275 4288635914
-0.3505128324 -0.0973225534 0.5709624290 4288569868
-0.3490064442 -0.0962726474 0.5685086250 4288569868
-0.3490530252 -0.0956537575 0.5685845017 4288569614
-0.3485813737 -0.0948936194 0.5678161979 4288438028
-0.3491453230 -0.0944152400 0.5687348247 4288571398
-0.3486729264 -0.0936564505 0.5679653883 4288702984
-0.3487182856 -0.0930375010 0.5680392385 4288702475
-0.3482451439 -0.0922809839 0.5672684908 4288702475
-0.3482898474 -0.0916624740 0.5673413277 4287982092
-0.3483342528 -0.0910437256 0.5674136877 4288705815
-0.3483783901 -0.0904247463 0.5674855709 4285424980
-0.3479037285 -0.0896718875 0.5667123795 4282990639
-0.3469101191 -0.0887879208 0.5650938749 4280032797
-0.3464345634 -0.0880392119 0.5643191934 4283848791
-0.3367677629 -0.1553470343 0.5495668650 4281610805
-0.3353161514 -0.1540694535 0.5471980572 4282923565
-0.3384371102 -0.1548898220 0.5522910953 4282199842
-0.3400343359 -0.1550042778 0.5548976064 4283052288
-0.3411235809 -0.1548822969 0.5566750765 4286341933
-0.3422854543 -0.1541686058 0.5585711598 4290878539
-0.3433750272 -0.1540367752 0.5603492260 4291469621
-0.3444648087 -0.1539010853 0.5621275902 4290877484
-0.3440280259 -0.1530821621 0.5614147782 4291533615
-0.3451178372 -0.1529413462 0.5631932616 4291270443
-0.3456986845 -0.1525719464 0.5641411543 4291335969
-0.3457702696 -0.1519766152 0.5642579794 4291533348
-0.3458415866 -0.1513809115 0.5643743277 4291796258
-0.3459126651 -0.1507848352 0.5644903779 4291598879
-0.3459835052 -0.1501883864 0.5646059513 4291401502
-0.3455444276 -0.1493712664 0.5638894439 4291467295
-0.3471439183 -0.1494332701 0.5664995909 4291137566
-0.3477240503 -0.1490525305 0.5674463511 4291203359
-0.3488141000 -0.1488873214 0.5692251325 4291203361
-0.3488841951 -0.1482846588 0.5693395138 4291137568
-0.3489539921 -0.1476816386 0.5694534779 4291137819
-0.3490235507 -0.1470782459 0.5695669651 4291203612
-0.3496032357 -0.1466886401 0.5705129504 4291204373
-0.3496723771 -0.1460836381 0.5706257820 4291138580
-0.3497412801 -0.1454782933 0.5707381964 4291071257
-0.3492992520 -0.1446610987 0.5700168610 4291005464
-0.3488567472 -0.1438453048 0.5692947507 4291136536
-0.3489246666 -0.1432406604 0.5694055557 4291136536
-0.3489923179 -0.1426356584 0.5695159435 4291005204
-0.3490597010 -0.1420303136 0.5696259737 4290939411
-0.3496379852 -0.1416316777 0.5705696344 4290873875
-0.3497049809 -0.1410247386 0.5706789494 4290742289
-0.3502830267 -0.1406227350 0.5716223121 4290676496
-0.3503495753 -0.1400142163 0.5717308521 4290676496
-0.3504158556 -0.1394053549 0.5718390346 4290610703
-0.3509935141 -0.1389987618 0.5727817416 4290544910
-0.3510593772 -0.1383883208 0.5728891492 4290544912
-0.3516367972 -0.1379783601 0.5738314390 4290544912
-0.3517021835 -0.1373663396 0.5739381909 4290348050
-0.3517673314 -0.1367539912 0.5740445256 4290348050
-0.3518322110 -0.1361412853 0.5741503835 4290609427
-0.3518968225 -0.1355282366 0.5742558241 4290477841
-0.3519611657 -0.1349148601 0.5743607879 4290412048
-0.3520252407 -0.1343011558 0.5744653344 4290346255
-0.3520890176 -0.1336871088 0.5745694637 4290346255
-0.3521525562 -0.1330727339 0.5746731162 4290346255
-0.3522158265 -0.1324580163 0.5747763515 4290214415
-0.3522788286 -0.1318429708 0.5748791695 4290082829
-0.3523415327 -0.1312275976 0.5749815106 4290082829
-0.3524039984 -0.1306118965 0.5750834346 4290082829
-0.3524661660 -0.1299958676 0.5751848817 4290082317
-0.3525280654 -0.1293795258 0.5752859116 4290082317
-0.3525896966 -0.1287628412 0.5753865242 4290082319
-0.3526510596 -0.1281458437 0.5754866600 4290016526
-0.3527121544 -0.1275285333 0.5755863190 4289950733
-0.3527729511 -0.1269108802 0.5756855607 4289884940
-0.3528335094 -0.1262929291 0.5757843256 4289884940
-0.3528937697 -0.1256746501 0.5758826733 4289819147
-0.3529537320 -0.1250560582 0.5759806037 4289687818
-0.3530134559 -0.1244371533 0.5760780573 4289622025
-0.3530728817 -0.1238179281 0.5761750340 4289556234
-0.3531320393 -0.1231983975 0.5762715340 4289556234
-0.3531909287 -0.1225785539 0.5763676763 4289621514
-0.3532495201 -0.1219584048 0.5764632821 4289621514
-0.3533078730 -0.1213379428 0.5765584707 4289621516
-0.3533658981 -0.1207171753 0.5766531825 4289621516
-0.3534236848 -0.1200961024 0.5767474771 4289490443
-0.3539956808 -0.1196486279 0.5776809454 4289424650
-0.3540529907 -0.1190260500 0.5777744055 4289358857
-0.3535953164 -0.1182310656 0.5770275593 4289293064
-0.3536519408 -0.1176087856 0.5771200061 4289292552
-0.3531934619 -0.1168159172 0.5763717890 4289292552
-0.3527345359 -0.1160245687 0.5756228566 4288964362
-0.3527901769 -0.1154032126 0.5757136345 4289030155
-0.3528455198 -0.1147815660 0.5758039951 4288964362
-0.3529005945 -0.1141596213 0.5758938789 4288898569
-0.3524401486 -0.1133716404 0.5751424432 4288832776
-0.3524945676 -0.1127500311 0.5752312541 4288832776
-0.3520332873 -0.1119641960 0.5744785070 4288766985
-0.3520870805 -0.1113429219 0.5745663047 4288635399
-0.3521406054 -0.1107213646 0.5746536255 4288701192
-0.3521938324 -0.1100995168 0.5747404695 4288701192
-0.3522467613 -0.1094773933 0.5748268366 4288701192
-0.3522994220 -0.1088549867 0.5749127865 4288635399
-0.3523517847 -0.1082323045 0.5749982595 4288569608
-0.3518879116 -0.1074517965 0.5742412806 4288503815
-0.3519396186 -0.1068294719 0.5743256807 4288503815
-0.3519910574 -0.1062068716 0.5744096041 4288503815
-0.3515260220 -0.1054291874 0.5736507177 4288634629
-0.3520930707 -0.1049608663 0.5745760798 4288634629
-0.3526600003 -0.1044904441 0.5755012035 4288503813
-0.3527103662 -0.1038658544 0.5755833983 4288569606
-0.3522439599 -0.1030898392 0.5748223066 4288700676
-0.3522936702 -0.1024656296 0.5749034286 4288569090
-0.3523431122 -0.1018411592 0.5749840736 4288700416
-0.3518755436 -0.1010680124 0.5742210746 4288766208
-0.3514075577 -0.1002964377 0.5734573603 4288503296
-0.3514559567 -0.0996730179 0.5735363960 4288634880
-0.3509871960 -0.0989036784 0.5727713704 4288569604
-0.3505179584 -0.0981359258 0.5720056891 4288503811
-0.3500483334 -0.0973697454 0.5712392926 4288438535
-0.3495782614 -0.0966051593 0.5704721808 4288504328
-0.3491077423 -0.0958421528 0.5697043538 4288439050
-0.3486368358 -0.0950807407 0.5689358711 4288373257
-0.3486828208 -0.0944610685 0.5690109134 4288570638
-0.3487285078 -0.0938411504 0.5690854788 4288636431
-0.3482564390 -0.0930826813 0.5683150887 4288635914
-0.3488190174 -0.0926005915 0.5692331791 4288767500
-0.3483462334 -0.0918434858 0.5684616566 4288046859
-0.3483907282 -0.0912235230 0.5685342550 4288178445
-0.3473994136 -0.0903340802 0.5669165850 4284634185
-0.3469253778 -0.0895817876 0.5661429763 4282528809
-0.3464509249 -0.0888311118 0.5653687119 4279110931
-0.3454581201 -0.0879501849 0.5637485981 4283913820
-0.3327637017 -0.1537787318 0.5440187454 4281940540
-0.3333428502 -0.1534408778 0.5449655652 4281742391
-0.3369668424 -0.1544969529 0.5508902073 4282268735
-0.3395769298 -0.1550768465 0.5551573634 4282068258
-0.3386339843 -0.1540311128 0.5536158085 4281673500
-0.3381981850 -0.1532185674 0.5529032946 4283249424
-0.3408093750 -0.1537825018 0.5571722388 4285486386
-0.3418973684 -0.1536523998 0.5589509010 4288971835
-0.3429855406 -0.1535184085 0.5607299209 4290221902
-0.3425491750 -0.1527008861 0.5600165129 4291664431
-0.3436373770 -0.1525617838 0.5617955923 4291927603
-0.3442173004 -0.1521940082 0.5627436638 4291796266
-0.3442886472 -0.1516001672 0.5628603101 4291335715
-0.3448683918 -0.1512290239 0.5638080835 4291401248
-0.3449393511 -0.1506335735 0.5639240742 4291664420
-0.3455188870 -0.1502590477 0.5648716092 4291795494
-0.3460984230 -0.1498824060 0.5658190250 4291795494
-0.3466778994 -0.1495036334 0.5667663813 4291400738
-0.3472573161 -0.1491227448 0.5677136183 4291203359
-0.3478367031 -0.1487397105 0.5686607957 4290940185
-0.3473972678 -0.1479207873 0.5679424405 4290940185
-0.3484857976 -0.1477512866 0.5697220564 4291072283
-0.3485553563 -0.1471476406 0.5698357224 4291138076
-0.3486246169 -0.1465436369 0.5699489713 4291007004
-0.3486936390 -0.1459392607 0.5700618029 4290941211
-0.3492722809 -0.1455470175 0.5710078478 4290939936
-0.3488309085 -0.1447294652 0.5702862144 4290939936
-0.3484569490 -0.1433084011 0.5696748495 4290873628
-0.3485245705 -0.1427031457 0.5697854161 4290873113
-0.3485919535 -0.1420975327 0.5698955655 4290938906
-0.3486590683 -0.1414915770 0.5700052381 4290939160
-0.3492364883 -0.1410915405 0.5709492564 4290807574
-0.3493031561 -0.1404839903 0.5710582733 4290741781
-0.3498803377 -0.1400805861 0.5720018744 4290807574
-0.3499465883 -0.1394714564 0.5721102357 4290741779
-0.3500126004 -0.1388619840 0.5722180605 4290675986
-0.3505893648 -0.1384539902 0.5731610656 4290610705
-0.3506549299 -0.1378429383 0.5732682347 4290544912
-0.3507202268 -0.1372315437 0.5733749270 4290348048
-0.3512965739 -0.1368189603 0.5743172169 4290282255
-0.3513614237 -0.1362059861 0.5744232535 4290740498
-0.3514260054 -0.1355926841 0.5745288134 4290608912
-0.3514903188 -0.1349790394 0.5746339560 4290411535
-0.3515543640 -0.1343650520 0.5747386813 4290411535
-0.3516181409 -0.1337507367 0.5748429298 4290411535
-0.3516816497 -0.1331360936 0.5749467611 4290411535
-0.3517448902 -0.1325211078 0.5750501752 4290279695
-0.3518078625 -0.1319057941 0.5751531124 4290213902
-0.3518705666 -0.1312901527 0.5752555728 4290148110
-0.3519330025 -0.1306741834 0.5753576756 4290082317
-0.3519951403 -0.1300578862 0.5754592419 4290082317
-0.3520570099 -0.1294412613 0.5755604506 4290082317
-0.3521186411 -0.1288243085 0.5756611824 4290016526
-0.3521799743 -0.1282070428 0.5757614374 4289950733
-0.3522410393 -0.1275894493 0.5758612752 4289884940
-0.3523018062 -0.1269715279 0.5759606361 4289819147
-0.3523623347 -0.1263532937 0.5760595798 4289819147
-0.3524225652 -0.1257347465 0.5761580467 4289819147
-0.3524825275 -0.1251158714 0.5762560964 4289622025
-0.3525422215 -0.1244966909 0.5763536692 4289556232
-0.3526016474 -0.1238771975 0.5764508247 4289490441
-0.3526607752 -0.1232573837 0.5765475035 4289490441
-0.3527196348 -0.1226372644 0.5766437054 4289621516
-0.3527782261 -0.1220168322 0.5767394900 4289621516
-0.3528365195 -0.1213960946 0.5768347979 4289555723
-0.3528945446 -0.1207750514 0.5769296288 4289555723
-0.3529523015 -0.1201536953 0.5770240426 4289489931
-0.3524959087 -0.1193580478 0.5762779713 4289424138
-0.3530669510 -0.1189100817 0.5772114992 4289424138
-0.3531238437 -0.1182878241 0.5773045421 4289358345
-0.3531804681 -0.1176652610 0.5773971081 4289226759
-0.3527226448 -0.1168720350 0.5766486526 4289292552
-0.3522643745 -0.1160803214 0.5758994222 4289226507
-0.3523200154 -0.1154586822 0.5759903789 4289160714
-0.3518609405 -0.1146691069 0.5752398372 4289160714
-0.3519158959 -0.1140477955 0.5753297210 4289094921
-0.3519706130 -0.1134261861 0.5754191279 4289029128
-0.3515103459 -0.1126393750 0.5746667385 4288963335
-0.3515644073 -0.1120181009 0.5747550726 4288963335
-0.3516181707 -0.1113965437 0.5748429894 4288897542
-0.3516716659 -0.1107746959 0.5749304295 4288897801
-0.3517248631 -0.1101525724 0.5750173926 4288897801
-0.3517777920 -0.1095301583 0.5751039386 4288832008
-0.3513152897 -0.1087480187 0.5743478537 4288832008
-0.3513675630 -0.1081259623 0.5744332671 4288766215
-0.3514195681 -0.1075036302 0.5745182633 4288700422
-0.3514712751 -0.1068810225 0.5746028423 4288700424
-0.3515226841 -0.1062581390 0.5746868849 4288700424
-0.3510583043 -0.1054800972 0.5739277005 4288634629
-0.3516246676 -0.1050115600 0.5748535991 4288634629
-0.3521908820 -0.1045409292 0.5757792592 4288569353
-0.3522412479 -0.1039160490 0.5758615732 4288635146
-0.3522912860 -0.1032909006 0.5759434104 4288569868
-0.3523410559 -0.1026654914 0.5760247707 4288438282
-0.3518746197 -0.1018904150 0.5752621889 4288307466
-0.3514077067 -0.1011169106 0.5744988918 4288373259
-0.3514564633 -0.1004925445 0.5745786428 4288373259
-0.3509887755 -0.0997212678 0.5738140345 4288504845
-0.3505206704 -0.0989515707 0.5730487108 4288504843
-0.3500521183 -0.0981834531 0.5722827315 4288504843
-0.3490667939 -0.0972730294 0.5706718564 4288439303
-0.3491137624 -0.0966519713 0.5707486272 4288373510
-0.3486439288 -0.0958886072 0.5699805021 4288372992
-0.3486902416 -0.0952679813 0.5700562596 4288307200
-0.3482196331 -0.0945068821 0.5692868829 4288569353
-0.3482653201 -0.0938866735 0.5693615675 4288766732
-0.3483107090 -0.0932662264 0.5694357753 4288701703
-0.3483557999 -0.0926455408 0.5695095062 4288767496
-0.3484005928 -0.0920246094 0.5695827603 4287783948
-0.3474552631 -0.0905126482 0.5680372119 4283646522
-0.3469819427 -0.0897590816 0.5672634840 4282133283
-0.3313014805 -0.1533815116 0.5426135063 4282336320
-0.3323863745 -0.1532789171 0.5443903804 4281612595
-0.3329646587 -0.1529396921 0.5453374982 4280954665
-0.3350636363 -0.1532940716 0.5487752557 4281807919
-0.3366562426 -0.1534100771 0.5513836741 4282400056
-0.3383209705 -0.1529373527 0.5541101694 4282002727
-0.3394071162 -0.1528107226 0.5558891296 4282264081
-0.3404934406 -0.1526802033 0.5576683283 4283579941
-0.3410724103 -0.1523191631 0.5586165786 4288045593
-0.3416513503 -0.1519559920 0.5595647693 4289822004
-0.3422302604 -0.1515906900 0.5605129004 4291336760
-0.3428091109 -0.1512232721 0.5614609718 4291731518
-0.3433879316 -0.1508537382 0.5624089837 4291535144
-0.3434586525 -0.1502597928 0.5625247955 4291403558
-0.3435291052 -0.1496654898 0.5626401901 4291338015
-0.3441075981 -0.1492913365 0.5635876656 4291206429
-0.3451944292 -0.1491346955 0.5653676987 4291008286
-0.3457729518 -0.1487554163 0.5663151741 4290876700
-0.3463513851 -0.1483739913 0.5672625899 4290940957
-0.3464211226 -0.1477734596 0.5673767924 4291006750
-0.3475081623 -0.1476047933 0.5691571832 4291071521
-0.3480864763 -0.1472170055 0.5701043606 4290939935
-0.3481557071 -0.1466127485 0.5702177882 4291136034
-0.3482246995 -0.1460081190 0.5703307390 4291267620
-0.3482934535 -0.1454031318 0.5704433322 4290744083
-0.3478526175 -0.1445861012 0.5697213411 4290809876
-0.3479207456 -0.1439812928 0.5698329210 4290875158
-0.3474791050 -0.1431661993 0.5691095591 4290743572
-0.3475466073 -0.1425615698 0.5692201257 4290677013
-0.3476138413 -0.1419565827 0.5693302751 4290611220
-0.3476808071 -0.1413512528 0.5694399476 4290742038
-0.3482574224 -0.1409519315 0.5703843832 4290742038
-0.3483239710 -0.1403450072 0.5704933405 4290741527
-0.3489003778 -0.1399423331 0.5714373589 4290807320
-0.3489665091 -0.1393338293 0.5715456605 4290872597
-0.3490323722 -0.1387249827 0.5716535449 4290806804
-0.3501187265 -0.1385196447 0.5734328032 4290675218
-0.3501842320 -0.1379083246 0.5735401511 4290675218
-0.3502494991 -0.1372966617 0.5736470222 4290609423
-0.3503144979 -0.1366846561 0.5737534761 4290543630
-0.3503792286 -0.1360723078 0.5738595128 4290608912
-0.3509545326 -0.1356570870 0.5748017430 4290543119
-0.3510188460 -0.1350431740 0.5749070644 4290477326
-0.3510828614 -0.1344289333 0.5750119090 4290411533
-0.3511466086 -0.1338143498 0.5751163363 4290411535
-0.3512100875 -0.1331994236 0.5752202868 4290345742
-0.3512732983 -0.1325841695 0.5753238201 4290279695
-0.3513362408 -0.1319685876 0.5754269361 4290213902
-0.3513989151 -0.1313526779 0.5755295753 4290148110
-0.3514613211 -0.1307364404 0.5756317377 4290148110
-0.3515234590 -0.1301198602 0.5757335424 4290148112
-0.3515852988 -0.1295029670 0.5758348107 4290082319
-0.3516469002 -0.1288857460 0.5759357214 4289950733
-0.3517082036 -0.1282681972 0.5760360956 4289819147
-0.3517692387 -0.1276503354 0.5761361122 4289819147
-0.3518300056 -0.1270321459 0.5762355924 4289819147
-0.3518905044 -0.1264136434 0.5763346553 4289818893
-0.3514384031 -0.1256117076 0.5755942464 4289753100
-0.3514982760 -0.1249934658 0.5756922960 4289556234
-0.3520703316 -0.1245562062 0.5766292214 4289490441
-0.3521296978 -0.1239364371 0.5767264962 4289555721
-0.3521888256 -0.1233163476 0.5768232942 4289555721
-0.3522476554 -0.1226959527 0.5769196749 4289555723
-0.3517934084 -0.1218975484 0.5761756301 4289555723
-0.3518516123 -0.1212774366 0.5762709975 4289489931
-0.3524225056 -0.1208329052 0.5772060156 4289489931
-0.3519671559 -0.1200362891 0.5764602423 4289424138
-0.3520245254 -0.1194152609 0.5765541792 4289358345
-0.3520815969 -0.1187939271 0.5766476989 4289292298
-0.3521384001 -0.1181722954 0.5767407417 4289226505
-0.3521949351 -0.1175503582 0.5768333077 4289160712
-0.3522511721 -0.1169281229 0.5769253969 4289160712
