VERSION 0.7
FIELDS x y z rgba
SIZE 4 4 4 4
TYPE F F F U
COUNT 1 1 1 1
WIDTH 920
HEIGHT 1
VIEWPOINT 0.0 0.0 0.0 1.0 0.0 0.0 0.0
POINTS 920
DATA ascii
-0.2834657133 -0.1298241466 0.5138033628 4279571994
-0.2835237682 -0.1292797327 0.5139085650 4279571994
-0.2835816145 -0.1287350059 0.5140134096 4279637787
-0.2831672728 -0.1279766411 0.5132623911 4279703580
-0.2836966217 -0.1276445389 0.5142218471 4279703581
-0.2837537825 -0.1270987988 0.5143254399 4279703581
-0.2838107347 -0.1265527457 0.5144286752 4279703581
-0.2833951116 -0.1257966906 0.5136753917 4279703581
-0.2834515274 -0.1252508909 0.5137776136 4279768861
-0.2835077047 -0.1247047633 0.5138794780 4279703068
-0.2835636735 -0.1241583079 0.5139808655 4279637275
-0.2836194038 -0.1236115322 0.5140818954 4279703068
-0.2836749256 -0.1230644286 0.5141825676 4279703068
-0.2832573354 -0.1223128140 0.5134255886 4279571482
-0.2833122909 -0.1217659861 0.5135252476 4279637785
-0.2833670378 -0.1212188452 0.5136244893 4279637785
-0.2834215760 -0.1206713840 0.5137233138 4279441178
-0.2834758461 -0.1201236099 0.5138217211 4279441178
-0.2835299373 -0.1195755154 0.5139197111 4279506971
-0.2835837603 -0.1190271154 0.5140172839 4279572764
-0.2831638753 -0.1182806045 0.5132561922 4279637785
-0.2832171619 -0.1177324951 0.5133528113 4279637785
-0.2832702398 -0.1171840802 0.5134490132 4279703578
-0.2833230793 -0.1166353524 0.5135447979 4279769371
-0.2833756804 -0.1160863191 0.5136401653 4279704350
-0.2834280729 -0.1155369803 0.5137350559 4279638557
-0.2834802270 -0.1149873435 0.5138295889 4279638557
-0.2835321426 -0.1144373938 0.5139237642 4279704350
-0.2835838497 -0.1138871536 0.5140174627 4279770141
-0.2841096222 -0.1135261282 0.5149704218 4279770141
-0.2841609418 -0.1129743680 0.5150634646 4279900446
-0.2842120230 -0.1124223024 0.5151560307 4279900446
-0.2842628658 -0.1118699387 0.5152482390 4279900447
-0.2843134999 -0.1113172844 0.5153399706 4279966240
-0.2848386168 -0.1109492481 0.5162917972 4280097825
-0.2848888636 -0.1103950739 0.5163828731 4280032032
-0.2849388719 -0.1098406166 0.5164735317 4279900957
-0.2845136523 -0.1091037169 0.5157027841 4279966750
-0.2850381732 -0.1087308154 0.5166535378 4279900957
-0.2850874662 -0.1081754863 0.5167428851 4279900957
-0.2851365209 -0.1076198667 0.5168318152 4279966752
-0.2856606841 -0.1072423980 0.5177818537 4280032545
-0.2857093513 -0.1066852808 0.5178700686 4280032543
-0.2862332463 -0.1063044667 0.5188196898 4280098336
-0.2862815261 -0.1057458520 0.5189071894 4280098336
-0.2868052125 -0.1053616926 0.5198563933 4280164129
-0.2868530750 -0.1048015878 0.5199431777 4279900960
-0.2864249349 -0.1040683314 0.5191671252 4279769374
-0.2864722610 -0.1035085991 0.5192529559 4280097815
-0.2869952917 -0.1031196043 0.5202009678 4281479468
-0.2870422304 -0.1025583893 0.5202860236 4285954875
-0.2870889008 -0.1019968987 0.5203706622 4286218047
-0.2876115143 -0.1016033515 0.5213178992 4282994449
-0.2876577973 -0.1010403857 0.5214018226 4280165376
-0.2877038419 -0.1004771441 0.5214852095 4280230156
-0.2877496183 -0.0999136344 0.5215682387 4280098570
-0.2882716358 -0.0995143503 0.5225144625 4280361241
-0.2887935936 -0.0991129205 0.5234605074 4279966483
-0.2893154323 -0.0987093672 0.5244063735 4282860846
-0.2898371816 -0.0983036682 0.5253520608 4286676840
-0.2898820341 -0.0977350920 0.5254334211 4287072326
-0.2904035151 -0.0973260626 0.5263786316 4284045848
-0.2904479504 -0.0967560261 0.5264591575 4280097551
-0.2909691632 -0.0963436663 0.5274038911 4280952860
-0.2914902568 -0.0959291756 0.5283483863 4279704073
-0.2915340960 -0.0953564867 0.5284278989 4283256895
-0.2920548916 -0.0949386656 0.5293718576 4286416425
-0.2925755978 -0.0945187137 0.5303156972 4287008562
-0.2926188409 -0.0939433724 0.5303940773 4287073079
-0.2926618159 -0.0933677778 0.5304719806 4283125504
-0.2936595380 -0.0930946842 0.5322804451 4280360218
-0.2937021554 -0.0925167054 0.5323576927 4280228632
-0.2942221761 -0.0920879692 0.5333002210 4284637770
-0.2952197492 -0.0918056592 0.5351084471 4286479974
-0.2957395911 -0.0913717225 0.5360506773 4281939755
-0.2962592840 -0.0909356549 0.5369926691 4283255615
-0.2967788875 -0.0904974639 0.5379344821 4287599742
-0.2982543111 -0.0903467089 0.5406087637 4283060025
-0.2992518246 -0.0900462046 0.5424168706 4282402615
-0.2992931306 -0.0894558877 0.5424917340 4285889644
-0.3002905250 -0.0891492441 0.5442995429 4286612863
-0.2949440777 -0.1555899382 0.5356872082 4280757038
-0.2936099768 -0.1542936713 0.5332641602 4280757038
-0.2941455841 -0.1539815515 0.5342369080 4280822062
-0.2932779193 -0.1529355347 0.5326610208 4280690476
-0.2928774953 -0.1521357000 0.5319337249 4280493097
-0.2924766243 -0.1513372511 0.5312056541 4280427304
-0.2920753062 -0.1505402178 0.5304768085 4280230694
-0.2912054062 -0.1495041996 0.5288968682 4280230694
-0.2908031344 -0.1487108618 0.5281662941 4280427303
-0.2899320722 -0.1476803273 0.5265842080 4280361510
-0.2895288467 -0.1468906850 0.5258518457 4280360997
-0.2886565924 -0.1458656639 0.5242676735 4280229411
-0.2887211442 -0.1453156322 0.5243848562 4280097825
-0.2883166373 -0.1445302367 0.5236501694 4279966239
-0.2874428034 -0.1435121447 0.5220631361 4279900957
-0.2865683436 -0.1424972713 0.5204749107 4279900957
-0.2871006131 -0.1421825886 0.5214416385 4279835936
-0.2862251997 -0.1411714554 0.5198516846 4279770143
-0.2858184874 -0.1403940916 0.5191130042 4279770143
-0.2858808041 -0.1398477852 0.5192261338 4279770143
-0.2854733467 -0.1390724033 0.5184860826 4279900959
-0.2850654721 -0.1382984519 0.5177453160 4279900959
-0.2851269245 -0.1377528757 0.5178568959 4279900959
-0.2851881385 -0.1372069567 0.5179681182 4279900959
-0.2852491438 -0.1366606951 0.5180789232 4279835166
-0.2853099406 -0.1361140758 0.5181893706 4279769373
-0.2849003971 -0.1353437603 0.5174455047 4279703581
-0.2849606574 -0.1347973496 0.5175549388 4279703581
-0.2850206792 -0.1342505813 0.5176639557 4279637788
-0.2850804925 -0.1337034851 0.5177726150 4279637788
-0.2846695781 -0.1329362988 0.5170263052 4279703581
-0.2842582166 -0.1321705878 0.5162791610 4279637788
-0.2843171954 -0.1316242665 0.5163862705 4279571994
-0.2834343016 -0.1306435615 0.5147827268 4279571994
-0.2834926248 -0.1300983727 0.5148886442 4279637787
-0.2835507393 -0.1295528412 0.5149942040 4279637787
-0.2831375301 -0.1287926883 0.5142437220 4279637787
-0.2831950784 -0.1282473952 0.5143482685 4279637787
-0.2832524478 -0.1277017742 0.5144524574 4279637788
-0.2833095789 -0.1271558255 0.5145561695 4279637788
-0.2833664715 -0.1266095340 0.5146595836 4279637788
-0.2834231555 -0.1260629296 0.5147625208 4279703581
-0.2834796309 -0.1255159974 0.5148650408 4279637788
-0.2835358679 -0.1249687299 0.5149672031 4279637788
-0.2835918963 -0.1244211420 0.5150689483 4279637788
-0.2831757069 -0.1236671135 0.5143131018 4279637788
-0.2832311988 -0.1231197938 0.5144138336 4279571995
-0.2828142941 -0.1223678589 0.5136566758 4279571995
-0.2828692496 -0.1218208075 0.5137564540 4279571992
-0.2829239368 -0.1212734357 0.5138558149 4279571992
-0.2829784155 -0.1207257509 0.5139547586 4279637787
-0.2830326855 -0.1201777533 0.5140532851 4279637787
-0.2830867171 -0.1196294352 0.5141514540 4279637787
-0.2831405103 -0.1190808043 0.5142491460 4279637787
-0.2827213109 -0.1183339804 0.5134878159 4279703578
-0.2827745974 -0.1177856401 0.5135845542 4279703578
-0.2828276157 -0.1172369942 0.5136808753 4279769371
-0.2828804255 -0.1166880429 0.5137767792 4279769371
-0.2829329967 -0.1161387786 0.5138722658 4279638557
-0.2829853594 -0.1155892164 0.5139673352 4279638557
-0.2825641632 -0.1148469672 0.5132023692 4279704350
-0.2830893695 -0.1144891679 0.5141562223 4279770143
-0.2831410170 -0.1139386967 0.5142500997 4279900959
-0.2836660147 -0.1135775298 0.5152035952 4279835166
-0.2837173045 -0.1130255312 0.5152967572 4279900959
-0.2837683558 -0.1124732345 0.5153894424 4279966752
-0.2838191688 -0.1119206399 0.5154817700 4279900959
-0.2838697731 -0.1113677546 0.5155736208 4279900959
-0.2843941152 -0.1109995693 0.5165259838 4279966752
-0.2844443321 -0.1104451641 0.5166171789 4279900959
-0.2844942808 -0.1098904684 0.5167078972 4279900957
-0.2840698063 -0.1091532558 0.5159369111 4279966750
-0.2845935225 -0.1087802052 0.5168882012 4279900957
-0.2846428156 -0.1082246378 0.5169776678 4279900957
-0.2846918404 -0.1076687798 0.5170667171 4279900957
-0.2852151990 -0.1072911620 0.5180172920 4279966750
-0.2852638364 -0.1067338064 0.5181056261 4280032543
-0.2857869864 -0.1063528359 0.5190557241 4280032543
-0.2858352363 -0.1057939827 0.5191434026 4280032797
-0.2863581181 -0.1054096594 0.5200930834 4280098590
-0.2864059806 -0.1048493162 0.5201799870 4279900959
-0.2864536047 -0.1042886972 0.5202664733 4280164131
-0.2860258520 -0.1035557687 0.5194895864 4279703058
-0.2865481079 -0.1031666100 0.5204381347 4281940020
-0.2865949869 -0.1026051566 0.5205233097 4286021178
-0.2866416574 -0.1020434275 0.5206080079 4286086971
-0.2871634960 -0.1016497165 0.5215558410 4282665484
-0.2872097492 -0.1010865048 0.5216398239 4280165376
-0.2872557342 -0.1005230248 0.5217233300 4280295695
-0.2873015106 -0.0999592766 0.5218064785 4280098316
-0.2878227532 -0.0995598137 0.5227531791 4280230166
-0.2883439362 -0.0991582200 0.5236997604 4279901201
-0.2888650000 -0.0987544954 0.5246461630 4282861105
-0.2893859744 -0.0983486250 0.5255923271 4286677099
-0.2899068296 -0.0979406238 0.5265383720 4286941251
-0.2899515033 -0.0973706022 0.5266194940 4283783187
-0.2904721200 -0.0969592705 0.5275650024 4280032527
-0.2905163467 -0.0963877812 0.5276454091 4280624664
-0.2910366654 -0.0959731191 0.5285903811 4279572744
-0.2915568948 -0.0955563113 0.5295352340 4283125566
-0.2920770049 -0.0951373726 0.5304799080 4286482984
-0.2921204567 -0.0945620462 0.5305588245 4286877742
-0.2921636701 -0.0939864516 0.5306373239 4286941493
-0.2926833034 -0.0935629904 0.5315811038 4282993920
-0.2932028472 -0.0931373984 0.5325246453 4280821024
-0.2937222421 -0.0927096754 0.5334680676 4280294680
-0.2937646508 -0.0921302512 0.5335450768 4284835145
-0.2947607338 -0.0918478221 0.5353541970 4286743142
-0.2952798009 -0.0914136991 0.5362969041 4282795312
-0.2957987487 -0.0909774452 0.5372394323 4283913793
-0.2963175476 -0.0905390605 0.5381817222 4287994500
-0.2968362570 -0.0900985375 0.5391238332 4282665267
-0.2973548472 -0.0896558911 0.5400656462 4282336822
-0.2983506322 -0.0893540755 0.5418742895 4286152816
-0.2993464470 -0.0890482441 0.5436829329 4286941828
-0.2936136425 -0.1546074897 0.5343487263 4280822831
-0.2932147682 -0.1538045555 0.5336228013 4280691245
-0.2923484445 -0.1527589858 0.5320461392 4280559659
-0.2919485867 -0.1519597173 0.5313184261 4280428073
-0.2915482819 -0.1511618346 0.5305899382 4280362280
-0.2911475599 -0.1503653675 0.5298606753 4280296487
-0.2902790010 -0.1493298262 0.5282799602 4280296487
-0.2898773253 -0.1485370398 0.5275489688 4280427303
-0.2890075743 -0.1475069821 0.5259661078 4280361510
-0.2886049449 -0.1467179060 0.5252333283 4280295717
-0.2882018685 -0.1459302455 0.5244997740 4280164131
-0.2877984047 -0.1451440006 0.5237655044 4280032545
-0.2869264185 -0.1441240758 0.5221785903 4279900959
-0.2860538065 -0.1431073397 0.5205905437 4279835166
-0.2865854204 -0.1427938044 0.5215579867 4279835166
-0.2857118547 -0.1417808235 0.5199682117 4279770141
-0.2853061557 -0.1410025954 0.5192298889 4279770141
-0.2853686213 -0.1404564530 0.5193435550 4279704348
-0.2849622071 -0.1396801919 0.5186038613 4279704348
-0.2850241363 -0.1391342282 0.5187165737 4279704348
-0.2846169472 -0.1383599490 0.5179755688 4279770141
-0.2846783698 -0.1378141791 0.5180873275 4279770143
-0.2847395539 -0.1372680366 0.5181986690 4279770143
-0.2848004997 -0.1367215514 0.5183096528 4279704350
-0.2843919694 -0.1359503716 0.5175661445 4279638557
-0.2844524086 -0.1354040802 0.5176761150 4279703580
-0.2845126092 -0.1348574609 0.5177857280 4279703580
-0.2845726311 -0.1343104690 0.5178949237 4279637787
-0.2841627002 -0.1335424185 0.5171489120 4279637787
-0.2842221558 -0.1329956502 0.5172570944 4279703581
-0.2838115096 -0.1322296262 0.5165097713 4279637788
-0.2834004760 -0.1314650625 0.5157616735 4279506716
-0.2829889953 -0.1307019591 0.5150128603 4279506716
-0.2830472887 -0.1301565468 0.5151189566 4279506716
-0.2831053436 -0.1296108067 0.5152246356 4279506716
-0.2826928198 -0.1288503259 0.5144738555 4279506716
-0.2827503681 -0.1283048242 0.5145785809 4279506716
-0.2828076780 -0.1277589798 0.5146828890 4279571994
-0.2828647792 -0.1272128075 0.5147867799 4279571994
-0.2829216421 -0.1266662925 0.5148902535 4279637787
-0.2829782963 -0.1261194646 0.5149933696 4279637787
-0.2830347121 -0.1255723089 0.5150960684 4279637787
-0.2830909193 -0.1250248104 0.5151983500 4279637787
-0.2831468880 -0.1244770065 0.5153002143 4279637787
-0.2832026482 -0.1239288673 0.5154016614 4279637787
-0.2827868760 -0.1231751144 0.5146449804 4279571994
-0.2828420699 -0.1226272434 0.5147454739 4279637787
-0.2828970850 -0.1220790595 0.5148455501 4279637528
-0.2829518318 -0.1215305477 0.5149452090 4279637528
-0.2830063701 -0.1209817231 0.5150444508 4279703580
-0.2830606699 -0.1204325780 0.5151433349 4279703580
-0.2831147611 -0.1198831201 0.5152417421 4279637787
-0.2826966941 -0.1191344559 0.5144808888 4279637787
-0.2827502191 -0.1185852885 0.5145783424 4279769373
-0.2828035355 -0.1180358082 0.5146753192 4279769373
-0.2828566134 -0.1174860150 0.5147719383 4279769373
-0.2829094827 -0.1169359162 0.5148681402 4279703580
-0.2824897170 -0.1161912084 0.5141042471 4279769373
-0.2825420499 -0.1156414151 0.5141994357 4279769373
-0.2825941145 -0.1150913164 0.5142942071 4279835166
-0.2826459706 -0.1145409122 0.5143886209 4279835166
-0.2826976180 -0.1139902025 0.5144825578 4279900959
-0.2832218111 -0.1136288941 0.5154365897 4279900959
-0.2832730711 -0.1130766645 0.5155298710 4279966752
-0.2833240926 -0.1125241369 0.5156227350 4279966752
-0.2833748758 -0.1119713113 0.5157151222 4279966752
-0.2834254503 -0.1114181876 0.5158071518 4279900959
-0.2839490175 -0.1110498533 0.5167599916 4279900959
-0.2839991748 -0.1104952171 0.5168513060 4279900959
-0.2840491235 -0.1099402905 0.5169422030 4279900957
-0.2840988338 -0.1093850657 0.5170326233 4279900957
-0.2841483057 -0.1088295579 0.5171226859 4279966750
-0.2846711874 -0.1084542125 0.5180743337 4279900957
-0.2847202718 -0.1078971922 0.5181636214 4279900957
-0.2852429450 -0.1075184867 0.5191148520 4279966750
-0.2852916420 -0.1069599688 0.5192034841 4280032543
-0.2853401005 -0.1064011678 0.5192916393 4280032543
-0.2858623862 -0.1060178950 0.5202421546 4280032797
-0.2859104574 -0.1054575965 0.5203295946 4280032797
-0.2859582603 -0.1048970148 0.5204166174 4279900957
-0.2860058546 -0.1043361500 0.5205032229 4279900957
-0.2855788171 -0.1036029160 0.5197260380 4279703058
-0.2861002982 -0.1032135934 0.5206751227 4282597950
-0.2861471474 -0.1026518941 0.5207604170 4285758258
-0.2866683900 -0.1022592261 0.5217090249 4286021430
-0.2867148519 -0.1016960517 0.5217935443 4282468103
-0.2867610753 -0.1011326015 0.5218776464 4279968000
-0.2872818708 -0.1007353812 0.5228254795 4280427543
-0.2873276770 -0.1001704559 0.5229088664 4280164371
-0.2878482640 -0.0997698903 0.5238562226 4280164119
-0.2883687317 -0.0993671939 0.5248034596 4279900947
-0.2884139419 -0.0987995937 0.5248857141 4282992691
-0.2889341414 -0.0983935595 0.5258324742 4286808685
-0.2894542515 -0.0979853868 0.5267789960 4287007296
-0.2894988656 -0.0974151120 0.5268602371 4283651853
-0.2900187075 -0.0970036015 0.5278062820 4279966991
-0.2900629342 -0.0964318737 0.5278867483 4280427542
-0.2905824780 -0.0960170254 0.5288322568 4279639054
-0.2911019325 -0.0956000462 0.5297775865 4283126083
-0.2916212678 -0.0951809287 0.5307227373 4286746154
-0.2916646898 -0.0946053490 0.5308017731 4286746154
-0.2917078733 -0.0940295085 0.5308803916 4286875450
-0.2922267318 -0.0936058685 0.5318246484 4282664704
-0.2927455008 -0.0931800902 0.5327687263 4280886817
-0.2932641506 -0.0927521810 0.5337126255 4280163094
-0.2937826812 -0.0923221335 0.5346562862 4285032775
-0.2943010926 -0.0918899551 0.5355997682 4286940772
-0.2952956557 -0.0916033983 0.5374097824 4284111412
-0.2958138883 -0.0911660120 0.5383529663 4284769342
-0.2963320017 -0.0907264873 0.5392958522 4287994238
-0.2968500257 -0.0902848393 0.5402385592 4282599212
-0.2973678708 -0.0898410529 0.5411810279 4282863164
-0.2983622551 -0.0895381719 0.5429906845 4286876537
-0.2944788337 -0.1559737921 0.5370087624 4281020210
-0.2954794466 -0.1559050977 0.5388334394 4280888624
-0.2936833203 -0.1543623358 0.5355579853 4280691245
-0.2932848930 -0.1535586864 0.5348314643 4280559659
-0.2924196720 -0.1525131911 0.5332536697 4280428073
-0.2915537953 -0.1514708698 0.5316746831 4280362280
-0.2916204929 -0.1509146392 0.5317962766 4280296487
-0.2907535434 -0.1498768926 0.5302153230 4280296487
-0.2898859680 -0.1488423347 0.5286332369 4280427303
-0.2894846797 -0.1480497420 0.5279014111 4280295717
-0.2886159122 -0.1470206678 0.5263171792 4280229924
-0.2882136703 -0.1462318003 0.5255836248 4280164131
-0.2878109813 -0.1454443485 0.5248492956 4280032545
-0.2874078751 -0.1446583122 0.5241141915 4279966752
-0.2865369022 -0.1436393708 0.5225259066 4279900959
-0.2856653333 -0.1426236480 0.5209364891 4279900959
-0.2861960232 -0.1423087418 0.5219042897 4279770141
-0.2853234708 -0.1412967741 0.5203130841 4279770141
-0.2849181592 -0.1405187696 0.5195739865 4279770141
-0.2849803865 -0.1399720311 0.5196874142 4279704348
-0.2850423753 -0.1394249499 0.5198004842 4279704348
-0.2846359909 -0.1386494637 0.5190594196 4279704348
-0.2846974432 -0.1381025612 0.5191714764 4279704350
-0.2842903435 -0.1373290718 0.5184291005 4279704350
-0.2843512595 -0.1367823631 0.5185402036 4279638557
-0.2844119966 -0.1362353116 0.5186508894 4279638557
-0.2840038240 -0.1354643703 0.5179066062 4279703580
-0.2840639949 -0.1349175125 0.5180163383 4279703580
-0.2841239572 -0.1343703270 0.5181256533 4279637787
-0.2841836810 -0.1338227689 0.5182346106 4279637787
-0.2837741673 -0.1330549568 0.5174877644 4279703580
-0.2838333547 -0.1325076371 0.5175957680 4279703580
-0.2834230959 -0.1317418516 0.5168476105 4279506716
-0.2830124199 -0.1309775263 0.5160986781 4279506716
-0.2830707729 -0.1304309964 0.5162050724 4279506971
-0.2831288874 -0.1298841238 0.5163111091 4279506971
-0.2831867933 -0.1293369085 0.5164166689 4279506971
-0.2827747762 -0.1285757869 0.5156652927 4279506971
-0.2828321457 -0.1280288100 0.5157698989 4279571994
-0.2828892767 -0.1274815053 0.5158741474 4279571994
-0.2829461992 -0.1269338727 0.5159779191 4279571994
-0.2830029130 -0.1263859123 0.5160813332 4279571994
-0.2830593884 -0.1258376092 0.5161843300 4279571994
-0.2831156552 -0.1252889931 0.5162869096 4279637787
-0.2831716835 -0.1247400418 0.5163891315 4279703580
-0.2827570140 -0.1239844710 0.5156329274 4279637787
-0.2828125060 -0.1234357879 0.5157341361 4279637787
-0.2828677893 -0.1228867769 0.5158349276 4279703580
-0.2829228342 -0.1223374531 0.5159353018 4279637785
-0.2825067937 -0.1215851605 0.5151766539 4279637785
-0.2825613022 -0.1210361049 0.5152760148 4279637785
-0.2830865979 -0.1206875518 0.5162339807 4279703578
-0.2831407487 -0.1201369464 0.5163326859 4279703580
-0.2827234566 -0.1193870530 0.5155717134 4279703580
-0.2827770412 -0.1188367382 0.5156694651 4279769373
-0.2828304172 -0.1182861105 0.5157667398 4279703580
-0.2824120820 -0.1175389513 0.5150039196 4279703580
-0.2824648917 -0.1169886217 0.5151002407 4279703580
-0.2825174928 -0.1164379865 0.5151961446 4279769373
-0.2825698555 -0.1158870459 0.5152916312 4279835166
-0.2821501791 -0.1151432469 0.5145263076 4279835167
-0.2822020054 -0.1145926118 0.5146207809 4279769374
-0.2822535932 -0.1140416786 0.5147148967 4279835167
-0.2823049426 -0.1134904400 0.5148085356 4279900960
-0.2823560834 -0.1129389033 0.5149017572 4279835166
-0.2824069858 -0.1123870686 0.5149946213 4279900959
-0.2829299867 -0.1120219454 0.5159483552 4279900959
-0.2829805017 -0.1114685982 0.5160405040 4279835166
-0.2830308080 -0.1109149456 0.5161321759 4279835166
-0.2830808461 -0.1103610024 0.5162234902 4279900959
-0.2836033404 -0.1099900752 0.5171762705 4279966752
-0.2836530209 -0.1094346195 0.5172668695 4279966752
-0.2837024629 -0.1088788733 0.5173570514 4279966750
-0.2837516665 -0.1083228365 0.5174467564 4279966750
-0.2842736244 -0.1079461277 0.5183986425 4279966750
-0.2843224406 -0.1073885858 0.5184876323 4279966750
-0.2848441899 -0.1070085093 0.5194391012 4280032543
-0.2848926187 -0.1064494699 0.5195273757 4280032543
-0.2849408090 -0.1058901474 0.5196152329 4280098079
-0.2854621410 -0.1055055037 0.5205659866 4280098079
-0.2855099440 -0.1049446836 0.5206531286 4279835418
-0.2855574787 -0.1043835804 0.5207398534 4280098590
-0.2851311564 -0.1036500260 0.5199623704 4280032025
-0.2856518626 -0.1032605395 0.5209119320 4282597952
-0.2856987119 -0.1026986018 0.5209973454 4285889329
-0.2862191796 -0.1023057699 0.5219464898 4286152501
-0.2862655818 -0.1017423570 0.5220311284 4282731275
-0.2863117754 -0.1011786610 0.5221153498 4281086464
-0.2863577306 -0.1006146967 0.5221991539 4280295705
-0.2868776023 -0.1002161056 0.5231471658 4280361498
-0.2873973846 -0.0998153761 0.5240950584 4280295707
-0.2879170775 -0.0994125158 0.5250427723 4279966742
-0.2884366810 -0.0990075096 0.5259903073 4283125045
-0.2884817123 -0.0984384567 0.5260723829 4286677867
-0.2890010178 -0.0980301127 0.5270194411 4286876478
-0.2890456319 -0.0974595994 0.5271008015 4283389449
-0.2895646989 -0.0970479101 0.5280473232 4280032787
-0.2896088660 -0.0964759290 0.5281279087 4280624924
-0.2901276648 -0.0960609093 0.5290739536 4279902228
-0.2906463146 -0.0956437513 0.5300198197 4283257671
-0.2911649048 -0.0952244550 0.5309654474 4286746154
-0.2912082970 -0.0946486220 0.5310446024 4286746154
-0.2912514508 -0.0940725356 0.5311232805 4287072324
-0.2917695343 -0.0936487094 0.5320680737 4282335232
-0.2922875285 -0.0932227522 0.5330126882 4281215527
-0.2928054035 -0.0927946568 0.5339570642 4280491804
-0.2933231592 -0.0923644304 0.5349012613 4285032514
-0.2943162620 -0.0920808241 0.5367122889 4287137890
-0.2948338687 -0.0916453823 0.5376561284 4285493049
-0.2953513265 -0.0912078097 0.5385997891 4286085186
-0.2958686650 -0.0907680988 0.5395432115 4287468650
-0.2963858843 -0.0903262571 0.5404863954 4283323691
-0.2969029844 -0.0898822844 0.5414294004 4285100380
-0.2983717024 -0.0897223651 0.5441077352 4287995272
-0.2954072058 -0.1567830592 0.5397949815 4281086003
-0.2964066267 -0.1567116976 0.5416212082 4280888624
-0.2941482961 -0.1549205035 0.5374945998 4280625452
-0.2932852507 -0.1538705230 0.5359175801 4280493866
-0.2924215496 -0.1528237164 0.5343393683 4280493866
-0.2915572226 -0.1517800689 0.5327599645 4280428073
-0.2906922698 -0.1507395953 0.5311794281 4280296232
-0.2902926207 -0.1499429941 0.5304491520 4280230439
-0.2889603972 -0.1486682147 0.5280148387 4280361511
-0.2899582088 -0.1485928893 0.5298380852 4280295718
-0.2881585658 -0.1470855922 0.5265495777 4280164131
-0.2877569795 -0.1462963969 0.5258158445 4280098338
-0.2868885100 -0.1452724189 0.5242288709 4280032545
-0.2869525850 -0.1447222680 0.5243459344 4279966752
-0.2860830724 -0.1437029094 0.5227570534 4279966753
-0.2852129042 -0.1426867694 0.5211670399 4279966753
-0.2857428193 -0.1423717439 0.5221353769 4279770141
-0.2848717272 -0.1413593590 0.5205435753 4279835934
-0.2844671011 -0.1405810416 0.5198042393 4279835934
-0.2845292687 -0.1400340945 0.5199178457 4279770141
-0.2845912278 -0.1394867897 0.5200310349 4279704348
-0.2841855288 -0.1387109905 0.5192897320 4279704348
-0.2842469513 -0.1381638795 0.5194019675 4279835166
-0.2838405371 -0.1373900622 0.5186593533 4279769373
-0.2839014232 -0.1368431449 0.5187705755 4279835166
-0.2839621007 -0.1362958699 0.5188814402 4279769373
-0.2840225399 -0.1357482523 0.5189918876 4279703580
-0.2836147845 -0.1349775344 0.5182467699 4279703580
-0.2836746871 -0.1344301254 0.5183562636 4279703580
-0.2837343812 -0.1338823587 0.5184653401 4279703580
-0.2833255529 -0.1331142336 0.5177183151 4279703580
-0.2833847106 -0.1325666904 0.5178263783 4279769373
-0.2829751670 -0.1318005770 0.5170779824 4279703580
-0.2830337882 -0.1312532574 0.5171851516 4279637787
-0.2826234996 -0.1304891855 0.5164353848 4279637787
-0.2826815844 -0.1299421042 0.5165415406 4279637787
-0.2827394307 -0.1293946654 0.5166472793 4279637787
-0.2823280990 -0.1286332160 0.5158956647 4279637787
-0.2823854387 -0.1280860305 0.5160004497 4279637787
-0.2824425399 -0.1275385022 0.5161047578 4279637787
-0.2824994326 -0.1269906461 0.5162087083 4279637787
-0.2825560868 -0.1264424622 0.5163122416 4279571994
-0.2826125324 -0.1258939356 0.5164154172 4279571994
-0.2826687396 -0.1253450960 0.5165181160 4279637787
-0.2827247381 -0.1247959211 0.5166204572 4279637787
-0.2823107839 -0.1240400374 0.5158640146 4279637787
-0.2823662460 -0.1234911308 0.5159653425 4279703578
-0.2824214697 -0.1229418963 0.5160662532 4279703578
-0.2824764848 -0.1223923415 0.5161668062 4279769371
-0.2825312614 -0.1218424663 0.5162668824 4279703578
-0.2825857997 -0.1212922782 0.5163666010 4279703578
-0.2826401293 -0.1207417622 0.5164658427 4279703578
-0.2826942503 -0.1201909333 0.5165647268 4279769373
-0.2827481329 -0.1196397915 0.5166631341 4279769373
-0.2828017771 -0.1190883368 0.5167611837 4279703580
-0.2823845446 -0.1183393300 0.5159987807 4279703580
-0.2824376523 -0.1177881658 0.5160958171 4279572764
-0.2820197046 -0.1170412973 0.5153321624 4279572764
-0.2820722759 -0.1164904311 0.5154281855 4279769373
-0.2816536129 -0.1157457009 0.5146631598 4279769373
-0.2817056179 -0.1151951477 0.5147582293 4279638302
-0.2822285891 -0.1148359999 0.5157138109 4279638302
-0.2822802067 -0.1142839119 0.5158081651 4279704095
-0.2823316455 -0.1137315184 0.5159021020 4279769888
-0.2823828161 -0.1131788343 0.5159956217 4279638302
-0.2824337780 -0.1126258373 0.5160887241 4279704095
-0.2824844718 -0.1120725498 0.5161814094 4279900959
-0.2830066383 -0.1117051393 0.5171355605 4279900959
-0.2830570042 -0.1111503318 0.5172275305 4279900959
-0.2831071019 -0.1105952337 0.5173191428 4279966752
-0.2831569612 -0.1100398302 0.5174102187 4279966752
-0.2836786211 -0.1096666157 0.5183634758 4279900959
-0.2837281227 -0.1091097072 0.5184538960 4279966752
-0.2837773561 -0.1085525081 0.5185438991 4279966752
-0.2842986286 -0.1081747115 0.5194963813 4280032545
-0.2843475044 -0.1076160073 0.5195856690 4280032545
-0.2848685384 -0.1072348505 0.5205377936 4280032543
-0.2849170268 -0.1066746488 0.5206263661 4280098336
-0.2854378223 -0.1062901318 0.5215780139 4280098336
-0.2850132585 -0.1055533811 0.5208021998 4280098336
-0.2850610018 -0.1049923226 0.5208894610 4280032286
-0.2855813503 -0.1046041623 0.5218402743 4280163872
-0.2856287062 -0.1040416136 0.5219268203 4280426015
-0.2856758237 -0.1034787819 0.5220128894 4282728770
-0.2857227027 -0.1029156744 0.5220985413 4286349884
-0.2857693136 -0.1023522913 0.5221837759 4286218298
-0.2858157158 -0.1017886251 0.5222685337 4284704808
-0.2858618796 -0.1012246907 0.5223528743 4283586327
-0.2859077752 -0.1006604880 0.5224367976 4280032022
-0.2864269018 -0.1002617329 0.5233853459 4280426780
-0.2869459093 -0.0998608321 0.5243337154 4280427294
-0.2874648273 -0.0994578004 0.5252819657 4279966743
-0.2870363295 -0.0987267941 0.5244989395 4283519285
-0.2880286276 -0.0984833315 0.5263122320 4286743142
-0.2885471880 -0.0980748087 0.5272597671 4286875708
-0.2885917723 -0.0975040495 0.5273411870 4283257093
-0.2891100645 -0.0970921889 0.5282882452 4279835154
-0.2891542017 -0.0965199620 0.5283689499 4280690463
-0.2896721959 -0.0961047634 0.5293154716 4279835667
-0.2901901007 -0.0956874266 0.5302618146 4283322696
-0.2907078862 -0.0952679589 0.5312079787 4286680102
-0.2907512784 -0.0946918726 0.5312872529 4287009067
-0.2907944024 -0.0941155329 0.5313660502 4287334993
-0.2908372879 -0.0935389325 0.5314443707 4282466311
-0.2918289304 -0.0932653844 0.5332564712 4281017888
-0.2923460305 -0.0928371102 0.5342013240 4280886302
-0.2933376729 -0.0925564617 0.5360133648 4285427527
-0.2938545942 -0.0921229720 0.5369579196 4287401317
-0.2948462069 -0.0918352306 0.5387699008 4286414909
-0.2953629792 -0.0913965255 0.5397141576 4287204425
-0.2958796024 -0.0909556821 0.5406582355 4287534683
-0.2963961363 -0.0905127004 0.5416020751 4286153030
-0.2969125211 -0.0900675878 0.5425456762 4287666307
-0.2979039252 -0.0897635072 0.5443571806 4288061065
-0.2982578874 -0.1580111533 0.5461123586 4280822576
-0.2932156324 -0.1547433585 0.5368799567 4280559404
-0.2923539281 -0.1536938399 0.5353021622 4280493611
-0.2910266519 -0.1524040252 0.5328719616 4280493866
-0.2906285524 -0.1516042948 0.5321429968 4280493866
-0.2897649109 -0.1505642831 0.5305616856 4280362025
-0.2889006436 -0.1495274752 0.5289791822 4280230439
-0.2885010540 -0.1487337202 0.5282475352 4280361511
-0.2876355946 -0.1477023959 0.5266628861 4280295718
-0.2867695093 -0.1466742605 0.5250770450 4280229924
-0.2863684297 -0.1458865404 0.5243426561 4280098338
-0.2859669328 -0.1451002359 0.5236075521 4279966752
-0.2855649889 -0.1443153471 0.5228716135 4279966752
-0.2842307687 -0.1430628300 0.5204285979 4279966753
-0.2852259576 -0.1429834813 0.5222507715 4280032546
-0.2843567133 -0.1419692338 0.5206592083 4279770141
-0.2839531004 -0.1411900669 0.5199201703 4279835934
-0.2835490704 -0.1404123306 0.5191804171 4279835934
-0.2836110890 -0.1398660690 0.5192939639 4279770141
-0.2836728990 -0.1393194497 0.5194071531 4279770141
-0.2837345004 -0.1387724727 0.5195199251 4279704348
-0.2833290994 -0.1379977912 0.5187776089 4279769373
-0.2833901644 -0.1374510080 0.5188894272 4279769373
-0.2834509909 -0.1369038820 0.5190008283 4279835166
-0.2835116088 -0.1363563836 0.5191118121 4279835166
-0.2835720181 -0.1358085424 0.5192224383 4279769373
-0.2831649482 -0.1350375265 0.5184770823 4279703580
-0.2832248211 -0.1344898939 0.5185866952 4279703580
-0.2828170061 -0.1337208748 0.5178400278 4279703580
-0.2828763425 -0.1331734508 0.5179486275 4279703580
-0.2829354703 -0.1326256990 0.5180568695 4279769373
-0.2825266123 -0.1318592727 0.5173082948 4279703580
-0.2825852036 -0.1313117296 0.5174155235 4279703580
-0.2821756005 -0.1305473447 0.5166655779 4279637787
-0.2822336555 -0.1300000399 0.5167718530 4279637787
-0.2818233371 -0.1292376965 0.5160205960 4279637787
-0.2818808556 -0.1286906153 0.5161258578 4279637787
-0.2819381356 -0.1281432062 0.5162307620 4279703580
-0.2819952071 -0.1275954545 0.5163352489 4279703580
-0.2820520401 -0.1270473748 0.5164393783 4279637787
-0.2821086645 -0.1264989674 0.5165430307 4279571994
-0.2821650803 -0.1259502321 0.5166463256 4279637787
-0.2822212577 -0.1254011691 0.5167492032 4279703580
-0.2818083167 -0.1246443763 0.5159930587 4279637785
-0.2818639576 -0.1240955666 0.5160949826 4279703578
-0.2819193602 -0.1235464290 0.5161964297 4279769371
-0.2819745541 -0.1229969785 0.5162974596 4279703578
-0.2820295393 -0.1224472001 0.5163981318 4279703580
-0.2820842862 -0.1218971014 0.5164983869 4279769373
-0.2826082408 -0.1215485856 0.5174577236 4279769373
-0.2821930945 -0.1207959428 0.5166975856 4279703580
-0.2822471559 -0.1202448905 0.5167965889 4279769373
-0.2823009789 -0.1196935177 0.5168951750 4279703580
-0.2823545933 -0.1191418320 0.5169933438 4279572764
-0.2819380760 -0.1183925122 0.5162307024 4279572764
-0.2819911540 -0.1178411171 0.5163278580 4279572764
-0.2815739214 -0.1170939356 0.5155639052 4279572764
-0.2816264331 -0.1165428385 0.5156600475 4279572764
-0.2812084854 -0.1157977954 0.5148947835 4279638557
-0.2817308009 -0.1154397279 0.5158511400 4279704350
-0.2817826569 -0.1148877218 0.5159460902 4279704350
-0.2818342447 -0.1143354028 0.5160405636 4279704095
-0.2818856239 -0.1137827858 0.5161346197 4279704095
-0.2819367647 -0.1132298633 0.5162283182 4279835167
-0.2819876969 -0.1126766428 0.5163215399 4279835167
-0.2825092375 -0.1123103052 0.5172764659 4279900960
-0.2825597823 -0.1117555648 0.5173689723 4279966753
-0.2826100588 -0.1112005189 0.5174611211 4279900960
-0.2831312418 -0.1108295918 0.5184153914 4279966753
-0.2831811607 -0.1102730408 0.5185067654 4279966753
-0.2832308710 -0.1097161919 0.5185977817 4279900960
-0.2832803130 -0.1091590449 0.5186883211 4279966752
-0.2838009596 -0.1087823138 0.5196416378 4279966752
-0.2843215466 -0.1084034368 0.5205948353 4280032545
-0.2843704522 -0.1078435704 0.5206843615 4280032545
-0.2844191194 -0.1072834060 0.5207734704 4280032545
-0.2844675779 -0.1067229658 0.5208621621 4280098338
-0.2845157683 -0.1061622351 0.5209504366 4280164131
-0.2845637202 -0.1056012213 0.5210382342 4280164131
-0.2850834429 -0.1052141190 0.5219898820 4280032286
-0.2846589386 -0.1044783443 0.5212125778 4280098079
-0.2851783335 -0.1040888205 0.5221636295 4280229150
-0.2852254212 -0.1035257503 0.5222498178 4282729284
-0.2852722704 -0.1029623970 0.5223355889 4286283586
-0.2853188813 -0.1023987755 0.5224209428 4285954621
-0.2853652239 -0.1018348709 0.5225058198 4286349633
-0.2854113579 -0.1012706980 0.5225902796 4284704808
-0.2854572535 -0.1007062495 0.5226742625 4279768850
-0.2855028808 -0.1001415253 0.5227578282 4280426780
-0.2860210538 -0.0997413993 0.5237066150 4280624162
-0.2870119512 -0.0995030552 0.5255209804 4279768853
-0.2875300050 -0.0990977064 0.5264695287 4283782960
-0.2880479395 -0.0986902192 0.5274178982 4286612059
-0.2880927324 -0.0981194824 0.5274999142 4286875707
-0.2886104286 -0.0977086499 0.5284477472 4282862336
-0.2886548042 -0.0971364379 0.5285290480 4279900688
-0.2891722023 -0.0967222676 0.5294764042 4280690204
-0.2896894813 -0.0963059515 0.5304235816 4279835408
-0.2902067006 -0.0958875045 0.5313705802 4283519816
-0.2902502716 -0.0953114256 0.5314503908 4286811688
-0.2902936339 -0.0947350934 0.5315297246 4287074860
-0.2908103466 -0.0943121016 0.5324758887 4286282054
-0.2913269699 -0.0938869789 0.5334218144 4282071302
-0.2918434739 -0.0934597105 0.5343675613 4280952598
-0.2928337157 -0.0931810886 0.5361806750 4281018391
-0.2938239574 -0.0928984433 0.5379938483 4285559111
-0.2943402529 -0.0924628824 0.5389391780 4287269729
-0.2948564291 -0.0920251831 0.5398842692 4287072839
-0.2953724861 -0.0915853456 0.5408291817 4287928148
-0.2958884239 -0.0911433697 0.5417738557 4287864160
-0.2964042425 -0.0906992555 0.5427182913 4288193125
-0.2969199121 -0.0902530029 0.5436625481 4287995272
-0.2949989140 -0.1566030979 0.5412458777 4280756783
-0.2932117283 -0.1550566256 0.5379668474 4280494123
-0.2918875217 -0.1537613273 0.5355372429 4280428330
-0.2910265923 -0.1527145505 0.5339576602 4280559659
-0.2924863398 -0.1528843045 0.5366359353 4280493866
-0.2902315557 -0.1511140764 0.5324990153 4280362025
-0.2893689275 -0.1500750333 0.5309162736 4280164646
-0.2885056436 -0.1490391940 0.5293323994 4280295718
-0.2876417339 -0.1480065435 0.5277473927 4280295718
-0.2872419953 -0.1472153068 0.5270139575 4280099108
-0.2863769233 -0.1461881548 0.5254267454 4279967522
-0.2864412367 -0.1456370652 0.5255447626 4280032545
-0.2860402167 -0.1448500752 0.5248089433 4279966752
-0.2851735651 -0.1438298672 0.5232188702 4280032545
-0.2843062878 -0.1428128779 0.5216276646 4280032545
-0.2848346233 -0.1424976289 0.5225970149 4279835934
-0.2839663923 -0.1414844096 0.5210040808 4279835934
-0.2835631669 -0.1407054514 0.5202642679 4279835934
-0.2836252451 -0.1401580721 0.5203781724 4279770141
-0.2832213044 -0.1393810958 0.5196369886 4279770141
-0.2832828462 -0.1388339102 0.5197499394 4279704348
-0.2833441794 -0.1382863671 0.5198624730 4279704348
-0.2829391658 -0.1375119239 0.5191193819 4279638555
-0.2829999626 -0.1369645596 0.5192309022 4279704348
-0.2830605507 -0.1364168525 0.5193420649 4279704348
-0.2831209004 -0.1358688027 0.5194528103 4279769373
-0.2831810415 -0.1353203952 0.5195631385 4279703580
-0.2827743590 -0.1345496029 0.5188170075 4279703580
-0.2828339636 -0.1340014040 0.5189263821 4279703580
-0.2824265361 -0.1332326382 0.5181788206 4279703580
-0.2820186913 -0.1324653476 0.5174305439 4279769373
-0.2820774615 -0.1319179237 0.5175383687 4279572762
-0.2821359932 -0.1313701570 0.5176457763 4279572762
-0.2821943164 -0.1308220625 0.5177527666 4279572762
-0.2817851305 -0.1300579309 0.5170019865 4279572762
-0.2818429172 -0.1295100600 0.5171080232 4279572762
-0.2814329863 -0.1287479848 0.5163559318 4279572762
-0.2814902365 -0.1282003522 0.5164609551 4279572762
-0.2815472484 -0.1276523769 0.5165656209 4279572762
-0.2816040814 -0.1271040738 0.5166698098 4279637787
-0.2816606462 -0.1265554428 0.5167736411 4279637787
-0.2817170322 -0.1260064840 0.5168770552 4279703580
-0.2817731500 -0.1254571974 0.5169800520 4279703580
-0.2818290889 -0.1249075755 0.5170826316 4279703580
-0.2818847597 -0.1243576258 0.5171848536 4279769373
-0.2819402516 -0.1238073558 0.5172865987 4279769373
-0.2819954753 -0.1232567653 0.5173879862 4279769373
-0.2815819979 -0.1225020140 0.5166292787 4279703580
-0.2816366851 -0.1219516918 0.5167296529 4279703580
-0.2816911638 -0.1214010492 0.5168296099 4279769373
-0.2822142243 -0.1210511625 0.5177893043 4279703580
-0.2817994654 -0.1202988029 0.5170283318 4279703580
-0.2818532586 -0.1197472066 0.5171270370 4279703580
-0.2819068432 -0.1191952899 0.5172253251 4279703581
-0.2819601893 -0.1186430678 0.5173231959 4279703581
-0.2820132971 -0.1180905253 0.5174206495 4279638302
-0.2815968692 -0.1173421070 0.5166565776 4279638302
-0.2816494405 -0.1167898625 0.5167530775 4279769373
-0.2812322676 -0.1160435826 0.5159876943 4279769373
-0.2812843025 -0.1154916435 0.5160831213 4279835166
-0.2813360989 -0.1149394065 0.5161781907 4279900959
-0.2813876867 -0.1143868566 0.5162727833 4279769888
-0.2819088697 -0.1140240505 0.5172290802 4279704095
-0.2819600701 -0.1134699732 0.5173230171 4279966753
-0.2820110321 -0.1129155979 0.5174164772 4279900960
-0.2820617855 -0.1123609245 0.5175095797 4279966752
-0.2825824618 -0.1119922921 0.5184649229 4279966752
-0.2826328278 -0.1114360914 0.5185573101 4279966752
-0.2826829553 -0.1108796000 0.5186492801 4279966752
-0.2827328444 -0.1103228107 0.5187408328 4279966753
-0.2832530141 -0.1099483669 0.5196951628 4279966753
-0.2833025157 -0.1093900576 0.5197860003 4280032545
-0.2833517790 -0.1088314652 0.5198764205 4280032545
-0.2834008038 -0.1082725748 0.5199663639 4280032543
-0.2839204669 -0.1078923270 0.5209197998 4280032543
-0.2839691043 -0.1073319316 0.5210090280 4280098336
-0.2840175033 -0.1067712530 0.5210978389 4280098336
-0.2845367491 -0.1063864231 0.5220505595 4280164131
-0.2845847607 -0.1058242396 0.5221385956 4280098338
-0.2846325338 -0.1052617729 0.5222262740 4279966752
-0.2842087448 -0.1045256779 0.5214487314 4280361510
-0.2847273648 -0.1041359901 0.5224002600 4280294943
-0.2847744226 -0.1035726815 0.5224865675 4281676596
-0.2848212421 -0.1030090898 0.5225724578 4284967477
-0.2848677933 -0.1024452224 0.5226579309 4285756993
-0.2849141359 -0.1018810794 0.5227429271 4286152511
-0.2854320109 -0.1014844105 0.5236930847 4284178721
-0.2850060761 -0.1007519737 0.5229116082 4279834897
-0.2850517035 -0.1001870111 0.5229952931 4280427034
-0.2855690718 -0.0997867212 0.5239445567 4280623908
-0.2860863507 -0.0993842781 0.5248936415 4279505427
-0.2866035700 -0.0989797041 0.5258426070 4284046635
-0.2871206701 -0.0985729843 0.5267913342 4286678355
-0.2876376510 -0.0981641188 0.5277398825 4286941500
-0.2876821756 -0.0975928605 0.5278215408 4282401792
-0.2881989181 -0.0971806571 0.5287696123 4280295444
-0.2882429957 -0.0966079384 0.5288505554 4280690202
-0.2887594402 -0.0961923897 0.5297980905 4279901199
-0.2892757952 -0.0957746953 0.5307454467 4283848779
-0.2897920310 -0.0953548700 0.5316926241 4287139631
-0.2903081775 -0.0949328989 0.5326395631 4287008045
-0.2903513014 -0.0943551138 0.5327187181 4283979048
-0.2903941870 -0.0937770754 0.5327973962 4281281536
-0.2913828790 -0.0935023576 0.5346114039 4281348370
-0.2918984890 -0.0930727720 0.5355573893 4280756233
-0.2924139798 -0.0926410481 0.5365031958 4285559113
-0.2934026122 -0.0923561454 0.5383170843 4287072352
-0.2939179540 -0.0919192061 0.5392625332 4287730013
-0.2949065268 -0.0916271955 0.5410763621 4288190564
-0.2954216897 -0.0911850259 0.5420215130 4288126832
-0.2959367037 -0.0907407254 0.5429664850 4287995246
-0.2973987460 -0.0905827656 0.5456489325 4285692517
-0.2983872890 -0.0902755857 0.5474626422 4284639829
-0.3056410253 -0.1625838727 0.5619164109 4280822576
-0.2964481413 -0.1570882201 0.5450153947 4280559916
-0.2937370241 -0.1550515890 0.5400310755 4280494123
-0.2905609906 -0.1527815610 0.5341920257 4280559916
-0.2920184731 -0.1529514343 0.5368715525 4280428330
-0.2897673547 -0.1511804461 0.5327329040 4280296487
-0.2889061570 -0.1501409858 0.5311496258 4280164901
-0.2880443335 -0.1491047293 0.5295651555 4280295717
-0.2871818542 -0.1480716467 0.5279794931 4280229924
-0.2867828012 -0.1472800821 0.5272458792 4280033313
-0.2859191597 -0.1462525129 0.5256580710 4279967520
-0.2855191827 -0.1454646885 0.5249226689 4279967520
-0.2855831087 -0.1449138969 0.5250402093 4279967520
-0.2847178876 -0.1438932717 0.5234495401 4280032545
-0.2838520706 -0.1428758651 0.5218577385 4279966752
-0.2843796015 -0.1425605118 0.5228276253 4279835932
-0.2839775980 -0.1417789161 0.5220885277 4279770139
-0.2835751772 -0.1409987360 0.5213487148 4279770139
-0.2831723392 -0.1402200013 0.5206080675 4279704346
-0.2832341492 -0.1396720558 0.5207217336 4279770139
-0.2828305960 -0.1388953030 0.5199797750 4279704346
-0.2828918695 -0.1383475363 0.5200924277 4279704348
-0.2824875712 -0.1375727803 0.5193490982 4279704348
-0.2825483084 -0.1370252073 0.5194607973 4279638555
-0.2830744386 -0.1367021203 0.5204280615 4279704348
-0.2826691866 -0.1359290183 0.5196830034 4279572762
-0.2827292681 -0.1353803873 0.5197935104 4279506969
-0.2823233008 -0.1346092820 0.5190470815 4279572762
-0.2823828459 -0.1340608746 0.5191566348 4279572762
-0.2819761336 -0.1332917958 0.5184088945 4279572762
-0.2815690041 -0.1325241774 0.5176603794 4279638555
-0.2816277146 -0.1319765300 0.5177683234 4279638555
-0.2816862166 -0.1314285547 0.5178758502 4279572762
-0.2817445099 -0.1308802217 0.5179830194 4279638555
-0.2813360095 -0.1301157922 0.5172320008 4279638555
-0.2813937366 -0.1295676976 0.5173381567 4279638555
-0.2814512849 -0.1290192604 0.5174438953 4279572762
-0.2810417414 -0.1282574385 0.5166909695 4279572762
-0.2810987234 -0.1277092546 0.5167957544 4279572762
-0.2811554968 -0.1271607280 0.5169001222 4279506969
-0.2816791534 -0.1268222034 0.5178629160 4279572762
-0.2812683582 -0.1260626912 0.5171076059 4279572764
-0.2813244462 -0.1255131811 0.5172107816 4279506971
-0.2813803256 -0.1249633431 0.5173135400 4279572764
-0.2814359963 -0.1244131699 0.5174158216 4279638557
-0.2814914286 -0.1238626763 0.5175177455 4279638557
-0.2815466225 -0.1233118549 0.5176192522 4279638557
-0.2816016078 -0.1227607131 0.5177203417 4279703581
-0.2811885178 -0.1220062450 0.5169608593 4279637788
-0.2812429368 -0.1214553714 0.5170609355 4279768860
-0.2817652225 -0.1211053580 0.5180211067 4279768860
-0.2818192840 -0.1205529347 0.5181205273 4279768860
-0.2814049125 -0.1198008507 0.5173587203 4279768860
-0.2814584672 -0.1192487180 0.5174571276 4279769374
-0.2815117538 -0.1186962575 0.5175551176 4279703581
-0.2815648615 -0.1181434914 0.5176527500 4279703581
-0.2816177011 -0.1175904125 0.5177499056 4279769374
-0.2812016606 -0.1168422848 0.5169849992 4279835166
-0.2812539637 -0.1162895039 0.5170812011 4279835166
-0.2808372080 -0.1155435294 0.5163149834 4279835166
-0.2808889747 -0.1149910539 0.5164101720 4279900959
-0.2809405029 -0.1144382805 0.5165048838 4279769888
-0.2814609110 -0.1140753254 0.5174616575 4279769888
-0.2815120816 -0.1135210171 0.5175557137 4280032546
-0.2815630138 -0.1129664108 0.5176493526 4279900960
-0.2816137075 -0.1124115065 0.5177425742 4279900959
-0.2821336389 -0.1120427251 0.5186983943 4279966752
-0.2821839452 -0.1114862934 0.5187909007 4279900959
-0.2822340429 -0.1109295711 0.5188829899 4279966752
-0.2822839022 -0.1103725433 0.5189746618 4279966752
-0.2828032672 -0.1099979505 0.5199295878 4279966752
-0.2828527391 -0.1094394103 0.5200205445 4280098338
-0.2829019725 -0.1088805795 0.5201110244 4280098338
-0.2834210098 -0.1085013896 0.5210652351 4279967520
-0.2829997540 -0.1077620462 0.5202907920 4279967520
-0.2835184634 -0.1073804200 0.5212444067 4279967520
-0.2835668325 -0.1068195030 0.5213333368 4280033313
-0.2840853035 -0.1064345166 0.5222865343 4280033313
-0.2841332853 -0.1058720946 0.5223747492 4279967520
-0.2841810286 -0.1053093895 0.5224624872 4279901729
-0.2842285335 -0.1047464013 0.5225498676 4279835936
-0.2842757702 -0.1041831300 0.5226367116 4280163868
-0.2843227983 -0.1036195830 0.5227231979 4280361247
-0.2843695879 -0.1030557528 0.5228092074 4282862107
-0.2844161391 -0.1024916470 0.5228947401 4285954378
-0.2844624221 -0.1019272655 0.5229798555 4286284097
-0.2849795222 -0.1015304253 0.5239305496 4283783963
-0.2850254178 -0.1009645537 0.5240149498 4279900688
-0.2845999002 -0.1002324671 0.5232325792 4280492825
-0.2851164937 -0.0998320058 0.5241823792 4280624421
-0.2856329978 -0.0994293988 0.5251319408 4279374354
-0.2861494124 -0.0990246534 0.5260813832 4284310056
-0.2866657376 -0.0986177623 0.5270306468 4286810190
-0.2871819735 -0.0982087255 0.5279797316 4287073086
-0.2872264385 -0.0976372287 0.5280615091 4282072832
-0.2877424061 -0.0972248465 0.5290100574 4280426515
-0.2877864540 -0.0966518745 0.5290910602 4280492308
-0.2883021235 -0.0962361544 0.5300391316 4279703820
-0.2888177037 -0.0958182886 0.5309870243 4283914572
-0.2893331647 -0.0953982770 0.5319346786 4287337013
-0.2898485363 -0.0949761271 0.5328821540 4286876462
-0.2898916304 -0.0943980962 0.5329613686 4282597399
-0.2904067039 -0.0939726084 0.5339083076 4281347332
-0.2909216583 -0.0935449824 0.5348550677 4281282826
-0.2914364934 -0.0931152105 0.5358015895 4280888068
-0.2924236059 -0.0928332731 0.5376164317 4286217301
-0.2929382920 -0.0923982784 0.5385626554 4286546266
-0.2939254045 -0.0921092331 0.5403774381 4285887823
-0.2944399118 -0.0916690230 0.5413233042 4284703549
-0.2949542701 -0.0912266672 0.5422689915 4285100113
-0.2959412932 -0.0909274220 0.5440835953 4284507976
-0.2964554727 -0.0904798433 0.5450289249 4282797371
-0.2974424362 -0.0901734829 0.5468434095 4283323715
-0.2996022403 -0.1596976817 0.5519412756 4280822576
-0.2978221774 -0.1581392437 0.5486619473 4280625197
-0.2937282324 -0.1553641856 0.5411198735 4280625197
-0.2900947928 -0.1528485417 0.5344261527 4280625197
-0.2896988690 -0.1520469636 0.5336968303 4280427818
-0.2888396680 -0.1510047913 0.5321139097 4280296487
-0.2875168025 -0.1497246921 0.5296769142 4280296487
-0.2866562009 -0.1486897916 0.5280914307 4280099108
-0.2862581611 -0.1478973925 0.5273581743 4280099108
-0.2853963971 -0.1468679756 0.5257705450 4280033315
-0.2849974036 -0.1460793018 0.5250355601 4279967522
-0.2850615084 -0.1455286741 0.5251536369 4279967522
-0.2846617997 -0.1447419524 0.5244172215 4279901729
-0.2838610709 -0.1431727558 0.5229421258 4279901727
-0.2839240134 -0.1426233500 0.5230580568 4280032543
-0.2835226953 -0.1418414265 0.5223187804 4279900957
-0.2831209898 -0.1410609335 0.5215786695 4279966750
-0.2831830680 -0.1405122280 0.5216930509 4279966750
-0.2827806175 -0.1397337317 0.5209516287 4279900957
-0.2828421593 -0.1391852051 0.5210650563 4279835164
-0.2824389637 -0.1384086758 0.5203222632 4279835164
-0.2824999988 -0.1378603429 0.5204346776 4279835164
-0.2820960879 -0.1370858103 0.5196905732 4279769371
-0.2826214135 -0.1367626190 0.5206583738 4279835164
-0.2826817930 -0.1362132132 0.5207695961 4279769371
-0.2822769284 -0.1354403496 0.5200237036 4279769371
-0.2823367715 -0.1348911524 0.5201339722 4279769373
-0.2819311619 -0.1341202855 0.5193867087 4279637787
-0.2819904685 -0.1335713118 0.5194959641 4279637787
-0.2815841138 -0.1328024715 0.5187474489 4279703580
-0.2811773717 -0.1320351064 0.5179980993 4279638555
-0.2812358439 -0.1314869076 0.5181058049 4279572762
-0.2812940776 -0.1309383661 0.5182130933 4279638555
-0.2813521028 -0.1303894818 0.5183199644 4279638555
-0.2809439898 -0.1296252906 0.5175681114 4279572762
-0.2810014784 -0.1290766448 0.5176740289 4279572762
-0.2805926204 -0.1283145100 0.5169208646 4279703580
-0.2806495726 -0.1277660877 0.5170257688 4279703580
-0.2807063162 -0.1272173524 0.5171302557 4279637787
-0.2807628214 -0.1266682744 0.5172343850 4279637787
-0.2808190882 -0.1261188686 0.5173380375 4279703580
-0.2804085910 -0.1253605485 0.5165817738 4279703580
-0.2804643512 -0.1248113960 0.5166844726 4279769374
-0.2805198729 -0.1242619157 0.5167868137 4279769374
-0.2810420096 -0.1239179596 0.5177487135 4279768861
