VERSION 0.7
FIELDS x y z rgba
SIZE 4 4 4 4
TYPE F F F U
COUNT 1 1 1 1
WIDTH 920
HEIGHT 1
VIEWPOINT 0.0 0.0 0.0 1.0 0.0 0.0 0.0
POINTS 920
DATA ascii
-0.3391730487 -0.1103187576 0.5565181375 4288305413
-0.3392258883 -0.1097175106 0.5566047430 4288176648
-0.3387651443 -0.1089509055 0.5558487773 4288505613
-0.3388173282 -0.1083500087 0.5559344292 4286142748
-0.3388692439 -0.1077488363 0.5560196042 4283774208
-0.3384073973 -0.1069850400 0.5552617908 4279572246
-0.3379450738 -0.1062227935 0.5545032620 4280098590
-0.3369686902 -0.1053015813 0.5529011488 4285428341
-0.3211291730 -0.1668100953 0.5278735161 4281936421
-0.3227114081 -0.1670425981 0.5304744244 4282788352
-0.3268041909 -0.1685642302 0.5372021198 4284959513
-0.3284656405 -0.1682213843 0.5399332047 4290944322
-0.3295477331 -0.1681737006 0.5417119861 4292191028
-0.3316350579 -0.1686331928 0.5451431274 4291796270
-0.3307075202 -0.1675575525 0.5436184406 4291926563
-0.3327955604 -0.1680076718 0.5470507741 4291860770
-0.3338786364 -0.1679446697 0.5488311648 4291860772
-0.3344590366 -0.1676257551 0.5497851968 4291860772
-0.3345363438 -0.1670535207 0.5499123335 4291729701
-0.3346134424 -0.1664808840 0.5500390530 4291663908
-0.3346903026 -0.1659078598 0.5501654148 4291467044
-0.3347669542 -0.1653344333 0.5502913594 4291335458
-0.3353468776 -0.1650083810 0.5512446761 4291467044
-0.3354231715 -0.1644333154 0.5513700843 4291401251
-0.3360030055 -0.1641038805 0.5523231626 4291334943
-0.3360789418 -0.1635271609 0.5524480343 4291269150
-0.3361546397 -0.1629500538 0.5525724888 4291334429
-0.3367342055 -0.1626159847 0.5535251498 4291268636
-0.3373137712 -0.1622797996 0.5544778705 4291268636
-0.3378933072 -0.1619414985 0.5554305315 4291137050
-0.3379684389 -0.1613602340 0.5555539727 4291202330
-0.3385478258 -0.1610185504 0.5565063953 4291202330
-0.3386225700 -0.1604356468 0.5566293001 4291136537
-0.3392018378 -0.1600905806 0.5575814843 4291070744
-0.3392762244 -0.1595060378 0.5577037334 4291004953
-0.3393503726 -0.1589211076 0.5578256249 4290939160
-0.3394242525 -0.1583358049 0.5579470992 4291004183
-0.3394979239 -0.1577500999 0.5580681562 4291004183
-0.3395713270 -0.1571640223 0.5581888556 4291004183
-0.3396444917 -0.1565775722 0.5583091378 4290872597
-0.3402229548 -0.1562228650 0.5592600107 4290806804
-0.3402957618 -0.1556347907 0.5593796372 4290675218
-0.3403683305 -0.1550463289 0.5594989061 4290741013
-0.3404406309 -0.1544574946 0.5596177578 4290741013
-0.3405126929 -0.1538682729 0.5597362518 4290675220
-0.3410905898 -0.1535064429 0.5606861711 4290609427
-0.3411622643 -0.1529156119 0.5608040094 4290477839
-0.3412337005 -0.1523244083 0.5609214306 4290543632
-0.3413048685 -0.1517328322 0.5610384345 4290412048
-0.3418823183 -0.1513651311 0.5619876385 4290346255
-0.3419530988 -0.1507719308 0.5621039867 4290346255
-0.3415169418 -0.1499558836 0.5613870621 4290280462
-0.3420939445 -0.1495844424 0.5623354912 4290214415
-0.3421639800 -0.1489901394 0.5624506474 4290214415
-0.3422337770 -0.1483954936 0.5625653863 4290279695
-0.3423033357 -0.1478004605 0.5626797080 4290213902
-0.3428798318 -0.1474231631 0.5636273623 4290148110
-0.3429489732 -0.1468265355 0.5637410283 4290016524
-0.3430178761 -0.1462295502 0.5638542771 4289950733
-0.3430865109 -0.1456322074 0.5639671087 4289884940
-0.3431549072 -0.1450344920 0.5640795231 4289884940
-0.3427152932 -0.1442227662 0.5633569360 4289819147
-0.3427830935 -0.1436252445 0.5634683371 4289753100
-0.3428505957 -0.1430273503 0.5635793209 4289753100
-0.3429178596 -0.1424291134 0.5636898875 4289621514
-0.3429848850 -0.1418305188 0.5638000369 4289555721
-0.3430516422 -0.1412315816 0.5639097691 4289555721
-0.3431181312 -0.1406322867 0.5640190840 4289424135
-0.3431843519 -0.1400326490 0.5641279817 4289424137
-0.3432503343 -0.1394326687 0.5642364025 4289489930
-0.3433160782 -0.1388323456 0.5643444657 4289424137
-0.3438902497 -0.1384364516 0.5652883053 4289358344
-0.3439555466 -0.1378345490 0.5653956532 4289358345
-0.3440205753 -0.1372323036 0.5655025244 4289292552
-0.3440853655 -0.1366297156 0.5656090379 4289226759
-0.3441498876 -0.1360267848 0.5657150745 4289226759
-0.3442141414 -0.1354235113 0.5658206940 4289226759
-0.3437688649 -0.1346204728 0.5650887489 4289226759
-0.3438324928 -0.1340174228 0.5651933551 4289094919
-0.3438958824 -0.1334140301 0.5652975440 4289094919
-0.3434494138 -0.1326135695 0.5645636916 4289160455
-0.3435121775 -0.1320104152 0.5646668077 4289094662
-0.3435746729 -0.1314069331 0.5647695661 4288963335
-0.3436369002 -0.1308031231 0.5648718476 4288897542
-0.3431889415 -0.1300058067 0.5641354918 4288831749
-0.3432505429 -0.1294022352 0.5642367601 4288831749
-0.3428017795 -0.1286069602 0.5634990335 4288832262
-0.3428627551 -0.1280036420 0.5635992885 4288700676
-0.3429234922 -0.1274000108 0.5636991262 4288700422
-0.3424735665 -0.1266073585 0.5629595518 4288634629
-0.3425336778 -0.1260039806 0.5630583167 4288568836
-0.3420829177 -0.1252133995 0.5623174310 4288568836
-0.3421424031 -0.1246102974 0.5624151826 4288568836
-0.3416908681 -0.1238217801 0.5616729856 4288503043
-0.3412389159 -0.1230347604 0.5609300137 4288634629
-0.3412974179 -0.1224325150 0.5610261559 4288568836
-0.3413556516 -0.1218299642 0.5611218810 4288634629
-0.3414136171 -0.1212271005 0.5612171888 4288634629
-0.3409601450 -0.1204433590 0.5604717731 4288634629
-0.3410174847 -0.1198407859 0.5605660081 4288634629
-0.3410745561 -0.1192379072 0.5606598258 4288438020
-0.3411313593 -0.1186347306 0.5607532263 4288372227
-0.3411879241 -0.1180312559 0.5608461499 4288438020
-0.3407325745 -0.1172514260 0.5600976944 4288438020
-0.3407884836 -0.1166482568 0.5601896048 4288438020
-0.3408441246 -0.1160447896 0.5602810979 4288438020
-0.3408994973 -0.1154410318 0.5603721142 4288438022
-0.3399307132 -0.1144921258 0.5587795973 4288372229
-0.3394733667 -0.1137180701 0.5580278039 4288372229
-0.3395276964 -0.1131161600 0.5581170917 4288372229
-0.3395817280 -0.1125139594 0.5582059026 4288242181
-0.3391232193 -0.1117426753 0.5574522614 4288044802
-0.3391766548 -0.1111408100 0.5575400591 4287846672
-0.3387173712 -0.1103716865 0.5567851067 4288109844
-0.3387701511 -0.1097701639 0.5568718910 4287717918
-0.3388226926 -0.1091683581 0.5569581985 4286402058
-0.3383622766 -0.1084020361 0.5562013984 4283971593
-0.3389269114 -0.1079639196 0.5571295619 4283379456
-0.3379529715 -0.1070364416 0.5555285811 4280361247
-0.3374913335 -0.1062738448 0.5547697544 4280427040
-0.3370292783 -0.1055128053 0.5540102124 4285691763
-0.3192631602 -0.1655599624 0.5257660747 4282200353
-0.3263575733 -0.1686417609 0.5374492407 4281805595
-0.3249306977 -0.1673099101 0.5350994468 4282658051
-0.3280942440 -0.1677382141 0.5403091908 4287456027
-0.3291749656 -0.1676884294 0.5420889258 4289429817
-0.3302559257 -0.1676348150 0.5438690782 4291534126
-0.3313371241 -0.1675773710 0.5456496477 4292060470
-0.3319164515 -0.1672630459 0.5466036201 4292191796
-0.3329980075 -0.1671987921 0.5483847857 4291797038
-0.3330750763 -0.1666280478 0.5485116839 4291599141
-0.3331519067 -0.1660569012 0.5486382246 4291533348
-0.3332285285 -0.1654853672 0.5487644076 4291533347
-0.3338076174 -0.1651621759 0.5497180223 4291401761
-0.3338838816 -0.1645890027 0.5498436093 4291532834
-0.3344628513 -0.1642624289 0.5507971048 4291467041
-0.3345387578 -0.1636876017 0.5509220958 4291531808
-0.3351176381 -0.1633576602 0.5518754125 4291400222
-0.3356964886 -0.1630256027 0.5528286695 4291399457
-0.3362753391 -0.1626914144 0.5537819266 4291333664
-0.3363506496 -0.1621124297 0.5539059639 4291333667
-0.3369293809 -0.1617748588 0.5548589826 4291202081
-0.3375080824 -0.1614351869 0.5558120012 4291202332
-0.3375829160 -0.1608532965 0.5559352636 4291136539
-0.3381614685 -0.1605102271 0.5568880439 4291005210
-0.3382359445 -0.1599266976 0.5570106506 4290939417
-0.3383101821 -0.1593427807 0.5571328998 4290873624
-0.3383841813 -0.1587584913 0.5572547913 4290807831
-0.3384579420 -0.1581737995 0.5573762655 4290938390
-0.3385314345 -0.1575887352 0.5574973226 4290938390
-0.3386047184 -0.1570032984 0.5576179624 4291004185
-0.3391824961 -0.1566505879 0.5585694313 4290872599
-0.3392553926 -0.1560635120 0.5586894751 4290741013
-0.3398329914 -0.1557074189 0.5596407056 4290675220
-0.3399055302 -0.1551187187 0.5597601533 4290675220
-0.3399778008 -0.1545296311 0.5598791838 4290675220
-0.3400498331 -0.1539401710 0.5599977970 4290674707
-0.3401216269 -0.1533503383 0.5601159930 4290608914
-0.3401931524 -0.1527601480 0.5602338314 4290477841
-0.3402644694 -0.1521695703 0.5603512526 4290477841
-0.3403355181 -0.1515786201 0.5604682565 4290477328
-0.3409121037 -0.1512116492 0.5614178181 4290345742
-0.3409827650 -0.1506190896 0.5615341663 4290345488
-0.3410531878 -0.1500261575 0.5616501570 4290279695
-0.3416294754 -0.1496545672 0.5625991821 4290148622
-0.3416994810 -0.1490600258 0.5627144575 4290148622
-0.3417692482 -0.1484651119 0.5628293753 4290148110
-0.3418387771 -0.1478698403 0.5629438162 4290082317
-0.3424145579 -0.1474923939 0.5638920665 4290147599
-0.3424836695 -0.1468955129 0.5640059114 4290016013
-0.3425525427 -0.1462982744 0.5641192794 4289950220
-0.3426211476 -0.1457006782 0.5642322898 4289884427
-0.3426895142 -0.1451027095 0.5643448234 4289819147
-0.3422505856 -0.1442906410 0.5636219978 4289753354
-0.3423183262 -0.1436928511 0.5637335777 4289818636
-0.3423857987 -0.1430947036 0.5638447404 4289752843
-0.3424530625 -0.1424962133 0.5639554262 4289687050
-0.3425200284 -0.1418973655 0.5640657544 4289555464
-0.3425867558 -0.1412981749 0.5641756058 4289489417
-0.3426532149 -0.1406986266 0.5642850995 4289555210
-0.3427194357 -0.1400987208 0.5643941164 4289489417
-0.3427853882 -0.1394984871 0.5645027161 4289489417
-0.3428510725 -0.1388978958 0.5646109581 4289358345
-0.3429165184 -0.1382969618 0.5647187233 4289358345
-0.3429816961 -0.1376956850 0.5648260117 4289292552
-0.3425384164 -0.1368909627 0.5640960336 4289292552
-0.3426029682 -0.1362899095 0.5642023087 4289226505
-0.3426672816 -0.1356884986 0.5643082261 4289160712
-0.3432398140 -0.1352871805 0.5652511120 4289160712
-0.3433036804 -0.1346842051 0.5653563142 4289160712
-0.3433673084 -0.1340808868 0.5654610395 4289029126
-0.3429218829 -0.1332795024 0.5647274852 4289029126
-0.3429848850 -0.1326764226 0.5648312569 4289094408
-0.3430476189 -0.1320730001 0.5649345517 4289094408
-0.3431100845 -0.1314692646 0.5650374293 4289028615
-0.3431722820 -0.1308651865 0.5651398897 4288962822
-0.3427249789 -0.1300675124 0.5644032359 4288831749
-0.3427865505 -0.1294636875 0.5645046830 4288765956
-0.3428478837 -0.1288595200 0.5646056533 4288831751
-0.3423994184 -0.1280644685 0.5638670921 4288765958
-0.3424601257 -0.1274605691 0.5639671087 4288765958
-0.3420108557 -0.1266675740 0.5632272363 4288700165
-0.3420709372 -0.1260639280 0.5633261800 4288634372
-0.3416208625 -0.1252729893 0.5625849962 4288634372
-0.3411703408 -0.1244835332 0.5618430972 4288503045
-0.3412294388 -0.1238807440 0.5619404316 4288503045
-0.3407781422 -0.1230933666 0.5611971617 4288700165
-0.3408366144 -0.1224908531 0.5612934828 4288634372
-0.3408948481 -0.1218880340 0.5613893867 4288634631
-0.3409527838 -0.1212849021 0.5614848137 4288634631
-0.3404999673 -0.1205008030 0.5607391000 4288568838
-0.3405573070 -0.1198979691 0.5608335137 4288568838
-0.3406143486 -0.1192948222 0.5609274507 4288568838
-0.3406711519 -0.1186913773 0.5610209703 4288503045
-0.3407276571 -0.1180876344 0.5611140728 4288503045
-0.3402729928 -0.1173074469 0.5603653193 4288568838
-0.3403288722 -0.1167040095 0.5604573488 4288438022
-0.3403845131 -0.1161002740 0.5605489612 4288372229
-0.3399286866 -0.1153228208 0.5597983003 4288372229
-0.3399837017 -0.1147194058 0.5598888993 4288438022
-0.3395270705 -0.1139440984 0.5591369271 4288438022
-0.3390700519 -0.1131703109 0.5583842397 4288372229
-0.3391240537 -0.1125678346 0.5584732294 4287651851
-0.3386662304 -0.1117962003 0.5577192903 4287717644
-0.3387196362 -0.1111940667 0.5578072071 4286995238
-0.3382610083 -0.1104245856 0.5570519567 4286732066
-0.3383137882 -0.1098227948 0.5571388602 4285156392
-0.3383662999 -0.1092207208 0.5572253466 4283511567
-0.3379065394 -0.1084540412 0.5564682484 4282657557
-0.3384704888 -0.1080157384 0.5573969483 4283381280
-0.3374978900 -0.1070878282 0.5557952523 4281282351
-0.3370369375 -0.1063248813 0.5550361276 4280887593
-0.3360632658 -0.1054028124 0.5534327030 4286218105
-0.3152466714 -0.1643545628 0.5201029778 4281414188
-0.3173240423 -0.1648559421 0.5235303044 4280493599
-0.3224059343 -0.1669050902 0.5319145322 4280625185
-0.3209802806 -0.1655786484 0.5295624137 4281608487
-0.3240614831 -0.1665740758 0.5346459150 4281213729
-0.3261419237 -0.1670456082 0.5380782485 4282589188
-0.3272208571 -0.1669984162 0.5398583412 4283181325
-0.3283000588 -0.1669473946 0.5416388512 4285416711
-0.3288781643 -0.1666385084 0.5425926447 4287653673
-0.3299577534 -0.1665806770 0.5443737507 4289758519
-0.3305359781 -0.1662667096 0.5453277230 4290482242
-0.3311142325 -0.1659506261 0.5462817550 4291007795
-0.3311907053 -0.1653818488 0.5464078784 4291205174
-0.3317688406 -0.1650623828 0.5473617315 4291270694
-0.3323469758 -0.1647408009 0.5483155847 4291007522
-0.3324229717 -0.1641691178 0.5484409332 4291335709
-0.3335032761 -0.1640912890 0.5502232313 4291467295
-0.3330766559 -0.1632708311 0.5495194197 4291597600
-0.3336545825 -0.1629424989 0.5504728556 4291531807
-0.3342324793 -0.1626120508 0.5514262915 4291399972
-0.3348103762 -0.1622794867 0.5523797274 4291334179
-0.3353882730 -0.1619447917 0.5533331633 4291202342
-0.3359661400 -0.1616079807 0.5542865992 4291202342
-0.3365440369 -0.1612690389 0.5552399755 4291071003
-0.3361155391 -0.1604475826 0.5545330644 4291005210
-0.3366931677 -0.1601061374 0.5554860234 4291005210
-0.3372707665 -0.1597625613 0.5564389825 4290939417
-0.3373448849 -0.1591792703 0.5565612316 4290807833
-0.3374187350 -0.1585956067 0.5566830635 4290742040
-0.3374923468 -0.1580115557 0.5568045378 4290807320
-0.3375657201 -0.1574271321 0.5569255948 4290675734
-0.3376388550 -0.1568423212 0.5570462346 4290938392
-0.3382157981 -0.1564903408 0.5579980612 4290872599
-0.3387927115 -0.1561362445 0.5589498878 4290741013
-0.3388653100 -0.1555485427 0.5590696931 4290609427
-0.3389376998 -0.1549604684 0.5591891408 4290609173
-0.3385053575 -0.1541423053 0.5584758520 4290674966
-0.3395863175 -0.1540120393 0.5602592230 4290608660
-0.3396580815 -0.1534219682 0.5603775978 4290542867
-0.3397296071 -0.1528315246 0.5604956150 4290477841
-0.3392959535 -0.1520144790 0.5597801805 4290412048
-0.3398718834 -0.1516495049 0.5607303381 4290411281
-0.3399426639 -0.1510579437 0.5608471036 4290345488
-0.3400131762 -0.1504660100 0.5609634519 4290279695
-0.3405887783 -0.1500964016 0.5619131327 4290213902
-0.3406589031 -0.1495028585 0.5620288253 4290017037
-0.3407287896 -0.1489089429 0.5621441007 4290017037
-0.3407984376 -0.1483146697 0.5622590184 4290016524
-0.3413735628 -0.1479391903 0.5632078648 4289950731
-0.3414427936 -0.1473433077 0.5633220673 4290016013
-0.3415117860 -0.1467470676 0.5634359121 4290016013
-0.3415805101 -0.1461504549 0.5635492802 4289950220
-0.3416489959 -0.1455534846 0.5636622906 4289884427
-0.3417172134 -0.1449561566 0.5637748241 4289753100
-0.3417851925 -0.1443584710 0.5638870001 4289687307
-0.3418529034 -0.1437604278 0.5639986992 4289752589
-0.3419203758 -0.1431620270 0.5641099811 4289686796
-0.3419875801 -0.1425632834 0.5642209053 4289686796
-0.3420545161 -0.1419641823 0.5643313527 4289555210
-0.3421212137 -0.1413647234 0.5644413829 4289489417
-0.3421876729 -0.1407649219 0.5645509958 4289489417
-0.3422538638 -0.1401647776 0.5646601915 4289555211
-0.3423197865 -0.1395642757 0.5647689700 4289423625
-0.3423854411 -0.1389634311 0.5648773313 4289357832
-0.3419435322 -0.1381572485 0.5641481876 4289423625
-0.3420085907 -0.1375566125 0.5642555356 4289357834
-0.3420733809 -0.1369556189 0.5643624663 4289292041
-0.3421379030 -0.1363542974 0.5644689202 4289292041
-0.3422021866 -0.1357526332 0.5645749569 4289226248
-0.3427740037 -0.1353511512 0.5655183792 4289160455
-0.3423299491 -0.1345482916 0.5647857785 4289160455
-0.3423934579 -0.1339456141 0.5648905039 4289029128
-0.3424566984 -0.1333425939 0.5649948120 4289029128
-0.3420114815 -0.1325423121 0.5642603040 4289029128
-0.3420740962 -0.1319395304 0.5643635988 4288963335
-0.3421364427 -0.1313364059 0.5644664764 4288963335
-0.3421985209 -0.1307329684 0.5645689368 4288897542
-0.3417517841 -0.1299358457 0.5638318658 4288765958
-0.3418132663 -0.1293326467 0.5639333129 4288700165
-0.3418744504 -0.1287291199 0.5640342832 4288700165
-0.3419353962 -0.1281252652 0.5641348362 4288700165
-0.3419960737 -0.1275210977 0.5642349124 4288700165
-0.3415474892 -0.1267277449 0.5634948015 4288700165
-0.3416075408 -0.1261238307 0.5635938644 4288699911
-0.3411581218 -0.1253325492 0.5628524423 4288634118
-0.3407082856 -0.1245427355 0.5621103048 4288503045
-0.3407673538 -0.1239396781 0.5622077584 4288503045
-0.3403167129 -0.1231519505 0.5614642501 4288699911
-0.3403751850 -0.1225491688 0.5615606904 4288634118
-0.3399237394 -0.1217635274 0.5608159304 4288634118
-0.3399815857 -0.1211610362 0.5609113574 4288634118
-0.3400391340 -0.1205582321 0.5610063076 4288502532
-0.3400964439 -0.1199551225 0.5611008406 4288568325
-0.3401534855 -0.1193517148 0.5611949563 4288634118
-0.3402102590 -0.1187480018 0.5612885952 4288634118
-0.3402667344 -0.1181439832 0.5613818169 4288568838
-0.3398127556 -0.1173634455 0.5606327653 4288634631
-0.3393583000 -0.1165844202 0.5598830581 4288700424
-0.3394138217 -0.1159813255 0.5599746108 4288634631
-0.3394690752 -0.1153779328 0.5600658059 4288700425
-0.3390134871 -0.1146016493 0.5593141317 4288766218
-0.3385574520 -0.1138268933 0.5585618019 4288832011
-0.3386117518 -0.1132244393 0.5586513281 4288766218
-0.3381549418 -0.1124518290 0.5578976870 4287258898
-0.3382085860 -0.1118497029 0.5579861999 4286600968
-0.3377510011 -0.1110792533 0.5572312474 4284564766
-0.3372929692 -0.1103103310 0.5564755797 4283643664
-0.3378567696 -0.1098754033 0.5574057698 4282002467
-0.3379092515 -0.1092730612 0.5574923754 4281805088
-0.3374501765 -0.1085060313 0.5567349792 4281869860
-0.3369906843 -0.1077405438 0.5559768677 4281540895
-0.3365307450 -0.1069766134 0.5552180409 4280032543
-0.3355588615 -0.1060525626 0.5536146164 4281611575
-0.3330515921 -0.1046496332 0.5494780540 4287007620
-0.3143136501 -0.1641689688 0.5195156336 4282137658
-0.3189632893 -0.1654259861 0.5272008181 4280953127
-0.3205392957 -0.1656547189 0.5298057199 4280689953
-0.3221157789 -0.1658779085 0.5324114561 4280953125
-0.3231924772 -0.1658388376 0.5341910720 4281084196
-0.3242694438 -0.1657959521 0.5359711051 4280886817
-0.3253466487 -0.1657492369 0.5377515554 4282001685
-0.3264240921 -0.1656986773 0.5395324230 4281606927
-0.3275017738 -0.1656443030 0.5413137078 4282459648
-0.3280788362 -0.1653336734 0.5422675014 4283972878
-0.3286558986 -0.1650209129 0.5432212949 4286930710
-0.3292329609 -0.1647060513 0.5441751480 4288707121
-0.3298100531 -0.1643890738 0.5451289415 4290284336
-0.3303871155 -0.1640699655 0.5460827947 4291073852
-0.3309642076 -0.1637487411 0.5470365882 4291401524
-0.3315412700 -0.1634254158 0.5479904413 4291533110
-0.3316166699 -0.1628535688 0.5481150150 4291663658
-0.3321936429 -0.1625268608 0.5490686893 4291400486
-0.3327705860 -0.1621980220 0.5500223041 4291334947
-0.3333475292 -0.1618670672 0.5509759188 4291334947
-0.3339244723 -0.1615339816 0.5519295335 4291203620
-0.3345014155 -0.1611987799 0.5528831482 4291203620
-0.3350783587 -0.1608614624 0.5538367033 4291595807
-0.3351527750 -0.1602817029 0.5539597273 4291530014
-0.3357295692 -0.1599409878 0.5549131036 4291267871
-0.3358036578 -0.1593596041 0.5550355315 4291267871
-0.3363803029 -0.1590155065 0.5559886098 4291136800
-0.3364540040 -0.1584324837 0.5561104417 4291136800
-0.3370305002 -0.1580850035 0.5570633411 4291070752
-0.3371038437 -0.1575003415 0.5571845770 4290873373
-0.3371769488 -0.1569152921 0.5573053956 4290938392
-0.3372498155 -0.1563298553 0.5574257970 4291004185
-0.3378258944 -0.1559764892 0.5583779812 4291134743
-0.3378983736 -0.1553894281 0.5584977865 4291003157
-0.3384743035 -0.1550326943 0.5594497323 4290937366
-0.3380426168 -0.1542141736 0.5587362051 4290937366
-0.3381143808 -0.1536259800 0.5588548183 4290937625
-0.3386898935 -0.1532654911 0.5598060489 4290937625
-0.3387612700 -0.1526756734 0.5599240661 4290674453
-0.3388324082 -0.1520854831 0.5600416064 4290674453
-0.3389032781 -0.1514949203 0.5601587892 4290608661
-0.3394783437 -0.1511285454 0.5611092448 4290608661
-0.3395488262 -0.1505363733 0.5612257719 4290542868
-0.3396191001 -0.1499438286 0.5613418818 4290477075
-0.3401938379 -0.1495728344 0.5622918606 4290542355
-0.3402636647 -0.1489786655 0.5624073148 4290476562
-0.3403332829 -0.1483841389 0.5625223517 4290476048
-0.3404026330 -0.1477892399 0.5626369715 4290476048
-0.3409768939 -0.1474123746 0.5635861754 4290475794
-0.3410458565 -0.1468158811 0.5637001395 4290344208
-0.3411145508 -0.1462190151 0.5638136864 4290147860
-0.3411830068 -0.1456217915 0.5639268160 4290082067
-0.3412511945 -0.1450242102 0.5640395284 4289950739
-0.3413191438 -0.1444262713 0.5641518235 4289950739
-0.3413868248 -0.1438279748 0.5642637014 4290081557
-0.3414542675 -0.1432293355 0.5643751621 4289949971
-0.3415214419 -0.1426303238 0.5644862056 4289884178
-0.3415883780 -0.1420309693 0.5645968318 4289818385
-0.3416550457 -0.1414312571 0.5647070408 4289818385
-0.3417214453 -0.1408312023 0.5648168325 4289818385
-0.3417876065 -0.1402307898 0.5649261475 4289752338
-0.3418534994 -0.1396300346 0.5650350451 4289620752
-0.3419191539 -0.1390289366 0.5651435852 4289423886
-0.3414778709 -0.1382223964 0.5644142032 4289423886
-0.3415428996 -0.1376215070 0.5645217299 4289423884
-0.3416076899 -0.1370202601 0.5646287799 4289292298
-0.3416721821 -0.1364186704 0.5647354126 4289292813
-0.3417364359 -0.1358167380 0.5648415685 4289292813
-0.3412933052 -0.1350138634 0.5641091466 4289161227
-0.3413569331 -0.1344121546 0.5642143488 4289358606
-0.3414203227 -0.1338101029 0.5643190742 4289161490
-0.3419908285 -0.1334056556 0.5652620792 4289095697
-0.3415462673 -0.1326050162 0.5645272732 4288963343
-0.3416088820 -0.1320019662 0.5646307468 4289094929
-0.3416711986 -0.1313985884 0.5647337437 4289292049
-0.3412254751 -0.1306005418 0.5639970303 4289094670
-0.3412871957 -0.1299974024 0.5640990138 4289094923
-0.3413486481 -0.1293939501 0.5642005801 4289029130
-0.3414098024 -0.1287901551 0.5643017292 4288963848
-0.3414707184 -0.1281860471 0.5644024014 4288963848
-0.3415313959 -0.1275816113 0.5645026565 4288963083
-0.3410834372 -0.1267879009 0.5637623072 4288963083
-0.3406350613 -0.1259956658 0.5630211830 4288963084
-0.3406947553 -0.1253920794 0.5631198287 4288963084
-0.3402455747 -0.1246019155 0.5623773932 4288897290
-0.3403046131 -0.1239985898 0.5624749660 4288765704
-0.3398546576 -0.1232105121 0.5617312193 4288701705
-0.3399130702 -0.1226074621 0.5618278384 4288701705
-0.3394623101 -0.1218214631 0.5610827804 4288635912
-0.3395201266 -0.1212187037 0.5611783266 4288833291
-0.3395776749 -0.1206156388 0.5612734556 4288963594
-0.3391257524 -0.1198323295 0.5605264902 4288832008
-0.3391826749 -0.1192295551 0.5606205463 4288897803
-0.3392393291 -0.1186264828 0.5607142448 4288634631
-0.3392957151 -0.1180230975 0.5608074069 4288832529
-0.3388423026 -0.1172431186 0.5600579977 4288832529
-0.3388980627 -0.1166400462 0.5601501465 4288965406
-0.3384438455 -0.1158621833 0.5593994260 4288899613
-0.3384990096 -0.1152594313 0.5594905615 4288373529
-0.3380440176 -0.1144837067 0.5587385297 4288176150
-0.3375885785 -0.1137095019 0.5579857826 4287518220
-0.3376427591 -0.1131076887 0.5580753088 4286597120
-0.3371865153 -0.1123356372 0.5573212504 4284235543
-0.3367298841 -0.1115651131 0.5565664768 4283248648
-0.3367830813 -0.1109642535 0.5566543937 4282066703
-0.3363256454 -0.1101958975 0.5558983088 4281737738
-0.3363782167 -0.1095953807 0.5559852123 4280950553
-0.3369410336 -0.1091599837 0.5569154620 4281147932
-0.3364825547 -0.1083935127 0.5561576486 4280755745
-0.3365343213 -0.1077921614 0.5562431812 4280229401
-0.3360750377 -0.1070278734 0.5554841161 4279703568
-0.3351045251 -0.1061033979 0.5538799763 4282927425
-0.3341334164 -0.1051823050 0.5522748828 4287073414
-0.3143039644 -0.1650440842 0.5204550624 4282466366
-0.3153774738 -0.1650275588 0.5222326517 4282137401
-0.3184477687 -0.1660482734 0.5273167491 4281808436
-0.3175252676 -0.1649830639 0.5257892013 4281413678
-0.3176008165 -0.1644379944 0.5259143114 4281018918
-0.3196741343 -0.1649232954 0.5293474793 4280689953
-0.3207489252 -0.1648876816 0.5311272740 4280623645
-0.3218240142 -0.1648482531 0.5329074860 4280623645
-0.3223994672 -0.1645498723 0.5338603854 4281149979
-0.3234749436 -0.1645036340 0.5356412530 4281347358
-0.3240505457 -0.1642001718 0.5365943909 4281412383
-0.3246261775 -0.1638945937 0.5375475883 4281017625
-0.3257021308 -0.1638385803 0.5393292308 4280818700
-0.3252770603 -0.1630262882 0.5386253595 4280818700
-0.3268536627 -0.1632151306 0.5412361026 4282591755
-0.3279301226 -0.1631493270 0.5430185199 4283907615
-0.3275044560 -0.1623350084 0.5423136950 4286798621
-0.3285810053 -0.1622640938 0.5440964103 4288114481
-0.3301587999 -0.1624358296 0.5467090607 4290020132
-0.3297325969 -0.1616194844 0.5460032821 4290612269
-0.3308095932 -0.1615387499 0.5477866530 4291137825
-0.3313854933 -0.1612102836 0.5487402678 4291269411
-0.3319613636 -0.1608796865 0.5496938825 4291269665
-0.3325372338 -0.1605469584 0.5506474972 4291138079
-0.3331131041 -0.1602121145 0.5516010523 4291463459
-0.3336889744 -0.1598751545 0.5525546074 4291463459
-0.3337629139 -0.1592965126 0.5526770949 4291332896
-0.3343386352 -0.1589561701 0.5536304116 4291267103
-0.3349143267 -0.1586136967 0.5545837283 4291071003
-0.3349877894 -0.1580321640 0.5547053218 4291005210
-0.3355633616 -0.1576863080 0.5556584001 4290873624
-0.3356364369 -0.1571031511 0.5557794571 4290742038
-0.3357093036 -0.1565196067 0.5559000969 4290939421
-0.3362845778 -0.1561691165 0.5568526983 4290939421
-0.3358542621 -0.1553513706 0.5561401248 4290938139
-0.3364292979 -0.1549983770 0.5570923090 4290740760
-0.3365012705 -0.1544124484 0.5572115183 4290806042
-0.3365730345 -0.1538261473 0.5573303699 4290871835
-0.3366445601 -0.1532394588 0.5574487448 4290806042
-0.3372191191 -0.1528805792 0.5584002137 4290806042
-0.3377936780 -0.1525195837 0.5593516231 4290347029
-0.3378646672 -0.1519300193 0.5594691634 4290281236
-0.3379354179 -0.1513400972 0.5595862865 4290281236
-0.3385096490 -0.1509744674 0.5605371594 4290215443
-0.3385800123 -0.1503829211 0.5606536865 4290149139
-0.3386501074 -0.1497910023 0.5607697964 4290083346
-0.3392240405 -0.1494207382 0.5617201328 4290279957
-0.3392937481 -0.1488272101 0.5618355870 4290214164
-0.3393632174 -0.1482333243 0.5619506240 4290147860
-0.3394324481 -0.1476390660 0.5620652437 4290213653
-0.3400058746 -0.1472629309 0.5630147457 4290278164
-0.3400746882 -0.1466670632 0.5631287098 4290212371
-0.3401432633 -0.1460708380 0.5632422566 4290146580
-0.3402116001 -0.1454742402 0.5633553863 4290080787
-0.3402796686 -0.1448772997 0.5634680986 4290080276
-0.3403474689 -0.1442799866 0.5635803938 4290080276
-0.3404150307 -0.1436823308 0.5636922717 4289949203
-0.3404823244 -0.1430843025 0.5638037324 4289883410
-0.3405493796 -0.1424859315 0.5639147758 4289883408
-0.3406161964 -0.1418872178 0.5640254021 4289817615
-0.3406827152 -0.1412881315 0.5641355515 4289817615
-0.3407490253 -0.1406887025 0.5642453432 4289817615
-0.3408150375 -0.1400889307 0.5643546581 4289751824
-0.3408808112 -0.1394888163 0.5644636154 4289620238
-0.3409463465 -0.1388883442 0.5645720959 4289357582
-0.3410115838 -0.1382875293 0.5646801591 4289357582
-0.3405705392 -0.1374820769 0.5639498234 4289357580
-0.3406351805 -0.1368814707 0.5640568733 4289291787
-0.3406995833 -0.1362805218 0.5641634464 4289291789
-0.3407636881 -0.1356792301 0.5642696619 4289291789
-0.3408275843 -0.1350775957 0.5643754005 4289094410
-0.3408911824 -0.1344756186 0.5644807220 4289094410
-0.3404479027 -0.1336743981 0.5637467504 4288700161
-0.3405109048 -0.1330726445 0.5638510585 4288963333
-0.3405736387 -0.1324705780 0.5639548898 4289094923
-0.3406361043 -0.1318681538 0.5640583634 4289029130
-0.3406983018 -0.1312654167 0.5641613603 4288897804
-0.3407602608 -0.1306623518 0.5642639399 4288766218
-0.3403147459 -0.1298654079 0.5635262728 4288504073
-0.3403760791 -0.1292625815 0.5636277795 4288438280
-0.3404371440 -0.1286594272 0.5637289286 4288701707
-0.3404979408 -0.1280559450 0.5638296008 4288635914
-0.3405584991 -0.1274521500 0.5639298558 4288766217
-0.3401111364 -0.1266589910 0.5631890893 4288766217
-0.3401710391 -0.1260554492 0.5632882714 4288831240
-0.3402307034 -0.1254515797 0.5633870363 4288765447
-0.3397821784 -0.1246610731 0.5626443624 4288830471
-0.3398412168 -0.1240574792 0.5627421141 4288830471
-0.3388838470 -0.1230845079 0.5611568093 4288700672
-0.3389421701 -0.1224820986 0.5612533689 4288832258
-0.3390002251 -0.1218793839 0.5613495111 4288963333
-0.3385496736 -0.1210945249 0.5606034398 4288897540
-0.3386071026 -0.1204920933 0.5606985688 4288962054
-0.3381557763 -0.1197093427 0.5599511862 4288830468
-0.3382125795 -0.1191072091 0.5600453019 4288633869
-0.3382691443 -0.1185047701 0.5601389408 4288370697
-0.3383254111 -0.1179020256 0.5602321029 4287912221
-0.3378725946 -0.1171225980 0.5594822764 4287846428
-0.3379282355 -0.1165201589 0.5595744252 4286469682
-0.3374746144 -0.1157428548 0.5588232875 4286469682
-0.3370205760 -0.1149670705 0.5580714345 4285420613
-0.3370752633 -0.1143655702 0.5581619740 4283775788
-0.3366204202 -0.1135919243 0.5574088097 4282594351
-0.3361651301 -0.1128198132 0.5566549301 4283647039
-0.3357094228 -0.1120492294 0.5559002757 4283055151
-0.3352532983 -0.1112801731 0.5551449656 4281739291
-0.3353063166 -0.1106808707 0.5552327633 4280753174
-0.3353590369 -0.1100812778 0.5553200841 4280424209
-0.3354115188 -0.1094814092 0.5554069877 4280029972
-0.3349539042 -0.1087157801 0.5546492338 4280293144
-0.3350057602 -0.1081162617 0.5547350645 4280426013
-0.3350573480 -0.1075164601 0.5548204780 4280162841
-0.3345986009 -0.1067536548 0.5540608764 4279703828
-0.3336292803 -0.1058305800 0.5524557829 4283519822
-0.3326593935 -0.1049108803 0.5508497357 4287073675
-0.3143676817 -0.1653817147 0.5215197206 4282729284
-0.3124499619 -0.1637969315 0.5183383226 4282334526
-0.3150170445 -0.1645620316 0.5225969553 4281939768
-0.3160894215 -0.1645396203 0.5243759751 4281676596
-0.3176607490 -0.1647720635 0.5269827247 4281412908
-0.3182349801 -0.1644833386 0.5279353261 4280886564
-0.3193081319 -0.1644494534 0.5297156572 4280557597
-0.3198825121 -0.1641556621 0.5306685567 4280491804
-0.3204569221 -0.1638597548 0.5316214561 4280624160
-0.3210313320 -0.1635617465 0.5325743556 4280360988
-0.3176106513 -0.1612335294 0.5268996358 4280164121
-0.3216806948 -0.1627067477 0.5336515903 4280558879
-0.3222550154 -0.1624032557 0.5346044302 4280953376
-0.3228293657 -0.1620976627 0.5355572104 4280755997
-0.3234037161 -0.1617899537 0.5365100503 4280491281
-0.3244780600 -0.1617293358 0.5382922888 4280162316
-0.3250525296 -0.1614165306 0.5392453671 4280489477
-0.3261272311 -0.1613490880 0.5410282016 4280292098
-0.3272021413 -0.1612777859 0.5428113937 4281211392
-0.3277768493 -0.1609569043 0.5437648296 4282527245
-0.3283515871 -0.1606338918 0.5447182655 4284827152
-0.3294269443 -0.1605527699 0.5465022326 4286340391
-0.3300017715 -0.1602246612 0.5474558473 4288180524
-0.3305765688 -0.1598944366 0.5484094024 4289035833
-0.3311513662 -0.1595620811 0.5493630171 4290218299
-0.3317261636 -0.1592275947 0.5503165722 4290349885
-0.3323009610 -0.1588909924 0.5512701273 4290743858
-0.3323744237 -0.1583134681 0.5513919592 4290743858
-0.3329490721 -0.1579734981 0.5523452759 4291137317
-0.3335236907 -0.1576313823 0.5532985330 4291071524
-0.3335966766 -0.1570509821 0.5534195900 4291333150
-0.3336693943 -0.1564701945 0.5535402298 4291333150
-0.3342437446 -0.1561234444 0.5544930696 4291266591
-0.3338141441 -0.1553074867 0.5537803769 4291200798
-0.3343882263 -0.1549582481 0.5547327995 4290806299
-0.3349623084 -0.1546068639 0.5556851625 4290477334
-0.3350340426 -0.1540224403 0.5558041334 4290280978
-0.3351055682 -0.1534376442 0.5559228063 4290346771
-0.3356793523 -0.1530816406 0.5568746328 4290478609
-0.3357504606 -0.1524952203 0.5569926500 4290675988
-0.3363240957 -0.1521358341 0.5579442382 4290674204
-0.3363948464 -0.1515477896 0.5580615997 4290542618
-0.3369682729 -0.1511850357 0.5590129495 4290542616
-0.3370386362 -0.1505953670 0.5591296554 4290542616
-0.3371087611 -0.1500053406 0.5592460036 4290279955
-0.3376818895 -0.1496379375 0.5601967573 4290214162
-0.3382549584 -0.1492684186 0.5611475110 4290083346
-0.3383245468 -0.1486755311 0.5612629056 4289951760
-0.3383938968 -0.1480822563 0.5613779426 4289820176
-0.3384629786 -0.1474886388 0.5614925623 4289754383
-0.3385318220 -0.1468946487 0.5616067648 4289819408
-0.3391042650 -0.1465180069 0.5625564456 4289687822
-0.3391727209 -0.1459224075 0.5626699924 4289753103
-0.3392409086 -0.1453264505 0.5627831221 4289687310
-0.3393088281 -0.1447301358 0.5628958344 4289752592
-0.3393765390 -0.1441334635 0.5630080700 4289752592
-0.3394439518 -0.1435364485 0.5631199479 4289621265
-0.3395111263 -0.1429390609 0.5632314086 4289555472
-0.3395780623 -0.1423413157 0.5633424520 4289424399
-0.3396447301 -0.1417432278 0.5634530187 4289292813
-0.3397111297 -0.1411447823 0.5635632277 4289292813
-0.3397772908 -0.1405459940 0.5636729598 4289292813
-0.3398432136 -0.1399468482 0.5637822747 4289292559
-0.3399088681 -0.1393473595 0.5638911724 4289226766
-0.3399742544 -0.1387475282 0.5639996529 4289029387
-0.3400393724 -0.1381473392 0.5641077161 4289029387
-0.3395988941 -0.1373424381 0.5633770227 4289029387
-0.3396634161 -0.1367424577 0.5634840131 4289095180
-0.3397276700 -0.1361421496 0.5635906458 4289095182
-0.3397916853 -0.1355414838 0.5636968017 4289029389
-0.3398554325 -0.1349404901 0.5638025999 4288964366
-0.3399189115 -0.1343391538 0.5639079213 4288832780
-0.3399821520 -0.1337374896 0.5640127659 4288702222
-0.3395390809 -0.1329373568 0.5632777810 4288504843
-0.3396016955 -0.1323359162 0.5633816719 4288504073
-0.3396640420 -0.1317341328 0.5634850860 4288438280
-0.3392198384 -0.1309366077 0.5627481937 4288700171
-0.3392815888 -0.1303350627 0.5628505945 4288700171
-0.3393430412 -0.1297332048 0.5629525781 4288634119
-0.3394042552 -0.1291310042 0.5630540848 4288634119
-0.3394652009 -0.1285284907 0.5631552339 4288765447
-0.3395259082 -0.1279256493 0.5632559061 4288633861
-0.3395863175 -0.1273224801 0.5633561015 4288568579
-0.3391395211 -0.1265298724 0.5626149178 4288700165
-0.3391993344 -0.1259269565 0.5627141595 4288700175
-0.3392588794 -0.1253237426 0.5628129244 4288568589
-0.3393181562 -0.1247202009 0.5629112720 4288174354
-0.3388698697 -0.1239308193 0.5621675849 4288108561
-0.3384211361 -0.1231429353 0.5614231229 4287915313
-0.3379719555 -0.1223565415 0.5606780052 4287454762
-0.3380299211 -0.1217544600 0.5607741475 4287060778
-0.3375799656 -0.1209701523 0.5600276589 4286929192
-0.3376372755 -0.1203683615 0.5601227880 4286798897
-0.3371865153 -0.1195861623 0.5593749881 4287193655
-0.3372432292 -0.1189846620 0.5594691038 4287458377
-0.3372996747 -0.1183828637 0.5595626831 4288050514
-0.3368477821 -0.1176033765 0.5588130355 4288250731
-0.3369036019 -0.1170018837 0.5589056611 4288974454
-0.3364509344 -0.1162245274 0.5581546426 4288582276
-0.3359978199 -0.1154486835 0.5574029684 4288187518
-0.3355442584 -0.1146743670 0.5566505790 4286479737
-0.3355987668 -0.1140744090 0.5567409396 4284966498
-0.3351444304 -0.1133022383 0.5559872389 4283783514
-0.3346896470 -0.1125315875 0.5552328229 4283520342
-0.3342344463 -0.1117624715 0.5544776917 4281348922
-0.3337788284 -0.1109948978 0.5537217855 4280164648
-0.3333227634 -0.1102288514 0.5529652238 4279703068
-0.3333752453 -0.1096317247 0.5530523062 4279637275
-0.3334274590 -0.1090343222 0.5531389117 4279635988
-0.3329702616 -0.1082710847 0.5523804426 4279767574
-0.3325126767 -0.1075093895 0.5516213179 4280162328
-0.3325639069 -0.1069129780 0.5517063141 4280162328
-0.3321055174 -0.1061534733 0.5509458780 4280098075
-0.3316467106 -0.1053955257 0.5501847267 4283979862
-0.3306779563 -0.1044781506 0.5485776067 4286744458
-0.3114443719 -0.1641462594 0.5176238418 4282400832
-0.3120169044 -0.1638718545 0.5185754299 4282335039
-0.3130872548 -0.1638558507 0.5203543305 4282071354
-0.3151535988 -0.1643553227 0.5237886310 4281610803
-0.3162247241 -0.1643299609 0.5255688429 4281413678
-0.3162998557 -0.1637849361 0.5256937146 4281282092
-0.3168730140 -0.1634965837 0.5266463161 4281018150
-0.3169478774 -0.1629499197 0.5267707109 4280491806
-0.3145301640 -0.1611261070 0.5227524638 4280359191
-0.3170968890 -0.1618554294 0.5270183682 4280293398
-0.3176697791 -0.1615612358 0.5279705524 4280031255
-0.3147509992 -0.1594955623 0.5231194496 4280031255
-0.3183166683 -0.1607146114 0.5290456414 4279900439
-0.3188894689 -0.1604149491 0.5299977064 4279966232
-0.3199614584 -0.1603633612 0.5317793489 4280229401
-0.3210336864 -0.1603079289 0.5335613489 4280558366
-0.3216067553 -0.1600002050 0.5345138311 4280427804
-0.3226793408 -0.1599379480 0.5362964869 4280493597
-0.3237521350 -0.1598718613 0.5380795002 4280296734
-0.3253249228 -0.1600477546 0.5406934619 4280033562
-0.3248987794 -0.1592381448 0.5399851799 4280031247
-0.3259720504 -0.1591622233 0.5417689681 4279570696
-0.3270455301 -0.1590824574 0.5435531139 4280027136
-0.3276190460 -0.1587564498 0.5445063114 4279961344
-0.3281925619 -0.1584283113 0.5454595089 4281669120
-0.3287660778 -0.1580980569 0.5464127064 4282590213
-0.3293395936 -0.1577656865 0.5473659039 4284365061
-0.3304137290 -0.1576700807 0.5491510630 4285680921
-0.3304865658 -0.1570945680 0.5492721796 4287388688
-0.3310600519 -0.1567558199 0.5502252579 4288046618
-0.3311325312 -0.1561786830 0.5503457785 4288965907
-0.3312048018 -0.1556011438 0.5504658818 4289229079
-0.3317779899 -0.1552577764 0.5514185429 4289754393
-0.3323511779 -0.1549122781 0.5523711443 4290214944
-0.3329243362 -0.1545646489 0.5533237457 4290740775
-0.3329959512 -0.1539829820 0.5534427762 4290806568
-0.3330673575 -0.1534009576 0.5535614491 4290806048
-0.3331384957 -0.1528185457 0.5536797047 4290542876
-0.3337112367 -0.1524650455 0.5546315908 4290477077
-0.3337820172 -0.1518810093 0.5547492504 4290542870
-0.3343545794 -0.1515241265 0.5557008386 4290344729
-0.3344250023 -0.1509384811 0.5558178425 4290213143
-0.3349973857 -0.1505782157 0.5567691922 4290344212
-0.3350674212 -0.1499909461 0.5568856001 4290344212
-0.3356396258 -0.1496272981 0.5578366518 4290278415
-0.3362118304 -0.1492615342 0.5587876439 4290146829
-0.3367839754 -0.1488936245 0.5597385168 4289950218
-0.3368533254 -0.1483022571 0.5598537922 4289884425
-0.3369224370 -0.1477105021 0.5599686503 4289818636
-0.3369912803 -0.1471184045 0.5600830913 4289818636
-0.3375629485 -0.1467446238 0.5610331893 4289752590
-0.3376314044 -0.1461509168 0.5611469746 4289686797
-0.3376996219 -0.1455568373 0.5612603426 4289817363
-0.3377675712 -0.1449624002 0.5613732934 4289751570
-0.3378352821 -0.1443676054 0.5614858270 4289816852
-0.3379027247 -0.1437724531 0.5615979433 4289816852
-0.3379699290 -0.1431769431 0.5617095828 4289489418
-0.3380368948 -0.1425810903 0.5618208647 4289423625
-0.3381035924 -0.1419848800 0.5619317293 4289292039
-0.3381700218 -0.1413883120 0.5620421767 4289226246
-0.3382362127 -0.1407913864 0.5621521473 4289226246
-0.3383021355 -0.1401941180 0.5622617602 4289292039
-0.3383678198 -0.1395965070 0.5623708963 4289226248
-0.3384332359 -0.1389985383 0.5624796152 4289028869
-0.3384984136 -0.1384002268 0.5625879765 4288962822
-0.3385633230 -0.1378015727 0.5626958609 4289094408
-0.3386279941 -0.1372025758 0.5628032684 4288962822
-0.3381876349 -0.1363996565 0.5620713830 4288962822
-0.3387565315 -0.1360035539 0.5630168915 4288897031
-0.3388203979 -0.1354035288 0.5631231070 4288831238
-0.3388840258 -0.1348031610 0.5632288456 4288962824
-0.3389473855 -0.1342024654 0.5633341670 4288831238
-0.3390105069 -0.1336014271 0.5634390116 4288831749
-0.3385680020 -0.1328018457 0.5627036095 4288634370
-0.3381250799 -0.1320037246 0.5619674921 4288831238
-0.3381872177 -0.1314034909 0.5620707273 4288962824
-0.3382491171 -0.1308029145 0.5621736050 4288896528
-0.3383107185 -0.1302020103 0.5622760057 4288567563
-0.3378662765 -0.1294070631 0.5615373254 4288107276
-0.3379272819 -0.1288063973 0.5616387129 4288238862
-0.3379880190 -0.1282054186 0.5617396832 4287845132
-0.3385545611 -0.1277951449 0.5626812577 4287976718
-0.3386148810 -0.1271926165 0.5627815127 4287715086
-0.3381686807 -0.1264005452 0.5620399117 4287517707
-0.3382283449 -0.1257982701 0.5621390939 4286993431
-0.3382877707 -0.1251956969 0.5622378588 4287388189
-0.3378404379 -0.1244062707 0.5614943504 4287849526
-0.3378992379 -0.1238039583 0.5615921021 4288310077
-0.3369444013 -0.1228319108 0.5600051880 4287790193
-0.3364957273 -0.1220469698 0.5592594743 4288382330
-0.3365534842 -0.1214464307 0.5593554378 4288647566
-0.3361040354 -0.1206635907 0.5586084127 4288713359
-0.3361611366 -0.1200633422 0.5587033629 4288847267
-0.3362180293 -0.1194627881 0.5587978959 4289768369
-0.3357674181 -0.1186826453 0.5580489635 4289309623
-0.3358236551 -0.1180823892 0.5581424832 4288717486
-0.3353722692 -0.1173043698 0.5573922396 4287927971
-0.3354279101 -0.1167044267 0.5574846864 4286085767
-0.3349757195 -0.1159285307 0.5567331910 4283650396
-0.3345231116 -0.1151541546 0.5559809208 4281018676
-0.3340700567 -0.1143813059 0.5552279949 4279240977
-0.3336165845 -0.1136099771 0.5544742942 4279240977
-0.3336705565 -0.1130121946 0.5545639992 4280687393
-0.3332162797 -0.1122430190 0.5538089871 4280884772
-0.3322535753 -0.1113051847 0.5522089601 4279836964
-0.3317983747 -0.1105399877 0.5514523983 4279179034
-0.3313427567 -0.1097763330 0.5506951213 4279308820
-0.3313949704 -0.1091816798 0.5507819057 4279308820
-0.3309385478 -0.1084201932 0.5500233769 4279439116
-0.3304817379 -0.1076602563 0.5492641330 4279439116
-0.3300244808 -0.1069018766 0.5485041738 4279833616
-0.3295668066 -0.1061450392 0.5477434993 4279899409
-0.3291087151 -0.1053897589 0.5469821692 4280952873
-0.3286501765 -0.1046360359 0.5462200642 4284045144
-0.3276824057 -0.1037228182 0.5446116328 4286809739
-0.3136463463 -0.1644520164 0.5222475529 4281808695
-0.3147157729 -0.1644304991 0.5240282416 4281479730
-0.3142935336 -0.1636284590 0.5233252048 4281545264
-0.3149403930 -0.1627999246 0.5244022608 4281216299
-0.3150148392 -0.1622556150 0.5245262384 4280492576
-0.3126002252 -0.1604335904 0.5205056667 4280557074
-0.3146651983 -0.1609112471 0.5239440799 4280228109
-0.3147388995 -0.1603666544 0.5240667462 4279440660
-0.3148123622 -0.1598216891 0.5241891146 4279440660
-0.3154570162 -0.1589817405 0.5252624750 4279573022
-0.3160284162 -0.1586850584 0.5262139440 4279966489
-0.3170984089 -0.1586356908 0.5279955864 4279966489
-0.3181686401 -0.1585824788 0.5297775865 4280162833
-0.3202367425 -0.1590208113 0.5332211852 4280097040
-0.3193119764 -0.1579708606 0.5316813588 4280163092
-0.3208817542 -0.1581538171 0.5342951417 4280492057
-0.3219527900 -0.1580860913 0.5360785127 4280623908
-0.3225248158 -0.1577702910 0.5370309949 4280689701
-0.3235962093 -0.1576957256 0.5388149619 4280688933
-0.3241683543 -0.1573748142 0.5397675633 4280623140
-0.3247404695 -0.1570517868 0.5407202244 4280424722
-0.3258123100 -0.1569673866 0.5425049067 4280161550
-0.3263845146 -0.1566392481 0.5434577465 4279963912
-0.3264568150 -0.1560699791 0.5435780883 4279700740
-0.3270289004 -0.1557384729 0.5445306301 4279699969
-0.3276009858 -0.1554048359 0.5454832315 4279831555
-0.3281730413 -0.1550690830 0.5464357734 4280226054
-0.3287450969 -0.1547311991 0.5473882556 4280489226
-0.3293171227 -0.1543911994 0.5483407378 4281211918
-0.3298891485 -0.1540490687 0.5492932200 4281869848
-0.3304611444 -0.1537048072 0.5502456427 4283381018
-0.3305323124 -0.1531264186 0.5503641367 4284236327
-0.3311041594 -0.1527787894 0.5513163209 4285418008
-0.3311749697 -0.1521987766 0.5514342189 4285746973
-0.3312455118 -0.1516183913 0.5515516996 4286600465
-0.3318170905 -0.1512661278 0.5525034070 4286863637
-0.3323886096 -0.1509117484 0.5534549952 4287652121
-0.3324586451 -0.1503285021 0.5535716414 4287915293
-0.3330300152 -0.1499707401 0.5545230508 4288441370
-0.3330996931 -0.1493858695 0.5546390414 4288836128
-0.3336708844 -0.1490247250 0.5555900931 4289426970
-0.3342420459 -0.1486614645 0.5565411448 4289361177
-0.3348131478 -0.1482960582 0.5574920774 4289491470
-0.3348821700 -0.1477070898 0.5576069951 4289425677
-0.3349509239 -0.1471177489 0.5577214956 4289490439
-0.3355216980 -0.1467477232 0.5586718917 4289490439
-0.3355900645 -0.1461567730 0.5587857366 4289621514
-0.3356581926 -0.1455654651 0.5588991642 4289687307
-0.3357260525 -0.1449737996 0.5590121746 4289817868
-0.3362963796 -0.1445979178 0.5599617958 4289686282
-0.3363638520 -0.1440046430 0.5600741506 4289685770
-0.3364310563 -0.1434110105 0.5601860881 4289619977
-0.3364980221 -0.1428170353 0.5602975488 4289423625
-0.3365647495 -0.1422226876 0.5604086518 4289423625
-0.3366312087 -0.1416279972 0.5605193377 4289489418
-0.3366974294 -0.1410329640 0.5606296062 4289489418
-0.3362600207 -0.1402276456 0.5599012375 4289423884
-0.3363256156 -0.1396327913 0.5600104928 4289358091
-0.3363909721 -0.1390375942 0.5601193309 4289226505
-0.3364560902 -0.1384420544 0.5602276921 4289094919
-0.3365209401 -0.1378461570 0.5603356957 4289094921
-0.3370893896 -0.1374553889 0.5612822175 4289226507
-0.3371538222 -0.1368579268 0.5613895059 4289094921
-0.3367139399 -0.1360564381 0.5606570840 4289029128
-0.3367777765 -0.1354591697 0.5607633591 4288897544
-0.3373456001 -0.1350634694 0.5617088079 4288634372
-0.3374089897 -0.1344646364 0.5618144274 4288568579
-0.3374721408 -0.1338654757 0.5619195700 4288371200
-0.3375350535 -0.1332659721 0.5620242953 4287649546
-0.3370930254 -0.1324678212 0.5612882972 4287583753
-0.3366505802 -0.1316711456 0.5605515838 4287256601
-0.3367125094 -0.1310724318 0.5606546998 4286993429
-0.3367741704 -0.1304734051 0.5607573986 4286206760
-0.3368355930 -0.1298740357 0.5608596206 4286469932
-0.3363916278 -0.1290805340 0.5601204038 4286538057
-0.3364524245 -0.1284814030 0.5602216125 4287261780
-0.3365129530 -0.1278819591 0.5603224039 4287659626
-0.3370786011 -0.1274733096 0.5612642765 4288317556
-0.3361277878 -0.1264919043 0.5596810579 4288582527
-0.3366929889 -0.1260817051 0.5606221557 4288845699
-0.3367524743 -0.1254809797 0.5607212186 4289044110
-0.3368116915 -0.1248799339 0.5608198047 4289438868
-0.3363648355 -0.1240919679 0.5600757599 4289307292
-0.3359175324 -0.1233054921 0.5593309999 4288978327
-0.3354698122 -0.1225205138 0.5585854650 4288253829
-0.3350216150 -0.1217370331 0.5578392148 4287661692
-0.3350791633 -0.1211380363 0.5579350591 4286938742
-0.3346302211 -0.1203566566 0.5571874976 4286280812
-0.3341808021 -0.1195767745 0.5564392209 4285624430
-0.3342373967 -0.1189786717 0.5565333962 4285098086
-0.3337872028 -0.1182009056 0.5557838082 4282795592
-0.3338431716 -0.1176031008 0.5558770299 4280361251
-0.3328855336 -0.1166499034 0.5542824268 4279374356
-0.3329407871 -0.1160533205 0.5543744564 4279176977
-0.3324889541 -0.1152807102 0.5536221266 4278979083
-0.3320366740 -0.1145096198 0.5528690219 4279439634
-0.3315839767 -0.1137400568 0.5521152616 4279702292
-0.3311308622 -0.1129720211 0.5513607264 4279373327
-0.3306773007 -0.1122055203 0.5506055355 4279438607
-0.3302232921 -0.1114405468 0.5498495698 4279438607
-0.3297688663 -0.1106771156 0.5490929484 4279505942
-0.3288066089 -0.1097458526 0.5474907160 4279374356
-0.3283512592 -0.1089864150 0.5467324853 4279308302
-0.3278954625 -0.1082285121 0.5459735990 4279176716
-0.3274392784 -0.1074721664 0.5452139378 4279110921
-0.3269826472 -0.1067173630 0.5444536209 4279242507
-0.3265255988 -0.1059641093 0.5436925888 4279505681
-0.3255602121 -0.1050485373 0.5420851707 4279703060
-0.3251022398 -0.1042993143 0.5413226485 4280821289
-0.3246438503 -0.1035516486 0.5405593514 4282926665
-0.3241850436 -0.1028055549 0.5397953987 4286809225
-0.3101565540 -0.1634984016 0.5173936486 4281217071
-0.3127129376 -0.1642663926 0.5216581225 4281216556
-0.3117948771 -0.1632062346 0.5201265812 4281150763
-0.3133591413 -0.1634442508 0.5227360725 4281150763
