VERSION 0.7
FIELDS x y z rgba
SIZE 4 4 4 4
TYPE F F F U
COUNT 1 1 1 1
WIDTH 920
HEIGHT 1
VIEWPOINT 0.0 0.0 0.0 1.0 0.0 0.0 0.0
POINTS 920
DATA ascii
-0.3812250495 -0.1414723992 0.5574522614 4280756536
-0.3796372712 -0.1402663887 0.5551304817 4280822588
-0.3774959445 -0.1388619095 0.5519992709 4280691002
-0.3748007119 -0.1372615248 0.5480581522 4281283139
-0.3698925674 -0.1348630935 0.5408811569 4281612104
-0.3671944141 -0.1332827657 0.5369357467 4281546052
-0.3661543131 -0.1323103458 0.5354148149 4281348673
-0.3662199378 -0.1317390651 0.5355107784 4281217087
-0.3668386042 -0.1313656271 0.5364154577 4281282880
-0.3669038117 -0.1307928711 0.5365107656 4281348673
-0.3680757582 -0.1306126416 0.5382244587 4281217087
-0.3692478240 -0.1304286420 0.5399383307 4281348673
-0.3704200089 -0.1302408874 0.5416523814 4281546052
-0.3732537031 -0.1306307912 0.5457959771 4281545280
-0.3755342066 -0.1308187991 0.5491306782 4281545280
-0.3778151870 -0.1309995651 0.5524660945 4281743690
-0.3773262799 -0.1302170157 0.5517511964 4281941069
-0.3807161450 -0.1307683140 0.5567080379 4282072152
-0.3807812333 -0.1301720291 0.5568032861 4282993254
-0.3808460832 -0.1295754462 0.5568980575 4283453805
-0.3814650774 -0.1291662902 0.5578032136 4282598496
-0.3820840120 -0.1287550926 0.5587082505 4281809483
-0.3821482062 -0.1281558573 0.5588021278 4280822588
-0.3822121322 -0.1275563240 0.5588955879 4280822839
-0.3822757602 -0.1269564778 0.5589886308 4281151804
-0.3823391199 -0.1263563484 0.5590812564 4281283391
-0.3829571903 -0.1259384304 0.5599851012 4281480770
-0.3830200732 -0.1253368258 0.5600770712 4281875525
-0.3852746189 -0.1141815558 0.5633738041 4288652455
-0.3847751617 -0.1134083942 0.5626434088 4287861910
-0.3837748170 -0.1118665338 0.5611807108 4284836204
-0.3827168941 -0.1109363660 0.5596337318 4284178274
-0.3816583753 -0.1100094616 0.5580858588 4284902255
-0.3811564445 -0.1092455313 0.5573519468 4286349701
-0.3812114298 -0.1086419374 0.5574322939 4286612615
-0.3812661171 -0.1080380902 0.5575122833 4286217857
-0.3801304400 -0.1648022979 0.5567558408 4281745497
-0.3802107573 -0.1642183959 0.5568735003 4281810774
-0.3797428906 -0.1633983403 0.5561882257 4281744981
-0.3776302636 -0.1618747860 0.5530939698 4281744981
-0.3788056672 -0.1617621928 0.5548155308 4281744981
-0.3777880073 -0.1607128382 0.5533250570 4281745749
-0.3773180842 -0.1598989218 0.5526367426 4281614163
-0.3762991428 -0.1588547528 0.5511443615 4281614163
-0.3769254684 -0.1585057676 0.5520616770 4281679956
-0.3775517642 -0.1581547409 0.5529789925 4281811542
-0.3737869859 -0.1559694111 0.5474649072 4281745749
-0.3738633096 -0.1553928703 0.5475767255 4281745749
-0.3744885027 -0.1550433189 0.5484924316 4281943128
-0.3746401370 -0.1538867652 0.5487145185 4281943128
-0.3747155964 -0.1533079743 0.5488250256 4281679956
-0.3753403127 -0.1529527754 0.5497400165 4281877335
-0.3760399222 -0.1520139873 0.5507646799 4281614163
-0.3766644299 -0.1516534835 0.5516793728 4281746262
-0.3772889078 -0.1512909383 0.5525940061 4281417297
-0.3784634173 -0.1511460394 0.5543142557 4281547087
-0.3785377145 -0.1505597085 0.5544230938 4281415501
-0.3813633025 -0.1510629505 0.5585615635 4281283656
-0.3814376295 -0.1504716724 0.5586704016 4281415242
-0.3831632435 -0.1505288631 0.5611978173 4281415242
-0.3843386173 -0.1503651738 0.5629193187 4281152070
-0.3849633932 -0.1499831527 0.5638344288 4281218376
-0.3866898119 -0.1500265002 0.5663629770 4281481548
-0.3884165883 -0.1500643790 0.5688921213 4281481548
-0.3884905875 -0.1494607627 0.5690004826 4281349962
-0.3896666169 -0.1492790878 0.5707229376 4281612621
-0.3886377513 -0.1482525021 0.5692160130 4281678414
-0.3881595731 -0.1474384218 0.5685156584 4281415241
-0.3871294260 -0.1464171559 0.5670068860 4281152069
-0.3860986233 -0.1453989893 0.5654971004 4280888897
-0.3856188059 -0.1445907652 0.5647943616 4280757311
-0.3823796213 -0.1427539587 0.5600501299 4280757311
-0.3802427053 -0.1413373947 0.5569202900 4280625725
-0.3792086840 -0.1403359473 0.5554057956 4280691518
-0.3759656549 -0.1385239661 0.5506559014 4280625725
-0.3743776977 -0.1373296529 0.5483301282 4281283655
-0.3689228892 -0.1347283572 0.5403407812 4281612620
-0.3667801321 -0.1333489567 0.5372023582 4281612104
-0.3673986793 -0.1329759657 0.5381083488 4281480518
-0.3658068776 -0.1318045408 0.5357769132 4281414725
-0.3658722341 -0.1312327087 0.5358726382 4281348932
-0.3664900959 -0.1308579296 0.5367776155 4281414725
-0.3671079278 -0.1304811239 0.5376824737 4281348932
-0.3694494665 -0.1301109493 0.5411120057 4281612102
-0.3722799420 -0.1305019408 0.5452576280 4281546052
-0.3745578229 -0.1306909323 0.5485939384 4281611845
-0.3768362105 -0.1308726668 0.5519309640 4281547338
-0.3785616457 -0.1308558583 0.5544581413 4282139475
-0.3802873790 -0.1308335364 0.5569857359 4283520881
-0.3803524971 -0.1302369833 0.5570810437 4284968327
-0.3804173172 -0.1296401173 0.5571759939 4285823382
-0.3810356855 -0.1292307824 0.5580817461 4284573315
-0.3811000586 -0.1286324263 0.5581759810 4282731101
-0.3817181587 -0.1282198876 0.5590813160 4280888897
-0.3817820847 -0.1276200712 0.5591748953 4280691254
-0.3818457127 -0.1270199418 0.5592681170 4281020219
-0.3819090426 -0.1264195293 0.5593608618 4281151551
-0.3819721043 -0.1258188188 0.5594532490 4281348930
-0.3831741512 -0.1137437820 0.5612137914 4288324007
-0.3832312524 -0.1131370887 0.5612974167 4287927446
-0.3822318316 -0.1115980148 0.5598336458 4285098606
-0.3822879195 -0.1109922826 0.5599157810 4284440676
-0.3806740642 -0.1099042445 0.5575520992 4284310634
-0.3796160817 -0.1089810282 0.5560024977 4285889666
-0.3813409805 -0.1088556573 0.5585288405 4286153353
-0.3813957572 -0.1082506329 0.5586090684 4285627009
-0.3803364933 -0.1073310524 0.5570576191 4283060051
-0.3780559301 -0.1641699672 0.5546196103 4281680987
-0.3781358898 -0.1635883451 0.5547369719 4281811544
-0.3782156110 -0.1630063504 0.5548539162 4281745751
-0.3777476251 -0.1621889323 0.5541673899 4281745751
-0.3772791624 -0.1613728404 0.5534800887 4281745751
-0.3769667149 -0.1593958586 0.5530217290 4281483606
-0.3760259151 -0.1577722281 0.5516415834 4281746778
-0.3744583130 -0.1565041244 0.5493417978 4281615192
-0.3739864826 -0.1556973457 0.5486496687 4281549399
-0.3740626872 -0.1551193595 0.5487614274 4281615192
-0.3746871948 -0.1547676027 0.5496776104 4281680985
-0.3747630119 -0.1541880518 0.5497888327 4281878364
-0.3742897213 -0.1533832550 0.5490944982 4281680985
-0.3749138117 -0.1530279070 0.5500100851 4281746778
-0.3749888539 -0.1524473131 0.5501201749 4281549399
-0.3756127656 -0.1520887166 0.5510354638 4281680985
-0.3762366474 -0.1517280787 0.5519506931 4281483865
-0.3779591918 -0.1518066823 0.5544777513 4281286486
-0.3792071939 -0.1510717422 0.5563085675 4281547602
-0.3798311055 -0.1507011801 0.5572239161 4281284428
-0.3826541603 -0.1511975378 0.5613653660 4281481807
-0.3839026392 -0.1504393369 0.5631969571 4281218376
-0.3845267892 -0.1500571519 0.5641126037 4281416014
-0.3857010901 -0.1498867273 0.5658353567 4281679186
-0.3874258995 -0.1499255002 0.5683656335 4281613393
-0.3863989115 -0.1488982588 0.5668590665 4281481807
-0.3864723146 -0.1482966095 0.5669667125 4281481807
-0.3870960772 -0.1479049921 0.5678818226 4281481807
-0.3871690333 -0.1473017931 0.5679888129 4281284428
-0.3861400485 -0.1462809145 0.5664792657 4281087049
-0.3862122595 -0.1456787437 0.5665851831 4280823618
-0.3851820827 -0.1446623355 0.5650739670 4280757825
-0.3830489516 -0.1432368457 0.5619445443 4280429889
-0.3814660013 -0.1420231313 0.5596222878 4280495682
-0.3815362155 -0.1414273679 0.5597252846 4280495682
-0.3788488805 -0.1398137212 0.5557829142 4280364096
-0.3783665001 -0.1390189677 0.5550752282 4281284428
-0.3701604605 -0.1354005635 0.5430367589 4281613393
-0.3658134639 -0.1332142204 0.5366595387 4281350219
-0.3664312959 -0.1328419298 0.5375659466 4281152840
-0.3659451306 -0.1320692152 0.5368527770 4281218376
-0.3660106063 -0.1314962357 0.5369488001 4281218376
-0.3677322268 -0.1315153837 0.5394744873 4281152582
-0.3677974641 -0.1309392005 0.5395701528 4280889410
-0.3678624332 -0.1303627193 0.5396654606 4281152582
-0.3695844412 -0.1303705573 0.5421917439 4281481547
-0.3718593121 -0.1305668950 0.5455290079 4281415241
-0.3746873438 -0.1309491396 0.5496778488 4281415241
-0.3780688047 -0.1315146685 0.5546385050 4281613133
-0.3781341314 -0.1309210658 0.5547344089 4281876305
-0.3793050647 -0.1307082176 0.5564521551 4282731363
-0.3799230754 -0.1303019077 0.5573588014 4283323500
-0.3794347942 -0.1295159757 0.5566424727 4284047223
-0.3800524473 -0.1291073263 0.5575485826 4283126121
-0.3806700110 -0.1286966354 0.5584545732 4281678926
-0.3807340860 -0.1280977130 0.5585485697 4280428859
-0.3807978928 -0.1274984926 0.5586422086 4280625977
-0.3808614314 -0.1268989593 0.5587353706 4280889149
-0.3820951581 -0.1260644197 0.5605453253 4281152321
-0.3832657337 -0.1258259118 0.5622625947 4281613125
-0.3821304739 -0.1142416596 0.5605971217 4288455077
-0.3849653006 -0.1144616753 0.5647559166 4288586663
-0.3816891909 -0.1128654480 0.5599497557 4287861912
-0.3806906939 -0.1113291606 0.5584849119 4285230190
-0.3807466030 -0.1107249036 0.5585669279 4284638053
-0.3802463114 -0.1099596173 0.5578329563 4284441706
-0.3797455430 -0.1091958284 0.5570983887 4286218117
-0.3798004389 -0.1085925475 0.5571788549 4286153613
-0.3792988658 -0.1078308895 0.5564430356 4285627269
-0.3759845197 -0.1635369360 0.5524810553 4281286746
-0.3760641515 -0.1629575938 0.5525980592 4281352279
-0.3766902387 -0.1626138836 0.5535179973 4281483865
-0.3773162961 -0.1622681320 0.5544379950 4281746780
-0.3768484294 -0.1614516675 0.5537505150 4281746780
-0.3769271672 -0.1608700156 0.5538662076 4281810774
-0.3770056367 -0.1602880061 0.5539814830 4281942360
-0.3770838678 -0.1597056240 0.5540964603 4281943130
-0.3771618605 -0.1591228694 0.5542110205 4281811544
-0.3766920567 -0.1583096683 0.5535206795 4282074716
-0.3756741285 -0.1572685391 0.5520249605 4281877337
-0.3746555448 -0.1562304497 0.5505281687 4281811544
-0.3741840720 -0.1554229409 0.5498354435 4281745751
-0.3742601275 -0.1548434943 0.5499471426 4282140255
-0.3743358850 -0.1542636901 0.5500584841 4281942876
-0.3744114339 -0.1536835432 0.5501694679 4281942876
-0.3744866848 -0.1531030387 0.5502800941 4282008669
-0.3751101196 -0.1527455002 0.5511961579 4281811290
-0.3751849830 -0.1521634459 0.5513061881 4282008669
-0.3758082390 -0.1518026441 0.5522220135 4281482325
-0.3764314353 -0.1514398158 0.5531377196 4281416532
-0.3776034415 -0.1512948275 0.5548599362 4281482579
-0.3787756264 -0.1511460692 0.5565823317 4281416786
-0.3799479604 -0.1509935707 0.5583050251 4281219407
-0.3811204731 -0.1508373022 0.5600279570 4281482579
-0.3822931647 -0.1506772786 0.5617511272 4281547600
-0.3829166293 -0.1502978504 0.5626672506 4281350221
-0.3840895295 -0.1501311362 0.5643907189 4281679186
-0.3847129941 -0.1497467309 0.5653068423 4281810772
-0.3847866952 -0.1491472125 0.5654151440 4281745751
-0.3865095377 -0.1491839737 0.5679467320 4281679958
-0.3849333227 -0.1479471326 0.5656306148 4281548629
-0.3866562545 -0.1479780674 0.5681623220 4281417043
-0.3850788474 -0.1467456818 0.5658444762 4281285200
-0.3857014477 -0.1463532299 0.5667593479 4281022028
-0.3852233291 -0.1455428749 0.5660567880 4280823877
-0.3841943145 -0.1445268542 0.5645446777 4280823877
-0.3831646144 -0.1435139328 0.5630316138 4280232769
-0.3815836310 -0.1422987878 0.5607084632 4280364355
-0.3800017238 -0.1410884708 0.5583840013 4280429889
-0.3773173392 -0.1394757628 0.5544394851 4280166717
-0.3762844205 -0.1384796202 0.5529217124 4280956233
-0.3724957108 -0.1364771575 0.5473544598 4281350991
-0.3670519292 -0.1338833719 0.5393552780 4281087819
-0.3676694334 -0.1335083246 0.5402626395 4280890440
-0.3660815656 -0.1323340535 0.5379293561 4281218633
-0.3661471009 -0.1317599714 0.5380256772 4281350219
-0.3667638898 -0.1313831359 0.5389320254 4281152840
-0.3662773967 -0.1306108534 0.5382171273 4280758082
-0.3679973185 -0.1306233555 0.5407444239 4281152582
-0.3691657186 -0.1304353774 0.5424613357 4281547340
-0.3714380860 -0.1306318492 0.5458003879 4281349961
-0.3742629588 -0.1310143024 0.5499513149 4281284168
-0.3759843409 -0.1310030371 0.5524807572 4281547341
-0.3777059913 -0.1309862435 0.5550106168 4281481548
-0.3783233762 -0.1305826902 0.5559177995 4281612880
-0.3794930577 -0.1303668320 0.5576365590 4281349708
-0.3801103532 -0.1299583167 0.5585436225 4281349962
-0.3801749647 -0.1293597221 0.5586385727 4280757825
-0.3802393079 -0.1287608296 0.5587331057 4280363064
-0.3803033829 -0.1281616241 0.5588272810 4280297271
-0.3803671896 -0.1275621206 0.5589210391 4280692029
-0.3804306984 -0.1269623190 0.5590143800 4280889408
-0.3804939389 -0.1263622195 0.5591073036 4280955201
-0.3816631734 -0.1261274070 0.5608253479 4281020994
-0.3828324974 -0.1258887947 0.5625435710 4281482052
-0.3844155669 -0.1157399863 0.5648698211 4288257698
-0.3811447918 -0.1141329482 0.5600636601 4288454819
-0.3834215403 -0.1141887233 0.5634091496 4288520612
-0.3807039559 -0.1127578467 0.5594158769 4287798180
-0.3807605207 -0.1121529490 0.5594990253 4286284941
-0.3797065318 -0.1112225801 0.5579502583 4284902257
-0.3797623515 -0.1106189117 0.5580322742 4284046948
-0.3787072897 -0.1096933037 0.5564819574 4284178534
-0.3793177605 -0.1092508286 0.5573789477 4286086531
-0.3788171709 -0.1084881797 0.5566433668 4285758854
-0.3788716793 -0.1078852341 0.5567234755 4285429889
-0.3789258897 -0.1072820202 0.5568031669 4282666326
-0.3760997057 -0.1638544500 0.5535537004 4282406258
-0.3767254055 -0.1635109931 0.5544746518 4282274670
-0.3768049777 -0.1629293412 0.5545917749 4282077291
-0.3774305284 -0.1625826061 0.5555124283 4282011752
-0.3769634068 -0.1617649347 0.5548249483 4281814373
-0.3770422339 -0.1611821800 0.5549409389 4281549401
-0.3776673675 -0.1608318239 0.5558610559 4281483608
-0.3777458072 -0.1602474898 0.5559765100 4281812830
-0.3772772253 -0.1594317406 0.5552867651 4281681244
-0.3768081367 -0.1586173326 0.5545964241 4281681244
-0.3763386011 -0.1578042358 0.5539053082 4281483865
-0.3753214478 -0.1567639709 0.5524082184 4281944159
-0.3743036091 -0.1557267457 0.5509101748 4281812573
-0.3743797243 -0.1551461816 0.5510222316 4282470503
-0.3744556010 -0.1545652896 0.5511338711 4281680987
-0.3745312393 -0.1539840251 0.5512452126 4281878623
-0.3746066093 -0.1534024179 0.5513561368 4282076002
-0.3752295077 -0.1530438811 0.5522729158 4281681246
-0.3758523762 -0.1526832879 0.5531896949 4281615453
-0.3759271801 -0.1520989388 0.5532997847 4281418072
-0.3765498698 -0.1517350972 0.5542162657 4281549658
-0.3777207136 -0.1515892148 0.5559395552 4281548631
-0.3783434033 -0.1512204111 0.5568560362 4281417045
-0.3795144856 -0.1510678530 0.5585796833 4281286229
-0.3801372051 -0.1506940871 0.5594962239 4281549401
-0.3807598650 -0.1503182650 0.5604126453 4281417815
-0.3813824654 -0.1499403864 0.5613290071 4281220436
-0.3820050359 -0.1495604515 0.5622453094 4281680215
-0.3831765056 -0.1493924856 0.5639695525 4281877594
-0.3837990761 -0.1490075886 0.5648858547 4281680215
-0.3849707544 -0.1488329321 0.5666103363 4281877594
-0.3828468919 -0.1473857611 0.5634844303 4281878366
-0.3841630220 -0.1460077763 0.5654215217 4281220434
-0.3842350245 -0.1454067826 0.5655274987 4280890953
-0.3832071424 -0.1443911493 0.5640146136 4280759367
-0.3821785748 -0.1433786154 0.5625007749 4280430148
-0.3790192306 -0.1409537196 0.5578507781 4280561475
-0.3790888488 -0.1403596848 0.5579532385 4280298303
-0.3780575991 -0.1393596232 0.5564354062 4280824647
-0.3737232685 -0.1371507496 0.5500559807 4281285198
-0.3688365519 -0.1347542405 0.5428636074 4281350991
-0.3689031899 -0.1341753155 0.5429617167 4281219405
-0.3673174977 -0.1329979002 0.5406277776 4281350991
-0.3673833311 -0.1324209422 0.5407246947 4281614163
-0.3679997921 -0.1320413500 0.5416319966 4281613391
-0.3686161637 -0.1316597164 0.5425392389 4281218633
-0.3692325056 -0.1312760562 0.5434463620 4281416012
-0.3698487580 -0.1308903396 0.5443533659 4281679184
-0.3715675175 -0.1308909804 0.5468831062 4281350219
-0.3738379776 -0.1310794502 0.5502248406 4281350219
-0.3755574524 -0.1310681999 0.5527555943 4281350219
-0.3784456253 -0.1308384091 0.5570064783 4281481807
-0.3790623546 -0.1304317564 0.5579141974 4281481807
-0.3791271746 -0.1298340708 0.5580096245 4280758082
-0.3797436357 -0.1294241846 0.5589169264 4280034359
-0.3798079789 -0.1288250089 0.5590116382 4280100405
-0.3798720539 -0.1282255352 0.5591059327 4280363577
-0.3799358308 -0.1276257485 0.5591998100 4280692542
-0.3799993396 -0.1270256639 0.5592932701 4280889921
-0.3806149960 -0.1266090423 0.5601994395 4281020994
-0.3812305331 -0.1261903793 0.5611053705 4281086787
-0.3823394179 -0.1209302470 0.5627374649 4284111448
-0.3814125955 -0.1187659353 0.5613733530 4286480511
-0.3825792968 -0.1185035929 0.5630905628 4287270802
-0.3832513690 -0.1174582988 0.5640797019 4287403420
-0.3833101392 -0.1168494821 0.5641662478 4287798178
-0.3833686411 -0.1162403822 0.5642523170 4288127402
-0.3823186457 -0.1152968183 0.5627069473 4288193195
-0.3812680542 -0.1143564954 0.5611606240 4287930794
-0.3807711005 -0.1135847643 0.5604292154 4287601829
-0.3808280230 -0.1129789725 0.5605129600 4285499295
-0.3792213798 -0.1118821949 0.5581482649 4284051849
-0.3792774975 -0.1112785116 0.5582308769 4283063408
-0.3793332875 -0.1106745601 0.5583130121 4282471271
-0.3788341582 -0.1099094227 0.5575783253 4283193959
-0.3783345520 -0.1091457829 0.5568430424 4285036163
-0.3783893585 -0.1085428074 0.5569236875 4285758857
-0.3784438372 -0.1079395711 0.5570038557 4285561478
-0.3784980476 -0.1073360667 0.5570836663 4282468947
-0.3755878210 -0.1645145714 0.5537054539 4282341494
-0.3756677806 -0.1639342606 0.5538233519 4282538873
-0.3768381774 -0.1638277471 0.5555487871 4282539127
-0.3769178689 -0.1632450074 0.5556662679 4282473334
-0.3769972920 -0.1626618952 0.5557833314 4282736506
-0.3770764768 -0.1620784104 0.5559000969 4282933885
-0.3777012229 -0.1617282778 0.5568211079 4282472819
-0.3777800202 -0.1611432135 0.5569372773 4281880682
-0.3773125112 -0.1603257656 0.5562480688 4282539125
-0.3768445551 -0.1595096588 0.5555581450 4282802297
-0.3764535189 -0.1581109017 0.5549817085 4282407539
-0.3754377365 -0.1570693105 0.5534842014 4283064954
-0.3749678433 -0.1562585235 0.5527914762 4282867575
-0.3750441968 -0.1556760222 0.5529040098 4283525505
-0.3751202822 -0.1550931633 0.5530161858 4282538610
-0.3751960993 -0.1545099616 0.5531279445 4282868090
-0.3752716780 -0.1539263874 0.5532394052 4283262848
-0.3753470182 -0.1533424854 0.5533504486 4282341233
-0.3759693503 -0.1529808939 0.5542678833 4281683303
-0.3765916228 -0.1526172459 0.5551853180 4282604403
-0.3772138655 -0.1522515565 0.5561026335 4282867575
-0.3778360784 -0.1518837959 0.5570199490 4282011239
-0.3784582615 -0.1515139937 0.5579371452 4281945446
-0.3790803850 -0.1511421204 0.5588542819 4282011498
-0.3797024488 -0.1507682055 0.5597713590 4282143084
-0.3803244829 -0.1503922343 0.5606883764 4281945705
-0.3803983331 -0.1497983485 0.5607972741 4281616740
-0.3804719150 -0.1492041200 0.5609057546 4281813860
-0.3816418946 -0.1490378082 0.5626305938 4282077032
-0.3822636008 -0.1486544609 0.5635471344 4281944931
-0.3828852475 -0.1482690424 0.5644636154 4282208103
-0.3829582036 -0.1476700157 0.5645711422 4282208618
-0.3830308914 -0.1470706463 0.5646783113 4282142825
-0.3831032813 -0.1464709342 0.5647850633 4282011239
-0.3831754327 -0.1458708793 0.5648913980 4281813860
-0.3826982379 -0.1450623572 0.5641878843 4281615966
-0.3811931610 -0.1432430744 0.5619690418 4281352279
-0.3801650703 -0.1422340423 0.5604534149 4280957521
-0.3785868287 -0.1410234421 0.5581266880 4281417815
-0.3764581382 -0.1396138817 0.5549885035 4281549401
-0.3776264191 -0.1394286007 0.5567108393 4281746780
-0.3749464154 -0.1378249228 0.5527598858 4282075745
-0.3700656593 -0.1354246587 0.5455644727 4282404710
-0.3695826232 -0.1346425265 0.5448523760 4282338917
-0.3679989576 -0.1334628165 0.5425176620 4282141538
-0.3680649698 -0.1328838766 0.5426149964 4282141538
-0.3686810136 -0.1325023919 0.5435231924 4282140766
-0.3692969680 -0.1321188509 0.5444312096 4281877594
-0.3699128330 -0.1317332834 0.5453391671 4282009180
-0.3705286682 -0.1313456595 0.5462470651 4282009180
-0.3722456992 -0.1313446015 0.5487784147 4281680985
-0.3739630878 -0.1313380152 0.5513101816 4281878364
-0.3751299083 -0.1311333627 0.5530303717 4282010461
-0.3768477738 -0.1311165988 0.5555629134 4281747289
-0.3780149221 -0.1309034973 0.5572835803 4281812571
-0.3786310256 -0.1304966658 0.5581918955 4282470501
-0.3786958158 -0.1298986971 0.5582873821 4281285457
-0.3793116510 -0.1294886321 0.5591952801 4280561734
-0.3793759942 -0.1288891882 0.5592901111 4280824645
-0.3794400394 -0.1282894313 0.5593845248 4280693059
-0.3795038164 -0.1276893765 0.5594785810 4280824128
-0.3795673251 -0.1270890087 0.5595721602 4280824128
-0.3796305358 -0.1264883578 0.5596653819 4281020733
-0.3824580908 -0.1211658642 0.5638338923 4284045657
-0.3808602691 -0.1200358123 0.5614782572 4284900966
-0.3803673387 -0.1192574203 0.5607516170 4285756275
-0.3798739612 -0.1184805036 0.5600242615 4286611584
-0.3804861903 -0.1180482283 0.5609267950 4287205010
-0.3812156022 -0.1164012551 0.5620021224 4287207846
-0.3818272054 -0.1159625798 0.5629037619 4285960614
-0.3802248538 -0.1148531362 0.5605415106 4284973719
-0.3808358908 -0.1144139022 0.5614423156 4283724687
-0.3803395331 -0.1136417985 0.5607106090 4282803585
-0.3798427284 -0.1128711849 0.5599781871 4281293444
-0.3798992634 -0.1122657135 0.5600615740 4280767100
-0.3788477778 -0.1113344356 0.5585114360 4280371565
-0.3789035976 -0.1107302010 0.5585936904 4280568944
-0.3784050643 -0.1099646911 0.5578587651 4281290089
-0.3779060841 -0.1092006862 0.5571231246 4282737535
-0.3779608607 -0.1085974202 0.5572038889 4285102473
-0.3780153692 -0.1079938933 0.5572842360 4285036680
-0.3780695498 -0.1073901057 0.5573641062 4282797399
-0.3758596182 -0.1636703163 0.5550149083 4282407287
-0.3764840066 -0.1633245200 0.5559369326 4282275701
-0.3765634298 -0.1627411693 0.5560542345 4282539386
-0.3766426146 -0.1621574312 0.5561711192 4282999937
-0.3772667050 -0.1618071645 0.5570927262 4282604154
-0.3773454726 -0.1612218469 0.5572090149 4281551466
-0.3779694140 -0.1608683020 0.5581303835 4282604667
-0.3775022924 -0.1600501239 0.5574405789 4283525769
-0.3770346642 -0.1592332870 0.5567500591 4283459463
-0.3765665591 -0.1584177613 0.5560588241 4282998912
-0.3755521178 -0.1573748440 0.5545608401 4283525255
-0.3745369911 -0.1563349664 0.5530618429 4282933118
-0.3751594126 -0.1559792608 0.5539809465 4283919499
-0.3752355874 -0.1553952992 0.5540934801 4282932604
-0.3753115237 -0.1548109800 0.5542055964 4283459463
-0.3753871918 -0.1542263031 0.5543172956 4283985807
-0.3754626215 -0.1536412835 0.5544286966 4282340982
-0.3755377829 -0.1530559063 0.5545396805 4281156708
-0.3761594296 -0.1526921093 0.5554576516 4283064190
-0.3767810464 -0.1523262709 0.5563755631 4283524741
-0.3779495656 -0.1521786004 0.5581010580 4282604666
-0.3785712123 -0.1518077850 0.5590189695 4282670459
-0.3791927993 -0.1514349133 0.5599368811 4282803073
-0.3792670369 -0.1508423090 0.5600464940 4283000452
-0.3798884451 -0.1504661739 0.5609641075 4282737282
-0.3799622655 -0.1498720348 0.5610731244 4282408317
-0.3805834353 -0.1494926363 0.5619903803 4282538873
-0.3817522824 -0.1493254155 0.5637163520 4282867838
-0.3824466467 -0.1483420879 0.5647416711 4282999165
-0.3825195730 -0.1477427930 0.5648493767 4282999678
-0.3825922608 -0.1471431553 0.5649566650 4282868092
-0.3826646507 -0.1465431750 0.5650635958 4282933885
-0.3827367723 -0.1459428519 0.5651701093 4282999678
-0.3828086257 -0.1453421861 0.5652762055 4282868092
-0.3817831576 -0.1443264484 0.5637619495 4282736506
-0.3813056052 -0.1435203403 0.5630567670 4282340463
-0.3802788854 -0.1425099671 0.5615406632 4281682533
-0.3792514503 -0.1415027231 0.5600234866 4282603378
-0.3771254718 -0.1400907487 0.5568841696 4283195515
-0.3766455650 -0.1392945200 0.5561754704 4283261308
-0.3745177388 -0.1378931403 0.5530334115 4283261308
-0.3718395829 -0.1362970024 0.5490787029 4283458944
-0.3724562526 -0.1359119713 0.5499893427 4283393151
-0.3681278527 -0.1337285340 0.5435978174 4283393151
-0.3681939542 -0.1331484616 0.5436953902 4282998393
-0.3693591058 -0.1329638064 0.5454158783 4282669169
-0.3694248497 -0.1323813796 0.5455130339 4282471790
-0.3700402081 -0.1319947690 0.5464216471 4282603376
-0.3706554770 -0.1316061169 0.5473302007 4282669169
-0.3723707497 -0.1316041946 0.5498630404 4282603378
-0.3740863204 -0.1315967739 0.5523963571 4283129722
-0.3752519488 -0.1313911676 0.5541176200 4283197045
-0.3769680262 -0.1313735545 0.5566516519 4282275943
-0.3775835931 -0.1309685856 0.5575606227 4282142824
-0.3776485622 -0.1303715110 0.5576565862 4283327098
-0.3782638311 -0.1299633235 0.5585651398 4282076005
-0.3783283532 -0.1293647736 0.5586603880 4281615454
-0.3783925772 -0.1287659109 0.5587552190 4282141536
-0.3784565330 -0.1281667650 0.5588496327 4281680985
-0.3785201907 -0.1275672913 0.5589436889 4280824128
-0.3785836101 -0.1269675344 0.5590373278 4280758335
-0.3780955672 -0.1261835247 0.5583166480 4281020218
-0.3808581233 -0.1214817315 0.5623959899 4283389016
-0.3809187114 -0.1208760962 0.5624854565 4283914330
-0.3804268837 -0.1200958639 0.5617591739 4284835432
-0.3794417977 -0.1185398176 0.5603045821 4286677377
-0.3811582029 -0.1184506714 0.5628390908 4287073942
-0.3812173605 -0.1178436056 0.5629264712 4287139735
-0.3812762499 -0.1172362566 0.5630133748 4285893536
-0.3802295029 -0.1162905768 0.5614677668 4284511883
-0.3819458783 -0.1161888614 0.5640022159 4282016389
-0.3798501194 -0.1143049225 0.5609075427 4280374399
-0.3799073100 -0.1136988252 0.5609920025 4280177020
-0.3788580596 -0.1127632260 0.5594425797 4279981193
-0.3789145052 -0.1121583506 0.5595259666 4280112779
-0.3784174323 -0.1113903597 0.5587919354 4280046727
-0.3779199123 -0.1106238663 0.5580572486 4280441485
-0.3785287440 -0.1101810411 0.5589562654 4280503669
-0.3780304790 -0.1094157845 0.5582205057 4280898427
-0.3775317669 -0.1086520329 0.5574840903 4284511626
-0.3775862455 -0.1080482155 0.5575645566 4284314247
-0.3776404262 -0.1074441448 0.5576445460 4283126362
-0.3753460050 -0.1643319875 0.5551669598 4281290865
-0.3759698868 -0.1639872789 0.5560897589 4281158509
-0.3760495186 -0.1634040326 0.5562075973 4281158509
-0.3761289418 -0.1628204286 0.5563250184 4281486445
-0.3767525256 -0.1624712199 0.5572473407 4281223273
-0.3768315613 -0.1618860215 0.5573642254 4280566113
-0.3774549663 -0.1615335643 0.5582863688 4280434527
-0.3775336146 -0.1609467864 0.5584026575 4281420652
-0.3776119649 -0.1603596359 0.5585185885 4282078582
-0.3771450818 -0.1595415771 0.5578280091 4281946996
-0.3766777217 -0.1587248445 0.5571367145 4281881203
-0.3745741844 -0.1572228968 0.5540254116 4282408317
-0.3757415414 -0.1570954025 0.5557520390 4281750387
-0.3747272789 -0.1560555398 0.5542518497 4282736512
-0.3748034537 -0.1554713100 0.5543645620 4282012789
-0.3748793900 -0.1548867524 0.5544767976 4282539133
-0.3755008280 -0.1545264274 0.5553960204 4282275961
-0.3755763471 -0.1539402902 0.5555077195 4281617518
-0.3756515980 -0.1533538103 0.5556190014 4280959588
-0.3757266104 -0.1527669728 0.5557299256 4281749617
-0.3768937886 -0.1526221633 0.5574563146 4282210168
-0.3775148392 -0.1522532552 0.5583748817 4281487213
-0.3781358302 -0.1518822908 0.5592933893 4282013557
-0.3787567616 -0.1515092552 0.5602117777 4281750385
-0.3788309991 -0.1509163976 0.5603216290 4281355627
-0.3789049983 -0.1503231972 0.5604310632 4281881971
-0.3795255721 -0.1499457061 0.5613489151 4282737280
-0.3806930780 -0.1497813463 0.5630757809 4283262596
-0.3802195191 -0.1489701867 0.5623753071 4283196803
-0.3808398247 -0.1485873759 0.5632928014 4283197057
-0.3814601004 -0.1482024938 0.5642102361 4282736506
-0.3815329075 -0.1476037949 0.5643179417 4282999424
-0.3816054761 -0.1470047385 0.5644252300 4282802045
-0.3816777468 -0.1464053541 0.5645321608 4282407028
-0.3822974563 -0.1460148096 0.5654487610 4282867579
-0.3818215132 -0.1452055424 0.5647447705 4282143854
-0.3802492619 -0.1439827383 0.5624192953 4282407026
-0.3797721565 -0.1431779712 0.5617136359 4282274672
-0.3792945445 -0.1423746049 0.5610072017 4281814121
-0.3793647289 -0.1417775005 0.5611109734 4282406774
-0.3783379793 -0.1407720298 0.5595923662 4283196290
-0.3746369183 -0.1381636113 0.5541182160 4283064704
-0.3697675467 -0.1357601583 0.5469160080 4283393153
-0.3709320128 -0.1355781108 0.5486383438 4283524739
-0.3688036799 -0.1341941208 0.5454903841 4283458946
-0.3688699901 -0.1336120516 0.5455884337 4283195774
-0.3694850206 -0.1332276314 0.5464981198 4283393155
-0.3695508838 -0.1326440722 0.5465955734 4282669432
-0.3701656759 -0.1322564334 0.5475049019 4283195776
-0.3707804084 -0.1318667382 0.5484141111 4283393155
-0.3724938631 -0.1318639815 0.5509484410 4283195774
-0.3736581504 -0.1316620857 0.5526705384 4282998395
-0.3748225272 -0.1314563900 0.5543927550 4283063927
-0.3765366971 -0.1314387918 0.5569281578 4283458685
-0.3771516085 -0.1310336441 0.5578376651 4283129979
-0.3777664304 -0.1306264549 0.5587470531 4283458944
-0.3783811927 -0.1302172095 0.5596562624 4282142827
-0.3784457743 -0.1296175122 0.5597518086 4282077034
-0.3785100877 -0.1290175021 0.5598469377 4282602089
-0.3785741329 -0.1284171939 0.5599416494 4281944159
-0.3780875504 -0.1276308000 0.5592219234 4281218375
-0.3781509399 -0.1270307600 0.5593156815 4280560445
-0.3787645698 -0.1266144514 0.5602233410 4280954425
-0.3788274825 -0.1260129362 0.5603163838 4281283390
-0.3794408441 -0.1255934089 0.5612236261 4281546299
-0.3863642514 -0.1247103363 0.5714638829 4284045398
-0.3825676143 -0.1228561625 0.5658483505 4283587935
-0.3820774853 -0.1220708787 0.5651234388 4283324763
-0.3804840446 -0.1209365055 0.5627666116 4283914835
-0.3810958564 -0.1205046922 0.5636715293 4284638558
-0.3800527453 -0.1195502877 0.5621286631 4285036159
-0.3795607090 -0.1187717542 0.5614008904 4285694089
-0.3796199560 -0.1181664392 0.5614885092 4285172654
-0.3802308142 -0.1177317202 0.5623919964 4283791001
-0.3802895844 -0.1171249673 0.5624789596 4282278283
-0.3803480864 -0.1165179312 0.5625654459 4281291388
-0.3798541725 -0.1157423928 0.5618349314 4280242564
-0.3793598115 -0.1149683297 0.5611037612 4280374150
-0.3783127069 -0.1140292957 0.5595549941 4279981963
-0.3783697188 -0.1134246811 0.5596393347 4280245135
-0.3779303730 -0.1120508164 0.5589894652 4281096843
-0.3779864311 -0.1114462689 0.5590724349 4280309381
-0.3780422211 -0.1108414605 0.5591549277 4280704139
-0.3775449395 -0.1100752130 0.5584194064 4281031050
-0.3776000738 -0.1094707549 0.5585009456 4280702085
-0.3776549399 -0.1088660285 0.5585820675 4282538620
-0.3777094781 -0.1082610413 0.5586627722 4283986066
-0.3772106469 -0.1074981689 0.5579249859 4282468945
-0.3749115467 -0.1644118726 0.5554368496 4281488503
-0.3755347729 -0.1640670151 0.5563601851 4281159281
-0.3761579990 -0.1637201160 0.5572834611 4281356660
-0.3762375116 -0.1631354094 0.5574012995 4281684596
-0.3763167560 -0.1625503302 0.5575187206 4280895080
-0.3769396842 -0.1621989310 0.5584415793 4280698212
-0.3770185411 -0.1616122723 0.5585584044 4281092970
-0.3770971596 -0.1610252410 0.5586748719 4281289836
-0.3771755099 -0.1604378521 0.5587909818 4280697699
-0.3772536218 -0.1598500758 0.5589066744 4280697699
-0.3762424886 -0.1588023305 0.5574086905 4280960871
-0.3746860325 -0.1575286388 0.5551027656 4281158763
-0.3758522570 -0.1574002653 0.5568305254 4280698212
-0.3748393655 -0.1563590616 0.5553299189 4281158763
-0.3749156296 -0.1557737440 0.5554429293 4280369247
-0.3749916255 -0.1551880687 0.5555555224 4280763492
-0.3750674129 -0.1546020359 0.5556677580 4281092457
-0.3756881654 -0.1542395055 0.5565874577 4281158250
-0.3757635355 -0.1536519080 0.5566990972 4280763492
-0.3758386374 -0.1530639678 0.5568103194 4280829285
-0.3759134710 -0.1524756551 0.5569212437 4280697699
-0.3770794570 -0.1523278952 0.5586486459 4280829283
-0.3782455921 -0.1521763802 0.5603762865 4280960869
-0.3783200979 -0.1515835971 0.5604866743 4280039767
-0.3783943355 -0.1509904861 0.5605966449 4280566111
-0.3784683049 -0.1503970176 0.5607062578 4281092455
-0.3801807165 -0.1504516900 0.5632432103 4281158248
-0.3786154389 -0.1492090374 0.5609242320 4282078835
-0.3792350888 -0.1488289833 0.5618422031 4282539386
-0.3798546493 -0.1484468579 0.5627601147 4281815150
-0.3799275160 -0.1478499472 0.5628680587 4281223013
-0.3805468678 -0.1474645585 0.5637856722 4281288806
-0.3806192875 -0.1468661129 0.5638929605 4281091427
-0.3806914687 -0.1462673098 0.5639998913 4280762462
-0.3807633519 -0.1456681639 0.5641064048 4281091427
-0.3802878261 -0.1448602676 0.5634018779 4280696410
-0.3792645037 -0.1438461691 0.5618858337 4281222754
-0.3783108592 -0.1422390193 0.5604729652 4280959582
-0.3778333068 -0.1414375305 0.5597655177 4281551465
-0.3773553073 -0.1406374425 0.5590572953 4281880430
-0.3763290346 -0.1396354884 0.5575369000 4281814637
-0.3753021061 -0.1386366785 0.5560154915 4282012016
-0.3720825613 -0.1368349046 0.5512456894 4282341235
-0.3710538745 -0.1358458251 0.5497216582 4282143856
-0.3694763780 -0.1346601099 0.5473845601 4282735993
-0.3695428371 -0.1340760440 0.5474830866 4281814891
-0.3701574504 -0.1336897165 0.5483936071 4282077809
-0.3702234924 -0.1331041604 0.5484914184 4281946223
-0.3702892661 -0.1325182915 0.5485888720 4282209395
-0.3709034622 -0.1321275532 0.5494987965 4282143602
-0.3715175688 -0.1317347735 0.5504086018 4282012270
-0.3732293248 -0.1317273825 0.5529446006 4282275442
-0.3743924499 -0.1315216124 0.5546677709 4282801014
-0.3755556643 -0.1313120574 0.5563911200 4282077291
-0.3767189980 -0.1310987175 0.5581146479 4281222754
-0.3773331940 -0.1306913346 0.5590245724 4282078063
-0.3773979545 -0.1300925463 0.5591204762 4280498777
-0.3785612881 -0.1298704147 0.5608440042 4280235605
-0.3786256909 -0.1292692721 0.5609394312 4281220695
-0.3781401813 -0.1284810603 0.5602201223 4280891730
-0.3782039285 -0.1278801709 0.5603145957 4280626751
-0.3777176142 -0.1270939857 0.5595940948 4280626751
-0.3788805008 -0.1268616170 0.5613169074 4281020988
-0.3789435029 -0.1262589395 0.5614102483 4281020988
-0.3795563281 -0.1258383393 0.5623181462 4281349435
-0.3796188533 -0.1252342016 0.5624108315 4282007365
-0.3807816505 -0.1249910071 0.5641334653 4281941569
-0.3824948668 -0.1249237508 0.5666716099 4282336327
-0.3842083216 -0.1248509437 0.5692101717 4283190607
-0.3842704594 -0.1242385954 0.5693022013 4283848537
-0.3832310438 -0.1232717186 0.5677623153 4283390298
-0.3794374764 -0.1214268804 0.5621420741 4283061333
-0.3805995286 -0.1211722717 0.5638636947 4283522142
-0.3806599081 -0.1205649003 0.5639531612 4284311658
-0.3790670931 -0.1194364429 0.5615933537 4283789445
-0.3791266084 -0.1188311353 0.5616815686 4283592066
-0.3791858852 -0.1182255372 0.5617693663 4281687943
-0.3797960877 -0.1177906245 0.5626733899 4281095806
-0.3798548579 -0.1171835810 0.5627604127 4280504192
-0.3793619275 -0.1164070666 0.5620301962 4280372606
-0.3788685799 -0.1156320348 0.5612992644 4280177030
-0.3783747554 -0.1148584858 0.5605676174 4280308616
-0.3784321249 -0.1142529771 0.5606526136 4280178572
-0.3784892261 -0.1136471927 0.5607371926 4280441744
-0.3779942095 -0.1128763556 0.5600038767 4280702599
-0.3770028055 -0.1113391593 0.5585350990 4280375174
-0.3770585060 -0.1107349470 0.5586176515 4280440967
-0.3771139383 -0.1101304665 0.5586997271 4280702599
-0.3777212799 -0.1096860766 0.5595995188 4280505220
-0.3772238791 -0.1089207008 0.5588626266 4281816182
-0.3772784173 -0.1083154306 0.5589434505 4283526800
-0.3773326874 -0.1077098921 0.5590237975 4282600533
-0.3744764328 -0.1644917279 0.5557066202 4282081669
-0.3756418526 -0.1643843055 0.5574361086 4282146948
-0.3757216036 -0.1637997180 0.5575544238 4282410120
-0.3758010864 -0.1632147580 0.5576723814 4283132817
-0.3758803308 -0.1626294255 0.5577899814 4282343301
-0.3765026033 -0.1622778922 0.5587133765 4281356658
-0.3765814602 -0.1616909802 0.5588303804 4282080381
-0.3766600490 -0.1611036956 0.5589470267 4282803334
-0.3767383993 -0.1605160385 0.5590633154 4281816439
-0.3768164814 -0.1599280238 0.5591791868 4281290095
-0.3763504624 -0.1591097116 0.5584875941 4281948025
-0.3742520511 -0.1576054990 0.5553736687 4282475139
-0.3754169941 -0.1574770957 0.5571023822 4282540932
-0.3738611341 -0.1562080532 0.5547935367 4282935688
-0.3739372790 -0.1556233317 0.5549065471 4282343551
-0.3740131855 -0.1550382525 0.5550191998 4282475137
-0.3746333420 -0.1546776295 0.5559394956 4282606723
-0.3747088313 -0.1540909857 0.5560514927 4282475137
-0.3747840524 -0.1535039842 0.5561631322 4282014586
-0.3748590350 -0.1529166400 0.5562744141 4281948793
-0.3760236800 -0.1527717412 0.5580026507 4282146172
-0.3766434193 -0.1524025351 0.5589223504 4282605696
-0.3772631288 -0.1520312577 0.5598419905 4282868868
-0.3773375154 -0.1514390856 0.5599523187 4281684853
-0.3779570162 -0.1510645449 0.5608716607 4282408576
-0.3780309558 -0.1504708230 0.5609813929 4281487215
-0.3791958690 -0.1503092796 0.5627100468 4279776597
-0.3781780899 -0.1492823064 0.5611997247 4281224043
-0.3782512546 -0.1486875415 0.5613083243 4283000454
-0.3794159889 -0.1485198140 0.5630367398 4282407801
-0.3794888556 -0.1479226351 0.5631448627 4281486699
-0.3801075518 -0.1475370973 0.5640629530 4281289320
-0.3801799715 -0.1469383687 0.5641704202 4280828769
-0.3802521229 -0.1463393122 0.5642775297 4280565597
-0.3803240061 -0.1457398981 0.5643842220 4280894562
-0.3798491061 -0.1449316293 0.5636793971 4280960354
-0.3793736994 -0.1441247314 0.5629739761 4281947249
-0.3788978159 -0.1433192194 0.5622677803 4282078322
-0.3784214556 -0.1425151080 0.5615608692 4280236118
-0.3779446483 -0.1417123824 0.5608533025 4280236119
-0.3769203126 -0.1407068521 0.5593332052 4280630877
-0.3764424324 -0.1399077922 0.5586240888 4281157734
-0.3754168749 -0.1389076412 0.5571022034 4281749871
-0.3722012043 -0.1371041387 0.5523302555 4282012529
-0.3711738884 -0.1361137331 0.5508058071 4282144115
-0.3695983291 -0.1349265724 0.5484677553 4282539386
-0.3696649075 -0.1343413740 0.5485665202 4282078835
-0.3702789545 -0.1339540184 0.5494777560 4282144629
-0.3703450859 -0.1333673298 0.5495759249 4281355113
-0.3704109490 -0.1327803284 0.5496736169 4281157734
-0.3710246086 -0.1323885471 0.5505842566 4282013043
-0.3716381490 -0.1319947392 0.5514947772 4281947249
-0.3733481169 -0.1319864839 0.5540322661 4281355112
-0.3745100498 -0.1317797750 0.5557565093 4281156959
-0.3756721020 -0.1315692663 0.5574809313 4281749096
-0.3762857318 -0.1311637610 0.5583915710 4281091940
-0.3768992722 -0.1307561994 0.5593020320 4281618284
-0.3775127232 -0.1303465962 0.5602123737 4279973460
-0.3775773048 -0.1297463477 0.5603082180 4279710288
-0.3781904876 -0.1293334961 0.5612181425 4280498000
-0.3782545924 -0.1287317574 0.5613132715 4280432207
-0.3777693510 -0.1279437542 0.5605931878 4280364094
-0.3778328001 -0.1273422837 0.5606873631 4280561473
-0.3778960109 -0.1267405152 0.5607811213 4280955195
-0.3785082698 -0.1263217777 0.5616896749 4280889402
-0.3785709739 -0.1257185340 0.5617827773 4281152570
-0.3832175136 -0.1247342229 0.5686780214 4282928983
-0.3838294446 -0.1243005469 0.5695860982 4283586913
-0.3827913105 -0.1233332157 0.5680455565 4283455579
-0.3812024593 -0.1221927702 0.5656877160 4283060821
-0.3796127737 -0.1210573092 0.5633287430 4282539117
-0.3797330260 -0.1198434681 0.5635071993 4281556609
-0.3792423010 -0.1190633103 0.5627790093 4280898679
-0.3793016374 -0.1184565499 0.5628670454 4280242562
-0.3793607056 -0.1178495064 0.5629546642 4280110976
-0.3794194460 -0.1172421873 0.5630418658 4279914119
-0.3789271712 -0.1164653003 0.5623113513 4280177291
-0.3784344196 -0.1156898960 0.5615801215 4280243338
-0.3784921765 -0.1150834933 0.5616657734 4280111752
-0.3779985905 -0.1143101826 0.5609333515 4280112268
-0.3775045872 -0.1135383621 0.5602002740 4280309647
-0.3775613010 -0.1129329056 0.5602844357 4280570759
-0.3770664334 -0.1121631935 0.5595501065 4280570759
-0.3771224916 -0.1115580723 0.5596332550 4280506508
-0.3766268492 -0.1107904762 0.5588977337 4280309129
-0.3772337437 -0.1103470325 0.5597983599 4280308870
-0.3767373562 -0.1095806733 0.5590617657 4280243077
-0.3767921925 -0.1089753732 0.5591431260 4280962161
-0.3768467307 -0.1083698049 0.5592240691 4282738572
-0.3745827973 -0.1648100913 0.5567821264 4281095287
-0.3752048612 -0.1644641310 0.5577067733 4281489532
-0.3758268952 -0.1641161144 0.5586314201 4281818497
-0.3759064972 -0.1635300517 0.5587496758 4283002002
-0.3759858310 -0.1629436314 0.5588676333 4283002002
-0.3755222559 -0.1621225476 0.5581785440 4282277760
-0.3761437535 -0.1617696583 0.5591023564 4282606725
-0.3762223423 -0.1611821204 0.5592191815 4283001483
-0.3763006628 -0.1605942249 0.5593355894 4281948795
-0.3763787448 -0.1600059569 0.5594516397 4281159279
-0.3753701150 -0.1589572281 0.5579524040 4281751416
-0.3749040961 -0.1581407487 0.5572597384 4282607238
-0.3744376302 -0.1573255956 0.5565663576 4283528340
-0.3734271228 -0.1562842876 0.5550643206 4283133582
-0.3735032380 -0.1556993127 0.5551775098 4282607238
-0.3741229177 -0.1553397626 0.5560985804 4282804617
-0.3741986454 -0.1547532082 0.5562111139 4283396754
-0.3748181164 -0.1543903947 0.5571319461 4283330961
-0.3748934567 -0.1538022757 0.5572438836 4283133582
-0.3749685287 -0.1532138139 0.5573554635 4282870410
-0.3755876720 -0.1528465152 0.5582757592 4282870410
-0.3762067556 -0.1524771601 0.5591959953 4282475141
-0.3768258095 -0.1521057338 0.5601161718 4282869899
-0.3769001663 -0.1515132934 0.5602267385 4281685625
-0.3775190413 -0.1511386037 0.5611466169 4282475141
-0.3775929809 -0.1505446136 0.5612565279 4281356660
-0.3782116473 -0.1501666456 0.5621760488 4279646042
-0.3777400851 -0.1493555754 0.5614751577 4281553267
-0.3783584237 -0.1489752084 0.5623942614 4283921815
-0.3789767027 -0.1485927701 0.5633133054 4282671748
-0.3795949221 -0.1482082605 0.5642322302 4282342783
-0.3796676099 -0.1476096213 0.5643402338 4282540162
-0.3797399998 -0.1470106244 0.5644478798 4282408576
-0.3798121512 -0.1464112997 0.5645551085 4282276990
-0.3798840344 -0.1458116174 0.5646619201 4282211197
-0.3799556196 -0.1452116072 0.5647683740 4282145658
-0.3794809580 -0.1444034874 0.5640627742 4282869381
-0.3784596920 -0.1433898360 0.5625447631 4282737280
-0.3785301745 -0.1427913904 0.5626495481 4280039767
-0.3780540824 -0.1419874430 0.5619418621 4280171353
-0.3770310879 -0.1409805566 0.5604212880 4280960869
-0.3760074377 -0.1399768144 0.5588997006 4281487213
-0.3749831021 -0.1389762014 0.5573771596 4282079350
-0.3723179400 -0.1373735517 0.5534156561 4282539901
-0.3707451522 -0.1361809522 0.5510778427 4283000452
-0.3697184324 -0.1351932287 0.5495517254 4283329417
-0.3697850704 -0.1346068978 0.5496507883 4282868866
-0.3698514700 -0.1340202540 0.5497494340 4282935172
-0.3704648018 -0.1336306781 0.5506611466 4282540414
-0.3705307543 -0.1330425441 0.5507591367 4282277242
-0.3711438477 -0.1326497346 0.5516704917 4283066758
-0.3717568517 -0.1322548687 0.5525816679 4282803586
-0.3734650016 -0.1322457790 0.5551206470 4282145656
-0.3746257722 -0.1320381165 0.5568460226 4282407798
-0.3757866323 -0.1318266541 0.5585715175 4283131521
-0.3763996959 -0.1314200908 0.5594828129 4282737793
-0.3770126998 -0.1310114861 0.5603939891 4283395723
-0.3776256144 -0.1306008250 0.5613049865 4281618801
-0.3782384396 -0.1301881075 0.5622159243 4281816180
-0.3777546585 -0.1293977201 0.5614967942 4282472819
-0.3778187335 -0.1287957132 0.5615921021 4281354338
-0.3778825700 -0.1281933933 0.5616869330 4280561986
-0.3768490255 -0.1272204071 0.5601506829 4280561986
-0.3769121170 -0.1266192198 0.5602444410 4280758329
-0.3775236309 -0.1262011826 0.5611534119 4280889915
-0.3781350553 -0.1257810891 0.5620622635 4281284669
-0.3792953193 -0.1255406141 0.5637868643 4281876806
-0.3822273314 -0.1246173158 0.5681450367 4282338648
-0.3822892606 -0.1240061522 0.5682370663 4283128164
-0.3812521994 -0.1230401173 0.5666955709 4283324256
-0.3802144825 -0.1220772937 0.5651531219 4282929498
-0.3797256947 -0.1212932318 0.5644266009 4281489016
-0.3797860444 -0.1206852943 0.5645163059 4281094258
-0.3798460960 -0.1200770587 0.5646055341 4279717244
-0.3793560863 -0.1192956492 0.5638772249 4279717244
-0.3788656294 -0.1185157150 0.5631482005 4280243334
-0.3789246678 -0.1179083884 0.5632359385 4280243334
-0.3778833151 -0.1169602871 0.5616880655 4279980940
-0.3784917593 -0.1165235192 0.5625924468 4280178319
-0.3779996336 -0.1157477498 0.5618609786 4280178061
-0.3780573606 -0.1151410639 0.5619467497 4279914889
-0.3775644302 -0.1143673807 0.5612140298 4279850128
-0.3776215017 -0.1137610301 0.5612989068 4280047507
-0.3771277368 -0.1129894480 0.5605649352 4280505484
-0.3771841526 -0.1123834327 0.5606487989 4280505484
-0.3766895533 -0.1116139665 0.5599136353 4280440715
-0.3767453134 -0.1110082865 0.5599965453 4280309129
-0.3762499094 -0.1102409437 0.5592601895 4280046727
-0.3763050139 -0.1096356213 0.5593420863 4279915141
-0.3763598502 -0.1090300307 0.5594235659 4280568690
-0.3769654930 -0.1085829213 0.5603237748 4281884550
-0.3751483858 -0.1659524590 0.5585449338 4280371564
-0.3746872544 -0.1651286632 0.5578584075 4280174185
-0.3753087819 -0.1647817194 0.5587837696 4280305258
-0.3753886223 -0.1641957909 0.5589026213 4280173672
-0.3754681945 -0.1636094898 0.5590211153 4280831605
-0.3755474985 -0.1630228013 0.5591391921 4281028984
-0.3750845492 -0.1622013599 0.5584499240 4281027695
-0.3746211231 -0.1613812447 0.5577598810 4281685625
-0.3752416968 -0.1610278487 0.5586838722 4281620089
-0.3753198981 -0.1604405344 0.5588003397 4280962159
-0.3753978610 -0.1598528624 0.5589163899 4281027952
-0.3749329448 -0.1590346694 0.5582242012 4281291124
-0.3744675815 -0.1582178026 0.5575312972 4281356917
-0.3734588921 -0.1571738422 0.5560295582 4282606984
-0.3740783036 -0.1568157077 0.5569517612 4282804617
-0.3736115992 -0.1560020298 0.5562568903 4281817722
-0.3742307425 -0.1556414813 0.5571786761 4281620343
-0.3743065596 -0.1550538242 0.5572915673 4281949308
-0.3749254942 -0.1546899974 0.5582131147 4281817722
-0.3750009239 -0.1541007757 0.5583254099 4281883515
-0.3750760853 -0.1535112113 0.5584372878 4281751929
-0.3756946921 -0.1531428993 0.5593583584 4281554550
-0.3763132691 -0.1527725309 0.5602793097 4281422712
-0.3763878644 -0.1521801949 0.5603903532 4281817470
-0.3770062327 -0.1518065482 0.5613110065 4281225331
-0.3770804107 -0.1512126476 0.5614215136 4281620089
-0.3771543503 -0.1506183892 0.5615315437 4280962159
-0.3783167005 -0.1504567564 0.5632621646 4279843678
-0.3773014247 -0.1494288296 0.5617505312 4280896366
-0.3773745596 -0.1488335282 0.5618594289 4282541191
-0.3785367608 -0.1486656964 0.5635897517 4281488244
-0.3791543543 -0.1482810378 0.5645092726 4282080381
-0.3792270124 -0.1476821303 0.5646174550 4282606725
-0.3792994022 -0.1470828652 0.5647252202 4282738311
-0.3793715239 -0.1464832723 0.5648326278 4282409346
-0.3794433773 -0.1458833218 0.5649396181 4282080381
-0.3795149624 -0.1452830434 0.5650461912 4281685623
-0.3790409267 -0.1444745511 0.5643404126 4281948795
-0.3780209124 -0.1434604228 0.5628217459 4282276729
-0.3780913949 -0.1428617239 0.5629266500 4280302939
-0.3776158988 -0.1420574039 0.5622187257 4281355627
-0.3765941560 -0.1410500556 0.5606974959 4281881971
-0.3755717576 -0.1400458366 0.5591753125 4281618799
-0.3750946820 -0.1392474324 0.5584650040 4282210936
-0.3724327683 -0.1376431584 0.5545017719 4282934659
-0.3730467260 -0.1372529566 0.5554158688 4283197831
-0.3692903221 -0.1352599859 0.5498230457 4283264137
-0.3693569601 -0.1346734017 0.5499222875 4282408828
-0.3694233298 -0.1340864897 0.5500211120 4282474621
-0.3700360060 -0.1336967349 0.5509333014 4282737793
-0.3706486225 -0.1333049387 0.5518454313 4282672000
-0.3707143962 -0.1327153444 0.5519433618 4283000965
-0.3718736470 -0.1325151920 0.5536693335 4283000965
-0.3730330169 -0.1323112398 0.5553954244 4283000965
-0.3741925061 -0.1321034878 0.5571217537 4283395465
-0.3753520846 -0.1318919510 0.5588482022 4282605949
-0.3765117824 -0.1316766143 0.5605748296 4281619314
-0.3765768707 -0.1310764253 0.5606717467 4282737795
-0.3766416907 -0.1304759383 0.5607683063 4281882486
-0.3772537708 -0.1300639063 0.5616796017 4282145658
-0.3773181438 -0.1294619292 0.5617754459 4282539127
-0.3773822188 -0.1288596392 0.5618708134 4281420646
-0.3774460554 -0.1282570362 0.5619658232 4280496709
