VERSION 0.7
FIELDS x y z rgba
SIZE 4 4 4 4
TYPE F F F U
COUNT 1 1 1 1
WIDTH 920
HEIGHT 1
VIEWPOINT 0.0 0.0 0.0 1.0 0.0 0.0 0.0
POINTS 920
DATA ascii
-0.2828424573 -0.1620599926 0.5967718959 4286415519
-0.2841562033 -0.1621465981 0.5995437503 4285692050
-0.2850541472 -0.1619907469 0.6014384031 4285757843
-0.2863684893 -0.1620663404 0.6042115092 4286613150
-0.2868505418 -0.1616666913 0.6052286029 4287468459
-0.2877489626 -0.1614984870 0.6071242094 4287994801
-0.2886475325 -0.1613261402 0.6090201139 4288586938
-0.2895462513 -0.1611496657 0.6109163165 4289574087
-0.2896116972 -0.1605071723 0.6110544205 4290034638
-0.2892601192 -0.1596342176 0.6103126407 4290297296
-0.2897419333 -0.1592208743 0.6113291383 4290099917
-0.2902236581 -0.1588052511 0.6123455763 4290100171
-0.2898711860 -0.1579328477 0.6116018891 4290231757
-0.2899354696 -0.1572881937 0.6117375493 4290165962
-0.2904168069 -0.1568684876 0.6127530932 4290100169
-0.2908980846 -0.1564465016 0.6137685180 4290099920
-0.2909618318 -0.1557987034 0.6139030457 4289573576
-0.2910253704 -0.1551504880 0.6140370965 4289310402
-0.2910886407 -0.1545018405 0.6141706705 4289310402
-0.2915694416 -0.1540735066 0.6151850224 4289310402
-0.2916323245 -0.1534230858 0.6153177619 4288915644
-0.2912771106 -0.1525533795 0.6145682335 4288520116
-0.2913394272 -0.1519030482 0.6146997809 4288914874
-0.2909834385 -0.1510352939 0.6139486432 4289572804
-0.2910452187 -0.1503850669 0.6140789986 4289704390
-0.2911067307 -0.1497344375 0.6142088175 4288717495
-0.2907496989 -0.1488691866 0.6134554744 4287993772
-0.2908106446 -0.1482186615 0.6135840416 4288256944
-0.2904528379 -0.1473553926 0.6128291488 4288256944
-0.2900946140 -0.1464935988 0.6120733023 4289638597
-0.2901546657 -0.1458437294 0.6122000217 4292467696
-0.2897956967 -0.1449839473 0.6114426255 4293388540
-0.2894363403 -0.1441256404 0.6106843948 4291941094
-0.2886575758 -0.1430611610 0.6090412736 4292203750
-0.2874592245 -0.1417933702 0.6065128446 4294111743
-0.2858409882 -0.1403250545 0.6030985117 4294440703
-0.2833833992 -0.1384542584 0.5979132652 4292730094
-0.2817631662 -0.1370021254 0.5944947004 4291809760
-0.2797226310 -0.1353542209 0.5901893377 4292730862
-0.2785199583 -0.1341193318 0.5876517892 4289441471
-0.2785751522 -0.1334928572 0.5877682567 4287928232
-0.2790497243 -0.1330661178 0.5887696147 4289243839
-0.2795242369 -0.1326371133 0.5897707939 4288388530
-0.2804184854 -0.1324040592 0.5916575193 4289309636
-0.2804730535 -0.1317723244 0.5917726755 4289243843
-0.2809473574 -0.1313365400 0.5927733779 4289441738
-0.2818415761 -0.1310938746 0.5946601629 4288718015
-0.2827359140 -0.1308470517 0.5965471268 4288389302
-0.2836303115 -0.1305960566 0.5984342098 4288191923
-0.2845247984 -0.1303409189 0.6003214717 4287928751
-0.2854193449 -0.1300816238 0.6022089124 4288191923
-0.2863139510 -0.1298181564 0.6040964723 4288585911
-0.2872086465 -0.1295505166 0.6059842110 4289112255
-0.2876828313 -0.1290899962 0.6069846749 4289638339
-0.2885775566 -0.1288149953 0.6088724732 4290625234
-0.2890516222 -0.1283489913 0.6098726988 4292467438
-0.2899464071 -0.1280665994 0.6117606163 4292796403
-0.2904203534 -0.1275951117 0.6127605438 4292205293
-0.2913151681 -0.1273053288 0.6146485209 4291021019
-0.2922100127 -0.1270113587 0.6165366173 4289968845
-0.2926838100 -0.1265311688 0.6175362468 4290297810
-0.2935786843 -0.1262298226 0.6194244027 4289311172
-0.2940523326 -0.1257441342 0.6204237342 4288982207
-0.2949472368 -0.1254353821 0.6223118901 4289048002
-0.2958421707 -0.1251224428 0.6242001057 4288850623
-0.2967371345 -0.1248053312 0.6260884404 4288587451
-0.2972105443 -0.1243077144 0.6270872951 4288719037
-0.2976838648 -0.1238078251 0.6280859113 4288719037
-0.2985787690 -0.1234800741 0.6299741268 4288719037
-0.2994737029 -0.1231481433 0.6318623424 4289245381
-0.2999468148 -0.1226395294 0.6328605413 4289837518
-0.2999978364 -0.1219571233 0.6329681873 4290429655
-0.3004706204 -0.1214449406 0.6339657307 4290232276
-0.3005211949 -0.1207608730 0.6340724230 4289574346
-0.3005714715 -0.1200764701 0.6341785192 4289113795
-0.3001993001 -0.1192240342 0.6333932281 4288455863
-0.3002489805 -0.1185399070 0.6334980726 4287863726
-0.3007207513 -0.1180212051 0.6344935298 4287403175
-0.3003475368 -0.1171706393 0.6337060928 4287403175
-0.2999739349 -0.1163216680 0.6329177618 4289113795
-0.2995999157 -0.1154742911 0.6321285963 4289376967
-0.2988028526 -0.1144666076 0.6304468513 4289376967
-0.2984279394 -0.1136233956 0.6296558380 4289179588
-0.2988981605 -0.1131017357 0.6306480169 4288982979
-0.2989454269 -0.1124188080 0.6307476759 4289048772
-0.2989923954 -0.1117355600 0.6308467984 4289180356
-0.2994620800 -0.1112090647 0.6318377852 4289311942
-0.2995085716 -0.1105242074 0.6319358945 4289771976
-0.2999778986 -0.1099941730 0.6329261661 4290035148
-0.3000239432 -0.1093077138 0.6330232620 4291283926
-0.2774233818 -0.1743216515 0.5867130756 4293784830
-0.2774930894 -0.1737134159 0.5868604779 4293982207
-0.2771495581 -0.1728471071 0.5861339569 4294179583
-0.2772187293 -0.1722388566 0.5862802863 4294245375
-0.2772877216 -0.1716301590 0.5864261389 4294179583
-0.2773564756 -0.1710209996 0.5865715742 4294047999
-0.2774250209 -0.1704113781 0.5867165327 4293982719
-0.2774933875 -0.1698013246 0.5868610740 4293785343
-0.2775615156 -0.1691908091 0.5870051980 4293587709
-0.2776294351 -0.1685798466 0.5871488452 4293521916
-0.2776971459 -0.1679684371 0.5872920156 4293785087
-0.2777646184 -0.1673565805 0.5874347687 4294179839
-0.2778319120 -0.1667442769 0.5875770450 4294180095
-0.2778989673 -0.1661315262 0.5877189040 4293851135
-0.2779658139 -0.1655183285 0.5878602862 4293324539
-0.2780324519 -0.1649046987 0.5880011916 4292337644
-0.2780988812 -0.1642906219 0.5881416798 4291153376
-0.2781650722 -0.1636761129 0.5882816911 4289574344
-0.2782310545 -0.1630611718 0.5884212255 4288192691
-0.2787115872 -0.1626878679 0.5894374251 4287403175
-0.2791920900 -0.1623123139 0.5904536247 4287008672
-0.2796725631 -0.1619344801 0.5914697647 4286219156
-0.2805680335 -0.1617937088 0.5933635831 4286086295
-0.2810485661 -0.1614104062 0.5943798423 4285559951
-0.2815290391 -0.1610248238 0.5953959823 4286152088
-0.2824248374 -0.1608735621 0.5972904563 4287007397
-0.2837361991 -0.1609538198 0.6000638604 4287270567
-0.2842168808 -0.1605586559 0.6010804176 4287796911
-0.2851131558 -0.1603950113 0.6029759049 4289178818
-0.2855938673 -0.1599943638 0.6039925218 4290823643
-0.2864903212 -0.1598233879 0.6058884263 4291086813
-0.2865551412 -0.1591862142 0.6060255170 4290889434
-0.2866197228 -0.1585485935 0.6061620712 4290692054
-0.2871001661 -0.1581397504 0.6071781516 4290231503
-0.2875805497 -0.1577286124 0.6081941128 4289836999
-0.2880609035 -0.1573151946 0.6092100143 4289836999
-0.2881248593 -0.1566730887 0.6093452573 4290034376
-0.2886050045 -0.1562560201 0.6103607416 4290560720
-0.2890851200 -0.1558366865 0.6113761067 4289968585
-0.2891485393 -0.1551914364 0.6115102172 4289705413
-0.2892117202 -0.1545457691 0.6116438508 4289178815
-0.2896915078 -0.1541214436 0.6126585007 4288915643
-0.2901712060 -0.1536948234 0.6136730313 4288718265
-0.2902338803 -0.1530460268 0.6138055325 4289047230
-0.2898792028 -0.1521778554 0.6130554080 4289836748
-0.2899412811 -0.1515291482 0.6131867170 4290560471
-0.2895858586 -0.1506629437 0.6124350429 4290822873
-0.2896473706 -0.1500143409 0.6125651598 4289770185
-0.2892912030 -0.1491501182 0.6118119359 4288651702
-0.2893521786 -0.1485016346 0.6119408607 4288191151
-0.2889952660 -0.1476393789 0.6111860275 4288191151
-0.2890556455 -0.1469910145 0.6113137007 4289112253
-0.2886979878 -0.1461307704 0.6105573177 4290954457
-0.2883399129 -0.1452720016 0.6098001003 4292336110
-0.2883993983 -0.1446242929 0.6099258661 4291546336
-0.2880406082 -0.1437675357 0.6091670394 4291348957
-0.2868450880 -0.1424968094 0.6066387296 4293387770
-0.2856488526 -0.1412313432 0.6041088104 4294769407
-0.2840335369 -0.1397652775 0.6006926298 4293191161
-0.2811620831 -0.1376916617 0.5946199298 4290296269
-0.2799631655 -0.1364466697 0.5920844078 4289507266
-0.2783449590 -0.1350039393 0.5886620879 4291612642
-0.2767258286 -0.1335683912 0.5852378011 4290165194
-0.2771994472 -0.1331456304 0.5862394571 4288980920
-0.2772541940 -0.1325204521 0.5863552094 4290494161
-0.2781464756 -0.1322933584 0.5882422924 4290033610
-0.2786198854 -0.1318638325 0.5892434716 4289309636
-0.2790932059 -0.1314320415 0.5902445316 4289704394
-0.2795664668 -0.1309980005 0.5912454128 4289968084
-0.2804588675 -0.1307571381 0.5931326747 4288389052
-0.2813513279 -0.1305121332 0.5950201750 4287995817
-0.2822439075 -0.1302629560 0.5969077945 4288785333
-0.2827170789 -0.1298170239 0.5979084969 4289376195
-0.2836097181 -0.1295604706 0.5997962952 4289770953
-0.2845024168 -0.1292997748 0.6016842723 4290427606
-0.2853951752 -0.1290349066 0.6035723686 4290888157
-0.2862880230 -0.1287658662 0.6054605842 4290032846
-0.2871809304 -0.1284926683 0.6073489785 4289638088
-0.2880738974 -0.1282152981 0.6092374325 4289967817
-0.2885468900 -0.1277478188 0.6102378368 4290494161
-0.2894399166 -0.1274630576 0.6121264100 4289508293
-0.2899127901 -0.1269900799 0.6131265163 4289245121
-0.2903855741 -0.1265148371 0.6141263843 4288719037
-0.2912786007 -0.1262194663 0.6160149574 4290034897
-0.2917512357 -0.1257387251 0.6170145869 4289902802
-0.2922238111 -0.1252557337 0.6180139780 4289047493
-0.2931167781 -0.1249497384 0.6199024916 4288323766
-0.2935892045 -0.1244612485 0.6209015846 4288784317
-0.2944821715 -0.1241478473 0.6227901578 4288718524
-0.2949544489 -0.1236538738 0.6237888932 4288850110
-0.2954265773 -0.1231576279 0.6247874498 4288981696
-0.2963195145 -0.1228335947 0.6266758442 4288652731
-0.2967915237 -0.1223318502 0.6276740432 4288586938
-0.2968423367 -0.1216552854 0.6277815104 4288784317
-0.2968928814 -0.1209783703 0.6278883815 4289442760
-0.2969431579 -0.1203011125 0.6279947758 4289969104
-0.2969931662 -0.1196235120 0.6281005144 4290100690
-0.2970429063 -0.1189455688 0.6282057166 4289771725
-0.2970924079 -0.1182672903 0.6283103824 4289179588
-0.2975631058 -0.1177554578 0.6293058395 4288982209
-0.2971905768 -0.1169097126 0.6285179853 4288126900
-0.2968176305 -0.1160655543 0.6277292967 4287797935
-0.2964442968 -0.1152229905 0.6269397140 4286679454
-0.2960705459 -0.1143820211 0.6261492968 4287534763
-0.2952745855 -0.1133806854 0.6244659424 4288521658
-0.2953218520 -0.1127049029 0.6245659590 4288916416
-0.2953688502 -0.1120287925 0.6246653199 4288916416
-0.2949935794 -0.1111932844 0.6238716841 4288982209
-0.2954620719 -0.1106756106 0.6248624325 4289048770
-0.2959304154 -0.1101556793 0.6258529425 4289246149
-0.2963986397 -0.1096334979 0.6268431544 4289771976
-0.2968667150 -0.1091090664 0.6278330684 4290166734
-0.2969122827 -0.1084281430 0.6279294491 4291678684
-0.2759887874 -0.1744785607 0.5850533247 4293850879
-0.2760584354 -0.1738723814 0.5852009654 4294048255
-0.2761278450 -0.1732657403 0.5853481293 4294048255
-0.2757848203 -0.1724009365 0.5846209526 4294180095
-0.2758537233 -0.1717942953 0.5847669840 4294180095
-0.2759224176 -0.1711871922 0.5849125981 4293785087
-0.2759909034 -0.1705796421 0.5850577950 4293521916
-0.2760591507 -0.1699716300 0.5852025151 4293324024
-0.2761272192 -0.1693631709 0.5853468180 4293060852
-0.2761950791 -0.1687542796 0.5854906440 4292929268
-0.2762627006 -0.1681449115 0.5856339931 4292863475
-0.2763301432 -0.1675351113 0.5857769251 4293060854
-0.2763973475 -0.1669248641 0.5859194398 4293455612
-0.2764643729 -0.1663141847 0.5860614777 4293258233
-0.2765311599 -0.1657030433 0.5862030387 4292337131
-0.2765977383 -0.1650914699 0.5863441825 4291087066
-0.2766640782 -0.1644794494 0.5864848495 4290494929
-0.2767302394 -0.1638669968 0.5866250992 4289771206
-0.2772099078 -0.1634981185 0.5876418948 4288652725
-0.2772757113 -0.1628838778 0.5877814293 4287600037
-0.2777552605 -0.1625113785 0.5887979865 4287073693
-0.2782347798 -0.1621366143 0.5898144841 4286942107
-0.2783001363 -0.1615192145 0.5899530053 4286284177
-0.2787795067 -0.1611408293 0.5909692049 4285626253
-0.2792588472 -0.1607601643 0.5919853449 4286152597
-0.2797381580 -0.1603772193 0.5930014253 4286547096
-0.2810465097 -0.1604653597 0.5957748890 4287073440
-0.2806967199 -0.1596045196 0.5950334072 4288191920
-0.2820053697 -0.1596844047 0.5978075266 4289770952
-0.2824847400 -0.1592905223 0.5988237858 4291218399
-0.2833789885 -0.1591273397 0.6007194519 4291876329
-0.2838583887 -0.1587279737 0.6017357111 4291810538
-0.2843377590 -0.1583263129 0.6027518511 4291349987
-0.2848170996 -0.1579223871 0.6037679315 4290954459
-0.2852963805 -0.1575161815 0.6047839522 4290757080
-0.2857756019 -0.1571076810 0.6057998538 4290691285
-0.2862547934 -0.1566969007 0.6068156958 4290296527
-0.2867339551 -0.1562838554 0.6078314185 4290164941
-0.2867974043 -0.1556429416 0.6079658866 4290625492
-0.2872763574 -0.1552262455 0.6089811921 4291021020
-0.2877552509 -0.1548072696 0.6099964380 4291218399
-0.2882341146 -0.1543859988 0.6110115051 4291349985
-0.2882969081 -0.1537405998 0.6111446023 4291086813
-0.2887755334 -0.1533157080 0.6121592522 4291021022
-0.2888379395 -0.1526685357 0.6122915745 4291086815
-0.2889001071 -0.1520209461 0.6124233603 4291283422
-0.2885456681 -0.1511548311 0.6116719842 4291480801
-0.2886072695 -0.1505073458 0.6118025780 4290626262
-0.2882520854 -0.1496431977 0.6110496521 4288849851
-0.2878964841 -0.1487805098 0.6102958322 4288126387
-0.2879571915 -0.1481336504 0.6104245186 4288521145
-0.2876008451 -0.1472729594 0.6096690893 4288323766
-0.2876609862 -0.1466262192 0.6097965837 4288915903
-0.2873039246 -0.1457675248 0.6090396643 4290363090
-0.2869464159 -0.1449103057 0.6082817912 4289968332
-0.2870056629 -0.1442642361 0.6084074378 4289703614
-0.2862301767 -0.1432002783 0.6067634821 4291808990
-0.2854541242 -0.1421396881 0.6051183939 4294769663
-0.2842600644 -0.1408755928 0.6025871634 4294440703
-0.2826477587 -0.1394108385 0.5991693139 4292006367
-0.2801993489 -0.1375432611 0.5939791203 4289900991
-0.2785850465 -0.1360946894 0.5905570388 4289440958
-0.2769698501 -0.1346532702 0.5871330500 4291546334
-0.2753537297 -0.1332190335 0.5837071538 4289507266
-0.2754083872 -0.1325968206 0.5838230252 4288586164
-0.2758808434 -0.1321744919 0.5848245025 4290296270
-0.2763531804 -0.1317498982 0.5858258009 4290559442
-0.2768254876 -0.1313230544 0.5868269801 4290428117
-0.2772977054 -0.1308939457 0.5878279805 4290493910
-0.2777698338 -0.1304625869 0.5888288617 4290033877
-0.2786602974 -0.1302244961 0.5907165408 4287862708
-0.2795508504 -0.1299822479 0.5926043391 4287532964
-0.2804414928 -0.1297358274 0.5944923759 4287993515
-0.2813321948 -0.1294852644 0.5963805318 4288980410
-0.2822229862 -0.1292305440 0.5982688665 4289638340
-0.2831138670 -0.1289716512 0.6001573801 4291414751
-0.2835859060 -0.1285187602 0.6011580229 4292993783
-0.2844768167 -0.1282524914 0.6030466557 4292336110
-0.2857868373 -0.1281699836 0.6058236957 4291415008
-0.2866779566 -0.1278944165 0.6077127457 4290230734
-0.2871499658 -0.1274286658 0.6087132692 4289243839
-0.2876218557 -0.1269606352 0.6097136140 4289310402
-0.2880936265 -0.1264903396 0.6107137203 4289310402
-0.2889847457 -0.1262009591 0.6126027703 4290231504
-0.2894564271 -0.1257251799 0.6136026382 4291021020
-0.2903475463 -0.1254283935 0.6154916883 4290428883
-0.2908190787 -0.1249471232 0.6164912581 4289178816
-0.2912905216 -0.1244635880 0.6174905896 4287667117
-0.2917618155 -0.1239777878 0.6184897423 4288127668
-0.2922330499 -0.1234897226 0.6194885969 4288521658
-0.2931240797 -0.1231758520 0.6213774681 4288587451
-0.2931751013 -0.1225067824 0.6214856505 4288719037
-0.2940660715 -0.1221864745 0.6233744025 4288719037
-0.2941167355 -0.1215147898 0.6234817505 4288521656
-0.2941671312 -0.1208427548 0.6235885620 4288192691
-0.2942172587 -0.1201703846 0.6236948371 4287929262
-0.2942671180 -0.1194976643 0.6238005757 4288060848
-0.2943167388 -0.1188246012 0.6239057183 4288915903
-0.2943660915 -0.1181512028 0.6240103245 4289508040
-0.2948357463 -0.1176452935 0.6250059605 4289639369
-0.2948846519 -0.1169702560 0.6251096129 4289705162
-0.2945125103 -0.1161289886 0.6243208051 4289310404
-0.2941400111 -0.1152893156 0.6235311031 4288455095
-0.2937670946 -0.1144512370 0.6227405667 4287798958
-0.2933937609 -0.1136147603 0.6219491959 4286746270
-0.2925990224 -0.1126178503 0.6202644706 4287074210
-0.2926459312 -0.1119466275 0.6203638315 4288390070
-0.2931136787 -0.1114351898 0.6213554144 4288719039
-0.2927388847 -0.1106032133 0.6205609441 4288719039
-0.2932062447 -0.1100892052 0.6215516329 4289376454
-0.2936734557 -0.1095729396 0.6225420833 4289442247
-0.2941405475 -0.1090544239 0.6235322356 4290100169
-0.2946074903 -0.1085336655 0.6245220900 4290626513
-0.2942312360 -0.1077020466 0.6237245202 4292402659
-0.2746278942 -0.1701377928 0.5835423470 4292468715
-0.2746958733 -0.1695313901 0.5836868286 4292205543
-0.2747636437 -0.1689245552 0.5838308334 4291876578
-0.2748312056 -0.1683172584 0.5839744210 4291679199
-0.2753107250 -0.1679609567 0.5849932432 4291547613
-0.2753779590 -0.1673518568 0.5851361752 4291679199
-0.2754450142 -0.1667423099 0.5852786303 4291942371
-0.2755118310 -0.1661323160 0.5854206085 4291350236
-0.2755784392 -0.1655218750 0.5855621696 4290231755
-0.2756448388 -0.1649110019 0.5857032537 4288981688
-0.2757110298 -0.1642996818 0.5858438611 4288850102
-0.2757770121 -0.1636879295 0.5859840512 4288455603
-0.2758427560 -0.1630757302 0.5861237645 4287600294
-0.2763213515 -0.1627063006 0.5871406794 4287008157
-0.2763867676 -0.1620923281 0.5872796774 4286744985
-0.2768652141 -0.1617192775 0.5882962942 4286679192
-0.2769302726 -0.1611035019 0.5884345770 4286021262
-0.2774085701 -0.1607268155 0.5894508958 4286021265
-0.2778868377 -0.1603478789 0.5904671550 4286679195
-0.2783651054 -0.1599666476 0.5914833546 4287534504
-0.2788433135 -0.1595831513 0.5924994946 4289245122
-0.2793214917 -0.1591973752 0.5935155153 4290955226
-0.2797996402 -0.1588093340 0.5945315361 4292205293
-0.2802777588 -0.1584190130 0.5955474973 4292336879
-0.2811699510 -0.1582594812 0.5974432230 4291613156
-0.2816480696 -0.1578636914 0.5984591842 4290823641
-0.2825404704 -0.1576968282 0.6003553867 4290889434
-0.2830186188 -0.1572955400 0.6013714075 4290494676
-0.2839112282 -0.1571213454 0.6032680273 4290363090
-0.2843893766 -0.1567145735 0.6042840481 4290691285
-0.2852821648 -0.1565330327 0.6061810851 4290757078
-0.2853455842 -0.1558941752 0.6063158512 4290954712
-0.2858236134 -0.1554805487 0.6073315740 4291349470
-0.2863016129 -0.1550646424 0.6083472371 4292073708
-0.2867795527 -0.1546464562 0.6093627810 4292468466
-0.2872574329 -0.1542259753 0.6103782058 4292271600
-0.2877352536 -0.1538032144 0.6113935113 4291679463
-0.2877977192 -0.1531571597 0.6115262508 4291218912
-0.2878599763 -0.1525106877 0.6116585135 4290626775
-0.2879219651 -0.1518637985 0.6117902398 4289902539
-0.2875681818 -0.1509982795 0.6110385060 4289705160
-0.2876296341 -0.1503514946 0.6111690402 4288981950
-0.2868593633 -0.1492716223 0.6095323563 4288916157
-0.2865043283 -0.1484104842 0.6087779403 4288850623
-0.2865647972 -0.1477652639 0.6089064479 4289113795
-0.2866249979 -0.1471196413 0.6090344191 4289047489
-0.2866849899 -0.1464736015 0.6091618538 4289047489
-0.2863285840 -0.1456155181 0.6084045172 4289310915
-0.2855554819 -0.1445481926 0.6067618132 4288850364
-0.2856144905 -0.1439037621 0.6068872213 4289900742
-0.2848404050 -0.1428412795 0.6052423716 4292927220
-0.2840657234 -0.1417821646 0.6035962701 4294506495
-0.2824572623 -0.1403125077 0.6001785398 4294045951
-0.2808478773 -0.1388499886 0.5967588425 4293256434
-0.2788208127 -0.1371895671 0.5924516916 4292598504
-0.2772095203 -0.1357423067 0.5890279412 4292204518
-0.2755973339 -0.1343022138 0.5856022835 4291941346
-0.2744012773 -0.1330715269 0.5830608010 4288914614
-0.2744557858 -0.1324500144 0.5831766725 4288585649
-0.2745100558 -0.1318281442 0.5832920074 4290362060
-0.2749813795 -0.1314052939 0.5842934847 4290427853
-0.2754526436 -0.1309801787 0.5852948427 4291414497
-0.2755063772 -0.1303552985 0.5854090452 4291282911
-0.2763949335 -0.1301231831 0.5872970223 4289309382
-0.2772835493 -0.1298869103 0.5891852379 4287796143
-0.2781722546 -0.1296464801 0.5910735726 4287928234
-0.2790610492 -0.1294018924 0.5929621458 4288849336
-0.2803677320 -0.1293459088 0.5957386494 4289309887
-0.2808388472 -0.1289002299 0.5967397094 4289836231
-0.2817278802 -0.1286431551 0.5986286998 4292072938
-0.2821988761 -0.1281919926 0.5996295810 4293980927
-0.2835060954 -0.1281165034 0.6024072170 4293915135
-0.2843953371 -0.1278469265 0.6042966843 4292994040
-0.2852846086 -0.1275731772 0.6061862707 4291678950
-0.2857555747 -0.1271091402 0.6071869731 4289507781
-0.2862264216 -0.1266428530 0.6081874967 4288718265
-0.2866972089 -0.1261743009 0.6091877818 4289178816
-0.2871678472 -0.1257034689 0.6101878881 4290823641
-0.2880571187 -0.1254126728 0.6120774150 4291415778
-0.2885276675 -0.1249363571 0.6130772233 4290099918
-0.2894169390 -0.1246381551 0.6149668097 4289178816
-0.2898873389 -0.1241563484 0.6159663200 4288653242
-0.2899386287 -0.1234938204 0.6160753965 4288719035
-0.2904087603 -0.1230084449 0.6170743108 4288653242
-0.2908787727 -0.1225207970 0.6180729866 4288719035
-0.2913486362 -0.1220308915 0.6190714240 4288916157
-0.2913991511 -0.1213640869 0.6191787124 4288916157
-0.2918687463 -0.1208706051 0.6201765537 4288916157
-0.2914993763 -0.1200294495 0.6193916798 4289047743
-0.2915490866 -0.1193616167 0.6194972992 4288784571
-0.2915985584 -0.1186934486 0.6196024418 4288850364
-0.2916477323 -0.1180249304 0.6197069287 4289047232
-0.2916966677 -0.1173560843 0.6198109388 4289047232
-0.2921651304 -0.1168547943 0.6208063364 4289178818
-0.2917937636 -0.1160173789 0.6200172305 4289705162
-0.2918419242 -0.1153475195 0.6201195121 4290099918
-0.2914698124 -0.1145123392 0.6193289161 4290034125
-0.2910973132 -0.1136787459 0.6185373664 4289180611
-0.2907244265 -0.1128467694 0.6177450418 4288391095
-0.2903511226 -0.1120163873 0.6169518232 4288061105
-0.2903976738 -0.1113487631 0.6170507669 4287600554
-0.2908642888 -0.1108409986 0.6180422306 4288257973
-0.2909103930 -0.1101717651 0.6181402206 4289244868
-0.2913766801 -0.1096604541 0.6191310287 4289376708
-0.2914223373 -0.1089896262 0.6192280054 4289574087
-0.2918882966 -0.1084747836 0.6202180386 4290100167
-0.2919334471 -0.1078023538 0.6203140616 4290955476
-0.2915576398 -0.1069752499 0.6195154786 4293060074
-0.2725654840 -0.1795797050 0.5805301070 4292073959
-0.2733286321 -0.1768484414 0.5821555257 4292073957
-0.2733988166 -0.1762468666 0.5823050141 4292008164
-0.2734687924 -0.1756448299 0.5824540257 4291942373
-0.2731284499 -0.1747798920 0.5817291737 4292008166
-0.2731314003 -0.1709036827 0.5817354918 4292140005
-0.2731995285 -0.1702997983 0.5818805695 4291744992
-0.2732674479 -0.1696954668 0.5820252299 4291350234
-0.2733351588 -0.1690906733 0.5821694136 4291415512
-0.2734026611 -0.1684854329 0.5823131800 4291152340
-0.2734699547 -0.1678797603 0.5824565291 4290758352
-0.2735370398 -0.1672736257 0.5825994015 4290560973
-0.2736038864 -0.1666670442 0.5827417970 4290692304
-0.2736705542 -0.1660600305 0.5828837752 4290955476
-0.2737370133 -0.1654525697 0.5830252767 4290297546
-0.2738032341 -0.1648446620 0.5831663609 4289113272
-0.2738692760 -0.1642363220 0.5833070278 4288192172
-0.2743470073 -0.1638735831 0.5843245387 4287994793
-0.2744127214 -0.1632634550 0.5844644904 4287797673
-0.2744781971 -0.1626528800 0.5846039653 4287402915
-0.2749556899 -0.1622851640 0.5856209397 4287139743
-0.2750208378 -0.1616728008 0.5857596993 4286876571
-0.2754982114 -0.1613014638 0.5867764354 4286876571
-0.2755630314 -0.1606873125 0.5869144797 4286481813
-0.2760402262 -0.1603123546 0.5879309177 4286810780
-0.2765174210 -0.1599351317 0.5889472365 4288324019
-0.2769945860 -0.1595556289 0.5899635553 4289903051
-0.2770588398 -0.1589369774 0.5901003480 4292074220
-0.2775358260 -0.1585538536 0.5911163688 4293192188
-0.2780128121 -0.1581684500 0.5921322703 4293323774
-0.2784897685 -0.1577807665 0.5931481123 4292731637
-0.2789666951 -0.1573908031 0.5941638947 4291876328
-0.2798569500 -0.1572308242 0.5960600376 4291349984
-0.2807473540 -0.1570667028 0.5979564786 4291678949
-0.2812243700 -0.1566680670 0.5989724398 4291152859
-0.2821149826 -0.1564966142 0.6008693576 4290692308
-0.2830057442 -0.1563210189 0.6027665138 4290823124
-0.2834827900 -0.1559136808 0.6037825942 4290691538
-0.2839598060 -0.1555040628 0.6047985554 4290559954
-0.2844367623 -0.1550921500 0.6058144569 4290691540
-0.2849136889 -0.1546779722 0.6068302393 4290955227
-0.2853905559 -0.1542614996 0.6078459024 4291218399
-0.2858673632 -0.1538427323 0.6088614464 4290758361
-0.2863441408 -0.1534217000 0.6098768711 4290100431
-0.2864063680 -0.1527772695 0.6100094318 4289968845
-0.2864683568 -0.1521324366 0.6101414561 4289442501
-0.2865301073 -0.1514871716 0.6102730036 4288718778
-0.2861768901 -0.1506232023 0.6095206738 4288784571
-0.2858232260 -0.1497606784 0.6087674499 4289245122
-0.2858841121 -0.1491160542 0.6088970900 4289968845
-0.2855297327 -0.1482555121 0.6081423163 4290231763
-0.2851749361 -0.1473964453 0.6073866487 4290231763
-0.2852349281 -0.1467524618 0.6075143814 4290363349
-0.2852946520 -0.1461080611 0.6076416373 4290429142
-0.2849388123 -0.1452515274 0.6068837643 4289968845
-0.2845825553 -0.1443964690 0.6061249375 4289179329
-0.2846414149 -0.1437527537 0.6062502861 4290821592
-0.2838687897 -0.1426907927 0.6046047211 4293124347
-0.2826798856 -0.1414242238 0.6020724773 4293058806
-0.2814902067 -0.1401629150 0.5995386839 4292664048
-0.2798839509 -0.1387007684 0.5961174965 4293454331
-0.2778607905 -0.1370406151 0.5918084383 4294309631
-0.2762526274 -0.1355937272 0.5883832574 4293454585
-0.2750596702 -0.1343572736 0.5858423710 4290954451
-0.2738659680 -0.1331261098 0.5832999945 4288388781
-0.2739204168 -0.1325043738 0.5834159851 4288915125
-0.2739746571 -0.1318822503 0.5835314393 4289770436
-0.2744450867 -0.1314592510 0.5845334530 4288849334
-0.2749154866 -0.1310339868 0.5855352879 4289243839
-0.2749691606 -0.1304088831 0.5856496096 4289507011
-0.2758560181 -0.1301766932 0.5875384808 4289375945
-0.2763261497 -0.1297446489 0.5885398984 4289704910
-0.2772130966 -0.1295050830 0.5904289484 4289441473
-0.2781001031 -0.1292613596 0.5923181772 4289770438
-0.2794042230 -0.1292063296 0.5950958133 4289638852
-0.2802914977 -0.1289533228 0.5969855189 4290230989
-0.2807616293 -0.1285052150 0.5979868770 4292665844
-0.2816489637 -0.1282448471 0.5998767614 4294310655
-0.2825363278 -0.1279802918 0.6017667651 4293323774
-0.2834237814 -0.1277115792 0.6036569476 4292336879
-0.2843113244 -0.1274386942 0.6055472493 4292139500
-0.2847813070 -0.1269754469 0.6065483093 4290955226
-0.2856688797 -0.1266951561 0.6084386706 4289770953
-0.2861387730 -0.1262264252 0.6094394922 4289113023
-0.2866085470 -0.1257554293 0.6104400754 4290034125
-0.2874961197 -0.1254645288 0.6123304963 4290955227
-0.2879657745 -0.1249880344 0.6133308411 4289770953
-0.2884353399 -0.1245092750 0.6143309474 4288849851
-0.2889048159 -0.1240282506 0.6153308153 4289047489
-0.2893741429 -0.1235449538 0.6163304448 4289113282
-0.2894251645 -0.1228818223 0.6164391041 4289245122
-0.2898942232 -0.1223949492 0.6174381375 4289376708
-0.2895263731 -0.1215545014 0.6166546941 4289507780
-0.2895765901 -0.1208903193 0.6167616248 4289507780
-0.2896265686 -0.1202257946 0.6168680787 4289573573
-0.2896762788 -0.1195609272 0.6169739366 4289770952
-0.2893070579 -0.1187239066 0.6161875129 4289968332
-0.2893561721 -0.1180593148 0.6162921190 4290231504
-0.2902426720 -0.1177341715 0.6181802750 4290034127
-0.2902913988 -0.1170669869 0.6182841063 4289836748
-0.2903398871 -0.1163994670 0.6183873415 4289705160
-0.2903881073 -0.1157316118 0.6184900403 4289770953
-0.2904360592 -0.1150634214 0.6185922027 4290363089
-0.2900646031 -0.1142298356 0.6178010106 4290889433
-0.2896927297 -0.1133978441 0.6170089841 4290890457
-0.2893204391 -0.1125674620 0.6162160635 4289771976
-0.2889477909 -0.1117386892 0.6154223084 4288850364
-0.2889941633 -0.1110727340 0.6155210733 4287995055
-0.2890402675 -0.1104064584 0.6156193018 4287863215
-0.2890861034 -0.1097398698 0.6157169938 4288586938
-0.2887120545 -0.1089146510 0.6149202585 4289310402
-0.2887573242 -0.1082483977 0.6150166392 4289836746
-0.2888022959 -0.1075818315 0.6151124835 4290362825
-0.2888470292 -0.1069149524 0.6152077317 4291810271
-0.2709979415 -0.1808987707 0.5785600543 4292008166
-0.2710693181 -0.1803034246 0.5787124634 4291942373
-0.2711404860 -0.1797076166 0.5788643956 4291876580
-0.2712114751 -0.1791113317 0.5790159702 4291744994
-0.2712822556 -0.1785145700 0.5791670680 4291744994
-0.2713528275 -0.1779173613 0.5793177485 4291679201
-0.2718319893 -0.1775867194 0.5803406835 4291613408
-0.2719022632 -0.1769876778 0.5804907680 4291613408
-0.2715633810 -0.1761229187 0.5797672272 4291547613
-0.2720422447 -0.1757881790 0.5807895660 4291481820
-0.2721119225 -0.1751877517 0.5809383392 4291350234
-0.2721813917 -0.1745868474 0.5810866952 4291284441
-0.2722506821 -0.1739854962 0.5812345743 4291350234
-0.2723197341 -0.1733836681 0.5813820362 4291416027
-0.2723886073 -0.1727813929 0.5815290213 4291416027
-0.2720475495 -0.1719197482 0.5808009505 4291284441
-0.2721159160 -0.1713174731 0.5809468627 4291218903
-0.2717741430 -0.1704576463 0.5802171826 4291087317
-0.2718419731 -0.1698553711 0.5803620219 4290823890
-0.2719096243 -0.1692526340 0.5805064440 4290560718
-0.2719770372 -0.1686494648 0.5806503892 4290362824
-0.2720442414 -0.1680458486 0.5807938576 4290099652
-0.2717008293 -0.1671892256 0.5800607204 4289836480
-0.2717675269 -0.1665856093 0.5802031159 4289573308
-0.2722446620 -0.1662323028 0.5812216997 4289508030
-0.2723110318 -0.1656268984 0.5813634396 4289771202
-0.2723771930 -0.1650210470 0.5815047026 4289244858
-0.2724431753 -0.1644147635 0.5816455483 4288257963
-0.2725089192 -0.1638080329 0.5817859173 4287797414
-0.2729855776 -0.1634470224 0.5828035474 4287402656
-0.2730509937 -0.1628385037 0.5829432011 4287337122
-0.2731162012 -0.1622295380 0.5830824375 4287402915
-0.2731812000 -0.1616201550 0.5832211971 4287337122
-0.2736575007 -0.1612528116 0.5842380524 4286942364
-0.2737221718 -0.1606416404 0.5843760967 4286942364
-0.2741983235 -0.1602706760 0.5853926539 4286679192
-0.2746744752 -0.1598974317 0.5864092112 4287534503
-0.2751505971 -0.1595219225 0.5874256492 4290034637
-0.2752146721 -0.1589062512 0.5875625014 4291547876
-0.2756906450 -0.1585271209 0.5885786414 4292863736
-0.2761665881 -0.1581457108 0.5895947218 4292732150
-0.2762302160 -0.1575269103 0.5897305608 4291942634
-0.2767059803 -0.1571418792 0.5907463431 4291613156
-0.2780066729 -0.1572210938 0.5935232043 4291942121
-0.2772448957 -0.1561326385 0.5918968320 4293258235
-0.2789584696 -0.1564359516 0.5955551863 4294179327
-0.2794342935 -0.1560399532 0.5965710282 4293850367
-0.2803229392 -0.1558712423 0.5984682441 4293192440
-0.2812117040 -0.1556983888 0.6003656983 4292337133
-0.2816876173 -0.1552937031 0.6013817191 4290823894
-0.2821634710 -0.1548867375 0.6023976207 4290362573
-0.2830524743 -0.1547033191 0.6042956114 4290625745
-0.2835283279 -0.1542908549 0.6053115129 4290822871
-0.2840041220 -0.1538760960 0.6063272953 4290888664
-0.2844798863 -0.1534590721 0.6073430181 4290297297
-0.2845419943 -0.1528176218 0.6074756384 4289968332
-0.2850175500 -0.1523969620 0.6084908843 4290100431
-0.2850793004 -0.1517537385 0.6086227298 4289639880
-0.2851408124 -0.1511101127 0.6087540388 4289178816
-0.2847881317 -0.1502476931 0.6080011129 4289507781
-0.2844350636 -0.1493867189 0.6072472930 4290626262
-0.2840815783 -0.1485272050 0.6064926386 4290955227
-0.2837276757 -0.1476691663 0.6057370901 4291086813
-0.2837876379 -0.1470272243 0.6058651209 4291284192
-0.2838473916 -0.1463848650 0.6059926748 4291810538
-0.2843213677 -0.1459548771 0.6070045829 4292336882
-0.2835516036 -0.1448871344 0.6053612232 4291547877
-0.2831959128 -0.1440336257 0.6046018600 4290560982
-0.2836692631 -0.1436014920 0.6056123972 4292599025
-0.2828981280 -0.1425400674 0.6039660573 4293256955
-0.2817114890 -0.1412739456 0.6014326811 4291612129
-0.2805241346 -0.1400130838 0.5988977551 4291151578
-0.2785058916 -0.1383451223 0.5945889950 4293322745
-0.2769017518 -0.1368914396 0.5911642313 4293717503
-0.2757118940 -0.1356492192 0.5886240005 4291415261
-0.2745213211 -0.1344122887 0.5860822201 4289375678
-0.2737454176 -0.1333830357 0.5844256878 4290099403
-0.2733844221 -0.1325586587 0.5836549997 4290099403
-0.2734385729 -0.1319363117 0.5837706327 4290231503
-0.2739081383 -0.1315131634 0.5847731233 4289968331
-0.2739619315 -0.1308891177 0.5848879218 4290626264
-0.2748470604 -0.1306600720 0.5867776871 4290034127
-0.2753164172 -0.1302301288 0.5877797008 4290033873
-0.2757857144 -0.1297979206 0.5887815952 4291020768
-0.2766709328 -0.1295582950 0.5906715393 4290494675
-0.2775562704 -0.1293144822 0.5925616026 4289441987
-0.2784416974 -0.1290665269 0.5944519043 4288586678
-0.2797434628 -0.1290063709 0.5972310901 4289310401
-0.2806290984 -0.1287491173 0.5991218686 4292073707
-0.2810983360 -0.1282976270 0.6001237035 4293192188
-0.2819840312 -0.1280329973 0.6020146012 4291086812
-0.2824532092 -0.1275760233 0.6030161977 4290099917
-0.2833389640 -0.1273039877 0.6049072146 4291086812
-0.2842247486 -0.1270277947 0.6067983508 4291547363
-0.2846938074 -0.1265621036 0.6077997088 4291547364
-0.2855796516 -0.1262785047 0.6096909046 4291481571
-0.2860485613 -0.1258073300 0.6106920242 4290955227
-0.2865173817 -0.1253338903 0.6116929054 4290757848
-0.2874032259 -0.1250396520 0.6135841012 4290034125
-0.2878719270 -0.1245607138 0.6145847440 4289244609
-0.2879232168 -0.1238999441 0.6146942377 4289113023
-0.2883916199 -0.1234174296 0.6156942248 4289507781
-0.2884424925 -0.1227549911 0.6158028245 4290034125
-0.2884930968 -0.1220922098 0.6159108877 4290363090
-0.2877082825 -0.1210776195 0.6142354012 4290494676
-0.2873406112 -0.1202412918 0.6134504080 4290494676
-0.2873902321 -0.1195803508 0.6135563254 4290560469
-0.2874395847 -0.1189190745 0.6136617661 4290560469
-0.2874886990 -0.1182574481 0.6137666106 4290560468
-0.2879554927 -0.1177664176 0.6147631407 4291021019
-0.2884221375 -0.1172731146 0.6157594323 4290889433
-0.2884706259 -0.1166085601 0.6158629060 4290757847
-0.2885188460 -0.1159436703 0.6159658432 4290428882
-0.2885667980 -0.1152784452 0.6160682440 4289770952
-0.2890327871 -0.1147789955 0.6170630455 4290099917
-0.2886619270 -0.1139470041 0.6162713170 4290823640
-0.2882906795 -0.1131166145 0.6154787540 4291614180
-0.2879190445 -0.1122878343 0.6146853566 4290890457
-0.2875469923 -0.1114606634 0.6138910651 4289376707
-0.2871745527 -0.1106351092 0.6130959392 4288652984
-0.2872204185 -0.1099714711 0.6131938696 4288257973
-0.2868472636 -0.1091481820 0.6123971939 4288192180
-0.2864737213 -0.1083265096 0.6115996838 4289376194
-0.2860997617 -0.1075064614 0.6108013391 4289968331
-0.2861443758 -0.1068444774 0.6108965874 4290954961
-0.2857697308 -0.1060267165 0.6100966930 4292928751
-0.2696474195 -0.1804250926 0.5770450830 4292073959
-0.2697184980 -0.1798313409 0.5771971941 4292008166
-0.2697893679 -0.1792371273 0.5773488879 4291876580
-0.2698600590 -0.1786424369 0.5775001645 4291744994
-0.2699305415 -0.1780472845 0.5776509643 4291482335
-0.2700008452 -0.1774516702 0.5778014064 4291416542
-0.2704788744 -0.1771227419 0.5788244009 4291284956
-0.2705488801 -0.1765252948 0.5789741874 4291219163
-0.2702105045 -0.1756620258 0.5782500505 4291153368
-0.2702799737 -0.1750645638 0.5783987641 4291021782
-0.2707576454 -0.1747301668 0.5794209838 4290955476
-0.2708268166 -0.1741308719 0.5795690417 4290758097
-0.2708958089 -0.1735311300 0.5797166824 4290626511
-0.2709645927 -0.1729309112 0.5798638463 4290626511
-0.2710331678 -0.1723302454 0.5800105929 4290494925
-0.2711015344 -0.1717291325 0.5801569223 4290297546
-0.2711697221 -0.1711275429 0.5803028345 4290166215
-0.2704194784 -0.1700111181 0.5786972642 4290034629
-0.2704870105 -0.1694104522 0.5788418651 4289903043
-0.2705543637 -0.1688093394 0.5789859891 4289771457
-0.2706215084 -0.1682077795 0.5791296363 4289704894
-0.2706884444 -0.1676057577 0.5792728662 4289441722
-0.2707551718 -0.1670033038 0.5794156790 4289112757
-0.2704119682 -0.1661486626 0.5786812305 4288717999
-0.2708880007 -0.1657970697 0.5796999335 4288521135
-0.2709541023 -0.1651932746 0.5798413754 4288718514
-0.2710199952 -0.1645890474 0.5799823999 4288389551
-0.2710856795 -0.1639843732 0.5801230073 4287731621
-0.2711511552 -0.1633792669 0.5802630782 4287205277
-0.2712164223 -0.1627737284 0.5804027915 4287007898
-0.2716918886 -0.1624130905 0.5814202428 4287073950
-0.2717568278 -0.1618057489 0.5815592408 4287271329
-0.2718215585 -0.1611979753 0.5816977620 4287468708
-0.2722967565 -0.1608323604 0.5827146769 4287205536
-0.2727719545 -0.1604644656 0.5837316513 4286876573
-0.2728362381 -0.1598535627 0.5838691592 4286218643
-0.2733113170 -0.1594820470 0.5848858356 4287666087
-0.2737863362 -0.1591082662 0.5859023929 4290824151
-0.2738501728 -0.1584942192 0.5860389471 4291811048
-0.2743250430 -0.1581168026 0.5870552063 4291218911
-0.2743885517 -0.1575009823 0.5871911049 4290297809
-0.2748632729 -0.1571199447 0.5882070065 4289837258
-0.2749264240 -0.1565023512 0.5883421302 4290560468
-0.2758126557 -0.1563510448 0.5902386904 4292139500
-0.2762872875 -0.1559631824 0.5912544131 4293521407
-0.2771737576 -0.1558045596 0.5931514502 4294310911
-0.2776484191 -0.1554112136 0.5941672325 4294310911
-0.2785350978 -0.1552452445 0.5960646868 4294310911
-0.2794218957 -0.1550751328 0.5979624391 4293652991
-0.2803088427 -0.1549008936 0.5998605490 4291679201
-0.2807836235 -0.1544956416 0.6008765697 4290560722
-0.2816707790 -0.1543140560 0.6027750373 4290692308
-0.2821455598 -0.1539033055 0.6037910581 4290888664
-0.2826202810 -0.1534902751 0.6048070192 4290691285
-0.2826822996 -0.1528518200 0.6049396992 4290363090
-0.2831568420 -0.1524351537 0.6059552431 4290428883
-0.2828056216 -0.1515736580 0.6052036285 4290560469
-0.2832798660 -0.1511542946 0.6062185168 4289902539
-0.2829279900 -0.1502938271 0.6054655313 4289441988
-0.2821626067 -0.1492163390 0.6038275957 4289902539
-0.2822230458 -0.1485772580 0.6039569378 4290231504
-0.2818699479 -0.1477211714 0.6032012701 4290626262
-0.2819298208 -0.1470822096 0.6033294201 4290823641
-0.2815760076 -0.1462281197 0.6025722623 4291613157
-0.2820488811 -0.1458030790 0.6035842299 4292534259
-0.2825216949 -0.1453757435 0.6045960188 4292863224
-0.2821669877 -0.1445223242 0.6038369536 4292008428
-0.2818118632 -0.1436703652 0.6030769944 4291876842
-0.2818702459 -0.1430299282 0.6032019258 4294310143
-0.2815144062 -0.1421800107 0.6024404168 4294441727
-0.2803300023 -0.1409152746 0.5999057889 4292401895
-0.2791448534 -0.1396558136 0.5973695517 4292204516
-0.2775447071 -0.1381953508 0.5939452648 4293783807
-0.2759436369 -0.1367420405 0.5905190110 4292270568
-0.2751705348 -0.1357046515 0.5888645053 4289573059
-0.2739823163 -0.1344672292 0.5863217711 4289178301
-0.2732079923 -0.1334375888 0.5846647024 4290164941
-0.2732624114 -0.1328144222 0.5847811699 4290099148
-0.2733165920 -0.1321908981 0.5848971009 4290297299
-0.2737853527 -0.1317666471 0.5859002471 4290363092
-0.2738391459 -0.1311414391 0.5860154033 4292468468
-0.2743076980 -0.1307135969 0.5870180726 4292731640
-0.2747761607 -0.1302835047 0.5880206227 4291152606
-0.2756597400 -0.1300470084 0.5899114013 4291415778
-0.2765433490 -0.1298063397 0.5918024182 4291481056
-0.2774270773 -0.1295615137 0.5936935544 4290033610
-0.2783108652 -0.1293125153 0.5955848694 4288125613
-0.2791947424 -0.1290593445 0.5974763632 4288717750
-0.2800786793 -0.1288020164 0.5993679762 4290954712
-0.2809626758 -0.1285405159 0.6012597680 4291744228
-0.2814310789 -0.1280856282 0.6022620797 4290099918
-0.2818993628 -0.1276284903 0.6032642126 4289376195
-0.2827834189 -0.1273563653 0.6051561236 4289639367
-0.2832515836 -0.1268937439 0.6061580181 4290626262
-0.2841356695 -0.1266142130 0.6080499887 4291349985
-0.2846037447 -0.1261460930 0.6090516448 4292073708
-0.2850717008 -0.1256756932 0.6100530624 4291218399
-0.2855395675 -0.1252030283 0.6110543013 4290955227
-0.2864236534 -0.1249096543 0.6129462123 4291152606
-0.2868914008 -0.1244314983 0.6139471531 4290231504
-0.2865260839 -0.1235917881 0.6131654382 4290034124
-0.2865769267 -0.1229323298 0.6132742167 4289968331
-0.2862109244 -0.1220947951 0.6124909520 4290231504
-0.2862611711 -0.1214355975 0.6125985384 4290757848
-0.2858944237 -0.1206002459 0.6118136644 4291021022
-0.2855272591 -0.1197664738 0.6110279560 4290889436
-0.2851597071 -0.1189342812 0.6102414131 4290757848
-0.2852087319 -0.1182765886 0.6103463173 4290757848
-0.2848404646 -0.1174466014 0.6095582247 4291547617
-0.2857231498 -0.1171311885 0.6114470959 4292205547
-0.2866058350 -0.1168115810 0.6133360863 4292402408
-0.2870712876 -0.1163187250 0.6143321991 4292270822
-0.2871193290 -0.1156555042 0.6144349575 4291810017
-0.2871670723 -0.1149919480 0.6145371795 4291086294
-0.2872145772 -0.1143280640 0.6146388054 4290954710
-0.2872618437 -0.1136638448 0.6147398949 4291152089
-0.2868912220 -0.1128350645 0.6139467955 4291679714
-0.2869378626 -0.1121711656 0.6140466332 4292403437
-0.2865665257 -0.1113446280 0.6132519841 4290824153
-0.2861948013 -0.1105197147 0.6124565005 4289376707
-0.2854048014 -0.1095360368 0.6107658744 4289047489
-0.2850322127 -0.1087153181 0.6099685431 4288981696
-0.2842412293 -0.1077377871 0.6082758307 4289705159
-0.2842858732 -0.1070787609 0.6083713174 4290428882
-0.2839120924 -0.1062629223 0.6075714827 4292336612
-0.2682995200 -0.1799508929 0.5755285025 4292073959
-0.2683702707 -0.1793587357 0.5756803155 4291942373
-0.2684408724 -0.1787661165 0.5758317113 4291810787
-0.2685112357 -0.1781730354 0.5759826899 4291744994
-0.2685814500 -0.1775794774 0.5761332512 4291482333
-0.2690584660 -0.1772536188 0.5771565437 4291416540
-0.2691283822 -0.1766582429 0.5773065090 4291350749
-0.2691980600 -0.1760624051 0.5774559975 4291153370
-0.2692675591 -0.1754660904 0.5776050687 4290955989
-0.2693368495 -0.1748693287 0.5777537227 4290758610
-0.2694059610 -0.1742720902 0.5779019594 4290692304
-0.2690671682 -0.1734116673 0.5771752596 4290494925
-0.2695435584 -0.1730762571 0.5781971216 4290363339
-0.2696120441 -0.1724776626 0.5783440471 4290231753
-0.2692723572 -0.1716185808 0.5776153207 4289968581
-0.2693403363 -0.1710199714 0.5777611732 4289705409
-0.2694081068 -0.1704209149 0.5779065490 4289508285
-0.2690673769 -0.1695640981 0.5771756768 4289310906
-0.2691346407 -0.1689650416 0.5773199797 4289113527
-0.2687932253 -0.1681100577 0.5765875578 4288916148
-0.2688599825 -0.1675110161 0.5767307878 4288849585
-0.2689265311 -0.1669115424 0.5768735409 4288454827
-0.2689928710 -0.1663116068 0.5770158172 4287928998
-0.2694679201 -0.1659630835 0.5780348778 4287600033
-0.2695339620 -0.1653613597 0.5781764984 4287534240
-0.2695997655 -0.1647591889 0.5783177018 4287797412
-0.2696653903 -0.1641565710 0.5784584880 4287731621
-0.2697308064 -0.1635535359 0.5785987973 4287402656
-0.2697960138 -0.1629500389 0.5787386298 4287139484
-0.2698609829 -0.1623461246 0.5788780451 4287139484
-0.2703353763 -0.1619872004 0.5798956156 4287139743
-0.2704000473 -0.1613814831 0.5800343156 4287073950
-0.2704644799 -0.1607753336 0.5801725984 4287468708
-0.2709386349 -0.1604114473 0.5811896920 4287731880
-0.2714127302 -0.1600452662 0.5822066665 4287534501
-0.2714767456 -0.1594359875 0.5823439956 4286547606
-0.2719507217 -0.1590662003 0.5833607316 4286679194
-0.2724246979 -0.1586941332 0.5843774080 4289376707
-0.2724882364 -0.1580817252 0.5845137239 4290363602
-0.2729620636 -0.1577060372 0.5855301023 4289310914
-0.2730252743 -0.1570918411 0.5856657624 4289310914
-0.2734989226 -0.1567125320 0.5866817832 4289705672
-0.2735618055 -0.1560965627 0.5868166685 4289837258
-0.2740353346 -0.1557136327 0.5878323913 4290232016
-0.2749197483 -0.1555609405 0.5897295475 4291218652
-0.2753932774 -0.1551725268 0.5907453299 4291942375
-0.2758667767 -0.1547818333 0.5917609930 4292271340
-0.2767514586 -0.1546186060 0.5936587453 4292731891
-0.2776362896 -0.1544512510 0.5955567956 4292468719
-0.2785212696 -0.1542797536 0.5974551439 4291152859
-0.2789948881 -0.1538771689 0.5984711051 4290494929
-0.2798800468 -0.1536983103 0.6003698707 4290889687
-0.2803536654 -0.1532902271 0.6013858318 4290955227
-0.2808272541 -0.1528798491 0.6024017334 4290757848
-0.2808889151 -0.1522439569 0.6025339961 4290889433
-0.2809503376 -0.1516076475 0.6026657820 4291086812
-0.2810115516 -0.1509709358 0.6027970314 4290560981
-0.2810725272 -0.1503337920 0.6029278636 4289442500
-0.2807210386 -0.1494767368 0.6021739244 4288652985
-0.2799568474 -0.1484025866 0.6005346179 4288718778
-0.2796044648 -0.1475494057 0.5997787118 4289179329
-0.2796641588 -0.1469143629 0.5999067426 4289837259
-0.2801361978 -0.1464946717 0.6009193063 4290034638
-0.2797828317 -0.1456430703 0.6001613736 4290758361
-0.2802545726 -0.1452206820 0.6011732817 4291482084
-0.2807262540 -0.1447960287 0.6021850705 4291218912
-0.2803720236 -0.1439450979 0.6014252305 4290627032
-0.2800174057 -0.1430956423 0.6006645560 4292469236
-0.2800754607 -0.1424577981 0.6007890701 4294638589
-0.2797200978 -0.1416103691 0.6000267863 4294835967
-0.2789510787 -0.1405562162 0.5983771682 4293915385
-0.2781814933 -0.1395054311 0.5967262983 4294112764
-0.2765844464 -0.1380453259 0.5933005214 4293388790
-0.2754000425 -0.1367978007 0.5907598138 4290625484
-0.2746284902 -0.1357600093 0.5891047716 4288980409
-0.2742700279 -0.1349291354 0.5883358717 4288651444
-0.2734974325 -0.1338972002 0.5866785049 4288717238
-0.2735519409 -0.1332719177 0.5867954493 4289243582
-0.2736062109 -0.1326462626 0.5869119167 4289309634
-0.2736602724 -0.1320202351 0.5870278478 4289243841
-0.2741281688 -0.1315926164 0.5880315900 4291480801
-0.2745960057 -0.1311627328 0.5890350938 4293454591
-0.2750637829 -0.1307305992 0.5900384784 4293323258
-0.2759457827 -0.1304921210 0.5919305086 4292402156
-0.2764134705 -0.1300544888 0.5929337144 4291415263
-0.2772955596 -0.1298086196 0.5948259234 4291217884
-0.2781777382 -0.1295585930 0.5967183113 4288915129
-0.2790600061 -0.1293043941 0.5986108184 4289112508
-0.2795276046 -0.1288548410 0.5996138453 4290099403
-0.2799951136 -0.1284030229 0.6006166935 4290494161
-0.2808774114 -0.1281382143 0.6025093198 4290165711
-0.2817597687 -0.1278692186 0.6044020653 4289441988
-0.2822271585 -0.1274086982 0.6054046750 4288520886
-0.2826944888 -0.1269458830 0.6064071059 4289902539
-0.2831616700 -0.1264808178 0.6074092984 4290363090
-0.2836287916 -0.1260134727 0.6084113121 4290231504
-0.2840957940 -0.1255438626 0.6094130874 4289639367
-0.2845627069 -0.1250719726 0.6104146838 4290823641
-0.2850295305 -0.1245978251 0.6114160419 4292271087
-0.2854962349 -0.1241214052 0.6124171615 4290955227
-0.2851315439 -0.1232832819 0.6116349101 4290560722
-0.2847664654 -0.1224467307 0.6108517647 4289968585
-0.2848167717 -0.1217895448 0.6109596491 4290099917
-0.2844509780 -0.1209551767 0.6101749539 4291218398
-0.2840847671 -0.1201223806 0.6093894243 4291876329
-0.2837181687 -0.1192911640 0.6086030006 4291678950
-0.2833511531 -0.1184615269 0.6078157425 4291678433
-0.2838160694 -0.1179794595 0.6088130474 4291875812
-0.2838646173 -0.1173230931 0.6089171767 4292928751
-0.2843292356 -0.1168374643 0.6099138260 4293981439
-0.2852101028 -0.1165196747 0.6118033528 4294442239
-0.2856745422 -0.1160285547 0.6127996445 4294376447
-0.2861388922 -0.1155351773 0.6137956977 4294047230
-0.2861865163 -0.1148723289 0.6138979197 4293652472
-0.2862339020 -0.1142091453 0.6139995456 4292994544
-0.2858643234 -0.1133803651 0.6132067442 4292205028
-0.2854943275 -0.1125531867 0.6124130487 4291877091
-0.2855407894 -0.1118909568 0.6125127673 4292798193
-0.2851700783 -0.1110660285 0.6117175221 4292929529
-0.2843820155 -0.1100813150 0.6100270152 4291350497
-0.2835933864 -0.1091001481 0.6083353758 4289837259
-0.2828042507 -0.1081225350 0.6066426039 4289574087
-0.2820146084 -0.1071484908 0.6049486995 4290428366
-0.2820589244 -0.1064930782 0.6050437689 4291744226
-0.2669541836 -0.1794761717 0.5740102530 4292008166
-0.2670246661 -0.1788856238 0.5741617680 4291876580
-0.2670949399 -0.1782945991 0.5743129253 4291744994
-0.2671650350 -0.1777031273 0.5744636059 4291679201
-0.2672349215 -0.1771111637 0.5746138692 4291416027
-0.2673046291 -0.1765187532 0.5747637749 4291416027
