VERSION 0.7
FIELDS x y z rgba
SIZE 4 4 4 4
TYPE F F F U
COUNT 1 1 1 1
WIDTH 920
HEIGHT 1
VIEWPOINT 0.0 0.0 0.0 1.0 0.0 0.0 0.0
POINTS 920
DATA ascii
-0.3336589336 -0.1117315888 0.5068300962 4280692582
-0.3342548013 -0.1113669947 0.5077352524 4281612908
-0.3343096673 -0.1108210534 0.5078185797 4282928768
-0.3343642652 -0.1102748364 0.5079015493 4285560486
-0.3344186246 -0.1097283587 0.5079841018 4288257999
-0.3344727457 -0.1091816127 0.5080662966 4288784855
-0.3345265687 -0.1086345986 0.5081480742 4286811065
-0.3351215720 -0.1082622260 0.5090518594 4280890725
-0.3351750076 -0.1077138036 0.5091330409 4280298588
-0.3352281749 -0.1071651205 0.5092138052 4280232552
-0.3358227313 -0.1067884117 0.5101169944 4279837794
-0.3364172280 -0.1064096689 0.5110200047 4279574891
-0.3370116055 -0.1060288996 0.5119228959 4279640684
-0.3370640278 -0.1054765135 0.5120024681 4279443820
-0.3376581669 -0.1050925627 0.5129050016 4279443820
-0.3377101421 -0.1045387760 0.5129839182 4279378792
-0.3377618492 -0.1039847359 0.5130624771 4279312999
-0.3383555412 -0.1035964563 0.5139642954 4279247209
-0.3389491439 -0.1032061502 0.5148659945 4279247209
-0.3395426273 -0.1028138101 0.5157675147 4279377520
-0.3395935595 -0.1022560894 0.5158448815 4279377520
-0.3401867747 -0.1018605754 0.5167459846 4279509359
-0.3402372301 -0.1013014615 0.5168226361 4279443566
-0.3408301771 -0.1009027734 0.5177233219 4279509096
-0.3414230049 -0.1005020514 0.5186238289 4279509096
-0.3420157433 -0.1000992954 0.5195241570 4279575657
-0.3420653939 -0.0995365158 0.5195996165 4282602135
-0.3426578343 -0.0991305932 0.5204995275 4284380826
-0.3437932730 -0.0988788456 0.5222242475 4285170342
-0.3449287415 -0.0986232832 0.5239490271 4285369002
-0.3460642695 -0.0983638912 0.5256739259 4285829553
-0.3482865095 -0.0984077230 0.5290495157 4286093236
-0.3510525525 -0.0985967815 0.5332511663 4286356408
-0.3538190424 -0.0987766311 0.5374534726 4286094528
-0.3565860391 -0.0989472792 0.5416565537 4286160321
-0.3593535125 -0.0991087183 0.5458603501 4286358728
-0.3621214330 -0.0992609486 0.5500648618 4286358728
-0.3643459976 -0.0992558077 0.5534440279 4285504188
-0.3676586449 -0.0995377377 0.5584759116 4285175223
-0.3698839843 -0.0995159522 0.5618562102 4285042090
-0.3721096218 -0.0994867310 0.5652369857 4284186781
-0.3732473552 -0.0991609693 0.5669651628 4283788677
-0.3743850589 -0.0988313705 0.5686933994 4281946473
-0.3749785423 -0.0983551815 0.5695949197 4279377454
-0.3439172506 -0.1322225332 0.5232954621 4279121049
-0.3402193785 -0.1302256882 0.5176688433 4279121049
-0.3381325603 -0.1288552731 0.5144936442 4279120018
-0.3360446990 -0.1274915338 0.5113167763 4279054225
-0.3355691135 -0.1267437935 0.5105931759 4279185033
-0.3345552385 -0.1257952601 0.5090504289 4279119240
-0.3351545930 -0.1254540235 0.5099624395 4278724474
-0.3352158666 -0.1249102429 0.5100556612 4278921853
-0.3342005610 -0.1239669174 0.5085107684 4279052407
-0.3337228596 -0.1232255399 0.5077839494 4279315579
-0.3343214691 -0.1228813678 0.5086947083 4279380341
-0.3338430822 -0.1221411601 0.5079668760 4279248755
-0.3339028358 -0.1215985268 0.5080577731 4279314288
-0.3339623213 -0.1210556105 0.5081483126 4279116909
-0.3340215981 -0.1205123961 0.5082384944 4279509854
-0.3335417509 -0.1197753996 0.5075083971 4279575647
-0.3336004317 -0.1192324907 0.5075976253 4278917199
-0.3336588442 -0.1186892986 0.5076865554 4281351540
-0.3337170184 -0.1181458160 0.5077750683 4285758894
-0.3337749541 -0.1176020503 0.5078632236 4287337926
-0.3332933486 -0.1168688983 0.5071303844 4287666626
-0.3333506882 -0.1163254529 0.5072176456 4287600833
-0.3328682780 -0.1155943722 0.5064836144 4287205814
-0.3329250216 -0.1150512472 0.5065699816 4286218919
-0.3329815269 -0.1145078465 0.5066559315 4287337400
-0.3330377936 -0.1139641628 0.5067415237 4288982225
-0.3330937922 -0.1134202108 0.5068267584 4287929796
-0.3331495523 -0.1128759831 0.5069116354 4286416557
-0.3332050741 -0.1123314798 0.5069960952 4286483124
-0.3332603276 -0.1117867082 0.5070801377 4286877882
-0.3333153427 -0.1112416610 0.5071638823 4287863492
-0.3333700895 -0.1106963530 0.5072471499 4288587215
-0.3339650035 -0.1103292927 0.5081523657 4288850389
-0.3340193331 -0.1097825617 0.5082350373 4288916182
-0.3340734243 -0.1092355624 0.5083173513 4287797961
-0.3341272771 -0.1086883023 0.5083992481 4282863486
-0.3341808617 -0.1081407741 0.5084807873 4279245904
-0.3347750306 -0.1077670753 0.5093848705 4280167006
-0.3353691101 -0.1073913500 0.5102887750 4280035173
-0.3354220986 -0.1068412662 0.5103694201 4279706208
-0.3354748189 -0.1062909141 0.5104497075 4279443816
-0.3360684812 -0.1059108600 0.5113529563 4279575402
-0.3366620541 -0.1055287644 0.5122561455 4279312748
-0.3372555375 -0.1051446423 0.5131591558 4279312748
-0.3373074830 -0.1045905948 0.5132381916 4279378793
-0.3373591900 -0.1040362939 0.5133168697 4279378793
-0.3379522264 -0.1036478430 0.5142192245 4279247207
-0.3385451734 -0.1032573581 0.5151214004 4279313000
-0.3391380012 -0.1028648391 0.5160234571 4279443567
-0.3397307694 -0.1024702787 0.5169253945 4279443567
-0.3397814929 -0.1019111574 0.5170025826 4279443566
-0.3403739333 -0.1015134230 0.5179040432 4279443566
-0.3404242396 -0.1009529084 0.5179805756 4279509096
-0.3410164118 -0.1005520001 0.5188816190 4279574889
-0.3416084647 -0.1001490653 0.5197824836 4279180644
-0.3422004282 -0.0997440964 0.5206831694 4282601880
-0.3427923024 -0.0993370861 0.5215837359 4285038504
-0.3433840275 -0.0989280492 0.5224841237 4286025399
-0.3445182145 -0.0986723751 0.5242098570 4286487231
-0.3456524312 -0.0984128639 0.5259356499 4286881989
-0.3478720784 -0.0984567329 0.5293130279 4286816707
-0.3495493233 -0.0983404964 0.5318650603 4286882500
-0.3528552949 -0.0986740515 0.5368953347 4286028735
-0.3556189537 -0.0988456905 0.5411004424 4285765563
-0.3583830893 -0.0990081206 0.5453062654 4285832384
-0.3611477017 -0.0991613343 0.5495128632 4285898177
-0.3666285276 -0.1000464112 0.5578523278 4284846258
-0.3688511848 -0.1000293642 0.5612342954 4284648879
-0.3721607625 -0.1002977192 0.5662699938 4284910504
-0.3711239100 -0.0993908793 0.5646923780 4283923609
-0.3733471632 -0.0993551165 0.5680752397 4283460225
-0.3739401400 -0.0988807380 0.5689774752 4281749607
-0.3734457791 -0.0981186777 0.5682252645 4279246126
-0.3745819628 -0.0977839381 0.5699540973 4279180333
-0.3423656821 -0.1324286163 0.5218164325 4279120279
-0.3429668546 -0.1320803612 0.5227327347 4279317399
-0.3392733932 -0.1300834268 0.5171033740 4279317399
-0.3371890485 -0.1287132353 0.5139265060 4279316369
-0.3361777067 -0.1277578920 0.5123850703 4279250576
-0.3351657391 -0.1268057227 0.5108426809 4279316106
-0.3352275789 -0.1262614280 0.5109369159 4279184520
-0.3342145085 -0.1253138930 0.5093928576 4278921599
-0.3337382376 -0.1245701537 0.5086669326 4278921599
-0.3337990344 -0.1240275800 0.5087596178 4278987129
-0.3333219886 -0.1232858673 0.5080325007 4279052922
-0.3333822191 -0.1227435768 0.5081242919 4279249525
-0.3334421813 -0.1222009957 0.5082157254 4279052146
-0.3335019052 -0.1216581240 0.5083067417 4279380594
-0.3335614204 -0.1211149544 0.5083974600 4279314801
-0.3330825567 -0.1203770339 0.5076676011 4279707490
-0.3331414461 -0.1198341623 0.5077573657 4279641697
-0.3332000971 -0.1192910075 0.5078467727 4279443541
-0.3332585096 -0.1187475696 0.5079358220 4279246162
-0.3333166838 -0.1182038411 0.5080244541 4281284970
-0.3328360319 -0.1174697503 0.5072918534 4283324553
-0.3328936100 -0.1169263348 0.5073795915 4286482352
-0.3324121833 -0.1161943227 0.5066458583 4287535040
-0.3324691653 -0.1156512275 0.5067327023 4288587467
-0.3325259089 -0.1151078492 0.5068191886 4288653260
-0.3325824142 -0.1145641953 0.5069053173 4289113810
-0.3326386511 -0.1140202731 0.5069910288 4289048017
-0.3326946497 -0.1134760678 0.5070763826 4288785612
-0.3327504098 -0.1129315868 0.5071613193 4288982991
-0.3328059018 -0.1123868376 0.5072459579 4288983505
-0.3328611553 -0.1118418127 0.5073301196 4288983505
-0.3334557116 -0.1114769056 0.5082363486 4288982224
-0.3335105479 -0.1109304577 0.5083199143 4288850638
-0.3335651457 -0.1103837416 0.5084031224 4288127175
-0.3336194754 -0.1098367572 0.5084859133 4285232283
-0.3336735368 -0.1092895046 0.5085683465 4281943154
-0.3342673779 -0.1089179441 0.5094734430 4280166743
-0.3343210518 -0.1083692759 0.5095552206 4280166751
-0.3343744576 -0.1078203470 0.5096366405 4280561509
-0.3349678814 -0.1074444503 0.5105410814 4279838566
-0.3350208402 -0.1068941057 0.5106218457 4279509601
-0.3350735903 -0.1063435003 0.5107021928 4279443816
-0.3356665671 -0.1059632748 0.5116060376 4279575402
-0.3357188702 -0.1054112613 0.5116857290 4279313002
-0.3368523121 -0.1051967070 0.5134132504 4279313002
-0.3369042575 -0.1046424061 0.5134924650 4279313259
-0.3369559646 -0.1040878445 0.5135712028 4279313259
-0.3375483155 -0.1036992148 0.5144740939 4279313000
-0.3381406069 -0.1033085510 0.5153768063 4279313000
-0.3387327790 -0.1029158533 0.5162793994 4279443567
-0.3393248916 -0.1025211141 0.5171818137 4279443567
-0.3399168551 -0.1021243483 0.5180841088 4279509100
-0.3399673998 -0.1015638188 0.5181611180 4279574893
-0.3405590951 -0.1011638716 0.5190629959 4279574891
-0.3406091928 -0.1006019488 0.5191392899 4279640684
-0.3412005901 -0.1001988202 0.5200406909 4278851681
-0.3417918980 -0.0997936651 0.5209419727 4282075538
-0.3423831165 -0.0993864685 0.5218430161 4285038505
-0.3435160220 -0.0991336107 0.5235697627 4285762228
-0.3446489573 -0.0988769159 0.5252965093 4286289855
-0.3457819521 -0.0986164063 0.5270233750 4286289855
-0.3474570513 -0.0985057354 0.5295764804 4285698745
-0.3491322994 -0.0983894467 0.5321298242 4285501366
-0.3513499796 -0.0984194204 0.5355098844 4284909999
-0.3546525240 -0.0987439454 0.5405434370 4284515241
-0.3574133515 -0.0989073664 0.5447513461 4284713903
-0.3601746261 -0.0990615636 0.5489599705 4284977075
-0.3629363775 -0.0992065370 0.5531692505 4283990950
-0.3656985760 -0.0993422791 0.5573793054 4283990950
-0.3679185510 -0.0993222967 0.5607628822 4284910250
-0.3706815839 -0.0994404629 0.5649741292 4284054941
-0.3718166351 -0.0991153121 0.5667040944 4283591813
-0.3729516864 -0.0987863094 0.5684341192 4281749609
-0.3740867078 -0.0984534621 0.5701640844 4279246126
-0.3730496764 -0.0975487977 0.5685834885 4279246126
-0.3414810598 -0.1317311674 0.5213507414 4279382932
-0.3383280933 -0.1299409419 0.5165370107 4279317139
-0.3367825150 -0.1287760437 0.5141772628 4279382160
-0.3357724547 -0.1278202534 0.5126351714 4279250574
-0.3358347118 -0.1272742748 0.5127302408 4279250568
-0.3348235786 -0.1263231188 0.5111865401 4279184775
-0.3343484700 -0.1255767047 0.5104611516 4279052156
-0.3344097137 -0.1250324398 0.5105546117 4279117949
-0.3339338303 -0.1242880598 0.5098280907 4279183480
-0.3334574997 -0.1235451251 0.5091008544 4279315066
-0.3335177898 -0.1230017170 0.5091929436 4279643768
-0.3330406845 -0.1222608238 0.5084645152 4279380596
-0.3331004083 -0.1217177063 0.5085557103 4279577714
-0.3326225281 -0.1209788546 0.5078260899 4279643507
-0.3326816559 -0.1204360276 0.5079163909 4279575645
-0.3327405453 -0.1198929176 0.5080063343 4279312473
-0.3327991962 -0.1193495169 0.5080958605 4282338432
-0.3323198557 -0.1186138988 0.5073640347 4283917464
-0.3323779106 -0.1180708036 0.5074526668 4282995842
-0.3318978250 -0.1173372492 0.5067196488 4279771985
-0.3319552839 -0.1167944670 0.5068073869 4281218399
-0.3320125043 -0.1162514091 0.5068947673 4282863224
-0.3320694864 -0.1157080680 0.5069817305 4284770705
-0.3321262002 -0.1151644439 0.5070683956 4286020772
-0.3321827054 -0.1146205440 0.5071545839 4287270841
-0.3322389424 -0.1140763685 0.5072404742 4287731392
-0.3322949111 -0.1135319099 0.5073259473 4287534527
-0.3323506415 -0.1129871830 0.5074110031 4287337148
-0.3324061334 -0.1124421805 0.5074957013 4286745524
-0.3330002129 -0.1120782644 0.5084027052 4286219180
-0.3330552876 -0.1115318388 0.5084868073 4285165979
-0.3331100941 -0.1109851375 0.5085704923 4283915912
-0.3331646621 -0.1104381680 0.5086538196 4281481573
-0.3332189918 -0.1098909304 0.5087367296 4280757850
-0.3338123262 -0.1095203608 0.5096426606 4283521416
-0.3338662386 -0.1089717075 0.5097249150 4284179346
-0.3344593346 -0.1085979417 0.5106304288 4281482611
-0.3345128298 -0.1080478653 0.5107120872 4280035165
-0.3345660567 -0.1074975356 0.5107933283 4280035175
-0.3346190155 -0.1069469377 0.5108742118 4279706210
-0.3352115154 -0.1065676808 0.5117788315 4279509609
-0.3352640867 -0.1060156748 0.5118590593 4279575402
-0.3353163600 -0.1054634079 0.5119388700 4279313002
-0.3359084427 -0.1050798222 0.5128428340 4279313002
-0.3359602988 -0.1045261547 0.5129219890 4279378795
-0.3360118866 -0.1039722264 0.5130007863 4279313002
-0.3371438086 -0.1037505791 0.5147289038 4279443816
-0.3377354443 -0.1033597365 0.5156321526 4279443816
-0.3383269608 -0.1029668599 0.5165352821 4279443567
-0.3389183879 -0.1025719419 0.5174382329 4279443567
-0.3395097256 -0.1021749899 0.5183410048 4279574893
-0.3395602405 -0.1016141996 0.5184181333 4279574893
-0.3401512802 -0.1012140661 0.5193205476 4279640684
-0.3402013779 -0.1006518751 0.5193969607 4279706477
-0.3407921195 -0.1002485678 0.5202988982 4278984037
-0.3413827717 -0.0998432264 0.5212006569 4281747343
-0.3419733047 -0.0994358435 0.5221022367 4285039017
-0.3425637484 -0.0990264267 0.5230036974 4285631154
-0.3436953127 -0.0987705216 0.5247312784 4286158781
-0.3448269069 -0.0985107869 0.5264589787 4285764023
-0.3464999497 -0.0984009802 0.5290132761 4284909228
-0.3487146795 -0.0984383970 0.5323945284 4284580263
-0.3509297371 -0.0984684005 0.5357763171 4284252324
-0.3542283773 -0.0987930968 0.5408124924 4283989152
-0.3569859564 -0.0989566147 0.5450226068 4284253351
-0.3597439826 -0.0991109014 0.5492333770 4284516523
-0.3625024855 -0.0992559642 0.5534448624 4283596191
-0.3652614355 -0.0993917882 0.5576570034 4283530398
-0.3680208325 -0.0995183662 0.5618698597 4284713125
-0.3702385724 -0.0994900465 0.5652558208 4284055195
-0.3713723123 -0.0991647393 0.5669867396 4283986058
-0.3725060523 -0.0988355875 0.5687176585 4282012268
-0.3736397922 -0.0985025838 0.5704485774 4279114540
-0.3736887872 -0.0978816077 0.5705233216 4279246126
-0.3362492621 -0.1299332380 0.5142351389 4279251855
-0.3373834789 -0.1297982484 0.5159697533 4279186062
-0.3363753557 -0.1288388371 0.5144280195 4279251342
-0.3348308504 -0.1276783198 0.5120659471 4279119756
-0.3343571723 -0.1269295663 0.5113415122 4279250568
-0.3333471119 -0.1259797066 0.5097968578 4279184775
-0.3339444995 -0.1256380379 0.5107104182 4279445887
-0.3340057433 -0.1250935197 0.5108040571 4279380094
-0.3335304856 -0.1243487969 0.5100772381 4279510389
-0.3330547810 -0.1236055270 0.5093497634 4279576182
-0.3331150711 -0.1230618730 0.5094419718 4279839603
-0.3331751227 -0.1225179285 0.5095338225 4279708017
-0.3326983154 -0.1217772737 0.5088046193 4279576684
-0.3327577710 -0.1212336197 0.5088955164 4279642477
-0.3322801888 -0.1204950139 0.5081651807 4279838049
-0.3323390782 -0.1199516580 0.5082551837 4279180119
-0.3318607211 -0.1192151010 0.5075235963 4283587987
-0.3319190145 -0.1186720505 0.5076127648 4286417086
-0.3319770396 -0.1181287095 0.5077015162 4284771483
-0.3314975798 -0.1173948199 0.5069682598 4279902801
-0.3315550387 -0.1168517917 0.5070561171 4279835980
-0.3316122293 -0.1163084805 0.5071436167 4280164945
-0.3316692114 -0.1157648936 0.5072307587 4280098640
-0.3317259252 -0.1152210236 0.5073174834 4280690777
-0.3317824006 -0.1146768704 0.5074038506 4281085798
-0.3318386078 -0.1141324490 0.5074898005 4281809521
-0.3318945765 -0.1135877445 0.5075753927 4281612405
-0.3319503069 -0.1130427718 0.5076606274 4281086061
-0.3320057690 -0.1124975160 0.5077455044 4280757099
-0.3320609927 -0.1119519919 0.5078299046 4280099169
-0.3326542377 -0.1115867645 0.5087372065 4279638350
-0.3327090740 -0.1110398099 0.5088210106 4279967315
-0.3327636123 -0.1104925871 0.5089044571 4279639116
-0.3328179419 -0.1099451035 0.5089875460 4281152355
-0.3328719735 -0.1093973443 0.5090702176 4287403203
-0.3329257965 -0.1088493243 0.5091524720 4286876859
-0.3335181475 -0.1084762812 0.5100584030 4282798213
-0.3341104090 -0.1081011966 0.5109641552 4280034907
-0.3347026110 -0.1077240780 0.5118697882 4280166761
-0.3347556591 -0.1071723327 0.5119509101 4279772003
-0.3348084390 -0.1066203341 0.5120316744 4279509096
-0.3348609805 -0.1060680673 0.5121120214 4279574889
-0.3349132538 -0.1055155471 0.5121919513 4279443818
-0.3355046511 -0.1051317826 0.5130963922 4279443818
-0.3355565071 -0.1045778543 0.5131757259 4279378793
-0.3361476660 -0.1041909084 0.5140797496 4279313000
-0.3361990750 -0.1036355793 0.5141583681 4279312748
-0.3378694057 -0.1035763696 0.5167129040 4279312748
-0.3384603560 -0.1031824201 0.5176166296 4279509106
-0.3390512168 -0.1027864292 0.5185202360 4279509106
-0.3391019702 -0.1022256240 0.5185979009 4279509359
-0.3396925330 -0.1018264517 0.5195010304 4279575152
-0.3397428691 -0.1012642533 0.5195780396 4279509611
-0.3397929370 -0.1007018015 0.5196545720 4279509611
-0.3403830230 -0.1002983078 0.5205570459 4278918242
-0.3409730196 -0.0998927727 0.5214593410 4281220997
-0.3415628970 -0.0994852036 0.5223614573 4284907683
-0.3421526551 -0.0990756005 0.5232633948 4285631406
-0.3432829380 -0.0988195837 0.5249919295 4285961398
-0.3444132209 -0.0985597298 0.5267205238 4285237675
-0.3460843265 -0.0984498784 0.5292761922 4284383136
-0.3477556109 -0.0983344018 0.5318320990 4283988378
-0.3505088687 -0.0985173658 0.5360427499 4283659672
-0.3532626331 -0.0986910984 0.5402541757 4283593879
-0.3565579355 -0.0990058482 0.5452937484 4283924127
-0.3593127131 -0.0991602242 0.5495067239 4284121506
-0.3620679379 -0.0993053690 0.5537203550 4283661468
-0.3648236394 -0.0994412750 0.5579347014 4283332503
-0.3675797582 -0.0995679349 0.5621497631 4284186268
-0.3703363538 -0.0996853486 0.5663654804 4283528338
-0.3714688420 -0.0993589982 0.5680974126 4283788677
-0.3726013601 -0.0990287885 0.5698294044 4281946473
-0.3742754757 -0.0988377705 0.5723896623 4278916903
-0.3754080236 -0.0984989628 0.5741217136 4279245868
-0.3358415663 -0.1299965084 0.5144855380 4279251853
-0.3396488726 -0.1308921278 0.5203180909 4279186060
-0.3348976672 -0.1284911036 0.5130395293 4279251596
-0.3344250619 -0.1277405620 0.5123155713 4279120010
-0.3344871998 -0.1271949708 0.5124107599 4279381384
-0.3340137899 -0.1264464259 0.5116855502 4279447177
-0.3330045938 -0.1254975796 0.5101394653 4279511167
-0.3330656886 -0.1249537021 0.5102331042 4279313788
-0.3325909674 -0.1242095083 0.5095058680 4279575923
-0.3321158290 -0.1234667674 0.5087779760 4279575923
-0.3327117860 -0.1231220141 0.5096909404 4279904622
-0.3322359324 -0.1223804355 0.5089619756 4280496759
-0.3322956264 -0.1218368262 0.5090534091 4279905388
-0.3323550820 -0.1212929264 0.5091444850 4279510630
-0.3318781257 -0.1205539852 0.5084138513 4279574364
-0.3319369853 -0.1200103834 0.5085040331 4278587469
-0.3314592838 -0.1192734912 0.5077722073 4283982745
-0.3315175474 -0.1187301874 0.5078614354 4287601360
-0.3315755725 -0.1181866005 0.5079503655 4284771485
-0.3310967386 -0.1174523756 0.5072168112 4279639631
-0.3311541975 -0.1169091016 0.5073047876 4279835980
-0.3312113881 -0.1163655445 0.5073924065 4280164945
-0.3312683403 -0.1158217043 0.5074796677 4280164435
-0.3313250542 -0.1152775884 0.5075665712 4280296021
-0.3313814998 -0.1147331893 0.5076530576 4280032857
-0.3314377069 -0.1141885146 0.5077391267 4280493408
-0.3314936757 -0.1136435643 0.5078248382 4280361573
-0.3315493762 -0.1130983382 0.5079101920 4279966815
-0.3316048384 -0.1125528440 0.5079951882 4280230251
-0.3321975768 -0.1121886000 0.5089032054 4279769700
-0.3322526217 -0.1116416752 0.5089875460 4279769685
-0.3323074281 -0.1110944673 0.5090714693 4280690787
-0.3323619664 -0.1105469987 0.5091550350 4280231255
-0.3324162662 -0.1099992618 0.5092382431 4281415529
-0.3324703276 -0.1094512492 0.5093210340 4288061133
-0.3325241208 -0.1089029759 0.5094034076 4288390098
-0.3331157863 -0.1085297614 0.5103098750 4282600579
-0.3337074220 -0.1081545129 0.5112161636 4279442515
-0.3337606192 -0.1076036692 0.5112976432 4280166250
-0.3343519568 -0.1072252244 0.5122035742 4279837285
-0.3349432349 -0.1068447456 0.5131093860 4279509098
-0.3349958360 -0.1062913314 0.5131899714 4279574891
-0.3350481987 -0.1057376638 0.5132701397 4279443818
-0.3351002932 -0.1051837355 0.5133499503 4279443818
-0.3356909454 -0.1047977656 0.5142548084 4279509611
-0.3357426226 -0.1042424291 0.5143339634 4279443818
-0.3363330066 -0.1038532704 0.5152384043 4279378541
-0.3363842368 -0.1032965332 0.5153168440 4279378541
-0.3364351988 -0.1027395427 0.5153949261 4279509106
-0.3375643790 -0.1025098041 0.5171247721 4279509106
-0.3386936188 -0.1022762433 0.5188546777 4279509359
-0.3387441337 -0.1017149240 0.5189320445 4279509359
-0.3393338621 -0.1013144255 0.5198354721 4279443818
-0.3399234712 -0.1009118930 0.5207387209 4279378025
-0.3399733305 -0.1003480330 0.5208151340 4278852449
-0.3405626714 -0.0999423116 0.5217179060 4280826239
-0.3406120837 -0.0993770659 0.5217936635 4284447132
-0.3417409956 -0.0991247669 0.5235230327 4285039269
-0.3428699374 -0.0988686308 0.5252525210 4285106343
-0.3439989388 -0.0986086652 0.5269820690 4284514206
-0.3456680477 -0.0984987766 0.5295390487 4283856790
-0.3473373652 -0.0983832553 0.5320963264 4283659411
-0.3495471478 -0.0984142125 0.5354815125 4283725465
-0.3522975445 -0.0985889435 0.5396949649 4283791258
-0.3550484478 -0.0987544507 0.5439091325 4283989920
-0.3577998281 -0.0989107192 0.5481240153 4284121506
-0.3610922098 -0.0992062613 0.5531677604 4284187810
-0.3638445437 -0.0993431509 0.5573841333 4283793052
-0.3665973544 -0.0994707868 0.5616012216 4283923094
-0.3693505824 -0.0995891690 0.5658190250 4283067785
-0.3704816997 -0.0992635712 0.5675517917 4283261819
-0.3716128170 -0.0989341140 0.5692846179 4281880166
-0.3727439344 -0.0986008048 0.5710173845 4278719522
-0.3733339608 -0.0981214419 0.5719212890 4279245866
-0.3387017846 -0.1307495981 0.5197515488 4279382412
-0.3344906271 -0.1285536736 0.5132893324 4279447692
-0.3340186775 -0.1278027743 0.5125650764 4279381899
-0.3335462511 -0.1270533353 0.5118401647 4279512458
-0.3330734074 -0.1263053268 0.5111145377 4279578251
-0.3326000869 -0.1255587786 0.5103882551 4279445887
-0.3321263790 -0.1248136610 0.5096612573 4279182715
-0.3321871161 -0.1242701188 0.5097544789 4279576435
-0.3317126036 -0.1235270426 0.5090263486 4279773814
-0.3317727745 -0.1229837760 0.5091186762 4280563320
-0.3318326771 -0.1224402189 0.5092106462 4283524005
-0.3318923712 -0.1218963712 0.5093021989 4284510380
-0.3319517970 -0.1213522255 0.5093933940 4284444587
-0.3314754963 -0.1206129417 0.5086624622 4284114584
-0.3315343261 -0.1200690940 0.5087527633 4282996103
-0.3310572505 -0.1193318591 0.5080206990 4285956527
-0.3311155140 -0.1187883168 0.5081101060 4288127696
-0.3306376338 -0.1180531457 0.5073767900 4286284975
-0.3312312961 -0.1177003682 0.5082877874 4282732153
-0.3307527602 -0.1169663891 0.5075533986 4282796402
-0.3308099508 -0.1164225861 0.5076411963 4283191160
-0.3308668733 -0.1158785075 0.5077285767 4282533230
-0.3309235573 -0.1153341383 0.5078155398 4282862195
-0.3309800029 -0.1147894934 0.5079021454 4282862456
-0.3310362101 -0.1142445728 0.5079883933 4282796663
-0.3310921490 -0.1136993766 0.5080742240 4282402424
-0.3316845596 -0.1133372933 0.5089833140 4282139252
-0.3317400813 -0.1127906591 0.5090685487 4282336379
-0.3317953944 -0.1122437492 0.5091533661 4282270586
-0.3318504095 -0.1116965711 0.5092378259 4282138482
-0.3319052160 -0.1111491174 0.5093219280 4282204275
-0.3319597542 -0.1106013954 0.5094056129 4282797435
-0.3320140243 -0.1100534052 0.5094888806 4285100190
-0.3320680559 -0.1095051393 0.5095717907 4288850649
-0.3326592445 -0.1091329157 0.5104790330 4288455891
-0.3327128589 -0.1085832343 0.5105612874 4282140030
-0.3333038092 -0.1082078218 0.5114681125 4279639896
-0.3338946700 -0.1078303605 0.5123748183 4280100970
-0.3340004683 -0.1067255884 0.5125371814 4279509096
-0.3345908821 -0.1063437834 0.5134432316 4279640682
-0.3346432447 -0.1057898626 0.5135235190 4279443820
-0.3352334201 -0.1054048613 0.5144291520 4279443820
-0.3352853060 -0.1048495248 0.5145088434 4279378541
-0.3353369534 -0.1042939350 0.5145880580 4279378541
-0.3359267116 -0.1039045975 0.5154930353 4279378541
-0.3375931978 -0.1038444638 0.5180503726 4279312748
-0.3365673721 -0.1029550806 0.5164762139 4279312497
-0.3366181552 -0.1023966819 0.5165541172 4279312497
-0.3377459943 -0.1021639183 0.5182848573 4279443566
-0.3383351564 -0.1017652750 0.5191889405 4279443566
-0.3383854032 -0.1012034416 0.5192660093 4279443818
-0.3389742672 -0.1008016169 0.5201696754 4279378025
-0.3401020169 -0.1005571112 0.5219002366 4278655072
-0.3406907618 -0.1001503095 0.5228037238 4280563069
-0.3412793875 -0.0997414663 0.5237069726 4283591825
-0.3413287103 -0.0991739184 0.5237826109 4283920790
-0.3424563408 -0.0989176705 0.5255130529 4283856022
-0.3441233933 -0.0988124683 0.5280712247 4283921815
-0.3452511728 -0.0985476598 0.5298018456 4283856794
-0.3469185233 -0.0984320939 0.5323604345 4283922587
-0.3491256833 -0.0984630808 0.5357474089 4283922846
-0.3518728316 -0.0986379161 0.5399630070 4283922846
-0.3540807068 -0.0986531302 0.5433511138 4283989920
-0.3573685586 -0.0989598781 0.5483964682 4283989920
-0.3601171076 -0.0991069898 0.5526142120 4284319398
-0.3628661335 -0.0992448628 0.5568326712 4283727261
-0.3661556244 -0.0995202586 0.5618805885 4283330959
-0.3689056039 -0.0996387154 0.5661004782 4282212478
-0.3700354099 -0.0993129686 0.5678342581 4283393405
-0.3711652160 -0.0989833623 0.5695679784 4282209131
-0.3717546761 -0.0985067263 0.5704725385 4278916133
-0.3728843927 -0.0981703103 0.5722060800 4279442477
-0.3355578482 -0.1303301901 0.5158061385 4279447692
-0.3382889628 -0.1308131963 0.5200043321 4279447692
-0.3340830207 -0.1286162138 0.5135390759 4279775119
-0.3336116672 -0.1278649867 0.5128145814 4279709326
-0.3331398964 -0.1271151900 0.5120893717 4279577738
-0.3326676786 -0.1263668537 0.5113635063 4279511945
-0.3321950138 -0.1256199479 0.5106369257 4279577987
-0.3322561085 -0.1250755936 0.5107308626 4279249022
-0.3317826688 -0.1243307143 0.5100030899 4279380596
-0.3313087821 -0.1235872954 0.5092746615 4279314803
-0.3319033980 -0.1232422516 0.5101886988 4280432245
-0.3314288259 -0.1224999949 0.5094591975 4285169341
-0.3314884901 -0.1219558939 0.5095509291 4287405271
-0.3310131729 -0.1212156862 0.5088202357 4287668443
-0.3310722411 -0.1206718832 0.5089110732 4287865286
-0.3311310709 -0.1201277897 0.5090014935 4287470528
-0.3306546211 -0.1193902194 0.5082691312 4287930820
-0.3307128847 -0.1188464239 0.5083586574 4288259785
-0.3307708800 -0.1183023527 0.5084478259 4288325061
-0.3302932978 -0.1175674424 0.5077137351 4287798717
-0.3303507268 -0.1170236766 0.5078020096 4288192444
-0.3304078877 -0.1164796203 0.5078898668 4288324030
-0.3304648399 -0.1159352884 0.5079773664 4288389563
-0.3305214942 -0.1153906807 0.5080645084 4288586942
-0.3305779397 -0.1148457900 0.5081512332 4288587199
-0.3306341171 -0.1143006161 0.5082376003 4288389820
-0.3312260211 -0.1139395386 0.5091474056 4288390592
-0.3312817812 -0.1133929268 0.5092331767 4288522178
-0.3313373029 -0.1128460467 0.5093185306 4288456132
-0.3313925862 -0.1122988909 0.5094034672 4288587718
-0.3319839239 -0.1119322851 0.5103124976 4288652492
-0.3320387900 -0.1113836914 0.5103968382 4288784078
-0.3320934176 -0.1108348295 0.5104807615 4288850641
-0.3321477771 -0.1102856994 0.5105643272 4289048020
-0.3322018683 -0.1097363010 0.5106474757 4289311200
-0.3322557211 -0.1091866344 0.5107302666 4286218929
-0.3323093355 -0.1086366996 0.5108126402 4281613688
-0.3328996003 -0.1082611084 0.5117200017 4279903070
-0.3329527974 -0.1077097580 0.5118017793 4280100716
-0.3330057263 -0.1071581393 0.5118831396 4279771751
-0.3335955739 -0.1067782044 0.5127898455 4279574889
-0.3341853619 -0.1063962281 0.5136964321 4279640682
-0.3342376649 -0.1058420464 0.5137768388 4279509613
-0.3348271847 -0.1054568738 0.5146830082 4279443820
-0.3348790705 -0.1049012765 0.5147627592 4279378543
-0.3349307179 -0.1043454260 0.5148421526 4279312750
-0.3355197906 -0.1039559171 0.5157476664 4279247466
-0.3366465271 -0.1037300676 0.5174796581 4279181673
-0.3361597955 -0.1030059606 0.5167314410 4279312751
-0.3362105489 -0.1024473011 0.5168094635 4279312751
-0.3367990553 -0.1020514145 0.5177140832 4279378027
-0.3384636939 -0.1019777358 0.5202729106 4279378027
-0.3385139704 -0.1014147475 0.5203502178 4279509611
-0.3385640085 -0.1008515060 0.5204271078 4279443818
-0.3391521275 -0.1004474536 0.5213311315 4278917990
-0.3397401273 -0.1000413597 0.5222349763 4280760194
-0.3403280079 -0.0996332318 0.5231386423 4283394193
-0.3414543569 -0.0993798077 0.5248700380 4283459986
-0.3420421183 -0.0989667028 0.5257735252 4283526549
-0.3437072039 -0.0988614634 0.5283330083 4284118686
-0.3453724682 -0.0987505913 0.5308927894 4284382885
-0.3464990556 -0.0984809250 0.5326245427 4284580264
-0.3492425382 -0.0986641943 0.5368416905 4284975792
-0.3514474630 -0.0986868739 0.5402310491 4285107378
-0.3536527157 -0.0987021104 0.5436208844 4285306039
-0.3563974798 -0.0988594592 0.5478399992 4285240246
-0.3591426611 -0.0990075693 0.5520598292 4285898176
-0.3624276519 -0.0992941782 0.5571093559 4285437625
-0.3657132387 -0.0995697230 0.5621598363 4284844200
-0.3684599400 -0.0996882543 0.5663819313 4283659926
-0.3695884347 -0.0993623585 0.5681166053 4284116874
-0.3701772988 -0.0988884494 0.5690218210 4282801014
-0.3713057339 -0.0985557362 0.5707563758 4278851110
-0.3724341094 -0.0982191712 0.5724908710 4279245868
-0.3383446634 -0.1316373348 0.5209794044 4279447947
-0.3352109194 -0.1298446208 0.5161540508 4279447947
-0.3342078328 -0.1288843006 0.5146095157 4279446922
-0.3332040906 -0.1279271692 0.5130640268 4279578508
-0.3327329457 -0.1271770447 0.5123385191 4279644554
-0.3322613835 -0.1264283657 0.5116124153 4279315589
-0.3323227763 -0.1258831769 0.5117069483 4279315327
-0.3318504095 -0.1251365095 0.5109795928 4279249534
-0.3313775957 -0.1243913025 0.5102515817 4279183731
-0.3314380944 -0.1238469705 0.5103446841 4279183731
-0.3314983249 -0.1233023480 0.5104374886 4280564090
-0.3310243785 -0.1225597486 0.5097077489 4283590568
-0.3310840428 -0.1220154092 0.5097995400 4285497274
-0.3311434388 -0.1214707792 0.5098910332 4285694653
-0.3306684196 -0.1207308099 0.5091595650 4286416824
-0.3307272196 -0.1201864704 0.5092501640 4286614203
-0.3307858109 -0.1196418405 0.5093403459 4286877880
-0.3303096592 -0.1189045236 0.5086071491 4287338431
-0.3303676248 -0.1183601990 0.5086964369 4287863995
-0.3298906982 -0.1176249534 0.5079621077 4288192960
-0.3299481273 -0.1170809418 0.5080505013 4288192184
-0.3300052881 -0.1165366471 0.5081384778 4288323770
-0.3300621808 -0.1159920692 0.5082260966 4288718017
-0.3301188350 -0.1154472083 0.5083133578 4288718017
-0.3307103813 -0.1150882915 0.5092242360 4288850122
-0.3307666481 -0.1145419925 0.5093108416 4288784329
-0.3308226764 -0.1139954105 0.5093970895 4288719306
-0.3308784366 -0.1134485528 0.5094829798 4288916685
-0.3309339285 -0.1129014194 0.5095684528 4288785097
-0.3315247893 -0.1125358120 0.5104781985 4288785097
-0.3315798938 -0.1119872481 0.5105630755 4288916685
-0.3321704865 -0.1116184369 0.5114724636 4288916685
-0.3322251737 -0.1110684350 0.5115566850 4288850898
-0.3322796226 -0.1105181649 0.5116404891 4288390347
-0.3323338032 -0.1099676192 0.5117239356 4287140801
-0.3323877156 -0.1094168127 0.5118069649 4282864256
-0.3324413896 -0.1088657379 0.5118896365 4280100706
-0.3324948251 -0.1083143950 0.5119718909 4280232292
-0.3330843449 -0.1079365909 0.5128796101 4280034926
-0.3331373334 -0.1073838323 0.5129612088 4279837547
-0.3331900835 -0.1068308055 0.5130424500 4279509360
-0.3337791860 -0.1064486578 0.5139495134 4279509360
-0.3343682289 -0.1060644612 0.5148565173 4279378543
-0.3349571526 -0.1056782305 0.5157633424 4279312750
-0.3350091279 -0.1051214859 0.5158433318 4279313000
-0.3350608349 -0.1045644805 0.5159229636 4279378793
-0.3357005715 -0.1036154926 0.5169080496 4279246955
-0.3357515931 -0.1030568257 0.5169866085 4279378027
-0.3363396227 -0.1026619077 0.5178920627 4279378027
-0.3363901973 -0.1021018401 0.5179699063 4279443566
-0.3369779587 -0.1017037332 0.5188749433 4279443566
-0.3370280862 -0.1011422649 0.5189521313 4279443820
-0.3376155496 -0.1007409692 0.5198566914 4279443820
-0.3387405872 -0.1004971489 0.5215890408 4278918242
-0.3393279314 -0.1000908688 0.5224934220 4281220997
-0.3399151564 -0.0996825472 0.5233976245 4283722644
-0.3421160281 -0.0997426733 0.5267865062 4284577953
-0.3421652615 -0.0991716459 0.5268623233 4284513190
-0.3432903886 -0.0989104435 0.5285947919 4285368499
-0.3449536860 -0.0987995267 0.5311558843 4285962170
-0.3466171920 -0.0986829773 0.5337173343 4286488514
-0.3488191664 -0.0987131223 0.5371078849 4286490567
-0.3510214686 -0.0987358242 0.5404989719 4286556360
-0.3537625372 -0.0989016145 0.5447196960 4286555855
-0.3559655547 -0.0989085212 0.5481118560 4286424269
-0.3587074876 -0.0990567133 0.5523338914 4286620617
-0.3614498973 -0.0991956443 0.5565565825 4285831101
-0.3652701974 -0.0996191800 0.5624390841 4285961137
-0.3680136204 -0.0997377858 0.5666633248 4284579484
-0.3691408038 -0.0994117334 0.5683989525 4283853445
-0.3702679873 -0.0990818292 0.5701345801 4282603378
-0.3708561063 -0.0986047387 0.5710401535 4278456609
-0.3719831705 -0.0982680172 0.5727756023 4279311918
-0.3389301002 -0.1326718479 0.5227748752 4279447175
-0.3384621739 -0.1319086403 0.5220531225 4279382154
-0.3353324234 -0.1301142126 0.5172257423 4279382154
-0.3337983489 -0.1289469153 0.5148595572 4279381129
-0.3333283961 -0.1281941384 0.5141346455 4279512715
-0.3328579962 -0.1274427921 0.5134090781 4279578761
-0.3318544626 -0.1264898479 0.5118612647 4279249796
-0.3319158554 -0.1259444356 0.5119559169 4279117691
-0.3314441144 -0.1251974255 0.5112283230 4279051898
-0.3315049410 -0.1246522740 0.5113220811 4279314548
-0.3310324252 -0.1239072978 0.5105932951 4279511927
-0.3310926259 -0.1233624294 0.5106861591 4279708268
-0.3311526179 -0.1228172630 0.5107786655 4280300405
-0.3306789994 -0.1220749095 0.5100481510 4280365163
-0.3307383657 -0.1215300262 0.5101397634 4279970405
-0.3302639723 -0.1207897216 0.5094080567 4280232797
-0.3303227723 -0.1202451363 0.5094987154 4280627555
-0.3303813338 -0.1197002679 0.5095890760 4281219430
-0.3299058378 -0.1189626083 0.5088556409 4281548395
-0.3294298947 -0.1182264239 0.5081214905 4281679201
-0.3294875324 -0.1176824495 0.5082104206 4282073959
-0.3295449018 -0.1171381921 0.5082989335 4282533733
-0.3296020627 -0.1165936515 0.5083870888 4282731112
-0.3296589553 -0.1160488278 0.5084748268 4282731112
-0.3302499950 -0.1156909242 0.5093864799 4283191663
-0.3297719955 -0.1149583310 0.5086491704 4283389303
-0.3303627372 -0.1145981029 0.5095603466 4283323510
-0.3304187357 -0.1140512675 0.5096467137 4283126133
-0.3304744661 -0.1135041639 0.5097327232 4283323512
-0.3310648203 -0.1131395549 0.5106432438 4283126901
-0.3311201334 -0.1125910133 0.5107285976 4282995315
-0.3317102492 -0.1122232005 0.5116388202 4283455866
-0.3317651749 -0.1116732210 0.5117235184 4283390073
-0.3318198621 -0.1111229658 0.5118078589 4283192954
-0.3318742812 -0.1105724424 0.5118917823 4282995575
-0.3319284320 -0.1100216508 0.5119753480 4281679212
-0.3319823444 -0.1094705909 0.5120584965 4280692317
-0.3320360184 -0.1089192554 0.5121412873 4280298085
-0.3326250613 -0.1085424498 0.5130498409 4280232292
-0.3326782882 -0.1079896912 0.5131319165 4280100719
-0.3327312768 -0.1074366793 0.5132136345 4279837547
-0.3327839971 -0.1068833917 0.5132949948 4279574639
-0.3333724439 -0.1065010726 0.5142025948 4279574639
-0.3334247470 -0.1059463769 0.5142832994 4279443566
-0.3340129256 -0.1055608615 0.5151905417 4279377773
-0.3340648115 -0.1050047502 0.5152705312 4279247207
-0.3346527219 -0.1046160385 0.5161773562 4279313000
-0.3347041607 -0.1040585190 0.5162566900 4279312748
-0.3352918029 -0.1036666110 0.5171630979 4279312748
-0.3353427947 -0.1031076834 0.5172417164 4279312750
-0.3359301686 -0.1027125865 0.5181477070 4279312750
-0.3359807134 -0.1021522582 0.5182256699 4279443566
-0.3365678191 -0.1017539650 0.5191312432 4279443566
-0.3366179168 -0.1011922359 0.5192085505 4279443566
-0.3372047246 -0.1007907540 0.5201136470 4279443566
-0.3383284509 -0.1005468294 0.5218468904 4278984035
-0.3389151394 -0.1001403630 0.5227518082 4281813134
-0.3395016789 -0.0997318625 0.5236565471 4284907431
-0.3406254053 -0.0994782150 0.5253897905 4286025912
-0.3417491615 -0.0992207304 0.5271230936 4285829563
-0.3428729773 -0.0989594087 0.5288564563 4286224321
-0.3445343077 -0.0988484547 0.5314189792 4286291135
-0.3461958170 -0.0987318605 0.5339817405 4286554307
-0.3483951688 -0.0987620354 0.5373740792 4285766331
-0.3505948484 -0.0987847596 0.5407668948 4285832124
-0.3533326387 -0.0989506468 0.5449897647 4285634240
-0.3555330336 -0.0989575759 0.5483837128 4285173689
-0.3582716584 -0.0991058499 0.5526078343 4285304757
-0.3610107899 -0.0992448702 0.5568327308 4285107378
-0.3648265004 -0.0996686220 0.5627182126 4285763758
-0.3675666451 -0.0997872949 0.5669446588 4284645277
-0.3686924875 -0.0994611010 0.5686812401 4283655812
-0.3698183596 -0.0991310403 0.5704177618 4282537331
-0.3709442019 -0.0987971276 0.5721542835 4278851368
-0.3720700145 -0.0984593481 0.5738908052 4279443505
-0.3359201550 -0.1311426163 0.5190214515 4279512970
-0.3354520202 -0.1303839833 0.5182981491 4279447177
-0.3339200020 -0.1292152852 0.5159310699 4279250566
-0.3329189718 -0.1282563955 0.5143843293 4279382152
-0.3324491978 -0.1275047064 0.5136585236 4279512709
-0.3319789767 -0.1267544627 0.5129320025 4279183744
-0.3315083385 -0.1260056645 0.5122048259 4279314298
-0.3310372531 -0.1252583116 0.5114769936 4279116919
-0.3310980499 -0.1247129217 0.5115708709 4279313520
-0.3306261599 -0.1239676103 0.5108418465 4279642485
-0.3306863606 -0.1234224960 0.5109348297 4279576425
-0.3307463229 -0.1228770837 0.5110274553 4279510632
-0.3302733600 -0.1221343875 0.5102967024 4279509852
-0.3303327262 -0.1215892658 0.5103884339 4279444059
-0.3303918540 -0.1210438535 0.5104798079 4279114576
-0.3299177587 -0.1203037947 0.5097472668 4279180369
-0.3299762905 -0.1197586730 0.5098377466 4278719810
-0.3300345838 -0.1192132682 0.5099278092 4278654017
-0.3300926387 -0.1186675727 0.5100175142 4280429647
-0.3296171129 -0.1179307625 0.5092827082 4281877093
-0.3291411102 -0.1171954349 0.5085473061 4282402660
-0.3291982412 -0.1166506410 0.5086355805 4282336867
-0.3292551339 -0.1161055714 0.5087234378 4282796907
-0.3293117583 -0.1155602187 0.5088109374 4283257458
-0.3299019635 -0.1152009964 0.5097228885 4282797166
-0.3294242918 -0.1144686714 0.5089848042 4282928752
-0.3294801712 -0.1139224768 0.5090711713 4283061108
-0.3300699294 -0.1135597602 0.5099824071 4283126901
-0.3306595981 -0.1131949946 0.5108934641 4282732141
-0.3307149112 -0.1126461998 0.5109789371 4282863727
-0.3307699859 -0.1120971292 0.5110640526 4282732143
-0.3313592672 -0.1117279902 0.5119745135 4283258487
-0.3314139247 -0.1111774892 0.5120589733 4283324027
-0.3314683437 -0.1106267124 0.5121430159 4283587199
-0.3315224946 -0.1100756675 0.5122267008 4283324037
-0.3315763772 -0.1095243543 0.5123099685 4283060865
-0.3321649134 -0.1091485322 0.5132192969 4280889965
-0.3322184086 -0.1085957885 0.5133019686 4280100449
-0.3322716355 -0.1080427840 0.5133841634 4280166512
-0.3323245943 -0.1074895039 0.5134660006 4279837547
-0.3323773146 -0.1069359705 0.5135474801 4279574640
-0.3324297965 -0.1063821688 0.5136285424 4279574640
-0.3330173790 -0.1059985235 0.5145364404 4279443566
-0.3336049020 -0.1056128368 0.5154441595 4279377773
-0.3336567581 -0.1050564647 0.5155243278 4279313002
-0.3342440128 -0.1046675742 0.5164316297 4279247209
-0.3342954218 -0.1041098014 0.5165110826 4279312750
-0.3348824084 -0.1037177145 0.5174180269 4279312750
-0.3349334002 -0.1031585261 0.5174968243 4279312751
-0.3355200887 -0.1027632505 0.5184032917 4279312751
-0.3361066878 -0.1023659259 0.5193096399 4279443567
-0.3361570537 -0.1018041894 0.5193874836 4279377774
-0.3367433846 -0.1014036685 0.5202933550 4279377773
-0.3367933035 -0.1008405313 0.5203704834 4279377773
-0.3373793364 -0.1004368216 0.5212759376 4278918242
-0.3385017216 -0.1001898497 0.5230101347 4282010513
-0.3390876055 -0.0997811556 0.5239153504 4285302189
-0.3402099907 -0.0995274037 0.5256495476 4286223291
-0.3424058259 -0.0995819718 0.5290422440 4285697977
-0.3441142738 -0.0988973752 0.5316819549 4284975532
-0.3457738161 -0.0987807363 0.5342460275 4285041325
-0.3479705155 -0.0988109335 0.5376401544 4284318885
-0.3501675725 -0.0988336876 0.5410346985 4284318885
-0.3523649275 -0.0988489836 0.5444298387 4284516013
-0.3550998271 -0.0990066156 0.5486554503 4284252841
-0.3578352034 -0.0991549790 0.5528817773 4284120225
-0.3605710268 -0.0992940739 0.5571088195 4283922846
-0.3633072674 -0.0994239002 0.5613365173 4284645277
-0.3665814996 -0.0996906310 0.5663954616 4283789968
-0.3682435155 -0.0995104536 0.5689634085 4283129983
-0.3693680465 -0.0991802514 0.5707008839 4282208881
-0.3704925776 -0.0988461748 0.5724383593 4279312435
-0.3716170788 -0.0985082388 0.5741758347 4279180849
-0.3407501876 -0.1338428855 0.5273892283 4279512455
-0.3392223120 -0.1326594204 0.5250244737 4279447175
-0.3355697393 -0.1306539476 0.5193712711 4279447175
-0.3335087001 -0.1292779595 0.5161813498 4279250564
-0.3330400884 -0.1285236180 0.5154560804 4279382150
-0.3325710595 -0.1277707070 0.5147301555 4279447426
-0.3315702379 -0.1268160194 0.5131811500 4279118461
-0.3311002254 -0.1260668784 0.5124536753 4279182962
-0.3311613500 -0.1255206764 0.5125482678 4279117169
-0.3306905627 -0.1247735620 0.5118196011 4279379306
-0.3302193284 -0.1240279004 0.5110902786 4279445099
-0.3302794993 -0.1234825477 0.5111834407 4279510114
-0.3303394616 -0.1229368970 0.5112761855 4279575907
-0.3303991556 -0.1223909408 0.5113686323 4279773024
-0.3299264610 -0.1216484904 0.5106370449 4279641438
-0.3299855888 -0.1211028323 0.5107285380 4279707483
-0.3300444484 -0.1205568761 0.5108196139 4279049553
-0.3295706511 -0.1198170707 0.5100862980 4280299099
-0.3296289444 -0.1192714199 0.5101765394 4282930819
-0.3296869695 -0.1187254786 0.5102663636 4285891236
-0.3292120695 -0.1179883257 0.5095313191 4287338682
-0.3287367225 -0.1172526553 0.5087956190 4288061372
-0.3287938535 -0.1167076230 0.5088840127 4288324544
-0.3293837011 -0.1163505763 0.5097969174 4288324030
-0.3289073408 -0.1156167015 0.5090596676 4288850374
-0.3289636970 -0.1150708199 0.5091469288 4288718534
-0.3290198445 -0.1145246550 0.5092337728 4288718534
-0.3290757239 -0.1139782146 0.5093202591 4288192960
-0.3296647668 -0.1136153415 0.5102319717 4288456132
-0.3297202587 -0.1130674630 0.5103178620 4288324546
-0.3297754824 -0.1125193015 0.5104033351 4288192960
-0.3298304379 -0.1119708717 0.5104883909 4288785099
-0.3309527636 -0.1117827520 0.5122254491 4288719306
-0.3310073912 -0.1112319976 0.5123100281 4288719566
-0.3310617805 -0.1106809676 0.5123941898 4288916945
-0.3311159313 -0.1101296693 0.5124779940 4288588247
-0.3311698139 -0.1095781028 0.5125613809 4286088113
-0.3317576945 -0.1092021093 0.5134712458 4281284982
-0.3318111598 -0.1086491197 0.5135540366 4280232294
-0.3318643868 -0.1080958545 0.5136363506 4280034672
-0.3319173455 -0.1075423285 0.5137183666 4279771500
-0.3319700360 -0.1069885343 0.5137999058 4279508847
-0.3320224881 -0.1064344794 0.5138810873 4279508847
-0.3331441581 -0.1062211618 0.5156171322 4279443566
-0.3337310851 -0.1058344021 0.5165255666 4279443566
-0.3343179226 -0.1054455936 0.5174338222 4279313002
-0.3338346779 -0.1047191098 0.5166859031 4279313002
-0.3344211876 -0.1043279916 0.5175936222 4279246957
-0.3350075781 -0.1039348394 0.5185011625 4279246957
-0.3350586295 -0.1033744961 0.5185801983 4279377774
-0.3356447518 -0.1029781401 0.5194873810 4279377774
-0.3356953561 -0.1024163961 0.5195657015 4279377774
-0.3362811804 -0.1020168439 0.5204724073 4279377774
-0.3363313675 -0.1014536992 0.5205500722 4279377773
-0.3369168937 -0.1010509506 0.5214563012 4279377773
-0.3369666338 -0.1004864052 0.5215333104 4279049828
-0.3375518918 -0.1000804678 0.5224391222 4281418376
-0.3386729062 -0.0998304412 0.5241741538 4283986329
-0.3392580450 -0.0994195119 0.5250797272 4284446880
-0.3409150839 -0.0993188694 0.5276444554 4284053920
-0.3420362473 -0.0990573168 0.5293796659 4284119713
-0.3436936140 -0.0989462808 0.5319448709 4283857305
-0.3453511894 -0.0988295972 0.5345103145 4283725719
-0.3470089138 -0.0987072662 0.5370760560 4283331220
-0.3492032588 -0.0987309441 0.5404722691 4283068048
-0.3519344032 -0.0988979265 0.5446993709 4283462553
-0.3541294336 -0.0989057869 0.5480967164 4283265174
-0.3568614423 -0.0990551412 0.5523250699 4282804617
-0.3595938981 -0.0991952196 0.5565541983 4282738824
-0.3628635705 -0.0994731784 0.5616147518 4283724430
-0.3655969799 -0.0995938033 0.5658453107 4283395465
-0.3672569692 -0.0994144604 0.5684145093 4283853706
-0.3683800995 -0.0990850031 0.5701528192 4285630117
-0.3695032299 -0.0987516865 0.5718911290 4286220186
-0.3706263304 -0.0984145030 0.5736294389 4286878116
-0.3361521661 -0.1316851526 0.5211686492 4279447175
-0.3335642815 -0.1300967634 0.5171563625 4279447175
-0.3320359588 -0.1289287210 0.5147868395 4279381380
-0.3320983052 -0.1283808649 0.5148835182 4279447173
-0.3326910436 -0.1280369014 0.5158025026 4279447680
-0.3316915929 -0.1270808876 0.5142529607 4279184508
-0.3312223256 -0.1263305396 0.5135254264 4279051629
-0.3307526112 -0.1255816370 0.5127971768 4279051629
-0.3302824795 -0.1248341799 0.5120682716 4279379557
-0.3303429782 -0.1242880002 0.5121620893 4279379557
-0.3304032683 -0.1237415224 0.5122555494 4279575905
-0.3304632902 -0.1231947467 0.5123485923 4279641698
-0.3299916685 -0.1224504933 0.5116174221 4279904612
-0.3300511241 -0.1219040006 0.5117095709 4279641440
-0.3301103115 -0.1213572174 0.5118013620 4279773022
-0.3296375871 -0.1206156015 0.5110684037 4279444057
-0.3296961784 -0.1200691089 0.5111593008 4282733440
-0.3297545612 -0.1195223331 0.5112497807 4286812606
-0.3298126757 -0.1189752594 0.5113399029 4288457164
-0.3293384910 -0.1182368919 0.5106047392 4287930820
-0.3288638890 -0.1174999997 0.5098689198 4287863995
-0.3289780319 -0.1164073795 0.5100458860 4287929788
-0.3290347159 -0.1158606485 0.5101337433 4288390339
-0.3290911615 -0.1153136343 0.5102213025 4288587720
-0.3291473687 -0.1147663370 0.5103084445 4288916685
-0.3292033374 -0.1142187640 0.5103951693 4288916685
-0.3292590380 -0.1136709079 0.5104815364 4288850892
-0.3298473656 -0.1133058295 0.5113936663 4288522438
-0.3299026787 -0.1127565280 0.5114794374 4288851403
-0.3304907680 -0.1123882309 0.5123912096 4288982737
-0.3305456340 -0.1118374988 0.5124762654 4289114323
-0.3306002915 -0.1112864912 0.5125610232 4289311449
-0.3306546509 -0.1107352078 0.5126453042 4288521933
-0.3307088017 -0.1101836562 0.5127292275 4287798477
-0.3312961459 -0.1098086610 0.5136398673 4284640413
-0.3313498497 -0.1092556790 0.5137231350 4280956018
-0.3314033151 -0.1087024286 0.5138060451 4280034916
-0.3314565122 -0.1081489176 0.5138884783 4279838065
-0.3315094709 -0.1075951308 0.5139706135 4279574893
-0.3320960701 -0.1072134525 0.5148800611 4279377520
-0.3321485817 -0.1066582501 0.5149614811 4279377520
-0.3327349424 -0.1062733680 0.5158705711 4279378544
-0.3327870369 -0.1057167426 0.5159513354 4279312751
-0.3333730996 -0.1053286567 0.5168600082 4279246955
-0.3339591026 -0.1049385220 0.5177685022 4279378541
-0.3340106010 -0.1043793336 0.5178483129 4279377773
-0.3345963061 -0.1039860025 0.5187563896 4279377773
-0.3346473575 -0.1034253985 0.5188355446 4279377773
-0.3352327943 -0.1030288637 0.5197432041 4279377773
-0.3352833986 -0.1024668589 0.5198217034 4279443054
-0.3358685672 -0.1020671204 0.5207289457 4279508847
-0.3364536166 -0.1016653404 0.5216360092 4279443566
-0.3365035951 -0.1011007801 0.5217134953 4279443566
-0.3370883763 -0.1006958038 0.5226200819 4278655070
-0.3371379077 -0.1001298502 0.5226969123 4281023618
-0.3382576108 -0.0998797193 0.5244328976 4283394446
-0.3393773437 -0.0996257365 0.5261689425 4283526032
-0.3404971361 -0.0993679166 0.5279050469 4283263634
-0.3416169584 -0.0991062522 0.5296412110 4283658392
-0.3432723582 -0.0989951715 0.5322077274 4283988891
-0.3449279368 -0.0988784432 0.5347744823 4284186270
-0.3465836942 -0.0987560675 0.5373415947 4283397011
-0.3487753868 -0.0987797752 0.5407395959 4283462804
