VERSION 0.7
FIELDS x y z rgba
SIZE 4 4 4 4
TYPE F F F U
COUNT 1 1 1 1
WIDTH 920
HEIGHT 1
VIEWPOINT 0.0 0.0 0.0 1.0 0.0 0.0 0.0
POINTS 920
DATA ascii
-0.2714930177 -0.1453292370 0.5701534152 4292269523
-0.2715524435 -0.1447274238 0.5702782273 4292335316
-0.2720308006 -0.1443476379 0.5712828040 4292401109
-0.2716706097 -0.1435226053 0.5705263615 4292466902
-0.2717293501 -0.1429196149 0.5706497431 4292532695
-0.2717878819 -0.1423162371 0.5707726479 4292532695
-0.2718462050 -0.1417124569 0.5708951354 4292532695
-0.2719042599 -0.1411082894 0.5710170865 4292466902
-0.2719621360 -0.1405037493 0.5711386204 4292467159
-0.2724395394 -0.1401147097 0.5721412301 4292532952
-0.2724970579 -0.1395084560 0.5722619295 4292598745
-0.2725543380 -0.1389018148 0.5723822117 4292664538
-0.2726113796 -0.1382948011 0.5725020170 4292730331
-0.2730883360 -0.1378995478 0.5735036731 4292730331
-0.2731450200 -0.1372908354 0.5736227036 4292796124
-0.2736217678 -0.1368920356 0.5746239424 4292861917
-0.2740984857 -0.1364909708 0.5756250620 4293124060
-0.2741546631 -0.1358792484 0.5757430196 4293124060
-0.2742106020 -0.1352671534 0.5758605003 4293189853
-0.2746869624 -0.1348612010 0.5768609047 4293189853
-0.2751632631 -0.1344530135 0.5778611898 4292993244
-0.2756395042 -0.1340425611 0.5788613558 4293059037
-0.2761156857 -0.1336298585 0.5798613429 4293190625
-0.2761708200 -0.1330121309 0.5799770951 4293322211
-0.2766467929 -0.1325958669 0.5809766650 4293322468
-0.2771226764 -0.1321773529 0.5819761157 4293519847
-0.2771772742 -0.1315566450 0.5820907354 4293848812
-0.2767095864 -0.2028295994 0.5824671388 4291349717
-0.2771984041 -0.2025396228 0.5834961534 4291218131
-0.2772777379 -0.2019490898 0.5836631060 4291086545
-0.2773568630 -0.2013580501 0.5838297009 4291086545
-0.2774358392 -0.2007665038 0.5839958787 4290888907
-0.2775145769 -0.2001744509 0.5841616392 4290954700
-0.2775931656 -0.1995818913 0.5843270421 4290888907
-0.2776715457 -0.1989888400 0.5844920278 4290757321
-0.2781600058 -0.1986883283 0.5855202675 4290691528
-0.2782381177 -0.1980933994 0.5856847167 4290625735
-0.2783160508 -0.1974979639 0.5858487487 4290559942
-0.2779831886 -0.1966116130 0.5851480365 4290559942
-0.2784713507 -0.1963055879 0.5861756206 4290494149
-0.2785486877 -0.1957086474 0.5863384008 4290428356
-0.2790367901 -0.1953990012 0.5873658657 4290362561
-0.2791138887 -0.1948001832 0.5875281692 4290230975
-0.2791907787 -0.1942008883 0.5876899958 4290099389
-0.2792674601 -0.1936010867 0.5878514051 4289902010
-0.2793439627 -0.1930007935 0.5880124569 4289770424
-0.2798317671 -0.1926833689 0.5890393257 4289638838
-0.2794963717 -0.1917987317 0.5883332491 4289638323
-0.2799840271 -0.1914785504 0.5893597603 4289375151
-0.2800598443 -0.1908753961 0.5895193815 4289177772
-0.2801354527 -0.1902717650 0.5896785259 4288914600
-0.2802108824 -0.1896676421 0.5898373127 4288783014
-0.2802861035 -0.1890630424 0.5899956226 4288651428
-0.2799488306 -0.1881807894 0.5892856717 4288519842
-0.2800235450 -0.1875761002 0.5894429684 4288322463
-0.2800980508 -0.1869709343 0.5895998478 4288125084
-0.2801723778 -0.1863652766 0.5897562504 4287861912
-0.2806592286 -0.1860327125 0.5907810330 4287664272
-0.2807332277 -0.1854251921 0.5909368396 4287532686
-0.2808070481 -0.1848172098 0.5910922289 4287401351
-0.2808806598 -0.1842087358 0.5912471414 4287401351
-0.2809540629 -0.1835997850 0.5914016962 4287269763
-0.2810272574 -0.1829903573 0.5915557742 4287203970
-0.2811002433 -0.1823804528 0.5917093754 4287400838
-0.2811730504 -0.1817700863 0.5918626189 4287400838
-0.2808320224 -0.1808928251 0.5911448002 4287335045
-0.2809042931 -0.1802823991 0.5912969112 4287335045
-0.2805625498 -0.1794068962 0.5905775428 4287466632
-0.2806342840 -0.1787964255 0.5907285810 4287598218
-0.2807058394 -0.1781854928 0.5908791423 4287992975
-0.2799489200 -0.1770502776 0.5892858505 4288519319
-0.2804340422 -0.1767012328 0.5903070569 4288782743
-0.2796761692 -0.1755695939 0.5887117982 4289045915
-0.2793321311 -0.1747003198 0.5879875422 4289309085
-0.2785731256 -0.1735741049 0.5863898396 4289440671
-0.2782281339 -0.1727084219 0.5856636763 4289703843
-0.2778827250 -0.1718441099 0.5849365592 4289835429
-0.2771220505 -0.1707255840 0.5833353400 4289967019
-0.2763607502 -0.1696102172 0.5817328691 4290098605
-0.2755988240 -0.1684980392 0.5801290274 4290229937
-0.2748363018 -0.1673890501 0.5785239339 4290361523
-0.2744883895 -0.1665351987 0.5777916312 4290493109
-0.2741400898 -0.1656827331 0.5770584345 4290690488
-0.2733759284 -0.1645815223 0.5754498243 4290887867
-0.2730266750 -0.1637327224 0.5747147202 4290953660
-0.2726770341 -0.1628853083 0.5739787221 4291019453
-0.2719112337 -0.1617919058 0.5723667145 4291019453
-0.2719765306 -0.1611946672 0.5725041628 4291085246
-0.2716256678 -0.1603514403 0.5717656016 4291085246
-0.2712743878 -0.1595096141 0.5710261464 4291085500
-0.2709226906 -0.1586691886 0.5702858567 4291151293
-0.2709868550 -0.1580729932 0.5704209208 4291151293
-0.2710508108 -0.1574763656 0.5705555677 4291217086
-0.2711145580 -0.1568793356 0.5706897378 4291282879
-0.2707615197 -0.1560418010 0.5699466467 4291348672
-0.2708247304 -0.1554448307 0.5700796843 4291480004
-0.2708877623 -0.1548474431 0.5702123046 4291545797
-0.2705336809 -0.1540123373 0.5694670677 4291677383
-0.2705961764 -0.1534150541 0.5695985556 4291808969
-0.2706584334 -0.1528173387 0.5697296262 4291743176
-0.2707205117 -0.1522192210 0.5698602796 4291743176
-0.2707823217 -0.1516206861 0.5699904561 4291743177
-0.2708439529 -0.1510217488 0.5701201558 4291743177
-0.2709053755 -0.1504224092 0.5702493787 4291874763
-0.2709665596 -0.1498226523 0.5703781843 4291874763
-0.2710275352 -0.1492224932 0.5705065727 4292071372
-0.2710882723 -0.1486219168 0.5706344247 4292137165
-0.2711488307 -0.1480209529 0.5707618594 4292268751
-0.2712091506 -0.1474195868 0.5708888173 4292334544
-0.2712692320 -0.1468178183 0.5710153580 4292400337
-0.2713291049 -0.1462156475 0.5711414218 4292400337
-0.2713887691 -0.1456130743 0.5712670088 4292269523
-0.2714482248 -0.1450101137 0.5713921189 4292335316
-0.2719257772 -0.1446292549 0.5723973513 4292335573
-0.2719848752 -0.1440245658 0.5725217462 4292467159
-0.2716252208 -0.1431988478 0.5717646480 4292467159
-0.2716837525 -0.1425943077 0.5718879104 4292401366
-0.2717421055 -0.1419893801 0.5720106959 4292401366
-0.2718001902 -0.1413840652 0.5721330047 4292335573
-0.2722769678 -0.1409952641 0.5731366277 4292532952
-0.2723347247 -0.1403882504 0.5732581615 4292532952
-0.2723922431 -0.1397808343 0.5733792782 4292467672
-0.2724495530 -0.1391730309 0.5734998584 4292533465
-0.2725066245 -0.1385648549 0.5736200213 4292665051
-0.2729828060 -0.1381685436 0.5746223330 4292730844
-0.2730394900 -0.1375586540 0.5747417212 4292730844
-0.2735154927 -0.1371587664 0.5757436752 4292796637
-0.2739914060 -0.1367566288 0.5767454505 4292927451
-0.2740476131 -0.1361437440 0.5768637657 4292993244
-0.2741035819 -0.1355304718 0.5769815445 4293189853
-0.2745791674 -0.1351234466 0.5779826641 4293189853
-0.2750546634 -0.1347141564 0.5789836049 4292993244
-0.2755301297 -0.1343026310 0.5799844265 4293059037
-0.2760055363 -0.1338888258 0.5809851289 4293190882
-0.2764808536 -0.1334727854 0.5819857121 4293388261
-0.2769561112 -0.1330544800 0.5829861164 4293454054
-0.2770109773 -0.1324329674 0.5831015706 4293651433
-0.2756828368 -0.2031968087 0.5816657543 4291415510
-0.2757622004 -0.2026088536 0.5818331838 4291283924
-0.2754327059 -0.2017210871 0.5811380148 4291152338
-0.2759203613 -0.2014314085 0.5821669102 4291020752
-0.2759991884 -0.2008419335 0.5823332071 4290954959
-0.2760778069 -0.2002519369 0.5824990869 4290888137
-0.2761562467 -0.1996614486 0.5826646090 4290888137
-0.2762344778 -0.1990704685 0.5828297138 4290822344
-0.2763125598 -0.1984789670 0.5829944015 4290690758
-0.2763904333 -0.1978869736 0.5831587315 4290624965
-0.2768777013 -0.1975867748 0.5841867924 4290493379
-0.2769553065 -0.1969929039 0.5843505263 4290427840
-0.2770327032 -0.1963985264 0.5845139027 4290427840
-0.2771099508 -0.1958036572 0.5846768618 4290165182
-0.2771869898 -0.1952082962 0.5848394036 4290099389
-0.2772638202 -0.1946124434 0.5850015283 4289967803
-0.2777507603 -0.1943030804 0.5860288739 4289770424
-0.2778273225 -0.1937053502 0.5861904025 4289573045
-0.2774932086 -0.1928218901 0.5854854584 4289441459
-0.2779798806 -0.1925084144 0.5865123272 4289309873
-0.2780558765 -0.1919091940 0.5866726637 4289178287
-0.2785424888 -0.1915920824 0.5876993537 4289177770
-0.2786181867 -0.1909909993 0.5878590941 4288848805
-0.2786937058 -0.1903894395 0.5880184174 4288585633
-0.2787690163 -0.1897873729 0.5881773233 4288388254
-0.2788441479 -0.1891848296 0.5883358121 4288190875
-0.2789190710 -0.1885817945 0.5884938836 4288059289
-0.2789937854 -0.1879782826 0.5886515379 4287993237
-0.2786566913 -0.1870979220 0.5879403353 4287861651
-0.2787308991 -0.1864943355 0.5880969167 4287795856
-0.2788048983 -0.1858902574 0.5882530212 4287664270
-0.2792906463 -0.1855593920 0.5892779231 4287467144
-0.2793643475 -0.1849534661 0.5894334316 4287467144
-0.2794378698 -0.1843470484 0.5895885229 4287467144
-0.2795111835 -0.1837401688 0.5897431970 4287401351
-0.2795842886 -0.1831327975 0.5898974538 4287335045
-0.2796571851 -0.1825249642 0.5900512934 4287269252
-0.2797298729 -0.1819166541 0.5902046561 4287335558
-0.2798023522 -0.1813078672 0.5903576016 4287335558
-0.2794618607 -0.1804320961 0.5896391273 4287335046
-0.2795338333 -0.1798232645 0.5897909999 4287335046
-0.2796055973 -0.1792139560 0.5899424553 4287400841
-0.2796771526 -0.1786041856 0.5900934339 4287466634
-0.2797484994 -0.1779939532 0.5902439356 4287664011
-0.2794063389 -0.1771212369 0.5895220041 4287992976
-0.2794771492 -0.1765109599 0.5896714330 4288190606
-0.2791342437 -0.1756400317 0.5889478922 4288387985
-0.2787909210 -0.1747704297 0.5882235169 4288848017
-0.2784471810 -0.1739021987 0.5874982476 4289176982
-0.2781029940 -0.1730353087 0.5867720842 4289440156
-0.2777584195 -0.1721697748 0.5860450864 4289637535
-0.2774134278 -0.1713055968 0.5853171349 4289703845
-0.2766538560 -0.1701880097 0.5837145448 4289901224
-0.2758936882 -0.1690735966 0.5821106434 4289967019
-0.2755472362 -0.1682153344 0.5813796520 4290164398
-0.2747859359 -0.1671064049 0.5797733665 4290295984
-0.2744385600 -0.1662517935 0.5790404081 4290493363
-0.2736760974 -0.1651483476 0.5774317384 4290690742
-0.2729130387 -0.1640481055 0.5758217573 4290756535
-0.2733939588 -0.1636962742 0.5768364072 4290822328
-0.2722150087 -0.1623522341 0.5743489861 4290888121
-0.2722804546 -0.1617529541 0.5744870305 4290888121
-0.2715153396 -0.1606619358 0.5728727579 4290888121
-0.2719954252 -0.1603083760 0.5738856196 4290953914
-0.2712293863 -0.1592210680 0.5722693801 4290953914
-0.2712936699 -0.1586228162 0.5724050403 4291019707
-0.2713577449 -0.1580241621 0.5725402236 4291151293
-0.2710059583 -0.1571839899 0.5717980266 4291217086
-0.2710695267 -0.1565853953 0.5719320774 4291282879
-0.2707170248 -0.1557471305 0.5711883307 4291348418
-0.2707800567 -0.1551486105 0.5713213086 4291480004
-0.2708428800 -0.1545496881 0.5714538693 4291545797
-0.2709054649 -0.1539503336 0.5715859532 4291611590
-0.2709678710 -0.1533505619 0.5717176199 4291808455
-0.2706137002 -0.1525157541 0.5709703565 4291874248
-0.2706755698 -0.1519160867 0.5711008906 4291743176
-0.2707372308 -0.1513160020 0.5712309480 4291743176
-0.2707986534 -0.1507155150 0.5713605881 4291808969
-0.2708598673 -0.1501146257 0.5714897513 4291874762
-0.2709208727 -0.1495133191 0.5716184378 4292071627
-0.2709816396 -0.1489116102 0.5717467070 4292137420
-0.2710422277 -0.1483094990 0.5718744993 4292203213
-0.2711025476 -0.1477069855 0.5720018148 4292269006
-0.2711626887 -0.1471040696 0.5721286535 4292203727
-0.2712225914 -0.1465007514 0.5722550750 4292269520
-0.2712822855 -0.1458970308 0.5723809600 4292204241
-0.2713417411 -0.1452929080 0.5725064278 4292270034
-0.2718185186 -0.1449110061 0.5735124350 4292335827
-0.2718776464 -0.1443051696 0.5736371279 4292467413
-0.2719365358 -0.1436989307 0.5737614036 4292533206
-0.2719951868 -0.1430923045 0.5738852024 4292467413
-0.2720536590 -0.1424852908 0.5740085244 4292335827
-0.2721118629 -0.1418778747 0.5741313696 4292335827
-0.2721698582 -0.1412700862 0.5742537379 4292467413
-0.2726458013 -0.1408779770 0.5752578974 4292533206
-0.2722851932 -0.1400533319 0.5744970441 4292467670
-0.2723425031 -0.1394443661 0.5746179819 4292533463
-0.2728180289 -0.1390482932 0.5756213069 4292665049
-0.2728750110 -0.1384376287 0.5757414699 4292730842
-0.2729317248 -0.1378265917 0.5758611560 4292796378
-0.2734069228 -0.1374256313 0.5768638253 4292862171
-0.2738820612 -0.1370224059 0.5778663158 4292927451
-0.2739382982 -0.1364083439 0.5779849291 4292993244
-0.2739942670 -0.1357939094 0.5781030655 4293059037
-0.2744690776 -0.1353857964 0.5791048408 4293059037
-0.2753629386 -0.1351811737 0.5809907913 4293059037
-0.2754184902 -0.1345628053 0.5811079741 4293124830
-0.2758930922 -0.1341479123 0.5821093917 4293190882
-0.2763676345 -0.1337307841 0.5831106305 4293322468
-0.2768421173 -0.1333113760 0.5841117501 4293454054
-0.2773165107 -0.1328897327 0.5851126909 4293651433
-0.2747366130 -0.2029750496 0.5810309052 4291481557
-0.2748157680 -0.2023877650 0.5811983347 4291218385
-0.2744868696 -0.2015005797 0.5805027485 4291021006
-0.2745655477 -0.2009131610 0.5806691647 4290955213
-0.2746440470 -0.2003252506 0.5808351040 4290823627
-0.2751305401 -0.2000336200 0.5818639994 4290691012
-0.2752087712 -0.1994438171 0.5820294619 4290625219
-0.2752868235 -0.1988535076 0.5821945071 4290493633
-0.2749561071 -0.1979685426 0.5814951062 4290427840
-0.2754423320 -0.1976713985 0.5825234056 4290427840
-0.2755198181 -0.1970795989 0.5826872587 4290230461
-0.2755970955 -0.1964872926 0.5828507543 4290098875
-0.2756741941 -0.1958944947 0.5830137730 4290164668
-0.2761602402 -0.1955909580 0.5840417147 4289967289
-0.2762370706 -0.1949962825 0.5842041969 4289901496
-0.2763137221 -0.1944011152 0.5843662620 4289835703
-0.2763901651 -0.1938054413 0.5845279694 4289638324
-0.2764664292 -0.1932092905 0.5846891999 4289440945
-0.2769521773 -0.1928979903 0.5857165456 4289243566
-0.2766183615 -0.1920154840 0.5850105286 4289046187
-0.2766940296 -0.1914178580 0.5851705670 4288848808
-0.2771795392 -0.1911024153 0.5861973763 4288716962
-0.2772549391 -0.1905029267 0.5863568187 4288453790
-0.2773301303 -0.1899029315 0.5865158439 4288190616
-0.2774051428 -0.1893024594 0.5866745114 4287993237
-0.2774799466 -0.1887014955 0.5868327022 4287730063
-0.2775545716 -0.1881000400 0.5869904757 4287598477
-0.2776289582 -0.1874981076 0.5871478915 4287532938
-0.2772923708 -0.1866192073 0.5864360332 4287401352
-0.2773662806 -0.1860172004 0.5865923166 4287401351
-0.2774399817 -0.1854147166 0.5867481828 4287401351
-0.2775135040 -0.1848117411 0.5869036317 4287401092
-0.2779980302 -0.1844812036 0.5879283547 4287335299
-0.2780712545 -0.1838763803 0.5880832076 4287466631
-0.2781442404 -0.1832710803 0.5882375836 4287335045
-0.2782170475 -0.1826653033 0.5883916020 4287269253
-0.2787013352 -0.1823283732 0.5894157290 4287335046
-0.2787738442 -0.1817207634 0.5895690918 4287203972
-0.2788461447 -0.1811126620 0.5897219777 4287138179
-0.2789182365 -0.1805040985 0.5898744464 4287203462
-0.2785780132 -0.1796293408 0.5891549587 4287335048
-0.2786495984 -0.1790207326 0.5893063545 4287400587
-0.2783086598 -0.1781477332 0.5885853171 4287334794
-0.2787921429 -0.1778021157 0.5896077752 4287335046
-0.2788631022 -0.1771920919 0.5897578597 4287400839
-0.2785212100 -0.1763204038 0.5890348554 4287598467
-0.2785916626 -0.1757103801 0.5891838074 4287730053
-0.2786618769 -0.1750998795 0.5893323421 4288190341
-0.2783189714 -0.1742304116 0.5886070728 4288650892
-0.2779756188 -0.1733622998 0.5878809690 4289045396
-0.2776318789 -0.1724955589 0.5871540308 4289242775
-0.2772877216 -0.1716301590 0.5864261389 4289505696
-0.2769431174 -0.1707661152 0.5856974125 4289768868
-0.2761846781 -0.1696494818 0.5840933919 4289769640
-0.2758391798 -0.1687890887 0.5833626390 4289901226
-0.2754932344 -0.1679300666 0.5826310515 4289967019
-0.2747331560 -0.1668211818 0.5810235739 4290098605
-0.2739724219 -0.1657155007 0.5794147849 4290295984
-0.2736250758 -0.1648624390 0.5786801577 4290427570
-0.2732772827 -0.1640107632 0.5779446363 4290493363
-0.2729291022 -0.1631604731 0.5772082806 4290624949
-0.2725805044 -0.1623115689 0.5764710307 4290690742
-0.2722314894 -0.1614640653 0.5757328868 4290690742
-0.2718820572 -0.1606179625 0.5749939084 4290756535
-0.2715322375 -0.1597732604 0.5742540956 4290822328
-0.2715966403 -0.1591729671 0.5743902922 4290953914
-0.2712461054 -0.1583301574 0.5736489296 4291151293
-0.2713100016 -0.1577299386 0.5737840533 4291217086
-0.2709587216 -0.1568890363 0.5730412006 4291282879
-0.2710220814 -0.1562888920 0.5731751919 4291216832
-0.2706701159 -0.1554498971 0.5724307895 4291348418
-0.2707329392 -0.1548498422 0.5725637078 4291348418
-0.2707955837 -0.1542493552 0.5726961493 4291414211
-0.2708579898 -0.1536484510 0.5728281736 4291611590
-0.2709201872 -0.1530471295 0.5729597211 4291743176
-0.2709821761 -0.1524454057 0.5730907917 4291743430
-0.2710439563 -0.1518432647 0.5732214451 4291743430
-0.2706896961 -0.1510087550 0.5724722147 4291809223
-0.2707509398 -0.1504067034 0.5726017356 4291875016
-0.2708119452 -0.1498042643 0.5727307796 4291940809
-0.2708727717 -0.1492014080 0.5728594065 4292006602
-0.2709333599 -0.1485981494 0.5729875565 4292072395
-0.2709937096 -0.1479944885 0.5731152296 4292138188
-0.2714702487 -0.1476168334 0.5741229653 4292203981
-0.2715302706 -0.1470114440 0.5742499232 4292269774
-0.2715900540 -0.1464056522 0.5743764043 4292138447
-0.2716496289 -0.1457994580 0.5745024085 4292270033
-0.2717089951 -0.1451928616 0.5746279359 4292335826
-0.2717681527 -0.1445858628 0.5747529864 4292467412
-0.2718270421 -0.1439784765 0.5748776197 4292598998
-0.2718857527 -0.1433707029 0.5750017166 4292467412
-0.2719442248 -0.1427625269 0.5751253963 4292335826
-0.2720024586 -0.1421539634 0.5752485394 4292401619
-0.2720604837 -0.1415450126 0.5753712654 4292401619
-0.2725356519 -0.1411518306 0.5763761401 4292533205
-0.2725933194 -0.1405411512 0.5764980912 4292533205
-0.2726507485 -0.1399300992 0.5766195655 4292598998
-0.2727079391 -0.1393186599 0.5767405629 4292730585
-0.2731826305 -0.1389192641 0.5777444839 4292730585
-0.2732394934 -0.1383061111 0.5778647065 4292796378
-0.2732960880 -0.1376925856 0.5779844522 4292862171
-0.2733524740 -0.1370786875 0.5781036615 4292862171
-0.2738266885 -0.1366730630 0.5791065693 4292862171
-0.2743008435 -0.1362651736 0.5801093578 4292993244
-0.2743567228 -0.1356482506 0.5802274942 4293059037
-0.2752489746 -0.1354426444 0.5821145177 4293124830
-0.2753045559 -0.1348230839 0.5822320580 4293190623
-0.2757783830 -0.1344071031 0.5832340717 4293190882
-0.2762521207 -0.1339888722 0.5842360258 4293256675
-0.2767258286 -0.1335683912 0.5852378011 4293519847
-0.2771994472 -0.1331456304 0.5862394571 4293585640
-0.2733845413 -0.2024516761 0.5795327425 4291481303
-0.2734633684 -0.2018659711 0.5796998739 4291152338
-0.2731349468 -0.2009802163 0.5790036917 4290954959
-0.2736204863 -0.2006930262 0.5800328851 4290823627
-0.2736987472 -0.2001057863 0.5801988244 4290560455
-0.2737768292 -0.1995180547 0.5803643465 4290494662
-0.2738547623 -0.1989298165 0.5805295110 4290428869
-0.2739324570 -0.1983410865 0.5806942582 4290165697
-0.2740100026 -0.1977518499 0.5808585882 4290034111
-0.2740873396 -0.1971621066 0.5810225606 4290099904
-0.2741644979 -0.1965718716 0.5811861157 4289902525
-0.2742414773 -0.1959811449 0.5813493133 4289704886
-0.2747264802 -0.1956806630 0.5823774338 4289639093
-0.2748031616 -0.1950880587 0.5825400352 4289835700
-0.2748796940 -0.1944949478 0.5827022195 4289638321
-0.2749560177 -0.1939013600 0.5828639865 4289506735
-0.2754408121 -0.1935945004 0.5838916898 4289243563
-0.2755168676 -0.1929990202 0.5840529203 4288914852
-0.2751838267 -0.1921176016 0.5833469629 4288783266
-0.2760773897 -0.1920911819 0.5852411985 4288782751
-0.2757438719 -0.1912096590 0.5845341682 4288585372
-0.2758191526 -0.1906122267 0.5846937299 4288321941
-0.2758942544 -0.1900143027 0.5848529339 4288190355
-0.2759691477 -0.1894159019 0.5850116611 4288058769
-0.2760438323 -0.1888169944 0.5851700306 4287992976
-0.2761183381 -0.1882176101 0.5853279233 4287861390
-0.2761926353 -0.1876177490 0.5854854584 4287729804
-0.2762667239 -0.1870173961 0.5856425166 4287598218
-0.2763406336 -0.1864165664 0.5857992172 4287598218
-0.2764143646 -0.1858152449 0.5859554410 4287532424
-0.2764878571 -0.1852134466 0.5861113071 4287532424
-0.2765611708 -0.1846111715 0.5862666965 4287466631
-0.2766342759 -0.1840084195 0.5864216685 4287466631
-0.2767071724 -0.1834051907 0.5865762234 4287532424
-0.2767798901 -0.1828014851 0.5867303610 4287466631
-0.2772631645 -0.1824676245 0.5877547860 4287466631
-0.2773355842 -0.1818620712 0.5879083276 4287466631
-0.2774077654 -0.1812560409 0.5880613923 4287401351
-0.2774797678 -0.1806495339 0.5882139802 4287335558
-0.2775515914 -0.1800425649 0.5883662105 4287400838
-0.2776231766 -0.1794351190 0.5885179639 4287400838
-0.2776945531 -0.1788272113 0.5886693001 4287400839
-0.2777657509 -0.1782188267 0.5888202190 4287269253
-0.2774251103 -0.1773468554 0.5880981088 4287269255
-0.2774957716 -0.1767384410 0.5882478952 4287335048
-0.2775662243 -0.1761295646 0.5883972645 4287400839
-0.2776364982 -0.1755202264 0.5885462165 4287335046
-0.2777065337 -0.1749104261 0.5886946917 4287597701
-0.2777763605 -0.1743001640 0.5888426900 4288124045
-0.2774337530 -0.1734317392 0.5881164670 4288584848
-0.2775030732 -0.1728214622 0.5882633924 4288913813
-0.2771597207 -0.1719548553 0.5875355601 4289176984
-0.2768159807 -0.1710895896 0.5868068337 4289440156
-0.2764717937 -0.1702256948 0.5860772729 4289637025
-0.2761272192 -0.1693631709 0.5853468180 4289834404
-0.2757822275 -0.1685020179 0.5846154690 4290031781
-0.2750238776 -0.1673909128 0.5830078721 4290229160
-0.2746779323 -0.1665334105 0.5822745562 4290361258
-0.2739184499 -0.1654277891 0.5806645751 4290492844
-0.2735716105 -0.1645739675 0.5799292922 4290558384
-0.2732243538 -0.1637215465 0.5791931748 4290624177
-0.2728766799 -0.1628705114 0.5784561634 4290821558
-0.2725285888 -0.1620208621 0.5777182579 4290755765
-0.2725937665 -0.1614175588 0.5778564215 4290821558
-0.2718312144 -0.1603257656 0.5762399435 4290953144
-0.2718957365 -0.1597234458 0.5763767362 4290953914
-0.2715461254 -0.1588784903 0.5756356120 4291085500
-0.2711960971 -0.1580349356 0.5748935938 4291282879
-0.2712598145 -0.1574331671 0.5750285983 4291348672
-0.2709090710 -0.1565915346 0.5742850900 4291413693
-0.2709722519 -0.1559898257 0.5744190216 4291413693
-0.2706207633 -0.1551501155 0.5736739635 4291414465
-0.2706834376 -0.1545484960 0.5738068223 4291414465
-0.2707458735 -0.1539464593 0.5739391446 4291348672
-0.2708081007 -0.1533440053 0.5740710497 4291546051
-0.2708700895 -0.1527411342 0.5742025375 4291743430
-0.2709318995 -0.1521378458 0.5743334889 4291809223
-0.2709934711 -0.1515341550 0.5744640231 4291809223
-0.2706397474 -0.1506989151 0.5737141967 4291875016
-0.2707007825 -0.1500953287 0.5738435984 4291941069
-0.2707616091 -0.1494913399 0.5739725232 4291941069
-0.2708222270 -0.1488869339 0.5741010308 4291941069
-0.2708826363 -0.1482821256 0.5742290616 4292006862
-0.2713583410 -0.1479034126 0.5752375126 4292072654
-0.2714183927 -0.1472968608 0.5753648281 4292204240
-0.2714782357 -0.1466899216 0.5754916668 4292270544
-0.2715378404 -0.1460825801 0.5756180286 4292336337
-0.2715972066 -0.1454748362 0.5757439137 4292402130
-0.2716563940 -0.1448666900 0.5758693218 4292336337
-0.2717153132 -0.1442581564 0.5759942532 4292401619
-0.2717740238 -0.1436492205 0.5761187077 4292401619
-0.2718325257 -0.1430398822 0.5762426853 4292467412
-0.2718907893 -0.1424301565 0.5763662457 4292598998
-0.2723653018 -0.1420372277 0.5773721337 4292533205
-0.2728397548 -0.1416420341 0.5783779025 4292664791
-0.2728975415 -0.1410292834 0.5785003901 4292730584
-0.2729550898 -0.1404161304 0.5786223412 4292730584
-0.2730123997 -0.1398025900 0.5787438750 4292927964
-0.2734864056 -0.1394011676 0.5797486305 4292927964
-0.2735433578 -0.1387859136 0.5798693895 4292927964
-0.2736000717 -0.1381702870 0.5799896121 4292993757
-0.2736565769 -0.1375542730 0.5801094174 4292927450
-0.2741300762 -0.1371466219 0.5811131597 4292993243
-0.2741861939 -0.1365289092 0.5812321305 4293059290
-0.2746595144 -0.1361176819 0.5822354555 4293059290
-0.2751327455 -0.1357042044 0.5832386613 4293125083
-0.2756059170 -0.1352884471 0.5842417479 4293388255
-0.2760790586 -0.1348704547 0.5852446556 4293454308
-0.2761343420 -0.1342470795 0.5853618979 4293388515
-0.2718774974 -0.2030945420 0.5776982307 4291481303
-0.2723622620 -0.2028136551 0.5787282586 4291481303
-0.2724410594 -0.2022291422 0.5788956881 4291415510
-0.2725196779 -0.2016441077 0.5790627599 4291086545
-0.2725981176 -0.2010585815 0.5792294145 4290889166
-0.2726763785 -0.2004725486 0.5793956518 4290757834
-0.2723479569 -0.1995881200 0.5786978602 4290428869
-0.2724257112 -0.1990019381 0.5788630843 4290363076
-0.2725032866 -0.1984152794 0.5790278912 4290165697
-0.2725806832 -0.1978280991 0.5791924000 4289902525
-0.2726579010 -0.1972404420 0.5793564320 4289770939
-0.2727349401 -0.1966522634 0.5795201063 4289705146
-0.2728117704 -0.1960635930 0.5796833634 4289507767
-0.2728884220 -0.1954744309 0.5798462629 4289310128
-0.2729648650 -0.1948847771 0.5800086856 4289112749
-0.2734486759 -0.1945846081 0.5810366869 4289243563
-0.2735248804 -0.1939930767 0.5811986327 4289046184
-0.2736008763 -0.1934010535 0.5813601017 4288980391
-0.2740845680 -0.1930958778 0.5823878646 4288783012
-0.2741602957 -0.1925019920 0.5825487971 4288388508
-0.2746439278 -0.1921931803 0.5835764408 4288191129
-0.2747194171 -0.1915974170 0.5837368369 4288256407
-0.2743863761 -0.1907173544 0.5830291510 4288059028
-0.2744613290 -0.1901215017 0.5831884742 4287796110
-0.2745361030 -0.1895251572 0.5833473802 4287730317
-0.2746106982 -0.1889283359 0.5835058093 4287664524
-0.2746850848 -0.1883310229 0.5836638808 4287664524
-0.2747592628 -0.1877332181 0.5838215351 4287532938
-0.2748332620 -0.1871349365 0.5839787722 4287467145
-0.2749070823 -0.1865361631 0.5841355920 4287401352
-0.2749806643 -0.1859369129 0.5842919350 4287401352
-0.2750540674 -0.1853371859 0.5844479203 4287401351
-0.2751272917 -0.1847369820 0.5846034884 4287401351
-0.2752002776 -0.1841362864 0.5847585797 4287467144
-0.2752730846 -0.1835351288 0.5849133134 4287401351
-0.2753456831 -0.1829334795 0.5850675702 4287401351
-0.2758279443 -0.1826026887 0.5860922933 4287401351
-0.2759002745 -0.1819992065 0.5862459540 4287467144
-0.2759723663 -0.1813952476 0.5863991976 4287467144
-0.2764544487 -0.1810594350 0.5874235630 4287336071
-0.2765262723 -0.1804536283 0.5875761509 4287270278
-0.2761875093 -0.1795805246 0.5868563056 4287269765
-0.2762587965 -0.1789746732 0.5870077610 4287335558
-0.2763299048 -0.1783683598 0.5871588588 4287400839
-0.2768114805 -0.1780257076 0.5881821513 4287335046
-0.2768822610 -0.1774175465 0.5883325934 4287269512
-0.2765419483 -0.1765466034 0.5876094103 4287269512
-0.2766122222 -0.1759384274 0.5877587795 4287400839
-0.2766822875 -0.1753297895 0.5879076123 4287203460
-0.2767521441 -0.1747206748 0.5880560875 4287268736
-0.2768217921 -0.1741111130 0.5882040858 4287400322
-0.2768912315 -0.1735010892 0.5883516073 4287597953
-0.2769604623 -0.1728906035 0.5884987116 4287926918
-0.2766178548 -0.1720236838 0.5877707005 4288453261
-0.2766865492 -0.1714131832 0.5879167318 4288979605
-0.2763432264 -0.1705480814 0.5871871710 4289308058
-0.2764114141 -0.1699375957 0.5873320699 4289505437
-0.2756552994 -0.1688219607 0.5857254267 4289702815
-0.2753107250 -0.1679609567 0.5849932432 4289900194
-0.2745534778 -0.1668507904 0.5833842754 4290097573
-0.2750326693 -0.1664926857 0.5844024420 4290163366
-0.2742744982 -0.1653862149 0.5827914476 4290163880
-0.2735157311 -0.1642829478 0.5811792016 4290295466
-0.2731689811 -0.1634297669 0.5804424286 4290426798
-0.2728218436 -0.1625779867 0.5797047615 4290492591
-0.2724742889 -0.1617275923 0.5789662600 4290558384
-0.2725392580 -0.1611227244 0.5791043043 4290624177
-0.2721909881 -0.1602742225 0.5783643126 4290821556
-0.2718422711 -0.1594271213 0.5776233673 4291018935
-0.2714931965 -0.1585814357 0.5768815875 4291150521
-0.2711436749 -0.1577371508 0.5761389732 4291282107
-0.2712071836 -0.1571338177 0.5762739182 4291019705
-0.2708569765 -0.1562914550 0.5755297542 4291085498
-0.2709199488 -0.1556881964 0.5756635666 4291217084
-0.2709827423 -0.1550845206 0.5757969618 4291348670
-0.2710452974 -0.1544804275 0.5759298801 4291348672
-0.2711076438 -0.1538759023 0.5760623813 4291480258
-0.2711697817 -0.1532709748 0.5761944056 4291677635
-0.2712316811 -0.1526656300 0.5763259530 4291677635
-0.2708791792 -0.1518277228 0.5755769610 4291677637
-0.2709405720 -0.1512224674 0.5757073760 4291809223
-0.2710017264 -0.1506168097 0.5758373141 4291875275
-0.2710626721 -0.1500107497 0.5759668350 4291941068
-0.2711234093 -0.1494042724 0.5760958791 4291941068
-0.2711839080 -0.1487973928 0.5762244463 4292006861
-0.2712441981 -0.1481900960 0.5763525367 4292138445
-0.2713042796 -0.1475824118 0.5764802098 4292270031
-0.2713641226 -0.1469743103 0.5766073465 4292072652
-0.2714237571 -0.1463658214 0.5767340660 4292138445
-0.2718982697 -0.1459797919 0.5777423382 4292204238
-0.2719575465 -0.1453695595 0.5778682828 4292204238
-0.2720166147 -0.1447589397 0.5779938102 4292204238
-0.2720754445 -0.1441479176 0.5781188011 4292270031
-0.2721340358 -0.1435364932 0.5782433152 4292402132
-0.2721924186 -0.1429246813 0.5783673525 4292599511
-0.2722505927 -0.1423124671 0.5784909725 4292467925
-0.2731399834 -0.1421325505 0.5803807974 4292533718
-0.2731978893 -0.1415176839 0.5805038214 4292599511
-0.2732555270 -0.1409024298 0.5806263089 4292599511
-0.2733129561 -0.1402867883 0.5807483196 4292731097
-0.2737862468 -0.1398833543 0.5817540288 4292731097
-0.2738433182 -0.1392659992 0.5818752646 4292665304
-0.2739001513 -0.1386482716 0.5819960237 4292665304
-0.2739567459 -0.1380301416 0.5821163058 4292862170
-0.2744295597 -0.1376204789 0.5831209421 4292862170
-0.2744857967 -0.1370006502 0.5832403898 4292993243
-0.2745417953 -0.1363804489 0.5833594203 4293124829
-0.2750142515 -0.1359658688 0.5843632817 4293191135
-0.2754866183 -0.1355490386 0.5853670239 4293322721
-0.2763758004 -0.1353340596 0.5872564316 4293125600
-0.2764312029 -0.1347085685 0.5873741508 4292862428
-0.2769033909 -0.1342849433 0.5883774757 4292533465
-0.2773755193 -0.1338590682 0.5893806815 4292533465
-0.2705312371 -0.2025669217 0.5761974454 4291415510
-0.2710148692 -0.2022877187 0.5772275329 4291415510
-0.2710933387 -0.2017047703 0.5773946643 4291283924
-0.2711716294 -0.2011213005 0.5775613785 4290889420
-0.2716552019 -0.2008370906 0.5785913467 4290757834
-0.2713276744 -0.1999528557 0.5778937340 4290626248
-0.2709997296 -0.1990698725 0.5771952271 4290231490
-0.2710771561 -0.1984852701 0.5773601532 4290297283
-0.2715603411 -0.1981964260 0.5783892870 4290034111
-0.2712315023 -0.1973145753 0.5776888728 4289770939
-0.2713083923 -0.1967284679 0.5778526664 4289573560
-0.2713850737 -0.1961418688 0.5780159831 4289376179
-0.2714616060 -0.1955547780 0.5781790018 4289178800
-0.2715379298 -0.1949671805 0.5783415437 4288981163
-0.2716140747 -0.1943790913 0.5785037279 4288717991
-0.2720967531 -0.1940806210 0.5795317888 4288914598
-0.2721726298 -0.1934906691 0.5796933770 4288585633
-0.2726552784 -0.1931885481 0.5807213783 4288454301
-0.2723238170 -0.1923092753 0.5800154209 4288322715
-0.2728063166 -0.1920044124 0.5810430646 4287993235
-0.2728815377 -0.1914115995 0.5812032819 4287795856
-0.2733639777 -0.1911031157 0.5822308064 4287796110
-0.2734389603 -0.1905084401 0.5823904872 4287796110
-0.2735137045 -0.1899132729 0.5825497508 4287532938
-0.2731805742 -0.1890354902 0.5818401575 4287532938
-0.2732548416 -0.1884402335 0.5819983482 4287532938
-0.2733289003 -0.1878444999 0.5821561217 4287467145
-0.2734028101 -0.1872482896 0.5823134780 4287467145
-0.2734764814 -0.1866515875 0.5824704170 4287467145
-0.2735499740 -0.1860544086 0.5826269388 4287467145
-0.2736232579 -0.1854567528 0.5827830434 4287467145
-0.2736963630 -0.1848586053 0.5829387307 4287401351
-0.2737692595 -0.1842599809 0.5830940008 4287401351
-0.2738419771 -0.1836608946 0.5832488537 4287401351
-0.2739144862 -0.1830613166 0.5834032893 4287467144
-0.2739867866 -0.1824612617 0.5835573077 4287467144
-0.2744679451 -0.1821321696 0.5845820904 4287467144
-0.2745399475 -0.1815302819 0.5847354531 4287467144
-0.2750210166 -0.1811975390 0.5857601166 4287532937
-0.2750927508 -0.1805938035 0.5859128237 4287336071
-0.2751642466 -0.1799895912 0.5860651731 4287336071
-0.2752355635 -0.1793849170 0.5862170458 4287335558
-0.2753066719 -0.1787797660 0.5863685012 4287335558
-0.2753775716 -0.1781741381 0.5865195394 4287335559
-0.2754482925 -0.1775680482 0.5866701007 4287335559
-0.2755187750 -0.1769614965 0.5868202448 4287335559
-0.2755890787 -0.1763544828 0.5869699717 4287269766
-0.2756591737 -0.1757470071 0.5871192813 4287335046
-0.2757290304 -0.1751390547 0.5872681141 4287137667
-0.2753883004 -0.1742709279 0.5865423679 4287071357
-0.2758681774 -0.1739217788 0.5875644088 4287005564
-0.2759374380 -0.1733124554 0.5877119303 4286940023
-0.2760064900 -0.1727026701 0.5878590345 4287005816
-0.2760753334 -0.1720924228 0.5880056024 4287466366
-0.2761439383 -0.1714817286 0.5881518126 4287926917
-0.2758013308 -0.1706162989 0.5874220729 4288387209
-0.2758694589 -0.1700056046 0.5875671506 4288781967
-0.2759373486 -0.1693944633 0.5877117515 4289110932
-0.2755936980 -0.1685313135 0.5869798064 4289374104
-0.2748382092 -0.1674189270 0.5853707194 4289702815
-0.2753166854 -0.1670588851 0.5863898396 4289768608
-0.2741486430 -0.1657013744 0.5839020014 4289768608
-0.2738032341 -0.1648446620 0.5831663609 4289900194
-0.2734574378 -0.1639893502 0.5824298263 4290031781
-0.2731112242 -0.1631354243 0.5816924572 4290163367
-0.2727645934 -0.1622828841 0.5809541941 4290229159
-0.2724175453 -0.1614317596 0.5802150369 4290426538
-0.2724823356 -0.1608253270 0.5803530216 4290689711
-0.2721345723 -0.1599760801 0.5796123147 4290821297
-0.2721988261 -0.1593697071 0.5797491670 4290887092
-0.2718503475 -0.1585223675 0.5790069699 4290952885
-0.2710888386 -0.1574368030 0.5773850679 4290821810
-0.2715648711 -0.1570706218 0.5783989429 4290887603
-0.2712152600 -0.1562265903 0.5776543617 4291084728
-0.2708652616 -0.1553839892 0.5769088268 4291216314
-0.2709278464 -0.1547787637 0.5770421624 4291151291
-0.2709902227 -0.1541731060 0.5771749616 4291217084
-0.2710523605 -0.1535670310 0.5773073435 4291414461
-0.2711142898 -0.1529605538 0.5774392486 4291480254
-0.2711760104 -0.1523536444 0.5775707364 4291414463
-0.2708240449 -0.1515150070 0.5768210888 4291480256
-0.2708852291 -0.1509082019 0.5769513845 4291611842
-0.2709462047 -0.1503009945 0.5770812631 4291743428
-0.2710069418 -0.1496933699 0.5772106647 4291678148
-0.2710675001 -0.1490853429 0.5773395896 4291809734
-0.2711277902 -0.1484769136 0.5774680376 4291941320
-0.2711879015 -0.1478680670 0.5775960088 4292007113
-0.2712477744 -0.1472588181 0.5777235627 4292138445
-0.2717216313 -0.1468730569 0.5787327886 4292072652
-0.2717811465 -0.1462620795 0.5788595676 4292138445
-0.2718404531 -0.1456506997 0.5789858699 4292204238
-0.2718995214 -0.1450389177 0.5791116953 4292138445
-0.2723729610 -0.1446468979 0.5801200271 4292204238
-0.2724316716 -0.1440333873 0.5802450776 4292335824
-0.2724901736 -0.1434194893 0.5803696513 4292401617
-0.2725484371 -0.1428051740 0.5804938078 4292401617
-0.2730214000 -0.1424069107 0.5815011263 4292467410
-0.2734943032 -0.1420063823 0.5825083852 4292533718
-0.2735520899 -0.1413890272 0.5826314688 4292533718
-0.2736096084 -0.1407712847 0.5827540159 4292599511
-0.2736669481 -0.1401531547 0.5828760862 4292599511
-0.2741393745 -0.1397463679 0.5838823318 4292599511
-0.2741963267 -0.1391265243 0.5840035677 4292533718
-0.2742530406 -0.1385062933 0.5841243863 4292533203
-0.2743095160 -0.1378856897 0.5842446685 4292598996
-0.2743657529 -0.1372646838 0.5843644738 4292796377
-0.2748375535 -0.1368503422 0.5853693485 4292993756
-0.2753093243 -0.1364337355 0.5863741040 4292927964
-0.2757810056 -0.1360148638 0.5873787403 4292664792
-0.2762526274 -0.1355937272 0.5883832574 4292270291
-0.2767241597 -0.1351703405 0.5893875957 4292007119
-0.2767794430 -0.1345423460 0.5895053148 4291809740
-0.2772507668 -0.1341153681 0.5905091763 4291941326
-0.2695917487 -0.2023421079 0.5755579472 4291415510
-0.2696700692 -0.2017612308 0.5757251382 4291349717
-0.2697482109 -0.2011798322 0.5758919716 4291152338
-0.2698261738 -0.2005979270 0.5760584474 4290823627
-0.2699039578 -0.2000155300 0.5762245059 4290626248
-0.2699815333 -0.1994326264 0.5763901472 4290494662
-0.2700589597 -0.1988492161 0.5765554309 4290165697
-0.2701361775 -0.1982652992 0.5767202973 4290034625
-0.2702132463 -0.1976808906 0.5768848062 4289705660
-0.2702901065 -0.1970959753 0.5770488977 4289442488
-0.2699614465 -0.1962159574 0.5763472319 4289179316
-0.2700378299 -0.1956309229 0.5765103102 4289113007
-0.2713307440 -0.1959239841 0.5792706013 4288915628
-0.2701900303 -0.1944593787 0.5768352151 4288717991
-0.2702658474 -0.1938728690 0.5769971013 4288454819
-0.2707473934 -0.1935760826 0.5780252218 4288585887
-0.2708229721 -0.1929877102 0.5781865120 4288191129
-0.2708983421 -0.1923988312 0.5783474445 4288124821
-0.2713797987 -0.1920970380 0.5793753266 4288059028
-0.2714549005 -0.1915062964 0.5795356631 4287795856
-0.2715298235 -0.1909150630 0.5796955824 4287598477
-0.2720111310 -0.1906082630 0.5807231665 4287664011
-0.2720857859 -0.1900151819 0.5808825493 4287598218
-0.2721602619 -0.1894215941 0.5810415149 4287401351
-0.2718275785 -0.1885452718 0.5803313255 4287467144
-0.2719015479 -0.1879516095 0.5804892182 4287532937
-0.2719753087 -0.1873574704 0.5806466937 4287467144
-0.2720488906 -0.1867628396 0.5808038116 4287467144
-0.2721222639 -0.1861677170 0.5809604526 4287532937
-0.2721954584 -0.1855721325 0.5811166763 4287532938
-0.2722684443 -0.1849760562 0.5812725425 4287532938
-0.2723412514 -0.1843795031 0.5814279318 4287467145
-0.2724138498 -0.1837824732 0.5815829039 4287401352
-0.2724862397 -0.1831849664 0.5817375183 4287401352
-0.2729664743 -0.1828603148 0.5827627182 4287467145
-0.2730385959 -0.1822609603 0.5829166770 4287467145
-0.2731105089 -0.1816611290 0.5830702186 4287532938
-0.2735905647 -0.1813314706 0.5840951204 4287532938
-0.2736621797 -0.1807298064 0.5842480063 4287532938
-0.2737335861 -0.1801276654 0.5844004750 4287401864
-0.2738048136 -0.1795250475 0.5845525265 4287401864
-0.2738758326 -0.1789219677 0.5847041607 4287467144
-0.2739466429 -0.1783184111 0.5848553181 4287401351
-0.2744262516 -0.1779796332 0.5858792663 4287335559
-0.2744967639 -0.1773742437 0.5860297680 4287335559
-0.2741578817 -0.1765049547 0.5853062868 4287400839
-0.2746371627 -0.1761620641 0.5863295794 4287400839
-0.2747070789 -0.1755552888 0.5864787698 4287400838
-0.2747767568 -0.1749480367 0.5866276026 4287137666
-0.2748462558 -0.1743403226 0.5867758989 4287137150
-0.2753252387 -0.1739910841 0.5877985358 4287137150
-0.2749845982 -0.1731235385 0.5870712996 4287136889
-0.2750534713 -0.1725144535 0.5872183442 4286873717
-0.2751221359 -0.1719049066 0.5873649120 4286873716
-0.2751905620 -0.1712949127 0.5875110030 4287005302
-0.2752588093 -0.1706844568 0.5876567364 4287334519
-0.2753268480 -0.1700735390 0.5878019333 4287663484
-0.2753946483 -0.1694621891 0.5879467130 4288124037
-0.2754622698 -0.1688503772 0.5880910754 4288518795
-0.2751190364 -0.1679873914 0.5873582959 4288847506
-0.2747753859 -0.1671257764 0.5866246223 4289110678
-0.2744313180 -0.1662655473 0.5858901143 4289242264
-0.2740868628 -0.1654067039 0.5851547122 4289439643
-0.2737419903 -0.1645492464 0.5844184160 4289637276
-0.2733967006 -0.1636931747 0.5836812258 4289834655
-0.2730509937 -0.1628385037 0.5829432011 4289900448
-0.2727048993 -0.1619852185 0.5822042823 4290032034
-0.2723583877 -0.1611333489 0.5814644694 4290491817
-0.2724229693 -0.1605253518 0.5816023946 4290689196
-0.2720757127 -0.1596753746 0.5808610916 4290688941
-0.2721397877 -0.1590674371 0.5809978247 4290820527
-0.2717918456 -0.1582193524 0.5802549720 4290624430
-0.2718553841 -0.1576114744 0.5803906322 4290690223
-0.2715066969 -0.1567652971 0.5796462297 4290887603
-0.2715696990 -0.1561575085 0.5797807574 4291084982
-0.2712203264 -0.1553132534 0.5790348053 4291084982
-0.2712827921 -0.1547055393 0.5791682601 4291150775
-0.2713450789 -0.1540974081 0.5793011785 4291348154
-0.2714071274 -0.1534888446 0.5794336200 4291479740
-0.2714689672 -0.1528798789 0.5795656443 4291413947
-0.2711179256 -0.1520390809 0.5788161755 4291479740
-0.2711792290 -0.1514302045 0.5789470673 4291480254
-0.2712402940 -0.1508209258 0.5790774822 4291546047
-0.2713011801 -0.1502112299 0.5792074203 4291546047
-0.2713618279 -0.1496011168 0.5793369412 4291611840
-0.2714222372 -0.1489906013 0.5794659257 4291743426
-0.2714824378 -0.1483796835 0.5795944929 4291875012
-0.2715424299 -0.1477683485 0.5797225237 4291809221
-0.2716022134 -0.1471566260 0.5798501372 4291809221
-0.2720752358 -0.1467675418 0.5808600187 4291875014
-0.2721346319 -0.1461540759 0.5809868574 4291940807
-0.2721938193 -0.1455401927 0.5811132193 4292006600
-0.2722527981 -0.1449259222 0.5812391043 4292072393
-0.2727253735 -0.1445305794 0.5822480321 4292138186
-0.2727839947 -0.1439145803 0.5823731422 4292203979
-0.2728423774 -0.1432981789 0.5824977756 4292270031
-0.2733146250 -0.1428979039 0.5835060477 4292335824
-0.2737868428 -0.1424953490 0.5845142007 4292401617
-0.2738447189 -0.1418758929 0.5846377611 4292335824
-0.2739023864 -0.1412560493 0.5847608447 4292335824
-0.2739597857 -0.1406358182 0.5848833919 4292401617
-0.2740169764 -0.1400151998 0.5850055218 4292467410
-0.2744885683 -0.1396050602 0.5860123038 4292401617
-0.2745454013 -0.1389827281 0.5861335993 4292467410
-0.2746019959 -0.1383600086 0.5862544179 4292467410
-0.2746583521 -0.1377368867 0.5863747597 4292467412
-0.2747144699 -0.1371134073 0.5864945650 4292270033
-0.2751854062 -0.1366956979 0.5875000358 4291809483
-0.2756563127 -0.1362757385 0.5885053277 4291348932
-0.2761271298 -0.1358535141 0.5895105004 4291151553
-0.2765978873 -0.1354290247 0.5905155540 4291217346
-0.2766531706 -0.1347998530 0.5906335711 4291480775
-0.2771237195 -0.1343717724 0.5916381478 4291743947
-0.2775941789 -0.1339414269 0.5926425457 4292270291
-0.2686532438 -0.2021169662 0.5749175549 4291350489
-0.2683278322 -0.2012341619 0.5742211938 4291153108
-0.2688092589 -0.2009560615 0.5752514601 4290889936
-0.2688870132 -0.2003748566 0.5754178166 4290626762
-0.2689645886 -0.1997931451 0.5755838156 4290429383
-0.2690419853 -0.1992109418 0.5757494569 4290297797
-0.2691191733 -0.1986282170 0.5759146810 4290034625
-0.2687920034 -0.1977476329 0.5752145052 4289837246
-0.2688687146 -0.1971648037 0.5753787160 4289508281
-0.2689452767 -0.1965814531 0.5755425096 4289244593
-0.2690216303 -0.1959976256 0.5757058859 4288981421
-0.2686931491 -0.1951194406 0.5750029683 4288784042
-0.2691738009 -0.1948284656 0.5760315657 4288520870
-0.2688447237 -0.1939510405 0.5753273368 4288323233
-0.2693252265 -0.1936573237 0.5763555765 4288060061
-0.2698057592 -0.1933613420 0.5773839355 4287993750
-0.2694759071 -0.1924842000 0.5766780376 4287664785
-0.2699562907 -0.1921854764 0.5777060986 4287664270
-0.2704367340 -0.1918844879 0.5787342191 4287795856
-0.2701060772 -0.1910076439 0.5780266523 4287664011
-0.2705863714 -0.1907039136 0.5790544152 4287466632
-0.2706608772 -0.1901128888 0.5792139173 4287400839
-0.2711411417 -0.1898055226 0.5802416205 4287400839
-0.2712153792 -0.1892126352 0.5804005265 4287400838
-0.2712894380 -0.1886192709 0.5805590749 4287466631
-0.2709570825 -0.1877439320 0.5798478127 4287466631
-0.2710306644 -0.1871504784 0.5800052285 4287466631
-0.2711040378 -0.1865565479 0.5801622868 4287466631
-0.2711772323 -0.1859621257 0.5803188682 4287532424
-0.2712502182 -0.1853672415 0.5804750919 4287532425
-0.2713229954 -0.1847718656 0.5806308389 4287532425
-0.2713955939 -0.1841759980 0.5807862282 4287598218
-0.2714680135 -0.1835796684 0.5809411407 4287532425
-0.2715402246 -0.1829828620 0.5810956955 4287532425
-0.2716122270 -0.1823855788 0.5812497735 4287598218
-0.2720913589 -0.1820603609 0.5822751522 4287598218
-0.2721630633 -0.1814612299 0.5824286342 4287598218
-0.2722345889 -0.1808616221 0.5825816393 4287598218
-0.2723059356 -0.1802615523 0.5827342868 4287598218
-0.2723770440 -0.1796610057 0.5828865170 4287532935
-0.2724479735 -0.1790599823 0.5830382705 4287598728
-0.2725186944 -0.1784584969 0.5831896067 4287532937
-0.2729972899 -0.1781228036 0.5842137933 4287467144
-0.2730677128 -0.1775194854 0.5843644738 4287401352
-0.2731379271 -0.1769156903 0.5845147967 4287401352
-0.2732079327 -0.1763114333 0.5846645832 4287466632
-0.2732777596 -0.1757067293 0.5848140121 4287466632
-0.2733473480 -0.1751015484 0.5849629641 4287729289
-0.2738254666 -0.1747567356 0.5859860778 4287400324
-0.2738947570 -0.1741497219 0.5861343741 4287202943
-0.2743727565 -0.1738012731 0.5871573091 4287202943
-0.2740327418 -0.1729343235 0.5864296556 4287268475
-0.2736923099 -0.1720687300 0.5857011676 4287005303
-0.2741698921 -0.1717170924 0.5867232084 4286742384
-0.2742381692 -0.1711077988 0.5868692994 4286676591
-0.2743062079 -0.1704980433 0.5870149136 4286478694
-0.2747835815 -0.1701413989 0.5880364776 4286610280
-0.2748513222 -0.1695298404 0.5881814361 4286938991
-0.2749188542 -0.1689178050 0.5883259177 4287267956
-0.2749861479 -0.1683053374 0.5884699821 4287596923
-0.2746433318 -0.1674425006 0.5877363682 4288123267
-0.2743001282 -0.1665810496 0.5870018601 4288781197
-0.2739564776 -0.1657209843 0.5862665176 4289175955
-0.2736124396 -0.1648622900 0.5855302215 4289175955
-0.2732679844 -0.1640049964 0.5847930908 4289504920
-0.2733335197 -0.1633944362 0.5849333405 4289636506
-0.2729883492 -0.1625390053 0.5841946602 4289768092
-0.2722321451 -0.1614414752 0.5825764537 4290097059
-0.2727074623 -0.1610749364 0.5835936069 4290228645
-0.2723611593 -0.1602227986 0.5828524828 4290294183
-0.2720144391 -0.1593720764 0.5821105242 4290557355
-0.2720783353 -0.1587625742 0.5822471976 4290426024
-0.2721419632 -0.1581526548 0.5823834538 4290491817
-0.2717942297 -0.1573043168 0.5816392899 4290623917
-0.2718573511 -0.1566944718 0.5817743540 4290755503
-0.2715089023 -0.1558480561 0.5810286403 4290821296
-0.2715714872 -0.1552382708 0.5811626315 4290821296
-0.2712223232 -0.1543937922 0.5804153681 4290952882
-0.2712844014 -0.1537840962 0.5805482268 4291084468
-0.2713462412 -0.1531739831 0.5806806087 4291150261
-0.2714078724 -0.1525634527 0.5808125138 4291281847
-0.2710573673 -0.1517219245 0.5800623894 4291282360
-0.2711184621 -0.1511114985 0.5801931620 4291348153
-0.2711793482 -0.1505006552 0.5803234577 4291348153
-0.2712400258 -0.1498893946 0.5804532766 4291413946
-0.2713004649 -0.1492777318 0.5805826187 4291545533
-0.2713606954 -0.1486656517 0.5807115436 4291611326
-0.2714207172 -0.1480531842 0.5808399320 4291677119
-0.2714805007 -0.1474402994 0.5809679031 4291742912
-0.2719527483 -0.1470501423 0.5819784999 4291742912
-0.2720121741 -0.1464355141 0.5821056962 4291808705
-0.2724842429 -0.1460417658 0.5831158757 4291874498
-0.2725433111 -0.1454254091 0.5832422972 4292006084
-0.2730152011 -0.1450280547 0.5842521191 4292071623
-0.2730739117 -0.1444099545 0.5843777657 4292137416
-0.2731324136 -0.1437914670 0.5845029354 4292006600
-0.2731906772 -0.1431725770 0.5846276283 4292006600
-0.2740754783 -0.1429846138 0.5865211487 4292072393
-0.2737199962 -0.1421483308 0.5857603550 4292006600
-0.2741912007 -0.1417411119 0.5867688060 4292072393
-0.2742487490 -0.1411187649 0.5868918896 4292072393
-0.2743060291 -0.1404960304 0.5870145559 4292006600
-0.2743631005 -0.1398729086 0.5871366858 4292006600
-0.2744199336 -0.1392493993 0.5872582793 4291940809
-0.2744765580 -0.1386255026 0.5873794556 4291809223
-0.2745329142 -0.1380012333 0.5875000954 4291414724
-0.2750032246 -0.1375837624 0.5885065198 4291085759
-0.2750592232 -0.1369577795 0.5886263847 4290691002
-0.2755293250 -0.1365367174 0.5896323323 4290493623
-0.2759993374 -0.1361134052 0.5906382203 4290756795
-0.2764693201 -0.1356878132 0.5916439295 4291151553
-0.2765246332 -0.1350574642 0.5917623043 4291546311
