VERSION 0.7
FIELDS x y z rgba
SIZE 4 4 4 4
TYPE F F F U
COUNT 1 1 1 1
WIDTH 920
HEIGHT 1
VIEWPOINT 0.0 0.0 0.0 1.0 0.0 0.0 0.0
POINTS 920
DATA ascii
-0.3100697696 -0.1140733883 0.5597713590 4294440949
-0.3105988204 -0.1136450171 0.5607264638 4294506742
-0.3111277819 -0.1132144853 0.5616813898 4294638330
-0.3121338785 -0.1129545122 0.5634977221 4294638330
-0.3126627207 -0.1125187352 0.5644524693 4294638330
-0.3127140105 -0.1119099408 0.5645450354 4294638330
-0.3132425547 -0.1114707813 0.5654992461 4294704123
-0.3137709796 -0.1110294536 0.5664532185 4294704123
-0.3142993152 -0.1105859801 0.5674070120 4294704123
-0.3148275018 -0.1101403385 0.5683605671 4294769916
-0.3153555989 -0.1096925437 0.5693139434 4294769914
-0.3154057264 -0.1090773195 0.5694044232 4294769914
-0.3159334958 -0.1086261421 0.5703572631 4294704121
-0.3159831464 -0.1080094054 0.5704468489 4294638328
-0.3165106475 -0.1075548455 0.5713991523 4294375156
-0.3170379996 -0.1070981249 0.5723512173 4294177777
-0.3175652623 -0.1066392511 0.5733030438 4294177777
-0.3180923760 -0.1061782241 0.5742546916 4293980398
-0.3186193705 -0.1057150438 0.5752060413 4293915371
-0.3191462457 -0.1052497029 0.5761572123 4293717992
-0.3196730018 -0.1047822088 0.5771082044 4293191393
-0.3201996386 -0.1043125615 0.5780588984 4292796635
-0.3212048113 -0.1039957404 0.5798735619 4292336088
-0.3212524652 -0.1033667997 0.5799596310 4291020228
-0.3120156527 -0.1702052653 0.5644159913 4289637803
-0.3116224706 -0.1693644822 0.5637047887 4289572010
-0.3093568385 -0.1675113589 0.5596063733 4289440424
-0.3103667200 -0.1674343944 0.5614331961 4289374631
-0.3085674047 -0.1658435464 0.5581783652 4289242273
-0.3081720173 -0.1650116593 0.5574631691 4289044894
-0.3077762127 -0.1641811281 0.5567471385 4289110942
-0.3073799312 -0.1633519530 0.5560303330 4289176735
-0.3065145612 -0.1622760147 0.5544648767 4288979871
-0.3065860868 -0.1616976857 0.5545942783 4289045664
-0.3061884940 -0.1608726084 0.5538750887 4289045664
-0.3062594831 -0.1602943540 0.5540034771 4289045664
-0.3063302338 -0.1597157121 0.5541314483 4289045663
-0.3064007759 -0.1591366678 0.5542590618 4289045663
-0.3060017526 -0.1583144069 0.5535372496 4289045663
-0.3056022823 -0.1574935168 0.5528146625 4289111456
-0.3056719303 -0.1569150537 0.5529406071 4289242528
-0.3057413399 -0.1563361883 0.5530661941 4289242528
-0.3053407967 -0.1555176824 0.5523416400 4289176733
-0.3054096401 -0.1549389213 0.5524661541 4289045147
-0.3054782748 -0.1543597728 0.5525903106 4289308060
-0.3050766289 -0.1535436511 0.5518637300 4289439646
-0.3047422767 -0.1521503925 0.5512589216 4289242265
-0.3048097789 -0.1515714824 0.5513810515 4289438874
-0.3044065833 -0.1507591754 0.5506517291 4289438874
-0.3040029407 -0.1499482691 0.5499215722 4289504154
-0.3040695786 -0.1493699998 0.5500420928 4289504154
-0.3036651909 -0.1485610157 0.5493105650 4289504669
-0.3037312627 -0.1479828805 0.5494300723 4289570462
-0.3037970960 -0.1474043727 0.5495491624 4289570462
-0.3033916056 -0.1465978473 0.5488156676 4289570462
-0.3034568727 -0.1460194886 0.5489337444 4289570462
-0.3035219014 -0.1454407573 0.5490514040 4289570462
-0.3031153381 -0.1446367055 0.5483158827 4289570462
-0.3031798005 -0.1440581232 0.5484325290 4289570462
-0.3032440543 -0.1434791833 0.5485487580 4289505185
-0.3033080995 -0.1428998709 0.5486645699 4289570978
-0.3029000759 -0.1420988441 0.5479264855 4289636771
-0.3029635251 -0.1415197104 0.5480412841 4289636771
-0.3030267656 -0.1409402043 0.5481556654 4289965220
-0.3026176393 -0.1401417106 0.5474156141 4290162599
-0.3026803136 -0.1395623833 0.5475289822 4290163117
-0.3027427197 -0.1389826983 0.5476418734 4290360496
-0.3028049171 -0.1384026557 0.5477544069 4290426289
-0.3028668761 -0.1378222555 0.5478664637 4290492082
-0.3034012020 -0.1374555975 0.5488330126 4290492080
-0.3034627736 -0.1368735880 0.5489444137 4290426287
-0.3035241067 -0.1362912059 0.5490553975 4290492080
-0.3031123579 -0.1354971081 0.5483105183 4290557873
-0.3031731248 -0.1349149346 0.5484204888 4290624179
-0.3032336831 -0.1343324184 0.5485299826 4290624179
-0.3032939732 -0.1337495595 0.5486390591 4290689970
-0.3033540249 -0.1331663579 0.5487477183 4290755763
-0.3034138680 -0.1325827986 0.5488559008 4290821556
-0.3034734428 -0.1319988966 0.5489637256 4291018935
-0.3035327792 -0.1314146519 0.5490710735 4291216314
-0.3031182587 -0.1306259632 0.5483212471 4291413693
-0.3031770587 -0.1300419420 0.5484275222 4291413434
-0.3032355905 -0.1294575930 0.5485334396 4291479227
-0.3032938540 -0.1288729012 0.5486388803 4291676606
-0.3033519089 -0.1282878667 0.5487438440 4291676606
-0.3034097254 -0.1277025044 0.5488484502 4291742399
-0.3034672737 -0.1271168143 0.5489525795 4292071364
-0.3039988577 -0.1267284751 0.5499141812 4292400329
-0.3040560186 -0.1261412054 0.5500175953 4292466122
-0.3041129410 -0.1255535930 0.5501205325 4292203209
-0.3041696250 -0.1249656603 0.5502230525 4292203209
-0.3047006726 -0.1245714277 0.5511837006 4292203209
-0.3047569394 -0.1239819154 0.5512855053 4292334795
-0.3048129678 -0.1233920828 0.5513868332 4292466383
-0.3048687577 -0.1228019223 0.5514877439 4292597969
-0.3049242795 -0.1222114339 0.5515881777 4292795348
-0.3054546118 -0.1218100712 0.5525475144 4293124313
-0.3055097461 -0.1212180182 0.5526472330 4293519073
-0.3060398400 -0.1208132505 0.5536061525 4293650659
-0.3060945570 -0.1202196404 0.5537050962 4293650659
-0.3061490059 -0.1196257174 0.5538036227 4293650659
-0.3062032163 -0.1190314740 0.5539016724 4293585380
-0.3067327440 -0.1186208278 0.5548595786 4293585380
-0.3072621524 -0.1182080135 0.5558172464 4293519588
-0.3073157966 -0.1176109836 0.5559142828 4293585381
-0.3078449667 -0.1171947792 0.5568714738 4293782760
-0.3078981638 -0.1165961996 0.5569677353 4293782760
-0.3084270656 -0.1161765978 0.5579245090 4293914346
-0.3084798455 -0.1155764684 0.5580199361 4294045932
-0.3090084791 -0.1151534766 0.5589762330 4294112238
-0.3090608120 -0.1145518124 0.5590709448 4294243824
-0.3095892072 -0.1141254231 0.5600267053 4294441203
-0.3096410930 -0.1135222167 0.5601205826 4294441203
-0.3101691902 -0.1130924374 0.5610759258 4294506744
-0.3111737370 -0.1128332913 0.5628930330 4294506744
-0.3117017150 -0.1123982593 0.5638480783 4294572537
-0.3122295737 -0.1119610742 0.5648030043 4294572537
-0.3127573431 -0.1115217283 0.5657576919 4294638330
-0.3128081560 -0.1109111458 0.5658496022 4294704123
-0.3133356273 -0.1104684100 0.5668037534 4294704123
-0.3138630092 -0.1100235134 0.5677577257 4294704123
-0.3143902421 -0.1095764637 0.5687115192 4294704121
-0.3149173856 -0.1091272533 0.5696650743 4294704121
-0.3154444098 -0.1086758822 0.5706183910 4294638328
-0.3154940307 -0.1080588773 0.5707081556 4294506742
-0.3160207272 -0.1076041237 0.5716609359 4294177777
-0.3160699010 -0.1069856063 0.5717498660 4293980398
-0.3165962994 -0.1065274701 0.5727021098 4293980398
-0.3171225786 -0.1060671806 0.5736541152 4293848812
-0.3181264102 -0.1057635397 0.5754699707 4293914856
-0.3186525106 -0.1052980050 0.5764216185 4293585891
-0.3191784918 -0.1048303097 0.5773730874 4293322722
-0.3197043240 -0.1043604612 0.5783243179 4292993757
-0.3211859763 -0.1041985676 0.5810045004 4292533467
-0.3212336600 -0.1035684124 0.5810908079 4291678158
-0.3133184612 -0.1718910336 0.5679137111 4289571756
-0.3124597371 -0.1707906574 0.5663571954 4289572010
-0.3120674789 -0.1699477881 0.5656462312 4289703596
-0.3112075031 -0.1688527167 0.5640874505 4289637031
-0.3103468716 -0.1677607447 0.5625274777 4289373859
-0.3094855547 -0.1666718870 0.5609663129 4289242528
-0.3081559837 -0.1653352380 0.5585563183 4289242528
-0.3082286716 -0.1647535115 0.5586881042 4289176733
-0.3078333139 -0.1639222354 0.5579714775 4289110940
-0.3074375093 -0.1630923152 0.5572540164 4289176731
-0.3070412576 -0.1622637659 0.5565358400 4289242524
-0.3061764240 -0.1611901075 0.5549682379 4289308060
-0.3062474728 -0.1606107503 0.5550969839 4289242267
-0.3058499098 -0.1597862989 0.5543763638 4289242013
-0.3059203923 -0.1592070311 0.5545041561 4289242013
-0.3059906363 -0.1586273611 0.5546314716 4289307806
-0.3060606718 -0.1580472887 0.5547584295 4289307806
-0.3056616783 -0.1572256833 0.5540352464 4289242267
-0.3052622378 -0.1564054489 0.5533112288 4289176474
-0.3053313792 -0.1558259726 0.5534365177 4289373083
-0.3049311936 -0.1550076306 0.5527111292 4289373083
-0.3049997687 -0.1544282436 0.5528354645 4289307290
-0.3050681353 -0.1538484842 0.5529593825 4289373083
-0.3046668470 -0.1530325413 0.5522319674 4289438876
-0.3042650819 -0.1522179842 0.5515037775 4289373083
-0.3048022091 -0.1518728584 0.5524773598 4289241495
-0.3039300740 -0.1508262008 0.5508965254 4289438874
-0.3035271168 -0.1500149667 0.5501661301 4289372311
-0.3031237423 -0.1492051333 0.5494350195 4289438104
-0.3031899929 -0.1486271620 0.5495550632 4289438361
-0.3032560050 -0.1480487883 0.5496747494 4289569947
-0.3033218086 -0.1474700570 0.5497940183 4289569947
-0.3029170036 -0.1466632038 0.5490602851 4289569947
-0.3029822409 -0.1460846066 0.5491785407 4289569689
-0.3025766611 -0.1452797055 0.5484433770 4289569689
-0.3026413321 -0.1447012573 0.5485606194 4289701275
-0.3027057946 -0.1441224515 0.5486774445 4289635482
-0.3027699888 -0.1435432732 0.5487937927 4289569947
-0.3028339744 -0.1429637372 0.5489097834 4289701533
-0.3024266660 -0.1421623826 0.5481714606 4289701533
-0.3024900854 -0.1415830106 0.5482864380 4289767326
-0.3020820022 -0.1407836378 0.5475467443 4290030240
-0.3021448255 -0.1402044445 0.5476606488 4290161826
-0.3022074699 -0.1396248788 0.5477741957 4290097576
-0.3022698462 -0.1390449554 0.5478872657 4290163369
-0.3023319840 -0.1384646893 0.5479999185 4290228908
-0.3023939133 -0.1378840506 0.5481121540 4290360494
-0.3024556041 -0.1373030543 0.5482239127 4290426802
-0.3025170267 -0.1367217153 0.5483353138 4290492595
-0.3025782406 -0.1361400187 0.5484462380 4290557873
-0.3026392162 -0.1355579644 0.5485568047 4290557873
-0.3026999533 -0.1349755526 0.5486668944 4290623920
-0.3027604520 -0.1343927979 0.5487765074 4290689713
-0.3028207123 -0.1338097006 0.5488857627 4290755765
-0.3028807342 -0.1332262456 0.5489945412 4290821558
-0.3029405177 -0.1326424628 0.5491029024 4290821560
-0.3025273681 -0.1318522990 0.5483540297 4290887353
-0.3025865853 -0.1312687248 0.5484613776 4291084219
-0.3026455641 -0.1306848079 0.5485682487 4291347391
-0.3027043045 -0.1301005483 0.5486747026 4291216057
-0.3027627766 -0.1295159608 0.5487807393 4291413436
-0.3028210402 -0.1289310306 0.5488863587 4291610813
-0.3028790355 -0.1283457577 0.5489915013 4291742399
-0.3029368222 -0.1277601570 0.5490961671 4291939778
-0.3029943407 -0.1271742135 0.5492004752 4292137157
-0.3030516207 -0.1265879422 0.5493043065 4292268745
-0.3031086624 -0.1260013282 0.5494076610 4292334538
-0.3031654656 -0.1254144013 0.5495106578 4292400331
-0.3036957979 -0.1250221729 0.5504719019 4292531917
-0.3037521839 -0.1244336665 0.5505741239 4292597710
-0.3038083315 -0.1238448247 0.5506759286 4292597710
-0.3038642406 -0.1232556626 0.5507772565 4292400331
-0.3039199114 -0.1226661727 0.5508781075 4292400331
-0.3044495285 -0.1222668067 0.5518381000 4292597456
-0.3045047820 -0.1216757521 0.5519382358 4292860628
-0.3050341904 -0.1212729812 0.5528978109 4293058520
-0.3050890267 -0.1206803694 0.5529972315 4293387485
-0.3051436245 -0.1200874299 0.5530961752 4293650659
-0.3056726158 -0.1196800172 0.5540550351 4293650659
-0.3057267666 -0.1190855205 0.5541532040 4293716197
-0.3062555194 -0.1186747029 0.5551115870 4293781990
-0.3063092828 -0.1180786565 0.5552090406 4293781990
-0.3063627779 -0.1174822971 0.5553060174 4293716197
-0.3068910837 -0.1170668453 0.5562636256 4293782245
-0.3074193299 -0.1166492328 0.5572210550 4293782245
-0.3074722290 -0.1160500869 0.5573169589 4293716966
-0.3080001771 -0.1156290770 0.5582739711 4293782759
-0.3080526590 -0.1150283962 0.5583691001 4293848553
-0.3085803688 -0.1146039888 0.5593255758 4293914346
-0.3086324036 -0.1140017584 0.5594199300 4294243313
-0.3091598451 -0.1135739610 0.5603758693 4294638071
-0.3096871674 -0.1131440029 0.5613316894 4294638330
-0.3106901646 -0.1128847525 0.5631497502 4294309365
-0.3112173676 -0.1124495417 0.5641053319 4294243572
-0.3117444813 -0.1120121703 0.5650607347 4294243572
-0.3122714758 -0.1115726382 0.5660159588 4294309365
-0.3123222589 -0.1109617949 0.5661079884 4294440951
-0.3128489554 -0.1105188727 0.5670626760 4294572537
-0.3133755326 -0.1100737974 0.5680171847 4294572537
-0.3139020205 -0.1096265540 0.5689714551 4294638328
-0.3144283891 -0.1091771498 0.5699255466 4294572535
-0.3149546385 -0.1087255925 0.5708793998 4294572535
-0.3150042295 -0.1081083193 0.5709692836 4294440949
-0.3155301809 -0.1076533720 0.5719226003 4294177777
-0.3160559833 -0.1071962714 0.5728756785 4293914605
-0.3161049187 -0.1065762639 0.5729643703 4293717226
-0.3166304231 -0.1061157733 0.5739169121 4293717226
-0.3171558082 -0.1056531370 0.5748692155 4293520100
-0.3176810741 -0.1051883325 0.5758212805 4293585893
-0.3186832666 -0.1048783809 0.5776378512 4293059807
-0.3192083538 -0.1044083312 0.5785896182 4292730842
-0.3202105165 -0.1040912494 0.5804060698 4292533465
-0.3207353950 -0.1036159396 0.5813574791 4291941328
-0.3207828104 -0.1029852331 0.5814434290 4290231226
-0.3128249049 -0.1719664633 0.5681629181 4289572010
-0.3119675815 -0.1708656400 0.5666058064 4289572008
-0.3115760088 -0.1700224280 0.5658946633 4289572008
-0.3111840189 -0.1691805571 0.5651826859 4289637286
-0.3098582327 -0.1678344905 0.5627747774 4289374114
-0.3089983463 -0.1667451859 0.5612130165 4289242528
-0.3081378043 -0.1656589955 0.5596500635 4289308321
-0.3077435791 -0.1648260355 0.5589340329 4289242526
-0.3078159988 -0.1642436683 0.5590655804 4289242526
-0.3069537878 -0.1631641835 0.5574995875 4289242526
-0.3065582514 -0.1623353064 0.5567811728 4289242526
-0.3061622381 -0.1615077853 0.5560619831 4289373853
-0.3057658076 -0.1606816351 0.5553419590 4289242267
-0.3058365583 -0.1601016521 0.5554704666 4289242013
-0.3059071004 -0.1595212668 0.5555986166 4289242013
-0.3059774339 -0.1589404792 0.5557262897 4289242013
-0.3055795729 -0.1581171602 0.5550037026 4289307806
-0.3051812649 -0.1572952271 0.5542802811 4289438876
-0.3052506745 -0.1567150205 0.5544063449 4289307290
-0.3048516214 -0.1558949500 0.5536815524 4289373083
-0.3049204946 -0.1553148627 0.5538066626 4289373083
-0.3045206368 -0.1544966847 0.5530804396 4289241497
-0.3045889437 -0.1539166868 0.5532044768 4289175704
-0.3041883409 -0.1531004012 0.5524768829 4289241497
-0.3037872910 -0.1522855163 0.5517485142 4289307290
-0.3043236136 -0.1519402713 0.5527226329 4289372570
-0.3034529090 -0.1508931816 0.5511411428 4289372570
-0.3035197556 -0.1503139436 0.5512626171 4289372570
-0.3031171858 -0.1495028883 0.5505314469 4289306777
-0.3027141690 -0.1486932486 0.5497994423 4289240984
-0.3027801514 -0.1481146514 0.5499193072 4289240984
-0.3028458953 -0.1475356817 0.5500386953 4289306777
-0.3024417758 -0.1467285007 0.5493047833 4289372570
-0.3020372391 -0.1459227353 0.5485700369 4289503897
-0.3021020889 -0.1453444362 0.5486878157 4289569690
-0.3021667302 -0.1447657794 0.5488051772 4289635483
-0.3022311330 -0.1441867352 0.5489221811 4289701276
-0.3022952974 -0.1436073333 0.5490387082 4289635742
-0.3023592234 -0.1430275440 0.5491548181 4289635742
-0.3019526005 -0.1422258765 0.5484163165 4289569949
-0.3015455604 -0.1414256245 0.5476769805 4289635742
-0.3016085923 -0.1408465654 0.5477914810 4289832862
-0.3016714156 -0.1402671337 0.5479055643 4290030241
-0.3017339706 -0.1396873295 0.5480192304 4289899427
-0.3017963171 -0.1391071826 0.5481324196 4290096806
-0.3018584251 -0.1385266781 0.5482452512 4290097322
-0.3019202948 -0.1379458010 0.5483576059 4290228908
-0.3019819558 -0.1373645812 0.5484696031 4290360494
-0.3020433486 -0.1367829889 0.5485811234 4290492080
-0.3021045327 -0.1362010539 0.5486922264 4290558127
-0.3021654487 -0.1356187761 0.5488028526 4290558127
-0.3022261560 -0.1350361258 0.5489131212 4290492334
-0.3022865951 -0.1344531476 0.5490229130 4290558127
-0.3023468256 -0.1338697970 0.5491322875 4290624179
-0.3024068177 -0.1332861185 0.5492412448 4290689972
-0.3019946814 -0.1324950606 0.5484927297 4290755765
-0.3020541072 -0.1319115907 0.5486006141 4290755765
-0.3021132648 -0.1313277781 0.5487080812 4290952631
-0.3021722138 -0.1307436228 0.5488151312 4291150010
-0.3022308946 -0.1301591247 0.5489217639 4291150264
-0.3022893667 -0.1295742989 0.5490279198 4291347643
-0.3023475707 -0.1289891154 0.5491336584 4291610813
-0.3024055362 -0.1284036040 0.5492389202 4291742399
-0.3024632633 -0.1278177649 0.5493437648 4291808194
-0.3025207520 -0.1272315830 0.5494481921 4291939780
-0.3025780022 -0.1266450584 0.5495521426 4292071366
-0.3026350141 -0.1260582060 0.5496556759 4292202952
-0.3026917577 -0.1254710257 0.5497587919 4292466124
-0.3032213151 -0.1250786483 0.5507205725 4292531917
-0.3032776713 -0.1244898960 0.5508229136 4292597710
-0.3033337891 -0.1239008158 0.5509248376 4292663503
-0.3033896685 -0.1233114004 0.5510263443 4292597710
-0.3034452796 -0.1227216721 0.5511273742 4292597710
-0.3039741516 -0.1223221421 0.5520878434 4292597456
-0.3040293455 -0.1217308417 0.5521881580 4292663249
-0.3040843308 -0.1211392209 0.5522879958 4292663762
-0.3046127856 -0.1207350418 0.5532478094 4292992727
-0.3046673238 -0.1201418564 0.5533468723 4293190108
-0.3047216237 -0.1195483580 0.5534455180 4293321694
-0.3052496910 -0.1191395372 0.5544045568 4293519073
-0.3057776392 -0.1187285483 0.5553634763 4293650659
-0.3058313727 -0.1181322560 0.5554610491 4293716452
-0.3058848381 -0.1175356433 0.5555581450 4293782245
-0.3059380651 -0.1169387177 0.5556547642 4293650404
-0.3064654171 -0.1165218577 0.5566126108 4293650404
-0.3065182269 -0.1159233898 0.5567085147 4293519588
-0.3070453107 -0.1155031323 0.5576658249 4293519588
-0.3075723350 -0.1150807068 0.5586230159 4293585383
-0.3076245189 -0.1144794598 0.5587178469 4293651176
-0.3081512749 -0.1140536442 0.5596745014 4293848555
-0.3086779118 -0.1136256680 0.5606310368 4294243313
-0.3096794486 -0.1133694127 0.5624499917 4294375158
-0.3102059662 -0.1129361838 0.5634062886 4294243572
-0.3107323945 -0.1125007868 0.5643624067 4294111986
-0.3112587035 -0.1120632365 0.5653183460 4294046193
-0.3117849231 -0.1116235182 0.5662741065 4293980400
-0.3118356764 -0.1110124141 0.5663662553 4294111986
-0.3123615980 -0.1105693057 0.5673214793 4294309363
-0.3133629560 -0.1102914065 0.5691401362 4294506742
-0.3138887286 -0.1098430380 0.5700950623 4294440949
-0.3139387369 -0.1092270240 0.5701858997 4294375156
-0.3144642115 -0.1087752730 0.5711402893 4294309363
-0.3145137429 -0.1081577316 0.5712302327 4294243570
-0.3150389194 -0.1077025980 0.5721840858 4294046191
-0.3155639768 -0.1072452962 0.5731377006 4293783019
-0.3160889149 -0.1067858413 0.5740910769 4293585640
-0.3161376119 -0.1061643362 0.5741795301 4293454054
-0.3166622221 -0.1057014987 0.5751323700 4293454307
-0.3171867132 -0.1052365005 0.5760849714 4293388514
-0.3181873858 -0.1049264148 0.5779024363 4293191136
-0.3187116981 -0.1044561639 0.5788546801 4292993757
-0.3197123408 -0.1041389555 0.5806720853 4292665051
-0.3202364445 -0.1036634445 0.5816240311 4292138707
-0.3207604289 -0.1031857803 0.5825756788 4290889156
-0.3127205670 -0.1728889197 0.5691214800 4289572008
-0.3127961755 -0.1722982377 0.5692590475 4289637801
-0.3119403720 -0.1711960733 0.5677015781 4289702824
-0.3115496039 -0.1703516543 0.5669904351 4289702824
-0.3106925786 -0.1692548096 0.5654307604 4289703079
-0.3098348975 -0.1681610644 0.5638698339 4289439907
-0.3089765608 -0.1670704335 0.5623077154 4289308321
-0.3081175387 -0.1659829170 0.5607444048 4289308321
-0.3077240884 -0.1651487499 0.5600283742 4289308319
-0.3073302209 -0.1643159240 0.5593115687 4289308319
-0.3069359064 -0.1634844691 0.5585939288 4289242526
-0.3065411448 -0.1626543701 0.5578755140 4289242526
-0.3061459363 -0.1618256271 0.5571562648 4289439646
-0.3057503104 -0.1609982550 0.5564362407 4289242267
-0.3053542376 -0.1601722538 0.5557154417 4289242267
-0.3054247200 -0.1595916450 0.5558437109 4289308060
-0.3054949939 -0.1590106487 0.5559716225 4289242267
-0.3050978184 -0.1581869870 0.5552487969 4289308060
-0.3051675260 -0.1576060653 0.5553756356 4289308060
-0.3047695756 -0.1567842811 0.5546514392 4289242267
-0.3048387170 -0.1562034637 0.5547772646 4289307290
-0.3044400215 -0.1553835720 0.5540516376 4289307290
-0.3045085967 -0.1548028439 0.5541765094 4289307290
-0.3041091263 -0.1539848447 0.5534494519 4289175704
-0.3037092090 -0.1531682312 0.5527216196 4289175191
-0.3037769198 -0.1525881290 0.5528448820 4289306777
-0.3033762276 -0.1517734230 0.5521156788 4289306777
-0.3034433722 -0.1511934400 0.5522378683 4289175191
-0.3030419350 -0.1503806412 0.5515072346 4289306777
-0.3026400208 -0.1495692581 0.5507758856 4289175191
-0.3027063012 -0.1489899307 0.5508964658 4289044118
-0.3023036420 -0.1481804699 0.5501636863 4288978325
-0.3023693562 -0.1476012766 0.5502832532 4289043605
-0.3019659221 -0.1467937529 0.5495490432 4289175191
-0.3015620708 -0.1459876597 0.5488141179 4289306775
-0.3016268909 -0.1454091370 0.5489320755 4289372568
-0.3016914725 -0.1448302418 0.5490496159 4289372568
-0.3017558455 -0.1442509741 0.5491666794 4289504154
-0.3013505638 -0.1434478909 0.5484291315 4289569949
-0.3014143705 -0.1428687871 0.5485452414 4289569949
-0.3014779091 -0.1422893107 0.5486609340 4289569947
-0.3010715544 -0.1414887458 0.5479214191 4289569947
-0.3011345565 -0.1409094483 0.5480360389 4289701276
-0.3007274270 -0.1401108503 0.5472951531 4289832862
-0.3007898629 -0.1395317316 0.5474087596 4289701533
-0.3008520901 -0.1389522552 0.5475219488 4289833119
-0.3009140491 -0.1383724213 0.5476347208 4289965220
-0.3009757996 -0.1377922148 0.5477470756 4290096806
-0.3010372818 -0.1372116655 0.5478590131 4290294185
-0.3010985553 -0.1366307586 0.5479705334 4290425771
-0.3011595905 -0.1360494941 0.5480815768 4290623150
-0.3012203872 -0.1354678720 0.5481922626 4290688943
-0.3012809455 -0.1348859072 0.5483024716 4290623920
-0.3013412654 -0.1343035847 0.5484122634 4290689713
-0.3014013469 -0.1337209195 0.5485215783 4290624179
-0.3014612198 -0.1331379116 0.5486305356 4290624179
-0.3015208244 -0.1325545460 0.5487390161 4290624179
-0.3011089861 -0.1317646354 0.5479894876 4290755765
-0.3011680245 -0.1311814934 0.5480969548 4290887351
-0.3012268245 -0.1305980235 0.5482039452 4291018937
-0.3012853861 -0.1300141960 0.5483105183 4291018678
-0.3013437092 -0.1294300407 0.5484166741 4291216057
-0.3014017940 -0.1288455278 0.5485223532 4291413436
-0.3014596403 -0.1282607019 0.5486276150 4291545022
-0.3015172184 -0.1276755184 0.5487324595 4291676608
-0.3020465374 -0.1272889078 0.5496957302 4291742401
-0.3021037579 -0.1267021447 0.5497998595 4291873987
-0.3021607101 -0.1261150539 0.5499035120 4292071366
-0.3022174239 -0.1255276352 0.5500067472 4292400331
-0.3027462065 -0.1251350939 0.5509690642 4292400331
-0.3028025329 -0.1245460957 0.5510715842 4292531917
-0.3028586209 -0.1239567623 0.5511736274 4292597710
-0.3029144406 -0.1233671084 0.5512752533 4292663503
-0.3029700220 -0.1227771267 0.5513764024 4292729296
-0.3034980893 -0.1223774403 0.5523374677 4292729042
-0.3035532832 -0.1217858940 0.5524379015 4292729042
-0.3036082089 -0.1211940199 0.5525378585 4292663249
-0.3036628962 -0.1206018329 0.5526373386 4292794835
-0.3041903973 -0.1201962531 0.5535973907 4292795348
-0.3042446673 -0.1196025014 0.5536961555 4292926934
-0.3047719300 -0.1191935092 0.5546557307 4293124313
-0.3048257828 -0.1185982004 0.5547537208 4293321692
-0.3053528070 -0.1181858107 0.5557128787 4293519073
-0.3054062426 -0.1175889447 0.5558100939 4293716452
-0.3054594398 -0.1169917732 0.5559068918 4293716197
-0.3055123687 -0.1163942888 0.5560032129 4293716197
-0.3060387671 -0.1159760207 0.5569612384 4293519590
-0.3065651059 -0.1155555844 0.5579191446 4293388004
-0.3066174388 -0.1149553210 0.5580143332 4293453797
-0.3071435094 -0.1145314872 0.5589717627 4293453797
-0.3071953952 -0.1139296815 0.5590661764 4293585383
-0.3077211976 -0.1135024577 0.5600230694 4293782762
-0.3087211251 -0.1132470295 0.5618428588 4293914094
-0.3097210824 -0.1129875779 0.5636627078 4294045680
-0.3102467358 -0.1125520021 0.5646193624 4294045934
-0.3107722998 -0.1121142656 0.5655757785 4293980141
-0.3112977445 -0.1116743684 0.5665320158 4293914348
-0.3113484383 -0.1110630035 0.5666243434 4293914348
-0.3118736148 -0.1106197089 0.5675800443 4294111727
-0.3123986423 -0.1101742536 0.5685355663 4294243313
-0.3133984208 -0.1098931432 0.5703551173 4294309106
-0.3134483993 -0.1092768610 0.5704460144 4294243313
-0.3139730990 -0.1088249162 0.5714009404 4294111727
-0.3144976795 -0.1083708107 0.5723556280 4294045934
-0.3145470023 -0.1077517793 0.5724453926 4293980141
-0.3150712848 -0.1072942913 0.5733995438 4293848555
-0.3155954480 -0.1068346426 0.5743534565 4293651176
-0.3161194623 -0.1063728258 0.5753071308 4293519590
-0.3166433871 -0.1059088558 0.5762606263 4293519588
-0.3171671629 -0.1054427177 0.5772138238 4293256416
-0.3176908195 -0.1049744263 0.5781668425 4293191136
-0.3186900020 -0.1046601832 0.5799852610 4292993757
-0.3196892142 -0.1043419018 0.5818037391 4292730331
-0.3197368085 -0.1037109196 0.5818904042 4292335573
-0.3202600181 -0.1032330468 0.5828425884 4291743951
-0.3113711178 -0.1718606502 0.5678133368 4289768617
-0.3109813631 -0.1710154265 0.5671025515 4289768872
-0.3105911613 -0.1701715589 0.5663909912 4289768872
-0.3097354472 -0.1690751463 0.5648305416 4289768872
-0.3088790774 -0.1679818481 0.5632688403 4289571493
-0.3080220222 -0.1668916494 0.5617059469 4289439907
-0.3076297343 -0.1660557985 0.5609905720 4289374114
-0.3072369993 -0.1652212888 0.5602743626 4289373601
-0.3063781857 -0.1641386896 0.5587082505 4289373601
-0.3064501584 -0.1635563523 0.5588395000 4289307806
-0.3060560822 -0.1627259105 0.5581209064 4289242013
-0.3056615889 -0.1618968397 0.5574014783 4289374364
-0.3052666485 -0.1610691398 0.5566812754 4289242778
-0.3053373992 -0.1604878306 0.5568103194 4289176985
-0.3049416840 -0.1596619785 0.5560886860 4289242778
-0.3045455217 -0.1588375121 0.5553662181 4289242778
-0.3046154082 -0.1582567692 0.5554937124 4289242778
-0.3046850860 -0.1576756239 0.5556207299 4289308058
-0.3042878211 -0.1568535119 0.5548962951 4289242265
-0.3038901389 -0.1560327858 0.5541710854 4289044886
-0.3044258058 -0.1556910276 0.5551479459 4289176472
-0.3040274680 -0.1548712850 0.5544214845 4289373083
-0.3036286533 -0.1540529430 0.5536942482 4289241497
-0.3036966622 -0.1534721106 0.5538182259 4289109911
-0.3032971025 -0.1526556760 0.5530896187 4289109911
-0.3033645153 -0.1520749629 0.5532125831 4289109398
-0.3024966717 -0.1510270089 0.5516299605 4289109398
-0.3025634289 -0.1504473090 0.5517517328 4289044116
-0.3021622598 -0.1496355981 0.5510200858 4289044116
-0.3022284508 -0.1490560323 0.5511408448 4289044116
-0.3018265069 -0.1482462436 0.5504078865 4288978323
-0.3018921614 -0.1476668119 0.5505275726 4288978323
-0.3014894426 -0.1468589753 0.5497931838 4288978323
-0.3010862768 -0.1460525542 0.5490580201 4289109651
-0.3011510670 -0.1454737931 0.5491760969 4289175444
-0.3012155890 -0.1448946595 0.5492938161 4289175444
-0.3012799025 -0.1443151683 0.5494111180 4289307030
-0.3008753359 -0.1435117573 0.5486733317 4289372823
-0.3004703224 -0.1427097768 0.5479347706 4289438616
-0.3005337417 -0.1421309859 0.5480504036 4289504409
-0.3005969524 -0.1415518075 0.5481656194 4289504409
-0.3006598949 -0.1409722865 0.5482804179 4289635482
-0.3002534807 -0.1401733607 0.5475392938 4289635482
-0.3003158569 -0.1395940185 0.5476530790 4289635483
-0.3003780246 -0.1390143037 0.5477664471 4289701276
-0.3004399538 -0.1384342313 0.5478793383 4289701788
-0.3005016446 -0.1378537863 0.5479918718 4289833374
-0.3000934720 -0.1370585114 0.5472475290 4290096546
-0.3001545966 -0.1364782751 0.5473589897 4290293925
-0.3002155125 -0.1358976960 0.5474700332 4290425769
-0.3002761602 -0.1353167444 0.5475806594 4290491562
-0.3003365993 -0.1347354501 0.5476908684 4290558127
-0.3003967702 -0.1341538131 0.5478006005 4290623920
-0.3004567325 -0.1335718185 0.5479099751 4290624179
-0.3005164564 -0.1329894811 0.5480188727 4290558386
-0.3005759120 -0.1324067861 0.5481272936 4290624179
-0.3006351590 -0.1318237484 0.5482353568 4290689972
-0.3006941676 -0.1312403828 0.5483429432 4290887349
-0.3002822697 -0.1304521859 0.5475918055 4291018935
-0.3008114398 -0.1300725937 0.5485568047 4290952885
-0.3008697331 -0.1294881999 0.5486631393 4291018678
-0.3009277880 -0.1289034486 0.5487689376 4291150264
-0.3009855747 -0.1283183843 0.5488743782 4291347643
-0.3010431528 -0.1277329624 0.5489793420 4291479229
-0.3015716672 -0.1273461878 0.5499431491 4291610815
-0.3016288280 -0.1267591864 0.5500473976 4291808194
-0.3016857803 -0.1261718571 0.5501512289 4291939780
-0.3017424643 -0.1255841851 0.5502545834 4292071366
-0.3022704422 -0.1251914948 0.5512174368 4292137159
-0.3023267388 -0.1246022508 0.5513200760 4292268745
-0.3023827672 -0.1240126789 0.5514222383 4292400331
-0.3024385571 -0.1234227791 0.5515239835 4292597710
-0.3024941087 -0.1228325516 0.5516253114 4292729296
-0.3030214012 -0.1224327087 0.5525868535 4292860882
-0.3030765355 -0.1218409091 0.5526874065 4292860882
-0.3031314313 -0.1212487891 0.5527875423 4292794835
-0.3031860888 -0.1206563488 0.5528872013 4292794835
-0.3032404780 -0.1200635880 0.5529863834 4292795348
-0.3032946289 -0.1194705144 0.5530851483 4292795348
-0.3038210273 -0.1190622896 0.5540450811 4292926934
-0.3043473661 -0.1186518893 0.5550048947 4292992727
-0.3044009209 -0.1180560142 0.5551025867 4293190108
-0.3044542372 -0.1174598262 0.5551998019 4293387487
-0.3045073152 -0.1168633252 0.5552965403 4293584611
-0.3050330281 -0.1164470538 0.5562552810 4293650404
-0.3050856888 -0.1158490032 0.5563512444 4293650406
-0.3056111634 -0.1154293269 0.5573095083 4293584613
-0.3061365485 -0.1150074899 0.5582675934 4293453797
-0.3066618145 -0.1145834848 0.5592254996 4293388004
-0.3067137003 -0.1139814183 0.5593200922 4293388004
-0.3072386980 -0.1135540158 0.5602774620 4293453797
-0.3082371056 -0.1132984906 0.5620981455 4293453797
-0.3087619841 -0.1128658280 0.5630553365 4293651176
-0.3092868030 -0.1124310046 0.5640123487 4293914348
-0.3102852106 -0.1121652648 0.5658330321 4293980141
-0.3108098507 -0.1117251813 0.5667898059 4294045934
-0.3113344312 -0.1112829372 0.5677464008 4293980141
-0.3118588626 -0.1108385250 0.5687028170 4293914348
-0.3123832047 -0.1103919521 0.5696589947 4293782762
-0.3129074574 -0.1099432111 0.5706149340 4293914348
-0.3129573762 -0.1093266606 0.5707060099 4293980141
-0.3134813011 -0.1088745296 0.5716614723 4293980141
-0.3140051067 -0.1084202379 0.5726166368 4293914348
-0.3145288229 -0.1079637781 0.5735716820 4293782762
-0.3145779073 -0.1073432565 0.5736612082 4293716969
-0.3151012957 -0.1068834066 0.5746155977 4293585383
-0.3156245351 -0.1064213961 0.5755698085 4293519590
-0.3161476851 -0.1059572250 0.5765238404 4293388002
-0.3166706860 -0.1054908931 0.5774775743 4293124830
-0.3176684082 -0.1051796228 0.5792970061 4293125343
-0.3181912303 -0.1047080308 0.5802504420 4292927964
-0.3191889226 -0.1043896154 0.5820698142 4292730844
-0.3201866150 -0.1040671691 0.5838891864 4292336086
-0.3216594160 -0.1038941368 0.5865749717 4292138709
-0.3122683167 -0.1727056652 0.5706051588 4289834665
-0.3114154935 -0.1716017276 0.5690467954 4289768872
-0.3105619848 -0.1705009043 0.5674871802 4289834665
-0.3101721406 -0.1696571410 0.5667748451 4289834665
-0.3093174100 -0.1685616374 0.5652129650 4289703079
-0.3089265525 -0.1677214503 0.5644987822 4289570978
-0.3080706298 -0.1666312814 0.5629347563 4289373599
-0.3072139919 -0.1655442268 0.5613694787 4289373599
-0.3068216145 -0.1647098511 0.5606524348 4289373599
-0.3064287901 -0.1638768464 0.5599346161 4289373599
-0.3060355186 -0.1630451977 0.5592160225 4289307806
-0.3056418002 -0.1622149050 0.5584965944 4289243547
-0.3057129681 -0.1616320014 0.5586265922 4289177754
-0.3053184748 -0.1608035713 0.5579057932 4289046168
-0.3053890765 -0.1602207422 0.5580347776 4289111961
-0.3049938381 -0.1593941599 0.5573125482 4289308570
-0.3045981228 -0.1585689485 0.5565894842 4289242777
-0.3042019904 -0.1577451229 0.5558656454 4289111191
-0.3042714000 -0.1571633518 0.5559924245 4289111191
-0.3043405712 -0.1565811932 0.5561188459 4289176471
-0.3034771681 -0.1555208415 0.5545411706 4289176471
-0.3040119410 -0.1551776826 0.5555183291 4289176471
-0.3036139309 -0.1543581188 0.5547910929 4289242264
-0.3032155037 -0.1535399556 0.5540630221 4289175702
-0.3032832146 -0.1529584974 0.5541867614 4288912530
-0.3028840125 -0.1521422416 0.5534573197 4288912530
-0.3024843931 -0.1513273716 0.5527271032 4289044116
-0.3020843267 -0.1505139172 0.5519960523 4288781713
-0.3016838133 -0.1497018784 0.5512642264 4288781713
-0.3017500043 -0.1491220891 0.5513851047 4288978578
-0.3013487160 -0.1483119726 0.5506519079 4288978578
-0.3009470403 -0.1475032717 0.5499178767 4288978578
-0.3010123074 -0.1469241381 0.5500371456 4288978578
-0.3006098568 -0.1461173892 0.5493017435 4288978578
-0.3006745875 -0.1455384046 0.5494199991 4288978578
-0.3007390797 -0.1449590474 0.5495378971 4289044371
-0.3008033335 -0.1443793178 0.5496553183 4289110164
-0.3003994823 -0.1435755789 0.5489172935 4289241235
-0.2999951541 -0.1427732706 0.5481785536 4289241235
-0.3000585437 -0.1421942413 0.5482943058 4289307028
-0.3001216948 -0.1416148394 0.5484097004 4289438614
-0.3001846075 -0.1410350800 0.5485246778 4289635993
-0.2997788787 -0.1402358264 0.5477833152 4289635993
-0.2998412251 -0.1396562457 0.5478972197 4289701275
-0.2999033332 -0.1390762925 0.5480107665 4289635482
-0.2999652326 -0.1384959966 0.5481238365 4289635480
-0.3000268638 -0.1379153281 0.5482364893 4289701273
-0.2996194065 -0.1371197253 0.5474919081 4289833372
-0.2996805012 -0.1365392506 0.5476035476 4290030751
-0.2997413576 -0.1359584332 0.5477147102 4290162852
-0.2998019755 -0.1353772432 0.5478255153 4290294438
-0.2998623550 -0.1347957253 0.5479358435 4290359976
-0.2999224961 -0.1342138350 0.5480457544 4290491562
-0.2999823987 -0.1336316019 0.5481552482 4290426541
-0.3000420928 -0.1330490261 0.5482642651 4290492334
-0.3001015186 -0.1324661076 0.5483728647 4290558384
-0.3001607060 -0.1318828315 0.5484810472 4290755763
-0.3002196848 -0.1312992126 0.5485888124 4290821810
-0.2998084724 -0.1305107027 0.5478374362 4290821810
-0.2998668849 -0.1299273074 0.5479441285 4290952885
-0.3003951311 -0.1295463145 0.5489093661 4290887092
-0.3004531264 -0.1289613396 0.5490154028 4290952885
-0.3005109131 -0.1283760220 0.5491209030 4291150264
-0.3005684316 -0.1277903616 0.5492260456 4291281850
-0.3006257117 -0.1272043735 0.5493307114 4291479229
-0.3011533022 -0.1268161982 0.5502947569 4291676608
-0.3012101948 -0.1262286156 0.5503987074 4291808194
-0.3012668192 -0.1256407052 0.5505022407 4291808194
-0.3017940521 -0.1252478659 0.5514656305 4291939780
-0.3018502891 -0.1246583760 0.5515683889 4292137159
-0.3019062877 -0.1240685582 0.5516707301 4292202952
-0.3019620478 -0.1234784126 0.5517725945 4292400331
-0.3020175695 -0.1228879392 0.5518740416 4292597710
-0.3025440872 -0.1224879324 0.5528361201 4292795089
-0.3025991917 -0.1218958870 0.5529368520 4292860882
-0.3026540279 -0.1213035211 0.5530370474 4292860628
-0.3027086556 -0.1207108349 0.5531368256 4292860628
-0.3027630150 -0.1201178282 0.5532361865 4292926675
-0.3028171062 -0.1195245013 0.5533350706 4292992468
-0.3033427298 -0.1191161051 0.5542955399 4292992468
-0.3033964336 -0.1185212210 0.5543936491 4292926675
-0.3034498990 -0.1179260239 0.5544913411 4292926934
-0.3039751053 -0.1175129786 0.5554510355 4292992727
-0.3040281236 -0.1169162318 0.5555479527 4293189853
-0.3045530915 -0.1164997816 0.5565071702 4293255646
-0.3046056926 -0.1159014776 0.5566033125 4293387234
-0.3051303625 -0.1154816300 0.5575620532 4293453027
-0.3056549728 -0.1150596216 0.5585206747 4293518820
-0.3061794937 -0.1146354452 0.5594790578 4293584613
-0.3062313199 -0.1140331253 0.5595737696 4293453795
-0.3067555428 -0.1136055440 0.5605317354 4293256416
-0.3077524304 -0.1133499146 0.5623533130 4293256675
-0.3082765341 -0.1129170805 0.5633110404 4293388261
-0.3088005483 -0.1124820784 0.5642685294 4293651433
-0.3093244731 -0.1120449081 0.5652258992 4293848812
-0.3103213310 -0.1117759645 0.5670474172 4293980398
-0.3108451068 -0.1113335341 0.5680045485 4293980398
-0.3113687932 -0.1108889356 0.5689614415 4293848812
-0.3118923306 -0.1104421765 0.5699181557 4293585640
-0.3124158084 -0.1099932492 0.5708746314 4293388261
-0.3129391372 -0.1095421538 0.5718309283 4293519847
-0.3129888475 -0.1089241132 0.5719217658 4293651687
-0.3135118783 -0.1084696278 0.5728775263 4293651687
-0.3140347898 -0.1080129743 0.5738330483 4293585894
-0.3145575821 -0.1075541601 0.5747883320 4293454308
-0.3150802553 -0.1070931852 0.5757434368 4293322722
-0.3156028092 -0.1066300422 0.5766982436 4293125343
-0.3161252439 -0.1061647385 0.5776528716 4293125343
-0.3166475594 -0.1056972668 0.5786073208 4292993757
-0.3176438212 -0.1053849310 0.5804277658 4293059550
-0.3181659579 -0.1049121991 0.5813818574 4292862171
-0.3191621900 -0.1045927182 0.5832022429 4292796637
-0.3196841180 -0.1041147187 0.5841559768 4292336086
-0.3206802905 -0.1037880927 0.5859762430 4292139223
-0.3216764629 -0.1034574211 0.5877965689 4290362812
-0.3126972020 -0.1732945591 0.5725508332 4289769386
-0.3113826513 -0.1719325632 0.5701438785 4289637800
-0.3105306625 -0.1708304137 0.5685839057 4289637800
-0.3087508678 -0.1692231745 0.5653250813 4289768870
-0.3102158308 -0.1693950146 0.5680074692 4289703077
-0.3084345758 -0.1677948833 0.5647459626 4289505698
-0.3075800538 -0.1667042673 0.5631813407 4289374112
-0.3071888983 -0.1658673286 0.5624651313 4289374110
-0.3063331544 -0.1647820771 0.5608982444 4289374110
-0.3068695366 -0.1644463092 0.5618803501 4289374110
-0.3060128093 -0.1633646488 0.5603116751 4289374110
-0.3056198955 -0.1625331491 0.5595922470 4289177752
-0.3052265346 -0.1617030054 0.5588719845 4289177752
-0.3052974045 -0.1611194760 0.5590018034 4289046166
-0.3049032986 -0.1602911800 0.5582801700 4289046166
-0.3049736321 -0.1597077250 0.5584089160 4289177752
-0.3045787215 -0.1588813066 0.5576858521 4289111959
-0.3041833937 -0.1580562592 0.5569620132 4289045398
-0.3042528331 -0.1574733704 0.5570891500 4289045398
-0.3038567305 -0.1566502005 0.5563638806 4289111191
-0.3029947877 -0.1555894166 0.5547856092 4289045398
-0.3035287559 -0.1552461237 0.5557633638 4289045396
-0.3031314611 -0.1544262320 0.5550358891 4289176982
-0.3027337193 -0.1536077410 0.5543076396 4289176725
-0.3028014004 -0.1530260593 0.5544315577 4288847760
-0.3024028838 -0.1522094607 0.5537018776 4288715920
-0.3020039499 -0.1513942778 0.5529714227 4288781713
-0.3016045690 -0.1505804956 0.5522401929 4288847506
-0.3012047708 -0.1497681141 0.5515081286 4288715920
-0.3012709022 -0.1491881013 0.5516291857 4288781199
-0.3008703291 -0.1483776569 0.5508957505 4288781199
-0.3004693091 -0.1475686282 0.5501615405 4288846992
-0.3005345464 -0.1469892561 0.5502809882 4288978578
-0.3001328111 -0.1461821795 0.5495453477 4289044371
-0.3001974821 -0.1456029713 0.5496637821 4289044371
-0.3002619147 -0.1450233757 0.5497817993 4288978578
-0.3003261387 -0.1444434226 0.5498993397 4289044371
-0.2999229729 -0.1436393559 0.5491611362 4289175955
-0.2995193601 -0.1428367198 0.5484220982 4289175955
-0.2995826900 -0.1422574520 0.5485380888 4289175442
-0.2996457815 -0.1416778266 0.5486536026 4289307028
-0.2997086644 -0.1410978287 0.5487687588 4289504922
-0.2993036211 -0.1402982473 0.5480271578 4289570715
-0.2993659377 -0.1397184283 0.5481412411 4289635480
-0.2994280159 -0.1391382515 0.5482548475 4289635480
-0.2990218997 -0.1383412182 0.5475112796 4289635480
-0.2990834117 -0.1377612352 0.5476239324 4289635480
-0.2991446853 -0.1371808797 0.5477361083 4289701786
-0.2992057502 -0.1366001815 0.5478478670 4289833372
-0.2992665470 -0.1360191256 0.5479592681 4289965473
-0.2988587022 -0.1352257580 0.5472124815 4290162852
-0.2989189625 -0.1346448958 0.5473227501 4290162852
-0.2989789546 -0.1340636909 0.5474326611 4290228645
-0.2990387380 -0.1334821433 0.5475420952 4290294438
-0.2990982831 -0.1329002380 0.5476511121 4290426024
-0.2991575897 -0.1323179901 0.5477597117 4290623917
-0.2992166579 -0.1317353994 0.5478678346 4290887089
-0.2992754877 -0.1311524510 0.5479755402 4290952883
-0.2993340492 -0.1305691749 0.5480828285 4290887090
-0.2993924022 -0.1299855411 0.5481896996 4290887090
-0.2994505167 -0.1294015795 0.5482960939 4290887090
-0.2995083928 -0.1288172752 0.5484020710 4290952885
-0.2995660305 -0.1282326281 0.5485075712 4291018678
-0.3000930548 -0.1278477311 0.5494725704 4291084471
-0.3001503050 -0.1272614896 0.5495774150 4291216057
-0.3002073169 -0.1266749203 0.5496817827 4291479229
-0.3007339537 -0.1262853444 0.5506460667 4291676608
-0.3007905781 -0.1256971955 0.5507497191 4291742401
-0.3013170063 -0.1253041923 0.5517136455 4291808194
-0.3013732135 -0.1247144565 0.5518165231 4291939780
-0.3014291823 -0.1241243929 0.5519189835 4292005573
-0.3014848828 -0.1235340014 0.5520210266 4292136905
-0.3015403748 -0.1229432821 0.5521225929 4292334284
-0.3015955985 -0.1223522425 0.5522237420 4292531917
-0.3021211624 -0.1219508275 0.5531860590 4292663503
-0.3021759689 -0.1213582158 0.5532864332 4292663249
-0.3022305369 -0.1207652837 0.5533863306 4292663249
-0.3022848666 -0.1201720238 0.5534858108 4292860628
-0.3023389578 -0.1195784509 0.5535848141 4292992214
-0.3028638065 -0.1191698909 0.5545458198 4292926421
-0.3029174507 -0.1185747609 0.5546440482 4292926421
-0.3029708564 -0.1179793105 0.5547418594 4292861143
-0.3030240238 -0.1173835397 0.5548391938 4292926936
-0.3035482764 -0.1169690937 0.5557991266 4292860888
-0.3036010265 -0.1163717806 0.5558956861 4292860888
-0.3041250408 -0.1159539223 0.5568551421 4292992474
-0.3046489358 -0.1155339032 0.5578144193 4293255646
-0.3051727712 -0.1151117161 0.5587735772 4293453025
-0.3056964874 -0.1146873683 0.5597324967 4293650404
-0.3057482839 -0.1140847877 0.5598273277 4293716197
-0.3062717319 -0.1136570349 0.5607857704 4293453025
-0.3072670996 -0.1134013087 0.5626083016 4293256675
-0.3077904284 -0.1129682958 0.5635665059 4293322468
-0.3083136678 -0.1125331074 0.5645245910 4293388261
-0.3088367879 -0.1120957583 0.5654824376 4293519847
-0.3093598187 -0.1116562411 0.5664401054 4293651433
-0.3098827600 -0.1112145633 0.5673975945 4293717226
-0.3108780384 -0.1109393090 0.5692199469 4293717480
-0.3114008009 -0.1104923636 0.5701771379 4293585894
-0.3119234741 -0.1100432500 0.5711341500 4293322722
-0.3124460280 -0.1095919684 0.5720909834 4293388515
-0.3129684925 -0.1091385186 0.5730475783 4293454308
-0.3134908080 -0.1086829081 0.5740039349 4293520101
-0.3135401011 -0.1080621406 0.5740942359 4293454308
-0.3140621185 -0.1076031327 0.5750500560 4293322722
-0.3145840168 -0.1071419567 0.5760056376 4293125343
-0.3151057959 -0.1066786200 0.5769609809 4292993757
-0.3156274557 -0.1062131226 0.5779161453 4292993757
-0.3166222572 -0.1059037596 0.5797376633 4292993757
-0.3176170886 -0.1055903509 0.5815591812 4292993757
-0.3181384802 -0.1051164791 0.5825138688 4292862171
-0.3191332519 -0.1047959253 0.5843353271 4292862430
-0.3196544945 -0.1043167785 0.5852897167 4292467672
-0.3206492066 -0.1039890796 0.5871110559 4292139223
-0.3221176267 -0.1038099900 0.5897997022 4290954949
-0.3167457283 -0.1765416265 0.5811455846 4289835692
-0.3145099878 -0.1746543795 0.5770435929 4289769899
-0.3113476634 -0.1722635776 0.5712415576 4289638313
-0.3104972243 -0.1711600870 0.5696812272 4289506727
-0.3101089895 -0.1703139096 0.5689688921 4289638054
-0.3087943792 -0.1689624339 0.5665569305 4289572261
-0.3079419434 -0.1678682566 0.5649929047 4289374880
-0.3075520396 -0.1670287549 0.5642775297 4289243294
-0.3071616888 -0.1661905944 0.5635613203 4289243292
-0.3063074946 -0.1651040167 0.5619941354 4289309085
-0.3063796461 -0.1645183563 0.5621265173 4289309085
-0.3059879541 -0.1636842638 0.5614079237 4289243292
-0.3055958450 -0.1628515422 0.5606884360 4289177754
-0.3052032888 -0.1620201916 0.5599682331 4289177754
-0.3048102856 -0.1611901969 0.5592471957 4289046166
-0.3048809171 -0.1606060266 0.5593767166 4288980373
-0.3044871390 -0.1597778946 0.5586542487 4289046166
-0.3045572042 -0.1591938138 0.5587828159 4289046166
-0.3041626811 -0.1583675444 0.5580589771 4289045398
-0.3037676811 -0.1575426608 0.5573343039 4288979605
-0.3033722937 -0.1567191482 0.5566087961 4289045398
-0.3029764295 -0.1558970362 0.5558825135 4288979605
-0.3030449450 -0.1553145200 0.5560082197 4289111189
-0.3026483357 -0.1544943005 0.5552805662 4289111189
-0.3018538058 -0.1528580487 0.5538228154 4288979346
-0.3019210994 -0.1522766501 0.5539462566 4288847760
-0.3015228510 -0.1514611244 0.5532156229 4288650381
-0.3011241853 -0.1506470144 0.5524840951 4288781713
-0.3007250726 -0.1498343050 0.5517518520 4288715920
-0.3007911444 -0.1492540538 0.5518730879 4288781199
-0.3003912866 -0.1484432817 0.5511394143 4288715406
-0.3004567921 -0.1478631794 0.5512596369 4288781199
-0.3000561595 -0.1470543444 0.5505245924 4288846992
-0.3001211286 -0.1464743763 0.5506438017 4288781713
-0.2997197211 -0.1456674784 0.5499073267 4288847506
-0.2997841239 -0.1450876743 0.5500254631 4288715920
-0.2998483181 -0.1445074826 0.5501432419 4288847506
-0.2994458377 -0.1437030882 0.5494047999 4289044369
-0.2995094359 -0.1431230456 0.5495215058 4289110162
-0.2991062105 -0.1423206329 0.5487816930 4289110162
-0.2991692722 -0.1417407691 0.5488973856 4289175955
-0.2992320955 -0.1411605328 0.5490126014 4289373336
-0.2988277674 -0.1403606385 0.5482708216 4289504922
-0.2988900244 -0.1397805810 0.5483850241 4289570200
-0.2989520431 -0.1392001659 0.5484988689 4289504407
-0.2985466421 -0.1384028047 0.5477550030 4289504407
-0.2986081243 -0.1378225833 0.5478677750 4289570200
-0.2986693680 -0.1372420043 0.5479801297 4289635993
-0.2987303436 -0.1366610676 0.5480920672 4289767579
-0.2983235419 -0.1358668059 0.5473456383 4289833887
-0.2983839810 -0.1352860779 0.5474565625 4290031266
-0.2984441817 -0.1347049922 0.5475670099 4290162852
-0.2980362773 -0.1339133233 0.5468186140 4290031266
-0.2980959117 -0.1333324462 0.5469280481 4290162337
-0.2981553078 -0.1327512115 0.5470370650 4290359716
-0.2982144952 -0.1321696490 0.5471456051 4290623401
-0.2982734144 -0.1315877289 0.5472537279 4290886573
-0.2983321249 -0.1310054660 0.5473614335 4291018161
-0.2988590002 -0.1306276023 0.5483281016 4291018161
-0.2989173234 -0.1300437301 0.5484350920 4290821297
-0.2989753783 -0.1294595301 0.5485416651 4290887090
-0.2990332246 -0.1288749874 0.5486477613 4290952885
-0.2990908325 -0.1282901019 0.5487534404 4290887092
-0.2991481721 -0.1277048886 0.5488586426 4290952885
-0.2996742725 -0.1273185760 0.5498238802 4291084471
-0.2997312248 -0.1267317683 0.5499284267 4291347643
-0.2997879386 -0.1261446178 0.5500324965 4291479229
-0.3003136516 -0.1257536411 0.5509970188 4291610815
-0.3003699780 -0.1251649112 0.5511003733 4291676608
-0.3008954823 -0.1247704998 0.5520645380 4291808194
-0.3009513915 -0.1241801977 0.5521671176 4291873987
-0.3010070920 -0.1235895604 0.5522692800 4291939526
-0.3010625243 -0.1229985952 0.5523709655 4292005319
-0.3011177182 -0.1224073097 0.5524722338 4292202952
-0.3016425073 -0.1220057309 0.5534350872 4292400331
-0.3016972840 -0.1214128733 0.5535355806 4292400077
-0.3017518222 -0.1208196878 0.5536356568 4292465870
-0.3018060923 -0.1202261895 0.5537352562 4292663249
-0.3018601239 -0.1196323633 0.5538344383 4292794835
-0.3023841977 -0.1192236394 0.5547959208 4292794837
-0.3024378121 -0.1186282560 0.5548943281 4292794837
-0.3024911880 -0.1180325598 0.5549922585 4292861143
-0.3025443256 -0.1174365431 0.5550897121 4292926936
-0.3030678034 -0.1170219257 0.5560501814 4292861143
-0.3031204939 -0.1164243594 0.5561468601 4292795350
-0.3036437333 -0.1160063297 0.5571068525 4292861143
-0.3041668534 -0.1155861393 0.5580666065 4293058522
-0.3046898842 -0.1151637807 0.5590263009 4293255646
-0.3052128255 -0.1147392541 0.5599857569 4293518818
-0.3052645922 -0.1141364202 0.5600807071 4293584611
-0.3057872653 -0.1137084961 0.5610396862 4293453025
-0.3067810833 -0.1134526730 0.5628631115 4293322211
-0.3073036671 -0.1130194739 0.5638218522 4293322211
-0.3078261018 -0.1125841066 0.5647804141 4293256416
-0.3083484471 -0.1121465787 0.5657387972 4293256416
-0.3088707030 -0.1117068753 0.5666970015 4293322209
-0.3093928397 -0.1112650111 0.5676549673 4293322209
-0.3103865981 -0.1109896526 0.5694782138 4293388002
