VERSION 0.7
FIELDS x y z rgba
SIZE 4 4 4 4
TYPE F F F U
COUNT 1 1 1 1
WIDTH 920
HEIGHT 1
VIEWPOINT 0.0 0.0 0.0 1.0 0.0 0.0 0.0
POINTS 920
DATA ascii
-0.2862998247 -0.1529311687 0.5631558299 4289826326
-0.2859239876 -0.1521055400 0.5624165535 4289760533
-0.2855477631 -0.1512813121 0.5616764426 4289826326
-0.2851710916 -0.1504585147 0.5609355569 4289826580
-0.2847940028 -0.1496371478 0.5601938367 4289826580
-0.2844164968 -0.1488172114 0.5594512224 4289892372
-0.2844796181 -0.1482285112 0.5595754385 4289826579
-0.2841013670 -0.1474105269 0.5588313937 4289826577
-0.2837226987 -0.1465939730 0.5580865741 4289892370
-0.2837849855 -0.1460059434 0.5582090616 4289826579
-0.2834055722 -0.1451913565 0.5574627519 4289892372
-0.2834672928 -0.1446034610 0.5575841665 4289892370
-0.2835288048 -0.1440151930 0.5577051640 4289694991
-0.2831483483 -0.1432031244 0.5569568276 4289563659
-0.2827674747 -0.1423925161 0.5562076569 4289695245
-0.2828281224 -0.1418049186 0.5563269258 4289695763
-0.2828885317 -0.1412169635 0.5564457178 4289761556
-0.2825066149 -0.1404088885 0.5556944609 4289761301
-0.2825664580 -0.1398210973 0.5558122396 4289892887
-0.2821838260 -0.1390150487 0.5550595522 4290024728
-0.2818007469 -0.1382104605 0.5543060303 4290024728
-0.2814172804 -0.1374073476 0.5535517335 4290089749
-0.2814759612 -0.1368208230 0.5536671877 4290221335
-0.2810917497 -0.1360197514 0.5529114604 4290155796
-0.2811498940 -0.1354334354 0.5530257821 4290221589
-0.2807649374 -0.1346343905 0.5522686243 4290418714
-0.2803795934 -0.1338368356 0.5515106320 4290287128
-0.2804368734 -0.1332512796 0.5516232848 4290418968
-0.2804939151 -0.1326653659 0.5517355204 4290484761
-0.2805507183 -0.1320791095 0.5518472791 4290747931
-0.2806073129 -0.1314924806 0.5519585609 4290616345
-0.2806636691 -0.1309054941 0.5520694256 4290747933
-0.2802763283 -0.1301122904 0.5513074994 4290813726
-0.2803321481 -0.1295255423 0.5514172912 4290813726
-0.2803877294 -0.1289384365 0.5515266061 4290813726
-0.2799993455 -0.1281478852 0.5507626534 4290879519
-0.2800543606 -0.1275610179 0.5508708954 4290879519
-0.2796652615 -0.1267725825 0.5501055121 4290879519
-0.2797197402 -0.1261859536 0.5502126813 4290945312
-0.2797739804 -0.1255989820 0.5503193736 4291011105
-0.2798280120 -0.1250116676 0.5504256487 4291011105
-0.2798817754 -0.1244240105 0.5505314469 4291340070
-0.2803796828 -0.1240325868 0.5515108109 4291537449
-0.2804330885 -0.1234433278 0.5516158342 4291471656
-0.2804862559 -0.1228537336 0.5517204404 4291405863
-0.2805391848 -0.1222638041 0.5518245697 4291340070
-0.2806443572 -0.1210829392 0.5520313978 4291339555
-0.2806965709 -0.1204920113 0.5521341562 4291207969
-0.2807485759 -0.1199007556 0.5522363782 4291405348
-0.2808003128 -0.1193091720 0.5523381829 4291536934
-0.2812969387 -0.1189054027 0.5533150434 4291405348
-0.2813482881 -0.1183122322 0.5534160733 4291207969
-0.2813994288 -0.1177187338 0.5535166264 4291340070
-0.2818956375 -0.1173102334 0.5544927120 4291603242
-0.2819463611 -0.1167151555 0.5545924902 4291471656
-0.2819968462 -0.1161197498 0.5546917915 4291537449
-0.2820470929 -0.1155240312 0.5547906160 4291537195
-0.2820971012 -0.1149279922 0.5548889637 4291668781
-0.2821468711 -0.1143316329 0.5549868941 4291931953
-0.2821963727 -0.1137349606 0.5550842881 4291997746
-0.2822456658 -0.1131379753 0.5551812053 4291932723
-0.2822946906 -0.1125406846 0.5552776456 4292195895
-0.2823435068 -0.1119430736 0.5553736687 4292195897
-0.2823920548 -0.1113451570 0.5554691553 4292130104
-0.2828865647 -0.1109218895 0.5564418435 4292260920
-0.2829346955 -0.1103224158 0.5565365553 4292260920
-0.2834289372 -0.1098956987 0.5575087070 4292130104
-0.2834766507 -0.1092946678 0.5576025844 4292195897
-0.2839706242 -0.1088645011 0.5585742593 4292195897
-0.2844645083 -0.1084321439 0.5595456958 4292261690
-0.2845116556 -0.1078283116 0.5596384406 4292261690
-0.2850052416 -0.1073925048 0.5606093407 4292393276
-0.2859455347 -0.1071218848 0.5624589324 4292261435
-0.2859921455 -0.1065143123 0.5625506043 4292393021
-0.2860385180 -0.1059064418 0.5626417994 4292590400
-0.2865316272 -0.1054628044 0.5636117458 4292656193
-0.2865775526 -0.1048533991 0.5637021065 4293183050
-0.2870703936 -0.1044063270 0.5646715164 4293972566
-0.2871158719 -0.1037953794 0.5647609830 4293842022
-0.2876084149 -0.1033448726 0.5657297969 4293907815
-0.2876534760 -0.1027323976 0.5658184886 4294564204
-0.2876982987 -0.1021196395 0.5659065843 4294432618
-0.2877428234 -0.1015065908 0.5659942031 4293121645
-0.2877871394 -0.1008932665 0.5660813451 4293450610
-0.3119644821 -0.1772545129 0.6149821281 4291082125
-0.3137919307 -0.1776055545 0.6185845733 4290489988
-0.3068527579 -0.1730059087 0.6049052477 4290552908
-0.3029792607 -0.1701584011 0.5972693563 4289829185
-0.2986651063 -0.1670813411 0.5887647867 4289498656
-0.2930326760 -0.1632885635 0.5776613951 4289630242
-0.2957340181 -0.1641461253 0.5829866529 4290090019
-0.2914143503 -0.1611102223 0.5744712353 4290090019
-0.2901652753 -0.1597841233 0.5720088482 4290549275
-0.2889153659 -0.1584630311 0.5695449114 4290549275
-0.2881037891 -0.1573868841 0.5679450631 4290220306
-0.2877309024 -0.1565529555 0.5672098994 4289957134
-0.2873575687 -0.1557204425 0.5664739609 4289694744
-0.2865443230 -0.1546521336 0.5648708344 4289760537
-0.2861700654 -0.1538233459 0.5641330481 4289695510
-0.2857953608 -0.1529959589 0.5633943677 4289629717
-0.2858600318 -0.1524044722 0.5635218620 4289695510
-0.2854846120 -0.1515790224 0.5627818108 4289695510
-0.2846687734 -0.1505223513 0.5611734986 4289563924
-0.2842923999 -0.1497006565 0.5604315400 4289629717
-0.2839156091 -0.1488803923 0.5596888065 4289761301
-0.2839787006 -0.1482914835 0.5598131418 4289761301
-0.2836011648 -0.1474731714 0.5590689182 4289892372
-0.2832232118 -0.1466563046 0.5583238602 4289826579
-0.2832854390 -0.1460680366 0.5584464669 4289629201
-0.2829067707 -0.1452531517 0.5576999784 4289760787
-0.2829684317 -0.1446650326 0.5578215718 4290023958
-0.2830298543 -0.1440765262 0.5579426885 4289760786
-0.2826501429 -0.1432641447 0.5571941137 4289629198
-0.2827110291 -0.1426757872 0.5573141575 4289892370
-0.2823305726 -0.1418654025 0.5565641522 4289892372
-0.2823909223 -0.1412772089 0.5566831231 4289826579
-0.2820097208 -0.1404688209 0.5559316874 4289892372
-0.2820695341 -0.1398808062 0.5560495853 4290023958
-0.2816876173 -0.1390744299 0.5552966595 4290023959
-0.2813052535 -0.1382695138 0.5545429587 4290089752
-0.2813642025 -0.1376822293 0.5546591282 4290155544
-0.2809811532 -0.1368793547 0.5539039969 4290155544
-0.2810395360 -0.1362922490 0.5540191531 4290221335
-0.2806557417 -0.1354914010 0.5532625318 4290287128
-0.2807135880 -0.1349044889 0.5533766150 4290352921
-0.2807712257 -0.1343172193 0.5534902215 4290352921
-0.2803863883 -0.1335189939 0.5527315140 4290352921
-0.2800011337 -0.1327222586 0.5519720912 4290550300
-0.2800579071 -0.1321357638 0.5520839691 4290616095
-0.2801144421 -0.1315489113 0.5521954298 4290550302
-0.2801707387 -0.1309617013 0.5523064137 4290616347
-0.2802268267 -0.1303741336 0.5524169803 4290682140
-0.2802826762 -0.1297862232 0.5525270700 4290813726
-0.2798953950 -0.1289938539 0.5517636538 4290813726
-0.2799507082 -0.1284061670 0.5518726707 4290813726
-0.2800057828 -0.1278181374 0.5519812107 4290879519
-0.2796174884 -0.1270284504 0.5512157679 4290879519
-0.2796719968 -0.1264406443 0.5513232350 4290747933
-0.2797262967 -0.1258525103 0.5514302850 4290945312
-0.2797803283 -0.1252640337 0.5515368581 4291011105
-0.2798341513 -0.1246752217 0.5516429543 4291076898
-0.2798877656 -0.1240860671 0.5517485738 4291142691
-0.2799411118 -0.1234965697 0.5518537760 4291340068
-0.2799942195 -0.1229067445 0.5519585013 4291340068
-0.2800471187 -0.1223165765 0.5520627499 4291274275
-0.2800997794 -0.1217260733 0.5521665215 4291274275
-0.2801522017 -0.1211352423 0.5522698760 4291405861
-0.2802043855 -0.1205440834 0.5523727536 4291274275
-0.2802563310 -0.1199525893 0.5524751544 4291274275
-0.2803080380 -0.1193607673 0.5525770783 4291405861
-0.2808037996 -0.1189568415 0.5535544157 4291208482
-0.2808551192 -0.1183634326 0.5536555648 4291142689
-0.2809062004 -0.1177696958 0.5537562966 4291340070
-0.2809570432 -0.1171756387 0.5538564920 4291274277
-0.2814522684 -0.1167657152 0.5548327565 4291471656
-0.2815027237 -0.1161700785 0.5549321771 4291537449
-0.2815529108 -0.1155741140 0.5550311804 4291603242
-0.2816028893 -0.1149778366 0.5551296473 4291669035
-0.2816525996 -0.1143812388 0.5552276373 4291734574
-0.2817020714 -0.1137843207 0.5553252101 4291866160
-0.2817513049 -0.1131870970 0.5554222465 4291997746
-0.2818002999 -0.1125895604 0.5555188656 4292129332
-0.2818490565 -0.1119917110 0.5556149483 4291801137
-0.2823429108 -0.1115695238 0.5565884709 4291932723
-0.2823912501 -0.1109701172 0.5566837788 4292063539
-0.2824393511 -0.1103703976 0.5567786098 4292063539
-0.2829327583 -0.1099435091 0.5577512383 4292195127
-0.2829804420 -0.1093422323 0.5578452945 4292260920
-0.2834736109 -0.1089118943 0.5588174462 4292064311
-0.2839666605 -0.1084793657 0.5597894192 4292064311
-0.2849054635 -0.1082139835 0.5616400838 4292195897
-0.2849524617 -0.1076077074 0.5617327690 4292130104
-0.2854452133 -0.1071685851 0.5627041459 4292195897
-0.2854917943 -0.1065607592 0.5627959371 4292327483
-0.2859842479 -0.1061181948 0.5637667179 4292261690
-0.2860303819 -0.1055088267 0.5638576746 4292327483
-0.2865225673 -0.1050628126 0.5648279786 4292854340
-0.2865682840 -0.1044519097 0.5649180412 4293512270
-0.2870602012 -0.1040024608 0.5658877492 4293775967
-0.2871054709 -0.1033900231 0.5659769773 4294631276
-0.2871504724 -0.1027772948 0.5660657287 4294960494
-0.2871952355 -0.1021642834 0.5661540031 4294368357
-0.2872397602 -0.1015509814 0.5662417412 4293774964
-0.2872840166 -0.1009373963 0.5663290024 4293972343
-0.3079132140 -0.1753365248 0.6083276868 4291214488
-0.3127990067 -0.1774320602 0.6179803014 4290622351
-0.3041217327 -0.1718423814 0.6008370519 4290685270
-0.3002546430 -0.1689982265 0.5931970477 4290027340
-0.2972610593 -0.1666607708 0.5872827768 4289565223
-0.2933900058 -0.1638464183 0.5796349645 4289433637
-0.2912688553 -0.1620225012 0.5754443407 4290024485
-0.2900226712 -0.1606926620 0.5729823112 4290024485
-0.2927194834 -0.1615443379 0.5783102512 4290155291
-0.2888427377 -0.1587708145 0.5706511140 4290155291
-0.2880327404 -0.1576933414 0.5690509081 4290089492
-0.2872221470 -0.1566190720 0.5674494505 4289892113
-0.2868495584 -0.1557862312 0.5667133331 4289760537
-0.2864765227 -0.1549548060 0.5659763217 4289760537
-0.2861030698 -0.1541247815 0.5652385354 4289695508
-0.2857291996 -0.1532961726 0.5644998550 4289629715
-0.2849158943 -0.1522344202 0.5628930926 4289629717
-0.2849801779 -0.1516432166 0.5630201101 4289695510
-0.2846050560 -0.1508188695 0.5622789860 4289695508
-0.2842294872 -0.1499959379 0.5615370274 4289695508
-0.2838535309 -0.1491744518 0.5607942343 4289695763
-0.2834771276 -0.1483543813 0.5600506067 4289695763
-0.2831003368 -0.1475357562 0.5593062043 4289892372
-0.2827230990 -0.1467185766 0.5585609078 4289892372
-0.2827852666 -0.1461300850 0.5586836934 4289694993
-0.2824073136 -0.1453148723 0.5579370260 4289760786
-0.2824689150 -0.1447265297 0.5580587387 4289892372
-0.2825303078 -0.1441377997 0.5581800342 4289694993
-0.2825914621 -0.1435486972 0.5583008528 4289629198
-0.2822121382 -0.1427365243 0.5575514436 4290023956
-0.2818323970 -0.1419258118 0.5568011999 4289761554
-0.2818926871 -0.1413374096 0.5569203496 4289761554
-0.2815122306 -0.1405286938 0.5561686158 4289827347
-0.2815719843 -0.1399404556 0.5562866926 4289893140
-0.2811907828 -0.1391337663 0.5555335879 4289958933
-0.2808091640 -0.1383285373 0.5547796488 4289958933
-0.2808680534 -0.1377410144 0.5548959970 4290024726
-0.2804856896 -0.1369378269 0.5541406274 4290090519
-0.2805440426 -0.1363504827 0.5542559028 4290221335
-0.2801609635 -0.1355493218 0.5534990430 4290221335
-0.2802187800 -0.1349621862 0.5536132455 4290353175
-0.2802763581 -0.1343746930 0.5537270308 4290353175
-0.2798922360 -0.1335761398 0.5529681444 4290352921
-0.2799492776 -0.1329888552 0.5530807972 4290484507
-0.2795644104 -0.1321923584 0.5523204803 4290550300
-0.2796209157 -0.1316052824 0.5524320602 4290484507
-0.2796771526 -0.1310178488 0.5525432229 4290418968
-0.2797331810 -0.1304300576 0.5526539087 4290484761
-0.2797890007 -0.1298419088 0.5527641177 4290682138
-0.2794024646 -0.1290492266 0.5520005226 4290747931
-0.2794577181 -0.1284613013 0.5521096587 4290813724
-0.2795127332 -0.1278730482 0.5522183776 4290879517
-0.2795675099 -0.1272844374 0.5523266196 4290879517
-0.2791796327 -0.1264950037 0.5515602827 4290747931
-0.2796764076 -0.1261061728 0.5525417328 4290879517
-0.2797304988 -0.1255165339 0.5526486039 4290945310
-0.2797843516 -0.1249265522 0.5527549982 4291076896
-0.2793951929 -0.1241394952 0.5519861579 4291142689
-0.2794485092 -0.1235497668 0.5520914793 4291208482
-0.2795015872 -0.1229597032 0.5521963239 4291274275
-0.2795544267 -0.1223693043 0.5523006916 4291340068
-0.2796070278 -0.1217785701 0.5524046421 4291340068
-0.2796593904 -0.1211875007 0.5525081158 4291274275
-0.2797115147 -0.1205961034 0.5526111126 4291208482
-0.2797634304 -0.1200043783 0.5527136326 4291274275
-0.2798150778 -0.1194123179 0.5528157353 4291405861
-0.2803100348 -0.1190082356 0.5537935495 4291340070
-0.2803613245 -0.1184145883 0.5538948774 4291274277
-0.2804123461 -0.1178206131 0.5539956689 4291274277
-0.2804631293 -0.1172263175 0.5540960431 4291340070
-0.2809575498 -0.1168162376 0.5550727844 4291603242
-0.2810079455 -0.1162203550 0.5551723838 4291537449
-0.2810581028 -0.1156241521 0.5552714467 4291603242
-0.2811080217 -0.1150276363 0.5553700924 4291669035
-0.2811577022 -0.1144307926 0.5554682016 4291669035
-0.2812071145 -0.1138336435 0.5555658937 4291866414
-0.2812563181 -0.1132361740 0.5556630492 4291998000
-0.2813052833 -0.1126383916 0.5557597876 4292063793
-0.2813539803 -0.1120403036 0.5558559895 4291801137
-0.2818470001 -0.1116179526 0.5568300486 4291932723
-0.2818953097 -0.1110182926 0.5569254756 4292063539
-0.2819433510 -0.1104183346 0.5570204258 4292063539
-0.2824359536 -0.1099912748 0.5579935908 4292129332
-0.2824835777 -0.1093897521 0.5580877066 4292129332
-0.2829759121 -0.1089592502 0.5590603948 4291932723
-0.2839131355 -0.1086969152 0.5609120131 4291932723
-0.2844053507 -0.1082610637 0.5618844628 4291998516
-0.2848974466 -0.1078230143 0.5628566742 4291866930
-0.2849442363 -0.1072152406 0.5629490614 4291998516
-0.2849907577 -0.1066071689 0.5630410314 4292130102
-0.2854824066 -0.1061644182 0.5640123487 4292130104
-0.2859739363 -0.1057194769 0.5649834275 4292130104
-0.2860198617 -0.1051086113 0.5650741458 4292393276
-0.2860655487 -0.1044974551 0.5651643872 4292853827
-0.2865566015 -0.1040478274 0.5661345720 4293183311
-0.2866018414 -0.1034351364 0.5662239194 4294235999
-0.2866468132 -0.1028221548 0.5663127899 4294894699
-0.2866915464 -0.1022088900 0.5664011836 4294828906
-0.2867360413 -0.1015953347 0.5664890409 4294104180
-0.2867802382 -0.1009814963 0.5665764213 4293709422
-0.2868242264 -0.1003673747 0.5666632652 4293254054
-0.2868679166 -0.0997529700 0.5667496324 4294635707
-0.3152252734 -0.1798950136 0.6241432428 4291149473
-0.3091867268 -0.1757687032 0.6121870279 4290623129
-0.3057658970 -0.1731513441 0.6054137945 4290818147
-0.3014693260 -0.1700550616 0.5969066024 4290291803
-0.2976074815 -0.1672219336 0.5892602205 4289895221
-0.2946178019 -0.1648939252 0.5833406448 4289697842
-0.2955614626 -0.1647718698 0.5852090716 4290025515
-0.2912574112 -0.1617316753 0.5766870975 4289959722
-0.2900130451 -0.1604027003 0.5742232800 4289958943
-0.2887678742 -0.1590787470 0.5717578530 4289827357
-0.2879595160 -0.1579999328 0.5701572895 4290089751
-0.2871505022 -0.1569243371 0.5685554743 4289958165
-0.2867787182 -0.1560902745 0.5678193569 4289695512
-0.2859685719 -0.1550202072 0.5662152767 4289629719
-0.2855958343 -0.1541898698 0.5654772520 4289958680
-0.2852226794 -0.1533609480 0.5647383928 4289827094
-0.2848491073 -0.1525334269 0.5639986992 4289695508
-0.2844750881 -0.1517073363 0.5632581711 4289695508
-0.2841006815 -0.1508826762 0.5625168681 4289695508
-0.2837258577 -0.1500594318 0.5617746711 4289695508
-0.2833506167 -0.1492376179 0.5610316992 4289695763
-0.2829749286 -0.1484172344 0.5602878928 4289761556
-0.2830376625 -0.1478274763 0.5604121089 4289892372
-0.2826612592 -0.1470090598 0.5596668124 4289892372
-0.2822844386 -0.1461920887 0.5589207411 4289760786
-0.2823463082 -0.1456029862 0.5590432286 4289760786
-0.2819687724 -0.1447879821 0.5582956672 4289892372
-0.2820301056 -0.1441990286 0.5584170818 4289760786
-0.2820912004 -0.1436097026 0.5585380793 4289760786
-0.2821520865 -0.1430199891 0.5586586595 4290089751
-0.2817731500 -0.1422080398 0.5579083562 4289827601
-0.2813938260 -0.1413975507 0.5571572781 4289893394
-0.2814538479 -0.1408085376 0.5572761297 4289893394
-0.2810737789 -0.1400000453 0.5565236211 4289893394
-0.2811332643 -0.1394112110 0.5566413403 4289959185
-0.2807524502 -0.1386047453 0.5558874011 4289959185
-0.2803712487 -0.1377997547 0.5551325679 4290024980
-0.2799896300 -0.1369962394 0.5543769598 4290024980
-0.2800479233 -0.1364086717 0.5544924140 4290156566
-0.2796655595 -0.1356071979 0.5537353754 4290090773
-0.2801638246 -0.1352324635 0.5547218919 4290156566
-0.2797808349 -0.1344321072 0.5539636016 4290222359
-0.2793974578 -0.1336332411 0.5532044768 4290353175
-0.2794544399 -0.1330457181 0.5533173084 4290353175
-0.2790703177 -0.1322489232 0.5525567532 4290418968
-0.2791267633 -0.1316616088 0.5526685119 4290353175
-0.2791829407 -0.1310739368 0.5527797937 4290222359
-0.2792389393 -0.1304859221 0.5528905988 4290222359
-0.2792946696 -0.1298975497 0.5530009866 4290353945
-0.2789088786 -0.1291045398 0.5522371531 4290485531
-0.2789640725 -0.1285163909 0.5523464084 4290617117
-0.2790190578 -0.1279278994 0.5524552464 4290682910
-0.2790737748 -0.1273390651 0.5525636673 4290879519
-0.2786866426 -0.1265493184 0.5517970920 4290813726
-0.2791825831 -0.1261603385 0.5527790189 4290945310
-0.2792366147 -0.1255704612 0.5528860092 4290945310
-0.2792904377 -0.1249802485 0.5529925823 4291011103
-0.2793439925 -0.1243896931 0.5530986786 4291076896
-0.2789552510 -0.1236029118 0.5523289442 4291076896
-0.2790082991 -0.1230126172 0.5524339676 4291208482
-0.2790610790 -0.1224219799 0.5525384545 4291405861
-0.2791136503 -0.1218310148 0.5526425242 4291405861
-0.2791659534 -0.1212397143 0.5527461171 4291340070
-0.2792180479 -0.1206480786 0.5528492928 4291340070
-0.2792699039 -0.1200561151 0.5529519320 4291471656
-0.2793215215 -0.1194638237 0.5530541539 4291537449
-0.2798156440 -0.1190595850 0.5540325046 4291669035
-0.2798668742 -0.1184656993 0.5541339517 4291669035
-0.2799178660 -0.1178714857 0.5542348623 4291405863
-0.2799685895 -0.1172769517 0.5543353558 4291537449
-0.2804621756 -0.1168667153 0.5553126335 4291866414
-0.2805125415 -0.1162705943 0.5554123521 4291669035
-0.2805626392 -0.1156741530 0.5555115342 4291669035
-0.2806124985 -0.1150773913 0.5556102991 4291734828
-0.2806621492 -0.1144803092 0.5557085872 4291734828
-0.2807115316 -0.1138829142 0.5558063388 4291800621
-0.2807606757 -0.1132852063 0.5559036732 4291998000
-0.2808095813 -0.1126871854 0.5560005307 4291998000
-0.2808582485 -0.1120888516 0.5560968518 4291801391
-0.2813504338 -0.1116663367 0.5570713878 4291867184
-0.2813987136 -0.1110664308 0.5571669340 4291997746
-0.2814467251 -0.1104662269 0.5572620034 4292063539
-0.2819384933 -0.1100390032 0.5582357049 4292063539
-0.2824301422 -0.1096095741 0.5592092276 4291997746
-0.2824775875 -0.1090065539 0.5593031049 4291801137
-0.2834132016 -0.1087441295 0.5611556768 4291866930
-0.2839045823 -0.1083080992 0.5621286035 4291932723
-0.2843958735 -0.1078698710 0.5631012917 4291866930
-0.2848870456 -0.1074294522 0.5640738606 4291932723
-0.2849335968 -0.1068201736 0.5641660094 4291998516
-0.2849799097 -0.1062106043 0.5642576814 4291998516
-0.2854706347 -0.1057654843 0.5652292967 4291932723
-0.2859612405 -0.1053181663 0.5662007332 4292064309
-0.2860069275 -0.1047058031 0.5662912130 4292261688
-0.2860523760 -0.1040931493 0.5663812160 4292590400
-0.2860975564 -0.1034802049 0.5664706826 4293511502
-0.2861424983 -0.1028669775 0.5665596724 4294368353
-0.2861872017 -0.1022534519 0.5666481256 4294960490
-0.2862316370 -0.1016396433 0.5667361021 4294564982
-0.2862758040 -0.1010255516 0.5668236017 4293643880
-0.2863197327 -0.1004111767 0.5669105649 4292923776
-0.2863634229 -0.0997965187 0.5669970512 4293844878
-0.3146638274 -0.1799703836 0.6244047880 4291019178
-0.3116876185 -0.1775809377 0.6184988618 4290492834
-0.3100177646 -0.1759460568 0.6151853204 4291016306
-0.3074745834 -0.1738248020 0.6101387739 4290292583
-0.3027487695 -0.1704856604 0.6007610559 4290224960
-0.2984567881 -0.1674107164 0.5922442079 4289895995
-0.2959082723 -0.1653288007 0.5871871114 4290289718
-0.2924852371 -0.1627714336 0.5803945661 4290092339
-0.2903702855 -0.1609542370 0.5761977434 4290025766
-0.2882540822 -0.1591456831 0.5719984770 4289762594
-0.2874472141 -0.1580664515 0.5703973174 4289959195
-0.2866396904 -0.1569904387 0.5687949657 4289893402
-0.2862686217 -0.1561560482 0.5680586100 4289827096
-0.2858971357 -0.1553230584 0.5673214197 4289761303
-0.2850879729 -0.1542548984 0.5657157302 4290024728
-0.2847155333 -0.1534256488 0.5649766922 4289958935
-0.2843426764 -0.1525978148 0.5642368197 4289827349
-0.2839693725 -0.1517714113 0.5634960532 4289761556
-0.2831580341 -0.1507134736 0.5618860722 4289761556
-0.2836593091 -0.1503548920 0.5628808141 4289761556
-0.2828470469 -0.1493007243 0.5612689853 4289761556
-0.2824721038 -0.1484800279 0.5605249405 4289827349
-0.2825347781 -0.1478900611 0.5606492758 4289892372
-0.2821590900 -0.1470713168 0.5599038005 4289892372
-0.2822212279 -0.1464814693 0.5600271225 4289760786
-0.2818447948 -0.1456646919 0.5592801571 4289760786
-0.2819063962 -0.1450749934 0.5594024062 4289892372
-0.2819677591 -0.1444849074 0.5595241785 4289826579
-0.2815903127 -0.1436706483 0.5587751269 4289826579
-0.2816511393 -0.1430807114 0.5588958263 4290089751
-0.2812729180 -0.1422684342 0.5581453443 4289762319
-0.2813332081 -0.1416786611 0.5582649708 4289893905
-0.2809542716 -0.1408683956 0.5575130582 4289893905
-0.2805749476 -0.1400595903 0.5567603111 4289828112
-0.2806343436 -0.1394705176 0.5568782091 4289959183
-0.2802542746 -0.1386637390 0.5561239719 4289959183
-0.2798737884 -0.1378584355 0.5553689599 4289959185
-0.2794929147 -0.1370545924 0.5546131730 4289959185
-0.2795511484 -0.1364668161 0.5547287464 4290156566
-0.2796091735 -0.1358786672 0.5548438430 4290090773
-0.2792272270 -0.1350774318 0.5540859699 4290221589
-0.2792846859 -0.1344894767 0.5541999936 4290287382
-0.2789020240 -0.1336902976 0.5534406304 4290287382
-0.2789589763 -0.1331025362 0.5535536408 4290287382
-0.2785755694 -0.1323054135 0.5527928472 4290287380
-0.2786319554 -0.1317178756 0.5529047251 4290287380
-0.2786881030 -0.1311299801 0.5530161262 4290222359
-0.2787440419 -0.1305417269 0.5531271100 4290222359
-0.2787997425 -0.1299531311 0.5532376766 4290288152
-0.2788552046 -0.1293641776 0.5533477068 4290419738
-0.2784698009 -0.1285714358 0.5525829792 4290485531
-0.2789654434 -0.1281852126 0.5535664558 4290551324
-0.2785794139 -0.1273936331 0.5528004766 4290747933
-0.2786338925 -0.1268042177 0.5529085398 4290813726
-0.2786881030 -0.1262144595 0.5530161262 4290945312
-0.2787421048 -0.1256243438 0.5531232953 4290945312
-0.2787958682 -0.1250339001 0.5532299876 4290945312
-0.2788493931 -0.1244431138 0.5533362031 4291011105
-0.2784613669 -0.1236560121 0.5525662303 4291076898
-0.2785143554 -0.1230654791 0.5526713729 4291274277
-0.2785671055 -0.1224746108 0.5527760386 4291405350
-0.2786196172 -0.1218834147 0.5528802276 4291471143
-0.2791135311 -0.1214840934 0.5538603067 4291405863
-0.2787239254 -0.1207000092 0.5530872345 4291340070
-0.2787757218 -0.1201078072 0.5531900525 4291603242
-0.2788273096 -0.1195152774 0.5532923341 4291603242
-0.2793205976 -0.1191108897 0.5542712212 4291734828
-0.2793717682 -0.1185167655 0.5543727875 4291866414
-0.2794227302 -0.1179223135 0.5544738770 4291537449
-0.2794734240 -0.1173275411 0.5545744896 4291669035
-0.2799661756 -0.1169171408 0.5555522442 4292063793
-0.2800164819 -0.1163207814 0.5556520820 4291866414
-0.2800665498 -0.1157241017 0.5557514429 4291866414
-0.2801163495 -0.1151271015 0.5558503270 4291866414
-0.2801659405 -0.1145297810 0.5559487343 4291866414
-0.2802152932 -0.1139321476 0.5560466051 4291866414
-0.2802644074 -0.1133341938 0.5561440587 4291932207
-0.2803132534 -0.1127359271 0.5562410355 4291932207
-0.2803618908 -0.1121373549 0.5563375354 4291932207
-0.2808532417 -0.1117146686 0.5573125482 4291866414
-0.2809014618 -0.1111145318 0.5574082136 4291866414
-0.2813925743 -0.1106883883 0.5583827496 4291998000
-0.2818835676 -0.1102600470 0.5593571067 4292063539
-0.2819312215 -0.1096570864 0.5594516397 4291997746
-0.2824219465 -0.1092252955 0.5604254603 4291801137
-0.2829126120 -0.1087912917 0.5613990426 4291801137
-0.2834031582 -0.1083550975 0.5623725057 4291801137
-0.2838936150 -0.1079166979 0.5633457303 4291801137
-0.2843839526 -0.1074760929 0.5643187761 4291866930
-0.2844304740 -0.1068665758 0.5644110441 4291932723
-0.2844767570 -0.1062567532 0.5645028353 4291866930
-0.2849666476 -0.1058114544 0.5654749870 4291801137
-0.2854564190 -0.1053639501 0.5664469004 4291866930
-0.2855020761 -0.1047513410 0.5665374994 4292064309
-0.2855474949 -0.1041384339 0.5666275620 4292260918
-0.2855926454 -0.1035252362 0.5667172074 4292655676
-0.2860817611 -0.1030718014 0.5676878095 4293249104
-0.2856822014 -0.1022979766 0.5668948889 4294170206
-0.2857265770 -0.1016839147 0.5669829845 4294104681
-0.2857707143 -0.1010695696 0.5670705438 4293512544
-0.2858146131 -0.1004549414 0.5671576858 4292922208
-0.2858582437 -0.0998400226 0.5672442317 4293251173
-0.3098993003 -0.1762673110 0.6163085699 4291280258
-0.3077962101 -0.1743909717 0.6121260524 4290490742
-0.3039499819 -0.1715401709 0.6044769287 4290686543
-0.2996661365 -0.1684603393 0.5959574580 4290225992
-0.3023506403 -0.1693013757 0.6012962461 4290619455
-0.2923988998 -0.1630828083 0.5815048218 4290356283
-0.2885444164 -0.1602954268 0.5738392472 4290224176
-0.2877396345 -0.1592125595 0.5722388029 4289961004
-0.2869342566 -0.1581328958 0.5706371069 4290091040
-0.2874367833 -0.1577747017 0.5716364384 4289959454
-0.2861941755 -0.1564602554 0.5691652298 4290155291
-0.2853871286 -0.1553884447 0.5675602555 4290155291
-0.2845794559 -0.1543198675 0.5659539700 4290024728
-0.2842077315 -0.1534903049 0.5652147532 4289958935
-0.2838355899 -0.1526621431 0.5644746423 4289958935
-0.2838997841 -0.1520693749 0.5646023750 4289958935
-0.2826531827 -0.1507770717 0.5621231794 4289893142
-0.2835905850 -0.1506504864 0.5639874339 4289827349
-0.2823428512 -0.1493637860 0.5615059733 4289827349
-0.2819686234 -0.1485427618 0.5607617497 4289827349
-0.2820312381 -0.1479525715 0.5608862638 4289760786
-0.2816562653 -0.1471335143 0.5601406097 4289826579
-0.2817183435 -0.1465434432 0.5602640510 4289826577
-0.2813426554 -0.1457263529 0.5595169067 4289826577
-0.2814041972 -0.1451364309 0.5596392751 4289958163
-0.2814655006 -0.1445461065 0.5597611666 4289892370
-0.2810887694 -0.1437315345 0.5590119362 4289826577
-0.2811495364 -0.1431413740 0.5591328144 4290023956
-0.2807720602 -0.1423287839 0.5583820939 4289893392
-0.2808322906 -0.1417387873 0.5585018992 4289893392
-0.2804540694 -0.1409281939 0.5577497482 4289959185
-0.2800754607 -0.1401190758 0.5569967628 4289959185
-0.2801348269 -0.1395297796 0.5571148396 4289959183
-0.2797554731 -0.1387226880 0.5563604236 4290024976
-0.2798143029 -0.1381335706 0.5564773679 4290090771
-0.2794342339 -0.1373284906 0.5557215214 4289959185
-0.2790537477 -0.1365249008 0.5549648404 4290221589
-0.2786728442 -0.1357227862 0.5542073250 4290155796
-0.2791694403 -0.1353477836 0.5551949143 4290221589
-0.2787879109 -0.1345467865 0.5544361472 4290287382
-0.2784059942 -0.1337472796 0.5536766052 4290353175
-0.2784628570 -0.1331593096 0.5537896752 4290353175
-0.2785195112 -0.1325709671 0.5539023876 4290353173
-0.2781365216 -0.1317740977 0.5531406999 4290418966
-0.2781926394 -0.1311859787 0.5532522798 4290288152
-0.2782485187 -0.1305975020 0.5533633828 4290288152
-0.2787438035 -0.1302140504 0.5543484092 4290288152
-0.2787992954 -0.1296239346 0.5544587970 4290419738
-0.2784147561 -0.1288299412 0.5536940098 4290485531
-0.2784697115 -0.1282400638 0.5538033247 4290551324
-0.2780844271 -0.1274481714 0.5530371070 4290682140
-0.2781388164 -0.1268585175 0.5531452894 4290747933
-0.2781929970 -0.1262685210 0.5532530546 4290945310
-0.2782469392 -0.1256781816 0.5533602834 4290945310
-0.2783006430 -0.1250874996 0.5534671545 4290945310
-0.2783541381 -0.1244964823 0.5535734892 4291011103
-0.2784073949 -0.1239051148 0.5536793470 4291142689
-0.2784603834 -0.1233134195 0.5537847877 4291208482
-0.2785131633 -0.1227213740 0.5538897514 4291339555
-0.2785657048 -0.1221290007 0.5539942384 4291339555
-0.2786180377 -0.1215362921 0.5540983081 4291405863
-0.2786701024 -0.1209432483 0.5542018414 4291274277
-0.2787219584 -0.1203498766 0.5543049574 4291537449
-0.2787735462 -0.1197561771 0.5544075966 4291537449
-0.2788249254 -0.1191621423 0.5545097589 4291537449
-0.2788760364 -0.1185677797 0.5546114445 4291734828
-0.2789269388 -0.1179730892 0.5547126532 4291537449
-0.2789776027 -0.1173780784 0.5548133850 4291603242
-0.2794695199 -0.1169675291 0.5557916760 4291932207
-0.2795197666 -0.1163709238 0.5558916330 4291932207
-0.2795698047 -0.1157740057 0.5559911132 4291932207
-0.2796195745 -0.1151767671 0.5560901165 4291998000
-0.2801109254 -0.1147602126 0.5570672750 4292063793
-0.2801603079 -0.1141613945 0.5571655035 4291932207
-0.2802094519 -0.1135622561 0.5572631955 4291866414
-0.2802583277 -0.1129628047 0.5573604703 4291932207
-0.2803069949 -0.1123630404 0.5574572086 4291866414
-0.2803553939 -0.1117629632 0.5575534701 4291866414
-0.2804035842 -0.1111625805 0.5576492548 4291932207
-0.2808938622 -0.1107362732 0.5586243272 4291998000
-0.2813840508 -0.1103077605 0.5595991611 4291997746
-0.2823166251 -0.1100495383 0.5614538193 4291997746
-0.2823641300 -0.1094441339 0.5615482926 4291931953
-0.2828540206 -0.1090090126 0.5625225902 4291931953
-0.2829010785 -0.1084020510 0.5626161695 4291800367
-0.2833907008 -0.1079634726 0.5635899305 4291800367
-0.2834373713 -0.1073549539 0.5636826754 4291669551
-0.2839266956 -0.1069129258 0.5646558404 4291669551
-0.2844159603 -0.1064686924 0.5656288266 4291603758
-0.2844620049 -0.1058573797 0.5657204390 4291603758
-0.2849509418 -0.1054096967 0.5666928291 4291669551
-0.2849965692 -0.1047968343 0.5667835474 4291801137
-0.2854852378 -0.1043457091 0.5677553415 4292129073
-0.2855304182 -0.1037313044 0.5678452253 4292063280
-0.2855753601 -0.1031166092 0.5679345727 4292196157
-0.2856200337 -0.1025016308 0.5680234432 4292854087
-0.2856644392 -0.1018863618 0.5681117773 4293117521
-0.2857086062 -0.1012708023 0.5681996346 4293051728
-0.2853088081 -0.1004986614 0.5674045086 4292854600
-0.2853524089 -0.0998834968 0.5674912333 4292657221
-0.2849518955 -0.0991136655 0.5666947365 4292790953
-0.3110077679 -0.1779781282 0.6198822260 4290558384
-0.3102130592 -0.1768363714 0.6182982922 4291346061
-0.3081139922 -0.1749574840 0.6141145229 4290753924
-0.3047096133 -0.1723495722 0.6073291302 4290883929
-0.3004338145 -0.1692657769 0.5988068581 4290357585
-0.2961557209 -0.1661996394 0.5902799964 4290685765
-0.2927453220 -0.1636374742 0.5834826231 4290422593
-0.2906383574 -0.1618160903 0.5792831182 4290487608
-0.2885301113 -0.1600033641 0.5750811100 4290356022
-0.2872912586 -0.1586801410 0.5726118684 4290288936
-0.2869223356 -0.1578409821 0.5718765855 4290025764
-0.2861174941 -0.1567646116 0.5702724457 4290418467
-0.2857476473 -0.1559291631 0.5695352554 4290484260
-0.2849416733 -0.1548583508 0.5679287910 4290090521
-0.2845708728 -0.1540266424 0.5671897531 4290024728
-0.2833278775 -0.1527264118 0.5647122860 4289958933
-0.2833920121 -0.1521334201 0.5648401380 4289958933
-0.2830198705 -0.1513068825 0.5640983582 4289958933
-0.2826472819 -0.1504817754 0.5633558035 4289958933
-0.2822743058 -0.1496580839 0.5626123548 4289893140
-0.2814645171 -0.1486054361 0.5609983802 4289827347
-0.2815270722 -0.1480150223 0.5611230135 4289760784
-0.2811528444 -0.1471956372 0.5603771210 4289826577
-0.2812148333 -0.1466053575 0.5605007410 4289826577
-0.2808398902 -0.1457879394 0.5597533584 4289892370
-0.2809013426 -0.1451977938 0.5598759055 4289958163
-0.2805256546 -0.1443823725 0.5591270924 4289892370
-0.2805866003 -0.1437923610 0.5592485070 4289826577
-0.2806473076 -0.1432019770 0.5593695641 4290023956
-0.2802705467 -0.1423890740 0.5586186051 4289893394
-0.2798933983 -0.1415776312 0.5578668714 4289893394
-0.2799532413 -0.1409879476 0.5579861999 4289959185
-0.2795753479 -0.1401785016 0.5572329760 4289959185
-0.2796346545 -0.1395889819 0.5573512316 4289959185
-0.2792560458 -0.1387815624 0.5565965772 4290024978
-0.2793148160 -0.1381922215 0.5567137003 4290090771
-0.2789354622 -0.1373868287 0.5559576154 4290024978
-0.2785557210 -0.1365829259 0.5552006960 4290024980
-0.2786136270 -0.1359943151 0.5553161502 4290024980
-0.2786712945 -0.1354053468 0.5554310679 4290221589
-0.2782905102 -0.1346040368 0.5546721220 4290287382
-0.2783476412 -0.1340152770 0.5547859669 4290418968
-0.2779661119 -0.1332160234 0.5540255904 4290484761
-0.2775841951 -0.1324182600 0.5532643199 4290484761
-0.2776404619 -0.1318302751 0.5533764958 4290550554
-0.2776965201 -0.1312419176 0.5534881949 4290353943
-0.2777523398 -0.1306532174 0.5535994768 4290288150
-0.2782468200 -0.1302696168 0.5545850396 4290288150
-0.2778632939 -0.1294747293 0.5538206100 4290353943
-0.2779184282 -0.1288849711 0.5539305210 4290485529
-0.2779733241 -0.1282948554 0.5540399551 4290485529
-0.2780280113 -0.1277043819 0.5541489124 4290682136
-0.2776431441 -0.1269127578 0.5533818007 4290813722
-0.2776972651 -0.1263225377 0.5534896851 4290813722
-0.2777511477 -0.1257319599 0.5535970926 4290879515
-0.2778048217 -0.1251410544 0.5537040830 4290945308
-0.2778582573 -0.1245497987 0.5538105369 4290945308
-0.2774717212 -0.1237620637 0.5530401468 4291076894
-0.2775245905 -0.1231710687 0.5531455278 4291142687
-0.2775772512 -0.1225797310 0.5532504916 4291142687
-0.2780696452 -0.1221813858 0.5542318821 4291208480
-0.2781218886 -0.1215884462 0.5543360710 4291405863
-0.2781739235 -0.1209951639 0.5544397235 4291340070
-0.2782257199 -0.1204015538 0.5545429587 4291537449
-0.2782772779 -0.1198076159 0.5546457171 4291537449
-0.2783285975 -0.1192133501 0.5547479987 4291471656
-0.2783796787 -0.1186187491 0.5548498631 4291669035
-0.2784305215 -0.1180238277 0.5549511909 4291603242
-0.2784811258 -0.1174285784 0.5550520420 4291537449
-0.2789722085 -0.1170178652 0.5560308695 4291669035
-0.2790224254 -0.1164210215 0.5561309457 4291800621
-0.2790724039 -0.1158238649 0.5562305450 4291866160
-0.2791221440 -0.1152263805 0.5563296676 4291931953
-0.2796126604 -0.1148096696 0.5573073626 4292063539
-0.2796619833 -0.1142106131 0.5574057102 4291997746
-0.2797110975 -0.1136112362 0.5575035214 4291866160
-0.2797599435 -0.1130115390 0.5576009154 4291931953
-0.2798085511 -0.1124115363 0.5576977730 4291932207
-0.2798569202 -0.1118112132 0.5577942133 4291932207
-0.2803465426 -0.1113860011 0.5587700605 4291998000
-0.2803944945 -0.1107841134 0.5588656664 4292063793
-0.2813254893 -0.1105289459 0.5607212782 4291931953
-0.2818148136 -0.1100971177 0.5616965890 4291866160
-0.2823040485 -0.1096630767 0.5626716614 4291931953
-0.2823513448 -0.1090561748 0.5627658963 4291931953
-0.2828403115 -0.1086186767 0.5637404919 4291866160
-0.2828871608 -0.1080102101 0.5638338923 4291734574
-0.2833758593 -0.1075692549 0.5648078918 4291537965
-0.2834222913 -0.1069592386 0.5649004579 4291472172
-0.2839106917 -0.1065148339 0.5658739209 4291472172
-0.2843990028 -0.1060682237 0.5668472052 4291472172
-0.2844448090 -0.1054553986 0.5669385195 4291668781
-0.2849328518 -0.1050053388 0.5679112077 4291800367
-0.2849782407 -0.1043909788 0.5680016875 4291866414
-0.2850233614 -0.1037763208 0.5680916905 4291734828
-0.2850682735 -0.1031613797 0.5681811571 4291801139
-0.2851129174 -0.1025461406 0.5682700872 4292130104
-0.2851572931 -0.1019306183 0.5683586001 4292261950
-0.2852014303 -0.1013148129 0.5684465170 4292393536
-0.2848023772 -0.1005423516 0.5676511526 4292458551
-0.2852889001 -0.1000823379 0.5686209202 4291932207
-0.2853322923 -0.0994656757 0.5687073469 4291737224
-0.2849322557 -0.0986952409 0.5679100752 4293776807
-0.3096556365 -0.1769102365 0.6185564995 4291017361
-0.3079941869 -0.1752774566 0.6152376533 4290688396
-0.3054638803 -0.1731595248 0.6101832390 4290686812
-0.3024981320 -0.1708069295 0.6042589545 4290226261
-0.2969260812 -0.1670016497 0.5931284428 4290686026
-0.2930879593 -0.1641924679 0.5854616165 4290422854
-0.2909850180 -0.1623685509 0.5812608600 4290422592
-0.2888808548 -0.1605532765 0.5770576000 4290488385
-0.2872099578 -0.1589871943 0.5737199187 4290618165
-0.2859726548 -0.1576675624 0.5712482929 4290157614
-0.2851692140 -0.1565916836 0.5696433783 4290484009
-0.2843651474 -0.1555190384 0.5680372119 4290615595
-0.2839953899 -0.1546865106 0.5672985911 4290287900
-0.2836252153 -0.1538553834 0.5665591359 4290287900
-0.2828195095 -0.1527906209 0.5649496913 4290156312
-0.2825121582 -0.1513705552 0.5643357635 4289958933
-0.2821403146 -0.1505451202 0.5635929704 4289958933
-0.2817680538 -0.1497211158 0.5628493428 4289893140
-0.2813953459 -0.1488985419 0.5621048808 4289893140
-0.2810222507 -0.1480774134 0.5613595843 4289892370
-0.2806487381 -0.1472577155 0.5606134534 4289892370
-0.2807106972 -0.1466672122 0.5607371926 4289826831
-0.2807724476 -0.1460763067 0.5608605146 4289892624
-0.2803978622 -0.1452591121 0.5601123571 4289958417
-0.2804590762 -0.1446683556 0.5602345467 4289958417
-0.2800837755 -0.1438531429 0.5594848990 4289958417
-0.2801444232 -0.1432625353 0.5596060753 4290155796
-0.2797684073 -0.1424493045 0.5588549376 4289959187
-0.2793919742 -0.1416375488 0.5581029654 4289893394
-0.2794517577 -0.1410476416 0.5582224131 4289959187
-0.2790746093 -0.1402378827 0.5574690104 4289959187
-0.2791338563 -0.1396481395 0.5575873852 4290024980
-0.2791928947 -0.1390580237 0.5577052832 4290024980
-0.2788146734 -0.1382508278 0.5569497943 4290024980
-0.2784360647 -0.1374451220 0.5561934710 4290024980
-0.2780570388 -0.1366408914 0.5554363728 4289959187
-0.2781148851 -0.1360520720 0.5555519462 4290090773
-0.2781725228 -0.1354628652 0.5556670427 4290090771
-0.2782299221 -0.1348733157 0.5557817221 4290156564
-0.2778495252 -0.1340722442 0.5550218821 4290288152
-0.2774687409 -0.1332726777 0.5542612076 4290353945
-0.2779630125 -0.1328931749 0.5552485585 4290353945
-0.2775816023 -0.1320947409 0.5544866323 4290485531
-0.2776376903 -0.1315052211 0.5545986891 4290550552
-0.2776935399 -0.1309153587 0.5547102690 4290550552
-0.2777491808 -0.1303251386 0.5548213720 4290418966
-0.2773663998 -0.1295299381 0.5540567636 4290418966
-0.2774214745 -0.1289399415 0.5541667938 4290484759
-0.2774763107 -0.1283496022 0.5542763472 4290550552
-0.2775309384 -0.1277589053 0.5543854833 4290682138
-0.2775853276 -0.1271678507 0.5544940829 4290813724
-0.2772008777 -0.1263764948 0.5537261367 4290747929
-0.2772547305 -0.1257856935 0.5538337231 4290747929
-0.2773083448 -0.1251945496 0.5539407730 4290879515
-0.2773617208 -0.1246030703 0.5540474057 4290945308
-0.2774148583 -0.1240112409 0.5541535616 4291011101
-0.2774677873 -0.1234190688 0.5542593002 4291076894
-0.2775204778 -0.1228265688 0.5543645024 4291142687
-0.2775729001 -0.1222337261 0.5544692874 4291142687
-0.2776251137 -0.1216405481 0.5545735955 4291340070
-0.2776771188 -0.1210470349 0.5546774268 4291471656
-0.2777288556 -0.1204531863 0.5547807813 4291537449
-0.2782198787 -0.1200486645 0.5557616353 4291471656
-0.2782712281 -0.1194532141 0.5558642149 4291537449
-0.2783223391 -0.1188574433 0.5559663177 4291603242
-0.2783732414 -0.1182613373 0.5560680032 4291603242
-0.2784238756 -0.1176649109 0.5561691523 4291603242
-0.2784742713 -0.1170681566 0.5562698245 4291537195
-0.2785244584 -0.1164710745 0.5563700199 4291734574
-0.2785743773 -0.1158736795 0.5564697981 4291800367
-0.2786240578 -0.1152759567 0.5565690398 4291866160
-0.2786734998 -0.1146779209 0.5566678047 4291931953
-0.2787227333 -0.1140795648 0.5567660928 4291931953
-0.2792120874 -0.1136601642 0.5577436686 4291931953
-0.2792609036 -0.1130602285 0.5578411222 4291866160
-0.2793094516 -0.1124599800 0.5579381585 4291932207
-0.2797984183 -0.1120358557 0.5589148402 4291932207
-0.2798465788 -0.1114340350 0.5590110421 4291998000
-0.2803352475 -0.1110064462 0.5599872470 4291998000
-0.2812647223 -0.1107502431 0.5618438721 4291932207
-0.2817532718 -0.1103172898 0.5628198385 4291866414
-0.2818007767 -0.1097104400 0.5629146695 4291932207
-0.2822890878 -0.1092740297 0.5638900995 4291800621
-0.2823361456 -0.1086656153 0.5639840961 4291866414
-0.2828241587 -0.1082257405 0.5649589896 4291669035
-0.2828707993 -0.1076157764 0.5650521517 4291472426
-0.2833585739 -0.1071724445 0.5660265088 4291472426
-0.2834047675 -0.1065609232 0.5661187768 4291472172
-0.2838922441 -0.1061141342 0.5670925379 4291472172
-0.2843796313 -0.1056651399 0.5680661201 4291602988
-0.2844252288 -0.1050508246 0.5681571960 4291668781
-0.2844705880 -0.1044362113 0.5682477951 4291538476
-0.2845156789 -0.1038213000 0.5683379173 4291341097
-0.2845605314 -0.1032061055 0.5684275031 4291603758
-0.2846051157 -0.1025906205 0.5685165524 4291735344
-0.2846494615 -0.1019748375 0.5686051250 4291801652
-0.2846935689 -0.1013587788 0.5686932206 4291867445
-0.2842952609 -0.1005859971 0.5678975582 4291865901
-0.2847809792 -0.1001257971 0.5688678622 4291273764
-0.2848243117 -0.0995088816 0.5689544082 4290815855
-0.2848673761 -0.0988916829 0.5690404177 4292987024
-0.3086645603 -0.1767361462 0.6179478168 4290885524
-0.3074390888 -0.1753506064 0.6154944301 4290819731
-0.3053465188 -0.1734778881 0.6113051176 4290686560
-0.3023862839 -0.1711234450 0.6053786278 4290423388
-0.2976910770 -0.1678042114 0.5959788561 4290489163
-0.2934268117 -0.1647478193 0.5874418020 4290291784
-0.2913279235 -0.1629213542 0.5832397938 4290422850
-0.2892278135 -0.1611035317 0.5790353417 4290554436
-0.2875601649 -0.1595350057 0.5756967068 4290750269
-0.2867591679 -0.1584527493 0.5740931034 4290158132
-0.2859575450 -0.1573737264 0.5724882483 4290352940
-0.2851552963 -0.1562979221 0.5708821416 4290550319
-0.2847865522 -0.1554623395 0.5701439381 4290485279
-0.2839831710 -0.1543920934 0.5685355067 4290616865
-0.2836134732 -0.1535602510 0.5677953959 4290419484
-0.2832433879 -0.1527298242 0.5670545101 4290090519
-0.2824383378 -0.1516674906 0.5654428005 4290024726
-0.2829365432 -0.1513056606 0.5664402246 4289893140
-0.2821305692 -0.1502470970 0.5648266673 4289827347
-0.2817588151 -0.1494223773 0.5640823841 4289827347
-0.2813866436 -0.1485991031 0.5633372664 4290089749
-0.2810140252 -0.1477772444 0.5625913143 4289958163
-0.2810761333 -0.1471846849 0.5627156496 4289826831
-0.2807027996 -0.1463648081 0.5619682074 4289892624
-0.2798937559 -0.1453203708 0.5603485107 4290024208
-0.2799549103 -0.1447293907 0.5604709387 4290024208
-0.2800157964 -0.1441380233 0.5605928898 4290090003
-0.2796409130 -0.1433230191 0.5598423481 4290221589
-0.2792656124 -0.1425094754 0.5590910316 4290024980
-0.2793256938 -0.1419188082 0.5592112541 4290024980
-0.2789496481 -0.1411072761 0.5584584475 4289959187
-0.2785732150 -0.1402972043 0.5577048063 4289959187
-0.2786324322 -0.1397072375 0.5578233004 4289958933
-0.2786913812 -0.1391168833 0.5579413772 4289893140
-0.2783139050 -0.1383093894 0.5571856499 4289893394
-0.2779360414 -0.1375033557 0.5564291477 4289959187
-0.2779941559 -0.1369137466 0.5565454960 4290024978
-0.2780520320 -0.1363237649 0.5566613674 4290090771
-0.2781096995 -0.1357334256 0.5567768216 4290156564
-0.2781671286 -0.1351427138 0.5568917990 4290156564
-0.2777875662 -0.1343404055 0.5561319590 4290222357
-0.2774075866 -0.1335395873 0.5553712249 4290288150
-0.2774641812 -0.1329496354 0.5554844737 4290288152
-0.2775205374 -0.1323593259 0.5555973053 4290353945
-0.2771395147 -0.1315611601 0.5548345447 4290550554
-0.2771953344 -0.1309710592 0.5549462438 4290550554
-0.2772508860 -0.1303806156 0.5550575256 4290484761
-0.2773062289 -0.1297897995 0.5551683307 4290418968
-0.2769238949 -0.1289948672 0.5544028282 4290484761
-0.2769786716 -0.1284042895 0.5545125604 4290550554
-0.2770332396 -0.1278133541 0.5546217561 4290616347
-0.2770875990 -0.1272220910 0.5547305942 4290682140
-0.2771416903 -0.1266304702 0.5548388958 4290747931
-0.2771955729 -0.1260384917 0.5549467802 4290682138
-0.2772492170 -0.1254461855 0.5550541878 4290813724
-0.2773026526 -0.1248535290 0.5551611185 4290945310
-0.2773558199 -0.1242605299 0.5552675724 4291011103
-0.2769705355 -0.1234718263 0.5544962287 4291076896
-0.2770231664 -0.1228790879 0.5546015501 4291142689
-0.2770755589 -0.1222860068 0.5547064543 4291142689
-0.2771277130 -0.1216925979 0.5548108816 4291142691
-0.2771796584 -0.1210988536 0.5549148917 4291471656
-0.2772313356 -0.1205047742 0.5550183654 4291340070
-0.2777215540 -0.1201000884 0.5559997559 4291340070
-0.2777728438 -0.1195044070 0.5561024547 4291537449
-0.2778239250 -0.1189083979 0.5562046766 4291537449
-0.2778747380 -0.1183120534 0.5563064814 4291471656
-0.2779253423 -0.1177153885 0.5564077497 4291537449
-0.2779757082 -0.1171183959 0.5565086007 4291602988
-0.2780258060 -0.1165210828 0.5566089153 4291668781
-0.2780756950 -0.1159234419 0.5567087531 4291734574
-0.2781253457 -0.1153254882 0.5568081737 4291734574
-0.2781747580 -0.1147272065 0.5569070578 4291800367
-0.2782239020 -0.1141286120 0.5570054650 4291866160
-0.2787124515 -0.1137090474 0.5579835176 4291866160
-0.2787612081 -0.1131088734 0.5580811501 4291866160
-0.2792494893 -0.1126858443 0.5590586662 4291997485
-0.2792978287 -0.1120840907 0.5591555238 4291997485
-0.2797858715 -0.1116575971 0.5601325035 4291932205
-0.2802737951 -0.1112288907 0.5611093640 4291932205
-0.2807616293 -0.1107979715 0.5620860457 4291932207
-0.2812493742 -0.1103648543 0.5630624890 4291932207
-0.2817370296 -0.1099295244 0.5640387535 4291932207
-0.2817842960 -0.1093211696 0.5641334057 4291734828
-0.2822716832 -0.1088823751 0.5651091337 4291603242
-0.2823185027 -0.1082724631 0.5652028918 4291537449
-0.2828056216 -0.1078302115 0.5661780834 4291406633
-0.2828520238 -0.1072187424 0.5662710071 4291472426
-0.2833388448 -0.1067730263 0.5672456622 4291472426
-0.2833848596 -0.1061600074 0.5673376918 4291340840
-0.2838713825 -0.1057108343 0.5683117509 4291405863
-0.2839169502 -0.1050962657 0.5684029460 4291405863
-0.2839622498 -0.1044813991 0.5684936643 4291144747
-0.2840073109 -0.1038662419 0.5685839057 4290881575
-0.2840521336 -0.1032507941 0.5686736107 4291143207
-0.2840966880 -0.1026350483 0.5687627792 4291340586
-0.2841409743 -0.1020190194 0.5688514709 4291406894
-0.2841850221 -0.1014026999 0.5689396858 4291538480
-0.2842288315 -0.1007860973 0.5690273643 4291405099
-0.2842723727 -0.1001692116 0.5691145062 4290812962
-0.2843156457 -0.0995520428 0.5692011714 4290091872
-0.2843586802 -0.0989345908 0.5692873597 4292328834
-0.3072422743 -0.1763138026 0.6164711118 4290426792
-0.3064510822 -0.1751765907 0.6148836613 4290360999
-0.3043622673 -0.1733040363 0.6106925011 4290818663
-0.3044343591 -0.1726664156 0.6108371615 4290292319
-0.2980181575 -0.1683629453 0.5979632735 4291013200
-0.2937618792 -0.1653034985 0.5894231796 4290947407
-0.2912343144 -0.1632319540 0.5843517184 4290684997
-0.2895709872 -0.1616541296 0.5810142756 4290619204
-0.2879066169 -0.1600831598 0.5776748061 4290553662
-0.2866742611 -0.1587588489 0.5752021074 4290158904
-0.2858742476 -0.1576784998 0.5735968947 4290223658
-0.2855068445 -0.1568393558 0.5728597045 4290421037
-0.2838389874 -0.1552903801 0.5695132613 4290419744
-0.2847707570 -0.1551653147 0.5713828206 4290551330
-0.2835350335 -0.1538598984 0.5689033270 4290485279
-0.2831657529 -0.1530282348 0.5681623816 4290156314
-0.2819285691 -0.1517311335 0.5656800866 4290024728
-0.2828597724 -0.1516017020 0.5675484538 4290090521
-0.2816214859 -0.1503102034 0.5650638938 4290156314
-0.2812504172 -0.1494851708 0.5643193722 4290024728
-0.2813130915 -0.1488913298 0.5644451380 4289958933
-0.2809413373 -0.1480682492 0.5636991858 4289958933
-0.2805691361 -0.1472466141 0.5629523993 4290155796
