VERSION 0.7
FIELDS x y z rgba
SIZE 4 4 4 4
TYPE F F F U
COUNT 1 1 1 1
WIDTH 920
HEIGHT 1
VIEWPOINT 0.0 0.0 0.0 1.0 0.0 0.0 0.0
POINTS 920
DATA ascii
-0.2812277973 -0.1246655807 0.5771355629 4291474493
-0.2812802196 -0.1240474656 0.5772431493 4291540543
-0.2817625999 -0.1236177385 0.5782330632 4291869508
-0.2818146348 -0.1229979917 0.5783398747 4291935301
-0.2818664312 -0.1223779023 0.5784461498 4291935301
-0.2823483944 -0.1219433621 0.5794352293 4291869512
-0.2823997736 -0.1213216484 0.5795406699 4291869512
-0.2828814983 -0.1208835840 0.5805292726 4291935052
-0.2829324603 -0.1202602386 0.5806338787 4292066638
-0.2834139168 -0.1198186576 0.5816218853 4292197974
-0.2838952839 -0.1193748415 0.5826097727 4292329560
-0.2843765318 -0.1189287901 0.5835974216 4292461148
-0.2844267488 -0.1183012575 0.5837004781 4292658527
-0.2853387892 -0.1180299819 0.5855721235 4292330348
-0.2858197689 -0.1175772250 0.5865591764 4292330348
-0.2863006294 -0.1171222404 0.5875460505 4292462451
-0.2867814004 -0.1166650131 0.5885326862 4292857209
-0.2872620821 -0.1162055582 0.5895190835 4292595603
-0.2881740332 -0.1159173995 0.5913906097 4292661396
-0.2930293977 -0.1723833680 0.6027286053 4290754718
-0.2922528088 -0.1712586284 0.6011312604 4288978307
-0.2914755940 -0.1701370627 0.5995326042 4288448324
-0.2906977534 -0.1690186858 0.5979326963 4288316738
-0.2899192870 -0.1679034978 0.5963314772 4289367594
-0.2891401947 -0.1667914987 0.5947289467 4289499180
-0.2879364192 -0.1654390693 0.5922529101 4289499171
-0.2871559858 -0.1643344015 0.5906476378 4289630757
-0.2863749266 -0.1632329375 0.5890411139 4289697063
-0.2855932415 -0.1621347070 0.5874332786 4289697063
-0.2852354050 -0.1612796932 0.5866972208 4290025000
-0.2848771513 -0.1604260802 0.5859603286 4290025000
-0.2845184505 -0.1595738679 0.5852225423 4290157352
-0.2841593623 -0.1587230563 0.5844839215 4290223145
-0.2837998271 -0.1578736603 0.5837444067 4290354731
-0.2834399045 -0.1570256799 0.5830040574 4290354731
-0.2830795348 -0.1561791003 0.5822628736 4290354731
-0.2827187777 -0.1553339511 0.5815207958 4290486317
-0.2827828228 -0.1547228843 0.5816525817 4290552108
-0.2828466594 -0.1541114002 0.5817838311 4290552108
-0.2824848294 -0.1532686800 0.5810396075 4290486315
-0.2821225822 -0.1524273902 0.5802945495 4290552108
-0.2821855545 -0.1518165171 0.5804240108 4290552621
-0.2818225920 -0.1509771794 0.5796774030 4290552621
-0.2818849981 -0.1503664106 0.5798058510 4290618413
-0.2815212905 -0.1495290250 0.5790576935 4290684206
-0.2811571658 -0.1486930698 0.5783087611 4290815792
-0.2812187374 -0.1480829418 0.5784353614 4290815792
-0.2808538675 -0.1472489685 0.5776848793 4290815282
-0.2804886103 -0.1464164555 0.5769335628 4290749489
-0.2801229358 -0.1455853879 0.5761814117 4290749489
-0.2797568440 -0.1447557807 0.5754284263 4290815282
-0.2798168957 -0.1441473812 0.5755519271 4290815282
-0.2794500589 -0.1433197707 0.5747974515 4290815282
-0.2795095742 -0.1427115053 0.5749198198 4290815795
-0.2791420221 -0.1418859065 0.5741638541 4290947381
-0.2792010009 -0.1412778050 0.5742850900 4290815793
-0.2792597115 -0.1406693161 0.5744059086 4290815793
-0.2793182135 -0.1400604546 0.5745262504 4290881586
-0.2793764770 -0.1394511908 0.5746461153 4290881586
-0.2794345319 -0.1388415545 0.5747655034 4290947379
-0.2794923484 -0.1382315457 0.5748844147 4290947379
-0.2791224718 -0.1374107301 0.5741236210 4290816563
-0.2791797519 -0.1368008852 0.5742413998 4290882356
-0.2792367637 -0.1361906826 0.5743587017 4291012659
-0.2792935669 -0.1355801076 0.5744755268 4290881073
-0.2793501318 -0.1349691451 0.5745918751 4291144245
-0.2789785862 -0.1341520697 0.5738276243 4291144245
-0.2790345848 -0.1335413158 0.5739428401 4291078965
-0.2790903747 -0.1329301894 0.5740575790 4291210551
-0.2791459262 -0.1323187053 0.5741718411 4291078964
-0.2792012393 -0.1317068487 0.5742856264 4291210550
-0.2792563140 -0.1310946345 0.5743989348 4291342136
-0.2793111503 -0.1304820478 0.5745117068 4291276343
-0.2793657780 -0.1298691183 0.5746240616 4291473722
-0.2794201374 -0.1292558163 0.5747358799 4291407929
-0.2794742584 -0.1286421567 0.5748472214 4291342906
-0.2795281708 -0.1280281544 0.5749580860 4291474492
-0.2800106406 -0.1276092082 0.5759504437 4291474490
-0.2800641358 -0.1269935519 0.5760605335 4291474490
-0.2805463672 -0.1265710741 0.5770524144 4291342906
-0.2810285389 -0.1261463463 0.5780441761 4291540285
-0.2810814977 -0.1255277544 0.5781530738 4291540798
-0.2811341882 -0.1249087974 0.5782614946 4291409212
-0.2811866701 -0.1242894977 0.5783694386 4291475005
-0.2812388837 -0.1236698553 0.5784768462 4291803970
-0.2817203104 -0.1232377291 0.5794671178 4291804228
-0.2817721367 -0.1226164475 0.5795736909 4291870021
-0.2818237245 -0.1219948307 0.5796797872 4291935562
-0.2823047340 -0.1215578839 0.5806691647 4291935562
-0.2823559046 -0.1209346354 0.5807744265 4291804495
-0.2828366756 -0.1204941720 0.5817633271 4291936081
-0.2833173573 -0.1200514734 0.5827520490 4292133211
-0.2837979496 -0.1196065322 0.5837405324 4292264797
-0.2842784226 -0.1191593632 0.5847288370 4292396644
-0.2843286693 -0.1185306311 0.5848321915 4292594023
-0.2848089039 -0.1180799380 0.5858199596 4292331637
-0.2857193351 -0.1178044230 0.5876926184 4292463223
-0.2866297960 -0.1175247729 0.5895653367 4292463742
-0.2871098816 -0.1170654669 0.5905528069 4292595328
-0.2875898480 -0.1166039258 0.5915400386 4292596644
-0.2880696952 -0.1161401421 0.5925270319 4293386160
-0.2917045951 -0.1713287681 0.6013774872 4290689697
-0.2913517654 -0.1704541743 0.6006500721 4289041251
-0.2905755341 -0.1693344712 0.5990498066 4287725391
-0.2897986770 -0.1682179421 0.5974482894 4288775733
-0.2894443870 -0.1673492789 0.5967178345 4288841526
-0.2886663675 -0.1662382483 0.5951139331 4289235747
-0.2878877521 -0.1651304215 0.5935087204 4289564712
-0.2871085107 -0.1640258133 0.5919021964 4289631010
-0.2863286436 -0.1629244089 0.5902944803 4289631010
-0.2855481803 -0.1618262380 0.5886853933 4289959205
-0.2851908207 -0.1609704643 0.5879487395 4289893412
-0.2848330736 -0.1601161063 0.5872111917 4289828389
-0.2844748795 -0.1592631489 0.5864727497 4289959975
-0.2841162980 -0.1584115922 0.5857334733 4290091561
-0.2837572694 -0.1575614512 0.5849933028 4290091561
-0.2833978534 -0.1567127258 0.5842522979 4290157352
-0.2830379903 -0.1558654159 0.5835104585 4290288938
-0.2826777399 -0.1550195366 0.5827677250 4290355244
-0.2827416062 -0.1544069052 0.5828993917 4290421037
-0.2828052342 -0.1537938714 0.5830305815 4290486830
-0.2820191681 -0.1527204067 0.5814100504 4290552623
-0.2820821702 -0.1521083862 0.5815399289 4290618414
-0.2821449339 -0.1514959633 0.5816693306 4290618414
-0.2817824781 -0.1506558955 0.5809220672 4290684207
-0.2814195752 -0.1498172581 0.5801739693 4290815793
-0.2810562849 -0.1489800662 0.5794249773 4290815793
-0.2811178863 -0.1483687907 0.5795519352 4290750000
-0.2807538509 -0.1475335807 0.5788014531 4290815793
-0.2803893983 -0.1466998160 0.5780501366 4290750000
-0.2800245583 -0.1458674967 0.5772979259 4290750000
-0.2800849676 -0.1452573985 0.5774224401 4290750000
-0.2797193825 -0.1444270909 0.5766687989 4290815793
-0.2793533802 -0.1435982287 0.5759142637 4290815793
-0.2794129252 -0.1429888159 0.5760369897 4290684977
-0.2790462077 -0.1421619803 0.5752809644 4290750770
-0.2791051865 -0.1415527165 0.5754025578 4290750770
-0.2791639566 -0.1409430653 0.5755237341 4290750770
-0.2792224884 -0.1403330266 0.5756443739 4290816562
-0.2792807817 -0.1397226155 0.5757645965 4290816562
-0.2793388367 -0.1391118169 0.5758842826 4290816562
-0.2793966830 -0.1385006458 0.5760035515 4290816562
-0.2790276408 -0.1376785636 0.5752426982 4290882355
-0.2790849209 -0.1370675713 0.5753608346 4290882355
-0.2791419923 -0.1364561915 0.5754784346 4290947379
-0.2791988254 -0.1358444542 0.5755956173 4290947379
-0.2788284123 -0.1350255460 0.5748319626 4291210551
-0.2788846791 -0.1344139874 0.5749480128 4291144758
-0.2789407372 -0.1338020712 0.5750635266 4291078964
-0.2789965272 -0.1331897676 0.5751786232 4291144757
-0.2790521085 -0.1325771064 0.5752931833 4291013171
-0.2791074514 -0.1319640875 0.5754072666 4291276343
-0.2791625559 -0.1313506961 0.5755208731 4291277113
-0.2792174220 -0.1307369322 0.5756340027 4291277113
-0.2792720795 -0.1301228255 0.5757465959 4291408699
-0.2793264687 -0.1295083463 0.5758587718 4291277113
-0.2793806195 -0.1288935244 0.5759704113 4291342904
-0.2794345617 -0.1282783300 0.5760815740 4291474490
-0.2799162567 -0.1278582811 0.5770746469 4291408697
-0.2799697816 -0.1272414476 0.5771850348 4291474490
-0.2800230682 -0.1266242415 0.5772948861 4291605560
-0.2805043757 -0.1261993796 0.5782871246 4291737146
-0.2805572748 -0.1255805343 0.5783962011 4291737916
-0.2810383439 -0.1251521260 0.5793879628 4291606330
-0.2810908258 -0.1245316342 0.5794961452 4291540798
-0.2811430693 -0.1239107996 0.5796039104 4291869763
-0.2811951041 -0.1232896224 0.5797111392 4291935816
-0.2816756070 -0.1228550971 0.5807017088 4292001609
-0.2817271948 -0.1222322881 0.5808081031 4292001872
-0.2817785442 -0.1216091365 0.5809139609 4291936079
-0.2822586298 -0.1211697906 0.5819036961 4291870551
-0.2823095918 -0.1205450073 0.5820087790 4291936344
-0.2827894092 -0.1201021373 0.5829979777 4292133472
-0.2836983502 -0.1198383272 0.5848718286 4292396644
-0.2841780484 -0.1193900332 0.5858607888 4292528747
-0.2846576571 -0.1189395040 0.5868495703 4292660333
-0.2851371765 -0.1184867322 0.5878381133 4292529535
-0.2856166065 -0.1180317253 0.5888265371 4292529535
-0.2865255177 -0.1177510172 0.5907002687 4292398729
-0.2874344587 -0.1174661592 0.5925741792 4292793487
-0.2912256718 -0.1707714200 0.6017680168 4290884494
-0.2904510498 -0.1696503758 0.6001673937 4288844911
-0.2896758318 -0.1685325205 0.5985655189 4288447558
-0.2893223464 -0.1676626205 0.5978351235 4288250179
-0.2889684141 -0.1667941064 0.5971038342 4288775976
-0.2881915271 -0.1656840295 0.5954985023 4289170734
-0.2874139845 -0.1645771712 0.5938918591 4289433377
-0.2866358459 -0.1634735316 0.5922839642 4289499170
-0.2858570814 -0.1623730958 0.5906747580 4289630756
-0.2850777209 -0.1612759084 0.5890643001 4289630756
-0.2855668962 -0.1608970314 0.5900751352 4289631010
-0.2847865820 -0.1598035544 0.5884627700 4289828389
-0.2840056419 -0.1587133259 0.5868490934 4289894182
-0.2836474776 -0.1578619480 0.5861089826 4289894182
-0.2837122977 -0.1572466791 0.5862429738 4290091561
-0.2833533883 -0.1563972086 0.5855013132 4290157354
-0.2829940319 -0.1555491537 0.5847587585 4290223658
-0.2826342881 -0.1547025293 0.5840154290 4290421037
-0.2826979458 -0.1540883482 0.5841469169 4290486830
-0.2823374569 -0.1532436460 0.5834020376 4290552623
-0.2819765508 -0.1524003893 0.5826562643 4290618414
-0.2820393443 -0.1517868191 0.5827860236 4290684207
-0.2821018994 -0.1511728317 0.5829153657 4290815793
-0.2817399502 -0.1503320336 0.5821673870 4290881586
-0.2813775539 -0.1494926661 0.5814186335 4290815793
-0.2810147703 -0.1486547589 0.5806689858 4290750000
-0.2806515694 -0.1478182971 0.5799185038 4290684977
-0.2802879512 -0.1469832957 0.5791671276 4290684977
-0.2803487182 -0.1463715136 0.5792926550 4290684977
-0.2799843550 -0.1455384791 0.5785397887 4290684977
-0.2796196043 -0.1447069198 0.5777860880 4290750770
-0.2796795070 -0.1440958083 0.5779098272 4290750770
-0.2793140113 -0.1432662457 0.5771546364 4290750769
-0.2793733478 -0.1426552832 0.5772772431 4290750769
-0.2790071368 -0.1418277323 0.5765205026 4290882355
-0.2790659368 -0.1412169188 0.5766419768 4290882355
-0.2791244686 -0.1406057328 0.5767629743 4290817075
-0.2791828215 -0.1399941593 0.5768834949 4290817075
-0.2792409062 -0.1393821985 0.5770035982 4290817075
-0.2792987823 -0.1387698501 0.5771231651 4290817075
-0.2789305747 -0.1379465312 0.5763623118 4290817075
-0.2789878845 -0.1373343617 0.5764807463 4290817075
-0.2790449560 -0.1367218196 0.5765987039 4291013172
-0.2791018188 -0.1361089051 0.5767161846 4291078965
-0.2787322402 -0.1352887601 0.5759525299 4291276344
-0.2787885368 -0.1346760243 0.5760688186 4291210551
-0.2788446248 -0.1340629309 0.5761846900 4291144758
-0.2789004445 -0.1334494650 0.5763000846 4291078965
-0.2789560556 -0.1328356266 0.5764149427 4290882356
-0.2790114284 -0.1322214305 0.5765293837 4291145528
-0.2790665627 -0.1316068619 0.5766432881 4291342907
-0.2791214585 -0.1309919357 0.5767567158 4291408700
-0.2791761160 -0.1303766519 0.5768696666 4291408699
-0.2792305350 -0.1297609955 0.5769821405 4291342906
-0.2792847157 -0.1291449815 0.5770941377 4291408699
-0.2793386877 -0.1285286099 0.5772055984 4291474492
-0.2798196077 -0.1281074733 0.5781993270 4291342906
-0.2803004384 -0.1276840866 0.5791929364 4291474492
-0.2803538442 -0.1270647645 0.5793032646 4291605560
-0.2808344662 -0.1266378462 0.5802963376 4291737146
-0.2808874547 -0.1260168701 0.5804058909 4291934527
-0.2809402049 -0.1253955513 0.5805149078 4291802941
-0.2809927464 -0.1247738749 0.5806234479 4291671871
-0.2814727724 -0.1243408248 0.5816153884 4291869250
-0.2815248966 -0.1237175092 0.5817230344 4291935816
-0.2815767825 -0.1230938509 0.5818302631 4292001609
-0.2816284001 -0.1224698499 0.5819368958 4292001874
-0.2821078598 -0.1220306754 0.5829276443 4292001874
-0.2821590900 -0.1214050427 0.5830335021 4292001884
-0.2822100520 -0.1207790673 0.5831388235 4292133470
-0.2826891243 -0.1203350797 0.5841286778 4292199528
-0.2835964561 -0.1200702265 0.5860036016 4292462700
-0.2840754092 -0.1196208075 0.5869932175 4292660083
-0.2845542431 -0.1191691533 0.5879826546 4292791669
-0.2850329876 -0.1187152565 0.5889719129 4292595084
-0.2859403193 -0.1184366867 0.5908467770 4292463498
-0.2864189446 -0.1179773584 0.5918357372 4292530849
-0.2873263061 -0.1176914498 0.5937106609 4293583537
-0.2899029255 -0.1697197258 0.6004127860 4290359180
-0.2895506918 -0.1688472331 0.5996832848 4289040732
-0.2891980410 -0.1679760963 0.5989528894 4288251216
-0.2888449430 -0.1671063453 0.5982216001 4288447022
-0.2880696654 -0.1659949422 0.5966159105 4288644401
-0.2877156138 -0.1651288569 0.5958827138 4289038370
-0.2869392037 -0.1640229672 0.5942746401 4289169956
-0.2865842283 -0.1631605923 0.5935394764 4289170467
-0.2862288356 -0.1622996032 0.5928034186 4289236260
-0.2854507565 -0.1612015516 0.5911919475 4289564447
-0.2850944102 -0.1603442878 0.5904539824 4289630240
-0.2847376764 -0.1594884247 0.5897151232 4289631010
-0.2839579582 -0.1583982706 0.5881001949 4289762596
-0.2836002707 -0.1575461477 0.5873594284 4289894180
-0.2836649120 -0.1569293141 0.5874933004 4289894180
-0.2833064795 -0.1560790986 0.5867509842 4290025766
-0.2829476595 -0.1552303135 0.5860078335 4290288938
-0.2830114365 -0.1546140611 0.5861399174 4290420524
-0.2826518714 -0.1537672132 0.5853952169 4290420524
-0.2822918892 -0.1529217809 0.5846496820 4290421035
-0.2819314897 -0.1520777792 0.5839032531 4290552621
-0.2819940746 -0.1514626443 0.5840328932 4290750000
-0.2816329300 -0.1506206095 0.5832849145 4290815793
-0.2816949785 -0.1500055790 0.5834134817 4290750000
-0.2813331187 -0.1491654962 0.5826640129 4290684207
-0.2809708416 -0.1483268589 0.5819136500 4290619184
-0.2806081474 -0.1474896818 0.5811625123 4290619184
-0.2802450359 -0.1466539502 0.5804104805 4290684977
-0.2803055942 -0.1460406184 0.5805358887 4290684977
-0.2799417675 -0.1452068835 0.5797823668 4290684976
-0.2800017595 -0.1445936859 0.5799066424 4290816562
-0.2796371877 -0.1437619478 0.5791515708 4290948148
-0.2792722285 -0.1429316700 0.5783956647 4290882355
-0.2793313563 -0.1423191577 0.5785181522 4290882355
-0.2793902457 -0.1417062581 0.5786401629 4290882355
-0.2794489264 -0.1410929710 0.5787616968 4290882355
-0.2790825963 -0.1402658075 0.5780029297 4290948148
-0.2791407108 -0.1396526843 0.5781233311 4290948148
-0.2791986167 -0.1390391886 0.5782432556 4290948148
-0.2792562842 -0.1384253055 0.5783626437 4290948148
-0.2788885832 -0.1376012713 0.5776011348 4290948148
-0.2789456844 -0.1369875669 0.5777193904 4291078965
-0.2790025771 -0.1363734752 0.5778372288 4291210551
-0.2786338031 -0.1355520785 0.5770735145 4291342137
-0.2786901593 -0.1349381804 0.5771901608 4291342137
-0.2787462473 -0.1343239099 0.5773063302 4291276344
-0.2788020968 -0.1337092668 0.5774220228 4291210551
-0.2788577378 -0.1330942661 0.5775372386 4291079735
-0.2789131403 -0.1324788928 0.5776519775 4291145528
-0.2789682746 -0.1318631470 0.5777662396 4291342907
-0.2790232003 -0.1312470436 0.5778799653 4291408700
-0.2790778875 -0.1306305826 0.5779932141 4291342907
-0.2795585096 -0.1302122474 0.5789886117 4291408700
-0.2796128094 -0.1295941025 0.5791010857 4291474492
-0.2796668708 -0.1289756149 0.5792130232 4291408699
-0.2797206938 -0.1283567697 0.5793244839 4291408699
-0.2797742784 -0.1277375668 0.5794354677 4291474492
-0.2802541852 -0.1273117810 0.5804294348 4291539515
-0.2807340026 -0.1268837452 0.5814231634 4291802687
-0.2807870507 -0.1262615919 0.5815330148 4292000066
-0.2808398306 -0.1256390810 0.5816423297 4291868480
-0.2808923721 -0.1250162274 0.5817511678 4291737664
-0.2813716531 -0.1245820597 0.5827437639 4291869250
-0.2814237773 -0.1239575595 0.5828517675 4291870023
-0.2814756930 -0.1233327091 0.5829592347 4292067402
-0.2815273404 -0.1227075160 0.5830662251 4292001874
-0.2820060253 -0.1222672313 0.5840576291 4292133460
-0.2820572853 -0.1216403991 0.5841637850 4292199265
-0.2825357020 -0.1211965829 0.5851546526 4292330851
-0.2830140591 -0.1207505241 0.5861453414 4292462449
-0.2834922969 -0.1203022227 0.5871358514 4292659828
-0.2843981385 -0.1200321764 0.5890118480 4292725884
-0.2848762572 -0.1195784435 0.5900021195 4292725884
-0.2853542864 -0.1191224679 0.5909922123 4292398232
-0.2858322263 -0.1186642498 0.5919820070 4292661404
-0.2899858654 -0.1721661985 0.6019692421 4290754201
-0.2900559008 -0.1715387851 0.6021146178 4290622615
-0.2897052467 -0.1706632078 0.6013866663 4290688655
-0.2897747159 -0.1700357944 0.6015309095 4290359690
-0.2894232869 -0.1691620648 0.6008014083 4289831531
-0.2894922197 -0.1685346514 0.6009445190 4288515671
-0.2882983088 -0.1671746522 0.5984661579 4288314932
-0.2887874842 -0.1667922288 0.5994815826 4288183346
-0.2875923216 -0.1654386520 0.5970005989 4288643107
-0.2872386873 -0.1645727307 0.5962665081 4288840486
-0.2868846357 -0.1637081951 0.5955315232 4288644639
-0.2865301669 -0.1628450602 0.5947957039 4288776225
-0.2861752808 -0.1619833261 0.5940589905 4289235482
-0.2853984237 -0.1608853340 0.5924463272 4289301275
-0.2850425839 -0.1600273252 0.5917077065 4289432859
-0.2846863270 -0.1591707170 0.5909681916 4289630238
-0.2843296826 -0.1583155096 0.5902277827 4289696031
-0.2839725912 -0.1574617326 0.5894865394 4289696031
-0.2836150825 -0.1566093564 0.5887444019 4289696801
-0.2832571864 -0.1557584107 0.5880014300 4289894180
-0.2833210826 -0.1551400870 0.5881341100 4290157350
-0.2829624414 -0.1542910635 0.5873895884 4290223143
-0.2821809351 -0.1532141119 0.5857673287 4290223143
-0.2818213701 -0.1523688734 0.5850208998 4290420522
-0.2823066115 -0.1519801021 0.5860281587 4290618414
-0.2819463909 -0.1511358917 0.5852804184 4290684207
-0.2815857530 -0.1502931267 0.5845317841 4290618414
-0.2816476226 -0.1496765465 0.5846602321 4290618414
-0.2812862396 -0.1488357335 0.5839100480 4290618414
-0.2805013955 -0.1477734894 0.5822808146 4290618414
-0.2805622816 -0.1471584737 0.5824072361 4290750000
-0.2801996768 -0.1463220268 0.5816545486 4290750000
-0.2798366845 -0.1454870403 0.5809009671 4290815793
-0.2798967063 -0.1448726952 0.5810256004 4291078965
-0.2795329690 -0.1440397054 0.5802705288 4291276344
-0.2795924544 -0.1434254944 0.5803939700 4291210551
-0.2792280018 -0.1425945163 0.5796374083 4291013172
-0.2792869210 -0.1419804543 0.5797597766 4291013172
-0.2793456316 -0.1413660049 0.5798816085 4291013172
-0.2794041038 -0.1407511681 0.5800029635 4291078965
-0.2790382504 -0.1399233043 0.5792436004 4291078965
-0.2790961862 -0.1393086314 0.5793638229 4291144758
-0.2791538835 -0.1386935711 0.5794835687 4291144758
-0.2792113423 -0.1380781382 0.5796028376 4291210551
-0.2792685628 -0.1374623328 0.5797216296 4291144757
-0.2789010406 -0.1366381645 0.5789587498 4291210550
-0.2789577246 -0.1360225379 0.5790764093 4291276343
-0.2785894871 -0.1352004409 0.5783119798 4291407929
-0.2786456048 -0.1345849931 0.5784285069 4291342136
-0.2787014842 -0.1339691877 0.5785444975 4291342136
-0.2787571549 -0.1333530098 0.5786600113 4291473722
-0.2792375982 -0.1329388022 0.5796573758 4291407929
-0.2792928517 -0.1323209405 0.5797720551 4291539515
-0.2793478966 -0.1317027211 0.5798863173 4291539515
-0.2794027030 -0.1310841441 0.5800001025 4291473722
-0.2794572413 -0.1304651797 0.5801133513 4291605308
-0.2795115709 -0.1298458725 0.5802261233 4291605308
-0.2795656621 -0.1292262077 0.5803383589 4291473722
-0.2800451219 -0.1288019270 0.5813336372 4291605308
-0.2800987959 -0.1281805933 0.5814450979 4291605308
-0.2801522613 -0.1275589019 0.5815560818 4291670850
-0.2806313038 -0.1271297634 0.5825505257 4291999815
-0.2811102867 -0.1266983896 0.5835447907 4292197448
-0.2811631858 -0.1260737479 0.5836545825 4292065862
-0.2812158167 -0.1254487485 0.5837638974 4291935044
-0.2812682390 -0.1248234063 0.5838726759 4292066630
-0.2817466259 -0.1243858859 0.5848658085 4292001609
-0.2817986310 -0.1237588972 0.5849737525 4292264781
-0.2818503976 -0.1231315583 0.5850811601 4292067667
-0.2819018960 -0.1225038767 0.5851880908 4292265046
-0.2823797464 -0.1220602393 0.5861799717 4292330597
-0.2824308276 -0.1214309186 0.5862860680 4292462183
-0.2829084098 -0.1209837422 0.5872774124 4292462710
-0.2838126421 -0.1207158417 0.5891545415 4292660089
-0.2842901051 -0.1202632263 0.5901456475 4292791428
-0.2851943970 -0.1199879944 0.5920228362 4292791428
-0.2856717408 -0.1195299327 0.5930137038 4292792489
-0.2861489654 -0.1190696359 0.5940043926 4293647798
-0.2885204852 -0.1763609499 0.6003113985 4290163369
-0.2885918617 -0.1757374406 0.6004598737 4289899943
-0.2886630297 -0.1751134545 0.6006079912 4289702564
-0.2887339890 -0.1744890064 0.6007555723 4289833885
-0.2888047099 -0.1738641113 0.6009027362 4289570713
-0.2888752222 -0.1732387543 0.6010494828 4289307529
-0.2889454961 -0.1726129353 0.6011956930 4289044357
-0.2890155613 -0.1719866544 0.6013414860 4288977527
-0.2890854180 -0.1713599265 0.6014868021 4288780148
-0.2887353599 -0.1704849452 0.6007584929 4288910445
-0.2888046801 -0.1698582172 0.6009026766 4288910445
-0.2888737619 -0.1692310423 0.6010464430 4288974692
-0.2889426053 -0.1686034203 0.6011896729 4288579934
-0.2885911763 -0.1677311957 0.6004585028 4288315720
-0.2890796661 -0.1673468202 0.6014748216 4287855169
-0.2883073092 -0.1662332118 0.5998678207 4287986470
-0.2879546881 -0.1653642207 0.5991342068 4287986470
-0.2871811986 -0.1642561257 0.5975248218 4288250131
-0.2868276536 -0.1633908451 0.5967891812 4288513303
-0.2864736915 -0.1625269502 0.5960527062 4289168400
-0.2861192822 -0.1616644561 0.5953153372 4289365779
-0.2857644856 -0.1608033627 0.5945771337 4289235220
-0.2849883139 -0.1597077698 0.5929621458 4289366806
-0.2850536108 -0.1590853930 0.5930980444 4289368095
-0.2846975625 -0.1582285315 0.5923571587 4289433888
-0.2839198411 -0.1571399271 0.5907390118 4289434405
-0.2831414938 -0.1560546011 0.5891195536 4289763370
-0.2836268544 -0.1556664258 0.5901294351 4289895209
-0.2828476131 -0.1545848697 0.5885080695 4289763623
-0.2824893594 -0.1537360251 0.5877627134 4290026017
-0.2825524211 -0.1531171650 0.5878939033 4290289189
-0.2821934521 -0.1522702724 0.5871469975 4290749224
-0.2818340659 -0.1514248103 0.5863992572 4290815017
-0.2818962634 -0.1508065611 0.5865286589 4290683694
-0.2815361321 -0.1499630511 0.5857793689 4290815280
-0.2811756134 -0.1491210014 0.5850292444 4290750253
-0.2808146477 -0.1482803971 0.5842782259 4290881839
-0.2808756828 -0.1476633102 0.5844051838 4290750769
-0.2805140018 -0.1468246877 0.5836526752 4290750769
-0.2801519036 -0.1459875107 0.5828992724 4290816562
-0.2797894180 -0.1451518089 0.5821450353 4290948148
-0.2794264853 -0.1443175673 0.5813899636 4291013941
-0.2794860005 -0.1437022090 0.5815137625 4291079734
-0.2791223824 -0.1428699791 0.5807571411 4291013941
-0.2791813314 -0.1422547549 0.5808798075 4290948148
-0.2792400420 -0.1416391432 0.5810019970 4290948148
-0.2792985439 -0.1410231441 0.5811237097 4291079734
-0.2793568075 -0.1404067576 0.5812449455 4291079734
-0.2789914906 -0.1395781785 0.5804848671 4291013941
-0.2790492177 -0.1389619708 0.5806049705 4291013941
-0.2791067064 -0.1383453608 0.5807245374 4291079734
-0.2791639566 -0.1377283931 0.5808436871 4290948148
-0.2792209685 -0.1371110231 0.5809623003 4291079734
-0.2792777717 -0.1364932954 0.5810804963 4291342906
-0.2789104283 -0.1356689930 0.5803161860 4291277113
-0.2789666653 -0.1350514442 0.5804331899 4291277113
-0.2790226638 -0.1344335228 0.5805497169 4291342906
-0.2790784240 -0.1338152289 0.5806657672 4291277113
-0.2791339755 -0.1331965625 0.5807812810 4291408699
-0.2791892588 -0.1325775385 0.5808963180 4291408699
-0.2792443335 -0.1319581270 0.5810108781 4291540285
-0.2792991400 -0.1313383728 0.5811249614 4291540285
-0.2793537378 -0.1307182461 0.5812385082 4291540285
-0.2794080675 -0.1300977468 0.5813516378 4291606078
-0.2794621885 -0.1294768900 0.5814642310 4291540285
-0.2799408436 -0.1290515065 0.5824601650 4291606079
-0.2799945772 -0.1284289956 0.5825719237 4291737665
-0.2804730237 -0.1280000657 0.5835673809 4291802939
-0.2805263400 -0.1273758858 0.5836783051 4291868732
-0.2810045183 -0.1269433945 0.5846732855 4292066113
-0.2810574472 -0.1263175756 0.5847833753 4292197699
-0.2811101079 -0.1256913841 0.5848929882 4292000844
-0.2815878987 -0.1252540499 0.5858870745 4292000844
-0.2816401720 -0.1246262193 0.5859958529 4291935831
-0.2816922069 -0.1239980385 0.5861040950 4292001624
-0.2817439735 -0.1233695075 0.5862118006 4291805275
-0.2822211981 -0.1229260415 0.5872047544 4291805275
-0.2826983035 -0.1224803329 0.5881974697 4291936867
-0.2827495039 -0.1218488663 0.5883039832 4292397418
-0.2832263708 -0.1213996112 0.5892961621 4292857217
-0.2837031186 -0.1209481210 0.5902881622 4292791424
-0.2846058607 -0.1206750274 0.5921664238 4292791187
-0.2850825191 -0.1202180907 0.5931581259 4293185945
-0.2872653902 -0.1786630005 0.5990844369 4290097322
-0.2873374522 -0.1780420244 0.5992347002 4289834402
-0.2874093056 -0.1774205863 0.5993845463 4289439644
-0.2874809504 -0.1767986864 0.5995339155 4289241495
-0.2875523567 -0.1761763096 0.5996828675 4288912530
-0.2876235545 -0.1755534858 0.5998313427 4288714638
-0.2876945436 -0.1749301851 0.5999794006 4288517259
-0.2877653241 -0.1743064374 0.6001269817 4288254592
-0.2878358662 -0.1736822128 0.6002740860 4287991420
-0.2879061997 -0.1730575413 0.6004207730 4287794033
-0.2879762948 -0.1724324226 0.6005669832 4287596654
-0.2880461812 -0.1718068272 0.6007127762 4287529827
-0.2881158590 -0.1711807847 0.6008580327 4287464034
-0.2877664268 -0.1703063995 0.6001293063 4287660637
-0.2878355682 -0.1696803570 0.6002734900 4287660637
-0.2879044712 -0.1690538675 0.6004171968 4288251486
-0.2883923352 -0.1686720997 0.6014345884 4288251486
-0.2880416214 -0.1677995473 0.6007031798 4288316239
-0.2885292172 -0.1674150527 0.6017200947 4287987274
-0.2877584100 -0.1663010269 0.6001125574 4287855411
-0.2874065042 -0.1654317230 0.5993787050 4287658032
-0.2874738872 -0.1648043841 0.5995191932 4287789602
-0.2875410318 -0.1641766131 0.5996592641 4287921188
-0.2867682278 -0.1630708873 0.5980475545 4288512024
-0.2864147425 -0.1622062325 0.5973104239 4288709403
-0.2856408060 -0.1611060649 0.5956963897 4288972312
-0.2857065499 -0.1604811400 0.5958334804 4289038105
-0.2853518426 -0.1596207023 0.5950937271 4288973080
-0.2849966884 -0.1587616652 0.5943530798 4289104666
-0.2846411467 -0.1579040587 0.5936115980 4289236511
-0.2842851579 -0.1570478529 0.5928692222 4289499683
-0.2835081518 -0.1559616923 0.5912487507 4289828648
-0.2835719585 -0.1553397328 0.5913818479 4289762855
-0.2832147479 -0.1544878036 0.5906369090 4289828385
-0.2828570902 -0.1536373049 0.5898910165 4289959971
-0.2824990451 -0.1527882516 0.5891443491 4290354214
-0.2825616896 -0.1521673948 0.5892749429 4290485800
-0.2822028995 -0.1513202935 0.5885267258 4290683180
-0.2818436921 -0.1504746228 0.5877776146 4290946352
-0.2814840972 -0.1496303976 0.5870276690 4290552620
-0.2811240554 -0.1487876177 0.5862768292 4290618413
-0.2807636261 -0.1479462832 0.5855251551 4290749999
-0.2808244228 -0.1473276317 0.5856519341 4290815792
-0.2804632485 -0.1464882940 0.5848987699 4290881585
-0.2801016867 -0.1456504017 0.5841446519 4290947378
-0.2797397077 -0.1448139846 0.5833897591 4291144757
-0.2797993124 -0.1441965252 0.5835140944 4291276343
-0.2794365883 -0.1433621049 0.5827576518 4291078964
-0.2794956565 -0.1427447945 0.5828808546 4291013171
-0.2795545161 -0.1421270818 0.5830035806 4290882355
-0.2796131372 -0.1415089965 0.5831258297 4290948148
-0.2796715200 -0.1408905089 0.5832475424 4291079734
-0.2793070972 -0.1400597394 0.5824875832 4291013941
-0.2793649435 -0.1394414306 0.5826082230 4290948146
-0.2798452675 -0.1390327364 0.5836099386 4291079732
-0.2799026966 -0.1384127140 0.5837297440 4291013939
-0.2799599171 -0.1377923191 0.5838490725 4291079732
-0.2791709304 -0.1367571205 0.5822036266 4291342904
-0.2792275250 -0.1361378282 0.5823216438 4291342904
-0.2797070146 -0.1357235014 0.5833216310 4291277113
-0.2793399692 -0.1348981410 0.5825561285 4291342906
-0.2793958485 -0.1342777312 0.5826726556 4291408699
-0.2794514894 -0.1336569488 0.5827887058 4291408699
-0.2795068920 -0.1330357939 0.5829042792 4291342906
-0.2795620561 -0.1324142814 0.5830193162 4291540285
-0.2796169817 -0.1317923963 0.5831338763 4291606079
-0.2796716690 -0.1311701387 0.5832479000 4291606079
-0.2797261477 -0.1305475235 0.5833615065 4291671872
-0.2797803581 -0.1299245507 0.5834745765 4291606079
-0.2798343301 -0.1293012053 0.5835871100 4291671872
-0.2803121507 -0.1288724691 0.5845835805 4291737665
-0.2807898819 -0.1284414977 0.5855799317 4291737664
-0.2808433175 -0.1278151870 0.5856913328 4291737664
-0.2808964849 -0.1271885186 0.5858021975 4291869251
-0.2813738286 -0.1267526746 0.5867977142 4291935044
-0.2814266086 -0.1261243522 0.5869077444 4292000845
-0.2814791203 -0.1254956871 0.5870172977 4292132431
-0.2819560468 -0.1250550002 0.5880119205 4292067417
-0.2820081711 -0.1244246662 0.5881206393 4292067417
-0.2824848592 -0.1239804327 0.5891147256 4291805275
-0.2825365663 -0.1233484596 0.5892225504 4291871068
-0.2830129862 -0.1229006797 0.5902161002 4291871591
-0.2834893167 -0.1224506497 0.5912094712 4292397935
-0.2835404277 -0.1218157411 0.5913161039 4292595338
-0.2840164900 -0.1213621721 0.5923089385 4292595338
-0.2849177122 -0.1210870743 0.5941883922 4292858534
-0.2853936553 -0.1206280589 0.5951809287 4293911222
-0.2851766646 -0.1804249734 0.5961091518 4289769386
-0.2852491736 -0.1798083633 0.5962607265 4289637284
-0.2853214741 -0.1791912913 0.5964118838 4289439905
-0.2853935659 -0.1785737425 0.5965625644 4289242265
-0.2858822048 -0.1782155186 0.5975839496 4289044886
-0.2859539688 -0.1775961518 0.5977339745 4288715404
-0.2864424884 -0.1772342771 0.5987551212 4288320646
-0.2865139246 -0.1766130626 0.5989044905 4288188801
-0.2865851820 -0.1759913862 0.5990533829 4288057215
-0.2866562009 -0.1753692478 0.5992018580 4287925116
-0.2867269814 -0.1747466326 0.5993498564 4287793530
-0.2867975831 -0.1741235703 0.5994973779 4287727986
-0.2868679464 -0.1735000461 0.5996444821 4287596400
-0.2869381011 -0.1728760600 0.5997911096 4287596137
-0.2870080173 -0.1722516268 0.5999373198 4287464551
-0.2870777547 -0.1716267318 0.6000830531 4287332448
-0.2867292762 -0.1707524657 0.5993545651 4287332448
-0.2867984474 -0.1701275706 0.5994991660 4287660639
-0.2868673801 -0.1695022285 0.5996432900 4287594846
-0.2869361043 -0.1688764244 0.5997869968 4287791194
-0.2874229848 -0.1684954464 0.6008046865 4287922780
-0.2874913812 -0.1678678393 0.6009476781 4288119383
-0.2875595391 -0.1672397852 0.6010901332 4287856211
-0.2872088253 -0.1663687676 0.6003569961 4287593027
-0.2872764170 -0.1657407433 0.6004983187 4287264062
-0.2869249582 -0.1648715734 0.5997636318 4287264054
-0.2869920135 -0.1642435789 0.5999038219 4287329847
-0.2870588601 -0.1636151522 0.6000435948 4287723558
-0.2867063284 -0.1627483368 0.5993066430 4287789351
-0.2863533795 -0.1618829221 0.5985688567 4288118048
-0.2864193320 -0.1612550169 0.5987067819 4288118048
-0.2860656381 -0.1603914946 0.5979673862 4288511254
-0.2857115269 -0.1595293880 0.5972271562 4288708633
-0.2853569686 -0.1586686820 0.5964860916 4289038105
-0.2850020230 -0.1578094065 0.5957441330 4289235484
-0.2846466601 -0.1569515318 0.5950012803 4289170205
-0.2838709354 -0.1558645219 0.5933797956 4289235998
-0.2835146189 -0.1550104320 0.5926349759 4289367836
-0.2835780382 -0.1543864906 0.5927674770 4289565215
-0.2828007638 -0.1533065289 0.5911428332 4289893664
-0.2828635275 -0.1526836008 0.5912740231 4290025250
-0.2825056612 -0.1518343240 0.5905259252 4290287909
-0.2821473777 -0.1509864777 0.5897769928 4290616874
-0.2817887068 -0.1501400769 0.5890272260 4290289191
-0.2818502486 -0.1495182812 0.5891559124 4290289191
-0.2814908326 -0.1486738622 0.5884045959 4290420522
-0.2807101309 -0.1476095766 0.5867727399 4290552108
-0.2807707489 -0.1469893605 0.5868993998 4290486828
-0.2804100811 -0.1461492926 0.5861455202 4290618414
-0.2804701328 -0.1455292106 0.5862710476 4290881585
-0.2801087499 -0.1446911395 0.5855156183 4291013171
-0.2801682651 -0.1440711915 0.5856400132 4291013171
-0.2806489170 -0.1436665654 0.5866447687 4290947378
-0.2802865803 -0.1428301036 0.5858873725 4290947378
-0.2803454101 -0.1422089785 0.5860102773 4291013171
-0.2795606554 -0.1411616355 0.5843699574 4291144757
-0.2796188295 -0.1405415982 0.5844915509 4291144757
-0.2796767652 -0.1399211735 0.5846126676 4291079218
-0.2797344923 -0.1393003613 0.5847333074 4291276597
-0.2797919512 -0.1386791766 0.5848534107 4291079218
-0.2798492014 -0.1380576044 0.5849730968 4291079218
-0.2799062133 -0.1374356449 0.5850922465 4291210804
-0.2799629867 -0.1368133128 0.5852109194 4291342390
-0.2800195217 -0.1361905932 0.5853291154 4291276343
-0.2796534002 -0.1353630275 0.5845637918 4291342136
-0.2797093689 -0.1347405016 0.5846807957 4291474493
-0.2797651291 -0.1341176033 0.5847973228 4291474493
-0.2798206508 -0.1334943473 0.5849133730 4291342907
-0.2798759043 -0.1328707039 0.5850289464 4291606079
-0.2799309492 -0.1322466880 0.5851439834 4291671618
-0.2799857557 -0.1316223145 0.5852585435 4291737411
-0.2800403237 -0.1309975833 0.5853725672 4291803204
-0.2800946534 -0.1303724796 0.5854861140 4291737411
-0.2801487148 -0.1297470033 0.5855991840 4291803206
-0.2806258500 -0.1293162256 0.5865964890 4291803206
-0.2806795239 -0.1286890805 0.5867087245 4291803717
-0.2811563909 -0.1282547414 0.5877055526 4291803717
-0.2812096775 -0.1276259422 0.5878168941 4291934792
-0.2812627256 -0.1269967854 0.5879278183 4292000585
-0.2817392051 -0.1265575886 0.5889237523 4292131920
-0.2817918360 -0.1259267777 0.5890337825 4292329299
-0.2818442285 -0.1252956092 0.5891433358 4292264280
-0.2823202908 -0.1248515546 0.5901384354 4292198487
-0.2827962339 -0.1244052500 0.5911333561 4291805275
-0.2828480601 -0.1237711385 0.5912416577 4292134240
-0.2833237648 -0.1233212799 0.5922360420 4291806063
-0.2833751738 -0.1226855218 0.5923434496 4291871856
-0.2842749059 -0.1224148273 0.5942242146 4292333207
-0.2847503126 -0.1219582260 0.5952180028 4293320102
-0.2830918431 -0.1821587980 0.5931283236 4289638573
-0.2835800052 -0.1818127632 0.5941510797 4289440935
-0.2832375765 -0.1809338480 0.5934335589 4289111970
-0.2837255299 -0.1805850863 0.5944559574 4288980124
-0.2837979496 -0.1799705327 0.5946077108 4288716952
-0.2842858136 -0.1796181202 0.5956298709 4288650128
-0.2843579352 -0.1790017337 0.5957809687 4288386956
-0.2844298482 -0.1783848703 0.5959316492 4288386439
-0.2845015526 -0.1777675599 0.5960818529 4288123267
-0.2849890590 -0.1774087548 0.5971032977 4287793783
-0.2850604653 -0.1767895967 0.5972528458 4287530611
-0.2851316035 -0.1761699766 0.5974019766 4287595632
-0.2852025628 -0.1755498946 0.5975506306 4287595632
-0.2852733135 -0.1749293506 0.5976988077 4287529580
-0.2853438258 -0.1743083447 0.5978465676 4287397994
-0.2854141295 -0.1736868620 0.5979938507 4287464038
-0.2859009802 -0.1733175963 0.5990139246 4287464038
-0.2859709263 -0.1726942956 0.5991604924 4287595106
-0.2860406935 -0.1720705479 0.5993066430 4287463520
-0.2861102223 -0.1714463383 0.5994523168 4287397212
-0.2861795425 -0.1708216816 0.5995975733 4287397212
-0.2858313620 -0.1699484736 0.5988680720 4287462747
-0.2859001458 -0.1693238169 0.5990121365 4287396954
-0.2863861620 -0.1689449847 0.6000304818 4287659356
-0.2864545882 -0.1683185250 0.6001738310 4287659356
-0.2865228057 -0.1676916033 0.6003167629 4287593302
-0.2865907848 -0.1670642495 0.6004592180 4287395923
-0.2870764434 -0.1666790545 0.6014766693 4287329865
-0.2867261171 -0.1658081859 0.6007426977 4287264072
-0.2867934108 -0.1651794910 0.6008837223 4287198530
-0.2868605256 -0.1645503491 0.6010243297 4287198530
-0.2865091264 -0.1636818200 0.6002880931 4287198261
-0.2865756750 -0.1630527228 0.6004275084 4287198261
-0.2866419852 -0.1624231786 0.6005664468 4287460137
-0.2862895429 -0.1615570188 0.5998280048 4287460137
-0.2863553166 -0.1609275192 0.5999658108 4287788060
-0.2860020995 -0.1600632519 0.5992258191 4288051232
-0.2856484950 -0.1592003852 0.5984848738 4288445463
-0.2852944434 -0.1583389342 0.5977431536 4288511256
-0.2849400043 -0.1574788988 0.5970004797 4288774418
-0.2845851183 -0.1566202939 0.5962569714 4288906004
-0.2842298448 -0.1557631046 0.5955125690 4289169428
-0.2842934728 -0.1551361531 0.5956458449 4289498393
-0.2839374244 -0.1542809010 0.5948999524 4289696284
-0.2835809886 -0.1534270793 0.5941531062 4289827870
-0.2832241356 -0.1525747031 0.5934054852 4289959457
-0.2828668654 -0.1517237574 0.5926569104 4290156836
-0.2825092077 -0.1508742422 0.5919075012 4290091557
-0.2825709581 -0.1502494365 0.5920369625 4290157350
-0.2822125554 -0.1494019032 0.5912860036 4290288936
-0.2818537354 -0.1485558152 0.5905342102 4290420522
-0.2814944983 -0.1477111876 0.5897815228 4290420522
-0.2811348438 -0.1468680054 0.5890280008 4290486315
-0.2811951041 -0.1462448984 0.5891542435 4290618156
-0.2804143131 -0.1451860517 0.5875183344 4290749742
-0.2804739475 -0.1445640028 0.5876432657 4290684206
-0.2805333138 -0.1439415663 0.5877677202 4290618413
-0.2810131609 -0.1435336024 0.5887730718 4290618413
-0.2806514204 -0.1426955014 0.5880151391 4290749999
-0.2807101011 -0.1420718729 0.5881381035 4290881585
-0.2803476155 -0.1412357986 0.5873786211 4290815792
-0.2804057598 -0.1406123340 0.5875004530 4290881839
-0.2804636657 -0.1399884820 0.5876217484 4291079218
-0.2801001370 -0.1391549855 0.5868601203 4291013425
-0.2801575065 -0.1385313123 0.5869802833 4291079218
-0.2802146077 -0.1379072368 0.5870999694 4291078964
-0.2798500359 -0.1370763481 0.5863360763 4291342136
-0.2799066007 -0.1364524662 0.5864546299 4291407929
-0.2799629271 -0.1358281970 0.5865726471 4291407929
-0.2800190151 -0.1352035552 0.5866901875 4291671102
-0.2800748646 -0.1345785409 0.5868071914 4291671102
-0.2801305056 -0.1339531541 0.5869237185 4291342653
-0.2801858783 -0.1333273947 0.5870397687 4291605825
-0.2802410126 -0.1327012628 0.5871552825 4291671620
-0.2802959383 -0.1320747733 0.5872703195 4291803206
-0.2803505957 -0.1314478964 0.5873848796 4291803208
-0.2804050148 -0.1308206618 0.5874989033 4291737415
-0.2804592252 -0.1301930696 0.5876124501 4291803208
-0.2809356153 -0.1297602355 0.5886105895 4291737415
-0.2809894085 -0.1291309744 0.5887233019 4291737672
-0.2814655900 -0.1286945790 0.5897209644 4291803465
-0.2815189660 -0.1280636340 0.5898328424 4291934794
-0.2819949090 -0.1276236773 0.5908299685 4292000587
-0.2820478976 -0.1269910783 0.5909410119 4292197197
-0.2825235724 -0.1265475750 0.5919376016 4292328783
-0.2825761437 -0.1259133071 0.5920477509 4292197715
-0.2826284766 -0.1252786964 0.5921574235 4292131922
-0.2831037343 -0.1248303279 0.5931531787 4291738460
-0.2831556499 -0.1241940632 0.5932619572 4292199011
-0.2836306393 -0.1237421408 0.5942571163 4291871866
-0.2841055393 -0.1232879609 0.5952521563 4292135038
-0.2841568589 -0.1226487458 0.5953596830 4292794799
-0.2818388343 -0.1844059974 0.5918803215 4289704368
-0.2819124162 -0.1837963611 0.5920348763 4289440683
-0.2823998928 -0.1834552437 0.5930585861 4289243304
-0.2820589840 -0.1825756580 0.5923426747 4289046177
-0.2821319699 -0.1819645911 0.5924959183 4288783005
-0.2822047472 -0.1813530475 0.5926487446 4288519320
-0.2822773159 -0.1807410270 0.5928011537 4288256148
-0.2827642858 -0.1803930551 0.5938237906 4288189838
-0.2828365266 -0.1797792017 0.5939755440 4287992459
-0.2829085588 -0.1791648716 0.5941268206 4287860611
-0.2829803824 -0.1785500795 0.5942776799 4287663232
-0.2830520272 -0.1779348105 0.5944281220 4287596662
-0.2831234336 -0.1773190796 0.5945780873 4287399283
-0.2836098671 -0.1769619882 0.5955995917 4287398253
-0.2836809456 -0.1763444245 0.5957489014 4287332460
-0.2837518454 -0.1757263988 0.5958977342 4287397992
-0.2838225067 -0.1751079112 0.5960461497 4287463785
-0.2838929594 -0.1744889617 0.5961940885 4287398245
-0.2839631736 -0.1738695502 0.5963416100 4287200866
-0.2840332091 -0.1732496768 0.5964886546 4287660134
-0.2845189571 -0.1728821099 0.5975087881 4287725927
-0.2845886648 -0.1722604036 0.5976551175 4287660386
-0.2846581340 -0.1716382653 0.5978010297 4287528800
-0.2847273648 -0.1710156500 0.5979464650 4287528541
-0.2847964168 -0.1703926027 0.5980914235 4287462748
-0.2852816880 -0.1700172871 0.5991105437 4287396955
-0.2853503823 -0.1693924218 0.5992548466 4287396955
-0.2854188681 -0.1687670946 0.5993986726 4287527773
-0.2854871154 -0.1681413203 0.5995419621 4287396187
-0.2859720290 -0.1677596420 0.6005603075 4287330134
-0.2860399485 -0.1671320647 0.6007029414 4287198548
-0.2861076295 -0.1665040255 0.6008450985 4287133003
-0.2865922749 -0.1661173552 0.6018628478 4287133003
-0.2866595984 -0.1654875129 0.6020042896 4287132738
-0.2863093615 -0.1646172702 0.6012687683 4287001152
-0.2863761485 -0.1639874578 0.6014090180 4286934846
-0.2864427269 -0.1633572280 0.6015487909 4286869053
-0.2865090668 -0.1627265364 0.6016881466 4286737205
-0.2861574590 -0.1618591249 0.6009497046 4286605619
-0.2862232327 -0.1612284929 0.6010878682 4286999850
-0.2858708799 -0.1603629738 0.6003478765 4287197229
-0.2859361172 -0.1597323865 0.6004849076 4287722269
-0.2855829895 -0.1588687748 0.5997433066 4287722269
-0.2852294743 -0.1580065787 0.5990008712 4288050957
-0.2848755121 -0.1571457982 0.5982576013 4288116750
-0.2845211625 -0.1562864333 0.5975133777 4288577291
-0.2841663957 -0.1554284990 0.5967683196 4288906256
-0.2838111818 -0.1545720100 0.5960224271 4289104148
-0.2838742733 -0.1539439857 0.5961548686 4289235734
-0.2835183442 -0.1530894339 0.5954074264 4289302043
-0.2831619978 -0.1522363126 0.5946590304 4289433629
-0.2828052342 -0.1513846219 0.5939098597 4289499420
-0.2828671336 -0.1507577300 0.5940397978 4289696799
-0.2825096250 -0.1499080211 0.5932890177 4289959971
-0.2821517289 -0.1490597427 0.5925374031 4290223143
-0.2817934155 -0.1482129395 0.5917849541 4290288936
-0.2818540931 -0.1475872099 0.5919123888 4290223143
-0.2814950645 -0.1467423737 0.5911583900 4290223143
-0.2815552056 -0.1461167634 0.5912846923 4290288936
-0.2811954021 -0.1452739388 0.5905290842 4290421034
-0.2812550068 -0.1446484625 0.5906542540 4290289448
-0.2813143730 -0.1440225989 0.5907788873 4290421034
-0.2809535265 -0.1431823075 0.5900211334 4290618413
-0.2810123265 -0.1425565779 0.5901446342 4290618413
-0.2806507647 -0.1417183131 0.5893853307 4290552620
-0.2807090282 -0.1410927474 0.5895076394 4290618413
-0.2807670534 -0.1404667795 0.5896294713 4290684206
-0.2808248401 -0.1398404390 0.5897508264 4290683949
-0.2804619074 -0.1390053034 0.5889886618 4290881328
-0.2805191278 -0.1383791268 0.5891088247 4291012659
-0.2801554799 -0.1375460327 0.5883451104 4291275831
-0.2802121341 -0.1369200349 0.5884641409 4291276344
-0.2802685797 -0.1362936497 0.5885826945 4291210551
-0.2803247869 -0.1356668919 0.5887007117 4291342139
-0.2803807259 -0.1350397617 0.5888182521 4291342139
-0.2804364562 -0.1344122440 0.5889352560 4291407678
-0.2804919481 -0.1337843686 0.5890517831 4291605057
-0.2805472016 -0.1331561059 0.5891678333 4291605829
-0.2806022167 -0.1325274855 0.5892833471 4291671622
-0.2806569934 -0.1318984926 0.5893983841 4291671622
-0.2807115316 -0.1312691271 0.5895128846 4291671622
-0.2807658315 -0.1306394041 0.5896269083 4291802953
-0.2812415361 -0.1302045137 0.5906259418 4291802953
-0.2812954187 -0.1295731217 0.5907391310 4291737160
-0.2817708850 -0.1291346699 0.5917376280 4291737160
-0.2818243802 -0.1285015941 0.5918499231 4291868231
-0.2822995782 -0.1280595809 0.5928479433 4291868231
-0.2823526859 -0.1274248362 0.5929594040 4291934025
-0.2828276455 -0.1269792616 0.5939568877 4291999818
-0.2828803062 -0.1263428628 0.5940675139 4291934289
-0.2829327583 -0.1257061064 0.5941776037 4291934289
-0.2834073007 -0.1252556592 0.5951741934 4291738211
-0.2834593058 -0.1246172488 0.5952834487 4292132969
-0.2839336097 -0.1241632476 0.5962794423 4292398224
-0.2844077945 -0.1237069964 0.5972753167 4293582498
-0.2803203762 -0.1851525158 0.5900678039 4289441196
-0.2803941071 -0.1845454127 0.5902229548 4289177511
-0.2804675996 -0.1839378327 0.5903776884 4288848546
-0.2809540629 -0.1835997850 0.5914016962 4288585372
-0.2810272574 -0.1829903573 0.5915557742 4288322200
-0.2811002433 -0.1823804528 0.5917093754 4288058769
-0.2811730504 -0.1817700863 0.5918626189 4287927183
-0.2808320224 -0.1808928251 0.5911448002 4287729289
-0.2809042931 -0.1802823991 0.5912969112 4287531910
-0.2813901603 -0.1799361110 0.5923196673 4287465856
-0.2814621329 -0.1793238521 0.5924711227 4287334270
-0.2815338671 -0.1787111163 0.5926221609 4287333751
-0.2820195258 -0.1783598214 0.5936444402 4287333751
-0.2820909619 -0.1777452528 0.5937948227 4287267696
-0.2821621895 -0.1771302223 0.5939447880 4287136110
-0.2822332084 -0.1765147150 0.5940942168 4287332458
-0.2827185392 -0.1761570424 0.5951159000 4287398251
-0.2827892303 -0.1755397171 0.5952646732 4287463783
-0.2828597128 -0.1749219149 0.5954130292 4287463783
-0.2829299867 -0.1743036509 0.5955609679 4287529831
-0.2830000520 -0.1736849397 0.5957084298 4287464038
-0.2830698788 -0.1730657667 0.5958554149 4287463015
-0.2831394970 -0.1724461317 0.5960019827 4287594601
-0.2836241722 -0.1720779836 0.5970221758 4287529061
-0.2836934626 -0.1714565307 0.5971680284 4287463268
-0.2837625444 -0.1708346158 0.5973134637 4287528802
-0.2838313878 -0.1702122539 0.5974583626 4287463009
-0.2839000225 -0.1695894301 0.5976029038 4287396703
-0.2839684486 -0.1689661592 0.5977469087 4287396703
-0.2844525278 -0.1685889214 0.5987658501 4287395933
-0.2845205963 -0.1679638326 0.5989091396 4287330140
-0.2845884562 -0.1673383117 0.5990520120 4287264599
-0.2846561074 -0.1667123288 0.5991944075 4287198806
-0.2851397693 -0.1663287282 0.6002125144 4287198798
-0.2852070630 -0.1657009423 0.6003541350 4287067212
-0.2852741480 -0.1650727242 0.6004953384 4286870084
-0.2853409946 -0.1644440442 0.6006360650 4286672705
-0.2854076028 -0.1638149470 0.6007763147 4286539836
-0.2854740024 -0.1631853878 0.6009160876 4286408250
-0.2855401933 -0.1625553966 0.6010553837 4286145591
-0.2856061459 -0.1619249731 0.6011942029 4286079798
-0.2856718600 -0.1612941176 0.6013325453 4286276658
-0.2857373655 -0.1606628150 0.6014704108 4286408244
-0.2853854001 -0.1597974598 0.6007295251 4286801955
-0.2854503393 -0.1591662169 0.6008661985 4286801955
-0.2850976288 -0.1583027840 0.6001238227 4287064335
-0.2847445011 -0.1574407518 0.5993804932 4287195921
-0.2848085761 -0.1568100750 0.5995153785 4287656717
-0.2844547331 -0.1559499651 0.5987704992 4288117268
-0.2841004729 -0.1550913006 0.5980247855 4288314897
-0.2837457657 -0.1542340517 0.5972781777 4288380690
-0.2833906710 -0.1533782482 0.5965306759 4288381202
-0.2834532261 -0.1527491659 0.5966623425 4288512788
-0.2830973864 -0.1518952996 0.5959133506 4288644111
-0.2827411294 -0.1510428935 0.5951634049 4288973076
-0.2828028202 -0.1504144222 0.5952932835 4289367834
-0.2824458182 -0.1495639831 0.5945417881 4289631006
-0.2825069726 -0.1489356309 0.5946704745 4289762592
-0.2821492553 -0.1480871588 0.5939174891 4289762592
-0.2817911208 -0.1472401470 0.5931636691 4289828385
-0.2818513811 -0.1466124356 0.5932905078 4289959971
-0.2814925015 -0.1457674205 0.5925350785 4290025764
-0.2815521955 -0.1451398432 0.5926607847 4289894178
