VERSION 0.7
FIELDS x y z rgba
SIZE 4 4 4 4
TYPE F F F U
COUNT 1 1 1 1
WIDTH 920
HEIGHT 1
VIEWPOINT 0.0 0.0 0.0 1.0 0.0 0.0 0.0
POINTS 920
DATA ascii
-0.2852648795 -0.1258451641 0.5623486042 4292394814
-0.2853190005 -0.1252441108 0.5624552965 4292657986
-0.2858166993 -0.1248365715 0.5634364486 4292789574
-0.2858704627 -0.1242339015 0.5635423660 4292789574
-0.2859239578 -0.1236308962 0.5636478662 4292790083
-0.2864212692 -0.1232185960 0.5646282434 4292790083
-0.2864743769 -0.1226139814 0.5647329092 4292724294
-0.2874156833 -0.1223873496 0.5665885210 4292724294
-0.2879127562 -0.1219684109 0.5675684214 4292724041
-0.2879653871 -0.1213599741 0.5676721931 4292789834
-0.2884622216 -0.1209375486 0.5686516166 4292855114
-0.2894035280 -0.1206983253 0.5705072284 4292855114
-0.2899003029 -0.1202705353 0.5714864731 4292921938
-0.2903969586 -0.1198405400 0.5724655986 4293053524
-0.2913383245 -0.1195909083 0.5743213296 4292922974
-0.2918348908 -0.1191555411 0.5753002167 4292922974
-0.2923313677 -0.1187179685 0.5762789249 4292726123
-0.2928277552 -0.1182781756 0.5772574544 4292857709
-0.2937691510 -0.1180149838 0.5791132450 4292857973
-0.2947106063 -0.1177476868 0.5809691548 4292792180
-0.2956520915 -0.1174762920 0.5828251243 4292988793
-0.2965936661 -0.1172007993 0.5846812725 4293449344
-0.2979806662 -0.1170962229 0.5874155164 4292794803
-0.2989223897 -0.1168115661 0.5892719626 4293452733
-0.3183517754 -0.1896663159 0.6289505959 4288980371
-0.3179946244 -0.1887555122 0.6282449961 4288585613
-0.3176370263 -0.1878460199 0.6275385022 4290814530
-0.3172789812 -0.1869378239 0.6268311739 4289959221
-0.3160474598 -0.1855184436 0.6243980527 4289958433
-0.3130684793 -0.1830825955 0.6185126305 4291076914
-0.3057203293 -0.1781143248 0.6039953232 4291537462
-0.2966209650 -0.1721618623 0.5860181451 4291603255
-0.2971299291 -0.1718050539 0.5870237350 4291734064
-0.2880235314 -0.1659073532 0.5690326691 4291931443
-0.2850328088 -0.1635589749 0.5631241202 4291339818
-0.2833522260 -0.1619726270 0.5598038435 4291339818
-0.2821079791 -0.1606421322 0.5573456883 4291339818
-0.2808628976 -0.1593166143 0.5548858047 4291339818
-0.2800545394 -0.1582433432 0.5532888174 4291339818
-0.2796832621 -0.1574196219 0.5525552630 4291405611
-0.2784359753 -0.1561063975 0.5500910878 4291537197
-0.2785015404 -0.1555318236 0.5502206087 4291537197
-0.2785668969 -0.1549568474 0.5503497720 4291471404
-0.2786320448 -0.1543814689 0.5504784584 4291405611
-0.2786969841 -0.1538056880 0.5506067276 4291208232
-0.2787617147 -0.1532295048 0.5507346392 4291142439
-0.2788262367 -0.1526529044 0.5508620739 4291274025
-0.2788905203 -0.1520759314 0.5509890914 4291142439
-0.2789545953 -0.1514985412 0.5511156917 4290813474
-0.2794571817 -0.1511580497 0.5521086454 4290747681
-0.2795209289 -0.1505789608 0.5522345901 4290813474
-0.2795844674 -0.1499994844 0.5523601174 4290747681
-0.2796477973 -0.1494196057 0.5524851680 4290747681
-0.2792717814 -0.1486056745 0.5517423749 4290747681
-0.2793345749 -0.1480259150 0.5518664122 4290747679
-0.2793971598 -0.1474457830 0.5519900322 4290813472
-0.2794595063 -0.1468652487 0.5521131754 4290879265
-0.2790821493 -0.1460543126 0.5513676405 4291010851
-0.2787043452 -0.1452448368 0.5506213307 4291208230
-0.2792055607 -0.1448931545 0.5516114831 4291208230
-0.2788271308 -0.1440847218 0.5508638620 4291274023
-0.2788881958 -0.1435040981 0.5509845018 4291274023
-0.2785090804 -0.1426976621 0.5502354503 4291339816
-0.2785696089 -0.1421171874 0.5503550768 4291405609
-0.2786298990 -0.1415363401 0.5504742265 4291471402
-0.2786899805 -0.1409551054 0.5505928993 4291537195
-0.2787498534 -0.1403734982 0.5507111549 4291340840
-0.2788094878 -0.1397915334 0.5508289933 4291340840
-0.2788689137 -0.1392091811 0.5509464145 4291340840
-0.2789281011 -0.1386264563 0.5510633588 4291538219
-0.2789870799 -0.1380433738 0.5511798859 4291867184
-0.2790458202 -0.1374599040 0.5512959361 4291932977
-0.2791043520 -0.1368760765 0.5514115691 4291670062
-0.2791626453 -0.1362918913 0.5515267253 4291604269
-0.2796618342 -0.1359217167 0.5525129437 4291670062
-0.2797197700 -0.1353358626 0.5526273847 4291801648
-0.2797774971 -0.1347496510 0.5527414083 4291802163
-0.2798349857 -0.1341630816 0.5528550148 4291867956
-0.2798922360 -0.1335761398 0.5529681444 4291933749
-0.2803908288 -0.1331986189 0.5539531708 4292065335
-0.2804477215 -0.1326100379 0.5540655851 4292262714
-0.2805043757 -0.1320210993 0.5541775227 4292460093
-0.2810026407 -0.1316387802 0.5551618934 4292262712
-0.2810589373 -0.1310482025 0.5552731156 4292262712
-0.2815569937 -0.1306623966 0.5562571287 4292197689
-0.2816129327 -0.1300701797 0.5563675761 4292263482
-0.2821107805 -0.1296808720 0.5573512316 4292197689
-0.2821663320 -0.1290870309 0.5574609637 4292263482
-0.2826640010 -0.1286942363 0.5584441423 4292263228
-0.2827191651 -0.1280987561 0.5585530996 4292263228
-0.2836591303 -0.1279020011 0.5604102015 4292263230
-0.2837139964 -0.1273039579 0.5605185628 4292329023
-0.2842113078 -0.1269032359 0.5615010858 4292263741
-0.2847085893 -0.1265003085 0.5624834895 4292197948
-0.2847628891 -0.1258993596 0.5625908375 4292329536
-0.2852599323 -0.1254929453 0.5635727644 4292592708
-0.2853138447 -0.1248903796 0.5636793375 4292789575
-0.2853675485 -0.1242874786 0.5637854338 4292789575
-0.2858642042 -0.1238762885 0.5647665858 4292724294
-0.2859174907 -0.1232717708 0.5648719072 4292790087
-0.2864139080 -0.1228570938 0.5658526421 4292789834
-0.2869102359 -0.1224402040 0.5668332577 4292855627
-0.2874065042 -0.1220211014 0.5678136349 4292855375
-0.2879026830 -0.1215997934 0.5687939525 4292921168
-0.2883987725 -0.1211762652 0.5697740316 4292921168
-0.2888947725 -0.1207505241 0.5707539916 4292921168
-0.2893907130 -0.1203225702 0.5717337728 4292921685
-0.2903304696 -0.1200760081 0.5735903978 4293053271
-0.2908263206 -0.1196426898 0.5745700002 4292857185
-0.2917661369 -0.1193888709 0.5764267445 4292857185
-0.2922618687 -0.1189501807 0.5774061680 4292791919
-0.2927575111 -0.1185092703 0.5783853531 4292989298
-0.2936973572 -0.1182450429 0.5802421570 4293055099
-0.2946372628 -0.1179767027 0.5820991397 4293055099
-0.2955772579 -0.1177042648 0.5839561820 4293120894
-0.2965172827 -0.1174277216 0.5858133435 4293515652
-0.2974573374 -0.1171470657 0.5876705647 4292860341
-0.2988421619 -0.1170364618 0.5904064775 4293649857
-0.3169150651 -0.1892255843 0.6274890304 4289243545
-0.3161229789 -0.1880571842 0.6259207129 4288519822
-0.3162012994 -0.1874081641 0.6260758042 4290288186
-0.3158437610 -0.1865014285 0.6253678203 4289103912
-0.3146142364 -0.1850832850 0.6229334474 4289168917
-0.3112045527 -0.1823927909 0.6161822677 4290682156
-0.3051771224 -0.1781888306 0.6042479873 4291406130
-0.2960939705 -0.1722339243 0.5862634778 4291340337
-0.2909317613 -0.1685911119 0.5760422945 4291274026
-0.2870756388 -0.1657250077 0.5684072375 4291405612
-0.2840901911 -0.1633765697 0.5624960661 4291208232
-0.2824125588 -0.1617904902 0.5591743588 4291274025
-0.2807338536 -0.1602112055 0.5558505654 4291405611
-0.2799275219 -0.1591352224 0.5542540550 4291471404
-0.2791205645 -0.1580624431 0.5526562929 4291471404
-0.2783129811 -0.1569928527 0.5510572791 4291537197
-0.2775047719 -0.1559264660 0.5494570136 4291668783
-0.2775701880 -0.1553525925 0.5495865345 4291602990
-0.2776353955 -0.1547783017 0.5497156382 4291537197
-0.2777003646 -0.1542036235 0.5498442650 4291405611
-0.2777651548 -0.1536285281 0.5499725342 4291208232
-0.2782672346 -0.1532940567 0.5509666800 4291274025
-0.2783316970 -0.1527172625 0.5510942936 4291339818
-0.2783959210 -0.1521400660 0.5512214899 4291076646
-0.2784599364 -0.1515624672 0.5513482094 4290747681
-0.2785237432 -0.1509844661 0.5514745712 4290747681
-0.2785873413 -0.1504060626 0.5516005158 4290813474
-0.2786507308 -0.1498272866 0.5517259836 4290747681
-0.2791521251 -0.1494827569 0.5527187586 4290747681
-0.2787768245 -0.1486685127 0.5519756675 4290747681
-0.2788395584 -0.1480885446 0.5520998836 4290813472
-0.2789020836 -0.1475081891 0.5522236824 4290813472
-0.2789643705 -0.1469274461 0.5523470044 4290879265
-0.2785877287 -0.1461161971 0.5516012311 4290945058
-0.2786494792 -0.1455355883 0.5517235398 4291076644
-0.2787110209 -0.1449545920 0.5518453717 4291208230
-0.2783333361 -0.1441458464 0.5510975718 4291274023
-0.2783943415 -0.1435649991 0.5512183309 4291339816
-0.2784551382 -0.1429837644 0.5513387322 4291405609
-0.2780764103 -0.1421775520 0.5505888462 4291405609
-0.2781366408 -0.1415964812 0.5507081151 4291405609
-0.2781966925 -0.1410150379 0.5508269668 4291471402
-0.2782564759 -0.1404332072 0.5509454012 4291471656
-0.2783160806 -0.1398510039 0.5510633588 4291537449
-0.2783754468 -0.1392684430 0.5511808991 4291340840
-0.2784345746 -0.1386854947 0.5512980223 4291472426
-0.2784934938 -0.1381021887 0.5514146686 4291801137
-0.2785522044 -0.1375184953 0.5515308976 4291866930
-0.2786106765 -0.1369344443 0.5516466498 4291801137
-0.2786689103 -0.1363500208 0.5517619848 4291735344
-0.2791672647 -0.1359797269 0.5527487397 4291735857
-0.2792251408 -0.1353936493 0.5528633595 4291867443
-0.2792828083 -0.1348072141 0.5529775023 4291933236
-0.2793402374 -0.1342204064 0.5530912280 4291999029
-0.2793974578 -0.1336332411 0.5532044768 4291999542
-0.2798952162 -0.1332555711 0.5541900396 4292196921
-0.2799520493 -0.1326667666 0.5543026328 4292328507
-0.2804496288 -0.1322855949 0.5552877784 4292460093
-0.2805061042 -0.1316951364 0.5553995967 4292131642
-0.2810034752 -0.1313104779 0.5563843846 4292131642
-0.2810595632 -0.1307183802 0.5564954877 4292263482
-0.2811154425 -0.1301259398 0.5566061139 4292263482
-0.2811710835 -0.1295331419 0.5567162633 4292197435
-0.2821094394 -0.1293448210 0.5585742593 4292263228
-0.2826063633 -0.1289509535 0.5595581532 4292329023
-0.2831032276 -0.1285548508 0.5605418682 4292263230
-0.2831582725 -0.1279569268 0.5606508851 4292263743
-0.2836549282 -0.1275573373 0.5616342425 4292329536
-0.2837095857 -0.1269577891 0.5617424846 4292395074
-0.2842060030 -0.1265547127 0.5627253652 4292329281
-0.2847023606 -0.1261494160 0.5637081861 4292264258
-0.2847564816 -0.1255469471 0.5638152957 4292527430
-0.2848103642 -0.1249441504 0.5639219880 4292855627
-0.2848640084 -0.1243410036 0.5640282035 4292789834
-0.2853598297 -0.1239296570 0.5650099516 4292724041
-0.2854130566 -0.1233249009 0.5651153326 4292789834
-0.2859086394 -0.1229100600 0.5660966039 4292855375
-0.2864041626 -0.1224930137 0.5670776963 4292921168
-0.2868995965 -0.1220737547 0.5680586696 4292986964
-0.2873949409 -0.1216522753 0.5690394640 4292986964
-0.2883331180 -0.1214150935 0.5708969831 4292986964
-0.2888283730 -0.1209882423 0.5718775988 4292986964
-0.2893235385 -0.1205591857 0.5728580952 4292921689
-0.2898186445 -0.1201279089 0.5738383532 4292987482
-0.2907568514 -0.1198771596 0.5756960511 4292725347
-0.2912518382 -0.1194405109 0.5766760707 4292791140
-0.2921901345 -0.1191825047 0.5785338879 4292857460
-0.2926850021 -0.1187404767 0.5795137286 4293120632
-0.2936233282 -0.1184752062 0.5813716054 4293186435
-0.2945617139 -0.1182058305 0.5832296014 4293318021
-0.2955001593 -0.1179323420 0.5850877166 4293318021
-0.2964386344 -0.1176547483 0.5869458914 4293581193
-0.2973771691 -0.1173730418 0.5888041854 4292926395
-0.3154807687 -0.1887843311 0.6260258555 4289835684
-0.3146899343 -0.1876172870 0.6244565845 4288454031
-0.3143332005 -0.1867115796 0.6237486601 4289037865
-0.3139760196 -0.1858071685 0.6230399013 4288116763
-0.3127484620 -0.1843911707 0.6206039786 4288313606
-0.3097796738 -0.1819578409 0.6147128344 4290155810
-0.3046332300 -0.1782632768 0.6045004725 4291274542
-0.2968721986 -0.1730672121 0.5890998244 4291340335
-0.2908487618 -0.1689144820 0.5771471858 4291208233
-0.2865641713 -0.1657943428 0.5686450601 4291208233
-0.2835841179 -0.1634449661 0.5627315640 4291142439
-0.2814737856 -0.1616080850 0.5585439205 4291208232
-0.2797980309 -0.1600290686 0.5552186370 4291405611
-0.2789930999 -0.1589535773 0.5536213517 4291537197
-0.2781875432 -0.1578812748 0.5520228148 4291668783
-0.2773813307 -0.1568121612 0.5504230261 4291800369
-0.2770107687 -0.1559919268 0.5496876836 4291800369
-0.2770760953 -0.1554178298 0.5498173833 4291668783
-0.2771412432 -0.1548433453 0.5499466062 4291602990
-0.2772061527 -0.1542684436 0.5500754118 4291405611
-0.2772708833 -0.1536931396 0.5502038598 4291274025
-0.2773353755 -0.1531174332 0.5503318310 4291274025
-0.2778365016 -0.1527815461 0.5513262749 4291274025
-0.2779006958 -0.1522041410 0.5514536500 4291010853
-0.2779646516 -0.1516263187 0.5515805483 4290681888
-0.2780283988 -0.1510481089 0.5517070293 4290681888
-0.2780919373 -0.1504694968 0.5518331528 4290747681
-0.2781552672 -0.1498904973 0.5519587994 4290747681
-0.2782183588 -0.1493110955 0.5520839691 4290747681
-0.2787187994 -0.1489651650 0.5530770421 4290747681
-0.2783439159 -0.1481511146 0.5523331761 4290813472
-0.2784063816 -0.1475705355 0.5524570942 4290879265
-0.2784686089 -0.1469895691 0.5525805950 4290879265
-0.2780926824 -0.1461780220 0.5518346429 4290879265
-0.2781544030 -0.1455971897 0.5519570708 4291010851
-0.2782158852 -0.1450159699 0.5520790815 4291076644
-0.2782771289 -0.1444343626 0.5522006154 4291208230
-0.2783381939 -0.1438523829 0.5523217916 4291274023
-0.2779605985 -0.1430443972 0.5515725017 4291405609
-0.2780210972 -0.1424625665 0.5516925454 4291405609
-0.2780813873 -0.1418803632 0.5518121719 4291405609
-0.2781414688 -0.1412977725 0.5519313812 4291471402
-0.2782013118 -0.1407148093 0.5520501733 4291472172
-0.2782609165 -0.1401314586 0.5521684885 4291472172
-0.2778813541 -0.1393276453 0.5514152646 4291406379
-0.2779404223 -0.1387444735 0.5515325069 4291472172
-0.2779992819 -0.1381609440 0.5516492724 4291669551
-0.2780579329 -0.1375770271 0.5517656803 4291866930
-0.2785557210 -0.1372091770 0.5527534485 4291801650
-0.2786139846 -0.1366236061 0.5528690815 4291801650
-0.2786720693 -0.1360376775 0.5529842973 4291801650
-0.2787298858 -0.1354513764 0.5530990362 4291933236
-0.2787874937 -0.1348647028 0.5532133579 4291999542
-0.2792846859 -0.1344894767 0.5541999936 4292131128
-0.2793419361 -0.1339011639 0.5543136001 4292262460
-0.2793989480 -0.1333124787 0.5544267297 4292328253
-0.2794557512 -0.1327234507 0.5545394421 4292328253
-0.2799524963 -0.1323421299 0.5555251241 4292262460
-0.2804491818 -0.1319586039 0.5565107465 4292131642
-0.2805054486 -0.1313666403 0.5566223860 4292131642
-0.2805615067 -0.1307743192 0.5567336082 4292197435
-0.2810578346 -0.1303860098 0.5577185750 4292263228
-0.2811135054 -0.1297920495 0.5578290224 4292263230
-0.2820503712 -0.1296027452 0.5596880317 4292263230
-0.2825465202 -0.1292077899 0.5606726408 4292329023
-0.2826017737 -0.1286099702 0.5607822537 4292263230
-0.2830977142 -0.1282115281 0.5617663860 4292395074
-0.2831525803 -0.1276120842 0.5618752241 4292460867
-0.2836483121 -0.1272101253 0.5628589392 4292460869
-0.2837027907 -0.1266090572 0.5629670620 4292395076
-0.2841983140 -0.1262035966 0.5639503598 4292330053
-0.2846937478 -0.1257959306 0.5649334788 4292593225
-0.2847476602 -0.1251919568 0.5650404692 4292724557
-0.2848013341 -0.1245876402 0.5651469827 4292658764
-0.2848547697 -0.1239829808 0.5652530193 4292592971
-0.2853496969 -0.1235692576 0.5662351251 4292592971
-0.2858445346 -0.1231533289 0.5672170520 4292789583
-0.2863392830 -0.1227351800 0.5681988001 4292855376
-0.2868339717 -0.1223148182 0.5691804290 4292921171
-0.2873285711 -0.1218922362 0.5701618791 4292986964
-0.2878230810 -0.1214674413 0.5711432099 4293052503
-0.2887597084 -0.1212260798 0.5730018020 4293052503
-0.2892541587 -0.1207959130 0.5739828944 4292921947
-0.2897484899 -0.1203635260 0.5749638677 4292921947
-0.2902427316 -0.1199289262 0.5759446025 4292725348
-0.2911794186 -0.1196739823 0.5778033137 4292856934
-0.2916735411 -0.1192340031 0.5787838697 4292923255
-0.2926102877 -0.1189717948 0.5806427002 4293120634
-0.2931043208 -0.1185264364 0.5816230178 4293186694
-0.2940410972 -0.1182569638 0.5834819078 4293252487
-0.2954208255 -0.1181605309 0.5862197876 4293252490
-0.2963577509 -0.1178818867 0.5880790353 4293581455
-0.2972947657 -0.1175991297 0.5899383426 4292992448
-0.3136150837 -0.1880824417 0.6236982942 4290230189
-0.3136931658 -0.1874361187 0.6238535643 4287730055
-0.3133370578 -0.1865309626 0.6231453419 4288050972
-0.3129804730 -0.1856271178 0.6224361658 4287722007
-0.3113208413 -0.1839549094 0.6191356182 4288312836
-0.3087915182 -0.1817780584 0.6141054630 4289891868
-0.3040886223 -0.1783376485 0.6047526598 4290945575
-0.2972106040 -0.1736471951 0.5910740495 4291274540
-0.2903289497 -0.1689850241 0.5773882270 4291274025
-0.2864868045 -0.1661156863 0.5697472095 4291339818
-0.2826425433 -0.1632621139 0.5621020198 4291142439
-0.2801010311 -0.1611751318 0.5570475459 4291274025
-0.2788631618 -0.1598466635 0.5545857549 4291405611
-0.2776244581 -0.1585231721 0.5521223545 4291537197
-0.2772554159 -0.1576998234 0.5513884425 4291734576
-0.2768859863 -0.1568778753 0.5506536961 4291800369
-0.2765161097 -0.1560573280 0.5499181151 4291800369
-0.2765814066 -0.1554830223 0.5500479341 4291800369
-0.2766464651 -0.1549083143 0.5501773953 4291800369
-0.2767113149 -0.1543332040 0.5503063798 4291405611
-0.2767759860 -0.1537576914 0.5504349470 4291208230
-0.2772763968 -0.1534230113 0.5514301062 4291274023
-0.2769046426 -0.1526054591 0.5506908298 4291208230
-0.2774048448 -0.1522681564 0.5516855717 4290945058
-0.2774687409 -0.1516901255 0.5518126488 4290747679
-0.2775324285 -0.1511117071 0.5519393086 4290616093
-0.2775959074 -0.1505328715 0.5520655513 4290747681
-0.2776591480 -0.1499536633 0.5521913767 4290747681
-0.2777222097 -0.1493740380 0.5523167253 4290747681
-0.2782217860 -0.1490279883 0.5533102751 4290813474
-0.2778476477 -0.1482136250 0.5525662303 4290813472
-0.2779100239 -0.1476328373 0.5526902676 4290813472
-0.2779722214 -0.1470516473 0.5528139472 4290813472
-0.2780341804 -0.1464700699 0.5529371500 4290813472
-0.2776586711 -0.1456587315 0.5521903634 4291142437
-0.2777200937 -0.1450772882 0.5523125529 4291076644
-0.2777813077 -0.1444954723 0.5524342656 4291142437
-0.2778422832 -0.1439132690 0.5525555611 4291208230
-0.2779030502 -0.1433306783 0.5526763797 4291274023
-0.2775258720 -0.1425229162 0.5519262552 4291471402
-0.2775861025 -0.1419404894 0.5520460606 4291537195
-0.2776461244 -0.1413576752 0.5521653891 4291537195
-0.2777059078 -0.1407744884 0.5522843003 4291406379
-0.2777654827 -0.1401909292 0.5524027944 4291406379
-0.2778248191 -0.1396069974 0.5525208116 4291537965
-0.2774456441 -0.1388034075 0.5517667532 4291537965
-0.2775044441 -0.1382196397 0.5518836975 4291604273
-0.2780015171 -0.1378529519 0.5528722405 4291801652
-0.2780599892 -0.1372675300 0.5529884696 4291933238
-0.2781182230 -0.1366817355 0.5531042814 4291867445
-0.2781762183 -0.1360955685 0.5532196760 4291801909
-0.2782340050 -0.1355090439 0.5533345938 4291933495
-0.2787305117 -0.1351349652 0.5543219447 4292065081
-0.2787879109 -0.1345467865 0.5544361472 4292130874
-0.2788451016 -0.1339582354 0.5545498729 4292065851
-0.2789020836 -0.1333693415 0.5546631813 4292131644
-0.2793981135 -0.1329891682 0.5556496978 4292131644
-0.2794547081 -0.1323986202 0.5557622313 4292197437
-0.2799505591 -0.1320149601 0.5567483306 4292197435
-0.2800067961 -0.1314227581 0.5568601489 4292263228
-0.2805024385 -0.1310355961 0.5578458905 4292197437
-0.2809980512 -0.1306461990 0.5588315129 4292197437
-0.2810537517 -0.1300510764 0.5589423180 4292263230
-0.2815491557 -0.1296581924 0.5599275231 4292263230
-0.2820444703 -0.1292630881 0.5609126091 4292263488
-0.2825397551 -0.1288657784 0.5618975759 4292263488
-0.2825948000 -0.1282664388 0.5620070100 4292460869
-0.2826495767 -0.1276667565 0.5621160269 4292592455
-0.2831445038 -0.1272646636 0.5631002784 4292592455
-0.2836393416 -0.1268603355 0.5640843511 4292460869
-0.2836936116 -0.1262577474 0.5641922951 4292329799
-0.2841882110 -0.1258499324 0.5651759505 4292461385
-0.2842420936 -0.1252457052 0.5652830601 4292592971
-0.2842957079 -0.1246411502 0.5653896928 4292658764
-0.2847899497 -0.1242285520 0.5663726330 4292592974
-0.2848431766 -0.1236223727 0.5664784908 4292658767
-0.2853371799 -0.1232062802 0.5674609542 4292658513
-0.2858310938 -0.1227879748 0.5684432387 4292724306
-0.2863249481 -0.1223674491 0.5694253445 4292920917
-0.2868187129 -0.1219447106 0.5704073310 4292986710
-0.2873123884 -0.1215197518 0.5713891387 4292921689
-0.2882474065 -0.1212783009 0.5732486248 4292921689
-0.2887410223 -0.1208479628 0.5742302537 4292921949
-0.2896761000 -0.1205992550 0.5760899186 4292921949
-0.2901695967 -0.1201635376 0.5770713091 4292790887
-0.2906630039 -0.1197256073 0.5780525804 4292922473
-0.2915981412 -0.1194664687 0.5799123049 4292923000
-0.2925333083 -0.1192032248 0.5817721486 4293120379
-0.2930265963 -0.1187567487 0.5827531815 4293186695
-0.2939618230 -0.1184862256 0.5846130848 4293318281
-0.2948971093 -0.1182115898 0.5864731073 4293186194
-0.2958324254 -0.1179328486 0.5883332491 4293646745
-0.2972100973 -0.1178253219 0.5910730362 4293190345
-0.3121863902 -0.1876400709 0.6222313643 4290625206
-0.3122641742 -0.1869953126 0.6223863959 4286743419
-0.3123417199 -0.1863500625 0.6225410104 4287129619
-0.3115524352 -0.1851892173 0.6209678054 4287655963
-0.3103290498 -0.1837747991 0.6185294390 4288576010
-0.3078042269 -0.1815979779 0.6134971380 4289694491
-0.3035433590 -0.1784119606 0.6050046086 4290419231
-0.2901716232 -0.1699099392 0.5783528686 4290879782
-0.2906761467 -0.1695616543 0.5793584585 4291010853
-0.2859732807 -0.1661849916 0.5699849725 4291076646
-0.2821359634 -0.1633302569 0.5623366833 4290879267
-0.2795990407 -0.1612424403 0.5572802424 4291142439
-0.2779291868 -0.1596639752 0.5539519787 4291405611
-0.2771270275 -0.1585894525 0.5523531437 4291602990
-0.2767587304 -0.1577657908 0.5516190529 4291800369
-0.2759554088 -0.1566967517 0.5500179529 4291800369
-0.2755861580 -0.1558767855 0.5492819548 4291734576
-0.2756512761 -0.1553031802 0.5494117737 4291734576
-0.2761510611 -0.1549732238 0.5504079461 4291800367
-0.2762158811 -0.1543979049 0.5505371094 4291405609
-0.2767155468 -0.1540644169 0.5515329838 4291274023
-0.2767800391 -0.1534873843 0.5516615510 4291339816
-0.2768442929 -0.1529099494 0.5517896414 4291208230
-0.2769083381 -0.1523321122 0.5519173145 4290945058
-0.2774076760 -0.1519924700 0.5529125333 4290813472
-0.2774714231 -0.1514129192 0.5530395508 4290616093
-0.2770992219 -0.1505961865 0.5522977710 4290681888
-0.2775982320 -0.1502526253 0.5532922745 4290747681
-0.2776612937 -0.1496718824 0.5534180403 4290747681
-0.2777241766 -0.1490907520 0.5535433292 4290813474
-0.2773507535 -0.1482760757 0.5527990460 4290813472
-0.2774130702 -0.1476950645 0.5529232621 4290879265
-0.2774752080 -0.1471136659 0.5530470610 4290813472
-0.2775371075 -0.1465318799 0.5531704426 4290813472
-0.2771623135 -0.1457202137 0.5524234772 4291208230
-0.2776602507 -0.1453671306 0.5534159541 4291142437
-0.2772848308 -0.1445565224 0.5526676774 4291142437
-0.2773457468 -0.1439740956 0.5527890921 4291274023
-0.2774064839 -0.1433912963 0.5529100895 4291339816
-0.2774669528 -0.1428081095 0.5530306697 4291471402
-0.2770901918 -0.1420005560 0.5522797108 4291602988
-0.2771501541 -0.1414175332 0.5523992181 4291537195
-0.2772098780 -0.1408341229 0.5525182486 4291340588
-0.2772693932 -0.1402503401 0.5526368618 4291340588
-0.2773286700 -0.1396661848 0.5527550578 4291472687
-0.2773877382 -0.1390816420 0.5528727770 4291538480
-0.2774465978 -0.1384967417 0.5529900789 4291604273
-0.2775052190 -0.1379114687 0.5531069040 4291735859
-0.2780014277 -0.1375424266 0.5540959239 4291867702
-0.2780596912 -0.1369554847 0.5542120337 4291867702
-0.2781177163 -0.1363681704 0.5543277264 4291801909
-0.2781755328 -0.1357804984 0.5544430017 4291933495
-0.2782331407 -0.1351924539 0.5545578003 4291868472
-0.2787287533 -0.1348160207 0.5555456281 4291802679
-0.2787859738 -0.1342263222 0.5556596518 4291802680
-0.2788429856 -0.1336362660 0.5557732582 4291868473
-0.2793382704 -0.1332550347 0.5567604899 4292131645
-0.2798335254 -0.1328715831 0.5577475429 4292329024
-0.2798900008 -0.1322785914 0.5578601360 4292263230
-0.2803850770 -0.1318916231 0.5588468909 4292329023
-0.2804411948 -0.1312969923 0.5589587092 4292263231
-0.2804970741 -0.1307019889 0.5590701103 4292197438
-0.2809917629 -0.1303102374 0.5600561500 4292263231
-0.2810472846 -0.1297135949 0.5601667762 4292263231
-0.2815417945 -0.1293183416 0.5611523986 4292197697
-0.2824755311 -0.1291216910 0.5630134940 4292329283
-0.2820912004 -0.1283213049 0.5622474551 4292329283
-0.2825854421 -0.1279203445 0.5632324815 4292592455
-0.2826400399 -0.1273191422 0.5633413196 4292658250
-0.2831340432 -0.1269146651 0.5643259287 4292460871
-0.2836279869 -0.1265079826 0.5653104186 4292394824
-0.2836820185 -0.1259038597 0.5654181838 4292460617
-0.2841757536 -0.1254936755 0.5664022565 4292461385
-0.2842293978 -0.1248879358 0.5665091872 4292592971
-0.2842828333 -0.1242818609 0.5666156411 4292593233
-0.2847761512 -0.1238668859 0.5675989389 4292593233
-0.2848291695 -0.1232591867 0.5677046180 4292724308
-0.2853222787 -0.1228407174 0.5686873794 4292724308
-0.2862556577 -0.1226086617 0.5705478191 4292920920
-0.2867486775 -0.1221848205 0.5715304613 4292986713
-0.2872416079 -0.1217587590 0.5725129247 4292921436
-0.2877344489 -0.1213304773 0.5734952688 4292987229
-0.2886679471 -0.1210848391 0.5753557682 4292921697
-0.2891606987 -0.1206511706 0.5763379335 4292855904
-0.2900942266 -0.1203982681 0.5781985521 4292856682
-0.2905868590 -0.1199592203 0.5791804790 4293054061
-0.2910794318 -0.1195179522 0.5801622272 4292923515
-0.2920129895 -0.1192546114 0.5820229650 4293120894
-0.2929466367 -0.1189871579 0.5838838220 4293252236
-0.2938803136 -0.1187155917 0.5857447982 4293318029
-0.2948140502 -0.1184399128 0.5876058936 4293121181
-0.2957478464 -0.1181601211 0.5894670486 4293713318
-0.3108375669 -0.1865539998 0.6209175587 4286743422
-0.3109148443 -0.1859103143 0.6210718751 4286537229
-0.3101268113 -0.1847508103 0.6194977760 4287326745
-0.3093381524 -0.1835944206 0.6179223061 4288378379
-0.3068178296 -0.1814176142 0.6128877997 4289365274
-0.3029974103 -0.1784861833 0.6052563190 4290024475
-0.2965771556 -0.1740459651 0.5924314260 4290616612
-0.2858228087 -0.1671004444 0.5709490180 4290747681
-0.2858922780 -0.1665065289 0.5710877180 4290681888
-0.2816287577 -0.1633983552 0.5625711083 4290550302
-0.2790964544 -0.1613096893 0.5575126410 4290747681
-0.2774296403 -0.1597305983 0.5541831255 4291208232
-0.2766290009 -0.1586556584 0.5525837541 4291668783
-0.2762613893 -0.1578316838 0.5518494248 4291866162
-0.2754595876 -0.1567622274 0.5502477884 4291800369
-0.2750910521 -0.1559419632 0.5495116115 4291668783
-0.2751561105 -0.1553681493 0.5496415496 4291602990
-0.2756550610 -0.1550380737 0.5506382585 4291734574
-0.2757197917 -0.1544625461 0.5507675409 4291339816
-0.2762186229 -0.1541289538 0.5517640114 4291208230
-0.2762830555 -0.1535517126 0.5518926978 4291339816
-0.2763472497 -0.1529740542 0.5520209670 4291208230
-0.2764112353 -0.1523960084 0.5521487594 4291010851
-0.2769097388 -0.1520562619 0.5531445742 4290813472
-0.2769733965 -0.1514764875 0.5532717109 4290616093
-0.2766019404 -0.1506594419 0.5525297523 4290550302
-0.2771000862 -0.1503157765 0.5535247922 4290681888
-0.2771631181 -0.1497348100 0.5536506772 4290747681
-0.2772259116 -0.1491534561 0.5537761450 4290813474
-0.2768532038 -0.1483384669 0.5530316234 4290879265
-0.2769154906 -0.1477572471 0.5531560183 4290879265
-0.2769775391 -0.1471756250 0.5532799959 4290879265
-0.2770393789 -0.1465936154 0.5534035563 4290813472
-0.2771010101 -0.1460112184 0.5535266399 4291076644
-0.2771624327 -0.1454284340 0.5536493063 4291142437
-0.2767877281 -0.1446175128 0.5529008508 4291208230
-0.2768486142 -0.1440348774 0.5530224442 4291339816
-0.2769092619 -0.1434518397 0.5531436205 4291405609
-0.2769697011 -0.1428684294 0.5532643199 4291537195
-0.2770299017 -0.1422846466 0.5533846021 4291602988
-0.2766535282 -0.1414773315 0.5526327491 4291537195
-0.2767132223 -0.1408936977 0.5527520180 4291406381
-0.2767726779 -0.1403096914 0.5528707504 4291406381
-0.2768318951 -0.1397253126 0.5529890656 4291603760
-0.2768909335 -0.1391405612 0.5531069636 4291735346
-0.2769497037 -0.1385554224 0.5532243848 4291669811
-0.2774451971 -0.1381875426 0.5542141795 4291801397
-0.2775036395 -0.1376007497 0.5543308854 4291867190
-0.2775618434 -0.1370135844 0.5544471741 4291867190
-0.2780570388 -0.1366408914 0.5554363728 4291801910
-0.2781148851 -0.1360520720 0.5555519462 4291867703
-0.2781725228 -0.1354628652 0.5556670427 4291933496
-0.2782299221 -0.1348733157 0.5557817221 4291999289
-0.2787246406 -0.1344945282 0.5567699671 4291868473
-0.2787816823 -0.1339033097 0.5568838716 4291868473
-0.2792762220 -0.1335210055 0.5578717589 4292065852
-0.2793329060 -0.1329281479 0.5579850078 4292263231
-0.2798272669 -0.1325423419 0.5589724779 4292197697
-0.2798835635 -0.1319478154 0.5590849519 4292263490
-0.2803777158 -0.1315585077 0.5600720644 4292197697
-0.2804336250 -0.1309623420 0.5601837635 4292197697
-0.2804893255 -0.1303658187 0.5602949858 4292263492
-0.2809831202 -0.1299717128 0.5612814426 4292197699
-0.2814768851 -0.1295753717 0.5622677207 4292197697
-0.2819705606 -0.1291768253 0.5632538795 4292263490
-0.2820255756 -0.1285760999 0.5633637905 4292132420
-0.2820803821 -0.1279750019 0.5634732246 4292395592
-0.2821349204 -0.1273735762 0.5635821819 4292723789
-0.2826280892 -0.1269689500 0.5645673275 4292592203
-0.2831211984 -0.1265621036 0.5655522943 4292460617
-0.2831752002 -0.1259577572 0.5656601787 4292460617
-0.2836680710 -0.1255474091 0.5666447282 4292461387
-0.2837216854 -0.1249414310 0.5667518377 4292527180
-0.2842143178 -0.1245275810 0.5677359104 4292593235
-0.2842675447 -0.1239199862 0.5678422451 4292593235
-0.2847599685 -0.1235026345 0.5688258410 4292724310
-0.2852523029 -0.1230830699 0.5698093176 4292790103
-0.2857445478 -0.1226612777 0.5707926750 4292986713
-0.2862367332 -0.1222372726 0.5717757940 4293052506
-0.2867288291 -0.1218110472 0.5727587938 4292987231
-0.2876606882 -0.1215684861 0.5746202469 4292987231
-0.2881526947 -0.1211368740 0.5756030679 4292856163
-0.2890846133 -0.1208870411 0.5774646401 4292856163
-0.2895765305 -0.1204500496 0.5784472227 4292856684
-0.2905085087 -0.1201929450 0.5803089142 4293119856
-0.2910003066 -0.1197505593 0.5812913179 4292989054
-0.2919323444 -0.1194861755 0.5831531286 4293120640
-0.2928644121 -0.1192176789 0.5850149989 4293055627
-0.2933560908 -0.1187667400 0.5859971642 4293253006
-0.2947287560 -0.1186683401 0.5887391567 4293121959
-0.2965422571 -0.1187403649 0.5923617482 4293911475
-0.3094134033 -0.1861121655 0.6194469929 4287466891
-0.3094903827 -0.1854700595 0.6196011305 4286800662
-0.3091354072 -0.1845696718 0.6188904047 4287392799
-0.3079162240 -0.1831568629 0.6164496541 4288050185
-0.3058322668 -0.1812369674 0.6122775674 4288773908
-0.3024508059 -0.1785603464 0.6055077910 4289629719
-0.2964743376 -0.1743725091 0.5935429335 4290419235
-0.2900624275 -0.1699561030 0.5807062387 4290485024
-0.2853766680 -0.1665758044 0.5713253617 4290287645
-0.2811208963 -0.1634663790 0.5628052950 4290352923
-0.2785932124 -0.1613768786 0.5577448606 4290484509
-0.2769294977 -0.1597971618 0.5544140339 4290945060
-0.2761303186 -0.1587217897 0.5528141260 4291537197
-0.2753305435 -0.1576496363 0.5512129068 4291800369
-0.2753961384 -0.1570746154 0.5513442755 4291800369
-0.2750284374 -0.1562531292 0.5506081581 4291734576
-0.2750935256 -0.1556781977 0.5507384539 4291668783
-0.2751584053 -0.1551028639 0.5508683324 4291537195
-0.2756565213 -0.1547704786 0.5518655777 4291274023
-0.2757210732 -0.1541934311 0.5519948006 4291142437
-0.2762190700 -0.1538574994 0.5529917479 4291274023
-0.2762832940 -0.1532787234 0.5531203747 4291208230
-0.2763473392 -0.1526995599 0.5532485843 4291010851
-0.2764111459 -0.1521199793 0.5533763766 4290813472
-0.2769087851 -0.1517778933 0.5543726087 4290616093
-0.2769722939 -0.1511966139 0.5544997454 4290484509
-0.2770355642 -0.1506149173 0.5546264052 4290616095
-0.2770986259 -0.1500328332 0.5547526479 4290747681
-0.2771614790 -0.1494503468 0.5548784733 4290813474
-0.2767895758 -0.1486341357 0.5541339517 4290879265
-0.2768518925 -0.1480517834 0.5542587042 4290879265
-0.2769140005 -0.1474690288 0.5543830395 4290879265
-0.2769758701 -0.1468858868 0.5545068979 4290879265
-0.2770375311 -0.1463023573 0.5546303391 4291010851
-0.2770989835 -0.1457184404 0.5547533631 4291142437
-0.2767251134 -0.1449062824 0.5540048480 4291208230
-0.2767859995 -0.1443224996 0.5541267991 4291274023
-0.2768467069 -0.1437383443 0.5542483330 4291339816
-0.2769071758 -0.1431538016 0.5543693900 4291405609
-0.2765319347 -0.1423446983 0.5536181927 4291471402
-0.2765918672 -0.1417603046 0.5537381768 4291602988
-0.2766515911 -0.1411755383 0.5538576841 4291406126
-0.2767110765 -0.1405903995 0.5539768338 4291537712
-0.2767703533 -0.1400048733 0.5540955067 4291735091
-0.2768294215 -0.1394189745 0.5542137027 4291866677
-0.2768882513 -0.1388326883 0.5543314815 4291867190
-0.2769468427 -0.1382460445 0.5544487834 4291867190
-0.2770052254 -0.1376590282 0.5545656681 4291735604
-0.2774997056 -0.1372874975 0.5555556417 4291669811
-0.2779941559 -0.1369137466 0.5565454960 4291801910
-0.2784885466 -0.1365377754 0.5575352907 4291867703
-0.2785462737 -0.1359464973 0.5576508641 4291999289
-0.2786038220 -0.1353548616 0.5577660799 4292196668
-0.2786611021 -0.1347628534 0.5578807592 4292262461
-0.2791550457 -0.1343807876 0.5588696599 4292196668
-0.2792119682 -0.1337871104 0.5589836240 4292065852
-0.2792686820 -0.1331930906 0.5590971112 4292131645
-0.2793251574 -0.1325986981 0.5592101812 4292132674
-0.2798186243 -0.1322105378 0.5601981282 4292066881
-0.2798747122 -0.1316144913 0.5603104234 4292197699
-0.2799305916 -0.1310181022 0.5604222417 4292197699
-0.2804237008 -0.1306251287 0.5614094734 4292263238
-0.2804791927 -0.1300270855 0.5615205765 4292197445
-0.2809721231 -0.1296306103 0.5625073910 4292066627
-0.2814649642 -0.1292319149 0.5634940863 4292000834
-0.2819577456 -0.1288309991 0.5644806623 4292066629
-0.2820125520 -0.1282287389 0.5645903945 4292395594
-0.2820671499 -0.1276261359 0.5646996498 4292592974
-0.2821214795 -0.1270231754 0.5648084283 4292592974
-0.2826137543 -0.1266161799 0.5657939911 4292395595
-0.2831059396 -0.1262069643 0.5667793155 4292461388
-0.2831597328 -0.1256010979 0.5668870211 4292527180
-0.2836517096 -0.1251883656 0.5678719878 4292461387
-0.2837051153 -0.1245808750 0.5679788589 4292527442
-0.2841968536 -0.1241646484 0.5689633489 4292593235
-0.2846885026 -0.1237461939 0.5699476600 4292724310
-0.2851800919 -0.1233255267 0.5709317923 4292790103
-0.2856715918 -0.1229026392 0.5719158053 4292986713
-0.2861630321 -0.1224775240 0.5728996396 4293052506
-0.2866543531 -0.1220501959 0.5738832951 4292987231
-0.2875846624 -0.1218066067 0.5757457614 4292987231
-0.2880759239 -0.1213738844 0.5767292380 4292922210
-0.2890062928 -0.1211230233 0.5785918832 4292922210
-0.2894974649 -0.1206849143 0.5795751810 4292856682
-0.2899885178 -0.1202445850 0.5805582404 4293054061
-0.2909189165 -0.1199832708 0.5824209452 4292989308
-0.2918494046 -0.1197178513 0.5842838287 4293055101
-0.2923403382 -0.1192689538 0.5852666497 4292989834
-0.2932708561 -0.1189962476 0.5871295333 4293187213
-0.2950809598 -0.1190743297 0.5907533765 4293253551
-0.2964515686 -0.1189680025 0.5934973359 4294043067
-0.3079916835 -0.1856698394 0.6179747581 4289504934
-0.3076375127 -0.1847705096 0.6172641516 4288185164
-0.3077138662 -0.1841303706 0.6174173355 4287658820
-0.3064967394 -0.1827187985 0.6149752736 4287326723
-0.3048475981 -0.1810560375 0.6116663218 4287787274
-0.3014721870 -0.1783792377 0.6048936844 4289760537
-0.2963692844 -0.1746991873 0.5946548581 4290550053
-0.2899691463 -0.1702800840 0.5818132162 4290092313
-0.2805443704 -0.1641200930 0.5629026890 4290158106
-0.2780221403 -0.1620247811 0.5578419566 4290419484
-0.2815438807 -0.1634495109 0.5649082065 4290748449
-0.2764286995 -0.1598636508 0.5546447635 4291274023
-0.2756310403 -0.1587878764 0.5530442595 4291537195
-0.2748327255 -0.1577153057 0.5514425039 4291800367
-0.2748982906 -0.1571400762 0.5515740514 4291866160
-0.2745313048 -0.1563182771 0.5508376956 4291669805
-0.2750287652 -0.1559884101 0.5518358350 4291604012
-0.2746611536 -0.1551675946 0.5510982275 4291340840
-0.2751584053 -0.1548350900 0.5520959496 4291077668
-0.2756556571 -0.1545003802 0.5530936718 4291142437
-0.2757200599 -0.1539217979 0.5532228351 4291208230
-0.2757842243 -0.1533428133 0.5533516407 4291208230
-0.2758482099 -0.1527634263 0.5534799695 4291076644
-0.2763451040 -0.1524225473 0.5544770360 4290682910
-0.2764087319 -0.1518414468 0.5546047091 4290485531
-0.2764721811 -0.1512599438 0.5547319651 4290353691
-0.2765353918 -0.1506780386 0.5548588037 4290485277
-0.2765983939 -0.1500957310 0.5549852252 4290616863
-0.2766611576 -0.1495130360 0.5551112294 4290682656
-0.2767237425 -0.1489299387 0.5552367568 4290814242
-0.2767860889 -0.1483464539 0.5553618670 4290814242
-0.2768482268 -0.1477625668 0.5554865003 4290945058
-0.2769101560 -0.1471782923 0.5556107759 4291010851
-0.2769718468 -0.1465936303 0.5557345748 4291142437
-0.2770333290 -0.1460085660 0.5558578968 4291208230
-0.2770946026 -0.1454231292 0.5559808612 4291208230
-0.2771556377 -0.1448372900 0.5561033487 4291208230
-0.2767819464 -0.1440249681 0.5553535223 4291339816
-0.2768424749 -0.1434392780 0.5554749370 4291405609
-0.2769027352 -0.1428532153 0.5555959344 4291405609
-0.2765280306 -0.1420434266 0.5548440218 4291405609
-0.2765877843 -0.1414575130 0.5549639463 4291537967
-0.2766472995 -0.1408712268 0.5550833941 4291406381
-0.2767066061 -0.1402845532 0.5552023649 4291406381
-0.2767657042 -0.1396975070 0.5553209186 4291669553
-0.2768245637 -0.1391100883 0.5554390550 4291867445
-0.2768832147 -0.1385222971 0.5555567145 4291867445
-0.2769416273 -0.1379341185 0.5556738973 4291670324
-0.2774353623 -0.1375615299 0.5566645861 4291604531
-0.2774934173 -0.1369716972 0.5567810535 4291736633
-0.2779869735 -0.1365955919 0.5577713847 4291934012
-0.2780446708 -0.1360040903 0.5578871369 4292065598
-0.2781021297 -0.1354122311 0.5580024719 4292065598
-0.2785953581 -0.1350313127 0.5589920878 4292000320
-0.2786524594 -0.1344377846 0.5591067076 4291934527
-0.2787093520 -0.1338438839 0.5592207909 4292000320
-0.2787660062 -0.1332496256 0.5593344569 4292066113
-0.2792587578 -0.1328626126 0.5603231788 4292263231
-0.2793150544 -0.1322667003 0.5604361296 4292197438
-0.2793710828 -0.1316704303 0.5605485439 4292197697
-0.2798635066 -0.1312786043 0.5615366101 4292263490
-0.2799191773 -0.1306806952 0.5616483092 4292066111
-0.2804113925 -0.1302853525 0.5626358986 4292131904
-0.2809035480 -0.1298878044 0.5636234283 4292395078
-0.2813956439 -0.1294880211 0.5646107793 4292263492
-0.2814506590 -0.1288858801 0.5647211075 4292065859
-0.2815054059 -0.1282833815 0.5648310184 4292329031
-0.2815599442 -0.1276805550 0.5649403930 4292790353
-0.2820515335 -0.1272746772 0.5659267306 4292329802
-0.2821056545 -0.1266702116 0.5660353899 4292395854
-0.2825970054 -0.1262608320 0.5670212507 4292330061
-0.2826507688 -0.1256547272 0.5671291351 4292724306
-0.2831418812 -0.1252418458 0.5681145787 4292526927
-0.2836329639 -0.1248267442 0.5690998435 4292526411
-0.2836861610 -0.1242177263 0.5692065954 4292789583
-0.2841769755 -0.1237991154 0.5701913834 4292724055
-0.2851056755 -0.1235681027 0.5720548034 4292789848
-0.2855964005 -0.1231441125 0.5730394721 4292986710
-0.2860870659 -0.1227178946 0.5740239620 4292986710
-0.2865776718 -0.1222894564 0.5750082731 4292986710
-0.2875064313 -0.1220448390 0.5768718123 4293184089
-0.2879969180 -0.1216110066 0.5778560042 4292855655
-0.2889257371 -0.1213591099 0.5797196627 4292921448
-0.2894161344 -0.1209198907 0.5807036161 4292659832
-0.2899064422 -0.1204784438 0.5816873908 4292988797
-0.2903966308 -0.1200347692 0.5826709270 4292923522
-0.2913255095 -0.1197692528 0.5845346451 4292923522
-0.2922544181 -0.1194996163 0.5863984823 4293252490
-0.2936222851 -0.1194043383 0.5891430974 4293449869
-0.2949903309 -0.1193030477 0.5918880701 4292666308
-0.3065723777 -0.1852270067 0.6165008545 4290163895
-0.3062186837 -0.1843291372 0.6157896519 4289698411
-0.3054343760 -0.1831745803 0.6142124534 4288843102
-0.3063705862 -0.1830515265 0.6160951257 4288116239
-0.3038637936 -0.1808748245 0.6110540628 4288182032
-0.3009249866 -0.1784531474 0.6051443219 4289892889
-0.2962620258 -0.1750259995 0.5957673192 4290485026
-0.2907350957 -0.1711111963 0.5846529603 4290289688
-0.2852051854 -0.1672193557 0.5735326409 4290158102
-0.2818270028 -0.1646090001 0.5667392612 4291011621
-0.2780159116 -0.1617618501 0.5590753555 4291143207
-0.2763584256 -0.1601799726 0.5557422042 4291339816
-0.2755623460 -0.1591028720 0.5541414022 4291405609
-0.2747656703 -0.1580289751 0.5525392890 4291602988
-0.2743998170 -0.1572054625 0.5518035889 4291734574
-0.2744650841 -0.1566296220 0.5519348383 4291603758
-0.2745301723 -0.1560533792 0.5520656705 4291603758
-0.2745950222 -0.1554767191 0.5521961451 4291143207
-0.2750915289 -0.1551432014 0.5531945825 4290945828
-0.2751560807 -0.1545648128 0.5533243418 4291076644
-0.2756524682 -0.1542277634 0.5543226004 4291076644
-0.2757166922 -0.1536476612 0.5544517040 4291076644
-0.2757806778 -0.1530671567 0.5545804501 4290945058
-0.2762768269 -0.1527252495 0.5555781722 4290682910
-0.2763405144 -0.1521430165 0.5557062030 4290485531
-0.2764039934 -0.1515603960 0.5558338761 4290616093
-0.2764672339 -0.1509773582 0.5559610724 4290681886
-0.2765302658 -0.1503939331 0.5560878515 4290681886
-0.2765930891 -0.1498101056 0.5562141538 4290747679
-0.2766557038 -0.1492258757 0.5563400388 4290945058
-0.2767181098 -0.1486412585 0.5564655066 4291010851
-0.2767802775 -0.1480562389 0.5565905571 4291076644
-0.2768422365 -0.1474708319 0.5567151308 4291142437
-0.2764706314 -0.1466551721 0.5559678674 4291077416
-0.2769654691 -0.1462988406 0.5569629669 4291077416
-0.2765932381 -0.1454842240 0.5562144518 4291077416
-0.2766542435 -0.1448981762 0.5563370585 4291143209
-0.2767150104 -0.1443117261 0.5564593077 4291143209
-0.2767755389 -0.1437249035 0.5565810204 4291274795
-0.2764019668 -0.1429133415 0.5558297634 4291274795
-0.2764619589 -0.1423266679 0.5559504628 4291274795
-0.2765217423 -0.1417396218 0.5560706854 4291472174
-0.2765813172 -0.1411521882 0.5561904907 4291472174
-0.2766406536 -0.1405643672 0.5563098192 4291406894
-0.2766997814 -0.1399761736 0.5564286709 4291538480
-0.2767587006 -0.1393876076 0.5565471649 4291801397
-0.2768173516 -0.1387986690 0.5566651225 4291867190
-0.2768758237 -0.1382093430 0.5567826629 4291801912
-0.2769340575 -0.1376196593 0.5568997860 4291867705
-0.2774268985 -0.1372447163 0.5578908324 4291736633
-0.2774847448 -0.1366533637 0.5580072403 4291868219
-0.2775424123 -0.1360616386 0.5581231713 4291999807
-0.2780349255 -0.1356818676 0.5591136217 4292065600
-0.2780922055 -0.1350884885 0.5592287779 4292066113
-0.2781492472 -0.1344947219 0.5593435168 4292066113
-0.2786414623 -0.1341101527 0.5603333116 4292000066
-0.2786981463 -0.1335147321 0.5604472756 4292065859
-0.2791901529 -0.1331266463 0.5614367127 4292197184
-0.2788108289 -0.1323228180 0.5606738925 4292131391
-0.2793025374 -0.1319321394 0.5616627336 4292131906
-0.2793583870 -0.1313343495 0.5617750287 4292197699
-0.2798499167 -0.1309401542 0.5627634525 4292066113
-0.2799054086 -0.1303407252 0.5628749728 4292197699
-0.2803966999 -0.1299430132 0.5638630390 4292394824
-0.2808879614 -0.1295430809 0.5648509264 4292197445
-0.2813791633 -0.1291409284 0.5658386350 4291934274
-0.2814339399 -0.1285372674 0.5659488440 4292263239
-0.2814885080 -0.1279332638 0.5660585761 4292658513
-0.2815428376 -0.1273288876 0.5661678314 4292263755
-0.2820335031 -0.1269206554 0.5671545267 4292461136
-0.2820874453 -0.1263146549 0.5672630072 4292329550
-0.2825778723 -0.1259029061 0.5682492256 4292526927
-0.2826314270 -0.1252952665 0.5683569312 4292395341
-0.2831216455 -0.1248800159 0.5693427324 4292526927
-0.2836117744 -0.1244625300 0.5703283548 4292658513
-0.2841018438 -0.1240428239 0.5713138580 4292724055
-0.2845918238 -0.1236208975 0.5722991824 4292789848
-0.2855189741 -0.1233856902 0.5741636157 4292855896
-0.2860088944 -0.1229583696 0.5751488209 4292790103
-0.2864987254 -0.1225288212 0.5761337876 4292789848
-0.2869884372 -0.1220970526 0.5771186352 4292921434
-0.2874780893 -0.1216630563 0.5781033039 4292855915
-0.2884052992 -0.1214110702 0.5799678564 4292921708
-0.2888948619 -0.1209716797 0.5809523463 4292725882
-0.2898221016 -0.1207124069 0.5828170180 4292989054
-0.2903115451 -0.1202676222 0.5838012695 4292924293
-0.2912388742 -0.1200010553 0.5856660008 4293055879
-0.2926042378 -0.1199098825 0.5884117484 4293384341
-0.2939698398 -0.1198126897 0.5911579132 4293581720
-0.3052316010 -0.1841462553 0.6151787043 4289830777
-0.3048780859 -0.1832502633 0.6144661903 4289370226
-0.3040946126 -0.1820983738 0.6128871441 4289300772
-0.3024512529 -0.1804370135 0.6095750332 4289103393
-0.3003771007 -0.1785269827 0.6053946614 4290287645
-0.2961525321 -0.1753529459 0.5968802571 4290353438
-0.2910657525 -0.1716892719 0.5866280794 4290684446
-0.2855461836 -0.1677940488 0.5755037069 4290684446
-0.2830347121 -0.1656844467 0.5704419613 4291274793
-0.2783704996 -0.1623307317 0.5610415339 4291209000
-0.2767162919 -0.1607464254 0.5577075481 4291274025
-0.2754914761 -0.1594180167 0.5552389622 4291274025
-0.2746964097 -0.1583428085 0.5536365509 4291339818
-0.2743313909 -0.1575180739 0.5529008508 4291405611
-0.2743966877 -0.1569411159 0.5530325174 4291274793
-0.2744618058 -0.1563637555 0.5531637073 4291340586
-0.2745267153 -0.1557859778 0.5532945395 4291077414
-0.2745913863 -0.1552077979 0.5534248948 4291011621
-0.2750870287 -0.1548719406 0.5544238687 4291142439
-0.2751514018 -0.1542920321 0.5545535684 4291076646
-0.2756469250 -0.1539526433 0.5555523038 4290945060
-0.2757109702 -0.1533710212 0.5556813478 4290879267
-0.2762063742 -0.1530280858 0.5566798449 4290682656
-0.2762700915 -0.1524447352 0.5568082333 4290551070
-0.2767653763 -0.1520982683 0.5578064322 4290747679
-0.2768287659 -0.1515131891 0.5579342246 4290747679
-0.2768919468 -0.1509277225 0.5580615401 4290681886
-0.2765228450 -0.1501073092 0.5573176146 4290747679
-0.2765854597 -0.1495219469 0.5574438572 4290879267
-0.2762156427 -0.1487034857 0.5566985011 4291010853
-0.2762777507 -0.1481182575 0.5568236709 4291076646
-0.2763396502 -0.1475326270 0.5569484234 4291142439
-0.2764013112 -0.1469466090 0.5570726991 4291143209
-0.2764627635 -0.1463602036 0.5571965575 4291077416
-0.2760912776 -0.1455452740 0.5564478040 4291077416
-0.2761521935 -0.1449590027 0.5565705895 4291143209
-0.2762129009 -0.1443723440 0.5566929579 4291143209
-0.2762733996 -0.1437852979 0.5568148494 4291209002
-0.2763336599 -0.1431978643 0.5569363236 4291340588
-0.2759604752 -0.1423865110 0.5561842322 4291406381
-0.2760201991 -0.1417992413 0.5563046336 4291472432
-0.2760797143 -0.1412115842 0.5564245582 4291472432
-0.2761390209 -0.1406235546 0.5565440655 4291406639
-0.2761980593 -0.1400351375 0.5566630960 4291472432
-0.2762569189 -0.1394463480 0.5567816496 4291801399
-0.2767493129 -0.1390751749 0.5577740669 4291932985
-0.2768077850 -0.1384847015 0.5578919649 4291933498
-0.2768660486 -0.1378938556 0.5580093861 4291999291
-0.2769241035 -0.1373026520 0.5581263304 4291736635
-0.2769819200 -0.1367110610 0.5582428575 4291802428
-0.2774737477 -0.1363324672 0.5592340827 4291868223
-0.2775311768 -0.1357392222 0.5593498945 4291999809
-0.2775883973 -0.1351456046 0.5594652295 4292197445
-0.2776454091 -0.1345516145 0.5595800877 4292131652
-0.2781367600 -0.1341668963 0.5605704188 4292000066
-0.2781933844 -0.1335712522 0.5606845617 4292000066
-0.2786845565 -0.1331830174 0.5616744757 4292131393
-0.2787408233 -0.1325857192 0.5617878437 4292065600
-0.2787968516 -0.1319880635 0.5619007945 4292065859
-0.2788526416 -0.1313900352 0.5620132089 4292131652
-0.2793433070 -0.1309957057 0.5630021691 4292000066
-0.2798339427 -0.1305991411 0.5639910102 4292197445
-0.2803244889 -0.1302003562 0.5649796724 4292460618
-0.2803796232 -0.1295980960 0.5650907755 4292197446
-0.2808699906 -0.1291957945 0.5660790801 4292131655
-0.2809247077 -0.1285918951 0.5661894083 4292329034
-0.2809792161 -0.1279876530 0.5662992597 4292723538
-0.2814691961 -0.1275805384 0.5672867894 4292394573
-0.2815233171 -0.1269746572 0.5673958659 4292526931
-0.2820130885 -0.1265640408 0.5683829188 4292461138
