VERSION 0.7
FIELDS x y z rgba
SIZE 4 4 4 4
TYPE F F F U
COUNT 1 1 1 1
WIDTH 920
HEIGHT 1
VIEWPOINT 0.0 0.0 0.0 1.0 0.0 0.0 0.0
POINTS 920
DATA ascii
-0.2859432995 -0.0875958577 0.5737354755 4294428380
-0.2859812975 -0.0869699568 0.5738117695 4294888931
-0.2860190570 -0.0863438025 0.5738874674 4294955497
-0.2860565484 -0.0857174098 0.5739626884 4294955497
-0.2865359485 -0.0852222815 0.5749245882 4294888931
-0.2865729630 -0.0845944211 0.5749988556 4294165208
-0.2866097093 -0.0839663297 0.5750726461 4294033881
-0.2870885730 -0.0834665969 0.5760334134 4294033881
-0.2875672579 -0.0829646885 0.5769938827 4294296542
-0.2876033187 -0.0823339298 0.5770662427 4294559714
-0.2876391113 -0.0817029402 0.5771380663 4294558683
-0.2876746655 -0.0810717121 0.5772093534 4294690269
-0.2872672975 -0.0803164914 0.5763919950 4294427096
-0.2873022258 -0.0796857774 0.5764621496 4294492889
-0.2873369157 -0.0790548250 0.5765317082 4293902036
-0.2873713374 -0.0784236491 0.5766007900 4294099415
-0.2874054611 -0.0777922422 0.5766692758 4294429407
-0.2874393463 -0.0771606192 0.5767372251 4294560993
-0.2874729633 -0.0765287653 0.5768046975 4294757602
-0.2875063121 -0.0758966953 0.5768715739 4294428637
-0.2879824042 -0.0753803775 0.5778269172 4294229979
-0.2884583771 -0.0748618916 0.5787819028 4294295772
-0.2884910107 -0.0742272213 0.5788473487 4294230747
-0.2885233760 -0.0735923350 0.5789122581 4293967575
-0.2885554433 -0.0729572326 0.5789766908 4293704916
-0.2881439626 -0.0722108334 0.5781510472 4294428639
-0.2881754637 -0.0715762898 0.5782142878 4294955240
-0.2886500955 -0.0710506812 0.5791665912 4294428639
-0.2886810899 -0.0704147443 0.5792287588 4294428126
-0.2887118459 -0.0697786063 0.5792904496 4294493919
-0.2887423038 -0.0691422671 0.5793515444 4294361817
-0.2892160714 -0.0686109588 0.5803021789 4294756575
-0.2896896601 -0.0680774972 0.5812523961 4294889188
-0.2897193730 -0.0674386024 0.5813120604 4294560223
-0.2901925743 -0.0669018105 0.5822615027 4294430177
-0.2902217805 -0.0662615523 0.5823200941 4294824935
-0.2902507484 -0.0656211004 0.5823782086 4294956775
-0.2902794182 -0.0649804547 0.5824357271 4294890468
-0.2903078198 -0.0643396229 0.5824927092 4294430432
-0.2907798886 -0.0637959987 0.5834398866 4293838295
-0.2912517488 -0.0632502288 0.5843867064 4293968855
-0.2912794054 -0.0626068786 0.5844421983 4294560992
-0.2913067937 -0.0619633459 0.5844971538 4294889441
-0.2917779982 -0.0614131056 0.5854426026 4294955491
-0.2922489941 -0.0608607270 0.5863876343 4294498020
-0.3026503623 -0.2153156400 0.6086139679 4291020493
-0.3014631569 -0.2137974650 0.6062265038 4289563805
-0.2998503149 -0.2119836807 0.6029831767 4289169047
-0.2965369523 -0.2089786828 0.5963201523 4290343053
-0.2910966575 -0.2044943571 0.5853800178 4289158779
-0.2877784371 -0.2015203238 0.5787072778 4287580515
-0.2874345183 -0.2006372660 0.5780156255 4288041066
-0.2862395048 -0.1991635710 0.5756125450 4289291133
-0.2854690254 -0.1979896575 0.5740631819 4289620098
-0.2851234376 -0.1971129179 0.5733682513 4290146442
-0.2843517661 -0.1959441006 0.5718163848 4290738579
-0.2840051949 -0.1950707436 0.5711194873 4290606993
-0.2840841115 -0.1944902092 0.5712782145 4289620098
-0.2841628492 -0.1939092129 0.5714365244 4288567410
-0.2842413783 -0.1933277249 0.5715944767 4289291133
-0.2838934660 -0.1924567819 0.5708948374 4290080649
-0.2839715183 -0.1918752044 0.5710517168 4290146442
-0.2840493619 -0.1912931502 0.5712082982 4290409614
-0.2837003767 -0.1904242635 0.5705065131 4290541200
-0.2837777138 -0.1898421347 0.5706620216 4290738577
-0.2830011547 -0.1886903197 0.5691004395 4290343819
-0.2830778956 -0.1881089807 0.5692546964 4290540684
-0.2818731666 -0.1866786331 0.5668320656 4290803856
-0.2819491327 -0.1860989928 0.5669848919 4289816707
-0.2815976143 -0.1852377951 0.5662779808 4288895605
-0.2812456787 -0.1843778938 0.5655702353 4290540173
-0.2817483544 -0.1840779483 0.5665811300 4292382377
-0.2813957930 -0.1832188666 0.5658721328 4293172150
-0.2810427845 -0.1823610961 0.5651622415 4293040564
-0.2806893885 -0.1815046221 0.5644515753 4292251048
-0.2807635367 -0.1809252501 0.5646006465 4291000981
-0.2808374763 -0.1803454310 0.5647493601 4290869395
-0.2809112370 -0.1797651500 0.5648976564 4291856290
-0.2805564404 -0.1789112687 0.5641842484 4293172150
-0.2806296945 -0.1783309579 0.5643315315 4293764287
-0.2798456252 -0.1772074401 0.5627548099 4293501885
-0.2799182236 -0.1766280085 0.5629008412 4293041334
-0.2799906433 -0.1760481149 0.5630464554 4293896643
-0.2796339691 -0.1751990616 0.5623291731 4294357194
-0.2792768776 -0.1743513495 0.5616111159 4293699264
-0.2789193690 -0.1735049635 0.5608921647 4293962436
-0.2785614431 -0.1726599187 0.5601723790 4294820315
-0.2786324024 -0.1720813513 0.5603150725 4294952929
-0.2787031829 -0.1715023518 0.5604574084 4294953185
-0.2783441842 -0.1706595421 0.5597354770 4294952928
-0.2784144282 -0.1700805426 0.5598767996 4294952417
-0.2784844935 -0.1695011258 0.5600176454 4294886367
-0.2776946127 -0.1683999002 0.5584292412 4294689242
-0.2777640224 -0.1678213924 0.5585688353 4294952671
-0.2774031758 -0.1669835597 0.5578431487 4294886621
-0.2779022753 -0.1666630656 0.5588468313 4294953185
-0.2775407732 -0.1658261716 0.5581198931 4294821344
-0.2771788836 -0.1649906337 0.5573921204 4294755551
-0.2768165469 -0.1641564667 0.5566635132 4294821344
-0.2768844366 -0.1635780782 0.5568000078 4294887137
-0.2769520879 -0.1629992574 0.5569360852 4294952928
-0.2770195603 -0.1624200195 0.5570717454 4294887135
-0.2770867944 -0.1618403494 0.5572069883 4294755549
-0.2771538496 -0.1612602621 0.5573418140 4294953185
-0.2767895460 -0.1604298651 0.5566092134 4294953187
-0.2768560648 -0.1598498374 0.5567429662 4294558172
-0.2769223750 -0.1592693925 0.5568763614 4294689758
-0.2769885063 -0.1586885452 0.5570092797 4294887137
-0.2766228318 -0.1578609943 0.5562739372 4294952928
-0.2766884267 -0.1572802067 0.5564058423 4294623449
-0.2767537832 -0.1566990167 0.5565372705 4294162898
-0.2768189609 -0.1561174095 0.5566683412 4294097105
-0.2764519453 -0.1552927494 0.5559303164 4294360023
-0.2765165865 -0.1547112316 0.5560602546 4294688988
-0.2765809894 -0.1541293114 0.5561898351 4294754781
-0.2766452134 -0.1535469890 0.5563189387 4294162644
-0.2767091990 -0.1529642493 0.5564476252 4293767627
-0.2767729759 -0.1523811221 0.5565758944 4294359764
-0.2768365443 -0.1517975777 0.5567036867 4294295513
-0.2773325443 -0.1514499038 0.5577011704 4294295513
-0.2769630253 -0.1506292969 0.5569580793 4294097619
-0.2774588168 -0.1502790004 0.5579550266 4293637068
-0.2775216103 -0.1496929377 0.5580813289 4293768654
-0.2775841951 -0.1491064876 0.5582072139 4294426584
-0.2776465714 -0.1485196501 0.5583326221 4294756575
-0.2777087092 -0.1479324102 0.5584576130 4294954468
-0.2773373127 -0.1471149027 0.5577107072 4294955240
-0.2773989141 -0.1465277970 0.5578346252 4294954212
-0.2778938413 -0.1461683214 0.5588299036 4294689242
-0.2779551148 -0.1455795169 0.5589531064 4294491863
-0.2780161798 -0.1449903101 0.5590758920 4294426584
-0.2780770063 -0.1444007307 0.5591982007 4294426584
-0.2781375945 -0.1438107640 0.5593200922 4294624476
-0.2777639925 -0.1429969668 0.5585687160 4294558683
-0.2778240442 -0.1424071491 0.5586895347 4294492377
-0.2783181071 -0.1420385391 0.5596830249 4294229205
-0.2783778012 -0.1414470375 0.5598031282 4294031826
-0.2780029178 -0.1406354010 0.5590492487 4294229205
-0.2776276469 -0.1398252398 0.5582945347 4294360791
-0.2776865065 -0.1392344534 0.5584129095 4294426584
-0.2777451277 -0.1386432946 0.5585308075 4294689242
-0.2778035402 -0.1380517483 0.5586482882 4294623449
-0.2778617144 -0.1374598294 0.5587652922 4293899726
-0.2779196799 -0.1368675530 0.5588818789 4293307589
-0.2779774070 -0.1362748891 0.5589979291 4293372869
-0.2780349255 -0.1356818676 0.5591136217 4293767627
-0.2780922055 -0.1350884885 0.5592287779 4294096592
-0.2781492472 -0.1344947219 0.5593435168 4294622936
-0.2782060802 -0.1339005977 0.5594577789 4294952414
-0.2782626748 -0.1333061159 0.5595715642 4294886621
-0.2783190310 -0.1327112764 0.5596849322 4294952928
-0.2783751786 -0.1321160644 0.5597978234 4294952928
-0.2784310877 -0.1315204948 0.5599102378 4294886367
-0.2784867585 -0.1309245676 0.5600222349 4294623195
-0.2785422206 -0.1303282827 0.5601336956 4294031058
-0.2785974145 -0.1297316551 0.5602447391 4293175749
-0.2786523998 -0.1291346550 0.5603553057 4292847038
-0.2787071466 -0.1285373122 0.5604653955 4292912831
-0.2787616849 -0.1279396266 0.5605750680 4293307076
-0.2788159549 -0.1273415685 0.5606842041 4294228178
-0.2788700163 -0.1267431825 0.5607929230 4294426070
-0.2789238393 -0.1261444390 0.5609011054 4294228691
-0.2789774239 -0.1255453527 0.5610088706 4294097105
-0.2790307701 -0.1249459162 0.5611161590 4294557656
-0.2790838778 -0.1243461445 0.5612229705 4294557143
-0.2791367471 -0.1237460226 0.5613293052 4294425557
-0.2791894078 -0.1231455654 0.5614351630 4294558170
-0.2792418003 -0.1225447729 0.5615405440 4294887135
-0.2792939842 -0.1219436377 0.5616454482 4294887135
-0.2793458998 -0.1213421673 0.5617498755 4294492377
-0.2793976068 -0.1207403615 0.5618538260 4294294998
-0.2794490457 -0.1201382279 0.5619572997 4294623963
-0.2795002759 -0.1195357516 0.5620602965 4294953185
-0.2799887359 -0.1191190779 0.5630425811 4294821342
-0.2800395489 -0.1185149997 0.5631448030 4294492377
-0.2800901234 -0.1179106012 0.5632464886 4293966033
-0.2801404595 -0.1173058748 0.5633476973 4294097105
-0.2806283534 -0.1168831661 0.5643288493 4294755035
-0.2806783020 -0.1162768379 0.5644292831 4294491863
-0.2807279825 -0.1156701893 0.5645291805 4294689242
-0.2807774246 -0.1150632277 0.5646286011 4294952928
-0.2812647521 -0.1146344915 0.5656085610 4294953699
-0.2813137770 -0.1140259430 0.5657072067 4294624735
-0.2813625932 -0.1134170666 0.5658053160 4294493149
-0.2814111412 -0.1128078774 0.5659029484 4293768654
-0.2814594209 -0.1121983752 0.5660001040 4292452794
-0.2815074921 -0.1115885600 0.5660967231 4292649146
-0.2815553248 -0.1109784320 0.5661929250 4293175490
-0.2816028893 -0.1103679985 0.5662885308 4294031826
-0.2816501856 -0.1097572520 0.5663837194 4294952928
-0.2816972733 -0.1091462001 0.5664783716 4294822114
-0.2817440927 -0.1085348353 0.5665725470 4294887907
-0.2817906737 -0.1079231724 0.5666661859 4294823138
-0.2818370163 -0.1073112115 0.5667594075 4294823138
-0.2818830907 -0.1066989452 0.5668520331 4294756062
-0.2823680639 -0.1062516198 0.5678273439 4294229718
-0.2824137211 -0.1056378037 0.5679191351 4294229207
-0.2820198536 -0.1048603505 0.5671270490 4294558172
-0.2820649445 -0.1042468995 0.5672177076 4294492892
-0.2825492024 -0.1037945673 0.5681915283 4294558685
-0.2825938463 -0.1031795740 0.5682813525 4294558683
-0.2826382518 -0.1025642827 0.5683706403 4294624476
-0.2826824188 -0.1019487083 0.5684594512 4294624478
-0.2831659913 -0.1014904380 0.5694319010 4294229720
-0.2832097113 -0.1008733287 0.5695198178 4294295513
-0.2832531929 -0.1002559289 0.5696071982 4294953957
-0.2828564942 -0.0994835347 0.5688095093 4294887650
-0.2828993797 -0.0988665372 0.5688957572 4294558685
-0.2829419971 -0.0982492566 0.5689814687 4294558170
-0.2829843760 -0.0976317003 0.5690667033 4294623963
-0.2830265164 -0.0970138609 0.5691514015 4294624476
-0.2830683887 -0.0963957533 0.5692355633 4294624476
-0.2831099927 -0.0957773700 0.5693192482 4294756064
-0.2831513584 -0.0951587111 0.5694024563 4294887650
-0.2831924558 -0.0945397839 0.5694850683 4294690781
-0.2832332850 -0.0939205959 0.5695672035 4294493402
-0.2832738757 -0.0933011323 0.5696488619 4294098131
-0.2833141983 -0.0926814005 0.5697299242 4293177029
-0.2837949693 -0.0922045857 0.5706967115 4292649658
-0.2833940983 -0.0914411619 0.5698906183 4292781244
-0.2838744521 -0.0909618884 0.5708565712 4293044417
-0.2843546867 -0.0904804319 0.5718222857 4292781245
-0.2843938470 -0.0898574740 0.5719010234 4294031312
-0.2844327390 -0.0892342553 0.5719792247 4294952414
-0.2844713926 -0.0886107758 0.5720569491 4294492890
-0.2845097482 -0.0879870504 0.5721341372 4294229718
-0.2845478952 -0.0873630717 0.5722107887 4294493403
-0.2845857441 -0.0867388472 0.5722869039 4294888161
-0.2846233249 -0.0861143693 0.5723625422 4294954981
-0.2846606672 -0.0854896456 0.5724376440 4294954981
-0.2846977413 -0.0848646760 0.5725121498 4294955496
-0.2851760089 -0.0843700692 0.5734739304 4294955239
-0.2852126062 -0.0837436467 0.5735475421 4294954983
-0.2856905162 -0.0832456499 0.5745085478 4294757604
-0.2861682475 -0.0827454701 0.5754693151 4294560995
-0.2862041891 -0.0821163878 0.5755415559 4294626788
-0.2862398326 -0.0814870745 0.5756132603 4294757345
-0.2862752378 -0.0808575228 0.5756844282 4294559966
-0.2863103747 -0.0802277401 0.5757550597 4294690782
-0.2863452137 -0.0795977265 0.5758251548 4294888161
-0.2863798141 -0.0789674819 0.5758947134 4294757345
-0.2864141464 -0.0783370063 0.5759637356 4294691552
-0.2864482105 -0.0777063072 0.5760322809 4294691298
-0.2864820063 -0.0770753920 0.5761002302 4294625505
-0.2865155339 -0.0764442459 0.5761676431 4294756575
-0.2869910002 -0.0759298727 0.5771237612 4294559196
-0.2870240211 -0.0752973184 0.5771902204 4294361565
-0.2870568037 -0.0746645406 0.5772560835 4294295772
-0.2870892882 -0.0740315542 0.5773214698 4294164954
-0.2871215343 -0.0733983442 0.5773862600 4294230747
-0.2871534824 -0.0727649257 0.5774505734 4294165467
-0.2871851921 -0.0721312985 0.5775142908 4294362846
-0.2872166038 -0.0714974627 0.5775774717 4294560225
-0.2872477472 -0.0708634183 0.5776401162 4294626018
-0.2872786522 -0.0702291653 0.5777022243 4294822114
-0.2877519429 -0.0697019473 0.5786539912 4294427356
-0.2882250845 -0.0691725686 0.5796054602 4294032339
-0.2882552445 -0.0685357526 0.5796660781 4294427097
-0.2882851064 -0.0678987429 0.5797261596 4294757345
-0.2883147299 -0.0672615319 0.5797857642 4294757345
-0.2883440852 -0.0666241273 0.5798447132 4294561506
-0.2888160944 -0.0660878941 0.5807939768 4294758885
-0.2888449430 -0.0654491261 0.5808519721 4294954981
-0.2888734937 -0.0648101643 0.5809094310 4294823138
-0.2889018059 -0.0641710162 0.5809662938 4294296024
-0.2893729508 -0.0636291206 0.5819137692 4293835473
-0.2894007266 -0.0629886240 0.5819696188 4293966546
-0.2894282341 -0.0623479374 0.5820249319 4294690269
-0.2898987234 -0.0618015677 0.5829710960 4294560223
-0.2899257243 -0.0611595400 0.5830253959 4294494430
-0.2903957963 -0.0606098659 0.5839706659 4293969626
-0.2904222906 -0.0599665008 0.5840238929 4293509075
-0.2908919156 -0.0594135299 0.5849683285 4293642971
-0.2909178734 -0.0587688312 0.5850205421 4294893038
-0.3012484610 -0.2147980332 0.6071508527 4291481044
-0.3000632524 -0.2132810205 0.6047621369 4289958306
-0.2984531820 -0.2114682794 0.6015171409 4290024099
-0.2951457202 -0.2084638476 0.5948510766 4291593120
-0.2905635834 -0.2045767903 0.5856160522 4290540432
-0.2872515023 -0.2016016245 0.5789407492 4289027963
-0.2856350243 -0.1998274773 0.5756827593 4289027963
-0.2848664522 -0.1986518949 0.5741337538 4290278028
-0.2845218480 -0.1977744699 0.5734392405 4290343821
-0.2841768563 -0.1968982965 0.5727438927 4290737811
-0.2838314176 -0.1960233599 0.5720477104 4290935190
-0.2834855616 -0.1951496899 0.5713506341 4290606223
-0.2835643888 -0.1945689768 0.5715095401 4290079879
-0.2836430371 -0.1939877868 0.5716680288 4289816707
-0.2837215066 -0.1934061050 0.5718261600 4290737809
-0.2833742797 -0.1925348490 0.5711264014 4291329946
-0.2830266356 -0.1916648597 0.5704256892 4290803602
-0.2831043005 -0.1910834908 0.5705822110 4290408844
-0.2831817567 -0.1905016303 0.5707383156 4289882500
-0.2819811404 -0.1890625209 0.5683185458 4290474891
-0.2833360732 -0.1893364936 0.5710493326 4290211719
-0.2825605869 -0.1881855279 0.5694863796 4289882241
-0.2817844152 -0.1870376170 0.5679220557 4290737550
-0.2814340293 -0.1861748099 0.5672158599 4290605964
-0.2815097272 -0.1855945140 0.5673684478 4289290104
-0.2811585963 -0.1847334206 0.5666607618 4288632176
-0.2812337875 -0.1841530502 0.5668123364 4289158520
-0.2808819413 -0.1832936704 0.5661031604 4290737552
-0.2809566259 -0.1827132702 0.5662536621 4292119205
-0.2806040049 -0.1818556041 0.5655430555 4291921826
-0.2802509964 -0.1809992343 0.5648315549 4291263896
-0.2803248763 -0.1804192215 0.5649804473 4291263896
-0.2803985476 -0.1798387319 0.5651289225 4291461275
-0.2804720104 -0.1792577952 0.5652769804 4291856033
-0.2801176310 -0.1784040332 0.5645627379 4292119205
-0.2797628343 -0.1775515825 0.5638476610 4292645806
-0.2794075906 -0.1767004579 0.5631317496 4292974771
-0.2794799507 -0.1761203706 0.5632775426 4293237943
-0.2795521021 -0.1755398363 0.5634229183 4293566908
-0.2791958153 -0.1746909022 0.5627048612 4294027459
-0.2788391113 -0.1738433242 0.5619859695 4294619596
-0.2780535817 -0.1727309227 0.5604027510 4294752981
-0.2781244814 -0.1721521616 0.5605456233 4294687188
-0.2781951725 -0.1715729535 0.5606881380 4294819545
-0.2778368890 -0.1707298309 0.5599660277 4294885338
-0.2779070735 -0.1701506376 0.5601075292 4294755035
-0.2775480747 -0.1693093181 0.5593839288 4294820828
-0.2771886587 -0.1684693694 0.5586595535 4294689756
-0.2772580087 -0.1678906530 0.5587993264 4294426584
-0.2768978775 -0.1670525074 0.5580735207 4294623963
-0.2769667208 -0.1664738208 0.5582122207 4294952928
-0.2766058445 -0.1656375080 0.5574849248 4294690271
-0.2762445509 -0.1648025662 0.5567567348 4294229720
-0.2758828402 -0.1639689803 0.5560277104 4294031828
-0.2763803601 -0.1636457890 0.5570304990 4293900242
-0.2760180235 -0.1628131568 0.5563002229 4294491609
-0.2760853171 -0.1622346044 0.5564358234 4294953188
-0.2761524022 -0.1616556346 0.5565710068 4294821342
-0.2762192786 -0.1610762477 0.5567058325 4293768654
-0.2758556008 -0.1602464318 0.5559728146 4293373898
-0.2759219408 -0.1596671045 0.5561065674 4293637070
-0.2759881020 -0.1590873599 0.5562398434 4294426586
-0.2760540247 -0.1585071981 0.5563727617 4294623965
-0.2756889760 -0.1576802433 0.5556370616 4294623449
-0.2753235400 -0.1568546891 0.5549004674 4294294484
-0.2753886282 -0.1562751085 0.5550317168 4293504968
-0.2754535377 -0.1556950957 0.5551624894 4293373382
-0.2755182087 -0.1551146954 0.5552928448 4293570507
-0.2755826712 -0.1545338780 0.5554227829 4293636300
-0.2756469250 -0.1539526433 0.5555523038 4293965265
-0.2757109702 -0.1533710212 0.5556813478 4293899472
-0.2757748067 -0.1527889818 0.5558100343 4293702347
-0.2758384347 -0.1522065401 0.5559382439 4294623449
-0.2759018242 -0.1516236961 0.5560660362 4294492377
-0.2759650350 -0.1510404497 0.5561934114 4294097619
-0.2760280073 -0.1504568160 0.5563203096 4293768654
-0.2760907710 -0.1498727649 0.5564467907 4293768654
-0.2761532962 -0.1492883265 0.5565728545 4294229205
-0.2762156427 -0.1487034857 0.5566985011 4294623963
-0.2762777507 -0.1481182575 0.5568236709 4294623963
-0.2759071887 -0.1473017484 0.5560768247 4294689756
-0.2759687603 -0.1467166394 0.5562009215 4294953442
-0.2760301232 -0.1461311579 0.5563246012 4294954727
-0.2760912776 -0.1455452740 0.5564478040 4294954469
-0.2761521935 -0.1449590027 0.5565705895 4294492890
-0.2762129009 -0.1443723440 0.5566929579 4293769167
-0.2762733996 -0.1437852979 0.5568148494 4293308616
-0.2763336599 -0.1431978643 0.5569363236 4293571275
-0.2763937116 -0.1426100433 0.5570573807 4294229205
-0.2764535248 -0.1420218498 0.5571779013 4294953444
-0.2765131295 -0.1414332688 0.5572980642 4294953958
-0.2765724957 -0.1408443153 0.5574177504 4294952930
-0.2766316533 -0.1402549744 0.5575369596 4294492379
-0.2766906023 -0.1396652609 0.5576557517 4293900242
-0.2763155401 -0.1388571858 0.5568998456 4293637070
-0.2763739228 -0.1382676363 0.5570175052 4294228437
-0.2764320970 -0.1376777291 0.5571347475 4294754781
-0.2764900625 -0.1370874345 0.5572515726 4294491863
-0.2765477598 -0.1364967823 0.5573678613 4293636554
-0.2766052783 -0.1359057575 0.5574837923 4293504968
-0.2766625285 -0.1353143603 0.5575991869 4294162898
-0.2767196000 -0.1347226053 0.5577141643 4294755035
-0.2767764032 -0.1341304779 0.5578286648 4294952414
-0.2768329978 -0.1335379928 0.5579427481 4294952414
-0.2768893540 -0.1329451352 0.5580563545 4294820828
-0.2769455016 -0.1323519349 0.5581694841 4294952414
-0.2770014107 -0.1317583472 0.5582821369 4294886621
-0.2770570815 -0.1311644167 0.5583943725 4294952928
-0.2771125436 -0.1305701286 0.5585061312 4294755549
-0.2771677375 -0.1299754828 0.5586174130 4294426070
-0.2772227526 -0.1293804795 0.5587282181 4293965519
-0.2772774994 -0.1287851334 0.5588386059 4293636554
-0.2773320079 -0.1281894296 0.5589485168 4293570761
-0.2773863077 -0.1275933683 0.5590579510 4293438662
-0.2774403691 -0.1269969642 0.5591669083 4294293971
-0.2774942219 -0.1264002025 0.5592753887 4294491352
-0.2775478065 -0.1258031130 0.5593833923 4293899215
-0.2776011825 -0.1252056658 0.5594909787 4293175492
-0.2776542902 -0.1246078685 0.5595980287 4293438664
-0.2777071893 -0.1240097359 0.5597046614 4293569478
-0.2777598500 -0.1234112680 0.5598108172 4293306306
-0.2778123021 -0.1228124499 0.5599164367 4293175749
-0.2778644860 -0.1222132966 0.5600216389 4294162644
-0.2779164314 -0.1216138080 0.5601263642 4294953187
-0.2779681683 -0.1210139841 0.5602306128 4294887137
-0.2780196369 -0.1204138324 0.5603343844 4294361306
-0.2780708969 -0.1198133379 0.5604376197 4294427099
-0.2781218886 -0.1192125157 0.5605404377 4294360793
-0.2786093652 -0.1187975630 0.5615229011 4293768656
-0.2786599696 -0.1181951389 0.5616248846 4293899215
-0.2787103355 -0.1175923869 0.5617264509 4294030801
-0.2787604630 -0.1169893071 0.5618274808 4294359764
-0.2792473733 -0.1165683270 0.5628088117 4294952415
-0.2792971134 -0.1159636602 0.5629090071 4294886621
-0.2793465853 -0.1153586581 0.5630087852 4294294484
-0.2793958485 -0.1147533432 0.5631080270 4294031826
-0.2794448435 -0.1141477078 0.5632067919 4294426584
-0.2799310088 -0.1137194410 0.5641866326 4294559196
-0.2799795866 -0.1131122261 0.5642845631 4294822368
-0.2800279558 -0.1125046909 0.5643820167 4294952928
-0.2800760567 -0.1118968427 0.5644789338 4294162898
-0.2801239192 -0.1112886816 0.5645754337 4293241283
-0.2801715434 -0.1106802076 0.5646713972 4292714939
-0.2802189291 -0.1100714281 0.5647668839 4293570507
-0.2802660465 -0.1094623432 0.5648618937 4294623195
-0.2803129256 -0.1088529453 0.5649563670 4294822884
-0.2803595662 -0.1082432419 0.5650503635 4294954470
-0.2804059684 -0.1076332405 0.5651438832 4294954981
-0.2804521024 -0.1070229337 0.5652368665 4294954981
-0.2804979980 -0.1064123288 0.5653293729 4294953700
-0.2805436552 -0.1058014184 0.5654213428 4294558942
-0.2810274661 -0.1053545773 0.5663964748 4294492379
-0.2806341946 -0.1045787185 0.5656038523 4294623965
-0.2806791067 -0.1039669216 0.5656943917 4294953189
-0.2807237506 -0.1033548340 0.5657843947 4294426845
-0.2812068760 -0.1029029936 0.5667580366 4294755551
-0.2812510729 -0.1022893712 0.5668471456 4294952930
-0.2812950611 -0.1016754583 0.5669357777 4294689758
-0.2817776799 -0.1012189165 0.5679085255 4294295000
-0.2818212211 -0.1006034687 0.5679962635 4294295000
-0.2818644941 -0.0999877378 0.5680834651 4294689758
-0.2814684212 -0.0992169455 0.5672852397 4294953701
-0.2815111578 -0.0986016095 0.5673713088 4294426586
-0.2815535963 -0.0979859978 0.5674569011 4293900242
-0.2815958261 -0.0973701030 0.5675419569 4293439691
-0.2816377580 -0.0967539400 0.5676264763 4293373382
-0.2816794515 -0.0961374938 0.5677105188 4293965519
-0.2817209065 -0.0955207795 0.5677940845 4294557656
-0.2817620933 -0.0949037969 0.5678771138 4294952414
-0.2818030417 -0.0942865387 0.5679596066 4294163924
-0.2818437219 -0.0936690196 0.5680415630 4294098131
-0.2818841338 -0.0930512249 0.5681230426 4294624218
-0.2819243073 -0.0924331695 0.5682039857 4294887390
-0.2824040949 -0.0919580907 0.5691710114 4293965518
-0.2820038795 -0.0911962688 0.5683643818 4292978623
-0.2824832797 -0.0907187313 0.5693305731 4293307589
-0.2825224698 -0.0900986716 0.5694096088 4293833933
-0.2830015421 -0.0896177217 0.5703751445 4294294998
-0.2830402851 -0.0889961794 0.5704532266 4294953185
-0.2830787897 -0.0883743763 0.5705307722 4294953441
-0.2831169963 -0.0877523273 0.5706078410 4294690269
-0.2831549644 -0.0871300176 0.5706843734 4294690528
-0.2831926644 -0.0865074694 0.5707603693 4294953700
-0.2832301259 -0.0858846679 0.5708358288 4294954470
-0.2832673192 -0.0852616206 0.5709107518 4294822884
-0.2833042145 -0.0846383274 0.5709851980 4294955754
-0.2837815583 -0.0841454566 0.5719471574 4294955497
-0.2838180065 -0.0835207105 0.5720206499 4294954981
-0.2838541865 -0.0828957260 0.5720936060 4294954724
-0.2843309641 -0.0823982507 0.5730544925 4294824165
-0.2843666673 -0.0817718133 0.5731264949 4294692579
-0.2844021320 -0.0811451524 0.5731979609 4294691809
-0.2848783135 -0.0806430802 0.5741576552 4294494430
-0.2849133015 -0.0800149813 0.5742281675 4294822114
-0.2845069468 -0.0792637542 0.5734091401 4294887907
-0.2845413387 -0.0786361620 0.5734785199 4294954214
-0.2845754623 -0.0780083463 0.5735473037 4294953957
-0.2846093476 -0.0773802996 0.5736155510 4294887650
-0.2846429348 -0.0767520368 0.5736832619 4294821857
-0.2846762836 -0.0761235431 0.5737504959 4294755551
-0.2851507664 -0.0756118819 0.5747067928 4294755551
-0.2851836383 -0.0749819800 0.5747730136 4294558172
-0.2852162123 -0.0743518621 0.5748386979 4294163414
-0.2852485478 -0.0737215281 0.5749038458 4293637840
-0.2852805853 -0.0730909854 0.5749684572 4293506254
-0.2853123844 -0.0724602267 0.5750324726 4293835989
-0.2853438854 -0.0718292594 0.5750960112 4294164954
-0.2853751481 -0.0711980835 0.5751590133 4294428126
-0.2858479321 -0.0706759319 0.5761118531 4294954984
-0.2858786881 -0.0700433701 0.5761738420 4294953957
-0.2859091759 -0.0694105998 0.5762352943 4294756321
-0.2863813341 -0.0688839331 0.5771869421 4294624476
-0.2868533134 -0.0683551058 0.5781381726 4294953441
-0.2868830860 -0.0677197799 0.5781981945 4294955239
-0.2869125903 -0.0670842528 0.5782576203 4294954725
-0.2873839438 -0.0665509254 0.5792075992 4294757602
-0.2874129415 -0.0659140348 0.5792660713 4294691809
-0.2874416411 -0.0652769506 0.5793239474 4294953957
-0.2874701023 -0.0646396726 0.5793812871 4294954471
-0.2874982655 -0.0640022159 0.5794380307 4294952417
-0.2875261605 -0.0633645654 0.5794942975 4294623195
-0.2879962027 -0.0628232360 0.5804415941 4294163414
-0.2880235910 -0.0621842369 0.5804967880 4294689758
-0.2880507112 -0.0615450591 0.5805514455 4294757091
-0.2885200679 -0.0609992556 0.5814974308 4294954470
-0.2885466814 -0.0603587367 0.5815510750 4294559712
-0.2885730267 -0.0597180426 0.5816041231 4294230747
-0.2890416980 -0.0591677837 0.5825487375 4294032598
-0.2895101905 -0.0586153828 0.5834929943 4294032598
-0.2895357907 -0.0579722039 0.5835445523 4294166237
-0.2904466093 -0.0575041696 0.5853802562 4294626788
-0.2904717028 -0.0568586849 0.5854308605 4294564586
-0.2998490036 -0.2142798454 0.6056861281 4291612632
-0.2986658216 -0.2127639949 0.6032961011 4290419116
-0.2970585227 -0.2109522969 0.6000494361 4289826979
-0.2941802442 -0.2082480788 0.5942354202 4291724707
-0.2900298834 -0.2046591491 0.5858517885 4291395742
-0.2901121080 -0.2040660679 0.5860179067 4290804374
-0.2846868336 -0.1996109784 0.5750589967 4290343823
-0.2856146693 -0.1996205151 0.5769332051 4290672788
-0.2839995027 -0.1978542656 0.5736706257 4290738581
-0.2836551964 -0.1969777793 0.5729750991 4290803604
-0.2833104432 -0.1961025447 0.5722787380 4290408846
-0.2829653025 -0.1952285618 0.5715815425 4290211465
-0.2830440402 -0.1946476549 0.5717406273 4290935188
-0.2831226289 -0.1940662712 0.5718993545 4291263896
-0.2832010090 -0.1934843957 0.5720576644 4291263896
-0.2828544974 -0.1926128268 0.5713577271 4291263896
-0.2829323709 -0.1920308769 0.5715150237 4290737552
-0.2825851142 -0.1911609620 0.5708135962 4289882243
-0.2826624811 -0.1905789226 0.5709698796 4288895348
-0.2814641297 -0.1891392767 0.5685492754 4289158518
-0.2828166485 -0.1894133985 0.5712813139 4290737550
-0.2820426226 -0.1882620156 0.5697178245 4290605451
-0.2816934884 -0.1873967350 0.5690125227 4289486970
-0.2813439071 -0.1865327507 0.5683063865 4289947521
-0.2809939086 -0.1856700480 0.5675993562 4290802830
-0.2810693383 -0.1850890815 0.5677517653 4290211465
-0.2807185948 -0.1842280924 0.5670433044 4289750914
-0.2807935178 -0.1836470664 0.5671946406 4289948293
-0.2804420590 -0.1827877909 0.5664846897 4290474637
-0.2800901532 -0.1819298118 0.5657738447 4290803602
-0.2801642716 -0.1813491732 0.5659235716 4290803602
-0.2798116207 -0.1804929227 0.5652112365 4290672016
-0.2798852324 -0.1799122542 0.5653598905 4290606223
-0.2795318663 -0.1790577471 0.5646461248 4291132567
-0.2800318301 -0.1787495166 0.5656560659 4291329946
-0.2792508602 -0.1776242852 0.5640785098 4291593118
-0.2788963616 -0.1767728478 0.5633624196 4291593118
-0.2789686322 -0.1761925519 0.5635083914 4291527325
-0.2790406942 -0.1756118089 0.5636539459 4291987876
-0.2786851227 -0.1747625768 0.5629357100 4292119462
-0.2783291340 -0.1739146858 0.5622166395 4291264153
-0.2784003913 -0.1733343750 0.5623605847 4291397022
-0.2780436873 -0.1724882573 0.5616400242 4292844468
-0.2776865363 -0.1716434807 0.5609186292 4293437375
-0.2773289979 -0.1708000600 0.5601963997 4293305789
-0.2773990929 -0.1702206582 0.5603380203 4294161357
-0.2770408094 -0.1693790406 0.5596142411 4294424529
-0.2766821086 -0.1685387641 0.5588896871 4294425556
-0.2758945823 -0.1674398482 0.5572988987 4294754521
-0.2759634554 -0.1668622941 0.5574380159 4294426070
-0.2756035030 -0.1660260856 0.5567108989 4294426070
-0.2756718397 -0.1654485762 0.5568490028 4294163414
-0.2753790021 -0.1640367359 0.5562574267 4293308105
-0.2754466236 -0.1634588242 0.5563941002 4293176519
-0.2750849128 -0.1626267880 0.5556634068 4293965265
-0.2751520276 -0.1620489359 0.5557990074 4294952417
-0.2752189338 -0.1614706516 0.5559341311 4294886621
-0.2752856314 -0.1608919501 0.5560688972 4293702347
-0.2749225795 -0.1600627452 0.5553354621 4293110724
-0.2749887407 -0.1594841033 0.5554691553 4293308103
-0.2750547230 -0.1589050591 0.5556024313 4294031826
-0.2751204967 -0.1583255976 0.5557352901 4294229205
-0.2747560740 -0.1574992388 0.5549991727 4294426070
-0.2748213410 -0.1569198519 0.5551309586 4294623449
-0.2744561732 -0.1560953856 0.5543934107 4294228691
-0.2745209038 -0.1555160731 0.5545241237 4294491863
-0.2745854259 -0.1549363583 0.5546544790 4294623963
-0.2746497393 -0.1543562412 0.5547843575 4294229205
-0.2747138143 -0.1537757218 0.5549138188 4294492377
-0.2747777104 -0.1531947851 0.5550428629 4294821342
-0.2744105756 -0.1523742378 0.5543012619 4294426584
-0.2744739354 -0.1517934054 0.5544292927 4294623963
-0.2745370865 -0.1512121707 0.5545568466 4294952928
-0.2746000290 -0.1506305486 0.5546839237 4294755035
-0.2746627331 -0.1500485092 0.5548106432 4294690269
-0.2747252285 -0.1494660825 0.5549368858 4294953698
-0.2747875154 -0.1488832533 0.5550627112 4294887135
-0.2748495936 -0.1483000368 0.5551880598 4293966033
-0.2753430307 -0.1479483098 0.5561847687 4293504455
-0.2749730945 -0.1471324116 0.5554375052 4293767627
-0.2750345170 -0.1465480030 0.5555616021 4293965519
-0.2750957310 -0.1459632069 0.5556852221 4294952414
-0.2751567066 -0.1453780234 0.5558084249 4294954982
-0.2752174735 -0.1447924525 0.5559312105 4294361817
-0.2752780318 -0.1442064941 0.5560535192 4293242823
-0.2753383517 -0.1436201483 0.5561753511 4292255928
-0.2749661505 -0.1428088844 0.5554234982 4292583866
-0.2750259340 -0.1422226876 0.5555442572 4294228691
-0.2750855088 -0.1416361183 0.5556645989 4294953700
-0.2755774856 -0.1412709355 0.5566583872 4294954214
-0.2756367028 -0.1406826824 0.5567780137 4294821857
-0.2752629220 -0.1398741156 0.5560230017 4294427099
-0.2753216028 -0.1392860264 0.5561415553 4294426586
-0.2753800750 -0.1386975646 0.5562596321 4294229207
-0.2754383385 -0.1381087303 0.5563772917 4294426586
-0.2754963636 -0.1375195086 0.5564945340 4294821344
-0.2751208842 -0.1367146373 0.5557360649 4294821855
-0.2751783729 -0.1361256093 0.5558522344 4294690269
-0.2752356529 -0.1355362087 0.5559678674 4294756062
-0.2752926648 -0.1349464506 0.5560830832 4294953955
-0.2753494978 -0.1343563199 0.5561978221 4294953442
-0.2754060626 -0.1337658316 0.5563121438 4294492377
-0.2754624188 -0.1331749707 0.5564259887 4294228691
-0.2755185664 -0.1325837523 0.5565393567 4294228691
-0.2755744755 -0.1319921762 0.5566523075 4294426070
-0.2756301463 -0.1314002424 0.5567647815 4294360277
-0.2756856084 -0.1308079511 0.5568767786 4294820828
-0.2757408023 -0.1302152872 0.5569882989 4294755035
-0.2757958174 -0.1296222806 0.5570994020 4294228691
-0.2758505642 -0.1290289164 0.5572100282 4294162898
-0.2759051025 -0.1284352094 0.5573201776 4294491863
-0.2759594023 -0.1278411448 0.5574298501 4294689242
-0.2764481306 -0.1274471134 0.5584170818 4294755035
-0.2765020728 -0.1268514097 0.5585260391 4294952414
-0.2765557766 -0.1262553632 0.5586344600 4294755551
-0.2766092122 -0.1256589741 0.5587424636 4294623965
-0.2766624689 -0.1250622272 0.5588499904 4294426586
-0.2767154574 -0.1244651377 0.5589570403 4294426586
-0.2767682076 -0.1238677129 0.5590636134 4293966035
-0.2768207490 -0.1232699454 0.5591697097 4293373898
-0.2768730521 -0.1226718351 0.5592753887 4293175749
-0.2764896750 -0.1218814552 0.5585010052 4293570507
-0.2765414119 -0.1212836131 0.5586054921 4294558172
-0.2765929401 -0.1206854358 0.5587095618 4294952930
-0.2766442001 -0.1200869232 0.5588131547 4294623965
-0.2766952515 -0.1194880828 0.5589162111 4294623965
-0.2767460346 -0.1188889071 0.5590188503 4294426586
-0.2772324979 -0.1184756905 0.5600014925 4294031828
-0.2772828937 -0.1178749129 0.5601032972 4294689242
-0.2773330808 -0.1172738150 0.5602046251 4294952671
-0.2778191268 -0.1168558300 0.5611864328 4294557656
-0.2778688967 -0.1162531376 0.5612869859 4294031312
-0.2779184282 -0.1156501174 0.5613870025 4294228691
-0.2779677212 -0.1150467768 0.5614866018 4294491863
-0.2784532011 -0.1146227717 0.5624672771 4293637068
-0.2785020769 -0.1140178442 0.5625659823 4292518587
-0.2785507441 -0.1134125963 0.5626642704 4292453049
-0.2785991430 -0.1128070280 0.5627620220 4292584635
-0.2786472738 -0.1122011542 0.5628592968 4293570760
-0.2786951959 -0.1115949601 0.5629560947 4294755034
-0.2787428796 -0.1109884605 0.5630523562 4294952672
-0.2787902951 -0.1103816405 0.5631482005 4294754522
-0.2788374722 -0.1097745225 0.5632435083 4294820828
-0.2788844109 -0.1091670915 0.5633382797 4294952671
-0.2789311111 -0.1085593551 0.5634326339 4294756062
-0.2789775431 -0.1079513133 0.5635264516 4294953441
-0.2790237665 -0.1073429659 0.5636197329 4294953953
-0.2790697217 -0.1067343205 0.5637125969 4294888160
-0.2791154087 -0.1061253771 0.5638049245 4294887648
-0.2791608870 -0.1055161357 0.5638967752 4294821855
-0.2792060971 -0.1049065962 0.5639880896 4294952930
-0.2792510688 -0.1042967588 0.5640789270 4294953701
-0.2792958021 -0.1036866307 0.5641692281 4294361052
-0.2793402672 -0.1030762047 0.5642591119 4293110985
-0.2793844938 -0.1024654955 0.5643483996 4292979140
-0.2794284523 -0.1018544883 0.5644372702 4293505484
-0.2799102366 -0.1014018878 0.5654103756 4294294484
-0.2799537778 -0.1007893533 0.5654983521 4294952414
-0.2799970508 -0.1001765355 0.5655857921 4294887135
-0.2800401151 -0.0995634273 0.5656727552 4294821342
-0.2800828815 -0.0989500433 0.5657591820 4294953444
-0.2801254392 -0.0983363762 0.5658451319 4294887137
-0.2797292769 -0.0975695029 0.5650448799 4294623965
-0.2802097499 -0.0971082151 0.5660154223 4293834449
-0.2802515328 -0.0964937136 0.5660998225 4293702347
-0.2802930772 -0.0958789438 0.5661837459 4294294484
-0.2803343534 -0.0952638984 0.5662671328 4294425556
-0.2803753614 -0.0946485847 0.5663499832 4294293970
-0.2804161310 -0.0940330029 0.5664323568 4294229205
-0.2804566622 -0.0934171453 0.5665141940 4294755549
-0.2804969251 -0.0928010270 0.5665954947 4294953442
-0.2805369198 -0.0921846479 0.5666763186 4294953185
-0.2805766761 -0.0915680006 0.5667566061 4294623449
-0.2810553014 -0.0910934284 0.5677234530 4294491863
-0.2810946107 -0.0904752985 0.5678028464 4294821344
-0.2811336517 -0.0898569077 0.5678817034 4294623965
-0.2811724246 -0.0892382562 0.5679600239 4294755551
-0.2812109590 -0.0886193588 0.5680378675 4294887137
-0.2812492251 -0.0880002007 0.5681151748 4294690271
-0.2812872529 -0.0873807892 0.5681919456 4294492892
-0.2813250124 -0.0867611319 0.5682681799 4294558431
-0.2813625038 -0.0861412287 0.5683439374 4294953189
-0.2818394303 -0.0856546983 0.5693073273 4294822116
-0.2818764448 -0.0850333273 0.5693821311 4294624737
-0.2819132209 -0.0844117180 0.5694563985 4294624218
-0.2823896110 -0.0839205757 0.5704186559 4294624218
-0.2824259102 -0.0832975134 0.5704920292 4294887390
-0.2829019427 -0.0828029811 0.5714535713 4294953183
-0.2829377651 -0.0821784660 0.5715259314 4294755802
-0.2829733491 -0.0815537125 0.5715978146 4294295251
-0.2830086648 -0.0809287280 0.5716691613 4294032338
-0.2834839225 -0.0804283917 0.5726291537 4294558682
-0.2835187614 -0.0798019692 0.5726995468 4294822368
-0.2831130326 -0.0790523738 0.5718799829 4294624989
-0.2831473053 -0.0784264654 0.5719491839 4294558942
-0.2831813097 -0.0778003260 0.5720179081 4294953700
-0.2832150459 -0.0771739706 0.5720860362 4294953958
-0.2832485139 -0.0765473843 0.5721536279 4294952930
-0.2832817137 -0.0759205818 0.5722206831 4294952414
-0.2837552726 -0.0754106566 0.5731772780 4294886621
-0.2837879956 -0.0747824386 0.5732433796 4294623195
-0.2838204503 -0.0741540045 0.5733089447 4294688988
-0.2838526368 -0.0735253543 0.5733739734 4294492379
-0.2838845551 -0.0728964880 0.5734384656 4294229207
-0.2839162350 -0.0722674206 0.5735024214 4294558942
-0.2839476168 -0.0716381371 0.5735657811 4294887907
-0.2839787304 -0.0710086450 0.5736286640 4294427356
-0.2840095758 -0.0703789443 0.5736910105 4294295770
-0.2844812274 -0.0698573515 0.5746436715 4294887648
-0.2849527001 -0.0693335980 0.5755960345 4294427097
-0.2849828303 -0.0687013343 0.5756569505 4293768654
-0.2850127220 -0.0680688769 0.5757172704 4293439689
-0.2854835689 -0.0675406083 0.5766683817 4293900240
-0.2859542072 -0.0670101792 0.5776190758 4294229205
-0.2859833837 -0.0663751662 0.5776779652 4294492377
-0.2860122621 -0.0657399669 0.5777363181 4294952928
-0.2860408723 -0.0651045740 0.5777940750 4294493919
-0.2860691845 -0.0644689873 0.5778513551 4294625505
-0.2860972583 -0.0638332143 0.5779080391 4294690271
-0.2861250341 -0.0631972551 0.5779641271 4294953700
-0.2865941525 -0.0626576543 0.5789117217 4294624478
-0.2866214514 -0.0620203465 0.5789668560 4294492892
-0.2866484523 -0.0613828562 0.5790213943 4293901266
-0.2871169150 -0.0608387887 0.5799676776 4293506508
-0.2871434093 -0.0601999573 0.5800212026 4293637581
-0.2871696353 -0.0595609546 0.5800741911 4294098132
-0.2871955931 -0.0589217730 0.5801266432 4294689756
-0.2876631618 -0.0583720878 0.5810710788 4294558170
-0.2876885831 -0.0577315800 0.5811224580 4294361817
-0.2885976732 -0.0572663024 0.5829588175 4294822368
-0.2886226475 -0.0566234887 0.5830092430 4294692578
-0.2886473238 -0.0559805147 0.5830590725 4294955750
-0.2891138196 -0.0554221161 0.5840013623 4294172137
-0.2984520197 -0.2137610912 0.6042198539 4291942108
-0.2981153429 -0.2128493786 0.6035382152 4291142839
-0.2973558307 -0.2116382569 0.6020006537 4289761186
-0.2957506776 -0.2098305374 0.5987509489 4291198877
-0.2932991087 -0.2074314505 0.5937877297 4290935705
-0.2870412171 -0.2023599893 0.5811185241 4290935960
-0.2858538926 -0.2008799464 0.5787147880 4290146444
-0.2842426598 -0.1991083175 0.5754528642 4289554307
-0.2834765017 -0.1979339868 0.5739017129 4289883272
-0.2831328809 -0.1970571876 0.5732060671 4289750916
-0.2827888429 -0.1961816400 0.5725095868 4289356158
-0.2824443877 -0.1953073442 0.5718122125 4289750403
-0.2825230658 -0.1947262585 0.5719714761 4290934677
-0.2826015651 -0.1941446811 0.5721303821 4291000470
-0.2822560668 -0.1932724118 0.5714309216 4290013575
-0.2823340297 -0.1926907450 0.5715888143 4290211208
-0.2824118435 -0.1921085864 0.5717462897 4290803345
-0.2824894488 -0.1915259510 0.5719034076 4290408587
-0.2821425796 -0.1906561255 0.5712012053 4290342794
-0.2822196782 -0.1900734156 0.5713573098 4289684351
-0.2818720937 -0.1892052740 0.5706535578 4290079109
-0.2815240622 -0.1883383989 0.5699489713 4290342281
-0.2811756134 -0.1874728203 0.5692435503 4288829042
-0.2808267474 -0.1866085231 0.5685372353 4288500075
-0.2809024155 -0.1860269457 0.5686904192 4289750142
-0.2805528045 -0.1851643622 0.5679826736 4290935190
-0.2806279659 -0.1845827252 0.5681348443 4291198362
-0.2802776098 -0.1837218404 0.5674255490 4290606225
-0.2803522646 -0.1831401587 0.5675767064 4289882502
-0.2795756459 -0.1820039600 0.5660043955 4290145674
-0.2800753415 -0.1816992611 0.5670160055 4290606225
-0.2797235250 -0.1808418185 0.5663037896 4290606225
-0.2793712914 -0.1799856871 0.5655906796 4290606225
-0.2790186405 -0.1791308671 0.5648767352 4290343053
-0.2795177400 -0.1788225621 0.5658872128 4290211467
-0.2791644633 -0.1779686064 0.5651719570 4290211467
-0.2788107693 -0.1771159619 0.5644559264 4290540432
-0.2784566581 -0.1762646586 0.5637390018 4290606225
-0.2785286605 -0.1756837219 0.5638847351 4290737811
-0.2781738043 -0.1748341769 0.5631663799 4290343053
-0.2782453001 -0.1742532253 0.5633111000 4289027193
-0.2778896987 -0.1734054536 0.5625911951 4287975784
-0.2779606879 -0.1728245020 0.5627349019 4289949574
-0.2771772742 -0.1717139482 0.5611488819 4291593886
-0.2768204510 -0.1708701998 0.5604264736 4291725472
-0.2768904865 -0.1702906042 0.5605682731 4292054952
-0.2765329182 -0.1694486737 0.5598443747 4292318124
-0.2766024470 -0.1688690931 0.5599851012 4293173179
-0.2762441337 -0.1680289656 0.5592597127 4293962695
-0.2758854330 -0.1671902090 0.5585334897 4294029258
-0.2755262852 -0.1663527936 0.5578064322 4294292430
-0.2751667500 -0.1655167639 0.5570785403 4294819545
-0.2748067677 -0.1646820903 0.5563497543 4294951902
-0.2744463980 -0.1638487875 0.5556201339 4294820315
-0.2749421000 -0.1635262966 0.5566237569 4294557143
-0.2745811045 -0.1626939476 0.5558928847 4294031312
-0.2746481597 -0.1621158868 0.5560286045 4293570761
-0.2742864192 -0.1612854004 0.5552963018 4293898443
-0.2743529677 -0.1607073992 0.5554310083 4293898443
-0.2739905119 -0.1598787755 0.5546972156 4294030284
-0.2740565240 -0.1593008339 0.5548308492 4293701319
-0.2741223276 -0.1587224901 0.5549640656 4293899212
-0.2741879225 -0.1581437141 0.5550968647 4294228177
-0.2742533088 -0.1575645357 0.5552292466 4294293971
-0.2738892138 -0.1567392647 0.5544921160 4294096592
-0.2739540637 -0.1561601609 0.5546234250 4294031312
-0.2740187347 -0.1555806398 0.5547543764 4294426070
-0.2736535966 -0.1547577679 0.5540151000 4294491862
-0.2737177312 -0.1541783512 0.5541449785 4293241795
-0.2733518481 -0.1533573866 0.5534042716 4293307588
-0.2734154761 -0.1527780741 0.5535330772 4294623448
-0.2734788656 -0.1521983445 0.5536614060 4294952414
-0.2735420763 -0.1516182125 0.5537893772 4294886621
-0.2731748521 -0.1508001983 0.5530459285 4294951903
-0.2732375264 -0.1502201855 0.5531728268 4294754524
-0.2737303674 -0.1498754174 0.5541706085 4294689758
-0.2737927139 -0.1492936909 0.5542967916 4294953701
-0.2734242678 -0.1484777331 0.5535508394 4294952930
-0.2734860778 -0.1478961259 0.5536760092 4293900242
-0.2739784718 -0.1475461274 0.5546728373 4293307078
-0.2736090720 -0.1467317343 0.5539249778 4293636043
-0.2736702263 -0.1461489499 0.5540488362 4294557656
-0.2737311721 -0.1455657780 0.5541722178 4294952414
-0.2737919092 -0.1449822187 0.5542951822 4294888161
-0.2738524377 -0.1443982720 0.5544176698 4294822368
-0.2739127278 -0.1438139230 0.5545397997 4294887648
-0.2739728093 -0.1432292014 0.5546613932 4293900753
-0.2736011446 -0.1424194574 0.5539089441 4293372869
-0.2736606896 -0.1418348998 0.5540295243 4294228178
-0.2741517723 -0.1414727420 0.5550236702 4294954214
-0.2742109597 -0.1408864856 0.5551435351 4294955242
-0.2742699385 -0.1402998567 0.5552629232 4294954214
-0.2743287086 -0.1397128403 0.5553818941 4294953443
-0.2739551365 -0.1389063597 0.5546256304 4294953444
-0.2740133703 -0.1383195370 0.5547435284 4294821344
-0.2740713954 -0.1377323270 0.5548609495 4294690271
-0.2736967802 -0.1369284242 0.5541025996 4294953443
-0.2737542689 -0.1363413930 0.5542189479 4294558683
-0.2738115191 -0.1357540041 0.5543348193 4294624476
-0.2734358907 -0.1349527091 0.5535743833 4294690269
-0.2734926045 -0.1343655139 0.5536891818 4294953441
-0.2735490799 -0.1337779462 0.5538035631 4294953699
-0.2736053467 -0.1331900209 0.5539174676 4294426584
-0.2736613750 -0.1326017380 0.5540308952 4293439689
-0.2741502821 -0.1322219670 0.5550206900 4292913345
-0.2742059529 -0.1316320300 0.5551334023 4292846525
-0.2742614150 -0.1310417205 0.5552456379 4292583353
-0.2743166387 -0.1304510683 0.5553574562 4293570248
-0.2743716240 -0.1298600584 0.5554687977 4293965006
-0.2744264007 -0.1292686760 0.5555796623 4293043904
-0.2744809389 -0.1286769658 0.5556900501 4292714939
-0.2745352387 -0.1280848831 0.5558000207 4293439175
-0.2745893002 -0.1274924576 0.5559095144 4294294484
-0.2750770450 -0.1271001697 0.5568969250 4294426584
-0.2751307487 -0.1265061051 0.5570056438 4294492377
-0.2751842141 -0.1259116977 0.5571138859 4294361304
-0.2752374709 -0.1253169477 0.5572217107 4294098132
-0.2752904594 -0.1247218475 0.5573289990 4294295513
-0.2753432393 -0.1241264120 0.5574358702 4294624478
-0.2753957808 -0.1235306263 0.5575422049 4294822114
-0.2754481137 -0.1229345053 0.5576481223 4294887907
-0.2755001783 -0.1223380417 0.5577535629 4294755551
-0.2755520344 -0.1217412502 0.5578585267 4294229207
-0.2756036520 -0.1211441159 0.5579630136 4294492379
-0.2756550312 -0.1205466464 0.5580670238 4294689758
-0.2757061720 -0.1199488416 0.5581705570 4294623195
-0.2757570744 -0.1193507090 0.5582736135 4294952160
-0.2758077383 -0.1187522411 0.5583761930 4294953699
-0.2758581638 -0.1181534454 0.5584782958 4294953442
-0.2759083509 -0.1175543219 0.5585799217 4294953442
-0.2763935924 -0.1171393469 0.5595622659 4294953442
-0.2764433920 -0.1165386289 0.5596631169 4294953442
-0.2764929533 -0.1159375831 0.5597634315 4293966033
-0.2765422761 -0.1153362170 0.5598633289 4292781244
-0.2765913606 -0.1147345304 0.5599626899 4293373381
-0.2766402066 -0.1141325235 0.5600615740 4294491862
-0.2771245539 -0.1137089878 0.5610421300 4294162897
-0.2771729827 -0.1131053939 0.5611401796 4293767112
-0.2772211730 -0.1125014871 0.5612377524 4293898698
-0.2772691548 -0.1118972674 0.5613348484 4294097105
-0.2773168683 -0.1112927347 0.5614314675 4294952671
-0.2773643434 -0.1106878892 0.5615275502 4294953185
-0.2774115801 -0.1100827381 0.5616232157 4294821342
-0.2774585485 -0.1094772741 0.5617183447 4294887135
-0.2775053084 -0.1088715047 0.5618129373 4294952928
-0.2775518000 -0.1082654297 0.5619071126 4294952928
-0.2775980532 -0.1076590493 0.5620007515 4294952671
-0.2776440680 -0.1070523635 0.5620939136 4294820828
-0.2776898444 -0.1064453870 0.5621865392 4294294484
-0.2772986591 -0.1056716889 0.5613946319 4293702863
-0.2777806520 -0.1052305251 0.5623703599 4293834449
-0.2778256834 -0.1046226472 0.5624615550 4294295770
-0.2778704464 -0.1040144712 0.5625522137 4294690528
-0.2779150009 -0.1034060121 0.5626423955 4294558685
-0.2779592872 -0.1027972549 0.5627320409 4293505997
-0.2780033350 -0.1021882072 0.5628212094 4292650175
-0.2780471146 -0.1015788689 0.5629099011 4292715968
-0.2789651752 -0.1012867615 0.5647684932 4294097105
-0.2785712779 -0.1005171388 0.5639710426 4294952414
-0.2786144018 -0.0999059901 0.5640583634 4294755035
-0.2786572576 -0.0992945507 0.5641451478 4294952671
-0.2786998749 -0.0986828357 0.5642313957 4294887135
-0.2787422538 -0.0980708450 0.5643171668 4294952928
-0.2787843645 -0.0974585712 0.5644024611 4294689756
-0.2788262367 -0.0968460143 0.5644871593 4293768654
-0.2788678408 -0.0962331891 0.5645714402 4293570761
-0.2793470323 -0.0957702026 0.5655416250 4293504968
-0.2793882191 -0.0951558650 0.5656249523 4292780731
-0.2794291377 -0.0945412591 0.5657078028 4292254387
-0.2794698179 -0.0939263850 0.5657901168 4292320693
-0.2795102298 -0.0933112428 0.5658719540 4292583865
-0.2795503736 -0.0926958397 0.5659532547 4293373382
-0.2795902789 -0.0920801684 0.5660340190 4294689242
-0.2796299160 -0.0914642289 0.5661143064 4294887135
-0.2801076770 -0.0909904316 0.5670815110 4294426584
-0.2797084749 -0.0902315751 0.5662732720 4294755549
-0.2797473371 -0.0896148607 0.5663520098 4294953956
-0.2797859609 -0.0889978930 0.5664302111 4294953957
-0.2798243463 -0.0883806646 0.5665078759 4294953443
-0.2798624635 -0.0877631903 0.5665850639 4294690271
-0.2799003124 -0.0871454626 0.5666617155 4294427099
