VERSION 0.7
FIELDS x y z rgba
SIZE 4 4 4 4
TYPE F F F U
COUNT 1 1 1 1
WIDTH 920
HEIGHT 1
VIEWPOINT 0.0 0.0 0.0 1.0 0.0 0.0 0.0
POINTS 920
DATA ascii
-0.3493509591 -0.1282315254 0.5511221290 4288718767
-0.3494128585 -0.1276418120 0.5512197614 4288718767
-0.3484234214 -0.1266696602 0.5496588945 4288718767
-0.3495358527 -0.1264614165 0.5514138341 4288718767
-0.3495969474 -0.1258707643 0.5515102148 4288652974
-0.3491320014 -0.1250914037 0.5507767200 4288718767
-0.3482007384 -0.1235371009 0.5493075848 4288718767
-0.3477344513 -0.1227621585 0.5485720038 4288981939
-0.3456892073 -0.1214342043 0.5453454852 4289245111
-0.3468005061 -0.1212167144 0.5470986366 4289376697
-0.3463328779 -0.1204462200 0.5463609099 4289376697
-0.3467469811 -0.1281079650 0.5479743481 4288850353
-0.3478581011 -0.1279076785 0.5497302413 4288784560
-0.3479197919 -0.1273194700 0.5498277545 4288718767
-0.3474563658 -0.1265397966 0.5490953922 4288718767
-0.3469924927 -0.1257615834 0.5483623147 4288652974
-0.3475782573 -0.1253635883 0.5492880344 4288718767
-0.3465885222 -0.1243980601 0.5477239490 4288784560
-0.3466486335 -0.1238109693 0.5478188992 4288718767
-0.3461831510 -0.1230368689 0.5470833182 4288652974
-0.3457172513 -0.1222642437 0.5463470221 4288784560
-0.3447840512 -0.1207234338 0.5448722839 4289113525
-0.3443168104 -0.1199552640 0.5441338420 4288981939
-0.3412203193 -0.1182773486 0.5392403603 4288916661
-0.3412775695 -0.1176979616 0.5393308997 4288982454
-0.3423911929 -0.1291300952 0.5420421362 4288916659
-0.3440863490 -0.1285589635 0.5447257757 4288916148
-0.3463672698 -0.1275834441 0.5483367443 4288850355
-0.3470141888 -0.1266009659 0.5493608713 4288718767
-0.3455024064 -0.1254417002 0.5469675064 4288784560
-0.3450385332 -0.1246663928 0.5462331772 4288719280
-0.3440497816 -0.1237039715 0.5446678400 4288587694
-0.3451586068 -0.1234955415 0.5464232564 4288850866
-0.3446936011 -0.1227228642 0.5456871390 4288653487
-0.3437034190 -0.1217657700 0.5441195369 4288982452
-0.3437622488 -0.1211819574 0.5442126989 4288982452
-0.3432959020 -0.1204137281 0.5434744358 4288916659
-0.3423041403 -0.1194637567 0.5419043303 4288982452
-0.3382179737 -0.1168478802 0.5354354978 4289048245
-0.3403852582 -0.1285997033 0.5398157239 4288982452
-0.3420159519 -0.1286131442 0.5424018502 4288916148
-0.3453401923 -0.1280376911 0.5476737022 4288850355
-0.3459251523 -0.1276450306 0.5486014485 4288850355
-0.3459866345 -0.1270580739 0.5486989021 4288784562
-0.3455851674 -0.1256927699 0.5480622649 4288784562
-0.3435509503 -0.1243475452 0.5448361635 4288785075
-0.3425633013 -0.1233864650 0.5432698727 4288785075
-0.3431467116 -0.1229919568 0.5441951156 4288785073
-0.3426820934 -0.1222216040 0.5434582233 4288587694
-0.3422170281 -0.1214527264 0.5427206755 4288785073
-0.3417515159 -0.1206853390 0.5419824123 4288785073
-0.3412855566 -0.1199194267 0.5412434936 4288719280
-0.3408191502 -0.1191550121 0.5405037999 4288850866
-0.3398278952 -0.1182096601 0.5389317870 4288916661
-0.3357451260 -0.1156062707 0.5324569345 4289047734
-0.3431448340 -0.1292653382 0.5451523662 4288981941
-0.3426845670 -0.1284870654 0.5444211364 4288916148
-0.3443755507 -0.1279053241 0.5471075773 4288916148
-0.3454824090 -0.1277066022 0.5488660336 4288850355
-0.3444983363 -0.1267347485 0.5473026633 4288850355
-0.3445593417 -0.1261489987 0.5473995805 4288850355
-0.3446200788 -0.1255629212 0.5474960804 4288784562
-0.3441575170 -0.1247868985 0.5467612147 4288784562
-0.3410789073 -0.1230685711 0.5418701768 4288916148
-0.3400917649 -0.1221120805 0.5403019786 4288785075
-0.3406739533 -0.1217197776 0.5412268639 4288719282
-0.3407326639 -0.1211393103 0.5413201451 4288785075
-0.3402676284 -0.1203733534 0.5405813456 4288916661
-0.3398021460 -0.1196088791 0.5398418307 4288850868
-0.3393362164 -0.1188458949 0.5391016603 4288982454
-0.3383461237 -0.1179018989 0.5375286341 4288850868
-0.3373553753 -0.1169611812 0.5359547138 4288916661
-0.3363640606 -0.1160237491 0.5343797207 4289047734
-0.3410772681 -0.1293167025 0.5428254604 4289047730
-0.3400961161 -0.1283433139 0.5412639380 4288981939
-0.3422445953 -0.1285489202 0.5446832180 4288981939
-0.3438717425 -0.1285520345 0.5472728610 4288916146
-0.3439335227 -0.1279669553 0.5473711491 4288916146
-0.3445170224 -0.1275748610 0.5482997894 4288850353
-0.3435341716 -0.1266034395 0.5467356443 4288850353
-0.3430728912 -0.1258268058 0.5460014939 4288784560
-0.3436557055 -0.1254328787 0.5469290018 4288784560
-0.3421489894 -0.1242779121 0.5445310473 4288850355
-0.3411639035 -0.1233168319 0.5429633260 4288981941
-0.3407007456 -0.1225469708 0.5422261953 4288784562
-0.3397144973 -0.1215915233 0.5406566262 4288916148
-0.3397731185 -0.1210116893 0.5407498479 4288652976
-0.3393086195 -0.1202462688 0.5400106311 4288916148
-0.3388437033 -0.1194823384 0.5392706990 4288916148
-0.3389013410 -0.1189033985 0.5393624306 4288850355
-0.3384356499 -0.1181415543 0.5386213064 4288850868
-0.3379695117 -0.1173812151 0.5378794074 4288785075
-0.3385494351 -0.1169839874 0.5388023853 4288982454
-0.3406380415 -0.1293788701 0.5430864096 4288916146
-0.3412210345 -0.1289958507 0.5440158844 4288981939
-0.3418039680 -0.1286107600 0.5449452400 4288981939
-0.3423868120 -0.1282235682 0.5458745360 4288981939
-0.3440120816 -0.1282228380 0.5484656692 4288916146
-0.3435523212 -0.1274428964 0.5477327108 4288850353
-0.3430921435 -0.1266644299 0.5469989777 4288784560
-0.3421704173 -0.1251119077 0.5455294847 4288718767
-0.3411872089 -0.1241480187 0.5439619422 4288718767
-0.3402033448 -0.1231873855 0.5423933268 4288850353
-0.3402626216 -0.1226061136 0.5424878597 4288587181
-0.3397997022 -0.1218373775 0.5417497754 4288521388
-0.3398583531 -0.1212563887 0.5418432951 4288126630
-0.3393946290 -0.1204897240 0.5411039591 4288718767
-0.3389304578 -0.1197245568 0.5403639078 4288916146
-0.3379435241 -0.1187772900 0.5387904644 4288784560
-0.3364335597 -0.1176506281 0.5363830924 4288982454
-0.3380577862 -0.1176197827 0.5389726162 4288850868
-0.3349790275 -0.1159552112 0.5340641141 4288982454
-0.3318989277 -0.1143010929 0.5291534662 4289048247
-0.3390333951 -0.1302010864 0.5414868593 4289047732
-0.3417587280 -0.1300347745 0.5458396673 4288850353
-0.3428615928 -0.1298459768 0.5476011038 4288981939
-0.3424034417 -0.1290648729 0.5468693972 4288981939
-0.3435062766 -0.1288709939 0.5486307740 4288916146
-0.3430475295 -0.1280901432 0.5478980541 4288850353
-0.3436296582 -0.1276977062 0.5488278270 4288784560
-0.3431701958 -0.1269180030 0.5480939746 4288718767
-0.3427103162 -0.1261397600 0.5473594666 4288718767
-0.3406871855 -0.1247905493 0.5441282392 4288652974
-0.3402261436 -0.1240179166 0.5433918834 4288455595
-0.3397646248 -0.1232467666 0.5426548123 4288718767
-0.3393026888 -0.1224770918 0.5419170260 4288455595
-0.3393616080 -0.1218961477 0.5420110822 4287863458
-0.3388988674 -0.1211285442 0.5412720442 4287863458
-0.3394786417 -0.1207333431 0.5421980619 4288718767
-0.3390152156 -0.1199669316 0.5414578915 4289047732
-0.3385513425 -0.1192020029 0.5407170057 4288850353
-0.3380870223 -0.1184385717 0.5399754047 4289047734
-0.3381441236 -0.1178585216 0.5400665998 4288916148
-0.3314160407 -0.1149253696 0.5293208361 4289048245
-0.3382574916 -0.1166975275 0.5402476788 4289114038
-0.3412536383 -0.1306799948 0.5460015535 4288916146
-0.3402771950 -0.1297011524 0.5444391966 4288850353
-0.3424176872 -0.1299083084 0.5478640199 4289046962
-0.3424799144 -0.1293230951 0.5479635596 4289046962
-0.3425418735 -0.1287375540 0.5480626822 4288850353
-0.3431234658 -0.1283461601 0.5489932299 4288784560
-0.3437049687 -0.1279526800 0.5499236584 4288718767
-0.3427262008 -0.1269790381 0.5483576059 4288718767
-0.3422669768 -0.1262004375 0.5476228595 4288652974
-0.3412870169 -0.1252324134 0.5460549593 4288652974
-0.3392657638 -0.1238876209 0.5428209305 4288521388
-0.3388048410 -0.1231170073 0.5420834422 4288916146
-0.3388639987 -0.1225361004 0.5421780944 4288324009
-0.3389228880 -0.1219548956 0.5422723293 4287139735
-0.3389815092 -0.1213733852 0.5423661470 4287731872
-0.3390398920 -0.1207915768 0.5424595475 4288784560
-0.3375353217 -0.1196555048 0.5400522947 4288916146
-0.3386348784 -0.1194432974 0.5418115258 4288718767
-0.3381713033 -0.1186786219 0.5410698056 4289112755
-0.3382284641 -0.1180974096 0.5411612391 4289112755
-0.3377641141 -0.1173348278 0.5404183269 4289047732
-0.3362566531 -0.1162133962 0.5380064249 4289113525
-0.3390660584 -0.1318849027 0.5434671640 4289047732
-0.3386105001 -0.1311046928 0.5427370071 4289047732
-0.3376358747 -0.1301260591 0.5411748290 4288916146
-0.3397730291 -0.1303446293 0.5446003675 4288850353
-0.3403542042 -0.1299614608 0.5455318689 4288850353
-0.3419731557 -0.1299706250 0.5481268167 4288981171
-0.3420353532 -0.1293851584 0.5482264757 4288981171
-0.3420973122 -0.1287993491 0.5483257771 4288915378
-0.3431974053 -0.1286023557 0.5500890613 4288849585
-0.3427397013 -0.1278204769 0.5493554473 4288849583
-0.3422815800 -0.1270400584 0.5486211181 4288849583
-0.3428619504 -0.1266448796 0.5495514274 4288652974
-0.3413639665 -0.1254836321 0.5471503735 4288587181
-0.3398651481 -0.1243274212 0.5447480083 4288455595
-0.3394050300 -0.1235546768 0.5440105200 4288916146
-0.3394643664 -0.1229717284 0.5441055894 4287929251
-0.3390034735 -0.1222010553 0.5433668494 4286350219
-0.3390621841 -0.1216183901 0.5434609652 4287535006
-0.3391206264 -0.1210354269 0.5435546041 4288719280
-0.3386585712 -0.1202674136 0.5428140759 4288719280
-0.3381960988 -0.1195008978 0.5420728326 4288719280
-0.3388312757 -0.1185185090 0.5430908799 4289046962
-0.3362855017 -0.1170291528 0.5390104055 4288981169
-0.3358212113 -0.1162695214 0.5382662416 4289046962
-0.3322320282 -0.1144351959 0.5325133801 4289112755
-0.3375888169 -0.1315445006 0.5420644283 4289047732
-0.3376516104 -0.1309665740 0.5421652198 4289113527
-0.3382321000 -0.1305883229 0.5430973768 4288850355
-0.3398486674 -0.1306061596 0.5456930399 4288784562
-0.3419837058 -0.1308165491 0.5491212606 4289179320
-0.3415279984 -0.1300329268 0.5483894944 4289046962
-0.3410718143 -0.1292507648 0.5476570725 4289244341
-0.3421705365 -0.1290566772 0.5494212508 4289112755
-0.3422322869 -0.1284694076 0.5495203733 4289244341
-0.3417751491 -0.1276880652 0.5487864017 4289178548
-0.3413175642 -0.1269081980 0.5480516553 4288849583
-0.3413783610 -0.1263217628 0.5481492877 4288784558
-0.3393632770 -0.1249706745 0.5449136496 4288850351
-0.3399421871 -0.1245773807 0.5458431840 4288718765
-0.3405210078 -0.1241819933 0.5467725992 4288784558
-0.3395422101 -0.1232192889 0.5452009439 4288718765
-0.3396013379 -0.1226348877 0.5452958941 4288718765
-0.3391408324 -0.1218635514 0.5445564985 4288916657
-0.3386799097 -0.1210937053 0.5438163877 4288850864
-0.3387380540 -0.1205101758 0.5439097285 4288653739
-0.3377567232 -0.1195584759 0.5423340201 4288916911
-0.3378141820 -0.1189761460 0.5424262881 4288982452
-0.3383911848 -0.1185756549 0.5433527827 4288785073
-0.3374084234 -0.1176293418 0.5417747498 4288785073
-0.3327852190 -0.1154238656 0.5343512893 4288850866
-0.3333608508 -0.1150287837 0.5352755785 4288785073
-0.3308154643 -0.1135602966 0.5311884880 4288916659
-0.3298296630 -0.1126334667 0.5296055675 4288850353
-0.3421905935 -0.1347989887 0.5504351258 4289179318
-0.3423188329 -0.1336258948 0.5506413579 4288850353
-0.3413481712 -0.1326369196 0.5490800142 4288718767
-0.3398595750 -0.1314511001 0.5466855168 4288916146
-0.3405022919 -0.1304825693 0.5477193594 4288718767
-0.3415997624 -0.1302926093 0.5494847298 4288981939
-0.3411443532 -0.1295092106 0.5487521291 4289047732
-0.3406884670 -0.1287272573 0.5480188727 4288850353
-0.3407500088 -0.1281415075 0.5481178761 4288916146
-0.3408113122 -0.1275554597 0.5482164621 4288981939
-0.3408723474 -0.1269690841 0.5483146310 4288850353
-0.3409331143 -0.1263823956 0.5484123230 4288916144
-0.3404753804 -0.1256042123 0.5476760864 4288784558
-0.3389805853 -0.1244469285 0.5452715755 4288652972
-0.3390402198 -0.1238628775 0.5453675389 4288652972
-0.3390995860 -0.1232785136 0.5454630256 4288850351
-0.3386400938 -0.1225062385 0.5447238684 4288850351
-0.3381801546 -0.1217354536 0.5439840555 4288719278
-0.3382385671 -0.1211519688 0.5440779924 4288785071
-0.3377778530 -0.1203832552 0.5433369279 4288653485
-0.3378356397 -0.1198000610 0.5434298515 4288456106
-0.3378931582 -0.1192165762 0.5435224175 4288653485
-0.3379504383 -0.1186327860 0.5436145663 4288521899
-0.3369690180 -0.1176860332 0.5420358777 4288587692
-0.3354676962 -0.1165621355 0.5396208763 4288521899
-0.3344849646 -0.1156228781 0.5380401015 4288455593
-0.3360989988 -0.1155801192 0.5406363606 4288587179
-0.3309590220 -0.1132210493 0.5323684216 4288587179
-0.3304938674 -0.1124712527 0.5316202044 4288060835
-0.3357453048 -0.1136583313 0.5400674343 4287008147
-0.3358000517 -0.1130767092 0.5401555300 4287205526
-0.3353887498 -0.1117393821 0.5394939184 4287205526
-0.3376124799 -0.1332335472 0.5440428853 4288849583
-0.3418065012 -0.1342766881 0.5508013368 4288915376
-0.3382555246 -0.1322760731 0.5450791121 4289112755
-0.3398680985 -0.1322981715 0.5476776958 4288783790
-0.3404477835 -0.1319142729 0.5486118197 4288915376
-0.3410901427 -0.1309417784 0.5496469736 4288915376
-0.3416695297 -0.1305524707 0.5505805612 4288587179
-0.3412148654 -0.1297678202 0.5498479009 4288652972
-0.3423109949 -0.1295718104 0.5516142845 4288718765
-0.3403041959 -0.1282029003 0.5483804345 4288718765
-0.3403654397 -0.1276165843 0.5484791398 4288718765
-0.3409438133 -0.1272229999 0.5494111776 4288718765
-0.3415221274 -0.1268273145 0.5503430367 4288587179
-0.3405476809 -0.1258557290 0.5487728119 4288455593
-0.3400902748 -0.1250777841 0.5480357409 4288192421
-0.3396324217 -0.1243012995 0.5472978950 4288455593
-0.3388327658 -0.1215820163 0.5460093021 4288784558
-0.3373365104 -0.1204411462 0.5435981750 4288587179
-0.3373942971 -0.1198576987 0.5436912775 4288652972
-0.3379701674 -0.1194571629 0.5446192622 4288521386
-0.3375090659 -0.1186898947 0.5438762307 4288521386
-0.3354918957 -0.1173798591 0.5406256914 4288455593
-0.3365855217 -0.1171598583 0.5423880219 4288324007
-0.3345669806 -0.1158582196 0.5391352177 4288126628
-0.3335850835 -0.1149209291 0.5375529528 4288192421
-0.3320836723 -0.1138091236 0.5351335406 4288192421
-0.3326573670 -0.1134101376 0.5360580087 4287600284
-0.3327119350 -0.1128330380 0.5361459255 4286613389
-0.3353618979 -0.1131312922 0.5404162407 4286481803
-0.3354163766 -0.1125491187 0.5405039787 4286416010
-0.3349512517 -0.1117933467 0.5397545099 4286284424
-0.3350051045 -0.1112115160 0.5398412347 4287402905
-0.3356315494 -0.1102176309 0.5408507586 4287402905
-0.3372435868 -0.1101431996 0.5434484482 4286613389
-0.3441249132 -0.1385160238 0.5555315614 4289310136
-0.3443866074 -0.1361505389 0.5559540391 4289112757
-0.3425804377 -0.1329786181 0.5530382991 4288717997
-0.3426437974 -0.1323886365 0.5531405807 4288586411
-0.3427068889 -0.1317983270 0.5532424450 4288783790
-0.3422535062 -0.1310100853 0.5525105000 4288389800
-0.3407670557 -0.1298298836 0.5501108766 4288521386
-0.3408290148 -0.1292421669 0.5502108932 4288718765
-0.3408907056 -0.1286541224 0.5503104925 4288587179
-0.3409521282 -0.1280657649 0.5504096746 4288389800
-0.3425633609 -0.1280565262 0.5530107021 4288324007
-0.3415910006 -0.1270803511 0.5514410138 4288258214
-0.3411348760 -0.1262987852 0.5507046580 4288258214
-0.3401613235 -0.1253282279 0.5491330624 4288192421
-0.3412553966 -0.1251192242 0.5508992076 4288126628
-0.3384470642 -0.1210543141 0.5463656783 4288324007
-0.3374699056 -0.1200995073 0.5447881818 4288324007
-0.3375274837 -0.1195145994 0.5448811650 4288520872
-0.3381025791 -0.1191117913 0.5458095074 4288455079
-0.3376418650 -0.1183438823 0.5450657606 4288389286
-0.3371807039 -0.1175774708 0.5443213582 4288323493
-0.3346469998 -0.1160937101 0.5402311087 4288257700
-0.3341846466 -0.1153338999 0.5394846797 4288389286
-0.3363128603 -0.1154651642 0.5429202914 4288257700
-0.3384414911 -0.1155889407 0.5463566184 4287731356
-0.3379786611 -0.1148246676 0.5456094742 4286744461
-0.3395892382 -0.1147627458 0.5482094884 4286283910
-0.3392353356 -0.1128177419 0.5476381779 4287205012
-0.3487863541 -0.1456582695 0.5640680194 4288849583
-0.3495063484 -0.1440749019 0.5652324557 4288652976
-0.3418634236 -0.1403100193 0.5528720617 4288587183
-0.3419299126 -0.1397229135 0.5529795885 4288652976
-0.3497103751 -0.1422738582 0.5655623674 4288718769
-0.3430909216 -0.1389643699 0.5548571944 4288718769
-0.3436713219 -0.1385819316 0.5557959080 4288652976
-0.3442516923 -0.1381973773 0.5567344427 4288587183
-0.3463760018 -0.1384277791 0.5601699948 4288652976
-0.3433531523 -0.1366027445 0.5552812815 4288455597
-0.3439329267 -0.1362154186 0.5562189221 4288718769
-0.3439976871 -0.1356229484 0.5563236475 4288652976
-0.3466374874 -0.1360408515 0.5605928302 4288784562
-0.3441264033 -0.1344370097 0.5565318465 4288587183
-0.3441903889 -0.1338435411 0.5566353202 4288389804
-0.3442541063 -0.1332497448 0.5567383766 4288192423
-0.3443175852 -0.1326556206 0.5568410158 4288389802
-0.3438652456 -0.1318634599 0.5561094880 4288455079
-0.3428968191 -0.1308759600 0.5545433164 4288389286
-0.3414120078 -0.1296957731 0.5521420240 4288389286
-0.3414738774 -0.1291057020 0.5522421002 4288257700
-0.3415354788 -0.1285152882 0.5523416996 4288257700
-0.3415968120 -0.1279245764 0.5524408817 4288191907
-0.3432061672 -0.1279105693 0.5550436378 4288126114
-0.3422348797 -0.1269336343 0.5534728169 4288126114
-0.3417792320 -0.1261505038 0.5527359247 4288191907
-0.3439050317 -0.1263171732 0.5561738014 4288060321
-0.3429324925 -0.1253437698 0.5546010137 4288191907
-0.3369687796 -0.1207420602 0.5449563265 4288323493
-0.3375435174 -0.1203414798 0.5458858013 4288455079
-0.3376011550 -0.1197554097 0.5459790230 4288257700
-0.3376585543 -0.1191690415 0.5460718274 4288257700
-0.3377156854 -0.1185823679 0.5461642146 4288257700
-0.3382897973 -0.1181761026 0.5470926762 4288257700
-0.3367944360 -0.1170485467 0.5446743369 4288257700
-0.3363331556 -0.1162838936 0.5439283848 4288323493
-0.3379415274 -0.1162327453 0.5465294719 4288257700
-0.3359269202 -0.1149362177 0.5432713628 4287862942
-0.3364998102 -0.1145275831 0.5441978574 4287599770
-0.3375903666 -0.1142921597 0.5459615588 4286547082
-0.3381631672 -0.1138784438 0.5468878746 4287205012
-0.3408076167 -0.1141566038 0.5511646271 4286810254
-0.3382723927 -0.1126995683 0.5470645428 4287665563
-0.3388447165 -0.1122813895 0.5479900837 4287599770
-0.3373976648 -0.1105893776 0.5456498861 4287533977
-0.3384876251 -0.1103384197 0.5474126339 4287731102
-0.3426882625 -0.1110919639 0.5542060137 4288125860
-0.3375565708 -0.1088218391 0.5459069014 4288125860
-0.3376090229 -0.1082321107 0.5459917188 4288060067
-0.3371424973 -0.1074767560 0.5452372432 4288323239
-0.3413444161 -0.1082029268 0.5520327091 4288191653
-0.3486292660 -0.1477373391 0.5648285747 4283849569
-0.3482556641 -0.1463252455 0.5642232895 4286876047
-0.3483248353 -0.1457272917 0.5643353462 4287994528
-0.3483937383 -0.1451289654 0.5644469857 4288389286
-0.3490440845 -0.1441432536 0.5655006170 4288192423
-0.3455185294 -0.1420653611 0.5597887039 4288258216
-0.3460992873 -0.1416811347 0.5607296228 4288455595
-0.3492480218 -0.1423414350 0.5658310056 4288718767
-0.3457195759 -0.1402810514 0.5601144433 4288652974
-0.3462998867 -0.1398931444 0.5610546470 4288455595
-0.3463662267 -0.1392964572 0.5611621141 4288521388
-0.3490023017 -0.1397283524 0.5654329062 4288784560
-0.3454699814 -0.1376922429 0.5597100258 4288587181
-0.3460495472 -0.1373003274 0.5606490374 4288718767
-0.3466290534 -0.1369062811 0.5615879297 4288455595
-0.3492660224 -0.1373190880 0.5658601522 4288389802
-0.3462443948 -0.1355078220 0.5609647632 4288258216
-0.3463088274 -0.1349096596 0.5610691309 4288126630
-0.3458583355 -0.1341115832 0.5603392720 4288455595
-0.3459221721 -0.1335136294 0.5604426265 4288258216
-0.3449559808 -0.1325197816 0.5588773489 4288586665
-0.3439891934 -0.1315291524 0.5573109984 4288257700
-0.3425067067 -0.1303457618 0.5549091101 4287928735
-0.3420536816 -0.1295576245 0.5541751385 4287994528
-0.3421154320 -0.1289651692 0.5542752147 4288191907
-0.3421769142 -0.1283724010 0.5543748736 4288060321
-0.3432689905 -0.1281642020 0.5561441779 4287928735
-0.3428754508 -0.1267828494 0.5555065870 4287862942
-0.3419046104 -0.1258084029 0.5539336801 4287994528
-0.3401378691 -0.1220969111 0.5510712862 4287665563
-0.3376728594 -0.1199963763 0.5470775962 4287928735
-0.3372139037 -0.1192262620 0.5463340282 4288126114
-0.3388204873 -0.1191843823 0.5489369631 4288191907
-0.3373278379 -0.1180521026 0.5465186238 4288191907
-0.3399677575 -0.1183640063 0.5507956743 4288126114
-0.3379574716 -0.1170557439 0.5475387573 4288060321
-0.3411146700 -0.1175352335 0.5526538491 4288060321
-0.3422048986 -0.1172948927 0.5544201732 4287862942
-0.3422611654 -0.1166980788 0.5545113683 4287928735
-0.3397317231 -0.1152240783 0.5504132509 4287797149
-0.3397870362 -0.1146311983 0.5505028963 4287862942
-0.3413938880 -0.1145587489 0.5531062484 4287402391
-0.3435183167 -0.1146532595 0.5565481186 4287928222
-0.3420211375 -0.1135378852 0.5541224480 4287599257
-0.3425932229 -0.1131111011 0.5550493002 4287270292
-0.3426476419 -0.1125122607 0.5551374555 4287599257
-0.3411487341 -0.1114059836 0.5527090430 4287731356
-0.3412023187 -0.1108092889 0.5527958870 4288060321
-0.3422913551 -0.1105468050 0.5545602441 4288126114
-0.3470058441 -0.1114447638 0.5621984005 4287797149
-0.3418795168 -0.1091829687 0.5538930297 4287731356
-0.3414140344 -0.1084197387 0.5531388521 4288126114
-0.3414662778 -0.1078216583 0.5532234907 4288455079
-0.3456641734 -0.1085249558 0.5600246787 4288323493
-0.3410516381 -0.1064628810 0.5525517464 4288323493
-0.3405846059 -0.1057040095 0.5517950654 4288257700
-0.3458203077 -0.1067064553 0.5602776408 4288322980
-0.3500202000 -0.1073723063 0.5670820475 4288454566
-0.3524034619 -0.1483349204 0.5719724894 4282138438
-0.3499119282 -0.1466551721 0.5679286122 4282467403
-0.3525432944 -0.1471222788 0.5721994638 4282599502
-0.3526128531 -0.1465154141 0.5723123550 4282467916
-0.3526821136 -0.1459081918 0.5724247694 4282731088
-0.3527511358 -0.1453006119 0.5725367665 4282796881
-0.3512814045 -0.1440617591 0.5701513886 4283125846
-0.3482720852 -0.1421995610 0.5652670264 4283454811
-0.3483394384 -0.1415988803 0.5653763413 4283652190
-0.3484064937 -0.1409978569 0.5654851794 4283981155
-0.3510394096 -0.1414303333 0.5697585344 4284507499
-0.3480265737 -0.1395888776 0.5648685098 4284902257
-0.3480927646 -0.1389877051 0.5649759769 4286612875
-0.3481586874 -0.1383861750 0.5650829673 4287994528
-0.3507924080 -0.1388004273 0.5693576336 4288784044
-0.3529131114 -0.1390031129 0.5727996826 4288389286
-0.3478411436 -0.1363781393 0.5645675659 4288191907
-0.3479059339 -0.1357761472 0.5646727681 4288389286
-0.3474564850 -0.1349741518 0.5639432669 4288520872
-0.3470065594 -0.1341736168 0.5632129908 4286283910
-0.3465561867 -0.1333745122 0.5624820590 4284441195
-0.3455910981 -0.1323798746 0.5609156489 4283980644
-0.3441110253 -0.1311923712 0.5585133433 4283651679
-0.3431445658 -0.1302051097 0.5569447279 4283914851
-0.3432065845 -0.1296097189 0.5570454001 4283980901
-0.3432683349 -0.1290140152 0.5571455956 4283849315
-0.3433298171 -0.1284179837 0.5572454333 4284178534
-0.3439058661 -0.1280132681 0.5581803918 4284375913
-0.3439669311 -0.1274157017 0.5582795143 4284244327
-0.3435127139 -0.1266279817 0.5575422645 4284244327
-0.3451184332 -0.1265975386 0.5601484776 4284573292
-0.3371112347 -0.1212286055 0.5471522808 4285297015
-0.3387158513 -0.1211948171 0.5497566462 4284639085
-0.3378000557 -0.1196488068 0.5482702851 4284244327
-0.3383731246 -0.1192415804 0.5492004156 4284375913
-0.3384301960 -0.1186513975 0.5492930412 4284507499
-0.3400349617 -0.1186008230 0.5518977046 4284375913
-0.3390596509 -0.1176491976 0.5503146648 4284310120
-0.3396321535 -0.1172353849 0.5512439013 4284375400
-0.3396883607 -0.1166422069 0.5513350964 4284309607
-0.3443912566 -0.1176360324 0.5589681864 4284178021
-0.3428984284 -0.1165077537 0.5565452576 4284178021
-0.3470863104 -0.1173047721 0.5633424520 4284243814
-0.3435265124 -0.1154821813 0.5575646758 4284835951
-0.3446152806 -0.1152267307 0.5593318343 4285033330
-0.3477711082 -0.1156547740 0.5644538999 4285757053
-0.3452425003 -0.1141912714 0.5603498816 4285625467
-0.3463312089 -0.1139268130 0.5621168613 4285493881
-0.3463859558 -0.1133201718 0.5622057319 4285757564
-0.3454062939 -0.1123767942 0.5606156588 4286086529
-0.3464946449 -0.1121060401 0.5623821616 4286349188
-0.3465485871 -0.1114985421 0.5624696612 4286151809
-0.3466022313 -0.1108907685 0.5625568032 4286349188
-0.3502773941 -0.1114349142 0.5685217977 4287336083
-0.3456737697 -0.1093469784 0.5610498190 4288060319
-0.3457264304 -0.1087401807 0.5611352921 4288323491
-0.3462964594 -0.1082949787 0.5620604753 4288652458
-0.3499726057 -0.1088134795 0.5680270791 4288718251
-0.3500250876 -0.1081985757 0.5681122541 4288717738
-0.3459343314 -0.1063102186 0.5614727139 4288915117
-0.3501291275 -0.1069679409 0.5682811141 4289112496
-0.3503338695 -0.1045034081 0.5686134100 4287073426
-0.3503843248 -0.1038865969 0.5686953664 4287468184
-0.3532565832 -0.1508771181 0.5743926167 4283389016
-0.3502597213 -0.1489643753 0.5695197582 4285033330
-0.3523756862 -0.1492276937 0.5729602575 4285822846
-0.3493768573 -0.1473265439 0.5680842400 4285625467
-0.3494463861 -0.1467245519 0.5681972504 4285164916
-0.3495156467 -0.1461221874 0.5683099031 4284573290
-0.3521438241 -0.1465847790 0.5725833178 4284244325
-0.3501653373 -0.1451285928 0.5693662763 4283323223
-0.3502339125 -0.1445242912 0.5694777966 4282928465
-0.3503022194 -0.1439196318 0.5695888996 4282533707
-0.3508825302 -0.1435241401 0.5705324411 4282138949
-0.3524874449 -0.1435438097 0.5731419921 4282007363
-0.3505056500 -0.1421035379 0.5699196458 4282402121
-0.3505729139 -0.1414974630 0.5700290203 4282928465
-0.3506399393 -0.1408910602 0.5701379776 4283125844
-0.3527576327 -0.1411046684 0.5735813379 4282467914
-0.3502603769 -0.1394729763 0.5695208311 4284968048
-0.3508394361 -0.1390697360 0.5704623461 4287468182
-0.3509053886 -0.1384619474 0.5705696344 4288060319
-0.3525104523 -0.1384584308 0.5731794238 4288126114
-0.3500101268 -0.1368440241 0.5691139102 4288191907
-0.3495617807 -0.1360372305 0.5683849454 4287928735
-0.3491130173 -0.1352318674 0.5676552057 4284310120
-0.3481502831 -0.1342299879 0.5660898089 4281480510
-0.3471869230 -0.1332313269 0.5645233989 4282204233
-0.3457092345 -0.1320397109 0.5621206760 4283454300
-0.3447444737 -0.1310484260 0.5605520010 4284967539
-0.3448068500 -0.1304492056 0.5606533885 4285033589
-0.3443549871 -0.1296561509 0.5599187016 4284244073
-0.3444167078 -0.1290571690 0.5600190759 4284046948
-0.3444781899 -0.1284578741 0.5601190329 4283915362
-0.3445394039 -0.1278582662 0.5602185726 4283849569
-0.3440860510 -0.1270683855 0.5594813824 4284112741
-0.3441466391 -0.1264690310 0.5595799088 4284179048
-0.3421489298 -0.1251167804 0.5563316345 4284047462
-0.3437524140 -0.1250821203 0.5589389205 4284442220
-0.3422680795 -0.1239236668 0.5565253496 4284968564
-0.3382090032 -0.1218430176 0.5499253869 4284376681
-0.3377523422 -0.1210683212 0.5491828322 4283192407
-0.3383251429 -0.1206624284 0.5501142144 4283717983
-0.3378677964 -0.1198889166 0.5493705273 4283717983
-0.3384402394 -0.1194806248 0.5503013730 4283652190
-0.3400430381 -0.1194321439 0.5529074669 4283717983
-0.3421613872 -0.1195580214 0.5563519001 4283586397
-0.3432493806 -0.1193180755 0.5581210256 4283454811
-0.3443374634 -0.1190742254 0.5598902106 4283520091
-0.3418166935 -0.1175850034 0.5557914376 4283454298
-0.3429042995 -0.1173396558 0.5575599074 4283388505
-0.3450234532 -0.1174414977 0.5610056520 4283059540
-0.3476588130 -0.1177104637 0.5652906895 4283059540
-0.3456516862 -0.1164064258 0.5620270967 4282730575
-0.3462235034 -0.1159735173 0.5629568696 4283322712
-0.3467952013 -0.1155385002 0.5638864636 4283454298
-0.3483991027 -0.1154434383 0.5664944053 4283914079
-0.3484545052 -0.1148322895 0.5665845275 4283914079
-0.3485096693 -0.1142208427 0.5666741729 4284244324
-0.3490809202 -0.1137774214 0.5676030517 4284310117
-0.3496520817 -0.1133318990 0.5685316920 4284573032
-0.3512561917 -0.1132172644 0.5711400509 4284704618
-0.3497607410 -0.1121033728 0.5687084198 4285099376
-0.3492979407 -0.1113239974 0.5679559112 4286086271
-0.3493514955 -0.1107099354 0.5680429935 4286744459
-0.3519891202 -0.1109099016 0.5723317862 4287336596
-0.3535933793 -0.1107765883 0.5749402642 4288060319
-0.3484764397 -0.1085439548 0.5666201115 4288060319
-0.3526655436 -0.1092116684 0.5734316111 4287730841
-0.3542697132 -0.1090684086 0.5760399699 4287730841
-0.3475979269 -0.1063864082 0.5651916862 4287665048
-0.3481665254 -0.1059314460 0.5661162138 4286875532
-0.3523569107 -0.1065698192 0.5729297400 4286743946
-0.3482683897 -0.1047040820 0.5662819147 4287401876
-0.3540121019 -0.1057913154 0.5756210685 4287533464
-0.3494044244 -0.1037831530 0.5681290627 4288257187
-0.3552658856 -0.1526528001 0.5787048340 4281612607
-0.3553377390 -0.1520405710 0.5788218975 4282073158
-0.3554093242 -0.1514279544 0.5789384842 4283191639
-0.3554806709 -0.1508149803 0.5790547132 4283849569
-0.3535787463 -0.1487282217 0.5759565830 4282796881
-0.3518810272 -0.1448298246 0.5731911063 4282204742
-0.3534841239 -0.1448498815 0.5758024454 4282467914
-0.3520176411 -0.1436118335 0.5734136701 4282073156
-0.3520855606 -0.1430023164 0.5735242963 4281678398
-0.3516413569 -0.1421854794 0.5728006959 4282994260
-0.3532444835 -0.1421943754 0.5754120946 4283652190
-0.3517756462 -0.1409664601 0.5730195045 4282928467
-0.3513966799 -0.1395426244 0.5724021792 4285822846
-0.3529998362 -0.1395403743 0.5750135779 4287796636
-0.3510817587 -0.1375113428 0.5718891621 4286809741
-0.3511469960 -0.1369013637 0.5719954371 4287138965
-0.3506992757 -0.1360920966 0.5712661147 4284507245
-0.3497382402 -0.1350861788 0.5697007179 4281743682
-0.3487766087 -0.1340835094 0.5681342483 4283585886
-0.3473013043 -0.1328877807 0.5657310486 4284770160
-0.3458251953 -0.1316970736 0.5633265376 4284112230
-0.3453746140 -0.1309004128 0.5625926256 4283059542
-0.3454368711 -0.1302988231 0.5626940131 4284178023
-0.3444721401 -0.1293114722 0.5611225367 4284573038
-0.3450471461 -0.1289028376 0.5620591640 4284309866
-0.3451085091 -0.1283011585 0.5621591806 4284375659
-0.3436892629 -0.1265294701 0.5598472953 4284836210
-0.3427219093 -0.1255530566 0.5582715273 4284375659
-0.3417539597 -0.1245799214 0.5566948056 4284836210
-0.3423273563 -0.1241693869 0.5576288700 4285494140
-0.3408443332 -0.1230145693 0.5552130938 4284376429
-0.3398746848 -0.1220494881 0.5536335707 4282797397
-0.3394186795 -0.1212714314 0.5528907776 4283585884
-0.3384478688 -0.1203120276 0.5513094068 4283651677
-0.3426209092 -0.1211753786 0.5581070185 4283454811
-0.3401061594 -0.1196704283 0.5540106297 4283454811
-0.3406779766 -0.1192550510 0.5549421310 4283454811
-0.3427938223 -0.1193753034 0.5583887100 4283454811
-0.3500580192 -0.1212714389 0.5702215433 4283520604
-0.3439375162 -0.1185286269 0.5602516532 4283520604
-0.3450241685 -0.1182786599 0.5620217919 4283520602
-0.3471409976 -0.1183760539 0.5654699206 4283520602
-0.3502884805 -0.1188153848 0.5705969334 4283060821
-0.3482845426 -0.1175053120 0.5673326850 4282797649
-0.3489122689 -0.1164541319 0.5683552027 4283652958
-0.3494835794 -0.1160122976 0.5692858696 4284112739
-0.3500547707 -0.1155683547 0.5702162981 4284112739
-0.3506258428 -0.1151223108 0.5711465478 4284179048
-0.3506810963 -0.1145057678 0.5712365508 4284047462
-0.3507360816 -0.1138889343 0.5713260770 4283389532
-0.3507907689 -0.1132718101 0.5714151859 4283389532
-0.3529089987 -0.1133170798 0.5748656392 4284375913
-0.3508993387 -0.1120367050 0.5715920329 4283915362
-0.3509531915 -0.1114187241 0.5716797709 4283849567
-0.3510067463 -0.1108004600 0.5717670321 4285954943
-0.3520925939 -0.1105059758 0.5735357404 4287007631
-0.3531784415 -0.1102075651 0.5753045082 4287270803
-0.3516822159 -0.1091041863 0.5728672743 4287401876
-0.3517347276 -0.1084838882 0.5729528069 4287665048
-0.3538532555 -0.1084968671 0.5764037371 4287007373
-0.3518389165 -0.1072424576 0.5731225014 4285888892
-0.3508571386 -0.1063081995 0.5715232491 4287073166
-0.3514251709 -0.1058442816 0.5724485517 4287796889
-0.3530268073 -0.1056877449 0.5750575662 4287731356
-0.3535947204 -0.1052178070 0.5759826303 4288455079
-0.3531284332 -0.1044399440 0.5752230883 4288718251
-0.3546458185 -0.1539486200 0.5787418485 4281809986
-0.3553000093 -0.1529441774 0.5798094273 4281415228
-0.3548620939 -0.1521122605 0.5790947676 4281481021
-0.3549336493 -0.1514993906 0.5792115927 4281546814
-0.3544948995 -0.1506693512 0.5784955621 4281415228
-0.3545658290 -0.1500566304 0.5786113143 4281941572
-0.3536159694 -0.1490134895 0.5770612955 4283257432
-0.3536861837 -0.1484017819 0.5771758556 4284507499
-0.3537561595 -0.1477897316 0.5772900581 4285231222
-0.3533152938 -0.1469649374 0.5765705705 4286876047
-0.3533846140 -0.1463530362 0.5766837001 4287270805
-0.3539644480 -0.1459513903 0.5776299238 4287468182
-0.3535224795 -0.1451281607 0.5769087076 4287468182
-0.3535910249 -0.1445151865 0.5770205855 4285494394
-0.3531482518 -0.1436939090 0.5762979984 4282665295
-0.3532161713 -0.1430811137 0.5764088035 4282665295
-0.3532838225 -0.1424679756 0.5765192509 4283520604
-0.3538625836 -0.1420597583 0.5774636865 4283454557
-0.3529068828 -0.1410362124 0.5759040713 4281743939
-0.3529736400 -0.1404229105 0.5760130286 4283060053
-0.3530401289 -0.1398092508 0.5761215687 4285823359
-0.3541298509 -0.1395987123 0.5778998733 4285822848
-0.3526604772 -0.1383800507 0.5755019784 4283717472
-0.3522141278 -0.1375662982 0.5747736096 4285428347
-0.3522793651 -0.1369530410 0.5748800635 4283651936
-0.3513200879 -0.1359431148 0.5733146071 4280822837
-0.3508723676 -0.1351336986 0.5725840330 4283980901
-0.3499118984 -0.1341293305 0.5710166097 4284375659
-0.3479259610 -0.1327372342 0.5677757859 4283125592
-0.3474765122 -0.1319357455 0.5670423508 4284770417
-0.3465140164 -0.1309420168 0.5654717088 4287402137
-0.3455508947 -0.1299515367 0.5638999939 4287994274
-0.3450999260 -0.1291562170 0.5631640553 4287665309
-0.3456742167 -0.1287443936 0.5641012192 4287533723
-0.3447095752 -0.1277601123 0.5625270605 4287336344
-0.3442573547 -0.1269683093 0.5617890358 4286350219
-0.3443177938 -0.1263663173 0.5618877411 4285889668
-0.3428383172 -0.1252017170 0.5594733357 4286679184
-0.3454645872 -0.1255344301 0.5637590885 4287402907
-0.3419305384 -0.1236302778 0.5579919815 4286218633
-0.3404490054 -0.1224773228 0.5555742979 4284310636
-0.3384530842 -0.1211456209 0.5523171425 4284178021
-0.3405655921 -0.1212842688 0.5557644963 4284506986
-0.3395959735 -0.1203232259 0.5541821718 4284639085
-0.3411949575 -0.1202711314 0.5567915440 4284836464
-0.3474196196 -0.1218354031 0.5669494867 4285033843
-0.3449077308 -0.1203291491 0.5628504157 4284968050
-0.3459934592 -0.1200805902 0.5646221638 4284967537
-0.3486218154 -0.1203606948 0.5689113736 4284967537
-0.3471365571 -0.1192184985 0.5664875507 4284704365
-0.3477079272 -0.1187842935 0.5674200058 4284770158
-0.3487936854 -0.1185227856 0.5691918135 4284507499
-0.3493649364 -0.1180834621 0.5701240301 4284178534
-0.3530237675 -0.1186800376 0.5760948658 4284310120
-0.3510218263 -0.1173705757 0.5728279352 4284639085
-0.3510780632 -0.1167528257 0.5729196668 4284770671
-0.3516488671 -0.1163050607 0.5738511682 4284770671
-0.3522195816 -0.1158551946 0.5747824907 4284836462
-0.3522751331 -0.1152347401 0.5748732090 4284968048
-0.3523304164 -0.1146140024 0.5749633908 4284375911
-0.3523854315 -0.1139929667 0.5750531554 4284046946
-0.3519248664 -0.1132058948 0.5743016005 4284902255
-0.3519792259 -0.1125851870 0.5743902922 4285362806
-0.3540949821 -0.1126199216 0.5778429508 4285823357
-0.3531180918 -0.1116689593 0.5762487650 4287270803
-0.3547185063 -0.1115319133 0.5788604617 4287270290
-0.3538468480 -0.1093331203 0.5774380565 4287796634
-0.3538994491 -0.1087077036 0.5775238872 4287533717
-0.3529198468 -0.1077669039 0.5759252310 4286678408
-0.3550358713 -0.1077693179 0.5793783665 4287336338
-0.3535394073 -0.1066740602 0.5769363046 4287467924
-0.3551393747 -0.1065128967 0.5795472860 4286612875
-0.3540970087 -0.1546326876 0.5788955092 4283125846
-0.3531518579 -0.1535784751 0.5773503184 4283915362
-0.3543857634 -0.1521839052 0.5793675780 4286415496
-0.3539480269 -0.1513530016 0.5786519647 4286547082
-0.3545285761 -0.1509572864 0.5796010494 4286415496
-0.3540901244 -0.1501273960 0.5788842440 4286941840
-0.3536511958 -0.1492989212 0.5781666636 4287994528
-0.3537214696 -0.1486860812 0.5782815814 4288718251
-0.3537915051 -0.1480728835 0.5783960223 4289047216
-0.3533513844 -0.1472468376 0.5776765347 4289441974
-0.3534207940 -0.1466337889 0.5777899623 4289178802
-0.3540000319 -0.1462311000 0.5787369609 4289178802
-0.3535588086 -0.1454066187 0.5780156255 4289047216
-0.3536274433 -0.1447924972 0.5781278014 4288060321
-0.3531854153 -0.1439699680 0.5774051547 4284902257
-0.3532533944 -0.1433560252 0.5775163174 4282533455
-0.3533211052 -0.1427417248 0.5776270032 4284309866
-0.3533885777 -0.1421270669 0.5777373314 4283651936
-0.3529449999 -0.1413075775 0.5770121217 4282928213
-0.3530118167 -0.1406930983 0.5771213770 4282533455
-0.3530783951 -0.1400782913 0.5772302151 4283059799
-0.3536557555 -0.1396649629 0.5781741142 4282928213
-0.3537218869 -0.1390485615 0.5782822371 4281941318
-0.3537877500 -0.1384318173 0.5783898830 4283059801
-0.3533419669 -0.1376155764 0.5776611567 4282467664
-0.3534072042 -0.1369990408 0.5777677894 4282336078
-0.3529606164 -0.1361847818 0.5770376921 4284046696
-0.3520019650 -0.1351755112 0.5754703879 4283521122
-0.3510426581 -0.1341694742 0.5739020705 4283323743
-0.3500826955 -0.1331666708 0.5723327398 4286613393
-0.3496340215 -0.1323609203 0.5715991855 4288192425
-0.3481608927 -0.1311708242 0.5691908598 4288389804
-0.3466869295 -0.1299857646 0.5667811632 4288324011
-0.3462365270 -0.1291879863 0.5660448074 4288587181
-0.3452734053 -0.1282014549 0.5644702315 4288521388
-0.3443096578 -0.1272181869 0.5628946424 4288389802
-0.3459075689 -0.1271802783 0.5655069947 4288455595
-0.3434053659 -0.1256365180 0.5614162683 4288521388
-0.3429525495 -0.1248479038 0.5606759787 4288389802
-0.3405071497 -0.1227206588 0.5566781163 4287929251
-0.3441559374 -0.1234105676 0.5626433492 4287928481
-0.3457537293 -0.1233554855 0.5652555227 4288257446
-0.3452994823 -0.1225662082 0.5645128489 4288323239
-0.3433053195 -0.1212347671 0.5612527132 4288454825
-0.3449029028 -0.1211724505 0.5638645291 4288520618
-0.3459874392 -0.1209250018 0.5656375289 4288389032
-0.3470720053 -0.1206736416 0.5674107075 4288191653
-0.3507241905 -0.1213064045 0.5733814836 4288125860
-0.3502685726 -0.1205125749 0.5726366043 4287862942
-0.3508398533 -0.1200718433 0.5735705495 4287862942
-0.3534660637 -0.1203285903 0.5778639913 4287665563
-0.3514682353 -0.1190100685 0.5745978355 4287402391
-0.3525530100 -0.1187369972 0.5763713121 4287336598
-0.3536378741 -0.1184599996 0.5781448483 4287402391
-0.3531804681 -0.1176652610 0.5773971081 4287402391
-0.3537510037 -0.1172127649 0.5783298612 4287336598
-0.3538071513 -0.1165887043 0.5784216523 4287599770
-0.3538630009 -0.1159643456 0.5785129666 4287665563
-0.3539185822 -0.1153396890 0.5786038041 4287139219
-0.3534593880 -0.1145480052 0.5778530836 4286612875
-0.3535143435 -0.1139236689 0.5779429078 4286941840
-0.3535689712 -0.1132990494 0.5780322552 4287402391
-0.3541380763 -0.1128381416 0.5789626837 4287797147
-0.3536774516 -0.1120489389 0.5782095790 4288257698
-0.3537312448 -0.1114234477 0.5782974958 4288455077
-0.3542997241 -0.1109589562 0.5792269111 4288257698
-0.3543530405 -0.1103319898 0.5793140531 4288388771
-0.3544060588 -0.1097047478 0.5794007182 4288586150
-0.3549740016 -0.1092357635 0.5803292394 4288520357
-0.3550265133 -0.1086070389 0.5804150701 4288191392
-0.3550787568 -0.1079780459 0.5805004835 4288520357
-0.3540998399 -0.1070371568 0.5789000988 4288322978
-0.3541513383 -0.1064094380 0.5789843202 4287336344
-0.3547181487 -0.1059354171 0.5799109936 4288389032
-0.3563161194 -0.1057654172 0.5825234056 4288783790
-0.3505716920 -0.1533716917 0.5741747022 4284573038
-0.3548537791 -0.1533078253 0.5811880231 4289375927
-0.3528918028 -0.1518180221 0.5779746175 4289244341
-0.3525254428 -0.1503774077 0.5773746371 4289310134
-0.3531049192 -0.1499820352 0.5783237219 4289310134
-0.3526665568 -0.1491540670 0.5776057243 4289310134
-0.3522277176 -0.1483275145 0.5768869519 4289244341
-0.3528065979 -0.1479292810 0.5778351426 4289441720
-0.3528762460 -0.1473163366 0.5779491663 4289441974
-0.3529456258 -0.1467030346 0.5780628324 4289441974
-0.3525053561 -0.1458785534 0.5773416758 4289310388
-0.3520646095 -0.1450554878 0.5766198039 4289113009
-0.3526425958 -0.1446519196 0.5775664449 4289178802
-0.3527108133 -0.1440380514 0.5776782036 4287402391
-0.3527787626 -0.1434238404 0.5777895451 4283783522
-0.3523365855 -0.1426029056 0.5770652890 4283783522
-0.3529139161 -0.1421943605 0.5780108571 4283389534
-0.3529810607 -0.1415790915 0.5781208277 4282863190
-0.3530479670 -0.1409634650 0.5782304406 4283192155
-0.3526043296 -0.1401446909 0.5775038004 4283323741
-0.3536913693 -0.1399331093 0.5792841911 4283389534
-0.3537575603 -0.1393155456 0.5793926120 4283850085
-0.3538234830 -0.1386976391 0.5795005560 4283652708
-0.3538891375 -0.1380793899 0.5796080828 4283521122
-0.3539545238 -0.1374607980 0.5797151923 4283915880
-0.3529979587 -0.1364469379 0.5781484842 4284113259
-0.3515297771 -0.1352397501 0.5757439137 4282994778
-0.3526159823 -0.1350159496 0.5775228739 4283521122
-0.3531911373 -0.1345934719 0.5784648657 4287534495
-0.3512100875 -0.1331994236 0.5752202868 4288455597
-0.3502506614 -0.1321981996 0.5736489296 4288652976
-0.3482677937 -0.1308160275 0.5704013705 4288784562
-0.3478184342 -0.1300143003 0.5696653724 4288521388
-0.3468570113 -0.1290237308 0.5680907369 4288587181
-0.3448716104 -0.1276576221 0.5648390055 4288652974
-0.3464676142 -0.1276179254 0.5674529672 4288784560
-0.3440289795 -0.1254675835 0.5634589195 4288850353
-0.3440887034 -0.1248632073 0.5635566711 4288652974
-0.3431238830 -0.1238887012 0.5619764924 4288521388
-0.3426706493 -0.1231014878 0.5612342358 4288784560
-0.3422169983 -0.1223157719 0.5604912043 4288784560
-0.3453496099 -0.1228069887 0.5656218529 4288718767
-0.3484829962 -0.1232870743 0.5707538128 4288718767
-0.3480292261 -0.1224932149 0.5700106025 4288784560
-0.3511635363 -0.1229573488 0.5751440525 4288652974
-0.3486585319 -0.1214457750 0.5710412860 4288717997
-0.3497421145 -0.1211867779 0.5728160143 4288586411
-0.3513386846 -0.1211006492 0.5754309297 4288717997
-0.3524225056 -0.1208329052 0.5772060156 4288652204
-0.3519671559 -0.1200362891 0.5764602423 4288520618
-0.3525376618 -0.1195893362 0.5773946643 4288323239
-0.3525948524 -0.1189671010 0.5774883032 4288257700
-0.3531650603 -0.1185168177 0.5784221888 4288323493
-0.3537351489 -0.1180644259 0.5793558955 4288257700
-0.3537916243 -0.1174394712 0.5794484019 4288126114
-0.3543614149 -0.1169837639 0.5803815722 4288257700
-0.3544174135 -0.1163573042 0.5804733038 4288191907
-0.3539594114 -0.1155628264 0.5797231793 4287994528
-0.3540147543 -0.1149366796 0.5798138380 4288060321
-0.3540698290 -0.1143102497 0.5799040794 4288191907
-0.3536106646 -0.1135185286 0.5791519880 4288257700
-0.3546931744 -0.1132205948 0.5809249878 4288323493
-0.3537192345 -0.1122660264 0.5793298483 4288389286
-0.3537730873 -0.1116393432 0.5794180632 4288520872
-0.3538266718 -0.1110123768 0.5795058012 4288455079
-0.3538799584 -0.1103851274 0.5795930624 4288586665
-0.3539329469 -0.1097575948 0.5796798468 4288520872
-0.3539856672 -0.1091297790 0.5797662139 4288586665
-0.3545526862 -0.1086593941 0.5806948543 4288981423
-0.3540902436 -0.1078733131 0.5799374580 4289441974
-0.3541420698 -0.1072446629 0.5800223947 4289441974
-0.3541936576 -0.1066157371 0.5801068544 4288849837
-0.3542449176 -0.1059865430 0.5801908374 4289047216
-0.3553258479 -0.1056633368 0.5819611549 4288849837
-0.3479969800 -0.1531571448 0.5709964633 4285823105
-0.3531425893 -0.1547779888 0.5794394612 4284573038
-0.3522001207 -0.1537228227 0.5778930187 4284967796
-0.3532873690 -0.1535533071 0.5796769857 4288257446
-0.3543747663 -0.1533798873 0.5814611912 4289441720
-0.3534311056 -0.1523271352 0.5799128413 4289178548
-0.3529946804 -0.1514955014 0.5791967511 4289113525
-0.3515417576 -0.1502310783 0.5768128037 4289245111
-0.3511744142 -0.1487936676 0.5762100220 4288916146
-0.3512443304 -0.1481829584 0.5763247609 4288850353
-0.3508055806 -0.1473583132 0.5756048560 4289113525
-0.3513834178 -0.1469604522 0.5765529871 4288981423
-0.3515214622 -0.1457364857 0.5767794847 4288981423
-0.3515900671 -0.1451239735 0.5768920779 4289113009
-0.3516584337 -0.1445111036 0.5770042539 4289113009
-0.3517943919 -0.1432842761 0.5772272944 4286678414
-0.3518619537 -0.1426703334 0.5773381591 4283388764
-0.3519292474 -0.1420560479 0.5774486065 4282665811
-0.3520630896 -0.1408264041 0.5776681900 4283455327
-0.3521295786 -0.1402110606 0.5777773261 4284442222
-0.3527055383 -0.1397973746 0.5787222981 4284442222
-0.3527716100 -0.1391804516 0.5788307190 4284442222
-0.3528374135 -0.1385631710 0.5789387226 4283915878
-0.3529029489 -0.1379455477 0.5790462494 4284179050
-0.3529682159 -0.1373275667 0.5791532993 4283718501
-0.3525230587 -0.1365117133 0.5784229040 4284047466
-0.3521417081 -0.1350800842 0.5777971745 4284310638
-0.3522057235 -0.1344625503 0.5779021978 4288126632
-0.3512483835 -0.1334567219 0.5763313770 4288521390
-0.3487585187 -0.1318748891 0.5722460151 4288521388
-0.3493317962 -0.1314548105 0.5731866360 4288718767
-0.3504157960 -0.1312238872 0.5749652982 4288652974
-0.3479235768 -0.1296563148 0.5708760023 4288652974
-0.3469631374 -0.1286658794 0.5693001747 4288718767
-0.3470242620 -0.1280559003 0.5694004297 4288718767
-0.3455515802 -0.1268825084 0.5669840574 4288652974
-0.3456119001 -0.1262745857 0.5670830011 4288587181
-0.3451606035 -0.1254804432 0.5663424730 4288521386
-0.3452202678 -0.1248727813 0.5664404035 4288455593
-0.3473257720 -0.1250011921 0.5698951483 4288521388
-0.3494317234 -0.1251220852 0.5733506083 4288455595
-0.3459093869 -0.1232302114 0.5675711632 4288389802
-0.3469916582 -0.1229831874 0.5693469048 4288455595
-0.3496096134 -0.1232737005 0.5736424923 4288586411
-0.3496683538 -0.1226569489 0.5737388730 4288586411
-0.3502388895 -0.1222185716 0.5746750236 4288586411
-0.3508092761 -0.1217780784 0.5756109357 4288454825
-0.3524040282 -0.1216892079 0.5782275796 4288717997
-0.3524620831 -0.1210667044 0.5783228874 4288586411
-0.3525198698 -0.1204438880 0.5784176588 4288454825
-0.3530898392 -0.1199949235 0.5793529153 4288389032
-0.3531471491 -0.1193705946 0.5794469118 4288389032
-0.3532041907 -0.1187459603 0.5795404911 4288389032
-0.3537736535 -0.1182924658 0.5804749131 4288323493
-0.3543429971 -0.1178368554 0.5814090967 4288126114
-0.3543993533 -0.1172095016 0.5815015435 4288322980
-0.3539424539 -0.1164131388 0.5807518363 4288257187
-0.3539981544 -0.1157860979 0.5808432698 4288191394
-0.3540535867 -0.1151587665 0.5809341669 4288454566
-0.3535954952 -0.1143651530 0.5801826119 4288586152
-0.3536502719 -0.1137381420 0.5802724361 4288586152
-0.3537047505 -0.1131108403 0.5803618431 4288651945
-0.3537589610 -0.1124832556 0.5804507732 4288783531
-0.3532993495 -0.1116930321 0.5796966553 4288586152
-0.3533529043 -0.1110657752 0.5797845125 4288586152
-0.3534061909 -0.1104382426 0.5798719525 4288651947
-0.3534591496 -0.1098104194 0.5799588561 4288454568
-0.3535118699 -0.1091823205 0.5800453424 4288520361
-0.3530503511 -0.1083961576 0.5792881250 4289309877
-0.3536163867 -0.1079252809 0.5802168250 4289704635
-0.3536682129 -0.1072963402 0.5803018808 4289770428
-0.3537197709 -0.1066671312 0.5803864598 4289507254
-0.3547994196 -0.1063458920 0.5821579695 4289309875
-0.3548505306 -0.1057142988 0.5822418332 4288849324
-0.3554663360 -0.1046016812 0.5832522511 4288915117
-0.3500586450 -0.1543457806 0.5754279494 4285165175
-0.3496241570 -0.1535156667 0.5747137666 4284046694
-0.3517232537 -0.1537949592 0.5781642199 4284179050
-0.3523021936 -0.1534046680 0.5791158676 4286942356
-0.3533880711 -0.1532320827 0.5809008479 4289245111
-0.3524456620 -0.1521797329 0.5793517232 4289245111
-0.3515025675 -0.1511305571 0.5778014660 4289376697
-0.3510661125 -0.1503017247 0.5770840049 4289376697
-0.3506292105 -0.1494742930 0.5763658285 4289376697
