VERSION 0.7
FIELDS x y z rgba
SIZE 4 4 4 4
TYPE F F F U
COUNT 1 1 1 1
WIDTH 920
HEIGHT 1
VIEWPOINT 0.0 0.0 0.0 1.0 0.0 0.0 0.0
POINTS 920
DATA ascii
-0.2619430423 -0.1778976768 0.4460350275 4285235263
-0.2620200813 -0.1774547398 0.4461662173 4285300801
-0.2616178393 -0.1766877919 0.4454812407 4285498180
-0.2616944313 -0.1762448847 0.4456116855 4285498182
-0.2617708743 -0.1758015901 0.4457418621 4285366596
-0.2613676190 -0.1750367284 0.4450551867 4285432389
-0.2614436448 -0.1745934635 0.4451846182 4285498182
-0.2610396445 -0.1738302708 0.4444967210 4285366596
-0.2606352568 -0.1730683148 0.4438081086 4285235010
-0.2607105374 -0.1726255268 0.4439363182 4284971838
-0.2603054047 -0.1718652546 0.4432464540 4285366596
-0.2603802681 -0.1714225113 0.4433739185 4285563975
-0.2604549825 -0.1709793955 0.4435011446 4285563975
-0.2605295181 -0.1705358922 0.4436280727 4285498182
-0.2606039345 -0.1700920016 0.4437547624 4285432389
-0.2606781721 -0.1696477383 0.4438812137 4285366596
-0.2607522905 -0.1692031026 0.4440073967 4285563975
-0.2603450119 -0.1684467196 0.4433138669 4285498180
-0.2604186535 -0.1680021435 0.4434393048 4285235008
-0.2604921460 -0.1675571799 0.4435644448 4284906043
-0.2605655193 -0.1671118438 0.4436893463 4284642871
-0.2601569295 -0.1663580686 0.4429936409 4284379699
-0.2602298558 -0.1659128070 0.4431177676 4284182320
-0.2603026032 -0.1654671729 0.4432416558 4283853357
-0.2603752017 -0.1650211662 0.4433652759 4283524392
-0.2604476213 -0.1645747870 0.4434886277 4283327015
-0.2605199218 -0.1641280353 0.4436117113 4283327015
-0.2605920434 -0.1636809111 0.4437345266 4283260968
-0.2601813078 -0.1629311442 0.4430351257 4283326761
-0.2602529824 -0.1624841094 0.4431571960 4283524140
-0.2603245080 -0.1620367020 0.4432789683 4283392554
-0.2603958845 -0.1615889221 0.4434005022 4282997796
-0.2604670823 -0.1611407846 0.4435217679 4282800417
-0.2605381310 -0.1606922746 0.4436427355 4282800418
-0.2606090307 -0.1602434069 0.4437634349 4282800418
-0.2611633837 -0.1600906253 0.4447073936 4282997797
-0.2607503235 -0.1593445539 0.4440040290 4282997797
-0.2613046169 -0.1591893882 0.4449478984 4282866211
-0.2613749802 -0.1587382108 0.4450677335 4282932004
-0.2619293630 -0.1585797966 0.4460117221 4282997797
-0.2619995475 -0.1581270695 0.4461312294 4282932004
-0.2620695531 -0.1576739699 0.4462504387 4282800931
-0.2621394098 -0.1572205126 0.4463694096 4282735138
-0.2626937926 -0.1570564508 0.4473133683 4282735138
-0.2627634406 -0.1566014290 0.4474319816 4282735138
-0.2628329098 -0.1561460495 0.4475502968 4282735138
-0.2629022598 -0.1556902975 0.4476683438 4282669345
-0.2629714012 -0.1552341878 0.4477860928 4282735138
-0.2635256946 -0.1550632864 0.4487299621 4282800931
-0.2635946572 -0.1546056271 0.4488473535 4282866724
-0.2636634409 -0.1541475952 0.4489644766 4282800931
-0.2637320459 -0.1536892056 0.4490813315 4282866724
-0.2638005018 -0.1532304734 0.4491978586 4282998310
-0.2638687789 -0.1527713686 0.4493141174 4282932517
-0.2644229531 -0.1525924206 0.4502577782 4283064103
-0.2640047967 -0.1518521011 0.4495457709 4283064103
-0.2640725672 -0.1513919383 0.4496611655 4282998310
-0.2641401589 -0.1509314179 0.4497762620 4283129896
-0.2642076015 -0.1504705399 0.4498910606 4283129896
-0.2642748356 -0.1500093192 0.4500055611 4283393068
-0.2643419206 -0.1495477408 0.4501197934 4283524654
-0.2644088268 -0.1490858048 0.4502337277 4283327275
-0.2639884949 -0.1483498216 0.4495179653 4283064103
-0.2640549242 -0.1478880495 0.4496310949 4282669345
-0.2641211748 -0.1474259198 0.4497439265 4281814036
-0.2641872764 -0.1469634473 0.4498564601 4281419275
-0.2642531693 -0.1465006322 0.4499686956 4281748240
-0.2643189132 -0.1460374743 0.4500806332 4282011415
-0.2643844783 -0.1455739588 0.4501922727 4282208794
-0.2644498646 -0.1451101005 0.4503035843 4282471966
-0.2645150721 -0.1446458995 0.4504146278 4282866724
-0.2645801008 -0.1441813707 0.4505253732 4283064102
-0.2646449506 -0.1437164843 0.4506357908 4283129895
-0.2647096217 -0.1432512552 0.4507459402 4283064102
-0.2647741139 -0.1427856982 0.4508557618 4282998309
-0.2653270662 -0.1425823718 0.4517973065 4282997543
-0.2653913200 -0.1421152651 0.4519067407 4283063336
-0.2659442723 -0.1419086754 0.4528482854 4283194924
-0.2660082877 -0.1414400339 0.4529573023 4283392303
-0.2660721242 -0.1409710646 0.4530659914 4283392814
-0.2666249871 -0.1407600194 0.4540074170 4283392814
-0.2666885853 -0.1402895004 0.4541156888 4283523887
-0.2667519748 -0.1398186386 0.4542236626 4283194922
-0.2668152153 -0.1393474489 0.4543313086 4282865957
-0.2663885653 -0.1386211067 0.4536048174 4282734371
-0.2664512992 -0.1381501257 0.4537116289 4282734373
-0.2665138543 -0.1376787871 0.4538181424 4282668580
-0.2660861909 -0.1369549185 0.4530899227 4282668580
-0.2661482692 -0.1364838034 0.4531956315 4282800166
-0.2662101388 -0.1360123456 0.4533010125 4282602787
-0.2662718296 -0.1355405748 0.4534060657 4282339615
-0.2658428848 -0.1348197311 0.4526756108 4282339617
-0.2659040689 -0.1343481690 0.4527798593 4282668582
-0.2659651041 -0.1338762790 0.4528837502 4282800168
-0.2660259604 -0.1334040612 0.4529873729 4282668582
-0.2660866082 -0.1329315305 0.4530906379 4282470690
-0.2666381001 -0.1327030659 0.4540297389 4282141725
-0.2666985095 -0.1322290152 0.4541325867 4281352469
-0.2667587101 -0.1317546368 0.4542350769 4281023504
-0.2668187022 -0.1312799454 0.4543372691 4280760332
-0.2673700154 -0.1310458183 0.4552760422 4280760332
-0.2674297690 -0.1305696219 0.4553777575 4280891917
-0.2679810226 -0.1303322315 0.4563164413 4281089296
-0.2685323060 -0.1300927699 0.4572551548 4281286675
-0.2685916722 -0.1296138614 0.4573562741 4281286675
-0.2691428959 -0.1293711364 0.4582948983 4281286929
-0.2692020237 -0.1288907081 0.4583955407 4281747480
-0.2692609131 -0.1284099668 0.4584958553 4282208031
-0.2693196237 -0.1279288977 0.4585958123 4282471203
-0.2698706090 -0.1276805252 0.4595340490 4282734375
-0.2699290514 -0.1271979511 0.4596335292 4282931754
-0.2704799771 -0.1269463003 0.4605716169 4283194924
-0.2705381215 -0.1264622360 0.4606706500 4283458096
-0.2710889578 -0.1262073219 0.4616085887 4283721266
-0.2716397941 -0.1259503216 0.4625465870 4283852852
-0.2716975510 -0.1254635453 0.4626449347 4284116024
-0.2722483277 -0.1252032816 0.4635827839 4284313403
-0.2727991045 -0.1249409392 0.4645206332 4284379196
-0.2728564739 -0.1244514659 0.4646183252 4284313403
-0.2729136348 -0.1239616871 0.4647156596 4284247610
-0.2734642327 -0.1236948743 0.4656532109 4284116024
-0.2735210955 -0.1232035980 0.4657500386 4283918645
-0.2740715742 -0.1229335144 0.4666873813 4283787059
-0.2741281390 -0.1224407330 0.4667837024 4283787059
-0.2746785283 -0.1221673787 0.4677208960 4283721266
-0.2747347653 -0.1216730997 0.4678166807 4283655216
-0.2747908235 -0.1211785227 0.4679121375 4283786802
-0.2753410041 -0.1209006980 0.4688489735 4284049974
-0.2753967345 -0.1204046234 0.4689438939 4284181560
-0.2759467959 -0.1201235279 0.4698805213 4283984181
-0.2760022283 -0.1196259633 0.4699749053 4283918388
-0.2765521705 -0.1193415895 0.4709113240 4283984181
-0.2766072750 -0.1188425347 0.4710051715 4283984181
-0.2771570981 -0.1185548827 0.4719414115 4283984181
-0.2772118747 -0.1180543378 0.4720346928 4283984181
-0.2772664428 -0.1175535023 0.4721276164 4284049974
-0.2773208320 -0.1170523688 0.4722201824 4284049974
-0.2773749828 -0.1165509373 0.4723123908 4283852595
-0.2774289250 -0.1160492152 0.4724042416 4283852595
-0.2779781520 -0.1157535315 0.4733394980 4283721009
-0.2780317664 -0.1152503267 0.4734307826 4283655216
-0.2780851722 -0.1147468388 0.4735217094 4283655216
-0.2781383395 -0.1142430529 0.4736122787 4283655216
-0.2781913280 -0.1137389839 0.4737024605 4283523628
-0.2787400484 -0.1134364679 0.4746368527 4283392042
-0.2787926793 -0.1129309237 0.4747264981 4283457837
-0.2793412805 -0.1126251370 0.4756606221 4283326251
-0.2798898518 -0.1123172641 0.4765947163 4283392042
-0.2804383636 -0.1120073050 0.4775287211 4283589421
-0.2809868455 -0.1116952598 0.4784626961 4283655216
-0.2815353274 -0.1113811284 0.4793966115 4283655216
-0.2820837498 -0.1110649034 0.4803304672 4283589423
-0.2826321125 -0.1107465997 0.4812642336 4283523630
-0.2826836705 -0.1102324724 0.4813520014 4283260717
-0.2832318842 -0.1099108905 0.4822854996 4283523889
-0.2832830548 -0.1093953028 0.4823726416 4283787061
-0.2838310897 -0.1090704426 0.4833058417 4284050233
-0.2838819325 -0.1085533947 0.4833923876 4284444991
-0.2844297886 -0.1082252637 0.4843252897 4284971335
-0.2844802439 -0.1077067554 0.4844112396 4285234509
-0.2845304906 -0.1071879640 0.4844968021 4284905544
-0.2850780487 -0.1068553850 0.4854291379 4284444480
-0.2851279080 -0.1063351408 0.4855140746 4283720757
-0.2856752574 -0.1059992909 0.4864460826 4283128620
-0.2862225473 -0.1056613550 0.4873780012 4283062827
-0.2862719297 -0.1051384732 0.4874620736 4282997034
-0.2868190110 -0.1047972664 0.4883936644 4282865448
-0.2873660624 -0.1044539735 0.4893251657 4282602276
-0.2874149084 -0.1039284691 0.4894083440 4282470690
-0.2879617512 -0.1035818979 0.4903394878 4282404897
-0.2880102396 -0.1030549482 0.4904220402 4282404897
-0.2885568440 -0.1027051210 0.4913528264 4282601506
-0.2886049449 -0.1021767259 0.4914347231 4282535713
-0.2891513407 -0.1018236279 0.4923651516 4282338336
-0.2891990840 -0.1012937948 0.4924463928 4282601508
-0.2897452712 -0.1009374335 0.4933764637 4282798887
-0.2907901406 -0.1007517949 0.4951556921 4282535715
-0.2913362682 -0.1003903374 0.4960856438 4282404899
-0.2923812866 -0.1001977772 0.4978650510 4282733864
-0.2934263647 -0.1000012904 0.4996445775 4282865448
-0.2944715023 -0.0998008847 0.5014243126 4283062827
-0.2955167592 -0.0995965600 0.5032041073 4283062827
-0.2970613241 -0.0995556191 0.5058342218 4283194413
-0.2986061275 -0.0995089263 0.5084646940 4283128622
-0.2996517420 -0.0992909744 0.5102451444 4283457587
-0.3016964197 -0.0993982330 0.5137268305 4284181310
-0.3032419086 -0.0993342325 0.5163584352 4283128622
-0.3047876060 -0.0992644578 0.5189904571 4282864678
-0.3058337569 -0.0990270972 0.5207718611 4282930471
-0.3073798120 -0.0989466980 0.5234044194 4282996264
-0.3084261417 -0.0987005383 0.5251861811 4282930471
-0.3104724586 -0.0987685397 0.5286706090 4282668071
-0.3115190566 -0.0985126644 0.5304527283 4282733864
-0.3130657971 -0.0984100476 0.5330865383 4283325222
-0.3151129186 -0.0984579250 0.5365723372 4283851566
-0.3166601062 -0.0983428061 0.5392068624 4284246074
-0.3182074726 -0.0982218906 0.5418417454 4284048695
-0.3192546070 -0.0979416668 0.5436248183 4283785521
-0.3208022416 -0.0978100821 0.5462601185 4284311865
-0.3223500550 -0.0976727009 0.5488957167 4285166925
-0.3233973980 -0.0973787755 0.5506791472 4285495890
-0.2783764899 -0.2231554389 0.4749149084 4288914088
-0.2789380252 -0.2230773717 0.4758729339 4290824094
-0.2800616920 -0.2229152620 0.4777899384 4289443703
-0.2796852589 -0.2220859975 0.4771477282 4288719980
-0.2793084085 -0.2212577909 0.4765047729 4288851568
-0.2794006765 -0.2208017707 0.4766621888 4289706877
-0.2790230811 -0.2199749649 0.4760180116 4289838461
-0.2791149318 -0.2195188105 0.4761747122 4289377910
-0.2787365913 -0.2186934054 0.4755292833 4288852587
-0.2783578336 -0.2178690881 0.4748831093 4288457829
-0.2784489989 -0.2174131274 0.4750386178 4287931745
-0.2785400152 -0.2169567049 0.4751939178 4287602780
-0.2786309123 -0.2164998502 0.4753489494 4287734364
-0.2787216604 -0.2160425335 0.4755038023 4287800157
-0.2773993909 -0.2144922912 0.4732479751 4287734112
-0.2774894238 -0.2140364051 0.4734015763 4287997284
-0.2766367793 -0.2128548473 0.4719469249 4288852845
-0.2757833898 -0.2116759568 0.4704910517 4288984431
-0.2749292552 -0.2104997337 0.4690338671 4288852334
-0.2740743756 -0.2093261629 0.4675754607 4288325990
-0.2736906409 -0.2085147798 0.4669207931 4287931232
-0.2728344202 -0.2073457986 0.4654600918 4287931232
-0.2729218602 -0.2068953812 0.4656092227 4287997538
-0.2720644772 -0.2057301998 0.4641465247 4288063331
-0.2721513212 -0.2052804977 0.4642947018 4288063331
-0.2717654109 -0.2044747472 0.4636363089 4287931745
-0.2713790536 -0.2036701292 0.4629772007 4287865952
-0.2709922791 -0.2028666586 0.4623173177 4287997538
-0.2706050277 -0.2020643204 0.4616567194 4288063077
-0.2697441578 -0.2009106427 0.4601880014 4287865698
-0.2693558931 -0.2001113743 0.4595256746 4287536987
-0.2684936821 -0.1989623606 0.4580547214 4287405401
-0.2690517902 -0.1988664120 0.4590068460 4286814804
-0.2681885660 -0.1977204829 0.4575341642 4286420046
-0.2682725489 -0.1972743720 0.4576774538 4286222156
-0.2678822875 -0.1964800805 0.4570116699 4286090570
-0.2674915791 -0.1956869662 0.4563451111 4285827398
-0.2671004534 -0.1948949993 0.4556778371 4285630019
-0.2667088807 -0.1941042095 0.4550098181 4285564739
-0.2663168907 -0.1933145821 0.4543410540 4285630532
-0.2659244537 -0.1925261170 0.4536715448 4285959497
-0.2660065889 -0.1920818388 0.4538117051 4285696325
-0.2660886049 -0.1916371584 0.4539515972 4285564228
-0.2656951547 -0.1908506453 0.4532803893 4285498435
-0.2657767534 -0.1904059350 0.4534195662 4285301056
-0.2658582032 -0.1899608076 0.4535585046 4285103677
-0.2654637396 -0.1891762465 0.4528855681 4284906555
-0.2650688589 -0.1883928776 0.4522119164 4284972348
-0.2646735609 -0.1876106858 0.4515375197 4285103934
-0.2642778158 -0.1868297011 0.4508623779 4284972348
-0.2643579841 -0.1863857359 0.4509991407 4285038141
-0.2639615238 -0.1856063455 0.4503227770 4284972348
-0.2640412450 -0.1851623654 0.4504587948 4284906555
-0.2641208470 -0.1847179979 0.4505945444 4285169727
-0.2637233734 -0.1839406043 0.4499164820 4285630021
-0.2633254826 -0.1831644177 0.4492376745 4286156365
-0.2629271746 -0.1823894233 0.4485581219 4286419537
-0.2630057335 -0.1819458753 0.4486921728 4286616916
-0.2630841732 -0.1815019101 0.4488259852 4286419282
-0.2622072399 -0.1804003567 0.4473299384 4285761352
-0.2622851133 -0.1799572259 0.4474627674 4285432387
-0.2618849277 -0.1791867167 0.4467800558 4285563973
-0.2619623542 -0.1787436008 0.4469121397 4285629766
-0.2615614533 -0.1779747307 0.4462282062 4285563973
-0.2616384327 -0.1775316298 0.4463595450 4285892938
-0.2612368166 -0.1767644137 0.4456743896 4286221903
-0.2613133788 -0.1763213426 0.4458049834 4286682456
-0.2613897920 -0.1758778989 0.4459353387 4286879835
-0.2609871924 -0.1751127541 0.4452484846 4286748249
-0.2601051331 -0.1740283519 0.4437436759 4286221905
-0.2601806819 -0.1735861748 0.4438725710 4285563973
-0.2602560818 -0.1731436253 0.4440011978 4285103422
-0.2603313327 -0.1727006733 0.4441295862 4284906043
-0.2599268556 -0.1719401181 0.4434395432 4285629766
-0.2600016594 -0.1714972258 0.4435671568 4286024526
-0.2600763142 -0.1710539609 0.4436945319 4286156112
-0.2601508200 -0.1706103086 0.4438216686 4286485077
-0.2602252066 -0.1701662689 0.4439485073 4286748249
-0.2598191500 -0.1694087088 0.4432557821 4286879835
-0.2598930597 -0.1689647436 0.4433819056 4287011421
-0.2599668205 -0.1685203910 0.4435077608 4287011672
-0.2600404322 -0.1680756509 0.4436333477 4286748500
-0.2601138949 -0.1676305383 0.4437586665 4286550610
-0.2601872087 -0.1671850532 0.4438837469 4286287438
-0.2597793043 -0.1664309949 0.4431878030 4285958218
-0.2598521709 -0.1659855843 0.4433121383 4285629253
-0.2599248886 -0.1655397862 0.4434361756 4285300801
-0.2599974275 -0.1650936306 0.4435599446 4284971836
-0.2600698173 -0.1646470875 0.4436834753 4284511285
-0.2601420581 -0.1642001867 0.4438067079 4284379699
-0.2602141500 -0.1637529135 0.4439297020 4284181809
-0.2602860928 -0.1633052528 0.4440523982 4284050223
-0.2598757148 -0.1625556499 0.4433523118 4284050225
-0.2599472106 -0.1621080786 0.4434742630 4283787053
-0.2600185275 -0.1616601497 0.4435959458 4283327015
-0.2600896955 -0.1612118483 0.4437173605 4283063843
-0.2601607144 -0.1607631892 0.4438385069 4283195176
-0.2602315545 -0.1603141576 0.4439593554 4283129383
-0.2603022456 -0.1598647535 0.4440799654 4283129383
-0.2603727579 -0.1594149917 0.4442002773 4283129383
-0.2609263361 -0.1592597812 0.4451446533 4282932004
-0.2609966695 -0.1588084549 0.4452646673 4282932004
-0.2615503073 -0.1586500108 0.4462091625 4282932004
-0.2616204321 -0.1581971049 0.4463288188 4282932004
-0.2616904080 -0.1577438414 0.4464482069 4282866724
-0.2617602348 -0.1572902203 0.4465673268 4282800931
-0.2623138428 -0.1571261287 0.4475118220 4282800677
-0.2623834610 -0.1566709429 0.4476305842 4282800677
-0.2624529302 -0.1562153846 0.4477490485 4282669091
-0.2625221908 -0.1557594836 0.4478672445 4282669091
-0.2625913322 -0.1553032100 0.4479851723 4282734884
-0.2631448805 -0.1551322639 0.4489295483 4282800677
-0.2632137835 -0.1546744257 0.4490471184 4282931750
-0.2632825375 -0.1542162299 0.4491643906 4282865957
-0.2633511126 -0.1537576765 0.4492813945 4282931750
-0.2634195089 -0.1532987654 0.4493981004 4282997543
-0.2634877563 -0.1528394967 0.4495145082 4282997543
-0.2640411854 -0.1526605040 0.4504586756 4282997543
-0.2636237144 -0.1519198865 0.4497464597 4283063590
-0.2636914551 -0.1514595598 0.4498620033 4282997797
-0.2637589872 -0.1509988606 0.4499772489 4282997797
-0.2638264000 -0.1505378187 0.4500922263 4283063590
-0.2638936043 -0.1500764191 0.4502068758 4283194922
-0.2639606297 -0.1496146768 0.4503212571 4283326508
-0.2640275061 -0.1491525769 0.4504353404 4283260969
-0.2640942037 -0.1486901194 0.4505491257 4283129383
-0.2636742294 -0.1479543447 0.4498326480 4282734625
-0.2637404501 -0.1474920362 0.4499456286 4281813523
-0.2638065219 -0.1470293999 0.4500583112 4281485838
-0.2638723850 -0.1465664059 0.4501706958 4281683217
-0.2639380991 -0.1461030543 0.4502827823 4282077205
-0.2640036047 -0.1456393749 0.4503945708 4282208791
-0.2640689611 -0.1451753378 0.4505060613 4282471963
-0.2641341388 -0.1447109729 0.4506172240 4282866721
-0.2641991377 -0.1442462504 0.4507281184 4282867493
-0.2642639577 -0.1437811852 0.4508387148 4282670114
-0.2643285990 -0.1433157921 0.4509489834 4282932517
-0.2643930614 -0.1428500414 0.4510589540 4282866724
-0.2644573450 -0.1423839629 0.4511686265 4282734884
-0.2650094926 -0.1421793848 0.4521105886 4282800677
-0.2650735378 -0.1417117566 0.4522198737 4282998056
-0.2656256855 -0.1415039152 0.4531618357 4283327021
-0.2656894624 -0.1410347521 0.4532706738 4283458607
-0.2657530904 -0.1405652463 0.4533792138 4283392814
-0.2663051486 -0.1403529346 0.4543210566 4283458094
-0.2658797801 -0.1396252364 0.4535953403 4283194922
-0.2659428418 -0.1391547322 0.4537029564 4282997543
-0.2660057545 -0.1386838853 0.4538102448 4282931750
-0.2660684586 -0.1382127106 0.4539172053 4282931750
-0.2661309540 -0.1377412081 0.4540238678 4282931750
-0.2657039762 -0.1370170265 0.4532954097 4282931752
-0.2657660246 -0.1365457177 0.4534012377 4282931752
-0.2658278644 -0.1360740960 0.4535067677 4282536994
-0.2653998733 -0.1353524029 0.4527765810 4282208029
-0.2654612362 -0.1348809749 0.4528812766 4282142238
-0.2655224204 -0.1344092339 0.4529856741 4282273824
-0.2655833960 -0.1339371651 0.4530897141 4282208031
-0.2656442225 -0.1334647685 0.4531934559 4281879066
-0.2657048404 -0.1329920441 0.4532968700 4281550101
-0.2662556171 -0.1327634901 0.4542365074 4281286929
-0.2663159668 -0.1322892606 0.4543394744 4280760331
-0.2663761377 -0.1318146884 0.4544421136 4280694538
-0.2669267952 -0.1315816939 0.4553815424 4280694538
-0.2669866681 -0.1311056167 0.4554837346 4280826124
-0.2670463920 -0.1306292117 0.4555855989 4280957710
-0.2675969005 -0.1303917468 0.4565247893 4281155089
-0.2681474686 -0.1301522106 0.4574640393 4281418515
-0.2686980367 -0.1299105883 0.4584033191 4281550101
-0.2687572837 -0.1294302791 0.4585044384 4282010650
-0.2688163817 -0.1289496571 0.4586052001 4282405408
-0.2693668008 -0.1287035793 0.4595442414 4282865959
-0.2694256008 -0.1282214522 0.4596445560 4283194924
-0.2694841921 -0.1277389973 0.4597445130 4283589169
-0.2700344622 -0.1274884641 0.4606832862 4283786548
-0.2700927556 -0.1270045042 0.4607827663 4284049974
-0.2706429660 -0.1267506927 0.4617213905 4284313146
-0.2711931765 -0.1264947951 0.4626600742 4284181817
-0.2712510824 -0.1260081381 0.4627588987 4284247610
-0.2718012333 -0.1257489622 0.4636974037 4284313403
-0.2718588710 -0.1252608001 0.4637957513 4284313403
-0.2724089026 -0.1249983609 0.4647341073 4284313403
-0.2724662423 -0.1245086864 0.4648319483 4284181817
-0.2725233734 -0.1240187064 0.4649294317 4283984438
-0.2730732262 -0.1237517968 0.4658674896 4283918645
-0.2731300592 -0.1232603118 0.4659644365 4283655475
-0.2736798227 -0.1229901314 0.4669023454 4283655475
-0.2737363577 -0.1224971488 0.4669987857 4283721268
-0.2737926841 -0.1220038608 0.4670948684 4283787061
-0.2743422389 -0.1217292100 0.4680324197 4283852341
-0.2743982375 -0.1212344244 0.4681279957 4283983927
-0.2749477029 -0.1209564954 0.4690653384 4284181306
-0.2750034034 -0.1204602122 0.4691603780 4284181306
-0.2755527198 -0.1201790050 0.4700975418 4283786802
-0.2756081223 -0.1196812391 0.4701920450 4283721009
-0.2756633162 -0.1191831604 0.4702861905 4283655216
-0.2762123942 -0.1188974902 0.4712229669 4283721009
-0.2762672901 -0.1183979288 0.4713165760 4283655216
-0.2763219476 -0.1178980693 0.4714098275 4283655216
-0.2763763964 -0.1173979118 0.4715027213 4283721009
-0.2769251466 -0.1171065792 0.4724389017 4283721009
-0.2769792676 -0.1166049391 0.4725312293 4283721009
-0.2770331800 -0.1161030084 0.4726232290 4283655216
-0.2770868838 -0.1156007797 0.4727148414 4283589421
-0.2776352763 -0.1153037921 0.4736503959 4283589421
-0.2776886523 -0.1148000881 0.4737414420 4283589421
-0.2777417898 -0.1142960861 0.4738321304 4283589421
-0.2777947485 -0.1137918010 0.4739224613 4283457835
-0.2778474689 -0.1132872328 0.4740124345 4283326249
-0.2783953547 -0.1129834056 0.4749471247 4283392554
-0.2784477472 -0.1124773622 0.4750365019 4283260968
-0.2789954841 -0.1121702641 0.4759709537 4283260968
-0.2795431912 -0.1118610874 0.4769053459 4283326761
-0.2800908685 -0.1115498170 0.4778396785 4283458347
-0.2806384861 -0.1112364605 0.4787739515 4283524140
-0.2811860740 -0.1109210104 0.4797081649 4283655216
-0.2817336619 -0.1106034815 0.4806422889 4283721009
-0.2822811604 -0.1102838591 0.4815763831 4283786802
-0.2823324502 -0.1097692251 0.4816638827 4283721009
-0.2823835313 -0.1092543229 0.4817510247 4283589423
-0.2829307318 -0.1089302376 0.4826845825 4283589423
-0.2829814553 -0.1084138677 0.4827710986 4283852341
-0.2835285068 -0.1080865115 0.4837043583 4284312892
-0.2835788429 -0.1075686812 0.4837902486 4284839238
-0.2841257155 -0.1072380543 0.4847232103 4284905031
-0.2841756940 -0.1067187637 0.4848085046 4285299791
-0.2847223580 -0.1063848659 0.4857411087 4284839240
-0.2847720087 -0.1058641225 0.4858257771 4284377919
-0.2853184640 -0.1055269539 0.4867580831 4283785782
-0.2858648896 -0.1051876917 0.4876902699 4283391024
-0.2864112556 -0.1048463434 0.4886223972 4283127852
-0.2869575620 -0.1045029014 0.4895543754 4282733864
-0.2875038087 -0.1041573733 0.4904862940 4282602278
-0.2875525057 -0.1036304608 0.4905693531 4282536485
-0.2880985439 -0.1032816544 0.4915009141 4282404899
-0.2886444926 -0.1029307619 0.4924323261 4282667301
-0.2886926532 -0.1024012268 0.4925144911 4282667301
-0.2892384231 -0.1020470634 0.4934455752 4282469922
-0.2897841036 -0.1016908139 0.4943765104 4282535715
-0.2903297246 -0.1013324633 0.4953073561 4282535715
-0.2913733423 -0.1011449322 0.4970878065 4282206750
-0.2919189036 -0.1007814854 0.4980185330 4282207520
-0.2924643755 -0.1004159525 0.4989491105 4282865450
-0.2930097878 -0.1000483260 0.4998795688 4283325229
-0.2940534949 -0.0998478383 0.5016601682 4283588401
-0.2950972915 -0.0996434316 0.5034409165 4283522608
-0.2966397405 -0.0996024907 0.5060723424 4283588401
-0.2976837754 -0.0993892998 0.5078534484 4283260208
-0.2992265821 -0.0993377492 0.5104855299 4283260208
-0.3007695973 -0.0992804244 0.5131179690 4284114747
-0.3023128510 -0.0992173254 0.5157507658 4283851575
-0.3038563132 -0.0991484523 0.5183839798 4283325229
-0.3049009740 -0.0989119187 0.5201661587 4283062057
-0.3064447939 -0.0988324136 0.5227999091 4283193386
-0.3074896336 -0.0985870808 0.5245824456 4283127593
-0.3095330000 -0.0986560434 0.5280684829 4282864680
-0.3110774159 -0.0985591859 0.5307032466 4282864680
-0.3126220107 -0.0984565318 0.5333383679 4283193382
-0.3141667843 -0.0983480886 0.5359737873 4283785519
-0.3157117367 -0.0982338563 0.5386095047 4284114234
-0.3172568977 -0.0981138200 0.5412455201 4284180027
-0.3188022077 -0.0979879871 0.5438818932 4283917107
-0.3198479414 -0.0977036953 0.5456659198 4283982900
-0.3213935196 -0.0975671783 0.5483027101 4284837957
-0.3224393427 -0.0972740501 0.5500869155 4285430094
-0.2760932446 -0.2217448205 0.4719128609 4289506225
-0.2780577540 -0.2227950543 0.4752707183 4290626966
-0.2786186039 -0.2227157801 0.4762293100 4290100622
-0.2791796029 -0.2226345390 0.4771882296 4289443701
-0.2797408104 -0.2225513011 0.4781474471 4288719978
-0.2793647349 -0.2217220664 0.4775046408 4289114740
-0.2789882123 -0.2208938897 0.4768610597 4289970049
-0.2790802717 -0.2204372883 0.4770184457 4289706873
-0.2787030339 -0.2196105123 0.4763736427 4289180529
-0.2783253491 -0.2187848240 0.4757280648 4288654436
-0.2784167230 -0.2183284014 0.4758842587 4288325471
-0.2780383229 -0.2175041288 0.4752374589 4287602780
-0.2781292796 -0.2170475870 0.4753929377 4287339608
-0.2782201171 -0.2165905833 0.4755482078 4287668571
-0.2783108056 -0.2161331475 0.4757032096 4287800157
-0.2784013748 -0.2156752497 0.4758580327 4288128613
-0.2780213952 -0.2148533762 0.4752085209 4288786543
-0.2766997814 -0.2133070678 0.4729495943 4289181810
-0.2763186097 -0.2124889493 0.4722980559 4288852845
-0.2754661143 -0.2113107294 0.4708409309 4288391783
-0.2746128738 -0.2101351768 0.4693825543 4287997025
-0.2737589180 -0.2089622915 0.4679228663 4287799646
-0.2720487416 -0.2066245675 0.4649997652 4287997536
-0.2716641724 -0.2058170438 0.4643424451 4287997536
-0.2712791860 -0.2050106674 0.4636844099 4287931745
-0.2708937526 -0.2042054087 0.4630256295 4287800159
-0.2695637047 -0.2026913464 0.4607522488 4287799646
-0.2705938518 -0.2029525042 0.4625129700 4287931232
-0.2702072561 -0.2021498829 0.4618522227 4287931491
-0.2688751519 -0.2006431520 0.4595753253 4287734112
-0.2684873939 -0.1998443902 0.4589125514 4287405401
-0.2680992186 -0.1990467757 0.4582490623 4287273815
-0.2686565816 -0.1989508420 0.4592016935 4286945879
-0.2677946687 -0.1978044808 0.4577285051 4286419535
-0.2678786218 -0.1973582208 0.4578720033 4286024777
-0.2670155764 -0.1962157488 0.4563968182 4285893191
-0.2675725222 -0.1961173564 0.4573487937 4285630021
-0.2667084634 -0.1949779987 0.4558718801 4285630021
-0.2663175464 -0.1941869110 0.4552037120 4285893704
-0.2659261823 -0.1933970004 0.4545347691 4286091083
-0.2660085559 -0.1929522157 0.4546755850 4285762118
-0.2656164765 -0.1921638548 0.4540054500 4285498946
-0.2652239799 -0.1913766712 0.4533345401 4285432642
-0.2653056681 -0.1909322143 0.4534741342 4285564228
-0.2653871775 -0.1904873699 0.4536134899 4285498435
-0.2654685676 -0.1900421083 0.4537526071 4285169470
-0.2650747895 -0.1892572641 0.4530795217 4284906555
-0.2646805644 -0.1884735972 0.4524056911 4284972348
-0.2638105750 -0.1873535514 0.4509186447 4284972348
-0.2643662989 -0.1872466356 0.4518685341 4284906555
-0.2639709115 -0.1864657551 0.4511927366 4284906555
-0.2635751069 -0.1856860667 0.4505161941 4284840762
-0.2636547685 -0.1852419525 0.4506523907 4285037629
-0.2637343109 -0.1847974360 0.4507883191 4285235008
-0.2633374929 -0.1840197593 0.4501100779 4285630021
-0.2629402578 -0.1832432747 0.4494310915 4286090572
-0.2625426054 -0.1824680120 0.4487513900 4286221903
-0.2626211345 -0.1820243001 0.4488856196 4286748247
-0.2626995146 -0.1815802008 0.4490195811 4286879322
-0.2618239224 -0.1804782301 0.4475229979 4286484564
-0.2619017363 -0.1800349504 0.4476560056 4286484564
-0.2615022063 -0.1792641431 0.4469731152 4286945115
-0.2615796030 -0.1788208783 0.4471053779 4287339871
-0.2611793578 -0.1780517250 0.4464212358 4287537250
-0.2612563074 -0.1776084900 0.4465527534 4287405664
-0.2613331079 -0.1771648526 0.4466840327 4287208285
-0.2609318495 -0.1763977557 0.4459981918 4287142494
-0.2610082030 -0.1759541631 0.4461287260 4287142494
-0.2606062591 -0.1751887351 0.4454416931 4287274080
-0.2597255409 -0.1741039008 0.4439363480 4287471459
-0.2598010600 -0.1736615896 0.4440653920 4287800422
-0.2598764002 -0.1732188761 0.4441941977 4287932008
-0.2599516213 -0.1727757901 0.4443227351 4288129387
-0.2595477998 -0.1720149517 0.4436325133 4288721524
-0.2596225739 -0.1715719104 0.4437603056 4288524147
-0.2596971691 -0.1711284816 0.4438878596 4287932010
-0.2597716451 -0.1706846803 0.4440151155 4287866217
-0.2598459721 -0.1702404916 0.4441421628 4288063596
-0.2594405711 -0.1694826484 0.4434492290 4287866215
-0.2595144510 -0.1690385193 0.4435755014 4287734629
-0.2595881820 -0.1685940176 0.4437015355 4287406428
-0.2596617341 -0.1681491286 0.4438272715 4287209049
-0.2597351670 -0.1677038670 0.4439527690 4287011161
-0.2598084211 -0.1672582328 0.4440779984 4286550610
-0.2594011724 -0.1665038764 0.4433818758 4286155597
-0.2594739795 -0.1660583019 0.4435063601 4285958218
-0.2595466673 -0.1656123549 0.4436305761 4285761607
-0.2596191764 -0.1651660502 0.4437545240 4285695814
-0.2596915364 -0.1647193581 0.4438781738 4285958986
-0.2597637177 -0.1642722934 0.4440015852 4285761607
-0.2598357797 -0.1638248563 0.4441247284 4285497667
-0.2599076629 -0.1633770466 0.4442476332 4285300288
-0.2599793971 -0.1629288644 0.4443702400 4285102911
-0.2600509822 -0.1624803096 0.4444925785 4284773946
-0.2601223886 -0.1620313972 0.4446146190 4284313908
-0.2601936460 -0.1615821123 0.4447364211 4284050736
-0.2602647543 -0.1611324400 0.4448579550 4283853105
-0.2603356838 -0.1606824249 0.4449791908 4283655726
-0.2604064643 -0.1602320224 0.4451001883 4283524140
-0.2599947155 -0.1594853699 0.4443964064 4283392554
-0.2605475485 -0.1593301296 0.4453413188 4283326762
-0.2606178224 -0.1588786393 0.4454614818 4283195176
-0.2611707151 -0.1587201655 0.4464065135 4283195176
-0.2612408102 -0.1582671106 0.4465263188 4283129383
-0.2613107562 -0.1578136832 0.4466458559 4283063590
-0.2613805234 -0.1573598981 0.4467651248 4282932004
-0.2619334161 -0.1571957767 0.4477101564 4282800677
-0.2620030046 -0.1567404121 0.4478290677 4282734884
-0.2625559270 -0.1565730423 0.4487741888 4282669091
-0.2626253068 -0.1561161280 0.4488927424 4282734884
-0.2626945078 -0.1556588411 0.4490110576 4282734884
-0.2627635598 -0.1552011967 0.4491290450 4282734884
-0.2628324330 -0.1547431946 0.4492467642 4282734371
-0.2629011273 -0.1542848349 0.4493642151 4282800164
-0.2629696727 -0.1538261175 0.4494813383 4282931752
-0.2630380392 -0.1533670276 0.4495981932 4282997545
-0.2631062269 -0.1529075950 0.4497147799 4282997545
-0.2636589408 -0.1527285427 0.4506594837 4282931752
-0.2632421255 -0.1519876420 0.4499470294 4282931750
-0.2633098066 -0.1515271366 0.4500627518 4282865957
-0.2633773386 -0.1510662735 0.4501781464 4282932004
-0.2634446621 -0.1506050676 0.4502932727 4282997797
-0.2635118365 -0.1501434892 0.4504080713 4283129129
-0.2635788620 -0.1496815681 0.4505226016 4283260715
-0.2636456788 -0.1492192894 0.4506368339 4283260715
-0.2637123466 -0.1487566680 0.4507507682 4283260715
-0.2637788355 -0.1482936889 0.4508644044 4282800418
-0.2638451457 -0.1478303671 0.4509777427 4281945109
-0.2634252310 -0.1470953077 0.4502600431 4281551633
-0.2634910941 -0.1466321349 0.4503725767 4281617426
-0.2635567486 -0.1461686194 0.4504848123 4281945873
-0.2636222243 -0.1457047611 0.4505967498 4282143252
-0.2636875510 -0.1452405453 0.4507083893 4282406424
-0.2637526989 -0.1447760016 0.4508197308 4282866975
-0.2638176382 -0.1443111002 0.4509307742 4282933286
-0.2638824284 -0.1438458711 0.4510414898 4282735907
-0.2639470398 -0.1433802843 0.4511519074 4282669861
-0.2640114725 -0.1429143697 0.4512620568 4282669861
-0.2640757263 -0.1424480975 0.4513718486 4282669091
-0.2641397715 -0.1419814974 0.4514813721 4282734884
-0.2646911442 -0.1417756528 0.4524237812 4282998056
-0.2647549510 -0.1413075179 0.4525328577 4283392814
-0.2653062940 -0.1410983950 0.4534752667 4283590195
-0.2653698921 -0.1406287253 0.4535839260 4283590195
-0.2654332817 -0.1401586980 0.4536923170 4283524141
-0.2654965222 -0.1396883428 0.4538003504 4283195176
-0.2655595541 -0.1392176598 0.4539081156 4283129383
-0.2656224072 -0.1387466341 0.4540155530 4283129383
-0.2656850815 -0.1382752657 0.4541226625 4283194922
-0.2657475471 -0.1378035843 0.4542294741 4283194922
-0.2653212249 -0.1370791048 0.4535007775 4283129129
-0.2653832436 -0.1366076171 0.4536067545 4282931750
-0.2654450536 -0.1361358017 0.4537124336 4282602787
-0.2650177181 -0.1354138106 0.4529820085 4282208029
-0.2650790811 -0.1349422038 0.4530868530 4281813271
-0.2651402056 -0.1344702691 0.4531913698 4281615892
-0.2652011812 -0.1339980066 0.4532955587 4281352722
-0.2652619481 -0.1335254312 0.4533994496 4280892171
-0.2653225362 -0.1330525130 0.4535030127 4280694792
-0.2658725679 -0.1328238994 0.4544431567 4280694792
-0.2659329176 -0.1323494613 0.4545462728 4280826378
-0.2659930289 -0.1318747103 0.4546490610 4280957964
-0.2665429413 -0.1316416264 0.4555889964 4281089296
-0.2670929134 -0.1314064711 0.4565289915 4281155089
-0.2671526968 -0.1309290081 0.4566311836 4281352722
-0.2672122717 -0.1304512173 0.4567330480 4281615894
-0.2677620947 -0.1302116066 0.4576728046 4282142236
-0.2683119178 -0.1299699098 0.4586126208 4282668580
-0.2683711648 -0.1294894069 0.4587138593 4283523630
-0.2684302032 -0.1290085912 0.4588147998 4283786802
-0.2689799070 -0.1287624240 0.4597543478 4284049974
-0.2690386474 -0.1282801032 0.4598547816 4284247353
-0.2695882618 -0.1280306578 0.4607942104 4284378939
-0.2696467638 -0.1275468171 0.4608941674 4284378939
-0.2701962888 -0.1272941083 0.4618334770 4284378937
-0.2702544928 -0.1268087626 0.4619329572 4284510523
-0.2708039582 -0.1265527755 0.4628721178 4284247610
-0.2708618641 -0.1260659099 0.4629710913 4284313403
-0.2714112401 -0.1258066595 0.4639101326 4284181817
-0.2714688480 -0.1253182888 0.4640085995 4283984438
-0.2720181644 -0.1250557452 0.4649474919 4283918645
-0.2720754743 -0.1245658770 0.4650454521 4283721266
-0.2721325755 -0.1240756959 0.4651430845 4283458094
-0.2726816833 -0.1238086894 0.4660816491 4283458094
-0.2727385163 -0.1233170033 0.4661787450 4283326510
-0.2732875049 -0.1230467185 0.4671171606 4283458096
-0.2733440101 -0.1225535348 0.4672137499 4283721268
-0.2734003365 -0.1220600456 0.4673099816 4283852854
-0.2734564245 -0.1215662435 0.4674058557 4283983927
-0.2740051150 -0.1212902963 0.4683437347 4284115513
-0.2740609050 -0.1207950041 0.4684391022 4284115515
-0.2746095061 -0.1205157787 0.4693767726 4284049722
-0.2746649981 -0.1200189888 0.4694716036 4283655216
-0.2752134800 -0.1197364852 0.4704090953 4283523630
-0.2752686441 -0.1192382053 0.4705033898 4283457837
-0.2753235996 -0.1187396199 0.4705972970 4283457837
-0.2758718431 -0.1184526458 0.4715344012 4283326249
-0.2759264708 -0.1179525778 0.4716278017 4283326249
-0.2759808898 -0.1174522117 0.4717208147 4283392042
-0.2760351002 -0.1169515476 0.4718134701 4283392042
-0.2765830159 -0.1166589111 0.4727499783 4283457835
-0.2766368985 -0.1161567718 0.4728420675 4283392042
-0.2766905725 -0.1156543270 0.4729338288 4283326249
-0.2767440379 -0.1151515990 0.4730252028 4283392042
-0.2772915661 -0.1148533076 0.4739610851 4283523628
-0.2773447037 -0.1143490970 0.4740518928 4283523628
-0.2773976028 -0.1138445958 0.4741423428 4283392042
-0.2774503231 -0.1133398116 0.4742324352 4283326249
-0.2775028050 -0.1128347367 0.4743221700 4283261220
-0.2780498266 -0.1125296056 0.4752571583 4283261220
-0.2785968482 -0.1122223884 0.4761921167 4283327013
-0.2791438103 -0.1119130850 0.4771270156 4283327013
-0.2796907425 -0.1116016880 0.4780618846 4283392806
-0.2802376449 -0.1112882048 0.4789966643 4283458599
-0.2802892923 -0.1107769087 0.4790849388 4283721006
-0.2808360159 -0.1104601547 0.4800194502 4283984178
-0.2813827097 -0.1101413071 0.4809539020 4284115765
-0.2819293737 -0.1098203659 0.4818882644 4284115765
-0.2819804251 -0.1093052328 0.4819755256 4284049972
-0.2820312381 -0.1087898239 0.4820623994 4284049972
-0.2820818424 -0.1082741395 0.4821488857 4283918388
-0.2826280594 -0.1079475582 0.4830825031 4283655216
-0.2826783061 -0.1074304059 0.4831683934 4283786548
-0.2832243443 -0.1071005538 0.4841016829 4283918134
-0.2832742333 -0.1065819487 0.4841869473 4284378434
-0.2838200629 -0.1062488183 0.4851199389 4284904778
-0.2843658626 -0.1059136018 0.4860528409 4285299021
-0.2849116027 -0.1055762917 0.4869856536 4284970056
-0.2854572833 -0.1052368879 0.4879183769 4284377919
-0.2860029340 -0.1048953980 0.4888509810 4283785782
-0.2860518694 -0.1043706089 0.4889346659 4283128622
-0.2865973115 -0.1040258482 0.4898669422 4282799657
-0.2871426642 -0.1036789864 0.4907990992 4282668071
-0.2876879871 -0.1033300385 0.4917311668 4282470692
-0.2877362669 -0.1028014496 0.4918136895 4282601508
-0.2882813513 -0.1024492308 0.4927453995 4282535715
-0.2888263762 -0.1020949185 0.4936769605 4282404129
-0.2893713415 -0.1017385125 0.4946084321 4282469922
-0.2894189358 -0.1012061238 0.4946897924 4282535715
-0.2904610336 -0.1010194272 0.4964710176 4282338336
-0.2910057604 -0.1006567478 0.4974021018 4282273313
-0.2920479774 -0.1004631221 0.4991834760 4282799657
-0.2925926447 -0.1000953317 0.5001144409 4283325229
-0.2936349213 -0.0998947695 0.5018959641 4283785780
-0.2946772575 -0.0996902809 0.5036776066 4283522608
-0.2957197130 -0.0994818583 0.5054594278 4283588401
-0.2972601354 -0.0994360596 0.5080924034 4283456817
-0.2983027995 -0.0992188603 0.5098745823 4283456817
-0.2998435795 -0.0991624370 0.5125081539 4283654196
-0.3013846278 -0.0991002470 0.5151421428 4284180540
-0.3029258549 -0.0990322754 0.5177765489 4283785523
-0.3044672906 -0.0989585295 0.5204112530 4283193386
-0.3055105805 -0.0987179577 0.5221944451 4283193386
-0.3070523441 -0.0986335576 0.5248297453 4283127593
-0.3085943460 -0.0985433757 0.5274654031 4282929960
-0.3101364970 -0.0984474048 0.5301013589 4282995753
-0.3116788864 -0.0983456448 0.5327376723 4283259177
-0.3137201965 -0.0983945131 0.5362267494 4283785521
-0.3152630031 -0.0982802361 0.5388638377 4283916856
-0.3168059886 -0.0981601626 0.5415011644 4284180028
-0.3178501725 -0.0978806242 0.5432859659 4284114486
-0.3193934560 -0.0977498665 0.5459237695 4283917107
-0.3209368885 -0.0976133049 0.5485619307 4284575035
-0.3214820921 -0.0971691683 0.5494937897 4285298758
-0.3225264251 -0.0968728811 0.5512788296 4285560928
-0.3230714500 -0.0964236036 0.5522103906 4285560928
-0.2761513591 -0.2222128659 0.4729089439 4289769646
-0.2762435377 -0.2217618972 0.4730667770 4290496140
-0.2782058716 -0.2228083611 0.4764272571 4290167175
-0.2782983780 -0.2223534435 0.4765857160 4288983671
-0.2788586915 -0.2222709954 0.4775452316 4288588913
-0.2789511085 -0.2218144089 0.4777035117 4289378426
-0.2785752118 -0.2209859490 0.4770598114 4289773184
-0.2781988978 -0.2201585770 0.4764153361 4289312885
-0.2778221369 -0.2193322927 0.4757701159 4288983920
-0.2779135704 -0.2188761830 0.4759267271 4288260195
-0.2780049145 -0.2184196413 0.4760831296 4287668058
-0.2780960798 -0.2179626375 0.4762392938 4287405147
-0.2781871557 -0.2175051868 0.4763952196 4287536733
-0.2782780826 -0.2170472890 0.4765509367 4287734114
-0.2778994441 -0.2162237018 0.4759025276 4288128872
-0.2775203586 -0.2154012024 0.4752533734 4288523630
-0.2766711414 -0.2142161131 0.4737990499 4288852595
-0.2762910426 -0.2133966088 0.4731481373 4289049713
-0.2754404545 -0.2122160643 0.4716915190 4288589162
-0.2745891511 -0.2110381722 0.4702336490 4288259429
-0.2737371027 -0.2098629624 0.4687744975 4288127843
-0.2728843093 -0.2086904198 0.4673140943 4287997027
-0.2734426856 -0.2085976601 0.4682703316 4287931234
-0.2721180916 -0.2070698887 0.4660019577 4287997538
-0.2717343271 -0.2062613070 0.4653447568 4288194917
-0.2713501155 -0.2054538578 0.4646868110 4287931745
-0.2709654868 -0.2046475410 0.4640281200 4287800159
-0.2691662312 -0.2027769685 0.4609468877 4287799648
-0.2697233558 -0.2026839554 0.4619009793 4287931234
-0.2693372667 -0.2018818408 0.4612398148 4287799905
-0.2684789002 -0.2007280886 0.4597698450 4287602526
-0.2680917978 -0.1999290287 0.4591069221 4287405401
-0.2681763768 -0.1994823366 0.4592518210 4287405401
-0.2673162818 -0.1983343810 0.4577788711 4287012183
-0.2674002945 -0.1978884190 0.4579227567 4286288460
-0.2670116127 -0.1970931888 0.4572571218 4286024775
-0.2666224837 -0.1962991208 0.4565907419 4286024775
-0.2667058110 -0.1958534718 0.4567334354 4285958982
-0.2663159668 -0.1950609386 0.4560658336 4286024775
-0.2659256756 -0.1942695826 0.4553974867 4286222669
-0.2655349672 -0.1934793890 0.4547283947 4286288462
-0.2656173110 -0.1930344552 0.4548693895 4285696325
-0.2656995058 -0.1925891042 0.4550101161 4285235774
-0.2648340166 -0.1914583296 0.4535279870 4285235263
-0.2649156451 -0.1910137534 0.4536677897 4285498435
-0.2649971247 -0.1905687600 0.4538073242 4285432642
-0.2646042705 -0.1897832304 0.4531345367 4285301056
-0.2646853030 -0.1893382221 0.4532733560 4285103422
-0.2638172507 -0.1882157624 0.4517867863 4284971836
-0.2634230852 -0.1874338090 0.4511117935 4285366849
-0.2639780641 -0.1873268783 0.4520621896 4285169470
-0.2635833323 -0.1865457147 0.4513862133 4285103677
-0.2631881833 -0.1857657433 0.4507095218 4285366849
-0.2627926171 -0.1849869788 0.4500320852 4285695814
-0.2628719509 -0.1845431179 0.4501679540 4285893193
-0.2624756396 -0.1837659478 0.4494892657 4286287951
-0.2625545561 -0.1833221018 0.4496244192 4286748502
-0.2621575296 -0.1825465411 0.4489445388 4286945626
-0.2617600858 -0.1817722023 0.4482639134 4287603556
-0.2613622248 -0.1809990704 0.4475825429 4287932776
-0.2614401281 -0.1805560440 0.4477159679 4288327534
-0.2615178823 -0.1801126152 0.4478491247 4288919671
-0.2611190081 -0.1793415248 0.4471660554 4289248636
-0.2607197165 -0.1785716563 0.4464822412 4288985209
-0.2607967556 -0.1781286746 0.4466141760 4288261486
-0.2603967488 -0.1773604453 0.4459291399 4287734884
-0.2604733407 -0.1769174933 0.4460603595 4287011161
-0.2600726187 -0.1761509180 0.4453741014 4286879575
-0.2601487935 -0.1757079959 0.4455045462 4286616403
-0.2602248192 -0.1752646714 0.4456347525 4286287438
-0.2593454719 -0.1741794199 0.4441288710 4286484817
-0.2594209313 -0.1737369448 0.4442580938 4286550355
-0.2594962418 -0.1732940972 0.4443870485 4286352976
-0.2595714033 -0.1728508472 0.4445157647 4286747734
-0.2591682374 -0.1720897257 0.4438253641 4286616148
-0.2592429519 -0.1716465354 0.4439533353 4285958218
-0.2593175471 -0.1712029576 0.4440810382 4285431874
-0.2593919635 -0.1707590073 0.4442084730 4285629253
-0.2594662309 -0.1703146696 0.4443356693 4285958218
-0.2590614855 -0.1695565283 0.4436425567 4285892427
-0.2591353357 -0.1691122502 0.4437690079 4285760841
-0.2592090070 -0.1686675996 0.4438951910 4285695812
-0.2592825294 -0.1682225615 0.4440211058 4285630019
-0.2588765025 -0.1674670279 0.4433257878 4285432642
-0.2589496076 -0.1670220494 0.4434509277 4285235263
-0.2590225339 -0.1665767133 0.4435758293 4285103164
-0.2590953112 -0.1661309898 0.4437004626 4284905785
-0.2591679394 -0.1656848937 0.4438248575 4284971323
-0.2592404187 -0.1652384102 0.4439489543 4285234495
-0.2593127191 -0.1647915691 0.4440727830 4285102909
-0.2593849003 -0.1643443555 0.4441963732 4285037116
-0.2594569027 -0.1638967544 0.4443196654 4284971325
-0.2595287263 -0.1634487957 0.4444427192 4284971325
-0.2596004307 -0.1630004495 0.4445654750 4285102911
-0.2596719563 -0.1625517458 0.4446879923 4285168704
-0.2597433329 -0.1621026695 0.4448102117 4285037118
-0.2598145604 -0.1616532207 0.4449321628 4284905532
-0.2598856091 -0.1612033993 0.4450538456 4284708414
-0.2599565089 -0.1607532203 0.4451752603 4284642621
-0.2600272596 -0.1603026688 0.4452964067 4284379449
-0.2600978315 -0.1598517448 0.4454172552 4284050484
-0.2601682544 -0.1594004482 0.4455378652 4283853105
-0.2602384984 -0.1589487940 0.4456581771 4283589933
-0.2607906461 -0.1587902904 0.4466037154 4283524141
-0.2608607113 -0.1583370715 0.4467236996 4283589934
-0.2609305978 -0.1578834802 0.4468434155 4283260969
-0.2610003352 -0.1574295312 0.4469628334 4283063590
-0.2615524828 -0.1572653651 0.4479083717 4282800164
-0.2616220117 -0.1568098515 0.4480274320 4282734371
-0.2621742189 -0.1566424370 0.4489730895 4282800164
-0.2622435391 -0.1561853588 0.4490918219 4282602785
-0.2623127103 -0.1557279080 0.4492102563 4282603298
-0.2623817027 -0.1552700996 0.4493284225 4282998056
-0.2624505460 -0.1548119336 0.4494462907 4282800677
-0.2625192106 -0.1543533951 0.4495638907 4282734884
-0.2625876963 -0.1538944989 0.4496811926 4282734884
-0.2626560330 -0.1534352601 0.4497981966 4282734884
-0.2627241910 -0.1529756486 0.4499149323 4282734884
-0.2632761598 -0.1527965665 0.4508601427 4282734884
-0.2628600001 -0.1520553678 0.4501475096 4282800677
-0.2629276514 -0.1515946835 0.4502633512 4282932263
-0.2629951537 -0.1511336565 0.4503789246 4282866211
-0.2630624473 -0.1506722718 0.4504942000 4283063590
-0.2631295919 -0.1502105296 0.4506091774 4283063589
-0.2631965578 -0.1497484297 0.4507238567 4283129382
-0.2632633448 -0.1492859870 0.4508382380 4283129382
-0.2633299530 -0.1488231868 0.4509523213 4282997796
-0.2633964121 -0.1483600289 0.4510661066 4282800418
-0.2634626925 -0.1478965282 0.4511795938 4282076695
-0.2630434632 -0.1471611708 0.4504616857 4281682186
-0.2631092668 -0.1466978341 0.4505743682 4281813772
-0.2631748915 -0.1462341398 0.4506867528 4281879826
-0.2632403374 -0.1457701027 0.4507988393 4282077205
-0.2633056343 -0.1453057230 0.4509106278 4282340379
-0.2633707225 -0.1448409855 0.4510221183 4282800930
-0.2634356618 -0.1443759203 0.4511333108 4282998310
-0.2635003924 -0.1439104974 0.4512441754 4282800931
-0.2635649741 -0.1434447467 0.4513547421 4282932517
-0.2636293471 -0.1429786533 0.4514650106 4282800931
-0.2636935711 -0.1425122023 0.4515749812 4282866723
-0.2637576163 -0.1420454234 0.4516846538 4282932516
-0.2643082142 -0.1418395191 0.4526275694 4283195686
-0.2643720210 -0.1413711905 0.4527368248 4283590444
-0.2644356191 -0.1409025341 0.4528457522 4283656489
-0.2644990683 -0.1404335350 0.4529543817 4283524903
-0.2645623088 -0.1399641931 0.4530626833 4283458607
-0.2646253705 -0.1394945234 0.4531707168 4283129642
-0.2646882534 -0.1390245110 0.4532783926 4282932265
-0.2652385533 -0.1388093382 0.4542207420 4282932265
-0.2653011680 -0.1383377910 0.4543280005 4283063853
-0.2653636336 -0.1378659159 0.4544349611 4283261232
-0.2649379969 -0.1371411532 0.4537060261 4283063340
-0.2649999559 -0.1366694719 0.4538121521 4282471203
-0.2645736039 -0.1359466463 0.4530820251 4282010652
-0.2646350861 -0.1354751885 0.4531873167 4281418515
-0.2646963894 -0.1350033879 0.4532923102 4280497413
-0.2647575140 -0.1345312744 0.4533969462 4280036864
-0.2648184299 -0.1340588331 0.4535013139 4280234240
-0.2648791671 -0.1335860640 0.4536053240 4280431616
-0.2649397254 -0.1331129670 0.4537090361 4280629249
-0.2654890120 -0.1328842640 0.4546496868 4280892421
-0.2655493319 -0.1324096471 0.4547529519 4281221136
-0.2660985887 -0.1321776807 0.4556935430 4281221136
-0.2661586106 -0.1317015439 0.4557963312 4281023755
-0.2667078078 -0.1314662993 0.4567368627 4281418513
-0.2667675614 -0.1309886575 0.4568391740 4282405408
-0.2673167288 -0.1307501495 0.4577796161 4282997545
-0.2673761845 -0.1302709728 0.4578814805 4283392303
-0.2679252923 -0.1300291866 0.4588218033 4283918647
-0.2679845095 -0.1295484900 0.4589231908 4284379196
-0.2680435181 -0.1290674806 0.4590242505 4284444989
-0.2685924470 -0.1288212389 0.4599643350 4284510782
-0.2686511874 -0.1283387095 0.4600648880 4284510782
-0.2692000866 -0.1280891895 0.4610048532 4284379196
-0.2692585289 -0.1276051551 0.4611049592 4284181817
-0.2693167627 -0.1271208078 0.4612047076 4283984692
-0.2698654830 -0.1268668026 0.4621443748 4283721520
-0.2699234486 -0.1263809353 0.4622436464 4283786802
-0.2704720795 -0.1261236668 0.4631831944 4283852595
-0.2705297768 -0.1256362945 0.4632819593 4283721007
-0.2710783184 -0.1253757477 0.4642213583 4283655214
-0.2711356878 -0.1248868704 0.4643196166 4283655214
-0.2716841698 -0.1246230379 0.4652588665 4283457835
-0.2717412412 -0.1241326556 0.4653566182 4283326251
-0.2722896338 -0.1238655522 0.4662957191 4283392044
-0.2723464072 -0.1233736649 0.4663929343 4283391790
-0.2728946805 -0.1231032759 0.4673318565 4283523376
-0.2729511559 -0.1226098910 0.4674285948 4283786802
-0.2730074227 -0.1221161932 0.4675249457 4283984181
