VERSION 0.7
FIELDS x y z rgba
SIZE 4 4 4 4
TYPE F F F U
COUNT 1 1 1 1
WIDTH 920
HEIGHT 1
VIEWPOINT 0.0 0.0 0.0 1.0 0.0 0.0 0.0
POINTS 920
DATA ascii
-0.3164847791 -0.1013742089 0.5269626379 4285166673
-0.2786120772 -0.2204479873 0.4647612274 4286878069
-0.2796574235 -0.2207572758 0.4665050209 4286812775
-0.2787970006 -0.2195618153 0.4650697112 4286878568
-0.2793660164 -0.2194926292 0.4660189152 4287010405
-0.2794583142 -0.2190476954 0.4661728740 4286944612
-0.2785964012 -0.2178562135 0.4647350907 4287010659
-0.2777337432 -0.2166673541 0.4632960558 4287010659
-0.2773476541 -0.2158526182 0.4626520574 4286944864
-0.2769611776 -0.2150389552 0.4620073140 4286879071
-0.2760965526 -0.2138563991 0.4605650306 4286879584
-0.2757090032 -0.2130457014 0.4599185586 4286879584
-0.2753210366 -0.2122360915 0.4592713416 4287010916
-0.2739763260 -0.2106921822 0.4570282102 4287339881
-0.2735871375 -0.2098862976 0.4563790262 4287405674
-0.2731975317 -0.2090815306 0.4557290971 4287405674
-0.2732861042 -0.2086432576 0.4558768272 4287537260
-0.2733745277 -0.2082045674 0.4560243487 4287537260
-0.2729839385 -0.2074015886 0.4553727508 4287405674
-0.2725928724 -0.2065997273 0.4547204375 4287471467
-0.2722013891 -0.2057989836 0.4540673792 4287668846
-0.2713300586 -0.2046378106 0.4526139200 4287668846
-0.2714170814 -0.2042008489 0.4527590573 4287734641
-0.2710242867 -0.2034034729 0.4521038234 4287668848
-0.2706310451 -0.2026072145 0.4514478445 4287734639
-0.2702373564 -0.2018120885 0.4507911503 4287800432
-0.2698432505 -0.2010180950 0.4501337111 4287800432
-0.2694486976 -0.2002252489 0.4494755268 4287932018
-0.2685732543 -0.1990773976 0.4480151832 4288129397
-0.2681776583 -0.1982875913 0.4473553002 4288326776
-0.2677816451 -0.1974989325 0.4466947019 4287997811
-0.2673852146 -0.1967114210 0.4460333586 4287734639
-0.2669883370 -0.1959250569 0.4453713000 4287734893
-0.2670722008 -0.1954920888 0.4455112517 4287932272
-0.2666746080 -0.1947072446 0.4448480010 4287998065
-0.2667580843 -0.1942742318 0.4449872375 4287998065
-0.2658780813 -0.1931410283 0.4435193241 4287932272
-0.2654791772 -0.1923596710 0.4428538680 4287734893
-0.2655618191 -0.1919277906 0.4429917037 4287669100
-0.2651621699 -0.1911479831 0.4423250854 4287866479
-0.2652443945 -0.1907160878 0.4424622059 4288063858
-0.2648440301 -0.1899378151 0.4417943656 4288063858
-0.2649258077 -0.1895059049 0.4419308007 4288063858
-0.2645247579 -0.1887291968 0.4412617683 4288195444
-0.2646061182 -0.1882972717 0.4413974881 4288326516
-0.2642043233 -0.1875221431 0.4407272637 4288129137
-0.2642852664 -0.1870902032 0.4408622682 4288063344
-0.2643660903 -0.1866578907 0.4409970641 4288063344
-0.2644467354 -0.1862251610 0.4411316216 4288129137
-0.2645272613 -0.1857920438 0.4412659407 4288063344
-0.2641239166 -0.1850196719 0.4405930936 4287800172
-0.2642040253 -0.1845865548 0.4407267272 4287602793
-0.2642839849 -0.1841530502 0.4408601224 4288918653
-0.2638796270 -0.1833826602 0.4401855767 4289576583
-0.2639591396 -0.1829491705 0.4403182566 4287800172
-0.2635540664 -0.1821803898 0.4396425486 4287273828
-0.2636331916 -0.1817469001 0.4397745132 4287537000
-0.2637121379 -0.1813130230 0.4399062395 4287800172
-0.2633060515 -0.1805462688 0.4392288327 4288195184
-0.2633846104 -0.1801124066 0.4393598437 4288787321
-0.2634629905 -0.1796781719 0.4394906163 4288589940
-0.2635412514 -0.1792435348 0.4396211505 4288524147
-0.2631338835 -0.1784792244 0.4389415979 4288524149
-0.2632116973 -0.1780446172 0.4390714169 4288524149
-0.2632893920 -0.1776096374 0.4392009974 4288458102
-0.2633669078 -0.1771742702 0.4393303394 4288129137
-0.2624721825 -0.1760863364 0.4378378093 4287997552
-0.2625491619 -0.1756518036 0.4379661977 4288063345
-0.2626259625 -0.1752168983 0.4380943179 4287997554
-0.2622161508 -0.1744579375 0.4374107122 4287865968
-0.2622925341 -0.1740230620 0.4375381172 4288260209
-0.2623687685 -0.1735878140 0.4376652837 4288260209
-0.2624448538 -0.1731521934 0.4377922118 4287998064
-0.2620337307 -0.1723957509 0.4371064305 4287866478
-0.2621093988 -0.1719601750 0.4372326136 4284183353
-0.2621848881 -0.1715242267 0.4373585582 4281420047
-0.2622602582 -0.1710878909 0.4374842644 4281815063
-0.2623354495 -0.1706511974 0.4376097322 4281683477
-0.2619227767 -0.1698977351 0.4369212985 4281881372
-0.2615096569 -0.1691455245 0.4362321496 4281815579
-0.2615841329 -0.1687093228 0.4363563955 4281683993
-0.2611702979 -0.1679588109 0.4356660545 4281552407
-0.2607560158 -0.1672095507 0.4349750280 4281749272
-0.2603413165 -0.1664615571 0.4342832565 4281880858
-0.2594376206 -0.1654033363 0.4327757657 4282143776
-0.2595106661 -0.1649693549 0.4328975976 4282406948
-0.2590946853 -0.1642251611 0.4322037101 4282539052
-0.2591672838 -0.1637912840 0.4323247969 4282736431
-0.2587505877 -0.1630488187 0.4316297174 4282473259
-0.2588227689 -0.1626150161 0.4317500889 4282604845
-0.2588947713 -0.1621808708 0.4318701923 4282999603
-0.2589666247 -0.1617463529 0.4319900572 4283789119
-0.2595279813 -0.1616164148 0.4329265058 4284709707
-0.2591098547 -0.1608762294 0.4322290123 4285630809
-0.2591812611 -0.1604406387 0.4323481023 4285630809
-0.2592524886 -0.1600046754 0.4324669242 4285959774
-0.2593235672 -0.1595683545 0.4325855076 4286157151
-0.2593944967 -0.1591316909 0.4327038229 4286025565
-0.2594652772 -0.1586946547 0.4328218699 4285893466
-0.2600265145 -0.1585564166 0.4337580800 4286025052
-0.2600970864 -0.1581178457 0.4338758588 4286156638
-0.2601675391 -0.1576789171 0.4339933395 4286025052
-0.2602378130 -0.1572396308 0.4341105819 4285959774
-0.2603079081 -0.1567999870 0.4342275262 4286025567
-0.2603778839 -0.1563599855 0.4343442321 4286025567
-0.2604476810 -0.1559196264 0.4344606698 4286157153
-0.2605173290 -0.1554789245 0.4345768392 4286157153
-0.2605867982 -0.1550378650 0.4346927404 4285828188
-0.2611479163 -0.1548881382 0.4356287718 4285762393
-0.2607252896 -0.1541546881 0.4349237382 4285828186
-0.2603022158 -0.1534225345 0.4342180192 4285959772
-0.2598787248 -0.1526917219 0.4335115850 4285696600
-0.2604394555 -0.1525389254 0.4344469607 4285630807
-0.2605078518 -0.1520965993 0.4345610440 4285828186
-0.2605760694 -0.1516539156 0.4346748292 4285828186
-0.2606441081 -0.1512108892 0.4347883463 4285367635
-0.2607119977 -0.1507675201 0.4349015951 4284643912
-0.2607797384 -0.1503238082 0.4350145757 4284117568
-0.2608473003 -0.1498797387 0.4351272881 4283920441
-0.2609146833 -0.1494353265 0.4352397025 4284052027
-0.2609819174 -0.1489905715 0.4353518486 4284315199
-0.2610490024 -0.1485454738 0.4354637265 4284380992
-0.2611158788 -0.1481000334 0.4355753362 4284315199
-0.2611826360 -0.1476542652 0.4356866479 4284249406
-0.2612491846 -0.1472081393 0.4357976913 4283920441
-0.2613155842 -0.1467616707 0.4359084368 4283328304
-0.2613818049 -0.1463148743 0.4360189140 4283393843
-0.2614478767 -0.1458677202 0.4361291230 4283328050
-0.2615137696 -0.1454202384 0.4362390339 4283525172
-0.2615794837 -0.1449724287 0.4363486767 4283985723
-0.2616450489 -0.1445242763 0.4364580214 4284446274
-0.2612156868 -0.1438034177 0.4357418120 4284775239
-0.2612807751 -0.1433554441 0.4358504117 4284841032
-0.2613457143 -0.1429071277 0.4359586835 4284906825
-0.2619055510 -0.1427282840 0.4368925691 4284906825
-0.2619702518 -0.1422784477 0.4370004833 4284577860
-0.2620347738 -0.1418282837 0.4371081293 4284117309
-0.2620991170 -0.1413777918 0.4372154772 4283722551
-0.2621632814 -0.1409269571 0.4373225272 4283459127
-0.2622272968 -0.1404758096 0.4374293089 4283327541
-0.2622911334 -0.1400243193 0.4375357926 4283327541
-0.2623547912 -0.1395725012 0.4376419485 4283393334
-0.2624182701 -0.1391203552 0.4377478659 4283327541
-0.2624815702 -0.1386678666 0.4378534555 4283788092
-0.2625446916 -0.1382150650 0.4379587770 4284446274
-0.2621112168 -0.1375015229 0.4372356832 4284841032
-0.2621738911 -0.1370489299 0.4373401999 4285564753
-0.2627330124 -0.1368547082 0.4382729232 4286420062
-0.2627954483 -0.1364006102 0.4383770525 4286617439
-0.2628576756 -0.1359461844 0.4384808838 4285959509
-0.2634167671 -0.1357475668 0.4394134879 4285037639
-0.2634787560 -0.1352916360 0.4395169020 4284182330
-0.2640378177 -0.1350897849 0.4404495060 4283984951
-0.2640995979 -0.1346323490 0.4405525327 4284182330
-0.2641611695 -0.1341746002 0.4406552613 4284116537
-0.2642225623 -0.1337165236 0.4407576621 4284050744
-0.2647815049 -0.1335090846 0.4416900277 4284050746
-0.2648426294 -0.1330495030 0.4417920411 4284116539
-0.2649036050 -0.1325896233 0.4418937266 4283984955
-0.2654624283 -0.1323777735 0.4428259432 4283853369
-0.2655231655 -0.1319163740 0.4429272115 4283655477
-0.2660819590 -0.1317013055 0.4438593984 4283458098
-0.2656440139 -0.1309926510 0.4431288540 4283326512
-0.2657041848 -0.1305303127 0.4432291985 4283129133
-0.2657641470 -0.1300676614 0.4433292449 4282734888
-0.2658239305 -0.1296046823 0.4434289634 4282669095
-0.2658835351 -0.1291414201 0.4435283840 4282536742
-0.2659429610 -0.1286778301 0.4436275065 4282799914
-0.2660021782 -0.1282139271 0.4437263012 4283063086
-0.2660612166 -0.1277497113 0.4438247681 4283326258
-0.2661200762 -0.1272851974 0.4439229369 4283655223
-0.2661787271 -0.1268203855 0.4440208077 4283655223
-0.2667367160 -0.1265923083 0.4449515939 4283655477
-0.2667950988 -0.1261260062 0.4450489879 4283655477
-0.2668533027 -0.1256593913 0.4451460838 4283589684
-0.2669113278 -0.1251924634 0.4452428520 4283458098
-0.2669691443 -0.1247252375 0.4453392923 4283589684
-0.2665266991 -0.1240250170 0.4446012974 4283589684
-0.2665840387 -0.1235580593 0.4446969330 4283589684
-0.2671414316 -0.1233217493 0.4456267357 4283918649
-0.2671985030 -0.1228533164 0.4457219243 4283918649
-0.2672553658 -0.1223845854 0.4458167553 4283655477
-0.2673120201 -0.1219155490 0.4459112883 4283327025
-0.2673684955 -0.1214462221 0.4460054934 4283458611
-0.2674247622 -0.1209765971 0.4460993707 4283655988
-0.2674808502 -0.1205066741 0.4461929202 4283984953
-0.2680377662 -0.1202612445 0.4471218884 4284181819
-0.2680935562 -0.1197898537 0.4472149909 4284116026
-0.2681491673 -0.1193181649 0.4473077357 4284116026
-0.2682045698 -0.1188461855 0.4474001527 4283984440
-0.2682597637 -0.1183739156 0.4474922419 4284116026
-0.2683147788 -0.1179013550 0.4475840032 4284116026
-0.2683695853 -0.1174284965 0.4476754367 4283984440
-0.2689259350 -0.1171739623 0.4486035109 4283984440
-0.2689804435 -0.1166996509 0.4486944377 4284049720
-0.2690347731 -0.1162250489 0.4487850666 4283983927
-0.2690888941 -0.1157501563 0.4488753378 4283983927
-0.2691428065 -0.1152749807 0.4489652812 4284181306
-0.2691965401 -0.1147995219 0.4490548968 4283918649
-0.2697523832 -0.1145370603 0.4499821365 4283852856
-0.2698057890 -0.1140601486 0.4500712454 4283721270
-0.2698590159 -0.1135829464 0.4501599967 4283458098
-0.2699120343 -0.1131054610 0.4502484202 4283458098
-0.2704675496 -0.1128374338 0.4511751533 4283458098
-0.2710230947 -0.1125673503 0.4521018267 4283458098
-0.2710756958 -0.1120872423 0.4521895945 4283392305
-0.2716311216 -0.1118139252 0.4531160891 4283392305
-0.2716833949 -0.1113323718 0.4532032907 4283392305
-0.2717354596 -0.1108505428 0.4532901943 4283392305
-0.2717873454 -0.1103684381 0.4533767104 4283260719
-0.2723424137 -0.1100895479 0.4543026388 4283128620
-0.2723939717 -0.1096059978 0.4543886483 4283128620
-0.2729489207 -0.1093238816 0.4553143680 4283260206
-0.2735038400 -0.1090397015 0.4562400579 4283260206
-0.2740587592 -0.1087534502 0.4571657181 4283260719
-0.2746136487 -0.1084651425 0.4580913186 4283852856
-0.2751684785 -0.1081747711 0.4590169191 4284642372
-0.2752192616 -0.1076851040 0.4591015875 4285168716
-0.2757739723 -0.1073914990 0.4600269198 4285431888
-0.2763286531 -0.1070958301 0.4609522223 4285366095
-0.2773876786 -0.1069926247 0.4627187848 4284905544
-0.2779423892 -0.1066919267 0.4636441171 4284379200
-0.2784970701 -0.1063891575 0.4645693898 4283720757
-0.2790517211 -0.1060843244 0.4654946327 4283523378
-0.2796063423 -0.1057774201 0.4664198160 4283523380
-0.2801609039 -0.1054684445 0.4673449099 4283589173
-0.2812203467 -0.1053465381 0.4691121578 4283589173
-0.2817749381 -0.1050325334 0.4700372815 4283720759
-0.2828345299 -0.1049037799 0.4718048573 4283786552
-0.2833891213 -0.1045847312 0.4727299809 4283720759
-0.2839436531 -0.1042636037 0.4736550450 4283720757
-0.2844981551 -0.1039404124 0.4745800197 4283852343
-0.2850525975 -0.1036151424 0.4755049050 4283852343
-0.2856070101 -0.1032878086 0.4764297009 4283852343
-0.2856557667 -0.1027764976 0.4765110314 4283852343
-0.2857043147 -0.1022649184 0.4765920043 4283786550
-0.2862583697 -0.1019331813 0.4775162637 4283720759
-0.2868123651 -0.1015993655 0.4784404039 4283720759
-0.2873663306 -0.1012634784 0.4793644845 4283523380
-0.2884262204 -0.1011028960 0.4811325371 4283391794
-0.2889801562 -0.1007619575 0.4820565283 4283260208
-0.2900401652 -0.1005945057 0.4838248193 4283260208
-0.2911002934 -0.1004231647 0.4855932593 4283326001
-0.2921605408 -0.1002479270 0.4873618484 4283391794
-0.2937272787 -0.1002416313 0.4899753928 4283457587
-0.2952943146 -0.1002296135 0.4925893843 4283589173
-0.2973681688 -0.1003828943 0.4960488379 4283654964
-0.2989357412 -0.1003585309 0.4986637831 4284049722
-0.3010103405 -0.1004976332 0.5021244884 4284443459
-0.3030853271 -0.1006291807 0.5055858493 4284575045
-0.3056676388 -0.1009205431 0.5098934770 4284575550
-0.3077434897 -0.1010360718 0.5133562684 4284509757
-0.3098197579 -0.1011440381 0.5168197155 4284377917
-0.3124035299 -0.1014090627 0.5211297870 4284246331
-0.3144806027 -0.1015009806 0.5245946050 4284771913
-0.3155434430 -0.1012597308 0.5263675451 4284969292
-0.3171136975 -0.1011764407 0.5289869905 4285362779
-0.3181767166 -0.1009264365 0.5307602286 4285428572
-0.2781205475 -0.2209830433 0.4648015201 4287339123
-0.2786887288 -0.2209174931 0.4657510519 4287273330
-0.2787813544 -0.2204737514 0.4659058750 4287207784
-0.2783979774 -0.2196540833 0.4652651250 4287339370
-0.2784902155 -0.2192102075 0.4654192626 4287471217
-0.2785823047 -0.2187658995 0.4655731916 4287471217
-0.2767688036 -0.2168283463 0.4625424147 4287339622
-0.2773365378 -0.2167586386 0.4634912312 4287273829
-0.2764744163 -0.2155719399 0.4620504677 4287208035
-0.2760883868 -0.2147587687 0.4614053071 4287273828
-0.2752249241 -0.2135765254 0.4599622786 4287274341
-0.2743607163 -0.2123969197 0.4585179985 4287208548
-0.2749276757 -0.2123257965 0.4594654739 4287274342
-0.2740624249 -0.2111491561 0.4580194652 4287405928
-0.2727188170 -0.2096080482 0.4557739794 4287603053
-0.2723296881 -0.2088037580 0.4551236629 4287471467
-0.2724180222 -0.2083661258 0.4552713037 4287603566
-0.2720281780 -0.2075632960 0.4546197951 4287603566
-0.2716378868 -0.2067615688 0.4539675117 4287340394
-0.2712471485 -0.2059609592 0.4533145130 4287471980
-0.2703774571 -0.2047989964 0.4518610537 4287735406
-0.2704643905 -0.2043631077 0.4520063400 4287669613
-0.2700723410 -0.2035658658 0.4513511658 4287735156
-0.2696798742 -0.2027697414 0.4506952465 4287669363
-0.2692869604 -0.2019747496 0.4500385821 4287735154
-0.2688935995 -0.2011808902 0.4493812025 4287932533
-0.2680203617 -0.2000303268 0.4479218125 4288064119
-0.2685852051 -0.1999536455 0.4488658309 4288129912
-0.2677109540 -0.1988061219 0.4474047124 4288195705
-0.2673158348 -0.1980168223 0.4467444122 4288195705
-0.2669203281 -0.1972286552 0.4460833967 4287735154
-0.2670045793 -0.1967955828 0.4462242126 4287603568
-0.2666083276 -0.1960089356 0.4455620050 4287932531
-0.2662116289 -0.1952234507 0.4448990524 4288327289
-0.2667758763 -0.1951423138 0.4458420277 4288393082
-0.2658978105 -0.1940067410 0.4443745613 4288261496
-0.2650189996 -0.1928738952 0.4429058433 4288063604
-0.2651017010 -0.1924422830 0.4430440962 4287866225
-0.2651842833 -0.1920102835 0.4431820810 4287668846
-0.2647852898 -0.1912301779 0.4425152838 4287800432
-0.2643858492 -0.1904512346 0.4418477714 4287997811
-0.2649494708 -0.1903657168 0.4427896440 4288195190
-0.2640675902 -0.1892422140 0.4413158596 4288260983
-0.2641490400 -0.1888105571 0.4414519966 4288326776
-0.2642303705 -0.1883784980 0.4415878952 4288392823
-0.2638292313 -0.1876030713 0.4409174919 4288392823
-0.2639101148 -0.1871710122 0.4410526752 4288260724
-0.2639908791 -0.1867385507 0.4411876500 4287997552
-0.2640714943 -0.1863056868 0.4413223863 4287997552
-0.2636690736 -0.1855326295 0.4406498373 4288129138
-0.2637492418 -0.1850997657 0.4407838583 4287997551
-0.2638293207 -0.1846665144 0.4409176409 4287800172
-0.2639092207 -0.1842328757 0.4410512149 4288260723
-0.2635055184 -0.1834622025 0.4403764904 4289181825
-0.2635850012 -0.1830285639 0.4405093491 4288721274
-0.2631805539 -0.1822595000 0.4398334622 4287537000
-0.2632596195 -0.1818258762 0.4399655759 4287603047
-0.2633385658 -0.1813918501 0.4400974810 4287932012
-0.2629331052 -0.1806248128 0.4394198954 4288392563
-0.2630116045 -0.1801908165 0.4395510852 4288787321
-0.2630899549 -0.1797564328 0.4396820366 4288655735
-0.2631681859 -0.1793216616 0.4398127496 4288787321
-0.2627614439 -0.1785570532 0.4391330183 4288787321
-0.2628392279 -0.1781223118 0.4392629862 4288721528
-0.2629168630 -0.1776871830 0.4393927455 4288523895
-0.2625091374 -0.1769246310 0.4387113154 4288194930
-0.2621009648 -0.1761633009 0.4380291998 4288129138
-0.2621778846 -0.1757286340 0.4381577373 4288129138
-0.2622546554 -0.1752935797 0.4382860363 4288129140
-0.2618454993 -0.1745343208 0.4376022220 4287931761
-0.2619218230 -0.1740993112 0.4377298057 4288391795
-0.2619980276 -0.1736639142 0.4378571510 4288326002
-0.2615878582 -0.1729067564 0.4371716678 4287998064
-0.2616636157 -0.1724714041 0.4372982681 4287932271
-0.2617392242 -0.1720356941 0.4374246299 4284249146
-0.2618146837 -0.1715995818 0.4375507534 4281683219
-0.2618899941 -0.1711631119 0.4376766086 4281881626
-0.2619651556 -0.1707262546 0.4378022254 4281881626
-0.2615531087 -0.1699725091 0.4371136129 4281881883
-0.2611406446 -0.1692200154 0.4364242852 4281947676
-0.2607277334 -0.1684687734 0.4357342422 4281816092
-0.2608018816 -0.1680328548 0.4358581603 4281750299
-0.2599006593 -0.1669700444 0.4343519807 4281815579
-0.2594864666 -0.1662225872 0.4336597919 4281947165
-0.2590718567 -0.1654763818 0.4329668880 4282407202
-0.2586568296 -0.1647314429 0.4322732985 4282801960
-0.2587295473 -0.1642977744 0.4323948026 4282736432
-0.2583138049 -0.1635545641 0.4316999912 4283196983
-0.2583860755 -0.1631209850 0.4318207800 4283196982
-0.2584581971 -0.1626870483 0.4319413006 4283591740
-0.2585301697 -0.1622527391 0.4320615828 4283986498
-0.2586019635 -0.1618180722 0.4321815968 4284512842
-0.2591626346 -0.1616881043 0.4331185520 4285170258
-0.2587451339 -0.1609476507 0.4324208796 4285828188
-0.2588165104 -0.1605118960 0.4325401187 4285828188
-0.2588877082 -0.1600757837 0.4326591194 4285893981
-0.2589587569 -0.1596393138 0.4327778518 4285959259
-0.2590296268 -0.1592024714 0.4328963161 4285893466
-0.2591003776 -0.1587652862 0.4330145419 4285827673
-0.2596608698 -0.1586270332 0.4339512587 4285959259
-0.2597314417 -0.1581882983 0.4340691566 4286025052
-0.2598018348 -0.1577492058 0.4341868162 4286025052
-0.2598720789 -0.1573097706 0.4343042076 4286157153
-0.2599421442 -0.1568699628 0.4344213307 4286222946
-0.2600120604 -0.1564297974 0.4345381856 4285828188
-0.2595911324 -0.1556949764 0.4338346720 4285762395
-0.2596606016 -0.1552549303 0.4339507818 4285959774
-0.2602208853 -0.1551072001 0.4348871708 4286157153
-0.2597990632 -0.1543738097 0.4341821969 4286288737
-0.2598680556 -0.1539327204 0.4342975020 4286157151
-0.2599368691 -0.1534912735 0.4344125390 4286420323
-0.2595140636 -0.1527601629 0.4337058961 4286025565
-0.2595824301 -0.1523188502 0.4338201582 4285499221
-0.2596506476 -0.1518771946 0.4339341521 4285104463
-0.2597187161 -0.1514351815 0.4340479076 4284578119
-0.2597866058 -0.1509928405 0.4341613650 4284051775
-0.2598543167 -0.1505501419 0.4342745543 4283788601
-0.2599218786 -0.1501071006 0.4343874753 4283657015
-0.2599892914 -0.1496637017 0.4345000982 4283985980
-0.2600565255 -0.1492199749 0.4346124828 4284117566
-0.2601235807 -0.1487758905 0.4347245693 4284446785
-0.2601904869 -0.1483314782 0.4348363876 4284644164
-0.2602572441 -0.1478867084 0.4349479079 4284446785
-0.2603238225 -0.1474416107 0.4350591600 4284117820
-0.2603902221 -0.1469961554 0.4351701438 4283788601
-0.2604564428 -0.1465503722 0.4352808595 4283328050
-0.2605225146 -0.1461042464 0.4353912771 4283590711
-0.2605884373 -0.1456577778 0.4355014265 4283722297
-0.2611478269 -0.1454859972 0.4364362955 4283853883
-0.2607197464 -0.1447638422 0.4357208312 4283919676
-0.2607851326 -0.1443163604 0.4358301461 4284051262
-0.2608503401 -0.1438685358 0.4359391332 4284182848
-0.2609153986 -0.1434203833 0.4360478520 4284314688
-0.2609803081 -0.1429719031 0.4361563027 4284512067
-0.2610450089 -0.1425230801 0.4362644553 4284446020
-0.2611095607 -0.1420739293 0.4363723099 4284051262
-0.2611739337 -0.1416244507 0.4364798963 4283722299
-0.2612381279 -0.1411746293 0.4365871847 4283524920
-0.2613021433 -0.1407244802 0.4366941750 4283393335
-0.2613660097 -0.1402740031 0.4368008971 4283195956
-0.2614296675 -0.1398231834 0.4369073212 4283195956
-0.2614931762 -0.1393720508 0.4370134473 4283261749
-0.2615565062 -0.1389205754 0.4371192753 4283788093
-0.2616196573 -0.1384687871 0.4372248352 4284051265
-0.2616826296 -0.1380166709 0.4373300672 4284972366
-0.2617454529 -0.1375642121 0.4374350309 4285630296
-0.2618080676 -0.1371114403 0.4375396967 4286485857
-0.2618705332 -0.1366583407 0.4376440644 4286354271
-0.2619327903 -0.1362049282 0.4377481341 4285696852
-0.2624910772 -0.1360082775 0.4386811852 4284775750
-0.2625531256 -0.1355533600 0.4387848377 4284379711
-0.2631114125 -0.1353534907 0.4397178888 4283721781
-0.2631732225 -0.1348970681 0.4398211539 4283721781
-0.2637314796 -0.1346939653 0.4407541752 4284050746
-0.2637930512 -0.1342360377 0.4408570230 4284248125
-0.2638544142 -0.1337777823 0.4409595728 4284313918
-0.2639155984 -0.1333191991 0.4410618544 4284248127
-0.2644737363 -0.1331105232 0.4419946074 4284182334
-0.2645346522 -0.1326504350 0.4420964420 4283919162
-0.2645954192 -0.1321900487 0.4421979785 4283590197
-0.2651534677 -0.1319769472 0.4431305826 4283261232
-0.2652139664 -0.1315150559 0.4432317019 4282932267
-0.2647765875 -0.1308069676 0.4425007403 4282866220
-0.2648365796 -0.1303453147 0.4426010251 4282734634
-0.2648964226 -0.1298833489 0.4427010417 4282471462
-0.2649560571 -0.1294210553 0.4428007007 4282471462
-0.2650155425 -0.1289584637 0.4429000914 4282537255
-0.2650747895 -0.1284955591 0.4429991543 4282866220
-0.2656322718 -0.1282730103 0.4439307749 4283129392
-0.2656912804 -0.1278086156 0.4440293908 4283392564
-0.2657500803 -0.1273439080 0.4441277087 4283589430
-0.2658087313 -0.1268789023 0.4442256987 4283655223
-0.2658671737 -0.1264135838 0.4443233609 4283589943
-0.2659254372 -0.1259479523 0.4444207251 4283589943
-0.2659834921 -0.1254820228 0.4445177615 4283721529
-0.2660413682 -0.1250157803 0.4446144998 4283326771
-0.2660990655 -0.1245492399 0.4447108805 4283130162
-0.2661565542 -0.1240823939 0.4448069930 4283327541
-0.2662138641 -0.1236152500 0.4449027479 4283787322
-0.2662709653 -0.1231478006 0.4449982047 4284050494
-0.2663278878 -0.1226800531 0.4450933039 4283787576
-0.2663846016 -0.1222120076 0.4451881349 4283392818
-0.2664411366 -0.1217436641 0.4452826083 4282998060
-0.2664974928 -0.1212750226 0.4453767538 4283129646
-0.2665536404 -0.1208060831 0.4454706013 4283327025
-0.2671097815 -0.1205626130 0.4464000463 4283721783
-0.2671656609 -0.1200922057 0.4464934170 4283984955
-0.2672213316 -0.1196215004 0.4465864599 4284050748
-0.2672767937 -0.1191504970 0.4466791749 4284116028
-0.2673320770 -0.1186792031 0.4467715323 4284050235
-0.2673871517 -0.1182076186 0.4468635917 4283984442
-0.2679428756 -0.1179562211 0.4477923214 4283984442
-0.2679976523 -0.1174831688 0.4478838742 4283984440
-0.2680522501 -0.1170098335 0.4479750991 4283984440
-0.2681066394 -0.1165362000 0.4480659962 4283984440
-0.2681608200 -0.1160622835 0.4481565654 4283918647
-0.2682148218 -0.1155880839 0.4482468069 4283918647
-0.2682686150 -0.1151135936 0.4483367205 4284050233
-0.2688237429 -0.1148530915 0.4492644668 4283918649
-0.2688772380 -0.1143771484 0.4493538737 4283787063
-0.2689305246 -0.1139009148 0.4494429231 4283589684
-0.2689836323 -0.1134244055 0.4495316446 4283523891
-0.2695384622 -0.1131583303 0.4504588842 4283589684
-0.2695912421 -0.1126803681 0.4505470991 4283655477
-0.2701459527 -0.1124110669 0.4514741600 4283458098
-0.2701984346 -0.1119316518 0.4515618682 4283260719
-0.2707530260 -0.1116591096 0.4524887204 4283260719
-0.2708051801 -0.1111782491 0.4525758922 4283326512
-0.2713596821 -0.1109024808 0.4535025656 4283392305
-0.2714115083 -0.1104201674 0.4535892010 4283392305
-0.2719658613 -0.1101411656 0.4545156658 4283391792
-0.2720174193 -0.1096574143 0.4546017945 4283523378
-0.2725716233 -0.1093751788 0.4555280209 4283654966
-0.2731258273 -0.1090908796 0.4564542174 4283654966
-0.2736800313 -0.1088045239 0.4573803842 4283721783
-0.2742341757 -0.1085160971 0.4583065212 4284642885
-0.2747883201 -0.1082256064 0.4592325985 4285629267
-0.2748390734 -0.1077357307 0.4593174160 4285826646
-0.2753930688 -0.1074420065 0.4602432847 4285366095
-0.2759470344 -0.1071462110 0.4611690640 4284642372
-0.2765009701 -0.1068483517 0.4620948434 4283787063
-0.2775586247 -0.1067421511 0.4638623893 4283129133
-0.2781125903 -0.1064392626 0.4647881985 4283326001
-0.2786665261 -0.1061343029 0.4657139480 4283457587
-0.2787164152 -0.1056362465 0.4657973051 4283654966
-0.2797742784 -0.1055181697 0.4675652385 4283786552
-0.2808322906 -0.1053962260 0.4693334103 4283785782
-0.2813861668 -0.1050820872 0.4702590704 4283654196
-0.2819399834 -0.1047658771 0.4711846411 4283588403
-0.2829982340 -0.1046341062 0.4729531705 4283456817
-0.2835520506 -0.1043128446 0.4738787413 4283588401
-0.2841058373 -0.1039895192 0.4748042226 4283719987
-0.2841548324 -0.1034803167 0.4748861492 4283785780
-0.2847084403 -0.1031537428 0.4758113325 4283785780
-0.2852619886 -0.1028251052 0.4767363966 4283719987
-0.2853104770 -0.1023133025 0.4768174887 4283654194
-0.2853587866 -0.1018012390 0.4768981934 4283523380
-0.2859119773 -0.1014681906 0.4778227210 4283589173
-0.2869703472 -0.1013114378 0.4795914888 4283391794
-0.2875235379 -0.1009733379 0.4805159867 4283326001
-0.2885820568 -0.1008097082 0.4822849929 4283326001
-0.2891351879 -0.1004665494 0.4832094014 4283391794
-0.2901938260 -0.1002960503 0.4849786162 4283391539
-0.2917581797 -0.1002954841 0.4875930548 4283391539
-0.2928171158 -0.1001162827 0.4893627167 4283523125
-0.2943819165 -0.1001051888 0.4919778705 4283588918
-0.2964528799 -0.1002594680 0.4954389334 4283654962
-0.2980182767 -0.1002360210 0.4980550706 4284115513
-0.3000899851 -0.1003761142 0.5015173554 4284509506
-0.3021620810 -0.1005086526 0.5049802661 4284575299
-0.3042345941 -0.1006336361 0.5084438920 4284641343
-0.3068137765 -0.1009175926 0.5127542615 4284707136
-0.3088871241 -0.1010265350 0.5162193179 4284509505
-0.3109608591 -0.1011279151 0.5196849704 4284246333
-0.3130349815 -0.1012217179 0.5231512785 4284508995
-0.3146028519 -0.1011450663 0.5257715583 4284837960
-0.3161709309 -0.1010626704 0.5283921361 4285231699
-0.3177392185 -0.1009745225 0.5310131311 4285560664
-0.2774311006 -0.2198134512 0.4645105302 4287603053
-0.2775232494 -0.2193706483 0.4646647871 4287668846
-0.2772316337 -0.2181096226 0.4641765058 4287668596
-0.2759871781 -0.2161046863 0.4620929062 4287603307
-0.2756020725 -0.2152908891 0.4614480734 4287669099
-0.2752164900 -0.2144781947 0.4608025253 4287800685
-0.2743541896 -0.2132962942 0.4593587518 4287800685
-0.2739675939 -0.2124865502 0.4587114751 4287734892
-0.2735805809 -0.2116779089 0.4580634534 4287734892
-0.2731931210 -0.2108703554 0.4574147165 4287734892
-0.2723282576 -0.2096966654 0.4559666812 4287735406
-0.2724168599 -0.2092585713 0.4561150074 4287472234
-0.2715508342 -0.2080886364 0.4546650052 4287669359
-0.2706840634 -0.2069213390 0.4532137513 4287800945
-0.2717267573 -0.2072133869 0.4549595416 4287669359
-0.2708590925 -0.2060483247 0.4535068274 4287735152
-0.2699907124 -0.2048859298 0.4520528316 4287866992
-0.2695995867 -0.2040880471 0.4513979852 4287735406
-0.2696861923 -0.2036523819 0.4515429735 4287406705
-0.2692943513 -0.2028559744 0.4508869052 4287538291
-0.2689020634 -0.2020606995 0.4502301216 4287735670
-0.2685093582 -0.2012665570 0.4495725632 4287998842
-0.2681162059 -0.2004735470 0.4489143193 4288327293
-0.2677226067 -0.1996816844 0.4482553005 4288393086
-0.2673285902 -0.1988909543 0.4475955963 4288327293
-0.2669341266 -0.1981013566 0.4469351470 4288261500
-0.2665392458 -0.1973129064 0.4462739527 4287800949
-0.2661439180 -0.1965256035 0.4456120431 4287800949
-0.2662278414 -0.1960927844 0.4457525611 4288129912
-0.2658317983 -0.1953070015 0.4450894594 4288524670
-0.2659153044 -0.1948741376 0.4452292919 4288524670
-0.2645582557 -0.1933879256 0.4429571629 4288393084
-0.2646410465 -0.1929565966 0.4430957735 4288195705
-0.2642432749 -0.1921754479 0.4424297512 4287932533
-0.2643256485 -0.1917440891 0.4425676763 4287669361
-0.2644079030 -0.1913123280 0.4427053928 4287669361
-0.2640091181 -0.1905331016 0.4420377016 4287932533
-0.2640909255 -0.1901013255 0.4421747029 4288393084
-0.2636914253 -0.1893236637 0.4415058196 4288721534
-0.2637728453 -0.1888918728 0.4416421056 4288655741
-0.2638541162 -0.1884596795 0.4417781830 4288589948
-0.2634536028 -0.1876839697 0.4411076009 4288787327
-0.2630526721 -0.1869094372 0.4404363036 4288655741
-0.2631332576 -0.1864776313 0.4405712187 4288129397
-0.2632136643 -0.1860454232 0.4407058656 4287931759
-0.2628117502 -0.1852728724 0.4400328994 4288194931
-0.2628917396 -0.1848406792 0.4401668608 4288194931
-0.2629716098 -0.1844080687 0.4403005838 4288063345
-0.2630513310 -0.1839750856 0.4404340684 4287997552
-0.2631309330 -0.1835417002 0.4405673146 4288852861
-0.2632103562 -0.1831079125 0.4407003522 4288918905
-0.2623234689 -0.1820033789 0.4392153919 4287405666
-0.2624023557 -0.1815704107 0.4393474460 4287142496
-0.2624810934 -0.1811370552 0.4394792914 4287734633
-0.2625596821 -0.1807033122 0.4396108687 4288326516
-0.2621544600 -0.1799371839 0.4389323890 4288523895
-0.2627164423 -0.1798346490 0.4398733675 4288326517
-0.2623106539 -0.1790693402 0.4391939044 4288392310
-0.2619044185 -0.1783052534 0.4385137558 4288392310
-0.2624662817 -0.1781999469 0.4394544661 4288392310
-0.2620594800 -0.1774366945 0.4387733638 4288260724
-0.2621367872 -0.1770018488 0.4389027953 4288063345
-0.2617292404 -0.1762402356 0.4382204711 4288063345
-0.2613213062 -0.1754798442 0.4375374317 4288129138
-0.2613978982 -0.1750454456 0.4376656711 4288129137
-0.2614743412 -0.1746106744 0.4377936423 4288063344
-0.2610653937 -0.1738523692 0.4371089339 4288260977
-0.2611413896 -0.1734176278 0.4372361898 4288063598
-0.2612172663 -0.1729825139 0.4373632371 4287866478
-0.2612929940 -0.1725470275 0.4374899864 4287932271
-0.2608827353 -0.1717912555 0.4368031323 4284249146
-0.2609580159 -0.1713558137 0.4369291663 4281814805
-0.2610331476 -0.1709199995 0.4370549619 4281881625
-0.2611081302 -0.1704838127 0.4371805191 4281947418
-0.2611829937 -0.1700472534 0.4373058379 4282145055
-0.2602846324 -0.1689786166 0.4358017147 4282079262
-0.2603588998 -0.1685429364 0.4359260499 4282079262
-0.2599462271 -0.1677926481 0.4352350831 4282145055
-0.2595331073 -0.1670436412 0.4345434308 4282210337
-0.2586325109 -0.1659833044 0.4330355227 4282407716
-0.2582184374 -0.1652376205 0.4323422015 4282868267
-0.2582912445 -0.1648041755 0.4324641228 4283131439
-0.2578764558 -0.1640602201 0.4317696095 4283262775
-0.2579488158 -0.1636268497 0.4318907857 4283525947
-0.2580210567 -0.1631931216 0.4320117235 4283525948
-0.2580931485 -0.1627590209 0.4321324229 4284118085
-0.2581650615 -0.1623245627 0.4322528541 4284512842
-0.2582368553 -0.1618897468 0.4323730469 4284907600
-0.2587967813 -0.1617597640 0.4333105385 4285433430
-0.2583799362 -0.1610190123 0.4326126277 4285762395
-0.2584512532 -0.1605831087 0.4327320457 4286091360
-0.2585224211 -0.1601468474 0.4328511953 4285959774
-0.2585934401 -0.1597102135 0.4329700768 4285959259
-0.2586642802 -0.1592732221 0.4330886900 4286025052
-0.2587349713 -0.1588358879 0.4332070649 4286090845
-0.2592947483 -0.1586976051 0.4341443181 4286090845
-0.2593652904 -0.1582587212 0.4342623949 4286025052
-0.2594356537 -0.1578194648 0.4343802035 4286090845
-0.2595058382 -0.1573798656 0.4344977438 4286090847
-0.2595759034 -0.1569399089 0.4346150160 4286090847
-0.2596457899 -0.1564995944 0.4347320497 4285959259
-0.2592254877 -0.1557644606 0.4340283275 4286090845
-0.2592949271 -0.1553242654 0.4341445863 4286222431
-0.2593641877 -0.1548837274 0.4342605770 4286288224
-0.2589429021 -0.1541508734 0.4335551858 4286288224
-0.2590117157 -0.1537104547 0.4336704016 4285959259
-0.2590803802 -0.1532696784 0.4337853789 4284643912
-0.2591488957 -0.1528285593 0.4339000881 4284446533
-0.2592172325 -0.1523870975 0.4340145290 4284117566
-0.2592854202 -0.1519452780 0.4341286719 4284051773
-0.2593534291 -0.1515031010 0.4342425764 4283985980
-0.2594212890 -0.1510605961 0.4343561828 4283920187
-0.2594889998 -0.1506177336 0.4344695210 4284117566
-0.2595565021 -0.1501745284 0.4345825911 4284314945
-0.2596238852 -0.1497309655 0.4346953928 4284841291
-0.2596910894 -0.1492870748 0.4348078966 4284775498
-0.2597581148 -0.1488428265 0.4349201322 4284907082
-0.2598249912 -0.1483982354 0.4350320995 4284775496
-0.2598916888 -0.1479533166 0.4351437986 4284314688
-0.2599582374 -0.1475080401 0.4352551997 4283985723
-0.2600246072 -0.1470624208 0.4353663325 4283919930
-0.2600908279 -0.1466164738 0.4354771972 4283788344
-0.2601568401 -0.1461701840 0.4355877638 4283919676
-0.2602227330 -0.1457235515 0.4356980324 4283853883
-0.2602884173 -0.1452765763 0.4358080328 4283788092
-0.2598608732 -0.1445549577 0.4350921810 4283590713
-0.2599261105 -0.1441081613 0.4352014065 4283589943
-0.2599911690 -0.1436610222 0.4353103340 4283655736
-0.2600560784 -0.1432135552 0.4354190230 4283919162
-0.2606143951 -0.1430366486 0.4363538325 4284182334
-0.2606790662 -0.1425876617 0.4364621043 4284050748
-0.2607435882 -0.1421383321 0.4365701377 4283721783
-0.2608079314 -0.1416886747 0.4366778433 4283327541
-0.2608720958 -0.1412386894 0.4367852807 4283393334
-0.2609360814 -0.1407883614 0.4368924201 4283327542
-0.2609998882 -0.1403377056 0.4369992912 4283195956
-0.2610635459 -0.1398867220 0.4371058643 4283261495
-0.2611270249 -0.1394354105 0.4372121394 4283393081
-0.2611903250 -0.1389837712 0.4373181164 4284117058
-0.2607586384 -0.1382694244 0.4365953505 4284643402
-0.2608214617 -0.1378179938 0.4367005527 4285630296
-0.2613791525 -0.1376268864 0.4376342893 4286222433
-0.2614417672 -0.1371739358 0.4377391040 4286617443
-0.2615041733 -0.1367206573 0.4378436208 4285762134
-0.2615664303 -0.1362670511 0.4379478395 4285038409
-0.2621240020 -0.1360703558 0.4388813972 4284512065
-0.2621859908 -0.1356152445 0.4389851987 4284248125
-0.2627435625 -0.1354153305 0.4399187565 4283787574
-0.2628053129 -0.1349587142 0.4400221705 4283721783
-0.2628669143 -0.1345017850 0.4401252866 4283853369
-0.2634243965 -0.1342974454 0.4410586953 4283984955
-0.2634857297 -0.1338390112 0.4411613941 4284116541
-0.2635469139 -0.1333802491 0.4412637949 4284050748
-0.2636078596 -0.1329211742 0.4413658977 4283853369
-0.2636686563 -0.1324617863 0.4414676726 4283458611
-0.2637292743 -0.1320020705 0.4415691495 4283063853
-0.2637897134 -0.1315420419 0.4416703284 4282800427
-0.2638499439 -0.1310817003 0.4417712092 4282603048
-0.2639099956 -0.1306210309 0.4418717623 4282471462
-0.2639698684 -0.1301600635 0.4419720173 4282537255
-0.2640295625 -0.1296987832 0.4420719445 4282471462
-0.2645864189 -0.1294805706 0.4430043101 4282471462
-0.2646458447 -0.1290177852 0.4431038201 4282406440
-0.2647050917 -0.1285547018 0.4432030022 4282603819
-0.2647641599 -0.1280912906 0.4433018863 4282932783
-0.2648230195 -0.1276275814 0.4434004426 4283130162
-0.2653796077 -0.1274025887 0.4443323612 4283326771
-0.2654382288 -0.1269373894 0.4444304705 4283458357
-0.2654966414 -0.1264718771 0.4445282817 4283524150
-0.2655548751 -0.1260060668 0.4446257949 4283458357
-0.2656129003 -0.1255399436 0.4447229505 4283195955
-0.2651723027 -0.1248388588 0.4439852536 4283064369
-0.2652298510 -0.1243729964 0.4440816045 4283195955
-0.2652872205 -0.1239068434 0.4441776574 4283656506
-0.2653443813 -0.1234403774 0.4442733824 4284051264
-0.2659002244 -0.1232047752 0.4452040493 4283853885
-0.2659571171 -0.1227368340 0.4452992976 4283260978
-0.2660138309 -0.1222685948 0.4453942478 4282932013
-0.2660703361 -0.1218000576 0.4454888701 4282997806
-0.2661266625 -0.1213312149 0.4455831349 4283326771
-0.2661827803 -0.1208620816 0.4456771016 4283589943
-0.2662386894 -0.1203926504 0.4457707405 4283984701
-0.2662944198 -0.1199229285 0.4458640814 4284116287
-0.2663499713 -0.1194529086 0.4459570646 4284182080
-0.2669051290 -0.1192058250 0.4468865991 4284313407
-0.2669603825 -0.1187343374 0.4469791055 4284181821
-0.2670154274 -0.1182625517 0.4470712841 4284050235
-0.2670702934 -0.1177904829 0.4471631348 4283852856
-0.2671249509 -0.1173181161 0.4472546279 4283787063
-0.2671794295 -0.1168454662 0.4473458230 4283852856
-0.2672336996 -0.1163725257 0.4474366903 4283984442
-0.2672877610 -0.1158992946 0.4475272298 4283984442
-0.2673416138 -0.1154257804 0.4476174116 4284050235
-0.2678960264 -0.1151672453 0.4485456645 4284050235
-0.2679496109 -0.1146922708 0.4486353695 4283852856
-0.2685039043 -0.1144305021 0.4495634735 4283721270
-0.2685571909 -0.1139540672 0.4496526420 4283589684
-0.2686102390 -0.1134773567 0.4497415125 4283655477
-0.2686631083 -0.1130003557 0.4498300254 4283721270
-0.2692171037 -0.1127330065 0.4507575929 4283787063
-0.2692696750 -0.1122545600 0.4508455992 4283589684
-0.2698235512 -0.1119839847 0.4517729878 4283326512
-0.2698758245 -0.1115040854 0.4518604577 4283392305
-0.2704295814 -0.1112302691 0.4527876675 4283458098
-0.2704815269 -0.1107489243 0.4528746307 4283457844
-0.2710351646 -0.1104718745 0.4538016021 4283392051
-0.2715888023 -0.1101927608 0.4547285736 4283589173
-0.2716403008 -0.1097088009 0.4548148215 4283852345
-0.2721938193 -0.1094264537 0.4557415545 4284181310
-0.2722450197 -0.1089410484 0.4558272660 4284444482
-0.2727983892 -0.1086554676 0.4567537904 4284971337
-0.2733517289 -0.1083678231 0.4576802850 4285234509
-0.2739050686 -0.1080781072 0.4586067498 4285431888
-0.2744583488 -0.1077863276 0.4595331550 4285037130
-0.2750116289 -0.1074924842 0.4604595304 4284313407
-0.2750620246 -0.1070009619 0.4605439007 4283589684
-0.2761180997 -0.1068985909 0.4623121023 4283391792
-0.2766712904 -0.1065985486 0.4632383287 4283391792
-0.2772244513 -0.1062964275 0.4641644955 4283852345
-0.2777775824 -0.1059922427 0.4650906026 4283918138
-0.2783306539 -0.1056859866 0.4660166502 4283852345
-0.2788836956 -0.1053776667 0.4669426382 4283720759
-0.2794367075 -0.1050672680 0.4678685665 4283654196
-0.2799896896 -0.1047548056 0.4687944055 4283456817
-0.2815499604 -0.1048152745 0.4714068174 4283391024
-0.2815992534 -0.1043102592 0.4714893699 4283391024
-0.2826560438 -0.1041763723 0.4732587636 4283325229
-0.2832089961 -0.1038538143 0.4741846025 4283325229
-0.2837619185 -0.1035291776 0.4751103818 4283391022
-0.2838107049 -0.1030194908 0.4751920402 4283456815
-0.2843634486 -0.1026916131 0.4761174917 4283391024
-0.2844118476 -0.1021804959 0.4761985540 4283456817
-0.2849643826 -0.1018493772 0.4771236777 4283457587
-0.2855168581 -0.1015161872 0.4780487120 4283523380
-0.2860693038 -0.1011809260 0.4789736569 4283457587
-0.2866216600 -0.1008435860 0.4798985124 4283457587
-0.2876786888 -0.1006808057 0.4816682935 4283523125
-0.2882310152 -0.1003384143 0.4825930893 4283588918
-0.2897930145 -0.1003435701 0.4852083921 4283588918
-0.2908503413 -0.1001691073 0.4869786799 4283523125
-0.2924127877 -0.1001637504 0.4895947278 4283523125
-0.2939754725 -0.1001526639 0.4922111928 4283523125
-0.2955384254 -0.1001358554 0.4948281050 4283785780
-0.2971016467 -0.1001133248 0.4974454045 4284246331
-0.2991704345 -0.1002544165 0.5009092689 4284641092
-0.3012396395 -0.1003879458 0.5043737888 4284772678
-0.3033092618 -0.1005139202 0.5078390241 4284838722
-0.3053792417 -0.1006323248 0.5113048553 4284904515
-0.3074496388 -0.1007431671 0.5147713423 4284640579
-0.3095203936 -0.1008464321 0.5182384849 4284180028
-0.3120973706 -0.1011059880 0.5225531459 4284574018
-0.3136630356 -0.1010302380 0.5251746178 4284771397
-0.3152289391 -0.1009487286 0.5277964473 4285165903
-0.3167950213 -0.1008614674 0.5304185748 4285626454
-0.2757148147 -0.2209136784 0.4624959528 4287733879
-0.2768473029 -0.2207900882 0.4643956423 4287603306
-0.2769396305 -0.2203480452 0.4645505250 4287537513
-0.2770318389 -0.2199055701 0.4647051692 4287537514
-0.2771238983 -0.2194626480 0.4648596346 4287471721
-0.2767411768 -0.2186442465 0.4642176330 4287340398
-0.2763580084 -0.2178269327 0.4635748863 4287406191
-0.2764494121 -0.2173842043 0.4637281895 4287537513
-0.2755903602 -0.2161955386 0.4622871876 4287734892
-0.2752058804 -0.2153814733 0.4616422355 4287998064
-0.2748209536 -0.2145684958 0.4609965384 4288195443
-0.2744355798 -0.2137566209 0.4603500962 4288129650
-0.2721466422 -0.2114670277 0.4565105736 4288063857
-0.2727116644 -0.2113982588 0.4574583471 4288064370
-0.2718485594 -0.2102230340 0.4560105503 4287932784
-0.2714609802 -0.2094178498 0.4553604126 4287998577
-0.2710729539 -0.2086137533 0.4547095299 4287735405
-0.2706845105 -0.2078107744 0.4540579021 4287866992
-0.2702956200 -0.2070089132 0.4534055591 4288130164
-0.2699062824 -0.2062081695 0.4527524710 4288195957
-0.2699935138 -0.2057720870 0.4528988302 4287932785
-0.2696034610 -0.2049728036 0.4522445202 4287669612
-0.2687356472 -0.2038126290 0.4507888258 4287538026
-0.2688220441 -0.2033776045 0.4509337544 4287471984
-0.2684307098 -0.2025816888 0.4502772689 4287866742
-0.2680388987 -0.2017869055 0.4496200383 4288327039
-0.2676466703 -0.2009932697 0.4489620924 4288656004
-0.2672539949 -0.2002007514 0.4483034313 4288721797
-0.2663826644 -0.1990520060 0.4468417764 4288721797
-0.2664673626 -0.1986191273 0.4469838738 4288590465
-0.2655948400 -0.1974742264 0.4455202818 4288656258
-0.2656789720 -0.1970420778 0.4456614256 4288327293
-0.2657629848 -0.1966095269 0.4458023310 4288195707
-0.2653678656 -0.1958231032 0.4451395273 4288327293
-0.2649722993 -0.1950378120 0.4444760084 4288524672
-0.2645763159 -0.1942536831 0.4438117743 4288458879
-0.2641798854 -0.1934707165 0.4431467652 4288524672
-0.2637830377 -0.1926889122 0.4424810708 4288458877
-0.2638655007 -0.1922578216 0.4426193833 4288195705
-0.2639478147 -0.1918263286 0.4427575171 4287998326
-0.2635499537 -0.1910464466 0.4420901239 4287932533
-0.2636318803 -0.1906149238 0.4422275126 4288129912
-0.2637136579 -0.1901830137 0.4423646927 4288524670
-0.2633148134 -0.1894050688 0.4416956306 4288918915
-0.2633961439 -0.1889731437 0.4418321252 4288853122
-0.2634773850 -0.1885408014 0.4419683516 4288918915
-0.2630775273 -0.1877648085 0.4412976205 4289182087
-0.2626772225 -0.1869900078 0.4406261444 4288984708
-0.2627577484 -0.1865580529 0.4407612085 4288458364
-0.2628381252 -0.1861257106 0.4408960640 4288392569
-0.2624368370 -0.1853528768 0.4402229190 4288589948
-0.2625167966 -0.1849205345 0.4403570294 4288589948
-0.2625966072 -0.1844878048 0.4404909313 4288326776
-0.2626762986 -0.1840546727 0.4406245947 4288063604
-0.2627558410 -0.1836211532 0.4407580197 4288524155
-0.2628352642 -0.1831872314 0.4408912361 4289247870
-0.2619496882 -0.1820822656 0.4394057393 4287997803
-0.2620285153 -0.1816491485 0.4395379722 4287208289
-0.2621072233 -0.1812156588 0.4396699965 4287734633
-0.2621857524 -0.1807817668 0.4398017526 4288458102
-0.2622641623 -0.1803474873 0.4399332702 4288589688
-0.2618592978 -0.1795814931 0.4392541349 4288523896
-0.2619372904 -0.1791472286 0.4393849373 4288458103
-0.2620151341 -0.1787125915 0.4395155013 4288392312
-0.2616092563 -0.1779486239 0.4388346970 4288392312
-0.2616866529 -0.1775140166 0.4389645457 4288326517
-0.2617639303 -0.1770790070 0.4390941560 4288129138
-0.2613570690 -0.1763171107 0.4384116232 4287997551
-0.2609497607 -0.1755564362 0.4377284050 4288063344
-0.2610262930 -0.1751219034 0.4378568232 4288063344
-0.2611027062 -0.1746869832 0.4379849732 4288063344
-0.2606943846 -0.1739283800 0.4373000562 4288129389
-0.2607703805 -0.1734935045 0.4374274909 4287997803
-0.2608461976 -0.1730582416 0.4375546873 4287998575
-0.2609218657 -0.1726226062 0.4376816452 4287998575
-0.2605122626 -0.1718665510 0.4369945526 4284249403
-0.2605875134 -0.1714309603 0.4371207654 4282012441
-0.2606626153 -0.1709949970 0.4372467399 4281750039
-0.2602519989 -0.1702410579 0.4365579784 4281947418
-0.2598409951 -0.1694883555 0.4358685017 4282079517
-0.2599153519 -0.1690528840 0.4359932542 4282079517
-0.2595036030 -0.1683018804 0.4353025854 4282210848
-0.2590914369 -0.1675521284 0.4346112013 4282408227
-0.2586788535 -0.1668036431 0.4339191020 4282539815
-0.2582658529 -0.1660564244 0.4332262874 4282802987
-0.2578524053 -0.1653104573 0.4325327575 4283131439
-0.2574385405 -0.1645657718 0.4318385124 4283263025
-0.2575110197 -0.1641326249 0.4319601357 4283394361
-0.2575833797 -0.1636991054 0.4320814908 4283525947
-0.2576555610 -0.1632652134 0.4322025776 4283591740
-0.2577275932 -0.1628309786 0.4323234260 4284183877
-0.2577995062 -0.1623963565 0.4324440360 4284907086
-0.2573837638 -0.1616552174 0.4317466617 4285696602
-0.2574552298 -0.1612207144 0.4318665266 4286091360
-0.2580142617 -0.1610903442 0.4328042865 4286354532
-0.2580855489 -0.1606542915 0.4329238534 4286157151
-0.2581566572 -0.1602178663 0.4330431521 4286025565
-0.2582276464 -0.1597810835 0.4331622124 4286025054
-0.2582984567 -0.1593439430 0.4332810044 4286156640
-0.2583691180 -0.1589064449 0.4333995283 4286156640
-0.2584396005 -0.1584685892 0.4335177839 4285959261
-0.2589986324 -0.1583290994 0.4344555140 4285893466
-0.2590689659 -0.1578896940 0.4345735013 4286090845
-0.2591391206 -0.1574499309 0.4346911907 4285959259
-0.2592091262 -0.1570098102 0.4348086119 4286025052
-0.2592789829 -0.1565693319 0.4349257946 4286354017
-0.2588593364 -0.1558339298 0.4342218637 4286748775
-0.2589287460 -0.1553935707 0.4343382716 4286419810
-0.2589979768 -0.1549528688 0.4344544411 4285630294
-0.2585773468 -0.1542197168 0.4337488115 4285038157
-0.2586461306 -0.1537791342 0.4338642061 4284709192
-0.2587147653 -0.1533382088 0.4339793324 4284840778
-0.2587832212 -0.1528969258 0.4340941906 4284511813
-0.2588515282 -0.1524553001 0.4342087805 4284249152
-0.2589196861 -0.1520133168 0.4343231022 4284183359
-0.2589876652 -0.1515709907 0.4344371259 4284380738
-0.2590554953 -0.1511283070 0.4345509112 4284446531
-0.2591231465 -0.1506852806 0.4346643984 4284446531
-0.2591906488 -0.1502419114 0.4347776175 4284578117
-0.2592579722 -0.1497981995 0.4348905683 4284709192
-0.2593251467 -0.1493541300 0.4350032210 4284643399
-0.2593921423 -0.1489097327 0.4351156354 4284643399
-0.2594589889 -0.1484649777 0.4352277517 4284380227
-0.2595256567 -0.1480198801 0.4353395700 4283853883
-0.2595921755 -0.1475744396 0.4354511201 4283722297
-0.2596585155 -0.1471286565 0.4355624020 4283985469
-0.2597246766 -0.1466825455 0.4356734157 4284051262
-0.2597906888 -0.1462360770 0.4357841313 4284117057
-0.2593643665 -0.1455131620 0.4350690246 4283788092
-0.2594299018 -0.1450668722 0.4351789653 4283655736
-0.2594952881 -0.1446202397 0.4352886081 4283524150
-0.2595604956 -0.1441732645 0.4353980124 4283524150
-0.2596255243 -0.1437259614 0.4355070889 4283655736
-0.2596904039 -0.1432783157 0.4356158972 4283853115
-0.2597551048 -0.1428303421 0.4357244372 4283918908
-0.2603126466 -0.1426521987 0.4366596937 4283459379
-0.2603771091 -0.1422027051 0.4367678463 4283262000
-0.2604414225 -0.1417528689 0.4368757010 4283261746
-0.2605055571 -0.1413027197 0.4369832873 4283393332
-0.2605695128 -0.1408522129 0.4370905757 4283393334
-0.2606333196 -0.1404013932 0.4371975958 4283393334
-0.2606969178 -0.1399502307 0.4373042881 4283656506
-0.2607603669 -0.1394987404 0.4374107122 4283985471
-0.2608236372 -0.1390469223 0.4375168383 4284577608
-0.2603926063 -0.1383322924 0.4367938340 4285564503
-0.2604553998 -0.1378806829 0.4368991852 4286354017
-0.2605180442 -0.1374287307 0.4370042384 4286354017
-0.2610749304 -0.1372363865 0.4379383922 4285959511
-0.2611373365 -0.1367829293 0.4380430579 4285104202
-0.2611995339 -0.1363291591 0.4381474257 4284512063
