VERSION 0.7
FIELDS x y z rgba
SIZE 4 4 4 4
TYPE F F F U
COUNT 1 1 1 1
WIDTH 920
HEIGHT 1
VIEWPOINT 0.0 0.0 0.0 1.0 0.0 0.0 0.0
POINTS 920
DATA ascii
-0.2995268703 -0.1926827580 0.6118994951 4291348682
-0.2996050417 -0.1920530051 0.6120591760 4291348682
-0.2992597222 -0.1911523938 0.6113537550 4291413962
-0.2993373573 -0.1905225366 0.6115123034 4291413962
-0.2994147539 -0.1898922026 0.6116704345 4291413962
-0.2994919717 -0.1892613769 0.6118281484 4291413962
-0.2999926507 -0.1888968647 0.6128510237 4291348939
-0.3000695109 -0.1882641762 0.6130080819 4291283146
-0.3001461625 -0.1876309961 0.6131646633 4291283146
-0.3002226055 -0.1869973242 0.6133207679 4291283146
-0.3002988100 -0.1863631755 0.6134764552 4291348682
-0.3003748059 -0.1857285500 0.6136317253 4291348682
-0.3004505634 -0.1850934327 0.6137865186 4291414473
-0.3005261123 -0.1844578534 0.6139408350 4291348680
-0.3006014526 -0.1838217825 0.6140947342 4291348421
-0.3006765544 -0.1831852347 0.6142481565 4291480007
-0.3003266454 -0.1822903752 0.6135333180 4291545028
-0.3004011810 -0.1816537678 0.6136856079 4291676614
-0.3004755080 -0.1810166985 0.6138374805 4291873987
-0.2996993959 -0.1798688918 0.6122519374 4291808194
-0.2997730672 -0.1792326719 0.6124024391 4290953136
-0.2994211912 -0.1783426702 0.6116836071 4289242518
-0.2994943261 -0.1777064353 0.6118329763 4288183622
-0.2991416752 -0.1768182069 0.6111125946 4288183622
-0.2992142439 -0.1761819273 0.6112607718 4291074883
-0.2984351218 -0.1750457883 0.6096691489 4290153781
-0.2980811894 -0.1741616130 0.6089460850 4290742810
-0.2973008752 -0.1730308831 0.6073520184 4291005982
-0.2969459891 -0.1721503288 0.6066270471 4291072286
-0.2948861122 -0.1702868193 0.6024189591 4291072286
-0.2932512462 -0.1686771065 0.5990790725 4291140386
-0.2911889851 -0.1668299735 0.5948661566 4291140386
-0.2891255021 -0.1649914980 0.5906506777 4291337501
-0.2870608270 -0.1631616950 0.5864327550 4291403294
-0.2858481705 -0.1618236303 0.5839554071 4291730976
-0.2850614190 -0.1607312113 0.5823482275 4291730976
-0.2838472426 -0.1594023257 0.5798677802 4291796260
-0.2834861279 -0.1585560590 0.5791300535 4291862053
-0.2826975286 -0.1574733406 0.5775190592 4291534117
-0.2823354602 -0.1566308141 0.5767794251 4291599910
-0.2819730043 -0.1557897031 0.5760388970 4291731496
-0.2820374370 -0.1551851332 0.5761705041 4291665703
-0.2816742063 -0.1543459296 0.5754284859 4291665703
-0.2817381024 -0.1537414640 0.5755590200 4291599910
-0.2813741565 -0.1529041976 0.5748155117 4291862310
-0.2814375162 -0.1522998214 0.5749449730 4291928103
-0.2815006375 -0.1516950279 0.5750738978 4291928103
-0.2811356187 -0.1508602202 0.5743282437 4291862310
-0.2811982334 -0.1502555460 0.5744560957 4291928103
-0.2812605798 -0.1496504694 0.5745835304 4291993896
-0.2813227177 -0.1490449756 0.5747104883 4291994150
-0.2813846469 -0.1484390944 0.5748369694 4291994150
-0.2814463377 -0.1478328109 0.5749629736 4292125736
-0.2815077901 -0.1472261399 0.5750885606 4292059943
-0.2815690339 -0.1466190666 0.5752136707 4291994666
-0.2812013924 -0.1457893550 0.5744625926 4291994666
-0.2816908360 -0.1454037279 0.5754624605 4291994666
-0.2817513943 -0.1447954625 0.5755861402 4292060459
-0.2818117142 -0.1441868097 0.5757094026 4292060459
-0.2818717957 -0.1435777694 0.5758321881 4291994666
-0.2823607922 -0.1431859434 0.5768311620 4292060459
-0.2824205458 -0.1425752044 0.5769531727 4292060459
-0.2829093337 -0.1421798170 0.5779517293 4292126765
-0.2829686999 -0.1415673792 0.5780730247 4292060972
-0.2834573090 -0.1411684304 0.5790711641 4291995179
-0.2835162878 -0.1405542791 0.5791916847 4292060972
-0.2835750580 -0.1399397552 0.5793117285 4292060972
-0.2840633094 -0.1395359486 0.5803092122 4291995179
-0.2841216922 -0.1389197260 0.5804284215 4291995179
-0.2841798365 -0.1383031160 0.5805472136 4291995179
-0.2846677601 -0.1378944367 0.5815439820 4291995179
-0.2847255170 -0.1372761428 0.5816619396 4291995179
-0.2852132022 -0.1368639171 0.5826582909 4291995179
-0.2852705717 -0.1362439394 0.5827754736 4291995179
-0.2857580781 -0.1358281523 0.5837714076 4291995179
-0.2858150601 -0.1352064908 0.5838878155 4291995179
-0.2863023281 -0.1347871572 0.5848832130 4292060972
-0.2867895365 -0.1343655735 0.5858785510 4292060972
-0.2872766554 -0.1339417398 0.5868737102 4291929386
-0.2877637148 -0.1335156709 0.5878686905 4291995179
-0.2878198326 -0.1328884065 0.5879833698 4292060972
-0.2883066535 -0.1324587911 0.5889778733 4292126765
-0.2887934148 -0.1320269108 0.5899722576 4292126765
-0.2892800868 -0.1315927953 0.5909664631 4292126765
-0.2893354893 -0.1309612691 0.5910796523 4292126765
-0.2898219228 -0.1305236071 0.5920733213 4292060972
-0.2903082669 -0.1300836951 0.5930668712 4291930665
-0.2907945216 -0.1296415329 0.5940603018 4291864872
-0.2912806869 -0.1291971356 0.5950534940 4291864872
-0.2913351953 -0.1285600364 0.5951647758 4291864872
-0.2922528088 -0.1283016056 0.5970393419 4291864872
-0.2923069298 -0.1276618987 0.5971499681 4291864872
-0.2927926779 -0.1272094548 0.5981422663 4291995947
-0.2932783365 -0.1267547756 0.5991344452 4291995947
-0.2933318913 -0.1261121184 0.5992438197 4291995947
-0.2938172519 -0.1256538928 0.6002354026 4292061740
-0.2943025529 -0.1251934171 0.6012267470 4291995947
-0.2943554819 -0.1245478168 0.6013349295 4291930154
-0.2948404849 -0.1240838096 0.6023257375 4292126765
-0.2953253984 -0.1236175522 0.6033163667 4292126765
-0.2953777313 -0.1229690164 0.6034232378 4292060972
-0.2958623469 -0.1224992201 0.6044132710 4292126765
-0.2963468730 -0.1220271811 0.6054030657 4291930154
-0.2968312800 -0.1215529069 0.6063926816 4291930154
-0.2968828082 -0.1209001392 0.6064979434 4291930667
-0.2973669171 -0.1204223260 0.6074869633 4291930667
-0.2974179983 -0.1197679341 0.6075912714 4291995947
-0.2979018092 -0.1192865893 0.6085796952 4291930154
-0.2979524434 -0.1186305732 0.6086831093 4291930154
-0.2984359562 -0.1181456968 0.6096708775 4291930154
-0.2984861434 -0.1174880639 0.6097733974 4292060970
-0.2985360622 -0.1168300956 0.6098753810 4292060970
-0.2985857129 -0.1161717996 0.6099767685 4291930154
-0.2995019555 -0.1158484817 0.6118485928 4291930154
-0.2995512187 -0.1151876152 0.6119492650 4291930154
-0.2996002436 -0.1145264283 0.6120493412 4291930154
-0.2996489704 -0.1138649136 0.6121488810 4292126763
-0.2996974289 -0.1132030860 0.6122479439 4292126763
-0.2997456193 -0.1125409305 0.6123464108 4291930406
-0.2997935712 -0.1118784547 0.6124442816 4291996199
-0.2998412251 -0.1112156659 0.6125416756 4292061992
-0.2998886406 -0.1105525643 0.6126385331 4292061992
-0.2999357581 -0.1098891422 0.6127347946 4292127531
-0.3004167378 -0.1093834788 0.6137173772 4292127531
-0.3004634082 -0.1087184772 0.6138126850 4292258603
-0.3005097806 -0.1080531701 0.6139074564 4292258603
-0.3005559146 -0.1073875502 0.6140016913 4292324912
-0.3006017506 -0.1067216247 0.6140953302 4292259119
-0.3006473184 -0.1060554013 0.6141884327 4292259632
-0.3006926179 -0.1053888723 0.6142809987 4292391218
-0.3011722565 -0.1048733741 0.6152607799 4292522550
-0.3016517162 -0.1043556482 0.6162403226 4292456757
-0.3016963303 -0.1036862954 0.6163314581 4292718902
-0.3013058901 -0.1028682068 0.6155338287 4292916281
-0.3013499081 -0.1021992266 0.6156237125 4292523065
-0.3013936281 -0.1015299559 0.6157130599 4292917823
-0.3014370799 -0.1008603945 0.6158018112 4292459077
-0.3014802635 -0.1001905426 0.6158900261 4292590663
-0.3015231490 -0.0995204002 0.6159776449 4292854095
-0.3015657663 -0.0988499820 0.6160647273 4292788302
-0.3016081154 -0.0981792733 0.6161512733 4293116243
-0.3016501963 -0.0975082815 0.6162372231 4293511001
-0.3021273315 -0.0969767496 0.6172119379 4293314410
-0.3026043177 -0.0964430049 0.6181863546 4293511789
-0.3026456833 -0.0957692415 0.6182708740 4293251736
-0.2960895002 -0.2010085434 0.6062529087 4291743186
-0.2961702943 -0.2003896087 0.6064183116 4291742929
-0.2966716886 -0.2000539452 0.6074449420 4291742929
-0.2967521548 -0.1994331181 0.6076097488 4291677647
-0.2968324423 -0.1988117993 0.6077740788 4291677647
-0.2969125211 -0.1981899589 0.6079380512 4291480268
-0.2969923913 -0.1975676268 0.6081016064 4291414475
-0.2970720530 -0.1969448030 0.6082646847 4291414475
-0.2971515059 -0.1963214576 0.6084273458 4291414475
-0.2980739474 -0.1962527931 0.6103160977 4291348682
-0.2977314889 -0.1953499913 0.6096149087 4291282889
-0.2978104055 -0.1947242767 0.6097764969 4291348682
-0.2978891432 -0.1940980554 0.6099377275 4291282889
-0.2979676425 -0.1934713572 0.6100984216 4291348682
-0.2980459332 -0.1928441525 0.6102587581 4291348682
-0.2981240153 -0.1922164559 0.6104186177 4291282887
-0.2982018888 -0.1915882528 0.6105780602 4291282887
-0.2982795238 -0.1909595728 0.6107370853 4291348680
-0.2979343832 -0.1900608093 0.6100303531 4291348680
-0.2980114818 -0.1894320399 0.6101881862 4291348680
-0.2980883718 -0.1888027787 0.6103456616 4291282887
-0.2985879779 -0.1884399503 0.6113686562 4291217607
-0.2986645699 -0.1878088266 0.6115254164 4291217607
-0.2987409234 -0.1871772110 0.6116817594 4291217353
-0.2988170385 -0.1865451187 0.6118376255 4291217353
-0.2988929749 -0.1859125495 0.6119930744 4291348428
-0.2989686728 -0.1852794886 0.6121480465 4291348428
-0.2990441322 -0.1846459508 0.6123026013 4291348682
-0.2991193831 -0.1840119362 0.6124566793 4291348682
-0.2991944253 -0.1833774447 0.6126103401 4291348167
-0.2992692292 -0.1827424765 0.6127635241 4291545546
-0.2993438244 -0.1821070313 0.6129162312 4291610823
-0.2989940941 -0.1812140644 0.6122001410 4291610823
-0.2990681231 -0.1805785745 0.6123517156 4291742660
-0.2991419435 -0.1799426079 0.6125028729 4291808453
-0.2992155254 -0.1793061644 0.6126535535 4291611326
-0.2984398603 -0.1781623960 0.6110653281 4291019189
-0.2985127866 -0.1775268316 0.6112146378 4289766013
-0.2985855043 -0.1768908054 0.6113635302 4287923809
-0.2982331514 -0.1760035902 0.6106420755 4289695558
-0.2978803515 -0.1751177311 0.6099197268 4289498179
-0.2975271344 -0.1742332280 0.6091964841 4290479905
-0.2971735001 -0.1733500808 0.6084724069 4290479905
-0.2951888740 -0.1708493084 0.6044088602 4291071773
-0.2939827442 -0.1694824249 0.6019392610 4291139104
-0.2914991379 -0.1673874706 0.5968539715 4291139104
-0.2898654044 -0.1657899022 0.5935088396 4291270943
-0.2882306278 -0.1641991735 0.5901616216 4291336736
-0.2865948379 -0.1626152992 0.5868122578 4291533599
-0.2853839993 -0.1612790227 0.5843330026 4291599392
-0.2845983505 -0.1601875871 0.5827243924 4291664674
-0.2838121057 -0.1590993851 0.5811145306 4291730467
-0.2830252349 -0.1580144018 0.5795033574 4291730726
-0.2826640904 -0.1571697295 0.5787639022 4291796519
-0.2823025286 -0.1563264728 0.5780236125 4291862310
-0.2819405496 -0.1554846168 0.5772824883 4291796517
-0.2820048034 -0.1548784971 0.5774140358 4291796517
-0.2816420794 -0.1540385783 0.5766713619 4291730724
-0.2817057967 -0.1534325480 0.5768017769 4291796517
-0.2817692757 -0.1528261155 0.5769317746 4291862310
-0.2818325162 -0.1522192657 0.5770612955 4291797287
-0.2814684510 -0.1513822973 0.5763158202 4291731494
-0.2811039388 -0.1505467594 0.5755695105 4291797287
-0.2811663449 -0.1499405354 0.5756972432 4291863080
-0.2812285125 -0.1493339092 0.5758245587 4291797287
-0.2812904716 -0.1487268806 0.5759513974 4291863080
-0.2813521922 -0.1481194496 0.5760777593 4291928873
-0.2814136744 -0.1475116163 0.5762036443 4291928873
-0.2814749479 -0.1469033957 0.5763291121 4291928873
-0.2815359831 -0.1462947726 0.5764541030 4291928873
-0.2815968096 -0.1456857473 0.5765786171 4291928873
-0.2816573977 -0.1450763345 0.5767026544 4291994666
-0.2817177474 -0.1444665343 0.5768262744 4291994666
-0.2817778885 -0.1438563317 0.5769493580 4291994666
-0.2822661102 -0.1434634477 0.5779490471 4292060459
-0.2823258638 -0.1428515315 0.5780714154 4292060459
-0.2828139067 -0.1424550861 0.5790706873 4292060972
-0.2833018899 -0.1420563906 0.5800698400 4292060972
-0.2837898135 -0.1416554451 0.5810689330 4292060972
-0.2834201455 -0.1408261508 0.5803120136 4292060972
-0.2839078009 -0.1404225826 0.5813104510 4291995179
-0.2839664519 -0.1398055702 0.5814305544 4291995179
-0.2840248346 -0.1391881853 0.5815501213 4291995179
-0.2845121324 -0.1387797296 0.5825479031 4291995179
-0.2845701575 -0.1381606460 0.5826666951 4291995179
-0.2850572467 -0.1377486438 0.5836640000 4291929386
-0.2851148844 -0.1371278763 0.5837820172 4291929386
-0.2851722836 -0.1365067214 0.5838995576 4291995179
-0.2856590152 -0.1360898465 0.5848961473 4292060972
-0.2857160270 -0.1354670227 0.5850128531 4292060972
-0.2862025201 -0.1350465864 0.5860089660 4292060972
-0.2866889536 -0.1346239150 0.5870049596 4292060972
-0.2871753275 -0.1341989785 0.5880008340 4291995179
-0.2876616120 -0.1337718070 0.5889965296 4291995179
-0.2881478369 -0.1333424002 0.5899920464 4292060972
-0.2882038057 -0.1327126473 0.5901066661 4292060972
-0.2886897922 -0.1322796792 0.5911017656 4292060972
-0.2891756892 -0.1318444610 0.5920966864 4292060972
-0.2896615267 -0.1314070076 0.5930913687 4292060972
-0.2901472747 -0.1309672892 0.5940859914 4292060972
-0.2902023494 -0.1303319633 0.5941987634 4291930154
-0.2911185026 -0.1300811172 0.5960745811 4291930154
-0.2916039824 -0.1296346635 0.5970686674 4291930154
-0.2920893729 -0.1291859597 0.5980625153 4291930154
-0.2921437919 -0.1285454184 0.5981739759 4291930154
-0.2926289439 -0.1280931681 0.5991672873 4291930154
-0.2926829457 -0.1274509579 0.5992778540 4291930154
-0.2931678295 -0.1269951612 0.6002706289 4291930154
-0.2932213843 -0.1263513118 0.6003803611 4291864361
-0.2937059999 -0.1258919537 0.6013725996 4291864361
-0.2941904962 -0.1254303604 0.6023646593 4291995179
-0.2946749330 -0.1249665245 0.6033564806 4291995179
-0.2951592207 -0.1245004386 0.6043481231 4292060972
-0.2952118516 -0.1238510385 0.6044558883 4292060972
-0.2956958711 -0.1233814061 0.6054469347 4292060972
-0.2957480550 -0.1227303669 0.6055537462 4291995179
-0.2962317765 -0.1222571954 0.6065442562 4291864361
-0.2967154086 -0.1217817813 0.6075344682 4291798568
-0.2971989512 -0.1213041246 0.6085245013 4291798568
-0.2972503006 -0.1206488535 0.6086297035 4291864361
-0.2977335453 -0.1201676577 0.6096191406 4291930154
-0.2977844477 -0.1195107624 0.6097233891 4291930154
-0.2982673943 -0.1190260351 0.6107121706 4292060970
-0.2983178496 -0.1183675155 0.6108155251 4292060970
-0.2988004684 -0.1178792492 0.6118037105 4291995177
-0.2988504767 -0.1172191054 0.6119061112 4291995177
-0.2993327975 -0.1167273149 0.6128936410 4291930154
-0.2993823588 -0.1160655618 0.6129950881 4291930154
-0.2998643517 -0.1155702472 0.6139820218 4291930154
-0.2999134362 -0.1149068773 0.6140825152 4291930154
-0.2999622524 -0.1142431796 0.6141824722 4292060970
-0.3000108302 -0.1135791615 0.6142819524 4292126763
-0.3000591099 -0.1129148230 0.6143807769 4291930152
-0.3001071513 -0.1122501716 0.6144791245 4291995945
-0.3001548946 -0.1115851924 0.6145769358 4291995945
-0.3002023697 -0.1109199002 0.6146741509 4292061738
-0.3002496064 -0.1102542877 0.6147708297 4292061738
-0.3002965450 -0.1095883697 0.6148669720 4292127531
-0.3003432155 -0.1089221388 0.6149625182 4292258349
-0.3003896475 -0.1082555950 0.6150575280 4292258349
-0.3004357815 -0.1075887457 0.6151520014 4292127533
-0.3004816473 -0.1069215834 0.6152459383 4292193326
-0.3009608984 -0.1064074486 0.6162272096 4292259378
-0.3014400005 -0.1058910787 0.6172082424 4292390964
-0.3014851809 -0.1052210853 0.6173007488 4292456500
-0.3015300930 -0.1045507938 0.6173927188 4292456500
-0.3015747368 -0.1038801968 0.6174840927 4292718902
-0.3016190827 -0.1032093093 0.6175749302 4292982074
-0.3012291193 -0.1023905873 0.6167764664 4292458050
-0.3012728691 -0.1017200798 0.6168659925 4292852808
-0.3013163507 -0.1010492742 0.6169550419 4292853582
-0.3013595343 -0.1003781781 0.6170434952 4293050961
-0.3014024496 -0.0997067988 0.6171313524 4293183060
-0.3014450967 -0.0990351290 0.6172186732 4292985681
-0.3014874756 -0.0983631834 0.6173053980 4292986202
-0.3015295565 -0.0976909474 0.6173915863 4293315167
-0.3020059168 -0.0971582308 0.6183669567 4293052541
-0.3024821281 -0.0966232941 0.6193419695 4293644678
-0.2948721647 -0.2026554495 0.6051365137 4291743699
-0.2945337892 -0.2017513216 0.6044421196 4291743699
-0.2946146727 -0.2011349499 0.6046080589 4291743440
-0.2946953475 -0.2005180866 0.6047736406 4291677647
-0.2947758138 -0.1999007016 0.6049388051 4291611854
-0.2948560715 -0.1992828250 0.6051034927 4291546061
-0.2953562737 -0.1989474446 0.6061300039 4291480266
-0.2954362333 -0.1983276606 0.6062940955 4291480266
-0.2955160141 -0.1977073997 0.6064578295 4291413962
-0.2955955565 -0.1970866174 0.6066210866 4291348169
-0.2960954905 -0.1967448145 0.6076470613 4291282889
-0.2961747646 -0.1961221546 0.6078096628 4291282889
-0.2962538004 -0.1954989880 0.6079719067 4291217096
-0.2967535555 -0.1951521486 0.6089975238 4291217096
-0.2964112461 -0.1942511797 0.6082950234 4291217096
-0.2964896560 -0.1936265230 0.6084559560 4291217096
-0.2965678573 -0.1930013895 0.6086164117 4291348680
-0.2966458499 -0.1923757493 0.6087765098 4291348680
-0.2967236340 -0.1917496175 0.6089360714 4291282887
-0.2968012094 -0.1911229789 0.6090952754 4291282887
-0.2968785465 -0.1904958636 0.6092540026 4291348680
-0.2969556749 -0.1898682564 0.6094123125 4291348680
-0.2966106832 -0.1889713556 0.6087043285 4291282887
-0.2971093059 -0.1886115819 0.6097275615 4291282887
-0.2971858084 -0.1879825145 0.6098845601 4291217605
-0.2972620726 -0.1873529702 0.6100410819 4291283398
-0.2973381281 -0.1867229342 0.6101971865 4291348680
-0.2974139750 -0.1860924065 0.6103528142 4291282887
-0.2974895835 -0.1854614019 0.6105079651 4291348682
-0.2975649834 -0.1848299205 0.6106627584 4291348682
-0.2980629504 -0.1844596118 0.6116846800 4291348682
-0.2981380224 -0.1838262677 0.6118386984 4291348682
-0.2982128859 -0.1831924468 0.6119922996 4291282374
-0.2978644073 -0.1822992116 0.6112771630 4291413960
-0.2979387045 -0.1816653460 0.6114296913 4291414214
-0.2980127931 -0.1810310036 0.6115816832 4291414214
-0.2976632118 -0.1801399440 0.6108643413 4291414211
-0.2977367342 -0.1795055568 0.6110152006 4291348418
-0.2978100479 -0.1788707078 0.6111656427 4291414465
-0.2974593937 -0.1779818386 0.6104460359 4291546051
-0.2971083224 -0.1770943254 0.6097255349 4291413944
-0.2971807420 -0.1764598936 0.6098741889 4289308568
-0.2972529531 -0.1758249849 0.6100223660 4289632099
-0.2969007790 -0.1749396920 0.6092996001 4289039962
-0.2969724238 -0.1743047684 0.6094466448 4290284076
-0.2970438302 -0.1736693829 0.6095932126 4289955111
-0.2962661386 -0.1725391597 0.6079972386 4290610452
-0.2950632274 -0.1711658388 0.6055286527 4291136796
-0.2938595116 -0.1697975248 0.6030583382 4291138079
-0.2922302186 -0.1681897491 0.5997146964 4291203872
-0.2901750207 -0.1663452685 0.5954970121 4291204383
-0.2885435522 -0.1647520959 0.5921489596 4291335969
-0.2869110703 -0.1631657928 0.5887987614 4291467552
-0.2857027054 -0.1618271619 0.5863189697 4291599138
-0.2849187851 -0.1607334763 0.5847102404 4291730467
-0.2841342688 -0.1596430242 0.5831001997 4291730467
-0.2833490968 -0.1585558057 0.5814889073 4291730724
-0.2829888761 -0.1577089727 0.5807496309 4291796517
-0.2826282382 -0.1568635702 0.5800095797 4291862310
-0.2822672129 -0.1560195684 0.5792686343 4291796517
-0.2819057405 -0.1551769823 0.5785267949 4291796517
-0.2815438509 -0.1543358266 0.5777841210 4291730724
-0.2816075683 -0.1537286490 0.5779149532 4291796517
-0.2816710770 -0.1531210691 0.5780452490 4291862310
-0.2817343771 -0.1525130868 0.5781751275 4291731494
-0.2813711166 -0.1516748816 0.5774296522 4291731494
-0.2814338505 -0.1510669887 0.5775584579 4291797287
-0.2810698748 -0.1502307355 0.5768114328 4291797287
-0.2811320722 -0.1496229619 0.5769391060 4291797287
-0.2811940610 -0.1490147710 0.5770663023 4291863080
-0.2812558115 -0.1484061927 0.5771930218 4291863080
-0.2813173234 -0.1477972120 0.5773192644 4291863080
-0.2813786268 -0.1471878439 0.5774450898 4291863080
-0.2814396918 -0.1465780586 0.5775703788 4291863080
-0.2815005481 -0.1459678859 0.5776952505 4291928873
-0.2815611660 -0.1453573257 0.5778196454 4291928873
-0.2820488811 -0.1449660063 0.5788205862 4291928873
-0.2821091413 -0.1443537325 0.5789442658 4291994666
-0.2821691632 -0.1437410563 0.5790674090 4292060459
-0.2826565802 -0.1433448493 0.5800676942 4292060459
-0.2827162147 -0.1427304745 0.5801901221 4291995179
-0.2832034528 -0.1423307061 0.5811899900 4291995179
-0.2832627296 -0.1417146176 0.5813116431 4291995179
-0.2837497294 -0.1413112879 0.5823110938 4291995179
-0.2838086486 -0.1406934857 0.5824319720 4291929386
-0.2838672996 -0.1400753111 0.5825523734 4291929386
-0.2839257419 -0.1394567639 0.5826722980 4291995179
-0.2844122648 -0.1390472353 0.5836707354 4291929386
-0.2844703197 -0.1384269744 0.5837898850 4291994666
-0.2849566340 -0.1380138844 0.5847879052 4291994666
-0.2850143015 -0.1373919398 0.5849062204 4291994666
-0.2855004072 -0.1369752884 0.5859038234 4291994666
-0.2855576873 -0.1363516599 0.5860213637 4292060459
-0.2860435843 -0.1359314471 0.5870184898 4292126252
-0.2861004472 -0.1353061348 0.5871352553 4292126252
-0.2865861356 -0.1348823607 0.5881319046 4292126252
-0.2870717049 -0.1344563365 0.5891284347 4292060459
-0.2875572443 -0.1340280771 0.5901248455 4292126252
-0.2880426943 -0.1335975528 0.5911210775 4292126252
-0.2885280550 -0.1331647933 0.5921171308 4292126252
-0.2885839045 -0.1325325668 0.5922317505 4292126252
-0.2890690267 -0.1320962459 0.5932273269 4292126252
-0.2895540893 -0.1316576749 0.5942227840 4292126252
-0.2900390625 -0.1312168539 0.5952180028 4292126252
-0.2905239463 -0.1307737827 0.5962131023 4292060972
-0.2905789018 -0.1301359534 0.5963258743 4292060972
-0.2914934456 -0.1298809052 0.5982027650 4292060972
-0.2919780910 -0.1294310838 0.5991972685 4292060972
-0.2924626172 -0.1289790124 0.6001916528 4292060972
-0.2925168872 -0.1283359826 0.6003030539 4291995179
-0.2930011749 -0.1278803647 0.6012968421 4291995179
-0.2930550277 -0.1272356510 0.6014074087 4291929386
-0.2935390472 -0.1267764866 0.6024006605 4291995179
-0.2935924530 -0.1261301339 0.6025102735 4291995179
-0.2940762043 -0.1256674081 0.6035030484 4292060972
-0.2945598364 -0.1252024472 0.6044955254 4292060972
-0.2950433493 -0.1247352287 0.6054878235 4291995179
-0.2955268025 -0.1242657676 0.6064799428 4291995179
-0.2960101366 -0.1237940565 0.6074718237 4292060972
-0.2960624099 -0.1231408566 0.6075791121 4291995179
-0.2965454459 -0.1226655990 0.6085703969 4291863593
-0.2970283628 -0.1221880987 0.6095615029 4291863593
-0.2970800102 -0.1215319633 0.6096674800 4291797800
-0.2975626588 -0.1210509166 0.6106579304 4291863593
-0.2976138592 -0.1203931496 0.6107630134 4291929386
-0.2980962098 -0.1199085638 0.6117528677 4291929386
-0.2981469631 -0.1192491651 0.6118570566 4291995179
-0.2986289859 -0.1187610403 0.6128462553 4291995179
-0.2986792922 -0.1181000173 0.6129494905 4291995179
-0.2991610169 -0.1176083609 0.6139380932 4291995179
-0.2996426225 -0.1171144694 0.6149263978 4292060972
-0.2996922731 -0.1164505333 0.6150283217 4292126765
-0.3001735508 -0.1159531027 0.6160160303 4292126765
-0.3002227247 -0.1152875572 0.6161169410 4292126765
-0.3002716601 -0.1146216765 0.6162173152 4292192045
-0.3003202975 -0.1139554754 0.6163171530 4292192045
-0.3003686965 -0.1132889539 0.6164164543 4292126763
-0.3004167974 -0.1126221120 0.6165152192 4292192556
-0.3004646599 -0.1119549423 0.6166133881 4292192556
-0.3005122244 -0.1112874597 0.6167110205 4292258349
-0.3005595207 -0.1106196642 0.6168081164 4292193326
-0.3006065786 -0.1099515483 0.6169046760 4292193326
-0.3006533384 -0.1092831269 0.6170006394 4292258351
-0.3006998301 -0.1086143851 0.6170960665 4292258351
-0.3007460535 -0.1079453379 0.6171908975 4292192558
-0.3007920086 -0.1072759852 0.6172851920 4292258351
-0.3012705445 -0.1067597121 0.6182672977 4292324914
-0.3013160229 -0.1060887873 0.6183605790 4292456500
-0.3013612330 -0.1054175571 0.6184533834 4292522039
-0.3014061451 -0.1047460213 0.6185455322 4292522039
-0.3014507890 -0.1040741876 0.6186372042 4292719418
-0.3014951944 -0.1034020633 0.6187282801 4292982590
-0.3015392721 -0.1027296335 0.6188187599 4292589899
-0.3015831113 -0.1020569131 0.6189087033 4292721485
-0.3016266823 -0.1013839021 0.6189981103 4292919892
-0.3016699553 -0.1007106006 0.6190869212 4293183064
-0.3017129600 -0.1000370085 0.6191751957 4293183581
-0.3017556667 -0.0993631259 0.6192628741 4293183581
-0.3017981350 -0.0986889675 0.6193499565 4293052529
-0.3018403053 -0.0980145186 0.6194365025 4293513080
-0.2928998470 -0.2030985802 0.6024621725 4291743699
-0.2929810286 -0.2024852931 0.6026290655 4291677906
-0.2930619717 -0.2018714994 0.6027956009 4291743440
-0.2931427360 -0.2012571990 0.6029617190 4291677647
-0.2932233214 -0.2006423920 0.6031274796 4291611854
-0.2933036685 -0.2000270784 0.6032927632 4291546061
-0.2938029468 -0.1996961236 0.6043196917 4291480266
-0.2938829958 -0.1990789175 0.6044843793 4291414473
-0.2939628661 -0.1984612197 0.6046486497 4291348680
-0.2940425277 -0.1978430003 0.6048125029 4291348680
-0.2941219807 -0.1972242892 0.6049758792 4291348169
-0.2946209013 -0.1968855411 0.6060021520 4291348169
-0.2942802608 -0.1959853619 0.6053014994 4291348169
-0.2947790027 -0.1956438422 0.6063273549 4291348169
-0.2952777445 -0.1953000575 0.6073532104 4291282376
-0.2953563929 -0.1946770698 0.6075149775 4291282376
-0.2954348326 -0.1940535903 0.6076762676 4291217096
-0.2950926721 -0.1931544691 0.6069725156 4291217096
-0.2951705754 -0.1925308853 0.6071327329 4291282887
-0.2952482700 -0.1919068098 0.6072925329 4291348680
-0.2953257263 -0.1912822425 0.6074519157 4291348680
-0.2954030037 -0.1906571835 0.6076108217 4291282887
-0.2954800427 -0.1900316477 0.6077693105 4291282887
-0.2955568731 -0.1894056052 0.6079273224 4291217094
-0.2956334949 -0.1887790859 0.6080849171 4291217094
-0.2957099080 -0.1881520748 0.6082420945 4291282887
-0.2957860827 -0.1875245720 0.6083987951 4291283138
-0.2958620787 -0.1868965924 0.6085550785 4291348931
-0.2959378362 -0.1862681359 0.6087109447 4291348678
-0.2960133851 -0.1856391877 0.6088662744 4291282885
-0.2960886955 -0.1850097626 0.6090212464 4291348682
-0.2961637974 -0.1843798459 0.6091757417 4291282889
-0.2966606915 -0.1840112209 0.6101977825 4291282889
-0.2967354655 -0.1833794564 0.6103515625 4291348682
-0.2968100309 -0.1827472150 0.6105049253 4291348421
-0.2968843579 -0.1821144968 0.6106578112 4291348421
-0.2965360582 -0.1812231541 0.6099414229 4291348419
-0.2961873412 -0.1803331524 0.6092241406 4291348419
-0.2966834307 -0.1799571663 0.6102445126 4291414211
-0.2963340282 -0.1790680140 0.6095258594 4291348418
-0.2964070439 -0.1784347445 0.6096760631 4291217086
-0.2964798510 -0.1778010130 0.6098257899 4291282879
-0.2965524197 -0.1771668047 0.6099750400 4291414722
-0.2966247797 -0.1765321344 0.6101238728 4290954171
-0.2962736487 -0.1756460816 0.6094016433 4291080583
-0.2963454425 -0.1750113964 0.6095493436 4289633137
-0.2964170277 -0.1743762344 0.6096965671 4290021425
-0.2964883745 -0.1737406254 0.6098433137 4289758253
-0.2957121730 -0.1726099849 0.6082467437 4290676245
-0.2949353456 -0.1714825034 0.6066489220 4290939417
-0.2937340140 -0.1701127440 0.6041779518 4291005982
-0.2925318778 -0.1687480062 0.6017052531 4291071775
-0.2887845337 -0.1659263670 0.5939974189 4291006752
-0.2909734249 -0.1665190458 0.5984996557 4291138338
-0.2876476943 -0.1639584303 0.5916590691 4291335966
-0.2864419520 -0.1626165360 0.5891789794 4291533345
-0.2848109305 -0.1610396951 0.5858241320 4291730463
-0.2844525874 -0.1601869911 0.5850870609 4291730463
-0.2836691439 -0.1590975225 0.5834755898 4291664931
-0.2833098471 -0.1582485437 0.5827366114 4291730724
-0.2829501331 -0.1574009806 0.5819966793 4291796517
-0.2825900018 -0.1565548331 0.5812559724 4291796517
-0.2818044126 -0.1554755867 0.5796400905 4291730724
-0.2814433575 -0.1546331942 0.5788974166 4291730724
-0.2815071046 -0.1540248841 0.5790285468 4291862310
-0.2815706730 -0.1534161568 0.5791592598 4291928103
-0.2816339731 -0.1528070271 0.5792894959 4291731494
-0.2812715471 -0.1519675851 0.5785440207 4291731494
-0.2813343108 -0.1513585448 0.5786731243 4291797287
-0.2809711397 -0.1505210549 0.5779261589 4291797287
-0.2810333967 -0.1499121338 0.5780541301 4291797287
-0.2810953856 -0.1493027955 0.5781816840 4291797287
-0.2811571658 -0.1486930698 0.5783087611 4291863080
-0.2812187374 -0.1480829418 0.5784353614 4291863080
-0.2812800407 -0.1474724114 0.5785614848 4291797287
-0.2813411653 -0.1468614936 0.5786871910 4291863080
-0.2814020216 -0.1462501585 0.5788124204 4291928873
-0.2814626694 -0.1456384361 0.5789371133 4291863080
-0.2819496393 -0.1452460587 0.5799387693 4291928873
-0.2820099294 -0.1446326226 0.5800627470 4291994666
-0.2820699811 -0.1440187842 0.5801863074 4291994666
-0.2825566232 -0.1436215192 0.5811872482 4291994666
-0.2826162875 -0.1430059820 0.5813100338 4291994666
-0.2831027508 -0.1426051408 0.5823105574 4292060459
-0.2831620574 -0.1419878900 0.5824325681 4291995179
-0.2836483121 -0.1415834725 0.5834327340 4291929386
-0.2837072313 -0.1409645230 0.5835539699 4291929386
-0.2837659419 -0.1403451860 0.5836746693 4291929386
-0.2838243842 -0.1397254616 0.5837949514 4291929386
-0.2843101621 -0.1393148452 0.5847941041 4291929386
-0.2843682170 -0.1386934221 0.5849135518 4291928873
-0.2848537862 -0.1382792443 0.5859122872 4291994666
-0.2849114537 -0.1376561373 0.5860309005 4292060459
-0.2853968143 -0.1372383982 0.5870292187 4292060459
-0.2858820856 -0.1368183941 0.5880273581 4291994666
-0.2859392166 -0.1361922771 0.5881448984 4292060459
-0.2864242792 -0.1357687265 0.5891425610 4292060459
-0.2864810228 -0.1351409256 0.5892593265 4292126252
-0.2869658470 -0.1347138137 0.5902565718 4292060459
-0.2874505818 -0.1342844367 0.5912536383 4292060459
-0.2879352570 -0.1338528246 0.5922505260 4292126252
-0.2884198725 -0.1334189624 0.5932472944 4292126252
-0.2889043689 -0.1329828501 0.5942438841 4292126252
-0.2893888354 -0.1325444877 0.5952403545 4292126252
-0.2894443870 -0.1319084466 0.5953546166 4292126252
-0.2899285853 -0.1314665228 0.5963505507 4292126252
-0.2908416688 -0.1312158704 0.5982286334 4292060459
-0.2913257778 -0.1307685077 0.5992243886 4292060459
-0.2913806438 -0.1301272362 0.5993373394 4291995179
-0.2918645144 -0.1296763122 0.6003325582 4291995179
-0.2923482656 -0.1292231232 0.6013275981 4291929386
-0.2928319275 -0.1287676990 0.6023224592 4291929386
-0.2928860784 -0.1281221509 0.6024338007 4291863593
-0.2933694720 -0.1276631653 0.6034281254 4291863593
-0.2934231758 -0.1270159632 0.6035385728 4291995179
-0.2939063013 -0.1265534163 0.6045323014 4291995179
-0.2943893373 -0.1260886192 0.6055258512 4291995179
-0.2948722839 -0.1256215870 0.6065192223 4291995179
-0.2953551114 -0.1251522899 0.6075123549 4291929386
-0.2958378494 -0.1246807501 0.6085052490 4291929386
-0.2958904207 -0.1240266860 0.6086133718 4291863593
-0.2963728607 -0.1235515922 0.6096057296 4291863593
-0.2968552113 -0.1230742559 0.6105978489 4291863080
-0.2969071269 -0.1224172488 0.6107046604 4291863080
-0.2973891795 -0.1219363585 0.6116961837 4291863080
-0.2974406481 -0.1212777197 0.6118020415 4291863080
-0.2979224026 -0.1207932830 0.6127929688 4291863080
-0.2979734540 -0.1201330051 0.6128979325 4291863080
-0.2984548807 -0.1196450368 0.6138882041 4291863080
-0.2985054851 -0.1189831197 0.6139922738 4291928873
-0.2989866138 -0.1184916124 0.6149818897 4291928873
-0.2994676232 -0.1179978549 0.6159713268 4291928873
-0.2995175719 -0.1173330322 0.6160740256 4291994666
-0.2999982536 -0.1168357357 0.6170627475 4292060459
-0.3000477254 -0.1161692962 0.6171645522 4292060459
-0.3005281091 -0.1156684682 0.6181526184 4292126252
-0.3005771339 -0.1150004119 0.6182534099 4292126252
-0.3006258607 -0.1143320203 0.6183536649 4292126252
-0.3002429605 -0.1135002375 0.6175661087 4292257068
-0.3002910912 -0.1128321663 0.6176651120 4292257068
-0.3003389537 -0.1121637672 0.6177635193 4292126252
-0.3003865480 -0.1114950553 0.6178614497 4292192045
-0.3004338741 -0.1108260304 0.6179587841 4292126765
-0.3004809320 -0.1101566851 0.6180555820 4292192558
-0.3005277216 -0.1094870195 0.6181518435 4292192558
-0.3005742431 -0.1088170558 0.6182475090 4292126765
-0.3006204963 -0.1081467718 0.6183426380 4292192558
-0.3006664515 -0.1074761823 0.6184371710 4292258351
-0.3011442125 -0.1069587395 0.6194198728 4292389937
-0.3011897206 -0.1062865779 0.6195134521 4292521523
-0.3012349308 -0.1056141034 0.6196064949 4292456246
-0.3012798727 -0.1049413383 0.6196989417 4292587832
-0.3013245463 -0.1042682678 0.6197907925 4292719931
-0.3013689518 -0.1035948917 0.6198821068 4292917310
-0.3014130890 -0.1029212251 0.6199728847 4292656457
-0.3014569283 -0.1022472680 0.6200630665 4292788043
-0.3015004992 -0.1015730128 0.6201527119 4293117018
-0.3015438020 -0.1008984670 0.6202417612 4293445983
-0.3015868068 -0.1002236307 0.6203302741 4293577844
-0.3016295731 -0.0995485038 0.6204181910 4293775223
-0.3016720414 -0.0988730937 0.6205055118 4293317269
-0.2914312184 -0.2032104731 0.6008139253 4291677907
-0.2919299006 -0.2028895169 0.6018419862 4291677393
-0.2920108736 -0.2022769004 0.6020088792 4291677393
-0.2920916378 -0.2016637921 0.6021754146 4291611854
-0.2917541862 -0.2007625401 0.6014797688 4291546061
-0.2918344438 -0.2001492828 0.6016451716 4291414475
-0.2919144928 -0.1995355189 0.6018102169 4291282889
-0.2924126387 -0.1992062479 0.6028372049 4291282887
-0.2924923897 -0.1985906065 0.6030016541 4291217094
-0.2929905057 -0.1982576698 0.6040285230 4291348167
-0.2930699587 -0.1976401359 0.6041923165 4291348167
-0.2931492031 -0.1970221102 0.6043556929 4291282376
-0.2932282686 -0.1964035630 0.6045186520 4291348169
-0.2933070958 -0.1957845241 0.6046811938 4291348169
-0.2938048542 -0.1954437941 0.6057074070 4291348169
-0.2938833833 -0.1948228776 0.6058692932 4291348169
-0.2943810821 -0.1944784969 0.6068952680 4291348169
-0.2944593132 -0.1938557029 0.6070565581 4291348167
-0.2945373356 -0.1932324022 0.6072174311 4291348167
-0.2941954434 -0.1923342347 0.6065126061 4291282374
-0.2942729592 -0.1917108446 0.6066724062 4291348167
-0.2943502367 -0.1910869479 0.6068317294 4291282887
-0.2944273055 -0.1904625744 0.6069905758 4291282887
-0.2940840423 -0.1895668954 0.6062828898 4291217094
-0.2941605747 -0.1889424324 0.6064407229 4291217094
-0.2942368686 -0.1883174777 0.6065980196 4291217092
-0.2943129838 -0.1876920462 0.6067549586 4291282885
-0.2943888903 -0.1870661229 0.6069114208 4291217345
-0.2944645584 -0.1864397079 0.6070674062 4291217345
-0.2945400178 -0.1858128160 0.6072229743 4291282628
-0.2950361371 -0.1854500026 0.6082457900 4291282628
-0.2951112986 -0.1848212481 0.6084007025 4291282374
-0.2951862216 -0.1841920316 0.6085551977 4291282374
-0.2952609062 -0.1835623235 0.6087091565 4291282376
-0.2957566977 -0.1831931025 0.6097313166 4291282376
-0.2954096496 -0.1823014766 0.6090158224 4291479753
-0.2954837084 -0.1816703379 0.6091685295 4291282374
-0.2955575287 -0.1810387373 0.6093207002 4291282626
-0.2956311405 -0.1804066598 0.6094724536 4291151040
-0.2952826917 -0.1795176417 0.6087540984 4291085246
-0.2953557670 -0.1788855344 0.6089047194 4291151039
-0.2954286039 -0.1782529354 0.6090548635 4291019707
-0.2955012023 -0.1776198894 0.6092045903 4290756535
-0.2951513529 -0.1767335236 0.6084833145 4291083954
-0.2956457734 -0.1763523668 0.6095026135 4291281333
-0.2957177162 -0.1757179201 0.6096509099 4292000665
-0.2957894206 -0.1750830114 0.6097987890 4290684805
-0.2958609164 -0.1744476408 0.6099461913 4289824565
-0.2959322035 -0.1738117933 0.6100931168 4289561393
-0.2947346568 -0.1724333316 0.6076242328 4290808860
-0.2943822145 -0.1715528220 0.6068976521 4290545688
-0.2936062515 -0.1704281121 0.6052979827 4290743069
-0.2924065292 -0.1690619141 0.6028245687 4290808862
-0.2912059724 -0.1677007526 0.6003495455 4290678304
-0.2895812094 -0.1661017835 0.5969999433 4290744097
-0.2883788943 -0.1647515893 0.5945212245 4290941978
-0.2867522240 -0.1631654203 0.5911676884 4291139357
-0.2855481803 -0.1618262380 0.5886853933 4291598620
-0.2843433022 -0.1604921073 0.5862014890 4291664413
-0.2839853466 -0.1596395671 0.5854635239 4291599138
-0.2836269736 -0.1587884426 0.5847246647 4291664931
-0.2828441262 -0.1577022970 0.5831108093 4291730724
-0.2824848294 -0.1568548977 0.5823700428 4291730724
-0.2821251154 -0.1560089290 0.5816284418 4291730724
-0.2817649841 -0.1551643759 0.5808860064 4291796517
-0.2814044058 -0.1543212384 0.5801426768 4291862310
-0.2814679742 -0.1537113786 0.5802736878 4291928103
-0.2815313339 -0.1531011015 0.5804042816 4291731494
-0.2811697125 -0.1522604078 0.5796588063 4291797287
-0.2812325358 -0.1516502351 0.5797883272 4291797287
-0.2808701992 -0.1508114934 0.5790413022 4291797287
-0.2809324563 -0.1502014250 0.5791696310 4291797287
-0.2809944749 -0.1495909542 0.5792975426 4291797287
-0.2810562849 -0.1489800662 0.5794249773 4291797287
-0.2811178863 -0.1483687907 0.5795519352 4291797287
-0.2811792195 -0.1477571130 0.5796784163 4291863080
-0.2812403738 -0.1471450329 0.5798044205 4291863080
-0.2817268372 -0.1467542350 0.5808073282 4291928873
-0.2817876041 -0.1461404264 0.5809326172 4291863080
-0.2818481326 -0.1455262303 0.5810574293 4291863080
-0.2819084525 -0.1449116319 0.5811817646 4291928873
-0.2823944688 -0.1445146203 0.5821837187 4291928873
-0.2824544013 -0.1438983083 0.5823072791 4291928873
-0.2829402089 -0.1434977055 0.5833088756 4291928873
-0.2829997838 -0.1428796798 0.5834316611 4291994666
-0.2830591202 -0.1422612667 0.5835539699 4291994666
-0.2835446000 -0.1418557912 0.5845548511 4291928873
-0.2836035490 -0.1412356645 0.5846763849 4291994666
-0.2840888500 -0.1408266127 0.5856768489 4291994666
-0.2841474116 -0.1402047873 0.5857976079 4291994666
-0.2842057645 -0.1395825744 0.5859178901 4291928873
-0.2842638791 -0.1389599741 0.5860376954 4291929386
-0.2847486436 -0.1385447234 0.5870370865 4291929386
-0.2848063707 -0.1379204243 0.5871561170 4291995179
-0.2852909267 -0.1375015974 0.5881550908 4291995179
-0.2857754230 -0.1370805204 0.5891539454 4291929386
-0.2858325839 -0.1364532262 0.5892717838 4291929386
-0.2863168716 -0.1360285878 0.5902701616 4291929386
-0.2868010700 -0.1356016845 0.5912684202 4291995179
-0.2868576944 -0.1349713802 0.5913851261 4291995179
-0.2873416841 -0.1345409304 0.5923829079 4291995179
-0.2878255844 -0.1341082156 0.5933805108 4292060972
-0.2883093953 -0.1336732507 0.5943779349 4292060972
-0.2887931466 -0.1332360208 0.5953752398 4292060972
-0.2897047400 -0.1329929978 0.5972545743 4292060972
-0.2901884019 -0.1325503290 0.5982517004 4291995179
-0.2902438939 -0.1319108605 0.5983661413 4291929386
-0.2907273173 -0.1314646304 0.5993627310 4291994666
-0.2912106514 -0.1310161352 0.6003591418 4291994666
-0.2916938961 -0.1305654049 0.6013554335 4291929127
-0.2917486429 -0.1299216300 0.6014682651 4291929127
-0.2922316194 -0.1294673383 0.6024640203 4291863334
-0.2927145362 -0.1290107965 0.6034595370 4291863334
-0.2931973338 -0.1285519898 0.6044548750 4291929127
-0.2932513058 -0.1279039383 0.6045661569 4291929127
-0.2937338352 -0.1274415702 0.6055609584 4291929127
-0.2937873900 -0.1267918646 0.6056713462 4291929127
-0.2942696512 -0.1263259500 0.6066656113 4291863334
-0.2947517931 -0.1258577853 0.6076595783 4291797541
-0.2952338755 -0.1253873557 0.6086534262 4291797541
-0.2957158089 -0.1249146909 0.6096470356 4291731748
-0.2957683802 -0.1242594123 0.6097553968 4291731748
-0.2962500751 -0.1237831935 0.6107484102 4291731748
-0.2967316210 -0.1233047172 0.6117411852 4291928103
-0.2972130775 -0.1228239909 0.6127337813 4291928103
-0.2972648442 -0.1221644729 0.6128404737 4291993896
-0.2977460027 -0.1216801926 0.6138324142 4291928103
-0.2977973223 -0.1210190356 0.6139382124 4291928103
-0.2982781827 -0.1205312163 0.6149295568 4291862310
-0.2983290255 -0.1198684275 0.6150344014 4291862310
-0.2992395163 -0.1195488274 0.6169114709 4291862310
-0.2992900014 -0.1188834459 0.6170155406 4291862310
-0.2997703254 -0.1183875874 0.6180057526 4291796517
-0.2998203635 -0.1177205816 0.6181089282 4291796517
-0.2998701036 -0.1170532405 0.6182115078 4291796517
-0.3003499210 -0.1165525541 0.6192006469 4291862310
-0.3003992140 -0.1158835962 0.6193022728 4291862310
-0.3008786738 -0.1153793707 0.6202907562 4291928103
-0.3009275198 -0.1147087961 0.6203914285 4291928103
-0.3009760678 -0.1140379012 0.6204915643 4292059432
-0.3010243773 -0.1133666784 0.6205911040 4291993639
-0.3010723889 -0.1126951277 0.6206901073 4291928103
-0.3011201620 -0.1120232642 0.6207885742 4291862310
-0.3007367849 -0.1111917794 0.6199982166 4291797287
-0.3007839322 -0.1105202436 0.6200954318 4291863080
-0.3008307815 -0.1098483875 0.6201920509 4291929386
-0.3008773923 -0.1091762185 0.6202881336 4291995179
-0.3009237349 -0.1085037366 0.6203836203 4292126767
-0.3009697795 -0.1078309491 0.6204785705 4292126767
-0.3014468253 -0.1073113754 0.6214620471 4292192560
-0.3014923930 -0.1066370085 0.6215559840 4292324146
-0.3015377223 -0.1059623361 0.6216493845 4292324660
-0.3015827537 -0.1052873582 0.6217422485 4292456246
-0.3016274869 -0.1046120822 0.6218345165 4292588858
-0.3016719818 -0.1039365008 0.6219261885 4292786237
-0.3017161787 -0.1032606289 0.6220173240 4292853325
-0.3017601073 -0.1025844589 0.6221079230 4293182290
-0.3018037677 -0.1019079909 0.6221979260 4293774435
-0.3014153242 -0.1010864079 0.6213970780 4294103400
-0.3014583588 -0.1004103273 0.6214858294 4293907850
-0.3015011251 -0.0997339562 0.6215739846 4294105229
-0.2907987535 -0.2039024532 0.6008859277 4291612113
-0.2904631793 -0.2030003071 0.6001924872 4291546320
-0.2901271582 -0.2020993829 0.5994981527 4291545807
-0.2906246483 -0.2017786950 0.6005261540 4291545807
-0.2907051146 -0.2011671364 0.6006923914 4291480268
-0.2907853425 -0.2005550712 0.6008581519 4291348682
-0.2904480696 -0.1996556371 0.6001612544 4291282889
-0.2905277908 -0.1990434229 0.6003260016 4291217096
-0.2906073332 -0.1984307319 0.6004903316 4291282374
-0.2906866372 -0.1978175193 0.6006542444 4291282374
-0.2911835313 -0.1974871457 0.6016809344 4291348167
-0.2916804552 -0.1971545070 0.6027077436 4291348167
-0.2917593718 -0.1965380311 0.6028708816 4291282376
-0.2918381095 -0.1959210634 0.6030335426 4291348169
-0.2919166386 -0.1953035891 0.6031957865 4291282376
-0.2924132943 -0.1949645281 0.6042220592 4291282376
-0.2924915254 -0.1943451762 0.6043837070 4291348167
-0.2929880917 -0.1940024644 0.6054098010 4291282374
-0.2930660248 -0.1933812350 0.6055707932 4291282374
-0.2931437492 -0.1927594990 0.6057313681 4291348167
-0.2928023636 -0.1918627918 0.6050260067 4291216581
-0.2928795516 -0.1912409663 0.6051855087 4291216581
-0.2929565310 -0.1906186491 0.6053445339 4291216581
-0.2930332720 -0.1899958402 0.6055031419 4291282374
-0.2931098342 -0.1893725395 0.6056613326 4291282374
-0.2927667499 -0.1884787381 0.6049523950 4291282374
-0.2928427756 -0.1878553480 0.6051094532 4291282374
-0.2929185629 -0.1872314960 0.6052660942 4291282374
-0.2929941714 -0.1866071373 0.6054223180 4291216833
-0.2930695415 -0.1859823167 0.6055780649 4291216833
-0.2931447029 -0.1853570044 0.6057333946 4291216835
-0.2936397493 -0.1849958599 0.6067563295 4291282628
-0.2937145829 -0.1843686998 0.6069109440 4291216581
-0.2937892079 -0.1837410480 0.6070652008 4291216581
-0.2938636243 -0.1831129193 0.6072189212 4291413192
-0.2939378321 -0.1824843138 0.6073722243 4291347399
-0.2944324017 -0.1821154058 0.6083942056 4291347653
-0.2940855622 -0.1812256873 0.6076775193 4291281860
-0.2941590846 -0.1805956662 0.6078294516 4291281598
-0.2942323983 -0.1799651682 0.6079809666 4291084219
-0.2943055034 -0.1793341935 0.6081320047 4290952631
-0.2943783700 -0.1787027568 0.6082825661 4291018424
-0.2944510281 -0.1780708432 0.6084327102 4290952885
-0.2945234776 -0.1774384826 0.6085823774 4290623920
-0.2945956886 -0.1768056303 0.6087315679 4291344806
-0.2942461073 -0.1759202927 0.6080092788 4291213220
-0.2943177819 -0.1752874404 0.6081573367 4291605397
-0.2948109806 -0.1749043316 0.6091764569 4290947467
-0.2948822975 -0.1742696464 0.6093237996 4290220360
-0.2949533761 -0.1736344844 0.6094707251 4289430844
-0.2937580645 -0.1722563952 0.6070007682 4290349341
-0.2934062183 -0.1713764668 0.6062737703 4290349341
-0.2930539548 -0.1704979092 0.6055458784 4290677023
-0.2922789156 -0.1693759710 0.6039443612 4290808609
-0.2915032208 -0.1682572216 0.6023415923 4290678306
-0.2898817956 -0.1666557938 0.5989911556 4290744099
-0.2886820138 -0.1653032452 0.5965119600 4290876187
-0.2874813974 -0.1639557481 0.5940310955 4291007773
-0.2858570814 -0.1623730958 0.5906747580 4291466782
-0.2842317820 -0.1607973427 0.5873163342 4291532575
-0.2851438522 -0.1606586725 0.5892009735 4291533345
-0.2835170925 -0.1590912044 0.5858396292 4291599138
-0.2831591368 -0.1582402587 0.5850999355 4291664931
-0.2823773921 -0.1571550965 0.5834845901 4291664931
-0.2820185125 -0.1563078910 0.5827429891 4291730724
-0.2820827365 -0.1556958705 0.5828757286 4291796517
-0.2812994719 -0.1546177268 0.5812572241 4291862310
-0.2813630700 -0.1540067196 0.5813886523 4291862310
-0.2814264297 -0.1533952951 0.5815196037 4291797287
-0.2810656726 -0.1525533646 0.5807741284 4291797287
-0.2811284959 -0.1519420445 0.5809039474 4291797541
-0.2807669640 -0.1511020660 0.5801569223 4291797541
-0.2812534869 -0.1507181674 0.5811622143 4291797541
-0.2808913291 -0.1498792171 0.5804138780 4291797541
-0.2809531689 -0.1492671967 0.5805416703 4291797541
-0.2810147703 -0.1486547589 0.5806689858 4291863334
-0.2810761631 -0.1480419338 0.5807958245 4291863080
-0.2811373174 -0.1474286914 0.5809221864 4291863080
-0.2816230357 -0.1470368356 0.5819258094 4291863080
-0.2816838026 -0.1464218795 0.5820513964 4291863080
-0.2817443907 -0.1458065212 0.5821765661 4291863080
-0.2818047106 -0.1451907605 0.5823012590 4291863080
-0.2822899520 -0.1447926760 0.5833039284 4291863080
-0.2823499143 -0.1441752017 0.5834278464 4291863080
-0.2828349769 -0.1437735409 0.5844300985 4291928873
-0.2828945816 -0.1431543529 0.5845532417 4291928873
-0.2829539180 -0.1425347775 0.5846759081 4291928873
-0.2834386528 -0.1421282142 0.5856775045 4291928873
-0.2834976315 -0.1415069252 0.5857993364 4291994666
-0.2839821279 -0.1410967857 0.5868005157 4291994666
-0.2840407491 -0.1404737979 0.5869216323 4291994666
-0.2840991020 -0.1398504078 0.5870422125 4291994666
-0.2845832705 -0.1394353807 0.5880426168 4291995179
-0.2846412361 -0.1388103068 0.5881624222 4291995179
-0.2846989930 -0.1381848454 0.5882817507 4291929386
-0.2851827741 -0.1377649307 0.5892814398 4291929386
-0.2856664956 -0.1373427510 0.5902809501 4291995179
-0.2857237160 -0.1367142797 0.5903991461 4291995179
-0.2862071991 -0.1362885386 0.5913982391 4291929386
-0.2866906226 -0.1358605474 0.5923971534 4291929386
-0.2871739864 -0.1354303062 0.5933959484 4292060972
-0.2872304916 -0.1347975135 0.5935126543 4292060972
-0.2881404757 -0.1345630586 0.5953930020 4292060972
-0.2886236012 -0.1341260374 0.5963913202 4292060972
-0.2891066670 -0.1336867809 0.5973894596 4292060972
-0.2895896435 -0.1332452595 0.5983874798 4291995179
-0.2900725305 -0.1328014880 0.5993852615 4291863593
-0.2901280522 -0.1321608126 0.5995000005 4291797800
-0.2906107008 -0.1317134798 0.6004973054 4291929127
-0.2910932600 -0.1312638819 0.6014943719 4291863334
-0.2915757000 -0.1308120340 0.6024913192 4291863334
-0.2920580804 -0.1303579360 0.6034880877 4291797541
-0.2921126783 -0.1297116578 0.6036009192 4291797541
-0.2925948203 -0.1292539835 0.6045971513 4291797541
-0.2930768430 -0.1287940592 0.6055931449 4291797541
-0.2935587764 -0.1283318847 0.6065889597 4291797541
-0.2940405905 -0.1278674603 0.6075845957 4291731748
-0.2940942347 -0.1272155941 0.6076954603 4291797541
-0.2945758104 -0.1267475933 0.6086905003 4291665955
-0.2950572670 -0.1262773573 0.6096853614 4291600162
-0.2955386043 -0.1258048564 0.6106799841 4291665701
-0.2955914736 -0.1251487285 0.6107892394 4291599908
-0.2960725427 -0.1246726662 0.6117832661 4291599908
-0.2961249650 -0.1240148842 0.6118915677 4291665701
-0.2966057360 -0.1235352680 0.6128850579 4291796517
-0.2970864177 -0.1230534092 0.6138782501 4291796517
-0.2975669801 -0.1225692853 0.6148712635 4291862053
-0.2976185679 -0.1219072565 0.6149778962 4291796260
-0.2980988324 -0.1214195937 0.6159702539 4291862053
-0.2981500030 -0.1207559258 0.6160759330 4291796260
-0.2990590036 -0.1204375029 0.6179543138 4291796260
-0.2995389104 -0.1199430749 0.6189459562 4291730467
-0.2995895147 -0.1192755252 0.6190504432 4291664674
-0.2996398211 -0.1186076254 0.6191544533 4291664674
-0.3001192212 -0.1181083694 0.6201450229 4291664674
