VERSION 0.7
FIELDS x y z rgba
SIZE 4 4 4 4
TYPE F F F U
COUNT 1 1 1 1
WIDTH 920
HEIGHT 1
VIEWPOINT 0.0 0.0 0.0 1.0 0.0 0.0 0.0
POINTS 920
DATA ascii
-0.3132497668 -0.1297152787 0.5522250533 4293375298
-0.3133090138 -0.1291261315 0.5523295403 4293375298
-0.3133680224 -0.1285366565 0.5524335504 4293441091
-0.3139104545 -0.1281443089 0.5533897877 4293506884
-0.3139690459 -0.1275532544 0.5534930825 4293506884
-0.3145112693 -0.1271574944 0.5544489622 4293506884
-0.3145694435 -0.1265648752 0.5545515418 4293572679
-0.3146273792 -0.1259719282 0.5546536446 4293572679
-0.3151691854 -0.1255715340 0.5556088090 4293441863
-0.3152267337 -0.1249770224 0.5557102561 4293441863
-0.3152839839 -0.1243821830 0.5558111668 4293507656
-0.3153409958 -0.1237870231 0.5559117198 4293573449
-0.3153977692 -0.1231915355 0.5560117960 4293573449
-0.3154542744 -0.1225957274 0.5561113954 4293705035
-0.3155105412 -0.1219995990 0.5562105775 4293836619
-0.3155665398 -0.1214031577 0.5563092828 4293836619
-0.3151374757 -0.1206208244 0.5555528998 4293706065
-0.3151928782 -0.1200246662 0.5556505322 4293837651
-0.3152480125 -0.1194281876 0.5557478070 4293838169
-0.3153029084 -0.1188314036 0.5558445454 4293903962
-0.3153575659 -0.1182343066 0.5559408665 4294035289
-0.3154119551 -0.1176368967 0.5560367703 4293969496
-0.3154660761 -0.1170391813 0.5561321974 4294166362
-0.3155199289 -0.1164411604 0.5562271476 4294232155
-0.3155735433 -0.1158428341 0.5563216209 4294168166
-0.3156268895 -0.1152442023 0.5564156771 4294628717
-0.3161656559 -0.1148216426 0.5573654771 4294632072
-0.3162185848 -0.1142214835 0.5574587584 4294962579
-0.3152995706 -0.1132719591 0.5558387041 4294965417
-0.3163236380 -0.1130202636 0.5576439500 4294966188
-0.3173477352 -0.1127645820 0.5594493151 4294967227
-0.3173997700 -0.1121613830 0.5595410466 4294967227
-0.3174515367 -0.1115578860 0.5596323609 4294639282
-0.3179892600 -0.1111240089 0.5605803132 4293915559
-0.3185268939 -0.1106879935 0.5615280867 4294106246
-0.3185780346 -0.1100817621 0.5616182089 4293119351
-0.3186289072 -0.1094752476 0.5617079139 4292787819
-0.3191660643 -0.1090346500 0.5626548529 4292261475
-0.3197031021 -0.1085919067 0.5636015534 4291276896
-0.3202400208 -0.1081470251 0.5645480752 4291013724
-0.3198032975 -0.1073731482 0.5637782216 4290356846
-0.3203398287 -0.1069258377 0.5647240877 4290291053
-0.3108397126 -0.1796027571 0.5490514636 4290682417
-0.3090229034 -0.1779465377 0.5458423495 4291532834
-0.3119457662 -0.1790174097 0.5510051250 4291598627
-0.3101277947 -0.1773654968 0.5477939844 4291730213
-0.3135262132 -0.1786937863 0.5537967682 4291730213
-0.3140794635 -0.1783927083 0.5547739267 4291730727
-0.3141581416 -0.1778208464 0.5549129844 4291796520
-0.3142366409 -0.1772485822 0.5550516248 4291862313
-0.3143149018 -0.1766758710 0.5551898479 4291796520
-0.3139180541 -0.1758367270 0.5544888377 4291861799
-0.3139957786 -0.1752640307 0.5546261668 4291796006
-0.3140732944 -0.1746909171 0.5547630787 4291861542
-0.3141505718 -0.1741173714 0.5548995733 4291927335
-0.3137522638 -0.1732808501 0.5541960597 4291861800
-0.3133535087 -0.1724456549 0.5534917116 4291861800
-0.3129543066 -0.1716117859 0.5527865887 4291796520
-0.3125546575 -0.1707792282 0.5520806313 4291796520
-0.3126304150 -0.1702070683 0.5522144437 4291861800
-0.3127059340 -0.1696344912 0.5523478389 4291796007
-0.3127812445 -0.1690614969 0.5524808764 4291730214
-0.3128563464 -0.1684880853 0.5526134968 4291796007
-0.3129312098 -0.1679142714 0.5527457595 4291861800
-0.3125294447 -0.1670853347 0.5520361066 4291861800
-0.3126037419 -0.1665115654 0.5521673560 4291796007
-0.3126778603 -0.1659373939 0.5522982478 4291796007
-0.3127517104 -0.1653628200 0.5524287224 4291861287
-0.3123485148 -0.1645366251 0.5517165065 4291861287
-0.3128988147 -0.1642124355 0.5526885390 4291927080
-0.3129720092 -0.1636366248 0.5528178215 4291927080
-0.3120906055 -0.1625632942 0.5512609482 4291927080
-0.3121631444 -0.1619884521 0.5513890982 4291927080
-0.3122354448 -0.1614131927 0.5515168309 4291992873
-0.3123075366 -0.1608375460 0.5516441464 4291992873
-0.3119017780 -0.1600164622 0.5509274006 4292058921
-0.3119733036 -0.1594408900 0.5510537624 4292124714
-0.3120446205 -0.1588649452 0.5511797071 4292256300
-0.3116377294 -0.1580461860 0.5504609942 4292322093
-0.3117084801 -0.1574703306 0.5505859852 4292387886
-0.3117789924 -0.1568940729 0.5507105589 4292387886
-0.3118492961 -0.1563174278 0.5508347154 4292387631
-0.3119193614 -0.1557403952 0.5509584546 4292321838
-0.3119891882 -0.1551629752 0.5510818362 4292387631
-0.3115801811 -0.1543480754 0.5503593683 4292387631
-0.3121281862 -0.1540069729 0.5513273478 4292387631
-0.3117185235 -0.1531930715 0.5506036878 4292453424
-0.3117873371 -0.1526149958 0.5507252812 4292453424
-0.3118559122 -0.1520365477 0.5508463979 4292453424
-0.3119242787 -0.1514577121 0.5509671569 4292453937
-0.3119924068 -0.1508784890 0.5510874987 4292453937
-0.3120602965 -0.1502988935 0.5512074232 4292585012
-0.3126074076 -0.1499488950 0.5521738529 4292585012
-0.3126749396 -0.1493676603 0.5522931218 4292650805
-0.3127422333 -0.1487860382 0.5524119735 4292585012
-0.3128093183 -0.1482040435 0.5525304675 4292585012
-0.3128761351 -0.1476216763 0.5526484847 4292650805
-0.3124627769 -0.1468134075 0.5519183278 4292651318
-0.3125290275 -0.1462311894 0.5520353913 4292717111
-0.3125950396 -0.1456485987 0.5521519780 4292717111
-0.3126608431 -0.1450656503 0.5522682071 4292717111
-0.3127263784 -0.1444823295 0.5523839593 4292717368
-0.3127917051 -0.1438986361 0.5524993539 4292717368
-0.3123762012 -0.1430944353 0.5517654419 4292783161
-0.3124409318 -0.1425109059 0.5518797636 4292783161
-0.3125054538 -0.1419270337 0.5519937277 4292783161
-0.3125697076 -0.1413427889 0.5521072149 4292783161
-0.3126337230 -0.1407581717 0.5522203445 4292848695
-0.3122164607 -0.1399575621 0.5514832735 4292914488
-0.3122799098 -0.1393731385 0.5515953302 4292980794
-0.3123431206 -0.1387883723 0.5517069697 4293046587
-0.3124060631 -0.1382032335 0.5518181920 4292980794
-0.3119873405 -0.1374057084 0.5510785580 4292980794
-0.3120497167 -0.1368207783 0.5511887670 4293046333
-0.3121118844 -0.1362354904 0.5512984991 4293046333
-0.3116920292 -0.1354405284 0.5505569577 4293046333
-0.3117536008 -0.1348554492 0.5506656766 4293112126
-0.3118149340 -0.1342700273 0.5507740378 4293177919
-0.3118759990 -0.1336842626 0.5508819222 4293177919
-0.3119368553 -0.1330981553 0.5509893894 4293177919
-0.3115152121 -0.1323068887 0.5502446294 4293243712
-0.3120577931 -0.1319249123 0.5512030125 4293309505
-0.3116354942 -0.1311347783 0.5504570603 4293309505
-0.3116952777 -0.1305482090 0.5505626202 4293375298
-0.3122373819 -0.1301624924 0.5515202284 4293309505
-0.3122967482 -0.1295743436 0.5516250730 4293309505
-0.3123558760 -0.1289858669 0.5517295003 4293375298
-0.3124147356 -0.1283970475 0.5518335104 4293244482
-0.3129563332 -0.1280054450 0.5527901649 4293310275
-0.3130148053 -0.1274150610 0.5528934002 4293441091
-0.3135561645 -0.1270200610 0.5538496375 4293506884
-0.3136142194 -0.1264280975 0.5539522171 4293310275
-0.3136720359 -0.1258358061 0.5540543199 4293376068
-0.3137296140 -0.1252431870 0.5541560054 4293376070
-0.3142704070 -0.1248423159 0.5551112294 4293441863
-0.3143275678 -0.1242481396 0.5552121997 4293507656
-0.3143844604 -0.1236536354 0.5553126931 4293573449
-0.3144410849 -0.1230588108 0.5554127693 4293639242
-0.3144975007 -0.1224636659 0.5555123687 4293705035
-0.3145536184 -0.1218682081 0.5556114912 4293639755
-0.3146094978 -0.1212724224 0.5557101965 4293837134
-0.3141810298 -0.1204906628 0.5549533963 4293837910
-0.3142363429 -0.1198951676 0.5550510287 4293969496
-0.3138071001 -0.1191155389 0.5542928576 4294035550
-0.3138617873 -0.1185203344 0.5543894768 4294167136
-0.3139162362 -0.1179248169 0.5544856787 4294298463
-0.3139704168 -0.1173289940 0.5545813441 4294232670
-0.3140243590 -0.1167328581 0.5546765924 4294429017
-0.3140780032 -0.1161364242 0.5547714233 4294297431
-0.3141314387 -0.1155396774 0.5548657775 4294100569
-0.3146694303 -0.1151200086 0.5558161139 4294166362
-0.3147224188 -0.1145217344 0.5559096932 4294037357
-0.3147751391 -0.1139231622 0.5560027957 4294629494
-0.3148276210 -0.1133242920 0.5560954809 4294829453
-0.3153649867 -0.1128988117 0.5570446849 4294962581
-0.3163875341 -0.1126439497 0.5588508248 4294964141
-0.3164394498 -0.1120414138 0.5589425564 4294964398
-0.3160057068 -0.1112676561 0.5581763983 4294704051
-0.3170280159 -0.1110054404 0.5599821806 4294967223
-0.3175648153 -0.1105701625 0.5609303117 4294963873
-0.3176158369 -0.1099645942 0.5610204935 4293647499
-0.3171808720 -0.1091915220 0.5602521896 4293511791
-0.3182029128 -0.1089188829 0.5620574355 4293117033
-0.3187391162 -0.1084768772 0.5630045533 4292919387
-0.3197611570 -0.1081971675 0.5648098588 4292261457
-0.3198111951 -0.1075864509 0.5648981929 4291275857
-0.3198609352 -0.1069754437 0.5649860501 4290946892
-0.3199104071 -0.1063641533 0.5650734305 4289898362
-0.3199596107 -0.1057525799 0.5651603937 4289832569
-0.3124177158 -0.1796406806 0.5529235005 4291664163
-0.3130491972 -0.1787726283 0.5540410876 4291598628
-0.3131279349 -0.1782018542 0.5541804433 4291598887
-0.3136803210 -0.1778993905 0.5551580787 4291664680
-0.3137587607 -0.1773269027 0.5552968979 4291796007
-0.3138369620 -0.1767539829 0.5554352999 4291730214
-0.3134407699 -0.1759144962 0.5547341108 4291927080
-0.3135184646 -0.1753415912 0.5548716187 4291861287
-0.3131214976 -0.1745038629 0.5541690588 4291861287
-0.3131986260 -0.1739309728 0.5543055534 4291861287
-0.3132755160 -0.1733576506 0.5544416904 4291861800
-0.3124026656 -0.1722603291 0.5528968573 4291796007
-0.3124789298 -0.1716879159 0.5530318022 4291796009
-0.3120799363 -0.1708550304 0.5523256660 4291796009
-0.3121556342 -0.1702826470 0.5524596572 4291927080
-0.3122311234 -0.1697098613 0.5525932312 4291795494
-0.3123063743 -0.1691366434 0.5527264476 4291729701
-0.3123814166 -0.1685630232 0.5528592467 4291795494
-0.3119806647 -0.1677332968 0.5521500111 4291795494
-0.3120551407 -0.1671597064 0.5522817969 4291795494
-0.3121294379 -0.1665857285 0.5524132848 4291861287
-0.3122034669 -0.1660113335 0.5525442958 4291927080
-0.3122773170 -0.1654365361 0.5526750088 4292123945
-0.3118747771 -0.1646099985 0.5519625545 4292123945
-0.3119480312 -0.1640352607 0.5520922542 4292123945
-0.3115447164 -0.1632105708 0.5513784289 4292123945
-0.3116174340 -0.1626358926 0.5515071750 4292123945
-0.3112854958 -0.1612384319 0.5509197116 4292058152
-0.3113574386 -0.1606634408 0.5510470271 4292058152
-0.3114291728 -0.1600880474 0.5511739254 4292189738
-0.3115006387 -0.1595122665 0.5513004661 4292255531
-0.3115719259 -0.1589360833 0.5514265895 4292124459
-0.3111656904 -0.1581169963 0.5507076383 4292190252
-0.3112364113 -0.1575409174 0.5508328080 4292190252
-0.3113068938 -0.1569644362 0.5509575009 4292256045
-0.3113771379 -0.1563875675 0.5510818362 4292256045
-0.3114471734 -0.1558103114 0.5512057543 4292321838
-0.3115169704 -0.1552326530 0.5513293147 4292321838
-0.3115865290 -0.1546546221 0.5514524579 4292321838
-0.3111778796 -0.1538398862 0.5507291555 4292321840
-0.3112468719 -0.1532619596 0.5508512855 4292387633
-0.3113156557 -0.1526836604 0.5509729981 4292387633
-0.3113842010 -0.1521049738 0.5510943532 4292453426
-0.3114525080 -0.1515258998 0.5512152314 4292453426
-0.3115205765 -0.1509464532 0.5513357520 4292453426
-0.3115884364 -0.1503666192 0.5514557958 4292453426
-0.3121348023 -0.1500165015 0.5524227619 4292519219
-0.3122022748 -0.1494350284 0.5525422096 4292585012
-0.3122695386 -0.1488531679 0.5526612401 4292585012
-0.3123365641 -0.1482709497 0.5527798533 4292650805
-0.3124033511 -0.1476883441 0.5528981090 4292650805
-0.3124699295 -0.1471053660 0.5530158877 4292519732
-0.3120568991 -0.1462972909 0.5522848964 4292519732
-0.3121228814 -0.1457144618 0.5524016619 4292651318
-0.3121886253 -0.1451312751 0.5525180101 4292651318
-0.3122541308 -0.1445477158 0.5526340008 4292519989
-0.3123193979 -0.1439637840 0.5527495146 4292585782
-0.3119045794 -0.1431592554 0.5520153642 4292651575
-0.3119692802 -0.1425754875 0.5521298647 4292651575
-0.3120337725 -0.1419913620 0.5522439480 4292717368
-0.3120979965 -0.1414068788 0.5523576140 4292717368
-0.3121619821 -0.1408220381 0.5524708629 4292782902
-0.3122257292 -0.1402368397 0.5525836945 4292848695
-0.3118087649 -0.1394364238 0.5518457890 4292848695
-0.3118719459 -0.1388514191 0.5519576073 4292848695
-0.3119348884 -0.1382660419 0.5520689487 4292848695
-0.3115168214 -0.1374681741 0.5513290763 4292914488
-0.3115791976 -0.1368830055 0.5514394641 4292915001
-0.3116413057 -0.1362974793 0.5515493751 4292980794
-0.3117031753 -0.1357116103 0.5516588688 4292848954
-0.3112836778 -0.1349168569 0.5509164333 4292914747
-0.3113449514 -0.1343311965 0.5510249138 4292980540
-0.3114060163 -0.1337451786 0.5511329174 4292980540
-0.3114668131 -0.1331588328 0.5512405634 4293046333
-0.3115273714 -0.1325721294 0.5513477325 4293046333
-0.3111060858 -0.1317811012 0.5506021380 4293112126
-0.3111660779 -0.1311946362 0.5507082939 4293112126
-0.3112258017 -0.1306078136 0.5508140326 4293047103
-0.3112852871 -0.1300206780 0.5509192944 4293112896
-0.3113445342 -0.1294331998 0.5510241389 4293178689
-0.3118855953 -0.1290448308 0.5519816875 4293244482
-0.3119444251 -0.1284557730 0.5520858765 4293244482
-0.3120030165 -0.1278663725 0.5521895289 4293310275
-0.3120613694 -0.1272766441 0.5522928238 4293310275
-0.3126018643 -0.1268824041 0.5532494187 4293310275
-0.3126598299 -0.1262910962 0.5533519387 4293310275
-0.3127174973 -0.1256994754 0.5534540415 4293310275
-0.3127749562 -0.1251075268 0.5535557270 4293376068
-0.3128321469 -0.1245152503 0.5536569357 4293441861
-0.3128890693 -0.1239226460 0.5537577271 4293573447
-0.3129457533 -0.1233297214 0.5538580418 4293639240
-0.3130021989 -0.1227364764 0.5539579391 4293639240
-0.3130583763 -0.1221429110 0.5540573597 4293639240
-0.3131143153 -0.1215490252 0.5541563630 4293377097
-0.3131699860 -0.1209548265 0.5542548895 4293640269
-0.3132254183 -0.1203603074 0.5543529987 4293772630
-0.3127971292 -0.1195806488 0.5535950065 4293970009
-0.3128519654 -0.1189864203 0.5536920428 4293970272
-0.3129065633 -0.1183918789 0.5537886620 4294036065
-0.3129608631 -0.1177970245 0.5538848042 4294167136
-0.3130149543 -0.1172018647 0.5539804697 4294167136
-0.3130687475 -0.1166063994 0.5540757179 4294101082
-0.3131223023 -0.1160106212 0.5541704893 4293969496
-0.3131756186 -0.1154145449 0.5542648435 4293968985
-0.3137127757 -0.1149956211 0.5552155375 4293903192
-0.3142498732 -0.1145745590 0.5561660528 4293837918
-0.3143025637 -0.1139757261 0.5562593341 4294035297
-0.3143549860 -0.1133765951 0.5563521385 4294233707
-0.3153760731 -0.1131246984 0.5581592321 4294562672
-0.3154281378 -0.1125231236 0.5582513809 4294893452
-0.3149953485 -0.1117493287 0.5574854612 4294961044
-0.3160161972 -0.1114900783 0.5592921376 4294963876
-0.3160675764 -0.1108866856 0.5593830943 4294964904
-0.3170883656 -0.1106212884 0.5611897111 4294965158
-0.3161695302 -0.1096790209 0.5595635176 4294373021
-0.3171901107 -0.1094093397 0.5613697767 4294564990
-0.3177256584 -0.1089692935 0.5623176098 4293643888
-0.3182611167 -0.1085271090 0.5632652640 4293839715
-0.3187964261 -0.1080827713 0.5642126799 4293115992
-0.3188463449 -0.1074727178 0.5643010139 4292195662
-0.3194307983 -0.1064134613 0.5653353930 4290816347
-0.3194800019 -0.1058016196 0.5654224753 4290750554
-0.3097341955 -0.1808894575 0.5492538214 4289827908
-0.3107580841 -0.1808751673 0.5510694981 4291139359
-0.3084754944 -0.1789388061 0.5470217466 4291205152
-0.3104441464 -0.1794691086 0.5505127311 4291532835
-0.3114682436 -0.1794474721 0.5523288250 4291532835
-0.3120198846 -0.1791505218 0.5533070564 4291533094
-0.3130444288 -0.1791220009 0.5551238656 4291533094
-0.3126502335 -0.1782804430 0.5544248223 4291533094
-0.3132018447 -0.1779778749 0.5554029942 4291533094
-0.3132802248 -0.1774051785 0.5555419922 4291729701
-0.3133583963 -0.1768320501 0.5556806326 4291729701
-0.3134363592 -0.1762584746 0.5558188558 4291795749
-0.3130404949 -0.1754191071 0.5551168919 4291861542
-0.3126442134 -0.1745810360 0.5544141531 4291861287
-0.3127212822 -0.1740079373 0.5545508265 4291795494
-0.3127981424 -0.1734344065 0.5546871424 4291861287
-0.3124007583 -0.1725985408 0.5539824367 4291795494
-0.3120028973 -0.1717640013 0.5532768965 4291729956
-0.3120788634 -0.1711909473 0.5534116030 4291861542
-0.3116802275 -0.1703581810 0.5527047515 4291795494
-0.3117556572 -0.1697851717 0.5528385043 4291729701
-0.3118308783 -0.1692117453 0.5529718399 4291729701
-0.3119058907 -0.1686379015 0.5531048775 4291729701
-0.3115057945 -0.1678078324 0.5523954034 4291860773
-0.3115802407 -0.1672340482 0.5525274277 4291860773
-0.3116544485 -0.1666598320 0.5526590347 4291926566
-0.3117284775 -0.1660852283 0.5527902246 4292058152
-0.3118022382 -0.1655101925 0.5529211164 4291992359
-0.3114003837 -0.1646833420 0.5522084832 4292058152
-0.3114736080 -0.1641083807 0.5523383021 4291992359
-0.3115466237 -0.1635330170 0.5524677634 4291992359
-0.3111436367 -0.1627084464 0.5517532229 4292123432
-0.3112160861 -0.1621331573 0.5518816710 4292123432
-0.3108123541 -0.1613104343 0.5511657000 4292057639
-0.3113603294 -0.1609813720 0.5521374345 4292123432
-0.3109559119 -0.1601596028 0.5514202714 4292123945
-0.3110273480 -0.1595835984 0.5515469909 4292189738
-0.3110985756 -0.1590071917 0.5516732931 4292189738
-0.3106930554 -0.1581877619 0.5509541631 4292189738
-0.3107637167 -0.1576114595 0.5510794520 4292255277
-0.3108341396 -0.1570347548 0.5512043238 4292255277
-0.3109043539 -0.1564576477 0.5513288379 4292255277
-0.3109743297 -0.1558801681 0.5514529347 4292321070
-0.3110440671 -0.1553022861 0.5515766144 4292321070
-0.3106364310 -0.1544867158 0.5508537292 4292386863
-0.3111829162 -0.1541453749 0.5518227816 4292256047
-0.3107745945 -0.1533308029 0.5510987639 4292321840
-0.3113208115 -0.1529869139 0.5520673394 4292321840
-0.3113894165 -0.1524071097 0.5521889925 4292387633
-0.3114577830 -0.1518269181 0.5523102880 4292387633
-0.3115259409 -0.1512463391 0.5524311066 4292387633
-0.3115938604 -0.1506653875 0.5525515676 4292387633
-0.3116615415 -0.1500840634 0.5526715517 4292387633
-0.3117289841 -0.1495023519 0.5527911782 4292453426
-0.3117962182 -0.1489202678 0.5529103875 4292519219
-0.3118631840 -0.1483378112 0.5530291796 4292519219
-0.3119299412 -0.1477549672 0.5531474948 4292519219
-0.3119964600 -0.1471717656 0.5532654524 4292519219
-0.3115841150 -0.1463633478 0.5525342822 4292453426
-0.3116500676 -0.1457802951 0.5526512265 4292453939
-0.3117157519 -0.1451968551 0.5527676940 4292519732
-0.3117812276 -0.1446130574 0.5528838038 4292453939
-0.3118464649 -0.1440289021 0.5529994965 4292453939
-0.3114323318 -0.1432240307 0.5522651076 4292519732
-0.3114970028 -0.1426400244 0.5523797870 4292585525
-0.3115614355 -0.1420556754 0.5524940491 4292585525
-0.3116255999 -0.1414709538 0.5526078343 4292651318
-0.3116895556 -0.1408858597 0.5527212620 4292717109
-0.3117532730 -0.1403004229 0.5528342128 4292717109
-0.3118167520 -0.1397146285 0.5529468060 4292651316
-0.3114001453 -0.1389144212 0.5522080660 4292651316
-0.3114630282 -0.1383288056 0.5523195863 4292717109
-0.3115257025 -0.1377428472 0.5524306893 4292782902
-0.3111079931 -0.1369451880 0.5516899824 4292782902
-0.3111700714 -0.1363594234 0.5518000722 4292848695
-0.3112319112 -0.1357733160 0.5519096851 4292783415
-0.3112934828 -0.1351868510 0.5520189404 4292783415
-0.3108743429 -0.1343923211 0.5512756705 4292848954
-0.3109353483 -0.1338060647 0.5513838530 4292914747
-0.3109961152 -0.1332194656 0.5514916182 4292980540
-0.3105758727 -0.1324275285 0.5507463813 4293046333
-0.3106360734 -0.1318411678 0.5508530736 4293046333
-0.3106960058 -0.1312544495 0.5509594083 4293046333
-0.3107556999 -0.1306673884 0.5510652661 4292915517
-0.3108151555 -0.1300799996 0.5511707067 4292981310
-0.3108743727 -0.1294922680 0.5512756705 4293177919
-0.3109333217 -0.1289042085 0.5513802171 4293243712
-0.3109920621 -0.1283158213 0.5514843464 4293178689
-0.3110505044 -0.1277270913 0.5515880585 4293244482
-0.3115903437 -0.1273348331 0.5525453091 4293310275
-0.3116483986 -0.1267445236 0.5526482463 4293310275
-0.3117062151 -0.1261539012 0.5527507663 4293310275
-0.3117637634 -0.1255629361 0.5528528690 4293244482
-0.3118211031 -0.1249716505 0.5529544950 4293376068
-0.3118781745 -0.1243800372 0.5530557036 4293507654
-0.3119349778 -0.1237880960 0.5531564355 4293573449
-0.3119915426 -0.1231958345 0.5532567501 4293639242
-0.3120478690 -0.1226032600 0.5533566475 4293573962
-0.3121039271 -0.1220103577 0.5534560680 4293508169
-0.3121597469 -0.1214171350 0.5535550117 4293442890
-0.3122152984 -0.1208235994 0.5536535382 4293640269
-0.3122706115 -0.1202297434 0.5537516475 4293772630
-0.3118429482 -0.1194506660 0.5529932380 4293838423
-0.3118976653 -0.1188571006 0.5530902743 4293773148
-0.3119521141 -0.1182632223 0.5531868339 4293838941
-0.3120063245 -0.1176690385 0.5532829762 4293838941
-0.3120602667 -0.1170745417 0.5533786416 4293904734
-0.3121139705 -0.1164797395 0.5534738898 4293903962
-0.3121674061 -0.1158846319 0.5535686612 4293772376
-0.3122206032 -0.1152892187 0.5536629558 4293837912
-0.3127569258 -0.1148710474 0.5546140671 4293903705
-0.3132931590 -0.1144507229 0.5555649400 4293903451
-0.3133457601 -0.1138525531 0.5556582212 4293903451
-0.3133980632 -0.1132540852 0.5557509661 4293969244
-0.3139338493 -0.1128291711 0.5567011237 4294035037
-0.3144695461 -0.1124021113 0.5576510429 4294561895
-0.3140373826 -0.1116288975 0.5568846464 4294956910
-0.3145726919 -0.1111993939 0.5578339696 4294827903
-0.3151079118 -0.1107677445 0.5587830544 4294960260
-0.3151589334 -0.1101647243 0.5588734746 4294765970
-0.3152096570 -0.1095614061 0.5589634776 4294897556
-0.3157444000 -0.1091251746 0.5599117279 4294960773
-0.3162790537 -0.1086867973 0.5608597994 4294499451
-0.3168135881 -0.1082462743 0.5618076921 4294365809
-0.3173480034 -0.1078036129 0.5627554059 4293971051
-0.3178822994 -0.1073587984 0.5637028813 4293248089
-0.3179318309 -0.1067491174 0.5637907386 4292590159
-0.3184658289 -0.1063009501 0.5647376776 4291998034
-0.3185149133 -0.1056897715 0.5648247004 4291669069
-0.3185636997 -0.1050783098 0.5649112463 4290029694
-0.3186122477 -0.1044665650 0.5649973154 4289832315
-0.3073741198 -0.1798653901 0.5461443067 4290548535
-0.3083960414 -0.1798545718 0.5479600430 4291401249
-0.3070598543 -0.1784691364 0.5455859303 4291401249
-0.3118560910 -0.1806411445 0.5541079044 4291467044
-0.3109915257 -0.1795264035 0.5525717735 4291467044
-0.3120144308 -0.1795009226 0.5543892384 4291467303
-0.3125654161 -0.1792008579 0.5553682446 4291467303
-0.3121719062 -0.1783589721 0.5546690822 4291598630
-0.3127227426 -0.1780563146 0.5556477904 4291532837
-0.3128010631 -0.1774833947 0.5557869673 4291729187
-0.3128791749 -0.1769100577 0.5559257865 4291729187
-0.3124843538 -0.1760699153 0.5552241802 4291926566
-0.3120890558 -0.1752310693 0.5545218587 4291926566
-0.3121663034 -0.1746581793 0.5546591282 4291795496
-0.3122433424 -0.1740848571 0.5547959805 4291795496
-0.3118469417 -0.1732482165 0.5540916324 4291860773
-0.3119234145 -0.1726749092 0.5542275310 4291860773
-0.3115262389 -0.1718400419 0.5535218120 4291926306
-0.3116021752 -0.1712667793 0.5536567569 4291926306
-0.3112041950 -0.1704336703 0.5529496670 4291663908
-0.3112795949 -0.1698604375 0.5530835986 4291729701
-0.3113547564 -0.1692868024 0.5532171130 4291729701
-0.3109556735 -0.1684559435 0.5525080562 4291729701
-0.3110302985 -0.1678823382 0.5526406169 4291860773
-0.3111046851 -0.1673083305 0.5527728200 4291860773
-0.3111788630 -0.1667339057 0.5529046059 4291926566
-0.3112528324 -0.1661590636 0.5530360341 4291926566
-0.3113265634 -0.1655838192 0.5531670451 4291926566
-0.3109253645 -0.1647566259 0.5524542332 4291860773
-0.3109985590 -0.1641814411 0.5525842309 4291860773
-0.3110715151 -0.1636058539 0.5527138710 4291926566
-0.3106692135 -0.1627809703 0.5519990921 4291991846
-0.3107416332 -0.1622054428 0.5521277189 4291991846
-0.3108138144 -0.1616295278 0.5522559881 4291991846
-0.3108857572 -0.1610532105 0.5523838401 4292057639
-0.3104820251 -0.1602311134 0.5516664982 4292057639
-0.3105534315 -0.1596548855 0.5517933369 4292057639
-0.3106245995 -0.1590782553 0.5519198179 4292123432
-0.3106955588 -0.1585012227 0.5520458817 4292123432
-0.3102903664 -0.1576819569 0.5513259172 4292189227
-0.3103607595 -0.1571050286 0.5514510274 4292189227
-0.3104309142 -0.1565276980 0.5515756607 4292189484
-0.3105008602 -0.1559499800 0.5516999364 4292189484
-0.3105705678 -0.1553718895 0.5518237948 4292255277
-0.3106400371 -0.1547933966 0.5519472361 4292255277
-0.3107092977 -0.1542145163 0.5520703197 4292321070
-0.3103016615 -0.1533996016 0.5513460040 4292321070
-0.3108471334 -0.1530555934 0.5523151755 4292386863
-0.3109156787 -0.1524755508 0.5524370074 4292452656
-0.3109840155 -0.1518951356 0.5525584221 4292321840
-0.3110521138 -0.1513143331 0.5526794195 4292321840
-0.3111200035 -0.1507331431 0.5527999997 4292518449
-0.3111876249 -0.1501515806 0.5529202223 4292452656
-0.3112550378 -0.1495696455 0.5530399680 4292452656
-0.3113222122 -0.1489873230 0.5531593561 4292452656
-0.3113891780 -0.1484046280 0.5532782674 4292387633
-0.3114558756 -0.1478215605 0.5533968210 4292387633
-0.3115223348 -0.1472381055 0.5535148978 4292453426
-0.3111106753 -0.1464293599 0.5527834892 4292453426
-0.3111765981 -0.1458460689 0.5529005527 4292519219
-0.3112422526 -0.1452624053 0.5530172586 4292453426
-0.3113076985 -0.1446783692 0.5531335473 4292519219
-0.3113728762 -0.1440939754 0.5532493591 4292519219
-0.3114378452 -0.1435092092 0.5533647537 4292519219
-0.3110240698 -0.1427045316 0.5526295900 4292519219
-0.3115670383 -0.1423385739 0.5535943508 4292585012
-0.3116312921 -0.1417527199 0.5537084937 4292585012
-0.3112165034 -0.1409496516 0.5529714823 4292519730
-0.3112801909 -0.1403639764 0.5530846119 4292585523
-0.3113436103 -0.1397779286 0.5531973243 4292585523
-0.3114067912 -0.1391915381 0.5533096194 4292585523
-0.3109905720 -0.1383915395 0.5525700450 4292651316
-0.3110531867 -0.1378053427 0.5526812673 4292717109
-0.3106361628 -0.1370073408 0.5519403815 4292651316
-0.3111776710 -0.1366318613 0.5529025197 4292651316
-0.3107599914 -0.1358349770 0.5521603823 4292848695
-0.3108215630 -0.1352482736 0.5522697568 4292782902
-0.3104031086 -0.1344534159 0.5515262485 4292848695
-0.3104640841 -0.1338669211 0.5516345501 4292914488
-0.3105247915 -0.1332800686 0.5517424941 4292980283
-0.3101052642 -0.1324878037 0.5509970188 4293046076
-0.3101654053 -0.1319011897 0.5511038899 4293046076
-0.3102253079 -0.1313142329 0.5512103438 4293046076
-0.3102849722 -0.1307269335 0.5513163209 4292980794
-0.3103443980 -0.1301392913 0.5514219403 4292980794
-0.3104035556 -0.1295513213 0.5515270233 4293046587
-0.3104624748 -0.1289630085 0.5516317487 4293112380
-0.3105211556 -0.1283743680 0.5517359972 4293178173
-0.3105795979 -0.1277853847 0.5518398285 4293243966
-0.3106377721 -0.1271960884 0.5519432425 4293178689
-0.3111766875 -0.1268024296 0.5529007316 4293244482
-0.3112344444 -0.1262115538 0.5530033708 4293178689
-0.3112919927 -0.1256203353 0.5531055927 4293244482
-0.3113492727 -0.1250288039 0.5532073975 4293376068
-0.3114063144 -0.1244369373 0.5533087254 4293441861
-0.3114630878 -0.1238447502 0.5534096360 4293573449
-0.3115196228 -0.1232522428 0.5535100698 4293573449
-0.3110943437 -0.1224698275 0.5527544022 4293508169
-0.3111502826 -0.1218775883 0.5528538227 4293508169
-0.3112059832 -0.1212850362 0.5529527664 4293705548
-0.3112614155 -0.1206921637 0.5530512929 4293771341
-0.3108346760 -0.1199130639 0.5522930622 4293772115
-0.3108895421 -0.1193204820 0.5523905754 4293837908
-0.3109441400 -0.1187275797 0.5524875522 4293706583
-0.3109984994 -0.1181343719 0.5525841117 4293706583
-0.3110525906 -0.1175408512 0.5526802540 4293838169
-0.3111064136 -0.1169470251 0.5527759194 4293838169
-0.3111599982 -0.1163528860 0.5528711081 4293772117
-0.3112133443 -0.1157584414 0.5529658794 4293706324
-0.3112664223 -0.1151636988 0.5530601740 4293771606
-0.3118018806 -0.1147462726 0.5540116429 4293903192
-0.3123372793 -0.1143266931 0.5549629331 4294034778
-0.3123897612 -0.1137291938 0.5550561547 4294166364
-0.3124419749 -0.1131313965 0.5551488996 4294166623
-0.3124939203 -0.1125332937 0.5552412271 4294166623
-0.3135117590 -0.1122809052 0.5570496917 4294232666
-0.3130801916 -0.1115082800 0.5562829375 4294166873
-0.3140979111 -0.1112506762 0.5580912232 4294234208
-0.3141490817 -0.1106486097 0.5581821203 4294694759
-0.3146833479 -0.1102155596 0.5591313839 4294892916
-0.3142505884 -0.1094436124 0.5583624840 4294958966
-0.3152680397 -0.1091755629 0.5601702929 4294958460
-0.3153183162 -0.1085704789 0.5602595806 4294958460
-0.3158519864 -0.1081307009 0.5612078905 4294892156
-0.3163855672 -0.1076887771 0.5621559620 4294628984
-0.3169190288 -0.1072447002 0.5631037951 4294430308
-0.3174524009 -0.1067984849 0.5640514493 4293838171
-0.3179856241 -0.1063501239 0.5649989247 4293115224
-0.3180346787 -0.1057386771 0.5650860667 4292654673
-0.3180834651 -0.1051269472 0.5651727319 4290883177
-0.3181319833 -0.1045149416 0.5652589202 4290356833
-0.3097262681 -0.1816001832 0.5514118075 4291072559
-0.3107474148 -0.1815842241 0.5532298088 4291400991
-0.3108269572 -0.1810158640 0.5533713698 4291335198
-0.3118484020 -0.1809938699 0.5551898479 4291466792
-0.3119277358 -0.1804229021 0.5553311110 4291400999
-0.3120068610 -0.1798515022 0.5554720163 4291335719
-0.3120857775 -0.1792796701 0.5556125045 4291401512
-0.3121644855 -0.1787074059 0.5557526350 4291598119
-0.3122429848 -0.1781347096 0.5558924079 4291598119
-0.3118494749 -0.1772933602 0.5551918149 4291729187
-0.3119274378 -0.1767206639 0.5553306341 4291794980
-0.3115331531 -0.1758810431 0.5546286702 4291860519
-0.3116105795 -0.1753083616 0.5547664762 4291860519
-0.3116877675 -0.1747352630 0.5549038649 4291729705
-0.3112923801 -0.1738978326 0.5541999936 4291729705
-0.3113690019 -0.1733247489 0.5543364286 4291926055
-0.3114454448 -0.1727512330 0.5544725060 4291991848
-0.3105762303 -0.1716547608 0.5529249907 4292188195
-0.3106519878 -0.1710821539 0.5530598760 4292056609
-0.3107275367 -0.1705091149 0.5531944036 4291795494
-0.3108028769 -0.1699356735 0.5533285141 4291729701
-0.3108779788 -0.1693618000 0.5534622669 4291663908
-0.3104795814 -0.1685306132 0.5527529716 4291598115
-0.3105541468 -0.1679567993 0.5528857112 4291663908
-0.3106285036 -0.1673825681 0.5530180931 4291729701
-0.3107026219 -0.1668079197 0.5531500578 4291860773
-0.3103027940 -0.1659794599 0.5524381995 4291860773
-0.3103763759 -0.1654048711 0.5525692105 4291926566
-0.3104497194 -0.1648298651 0.5526998043 4291860773
-0.3105228543 -0.1642544717 0.5528300405 4291860773
-0.3101215959 -0.1634287685 0.5521156192 4291926566
-0.3101941645 -0.1628534347 0.5522448421 4291926566
-0.3102665246 -0.1622776836 0.5523736477 4291926566
-0.3103386462 -0.1617015451 0.5525020361 4291992359
-0.3099359274 -0.1608786434 0.5517851114 4291926566
-0.3100075126 -0.1603025794 0.5519125462 4292188455
-0.3100788593 -0.1597261131 0.5520395637 4292122662
-0.3101499975 -0.1591492593 0.5521661639 4291991846
-0.3102208972 -0.1585720032 0.5522924066 4292057639
-0.3102915883 -0.1579943597 0.5524182320 4292057639
-0.3098867536 -0.1571752578 0.5516974926 4292123432
-0.3099568486 -0.1565977037 0.5518223643 4292189225
-0.3100267649 -0.1560197622 0.5519467592 4292189225
-0.3100964129 -0.1554414332 0.5520707965 4292189484
-0.3101658523 -0.1548627168 0.5521944165 4292189484
-0.3102350533 -0.1542835981 0.5523176193 4292255277
-0.3103040457 -0.1537041068 0.5524404645 4292321070
-0.3103727996 -0.1531242281 0.5525628328 4292190254
-0.3104413152 -0.1525439620 0.5526848435 4292256047
-0.3109858632 -0.1521963775 0.5536542535 4292321840
-0.3105776608 -0.1513822675 0.5529276133 4292321840
-0.3106454909 -0.1508008540 0.5530483723 4292452656
-0.3102365434 -0.1499886662 0.5523203015 4292452656
-0.3103038073 -0.1494073868 0.5524400473 4292452656
-0.3108476102 -0.1490543336 0.5534081459 4292452656
-0.3109144866 -0.1484714150 0.5535272360 4292452656
-0.3109811544 -0.1478881091 0.5536459088 4292518449
-0.3105705380 -0.1470784992 0.5529148579 4292518449
-0.3106366396 -0.1464953423 0.5530325770 4292518449
-0.3107025027 -0.1459118128 0.5531498194 4292650035
-0.3107681274 -0.1453279108 0.5532666445 4292584242
-0.3108335137 -0.1447436363 0.5533830523 4292715828
-0.3108986616 -0.1441590041 0.5534990430 4292715828
-0.3109635711 -0.1435739994 0.5536146164 4292519219
-0.3110282719 -0.1429886371 0.5537297726 4292519219
-0.3110927045 -0.1424029022 0.5538445115 4292585012
-0.3111568987 -0.1418167949 0.5539588332 4292453426
-0.3112208843 -0.1412303448 0.5540726781 4292519217
-0.3108064532 -0.1404274702 0.5533348918 4292585010
-0.3108698428 -0.1398411989 0.5534477234 4292585010
-0.3109329939 -0.1392545551 0.5535601377 4292585010
-0.3109959066 -0.1386675686 0.5536721349 4292650803
-0.3105800152 -0.1378677934 0.5529317856 4292650803
-0.3106423616 -0.1372809857 0.5530427098 4292650803
-0.3107044399 -0.1366938353 0.5531532764 4292716596
-0.3102874458 -0.1358966082 0.5524109006 4292651316
-0.3103489578 -0.1353096664 0.5525203943 4292651316
-0.3099312186 -0.1345144659 0.5517767072 4292717109
-0.3099921346 -0.1339277327 0.5518851876 4292782902
-0.3100528419 -0.1333406419 0.5519931912 4292782902
-0.3096339703 -0.1325480342 0.5512475371 4292848695
-0.3096940815 -0.1319611669 0.5513545275 4292914490
-0.3097539544 -0.1313739717 0.5514611006 4292980283
-0.3098135889 -0.1307864338 0.5515672565 4292980794
-0.3098729551 -0.1301985532 0.5516729951 4292980794
-0.3099321127 -0.1296103299 0.5517782569 4293111867
-0.3099910021 -0.1290217787 0.5518831015 4293111867
-0.3100496233 -0.1284328848 0.5519875288 4293177660
-0.3101080358 -0.1278436631 0.5520914793 4293243453
-0.3101661801 -0.1272541136 0.5521950126 4293047103
-0.3102240860 -0.1266642213 0.5522980690 4293047103
-0.3102817535 -0.1260740012 0.5524007678 4292981310
-0.3103391528 -0.1254834682 0.5525029302 4293178689
-0.3103963137 -0.1248925924 0.5526047349 4293310277
-0.3104532361 -0.1243013963 0.5527060032 4293441863
-0.3105098903 -0.1237098724 0.5528069139 4293573449
-0.3105663061 -0.1231180280 0.5529073477 4293573449
-0.3106224537 -0.1225258633 0.5530073047 4293508169
-0.3101974428 -0.1217446253 0.5522506833 4293573962
-0.3102530241 -0.1211527362 0.5523496270 4293573962
-0.3103083372 -0.1205605268 0.5524480939 4293573962
-0.3098822236 -0.1197820082 0.5516894460 4293640529
-0.3099369705 -0.1191900894 0.5517868996 4293772115
-0.3099914491 -0.1185978577 0.5518839359 4293574997
-0.3100456595 -0.1180053204 0.5519804358 4293574997
-0.3100996614 -0.1174124628 0.5520765781 4293706324
-0.3101533651 -0.1168192998 0.5521721840 4293706324
-0.3102068305 -0.1162258312 0.5522673726 4293902161
-0.3102600574 -0.1156320572 0.5523621440 4293902161
-0.3107948601 -0.1152166054 0.5533142686 4293902163
-0.3108476698 -0.1146213040 0.5534082651 4293902163
-0.3113822043 -0.1142024770 0.5543599129 4293771608
-0.3114345670 -0.1136056408 0.5544531345 4293903194
-0.3114866614 -0.1130085066 0.5545458794 4293772895
-0.3120207787 -0.1125850827 0.5554967523 4293838688
-0.3125547767 -0.1121595129 0.5564474463 4294298723
-0.3130886555 -0.1117317900 0.5573979616 4294298723
-0.3131399751 -0.1111306921 0.5574892759 4294366047
-0.3141561747 -0.1108699068 0.5592984557 4294366047
-0.3127591610 -0.1097582281 0.5568113327 4294955357
-0.3142578006 -0.1096625328 0.5594793558 4294956128
-0.3147910237 -0.1092259288 0.5604286790 4294758771
-0.3153241277 -0.1087871790 0.5613778234 4294758771
-0.3158571422 -0.1083462760 0.5623267293 4294957179
-0.3159070015 -0.1077384949 0.5624154806 4294694007
-0.3164397180 -0.1072942391 0.5633638501 4294757470
-0.3169722855 -0.1068478301 0.5643120408 4294428505
-0.3175047636 -0.1063992754 0.5652600527 4293773408
-0.3165871203 -0.1054655313 0.5636262894 4293576029
-0.3176025450 -0.1051755622 0.5654340982 4292263775
-0.3176510334 -0.1045632884 0.5655204058 4291540052
-0.3176992536 -0.1039507315 0.5656062365 4290422636
-0.3177471757 -0.1033378914 0.5656915903 4290488429
-0.3112887740 -0.1816439927 0.5552915931 4291335458
-0.3113682866 -0.1810732633 0.5554333925 4291334945
-0.3114475608 -0.1805020869 0.5555748343 4291466531
-0.3115266562 -0.1799304783 0.5557159185 4291466531
-0.3116055131 -0.1793584377 0.5558565855 4291532324
-0.3116841614 -0.1787859499 0.5559968948 4291663910
-0.3117626309 -0.1782130450 0.5561368465 4291598117
-0.3113697767 -0.1773713529 0.5554360747 4291663394
-0.3114476800 -0.1767984480 0.5555750728 4291794980
-0.3106600344 -0.1751198769 0.5541700125 4291860773
-0.3108138740 -0.1739745438 0.5544444323 4291794980
-0.3104186952 -0.1731381118 0.5537394881 4291794980
-0.3100230992 -0.1723029912 0.5530337691 4291794980
-0.3100990057 -0.1717305779 0.5531692505 4291794980
-0.3101747334 -0.1711577475 0.5533043146 4291794980
-0.3097780049 -0.1703248620 0.5525966287 4291729701
-0.3098531961 -0.1697520763 0.5527306795 4291729701
-0.3099281490 -0.1691788584 0.5528644323 4291794980
-0.3100028634 -0.1686052382 0.5529977083 4291860773
-0.3100773990 -0.1680312008 0.5531306863 4291860773
-0.3101516962 -0.1674567461 0.5532631874 4291860773
-0.3102257848 -0.1668818891 0.5533953309 4291729701
-0.3098266125 -0.1660530865 0.5526832938 4291729701
-0.3099001348 -0.1654782891 0.5528144836 4291860519
-0.3099734485 -0.1649030596 0.5529452562 4291860519
-0.3095731735 -0.1640765518 0.5522312522 4291860519
-0.3096459508 -0.1635014117 0.5523610115 4291860519
-0.3097184598 -0.1629258543 0.5524904132 4291926055
-0.3098628819 -0.1617735177 0.5527479649 4291926312
-0.3094608188 -0.1609502733 0.5520308018 4291926312
-0.3095323443 -0.1603740007 0.5521584153 4291991848
-0.3096036613 -0.1597973108 0.5522856116 4291991848
-0.3096747398 -0.1592202336 0.5524123907 4291991848
-0.3092712760 -0.1583998054 0.5516926646 4291991848
-0.3093417883 -0.1578228176 0.5518184304 4292057641
-0.3094120920 -0.1572454423 0.5519438386 4292057641
-0.3094821572 -0.1566676646 0.5520688891 4291926312
-0.3095520139 -0.1560894996 0.5521934628 4291992105
-0.3096216321 -0.1555109322 0.5523176789 4292123691
-0.3096910417 -0.1549319923 0.5524414182 4292123691
-0.3097601831 -0.1543526500 0.5525647998 4292255020
-0.3098291159 -0.1537729204 0.5526878238 4292320813
-0.3098978400 -0.1531928182 0.5528103709 4292386606
-0.3099663258 -0.1526123136 0.5529325008 4292452399
-0.3105100691 -0.1522646099 0.5539025068 4292386863
-0.3105781972 -0.1516824514 0.5540240407 4292386863
-0.3101703823 -0.1508685201 0.5532965064 4292386863
-0.3102379143 -0.1502864957 0.5534170270 4292386863
-0.3098293245 -0.1494744867 0.5526881218 4292452656
-0.3103723526 -0.1491213143 0.5536568165 4292452656
-0.3104391992 -0.1485381424 0.5537760854 4292386863
-0.3105058074 -0.1479546130 0.5538949370 4292518449
-0.3100958765 -0.1471446604 0.5531636477 4292584242
-0.3101619184 -0.1465612799 0.5532814860 4292518449
-0.3097512126 -0.1457532793 0.5525487661 4292518449
-0.3098166883 -0.1451700330 0.5526655912 4292584242
-0.3098819554 -0.1445864290 0.5527819991 4292650035
-0.3104237914 -0.1442240030 0.5537486076 4292650035
-0.3104886711 -0.1436387599 0.5538643003 4292584242
-0.3105533123 -0.1430531442 0.5539796352 4292584242
-0.3106177151 -0.1424671859 0.5540944934 4292650035
-0.3102046549 -0.1416628957 0.5533576608 4292715828
-0.3107458055 -0.1412941515 0.5543230176 4292585012
-0.3108094931 -0.1407070905 0.5544366241 4292519219
-0.3103954196 -0.1399044245 0.5536979437 4292519219
-0.3104585409 -0.1393175572 0.5538105369 4292585012
-0.3100436628 -0.1385168880 0.5530704856 4292650805
-0.3101062179 -0.1379301995 0.5531820655 4292716598
-0.3101685047 -0.1373431534 0.5532931685 4292716598
-0.3102305532 -0.1367557645 0.5534039140 4292650805
-0.3102923632 -0.1361680180 0.5535141230 4292782391
-0.3098757267 -0.1353710145 0.5527709126 4292716598
-0.3099369705 -0.1347834766 0.5528801680 4292782391
-0.3099979758 -0.1341955960 0.5529889464 4292848184
-0.3095802367 -0.1334011704 0.5522437692 4292913977
-0.3096406460 -0.1328134984 0.5523515344 4292913977
-0.3097008169 -0.1322254837 0.5524588823 4292913977
-0.3097607493 -0.1316371411 0.5525658131 4292913977
-0.3098204136 -0.1310484409 0.5526722670 4292979768
-0.3098798394 -0.1304593980 0.5527783036 4292979768
-0.3094600141 -0.1296693087 0.5520293117 4292980281
-0.3095188439 -0.1290805042 0.5521343350 4293046074
-0.3095774651 -0.1284913719 0.5522388816 4293111867
-0.3096358180 -0.1279018968 0.5523429513 4293177660
-0.3096939325 -0.1273120940 0.5524466634 4293243455
-0.3097518086 -0.1267219633 0.5525498986 4293309248
-0.3098094463 -0.1261315048 0.5526526570 4292914747
-0.3098668158 -0.1255407035 0.5527549982 4293243712
-0.3099239171 -0.1249495894 0.5528569221 4293376068
-0.3099808097 -0.1243581399 0.5529583693 4293441861
-0.3100374341 -0.1237663701 0.5530593991 4293442374
-0.3096137941 -0.1229836047 0.5523036718 4293508167
-0.3096698225 -0.1223921031 0.5524036288 4293573449
-0.3092454374 -0.1216114461 0.5516465306 4293507656
-0.3093008697 -0.1210202277 0.5517454743 4293573960
-0.3093560934 -0.1204286888 0.5518439412 4293639753
-0.3094110489 -0.1198368296 0.5519419909 4293771087
-0.3089852035 -0.1190594956 0.5511823297 4293771087
-0.3090395629 -0.1184679344 0.5512793064 4293705811
-0.3090936840 -0.1178760603 0.5513758659 4293705811
-0.3091475368 -0.1172838807 0.5514719486 4293706326
-0.3096820116 -0.1168728620 0.5524253845 4293640533
-0.3097354472 -0.1162791401 0.5525206923 4293640022
-0.3097886443 -0.1156851128 0.5526155829 4293640022
-0.3098415732 -0.1150907725 0.5527099967 4293836629
-0.3103754520 -0.1146739274 0.5536623597 4293968215
-0.3104279339 -0.1140780598 0.5537559986 4293903190
-0.3104801774 -0.1134818941 0.5538491607 4293968983
-0.3105321825 -0.1128854230 0.5539419055 4294035542
-0.3110654354 -0.1124627516 0.5548931956 4294101335
-0.3115985990 -0.1120379269 0.5558442473 4294362971
-0.3116499782 -0.1114387140 0.5559358597 4294494557
-0.3121828437 -0.1110105217 0.5568864942 4294430047
-0.3127156198 -0.1105801761 0.5578368306 4294364254
-0.3127663732 -0.1099782288 0.5579273701 4294232927
-0.3132988811 -0.1095445156 0.5588772893 4294167134
-0.3138312697 -0.1091086566 0.5598269701 4294167904
-0.3143635392 -0.1086706445 0.5607764721 4294233697
-0.3148956895 -0.1082304940 0.5617257953 4294562664
-0.3154277503 -0.1077881902 0.5626748800 4294496871
-0.3154773116 -0.1071798578 0.5627633333 4294561894
-0.3164915442 -0.1068971381 0.5645725131 4294364515
-0.3170232475 -0.1064483970 0.5655210018 4294297950
-0.3161070347 -0.1055142358 0.5638865829 4294166364
-0.3171209693 -0.1052241474 0.5656952858 4294099542
-0.3171694279 -0.1046116054 0.5657817125 4293704784
-0.3172175884 -0.1039987803 0.5658677220 4291933522
-0.3172655106 -0.1033856720 0.5659531951 4291209799
-0.3173131645 -0.1027722880 0.5660381913 4290160243
-0.3173605502 -0.1021586359 0.5661227107 4290226036
-0.3111178279 -0.1831403524 0.5560883880 4291138077
-0.3116672039 -0.1828447878 0.5570703149 4291269411
-0.3112775981 -0.1819980443 0.5563739538 4291269411
-0.3108875453 -0.1811525971 0.5556767583 4291400738
-0.3114365041 -0.1808539927 0.5566580296 4291400738
-0.3110457957 -0.1800093949 0.5559596419 4291400738
-0.3111246228 -0.1794371307 0.5561005473 4291400738
-0.3112032115 -0.1788644493 0.5562410355 4291466531
-0.3112816215 -0.1782913208 0.5563811064 4291532324
-0.3113597929 -0.1777177751 0.5565208793 4291532322
-0.3109672964 -0.1768761873 0.5558193326 4291663908
-0.3110449314 -0.1763026416 0.5559580922 4291598115
-0.3106516898 -0.1754628122 0.5552551746 4291598115
-0.3102579713 -0.1746242791 0.5545514822 4291598115
-0.3098638058 -0.1737870723 0.5538469553 4291598115
-0.3104112744 -0.1734776646 0.5548254848 4291794980
-0.3095453084 -0.1723789871 0.5532776713 4291794980
-0.3096211851 -0.1718063504 0.5534133315 4291794980
-0.3092254698 -0.1709726900 0.5527060032 4291794980
-0.3093008101 -0.1704000980 0.5528406501 4291663908
-0.3093759418 -0.1698270887 0.5529749393 4291663908
-0.3094508350 -0.1692536622 0.5531088114 4291794980
-0.3095255196 -0.1686798185 0.5532423258 4291794980
-0.3095999956 -0.1681055576 0.5533754230 4291794980
-0.3096742332 -0.1675308794 0.5535081625 4291794980
-0.3097482622 -0.1669557989 0.5536404848 4291663908
-0.3093498051 -0.1661266834 0.5529282093 4291663908
-0.3094232678 -0.1655516475 0.5530595779 4291729703
-0.3094965219 -0.1649762094 0.5531905293 4291729703
-0.3090969622 -0.1641493738 0.5524762869 4291860519
-0.3091696501 -0.1635739952 0.5526062250 4291860519
-0.3092421293 -0.1629982144 0.5527358055 4291860519
-0.3093144000 -0.1624220312 0.5528649688 4291860519
-0.3089133799 -0.1615979820 0.5521481633 4291860519
-0.3094582558 -0.1612684578 0.5531221032 4291860519
-0.3090565801 -0.1604453623 0.5524041057 4291991848
-0.3091278374 -0.1598684639 0.5525314808 4291926055
-0.3091988862 -0.1592911482 0.5526584983 4291991848
-0.3087960780 -0.1584703922 0.5519385338 4291991848
-0.3088665605 -0.1578931808 0.5520644784 4291991848
-0.3089368045 -0.1573155820 0.5521900654 4291991848
-0.3090068400 -0.1567375809 0.5523152351 4291926312
-0.3090766370 -0.1561591774 0.5524399877 4291992105
-0.3091462255 -0.1555804014 0.5525643229 4292057898
-0.3092155755 -0.1550012231 0.5526883006 4292123691
-0.3097590506 -0.1546584964 0.5536597371 4292255020
-0.3093535602 -0.1538417041 0.5529350042 4292320813
-0.3094222248 -0.1532613635 0.5530577302 4292386606
-0.3094906807 -0.1526806355 0.5531800389 4292386606
-0.3100336492 -0.1523327976 0.5541505814 4292321070
-0.3101017475 -0.1517504156 0.5542722344 4292321070
-0.3101695776 -0.1511676461 0.5543935299 4292386863
-0.3097621202 -0.1503538936 0.5536652207 4292321070
-0.3098293841 -0.1497712582 0.5537854433 4292386863
-0.3098964393 -0.1491882354 0.5539053082 4292386863
-0.3099632561 -0.1486048400 0.5540246964 4292452656
-0.3100298345 -0.1480210721 0.5541437268 4292518449
-0.3096205592 -0.1472107917 0.5534121990 4292518449
-0.3096866012 -0.1466271728 0.5535302162 4292452656
-0.3092765510 -0.1458188295 0.5527973175 4292584242
-0.3093419969 -0.1452353597 0.5529143214 4292584242
-0.3094072044 -0.1446515173 0.5530308485 4292584242
-0.3094721735 -0.1440673023 0.5531469584 4292584242
-0.3100131154 -0.1437034756 0.5541138649 4292584242
-0.3100777268 -0.1431176364 0.5542293191 4292584242
-0.3101420999 -0.1425314248 0.5543443561 4292650035
-0.3097296953 -0.1417268068 0.5536072850 4292650035
-0.3097935021 -0.1411407739 0.5537213087 4292519219
-0.3098570406 -0.1405543685 0.5538348556 4292519219
-0.3103971481 -0.1401829571 0.5548002720 4292585012
-0.3099834323 -0.1393804997 0.5540607572 4292585012
-0.3100462556 -0.1387930214 0.5541731119 4292585012
-0.3096317649 -0.1379925758 0.5534322262 4292585012
-0.3096940219 -0.1374052912 0.5535435081 4292585012
-0.3097560406 -0.1368176490 0.5536543131 4292650805
-0.3098178208 -0.1362296641 0.5537647605 4292650805
-0.3098793328 -0.1356413364 0.5538747311 4292650805
-0.3094630539 -0.1348445565 0.5531306863 4292716598
-0.3095240295 -0.1342564225 0.5532396436 4292848184
-0.3095847368 -0.1336679459 0.5533481240 4292848184
-0.3091673553 -0.1328737587 0.5526021123 4292848184
-0.3092274964 -0.1322854906 0.5527095795 4292782904
-0.3092873693 -0.1316968948 0.5528166294 4292782904
-0.3093470037 -0.1311079562 0.5529232621 4292848182
-0.3094063997 -0.1305186749 0.5530294180 4292913975
-0.3094655573 -0.1299290508 0.5531351566 4292913975
-0.3090460896 -0.1291391999 0.5523853898 4292979768
-0.3091046512 -0.1285498142 0.5524900556 4293046076
-0.3091629744 -0.1279601008 0.5525943041 4293111869
-0.3092210591 -0.1273700446 0.5526981354 4293111869
-0.3092788756 -0.1267796755 0.5528014898 4293177662
-0.3093364835 -0.1261889637 0.5529044271 4292914747
-0.3093938231 -0.1255979240 0.5530068874 4293243712
-0.3094508946 -0.1250065565 0.5531089306 4293310275
-0.3095077276 -0.1244148538 0.5532105565 4293376068
-0.3095643222 -0.1238228381 0.5533117056 4293441863
-0.3091413975 -0.1230397299 0.5525557399 4293507656
-0.3091973960 -0.1224479824 0.5526558161 4293507656
-0.3087736964 -0.1216669902 0.5518984795 4293507656
-0.3088290989 -0.1210755184 0.5519975424 4293508167
-0.3088842630 -0.1204837263 0.5520961881 4293639753
-0.3084594607 -0.1197054535 0.5513368845 4293836367
-0.3085140586 -0.1191139519 0.5514344573 4293836367
-0.3085683882 -0.1185221374 0.5515315533 4293770834
