VERSION 0.7
FIELDS x y z rgba
SIZE 4 4 4 4
TYPE F F F U
COUNT 1 1 1 1
WIDTH 920
HEIGHT 1
VIEWPOINT 0.0 0.0 0.0 1.0 0.0 0.0 0.0
POINTS 920
DATA ascii
-0.3052480817 -0.1129117832 0.5510667562 4294102121
-0.3057765067 -0.1124939099 0.5520207286 4293970533
-0.3063048124 -0.1120738834 0.5529745221 4293707361
-0.3068330586 -0.1116517112 0.5539281368 4294100571
-0.3073611856 -0.1112273782 0.5548815727 4294166364
-0.3078892231 -0.1108008921 0.5558348298 4294101341
-0.3079397380 -0.1102013960 0.5559260249 4294101341
-0.3084675074 -0.1097715273 0.5568788052 4294166623
-0.3085175753 -0.1091705188 0.5569692254 4294100830
-0.3090450466 -0.1087372750 0.5579214692 4294362720
-0.3090946972 -0.1081347466 0.5580110550 4294362720
-0.3096218705 -0.1076981351 0.5589628220 4294362722
-0.3101489544 -0.1072593629 0.5599143505 4294296929
-0.3106759191 -0.1068184450 0.5608656406 4294035297
-0.3107247353 -0.1062119678 0.5609537959 4293903711
-0.3112514019 -0.1057676747 0.5619046092 4293772893
-0.3117779493 -0.1053212360 0.5628551841 4293838686
-0.3118261099 -0.1047120392 0.5629421473 4293773146
-0.3123523593 -0.1042622253 0.5638921857 4293575767
-0.3128784895 -0.1038102657 0.5648419857 4293444179
-0.3134045005 -0.1033561528 0.5657916069 4292786249
-0.3139303923 -0.1028998941 0.5667409897 4291735630
-0.3144561350 -0.1024414822 0.5676901340 4291472458
-0.3145030737 -0.1018259376 0.5677748919 4290357624
-0.3159860373 -0.1016722620 0.5704520941 4290357624
-0.3165114820 -0.1012064591 0.5714007020 4289440675
-0.3127844632 -0.1869696081 0.5658067465 4291267347
-0.3124006391 -0.1861122996 0.5651124120 4291201554
-0.3124813735 -0.1855323464 0.5652584434 4291005204
-0.3120967746 -0.1846767366 0.5645627379 4290873618
-0.3113262355 -0.1829693317 0.5631688833 4291071003
-0.3114057779 -0.1823901981 0.5633127689 4291070746
-0.3110194802 -0.1815388501 0.5626140237 4291070746
-0.3110984862 -0.1809596866 0.5627568960 4291136539
-0.3107114136 -0.1801100671 0.5620567203 4291202332
-0.3107898533 -0.1795308888 0.5621986389 4291136539
-0.3108681142 -0.1789512783 0.5623401403 4291202332
-0.3104799390 -0.1781038195 0.5616379976 4291333918
-0.3105576336 -0.1775242090 0.5617785454 4291333918
-0.3106350899 -0.1769441664 0.5619186759 4291398939
-0.3107123673 -0.1763636768 0.5620584488 4291398939
-0.3103227615 -0.1755188257 0.5613536835 4291398939
-0.3099327087 -0.1746753007 0.5606480837 4291398939
-0.3100090623 -0.1740952730 0.5607862473 4291333146
-0.3100852370 -0.1735148132 0.5609239936 4291333146
-0.3096940815 -0.1726734936 0.5602164268 4291202332
-0.3097696900 -0.1720930636 0.5603532195 4291268125
-0.3098450899 -0.1715122014 0.5604895949 4291333918
-0.3094528019 -0.1706731021 0.5597800016 4291333918
-0.3095276654 -0.1700922847 0.5599153638 4291399711
-0.3091346025 -0.1692549735 0.5592043996 4291465504
-0.3092088997 -0.1686741859 0.5593388081 4291531297
-0.3088150620 -0.1678386778 0.5586263537 4291531297
-0.3084208071 -0.1670045108 0.5579131842 4291531297
-0.3084942102 -0.1664242297 0.5580459833 4291531297
-0.3080991805 -0.1655918807 0.5573313236 4291597090
-0.3077036738 -0.1647608876 0.5566159487 4291597090
-0.3077762127 -0.1641811281 0.5567471385 4291662883
-0.3078485131 -0.1636009663 0.5568779111 4291662883
-0.3079206049 -0.1630204022 0.5570083261 4291728676
-0.3075236678 -0.1621921808 0.5562902689 4291728676
-0.3075951934 -0.1616116762 0.5564196706 4291794469
-0.3076664805 -0.1610307842 0.5565486550 4291794469
-0.3077375591 -0.1604494750 0.5566772223 4291794469
-0.3078084290 -0.1598677635 0.5568054318 4291794469
-0.3078790605 -0.1592856497 0.5569331646 4291860262
-0.3079494536 -0.1587031484 0.5570605397 4291926055
-0.3075501025 -0.1578792036 0.5563381314 4291991848
-0.3076199293 -0.1572967768 0.5564644337 4292057641
-0.3076895475 -0.1567139775 0.5565903783 4291926055
-0.3077589571 -0.1561307609 0.5567159057 4291926055
-0.3078281283 -0.1555471569 0.5568410158 4291991848
-0.3074269891 -0.1547265798 0.5561153889 4291991848
-0.3074955940 -0.1541430801 0.5562394857 4292057641
-0.3075639606 -0.1535591930 0.5563631654 4292057641
-0.3076320887 -0.1529749185 0.5564864278 4292123434
-0.3077000082 -0.1523902565 0.5566092730 4292123434
-0.3072971106 -0.1515730917 0.5558804870 4292123434
-0.3073644638 -0.1509885639 0.5560023189 4292123434
-0.3074315786 -0.1504036337 0.5561237335 4292123434
-0.3074984550 -0.1498183310 0.5562446713 4292123434
-0.3070940971 -0.1490041167 0.5555132627 4292189227
-0.3071604371 -0.1484189481 0.5556332469 4292189227
-0.3072265089 -0.1478333920 0.5557527542 4292189227
-0.3072923720 -0.1472474784 0.5558719039 4292189227
-0.3073579967 -0.1466611773 0.5559906363 4292255020
-0.3074233830 -0.1460744888 0.5561088920 4292255020
-0.3074885309 -0.1454874426 0.5562267303 4292320813
-0.3075534701 -0.1449000239 0.5563442111 4292386606
-0.3076181412 -0.1443122327 0.5564612150 4292386606
-0.3076825738 -0.1437240690 0.5565778017 4292386606
-0.3077467978 -0.1431355327 0.5566939116 4292452399
-0.3073386550 -0.1423280090 0.5559556484 4292386606
-0.3074023128 -0.1417396367 0.5560707450 4292517422
-0.3074657023 -0.1411509067 0.5561854839 4292583215
-0.3075288832 -0.1405618191 0.5562996864 4292452399
-0.3075917959 -0.1399723589 0.5564135313 4292452399
-0.3071818948 -0.1391684413 0.5556720495 4292452399
-0.3072442412 -0.1385791749 0.5557848215 4292518192
-0.3073063493 -0.1379895508 0.5558971763 4292518192
-0.3068953454 -0.1371881813 0.5551537275 4292518192
-0.3064839244 -0.1363882720 0.5544094443 4292518449
-0.3065451086 -0.1357993931 0.5545201898 4292518449
-0.3066060841 -0.1352101713 0.5546304584 4292584242
-0.3061935306 -0.1344128400 0.5538842082 4292584242
-0.3057805896 -0.1336169839 0.5531371832 4292584242
-0.3058406413 -0.1330285221 0.5532457829 4292650035
-0.3054269254 -0.1322347075 0.5524973869 4292519219
-0.3054863811 -0.1316464692 0.5526049733 4292585012
-0.3055456281 -0.1310579032 0.5527121425 4292585010
-0.3056046069 -0.1304689795 0.5528188348 4292585010
-0.3056633472 -0.1298797131 0.5529251099 4292650803
-0.3057218492 -0.1292901188 0.5530309081 4292716596
-0.3057801127 -0.1287001818 0.5531363487 4292716596
-0.3053639531 -0.1279112846 0.5523835421 4292782389
-0.3054216206 -0.1273216009 0.5524878502 4292717109
-0.3054790795 -0.1267315745 0.5525917411 4292782902
-0.3050618172 -0.1259453446 0.5518369675 4292717368
-0.3046441674 -0.1251606196 0.5510814190 4292717368
-0.3047006726 -0.1245714277 0.5511837006 4292914490
-0.3047569394 -0.1239819154 0.5512855053 4292980283
-0.3043381870 -0.1231998801 0.5505279899 4292914747
-0.3043938875 -0.1226106435 0.5506287217 4292980540
-0.3039743602 -0.1218307167 0.5498698354 4293046333
-0.3040294945 -0.1212417483 0.5499695539 4293046333
-0.3040843606 -0.1206524596 0.5500687957 4292916797
-0.3041389585 -0.1200628579 0.5501676202 4293048383
-0.3041933477 -0.1194729358 0.5502659678 4293245763
-0.3042474687 -0.1188827008 0.5503638387 4293377349
-0.3043013513 -0.1182921454 0.5504612923 4293377612
-0.3043549657 -0.1177012846 0.5505583286 4293640784
-0.3044083416 -0.1171101108 0.5506548882 4294035037
-0.3039857447 -0.1163365617 0.5498903990 4294232416
-0.3040385246 -0.1157456934 0.5499858856 4294562161
-0.3040910661 -0.1151545122 0.5500809550 4294957433
-0.3041433692 -0.1145630330 0.5501755476 4294958466
-0.3041954041 -0.1139712408 0.5502696633 4294958723
-0.3047233224 -0.1135565862 0.5512246490 4294958466
-0.3047749400 -0.1129632667 0.5513179898 4294891902
-0.3048262894 -0.1123696417 0.5514109135 4294431603
-0.3053537607 -0.1119503751 0.5523650646 4293971052
-0.3054046929 -0.1113552302 0.5524572134 4294035291
-0.3064084351 -0.1111053675 0.5542728901 4294101084
-0.3069356084 -0.1106796339 0.5552265644 4293970525
-0.3069860339 -0.1100808084 0.5553177595 4293970525
-0.3075129390 -0.1096516997 0.5562708974 4293969757
-0.3075628877 -0.1090513542 0.5563612580 4293903964
-0.3080895245 -0.1086188629 0.5573139191 4294100320
-0.3081390560 -0.1080170050 0.5574035048 4294034527
-0.3086653948 -0.1075811386 0.5583556294 4294363238
-0.3091916144 -0.1071431190 0.5593075156 4294231652
-0.3097177446 -0.1067029461 0.5602592230 4294036067
-0.3097664416 -0.1060971394 0.5603473186 4293838688
-0.3102922738 -0.1056535989 0.5612984896 4293838941
-0.3103405237 -0.1050462872 0.5613858104 4294036320
-0.3108660579 -0.1045993716 0.5623364449 4294232157
-0.3113914430 -0.1041503102 0.5632868409 4294297950
-0.3119167387 -0.1036990881 0.5642370582 4293773406
-0.3124418855 -0.1032457203 0.5651870370 4293247062
-0.3129669130 -0.1027901992 0.5661367774 4292654924
-0.3130139709 -0.1021765321 0.5662218928 4292260166
-0.3135386705 -0.1017176509 0.5671710372 4291145063
-0.3145413101 -0.1014107317 0.5689847469 4291013477
-0.3169782162 -0.1015593410 0.5733929873 4289636758
-0.3131380379 -0.1881884336 0.5675867200 4290807831
-0.3122914433 -0.1870507151 0.5660521984 4291134997
-0.3123724461 -0.1864701509 0.5661990047 4291134997
-0.3119889796 -0.1856129169 0.5655039549 4290676763
-0.3120694458 -0.1850323230 0.5656498075 4290676763
-0.3116852045 -0.1841767877 0.5649533272 4291069974
-0.3108358681 -0.1830489188 0.5634138584 4291069974
-0.3109153509 -0.1824695617 0.5635579228 4291135767
-0.3105297387 -0.1816178858 0.5628589392 4291135767
-0.3106086850 -0.1810385138 0.5630020499 4291201560
-0.3102222979 -0.1801885664 0.5623016953 4291267353
-0.3098354936 -0.1793399006 0.5616005659 4291333146
-0.3099135458 -0.1787609458 0.5617420673 4291398939
-0.3099913895 -0.1781815588 0.5618831515 4291333146
-0.3100690246 -0.1776017398 0.5620238781 4291398939
-0.3101464510 -0.1770214736 0.5621641874 4291464732
-0.3102236390 -0.1764407754 0.5623041391 4291398939
-0.3098347187 -0.1755955964 0.5615991950 4291398939
-0.3094453514 -0.1747517288 0.5608934164 4291398939
-0.3095216751 -0.1741714925 0.5610317588 4291268123
-0.3095977902 -0.1735908240 0.5611696839 4291268123
-0.3096736670 -0.1730097234 0.5613072515 4291398939
-0.3092828691 -0.1721685082 0.5605989099 4291398939
-0.3093582094 -0.1715874374 0.5607354641 4291464732
-0.3089666069 -0.1707480103 0.5600256920 4291464732
-0.3090414107 -0.1701669693 0.5601612329 4291530525
-0.3091159761 -0.1695854962 0.5602964163 4291530525
-0.3087233007 -0.1687483191 0.5595846176 4291465502
-0.3083301485 -0.1679124832 0.5588719845 4291465502
-0.3079365492 -0.1670779884 0.5581585765 4291531295
-0.3075425327 -0.1662448347 0.5574443936 4291465502
-0.3076155484 -0.1656648070 0.5575767756 4291465502
-0.3072207570 -0.1648334712 0.5568611622 4291531295
-0.3072932363 -0.1642534882 0.5569925308 4291597088
-0.3073654771 -0.1636731178 0.5571234822 4291597088
-0.3074375093 -0.1630923152 0.5572540164 4291662881
-0.3070412576 -0.1622637659 0.5565358400 4291662881
-0.3071127534 -0.1616830528 0.5566653609 4291793699
-0.3071840107 -0.1611019224 0.5567945242 4291859492
-0.3072550297 -0.1605203897 0.5569232702 4291925285
-0.3073258400 -0.1599384546 0.5570516586 4291991078
-0.3069278300 -0.1591131985 0.5563302040 4292056869
-0.3069980741 -0.1585313529 0.5564575195 4292056869
-0.3070681095 -0.1579491049 0.5565844774 4291926053
-0.3071379066 -0.1573664695 0.5567109585 4291991846
-0.3072074652 -0.1567834318 0.5568370819 4292057639
-0.3068076968 -0.1559615135 0.5561124682 4291991846
-0.3068766892 -0.1553785801 0.5562375188 4291991845
-0.3069454730 -0.1547952443 0.5563622117 4291991845
-0.3070140481 -0.1542115211 0.5564864874 4291991845
-0.3070823550 -0.1536274105 0.5566102862 4292057638
-0.3066807985 -0.1528088897 0.5558824539 4292058151
-0.3067485690 -0.1522248983 0.5560052991 4292058151
-0.3063462675 -0.1514082998 0.5552760363 4292188457
-0.3068834245 -0.1510557532 0.5562496781 4292254250
-0.3069504797 -0.1504705995 0.5563712716 4292254250
-0.3070173264 -0.1498850584 0.5564924479 4292254250
-0.3066136837 -0.1490705013 0.5557608008 4292123434
-0.3066799641 -0.1484851092 0.5558809042 4292189227
-0.3067460060 -0.1478993148 0.5560005903 4292189227
-0.3068118095 -0.1473131627 0.5561199188 4292189227
-0.3068773746 -0.1467266232 0.5562387705 4292255020
-0.3069427311 -0.1461397260 0.5563572049 4292320813
-0.3070078492 -0.1455524415 0.5564752221 4292255277
-0.3066017330 -0.1447424442 0.5557391644 4292255277
-0.3066662848 -0.1441553086 0.5558561087 4292255277
-0.3067305982 -0.1435678154 0.5559726954 4292321070
-0.3067946434 -0.1429799497 0.5560888052 4292321070
-0.3068584800 -0.1423917115 0.5562044978 4292321070
-0.3064506352 -0.1415852904 0.5554652214 4292321324
-0.3065138757 -0.1409972310 0.5555799007 4292321324
-0.3065769076 -0.1404087991 0.5556941032 4292321324
-0.3066397011 -0.1398200095 0.5558079481 4292387117
-0.3067022264 -0.1392308623 0.5559213161 4292452910
-0.3062925935 -0.1384280622 0.5551788211 4292452910
-0.3063545823 -0.1378391087 0.5552911162 4292452910
-0.3064163029 -0.1372497976 0.5554030538 4292518703
-0.3060055673 -0.1364495456 0.5546585321 4292452910
-0.3055944145 -0.1356507689 0.5539132953 4292518703
-0.3056552410 -0.1350622177 0.5540235043 4292649776
-0.3057158291 -0.1344732940 0.5541333556 4292649776
-0.3053035736 -0.1336771101 0.5533860922 4292649778
-0.3053635657 -0.1330884099 0.5534948707 4292715571
-0.3049505353 -0.1322942674 0.5527462363 4292781364
-0.3050099909 -0.1317057908 0.5528539419 4292781364
-0.3050691783 -0.1311169714 0.5529612303 4292519219
-0.3051281273 -0.1305278093 0.5530681014 4292650805
-0.3051868379 -0.1299383044 0.5531744957 4292650805
-0.3052452803 -0.1293484569 0.5532804728 4292650805
-0.3053035140 -0.1287582815 0.5533860326 4292782391
-0.3048880696 -0.1279690564 0.5526329875 4292782391
-0.3049457073 -0.1273791194 0.5527374148 4292717111
-0.3050031066 -0.1267888397 0.5528414845 4292782904
-0.3041128516 -0.1258063167 0.5512278676 4292782904
-0.3041695952 -0.1252172142 0.5513306856 4292782904
-0.3042260706 -0.1246277913 0.5514330268 4292848697
-0.3042823076 -0.1240380332 0.5515350103 4292914490
-0.3038642406 -0.1232556626 0.5507772565 4292980283
-0.3039199114 -0.1226661727 0.5508781075 4292980283
-0.3035010993 -0.1218859106 0.5501189828 4292980540
-0.3035561740 -0.1212967038 0.5502188206 4292980540
-0.3036110103 -0.1207071692 0.5503182411 4293177400
-0.3036655784 -0.1201173142 0.5504171252 4293374779
-0.3037199378 -0.1195271462 0.5505156517 4293113927
-0.3037739992 -0.1189366579 0.5506137013 4293113927
-0.3038278520 -0.1183458641 0.5507112741 4293180493
-0.3038814366 -0.1177547500 0.5508083701 4293377872
-0.3034598827 -0.1169802547 0.5500442982 4293771604
-0.3035129011 -0.1163894385 0.5501403809 4294297948
-0.3035656512 -0.1157983243 0.5502359867 4294496620
-0.3031429946 -0.1150266007 0.5494699478 4294958199
-0.3031951785 -0.1144357920 0.5495644808 4294895248
-0.3037224114 -0.1140231192 0.5505201221 4294961812
-0.3037741482 -0.1134307757 0.5506139398 4294962846
-0.3038256764 -0.1128381342 0.5507072806 4294831260
-0.3043524623 -0.1124208421 0.5516621470 4294698645
-0.3044035435 -0.1118266732 0.5517547131 4294369680
-0.3049300611 -0.1114059985 0.5527091026 4294235245
-0.3054564893 -0.1109831706 0.5536633134 4293972073
-0.3059828281 -0.1105581895 0.5546173453 4294101343
-0.3060331345 -0.1099600419 0.5547084808 4294035550
-0.3065591753 -0.1095316783 0.5556620359 4294362720
-0.3066090345 -0.1089320108 0.5557523966 4294362720
-0.3071348071 -0.1085002646 0.5567054152 4294231134
-0.3071842492 -0.1078990847 0.5567949414 4294165341
-0.3077097237 -0.1074639633 0.5577474236 4294100569
-0.3082351089 -0.1070266962 0.5586997271 4294100569
-0.3087603748 -0.1065872684 0.5596518517 4293969244
-0.3088089824 -0.1059821323 0.5597399473 4293969244
-0.3093339503 -0.1055393368 0.5606914759 4293903713
-0.3098588288 -0.1050943807 0.5616428256 4294166885
-0.3099067807 -0.1044865325 0.5617297888 4294103140
-0.3104313314 -0.1040382087 0.5626806021 4294300519
-0.3109557629 -0.1035877317 0.5636311769 4294168163
-0.3114801049 -0.1031351089 0.5645815134 4293707612
-0.3120042980 -0.1026803330 0.5655316710 4293311825
-0.3125283718 -0.1022234038 0.5664815903 4292785481
-0.3130522966 -0.1017643213 0.5674312711 4291998034
-0.3140534163 -0.1014572755 0.5692458749 4291669069
-0.3155318797 -0.1012994573 0.5719257593 4290292345
-0.3165330887 -0.1009834260 0.5737404823 4290160759
-0.3121798337 -0.1879910082 0.5669913292 4290807574
-0.3131876886 -0.1879659444 0.5688218474 4291069203
-0.3118787706 -0.1865509897 0.5664445162 4291134996
-0.3114959598 -0.1856934428 0.5657492280 4290807831
-0.3115763664 -0.1851126254 0.5658953190 4290742038
-0.3111928105 -0.1842567623 0.5651986003 4290939158
-0.3103448749 -0.1831284463 0.5636585951 4290939158
-0.3104242980 -0.1825488806 0.5638028383 4291004951
-0.3100393713 -0.1816968769 0.5631037354 4291004951
-0.3101182580 -0.1811172962 0.5632470250 4291201560
-0.3097325563 -0.1802670062 0.5625464916 4291201560
-0.3098108768 -0.1796874106 0.5626887679 4291267353
-0.3094244003 -0.1788388491 0.5619868040 4291267353
-0.3095022142 -0.1782592386 0.5621281266 4291267353
-0.3095797896 -0.1776792109 0.5622690320 4291267353
-0.3096571565 -0.1770987362 0.5624095201 4291267353
-0.3097343147 -0.1765178144 0.5625496507 4291267353
-0.3098112345 -0.1759364754 0.5626893640 4291333146
-0.3094226718 -0.1750914007 0.5619836450 4291333146
-0.3090336323 -0.1742476523 0.5612770915 4291398939
-0.3091096878 -0.1736667603 0.5614151955 4291333146
-0.3091855347 -0.1730854511 0.5615529418 4291398939
-0.3092611432 -0.1725037098 0.5616903305 4291398939
-0.3088707030 -0.1716626137 0.5609811544 4291398939
-0.3084797859 -0.1708228588 0.5602711439 4291464732
-0.3085545301 -0.1702415943 0.5604069233 4291464732
-0.3086290359 -0.1696599126 0.5605422854 4291530525
-0.3082370162 -0.1688223928 0.5598302484 4291530525
-0.3078445792 -0.1679862291 0.5591174960 4291530525
-0.3079182208 -0.1674050391 0.5592512488 4291530525
-0.3075249791 -0.1665706784 0.5585370064 4291464732
-0.3071312904 -0.1657376736 0.5578219891 4291465502
-0.3072040677 -0.1651570052 0.5579541326 4291531295
-0.3072766066 -0.1645759195 0.5580859184 4291531295
-0.3073489070 -0.1639944315 0.5582172275 4291597088
-0.3069537878 -0.1631641835 0.5574995875 4291662881
-0.3070255518 -0.1625827700 0.5576299429 4291662881
-0.3066296577 -0.1617543548 0.5569109321 4291793699
-0.3067008853 -0.1611730158 0.5570402741 4291859492
-0.3067718446 -0.1605912596 0.5571691394 4291859492
-0.3068425953 -0.1600091010 0.5572976470 4291991078
-0.3064453006 -0.1591835171 0.5565760732 4292056871
-0.3065154850 -0.1586014479 0.5567035675 4292056871
-0.3065854609 -0.1580189764 0.5568306446 4291926053
-0.3066551983 -0.1574361026 0.5569573045 4291860260
-0.3067247272 -0.1568528414 0.5570836067 4291926053
-0.3063256443 -0.1560305953 0.5563587546 4291926053
-0.3063946068 -0.1554474235 0.5564839840 4291991846
-0.3064633310 -0.1548638642 0.5566088557 4291991846
-0.3065318465 -0.1542799175 0.5567332506 4292057639
-0.3066001236 -0.1536955684 0.5568572879 4292057639
-0.3061992824 -0.1528767198 0.5561292171 4292057639
-0.3062669933 -0.1522925049 0.5562522411 4292057639
-0.3058653474 -0.1514755636 0.5555227399 4292057641
-0.3059325218 -0.1508914530 0.5556447506 4292123434
-0.3064687550 -0.1505375057 0.5566186905 4292123434
-0.3065355718 -0.1499517411 0.5567399859 4292123434
-0.3061325848 -0.1491368413 0.5560081005 4292123434
-0.3061988354 -0.1485512108 0.5561284423 4292189227
-0.3062648177 -0.1479652077 0.5562483072 4292189227
-0.3063305914 -0.1473788172 0.5563677549 4292189227
-0.3063961267 -0.1467920393 0.5564867854 4292255020
-0.3064614236 -0.1462049037 0.5566053391 4292320813
-0.3060563505 -0.1453940421 0.5558696389 4292320813
-0.3061210811 -0.1448070556 0.5559872389 4292320813
-0.3061855733 -0.1442196965 0.5561043620 4292255277
-0.3057794273 -0.1434113234 0.5553666949 4292321070
-0.3058433533 -0.1428241283 0.5554828048 4292321070
-0.3059070408 -0.1422365606 0.5555984378 4292321070
-0.3059704900 -0.1416486204 0.5557137132 4292321324
-0.3060337007 -0.1410603225 0.5558285117 4292321324
-0.3060967028 -0.1404716671 0.5559428930 4292321324
-0.3061594367 -0.1398826391 0.5560568571 4292387117
-0.3057508171 -0.1390789598 0.5553147793 4292452910
-0.3058130145 -0.1384901106 0.5554276705 4292452910
-0.3054036200 -0.1376884431 0.5546841621 4292452910
-0.3059366345 -0.1373113692 0.5556522012 4292518703
-0.3055265844 -0.1365107894 0.5549075007 4292518703
-0.3051161170 -0.1357116699 0.5541619658 4292518703
-0.3051769137 -0.1351228803 0.5542723536 4292518703
-0.3052374423 -0.1345337182 0.5543823242 4292518703
-0.3048259020 -0.1337371916 0.5536348224 4292584242
-0.3048858643 -0.1331482530 0.5537437797 4292650035
-0.3044735491 -0.1323537678 0.5529949069 4292650035
-0.3045329452 -0.1317650527 0.5531027317 4292584242
-0.3045920730 -0.1311759949 0.5532101989 4292585012
-0.3046509922 -0.1305865943 0.5533171892 4292585012
-0.3047096729 -0.1299968511 0.5534237623 4292585012
-0.3047680855 -0.1294067651 0.5535298586 4292650805
-0.3048262596 -0.1288163364 0.5536355376 4292716598
-0.3044115305 -0.1280267686 0.5528822541 4292716598
-0.3044691086 -0.1274365932 0.5529868603 4292716598
-0.3040536046 -0.1266491115 0.5522322059 4292782391
-0.3036376834 -0.1258631349 0.5514767766 4292782391
-0.3036943674 -0.1252737790 0.5515797138 4292848184
-0.3032776713 -0.1244898960 0.5508229136 4292782904
-0.3033337891 -0.1239008158 0.5509248376 4292848697
-0.3033896685 -0.1233114004 0.5510263443 4292914490
-0.3029718995 -0.1225302145 0.5502675772 4292980283
-0.3030271828 -0.1219410747 0.5503679514 4293046076
-0.3030822277 -0.1213516146 0.5504679084 4293046076
-0.3031370044 -0.1207618341 0.5505674481 4292980280
-0.3031915724 -0.1201717407 0.5506665111 4293177659
-0.3032458723 -0.1195813194 0.5507651567 4292917061
-0.3032999039 -0.1189905852 0.5508633256 4292917061
-0.3033537269 -0.1183995381 0.5509610176 4293048905
-0.3034072816 -0.1178081781 0.5510582924 4293180491
-0.3029864132 -0.1170333475 0.5502939224 4293574738
-0.3030394018 -0.1164422855 0.5503901243 4294101082
-0.3030921221 -0.1158509180 0.5504859090 4294431602
-0.3031445742 -0.1152592376 0.5505812168 4294958460
-0.3027223349 -0.1144878045 0.5498142838 4294764436
-0.3027742207 -0.1138964370 0.5499085188 4294962586
-0.3033004999 -0.1134823635 0.5508643985 4294963622
-0.3033519685 -0.1128894687 0.5509578586 4294963622
-0.3034031689 -0.1122962683 0.5510508418 4294963105
-0.3034541309 -0.1117027774 0.5511434078 4294765469
-0.3039798141 -0.1112828553 0.5520981550 4294960259
-0.3049804568 -0.1110337302 0.5539155602 4294565244
-0.3050308824 -0.1104365513 0.5540071726 4294299237
-0.3055562675 -0.1100101694 0.5549613833 4293838686
-0.3056062758 -0.1094114706 0.5550522208 4294231389
-0.3056560159 -0.1088124737 0.5551425219 4294231389
-0.3057055175 -0.1082131937 0.5552324057 4294165343
-0.3062302470 -0.1077809781 0.5561854839 4294165343
-0.3067548871 -0.1073466092 0.5571383238 4294035291
-0.3072794080 -0.1069100872 0.5580910444 4294035291
-0.3078038394 -0.1064714044 0.5590435266 4294035037
-0.3078523278 -0.1058669463 0.5591315627 4293969244
-0.3083764613 -0.1054248959 0.5600835085 4293969504
-0.3084245026 -0.1048189327 0.5601707697 4294166883
-0.3089483380 -0.1043735072 0.5611221790 4294233956
-0.3094720542 -0.1039259359 0.5620733500 4294497128
-0.3099956512 -0.1034762040 0.5630243421 4294694246
-0.3105190992 -0.1030243188 0.5639750361 4294102109
-0.3115187883 -0.1027273610 0.5657907128 4293641044
-0.3120420873 -0.1022702381 0.5667411685 4293180493
-0.3125652671 -0.1018109620 0.5676913857 4292588880
-0.3135648668 -0.1015037894 0.5695068836 4292194122
-0.3150410950 -0.1013459116 0.5721880198 4290882918
-0.3160407841 -0.1010297462 0.5740036964 4290619746
-0.3116034269 -0.1886532754 0.5670883656 4290741527
-0.3116848767 -0.1880723387 0.5672366023 4290675734
-0.3126912117 -0.1880472898 0.5690680146 4290938130
-0.3113844097 -0.1866317838 0.5666897893 4291003923
-0.3110022843 -0.1857738942 0.5659943819 4290742291
-0.3106197119 -0.1849172860 0.5652981400 4290808084
-0.3106997609 -0.1843366772 0.5654437542 4290873365
-0.3098532557 -0.1832079142 0.5639032125 4290873365
-0.3099326193 -0.1826281399 0.5640476346 4290939158
-0.3095483482 -0.1817757934 0.5633483529 4291004951
-0.3096271753 -0.1811960042 0.5634918213 4291135767
-0.3092421591 -0.1803453863 0.5627911091 4291201560
-0.3093204498 -0.1797655821 0.5629335642 4291201560
-0.3093985021 -0.1791853309 0.5630756617 4291135767
-0.3090123832 -0.1783368737 0.5623729229 4291201560
-0.3090898991 -0.1777566224 0.5625140071 4291135767
-0.3091672063 -0.1771759391 0.5626547337 4291135769
-0.3092443049 -0.1765948087 0.5627950430 4291201562
-0.3093211949 -0.1760132462 0.5629349351 4291267355
-0.3089332879 -0.1751678437 0.5622289777 4291267355
-0.3090096414 -0.1745862961 0.5623679161 4291333148
-0.3086209595 -0.1737426519 0.5616605878 4291333148
-0.3086967468 -0.1731611192 0.5617985129 4291333148
-0.3087723255 -0.1725791693 0.5619360209 4291333148
-0.3088476658 -0.1719967723 0.5620731711 4291333148
-0.3084575534 -0.1711558104 0.5613631606 4291398941
-0.3080669940 -0.1703161746 0.5606524348 4291398941
-0.3081414700 -0.1697342694 0.5607879162 4291464734
-0.3077501357 -0.1688964218 0.5600757599 4291464732
-0.3078240454 -0.1683145612 0.5602102876 4291464732
-0.3074319363 -0.1674785167 0.5594967008 4291464732
-0.3075053096 -0.1668967009 0.5596302152 4291464732
-0.3071124256 -0.1660624743 0.5589151978 4291596318
-0.3067191243 -0.1652295887 0.5581994057 4291662111
-0.3067916036 -0.1646482944 0.5583313107 4291662111
-0.3068638742 -0.1640665829 0.5584627986 4291727904
-0.3069359064 -0.1634844691 0.5585939288 4291793697
-0.3065411448 -0.1626543701 0.5578755140 4291793697
-0.3061459363 -0.1618256271 0.5571562648 4291793699
-0.3062171042 -0.1612440497 0.5572857857 4291793699
-0.3062880337 -0.1606620848 0.5574148893 4291859492
-0.3063587546 -0.1600797027 0.5575435758 4291991078
-0.3059621155 -0.1592537761 0.5568217039 4291991078
-0.3060322702 -0.1586714834 0.5569493771 4292056871
-0.3061021864 -0.1580887884 0.5570766330 4291926055
-0.3057044446 -0.1572652161 0.5563527942 4291860262
-0.3057738245 -0.1566826254 0.5564790368 4291860262
-0.3058429658 -0.1560996175 0.5566048622 4291860262
-0.3059118688 -0.1555162221 0.5567303300 4291926055
-0.3055126965 -0.1546955407 0.5560038686 4291991848
-0.3055810630 -0.1541122496 0.5561282635 4291991848
-0.3056491911 -0.1535285711 0.5562522411 4291991848
-0.3057170808 -0.1529445052 0.5563758016 4292057639
-0.3057847619 -0.1523600519 0.5564989448 4292057639
-0.3053838313 -0.1515427828 0.5557692647 4292057641
-0.3054509163 -0.1509584486 0.5558913946 4292057641
-0.3055178225 -0.1503737271 0.5560131073 4292123434
-0.3055844605 -0.1497886330 0.5561344028 4292123434
-0.3056508601 -0.1492031515 0.5562552810 4292123434
-0.3057170510 -0.1486172825 0.5563757420 4292189227
-0.3057830036 -0.1480310410 0.5564957857 4292189227
-0.3053796291 -0.1472182721 0.5557616949 4292189227
-0.3054450452 -0.1466321796 0.5558806658 4292320813
-0.3055101931 -0.1460456997 0.5559992790 4292255020
-0.3051057160 -0.1452354044 0.5552631617 4292320813
-0.3051702976 -0.1446490884 0.5553807020 4292320813
-0.3052346408 -0.1440623850 0.5554978251 4292320813
-0.3052987754 -0.1434753239 0.5556145310 4292320813
-0.3048928678 -0.1426680684 0.5548757911 4292320813
-0.3049564064 -0.1420811713 0.5549914837 4292320813
-0.3050197363 -0.1414939016 0.5551066995 4292321324
-0.3050828278 -0.1409062743 0.5552214980 4292321324
-0.3051456511 -0.1403182745 0.5553358793 4292321324
-0.3052082658 -0.1397299170 0.5554497838 4292387117
-0.3052706420 -0.1391412020 0.5555632710 4292387117
-0.3048622906 -0.1383386403 0.5548201799 4292452910
-0.3049240708 -0.1377501041 0.5549325943 4292518703
-0.3049856424 -0.1371612251 0.5550446510 4292452910
-0.3045762181 -0.1363612264 0.5542995334 4292518703
-0.3046371937 -0.1357725412 0.5544105172 4292518703
-0.3042269945 -0.1349745542 0.5536639690 4292518703
-0.3042874038 -0.1343860775 0.5537739396 4292518703
-0.3043475747 -0.1337972432 0.5538834333 4292584242
-0.3039362729 -0.1330018640 0.5531349182 4292584242
-0.3039958775 -0.1324132532 0.5532433987 4292584242
-0.3040552437 -0.1318242848 0.5533514023 4292584242
-0.3041143417 -0.1312349886 0.5534589887 4292585012
-0.3037016392 -0.1304427832 0.5527078509 4292519219
-0.3037601709 -0.1298537105 0.5528144240 4292585012
-0.3038184643 -0.1292642951 0.5529205203 4292585012
-0.3038765192 -0.1286745518 0.5530261397 4292650805
-0.3039343357 -0.1280844510 0.5531313419 4292650805
-0.3035198450 -0.1272960603 0.5523770452 4292716598
-0.3035770953 -0.1267062128 0.5524812341 4292650805
-0.3031618595 -0.1259199083 0.5517255068 4292782391
-0.3032185137 -0.1253303140 0.5518286228 4292782391
-0.3028025329 -0.1245460957 0.5510715842 4292782904
-0.3028586209 -0.1239567623 0.5511736274 4292848697
-0.3024418652 -0.1231746525 0.5504152179 4292914490
-0.3024973571 -0.1225855872 0.5505162477 4292914490
-0.3025526106 -0.1219962016 0.5506168008 4292980283
-0.3026076257 -0.1214064956 0.5507168770 4292980283
-0.3026623726 -0.1208164692 0.5508165359 4293045561
-0.3027169108 -0.1202261224 0.5509157181 4293177147
-0.3027711511 -0.1196354628 0.5510144830 4292916546
-0.3023520112 -0.1188584715 0.5502516627 4292982339
-0.3028789461 -0.1184531823 0.5512106419 4292983111
-0.3029324710 -0.1178615689 0.5513080359 4293180490
-0.3025123179 -0.1170864105 0.5505434275 4293574740
-0.3025652468 -0.1164950952 0.5506397486 4294232670
-0.3026179373 -0.1159034744 0.5507356524 4294629241
-0.3026703894 -0.1153115481 0.5508310795 4294958720
-0.3022488356 -0.1145397797 0.5500639081 4294829979
-0.3023006916 -0.1139481664 0.5501582623 4294962336
-0.3023522794 -0.1133562475 0.5502521992 4294766760
-0.3028776050 -0.1129407734 0.5512082577 4294766760
-0.3029288054 -0.1123473272 0.5513013601 4294832036
-0.3029797375 -0.1117535755 0.5513940454 4294634657
-0.3030304015 -0.1111595258 0.5514863133 4294962067
-0.3040294349 -0.1109112352 0.5533044338 4294763660
-0.3040797710 -0.1103147343 0.5533960462 4294431852
-0.3046042919 -0.1098890975 0.5543506145 4293708129
-0.3051287234 -0.1094613075 0.5553050637 4294034780
-0.3051784337 -0.1088620573 0.5553954840 4294100573
-0.3052279055 -0.1082625166 0.5554855466 4294100320
-0.3052770793 -0.1076626852 0.5555750728 4294166113
-0.3058008850 -0.1072290689 0.5565283298 4293969758
-0.3063245714 -0.1067932919 0.5574813485 4294035551
-0.3068481386 -0.1063553616 0.5584341884 4294035037
-0.3073715866 -0.1059152782 0.5593868494 4294035037
-0.3074198067 -0.1053102762 0.5594745874 4294035551
-0.3074677587 -0.1047049835 0.5595618486 4294167137
-0.3079907298 -0.1042603105 0.5605136156 4294233697
-0.3089889586 -0.1039734408 0.5623303056 4294562662
-0.3095117807 -0.1035235152 0.5632817745 4294957674
-0.3095589578 -0.1029133573 0.5633676648 4294693217
-0.3105570376 -0.1026172191 0.5651840568 4294101080
-0.3110795021 -0.1021608338 0.5661348701 4293574736
-0.3116018474 -0.1017023027 0.5670855045 4293048907
-0.3125998378 -0.1013959423 0.5689017773 4292719942
-0.3140737414 -0.1012389511 0.5715841055 4291932494
-0.3150718212 -0.1009235904 0.5734005570 4291537736
-0.3165459335 -0.1007557064 0.5760833025 4290292078
-0.3175441325 -0.1004313380 0.5778998733 4290357871
-0.3121126592 -0.1887119263 0.5691655874 4290806804
-0.3108085990 -0.1872937083 0.5667875409 4290938130
-0.3104274869 -0.1864350736 0.5660924911 4291003923
-0.3100459278 -0.1855777204 0.5653967261 4290807572
-0.3101260960 -0.1849973500 0.5655429363 4290807572
-0.3097437620 -0.1841416955 0.5648456812 4290873365
-0.3093609810 -0.1832873225 0.5641476512 4290873365
-0.3094402850 -0.1827073395 0.5642922521 4290873365
-0.3090566993 -0.1818546653 0.5635927916 4290939158
-0.3092140257 -0.1806942225 0.5638796687 4291069974
-0.3092923760 -0.1801133305 0.5640225410 4291069974
-0.3089073598 -0.1792632341 0.5633204579 4291069974
-0.3089851737 -0.1786823422 0.5634623170 4291135769
-0.3090627491 -0.1781010032 0.5636038184 4291069976
-0.3091401160 -0.1775192320 0.5637449026 4291135256
-0.3087536693 -0.1766717434 0.5630401969 4291201049
-0.3088304996 -0.1760899723 0.5631802678 4291266842
-0.3084432781 -0.1752442420 0.5624741912 4291266842
-0.3085195720 -0.1746624708 0.5626132488 4291266842
-0.3085956275 -0.1740802675 0.5627520084 4291332635
-0.3082073033 -0.1732367426 0.5620438457 4291267355
-0.3082828224 -0.1726545691 0.5621815324 4291267355
-0.3083581328 -0.1720719635 0.5623188615 4291333148
-0.3084332049 -0.1714889258 0.5624557734 4291333148
-0.3080434501 -0.1706480831 0.5617449880 4291333148
-0.3076532483 -0.1698085815 0.5610334277 4291398941
-0.3077274561 -0.1692260355 0.5611687303 4291398941
-0.3078014255 -0.1686430722 0.5613036752 4291398941
-0.3074101210 -0.1678058207 0.5605900884 4291464732
-0.3074835539 -0.1672228873 0.5607239604 4291530525
-0.3070914447 -0.1663874537 0.5600090027 4291596318
-0.3071643412 -0.1658045799 0.5601418614 4291662111
-0.3067714870 -0.1649709493 0.5594254732 4291662111
-0.3068437874 -0.1643881351 0.5595573187 4291662111
-0.3064501584 -0.1635563523 0.5588395000 4291727904
-0.3065219223 -0.1629735976 0.5589703918 4291727904
-0.3061275184 -0.1621436328 0.5582512021 4291727906
-0.3061987460 -0.1615609527 0.5583810210 4291793699
-0.3062697351 -0.1609778702 0.5585104823 4291859492
-0.3058742285 -0.1601502448 0.5577892661 4291925285
-0.3059446514 -0.1595672369 0.5579177141 4291925285
-0.3055483997 -0.1587414742 0.5571950674 4291925285
-0.3056182563 -0.1581585407 0.5573225021 4291991078
-0.3052212298 -0.1573346555 0.5565984249 4291991078
-0.3052905500 -0.1567518264 0.5567248464 4291860262
-0.3053596318 -0.1561685950 0.5568508506 4291860262
-0.3054285049 -0.1555849761 0.5569764376 4291926055
-0.3050300181 -0.1547639668 0.5562497377 4291926055
-0.3050983250 -0.1541804522 0.5563743114 4291991848
-0.3051664233 -0.1535965502 0.5564984679 4291991848
-0.3052342534 -0.1530122459 0.5566222072 4292057641
-0.3053018749 -0.1524275690 0.5567455292 4292057641
-0.3049016297 -0.1516099572 0.5560156703 4292057641
-0.3049687147 -0.1510253996 0.5561379194 4292057641
-0.3050355315 -0.1504404545 0.5562598109 4292123434
-0.3046341836 -0.1496252865 0.5555279255 4292123434
-0.3047004640 -0.1490404606 0.5556488037 4292123434
-0.3047665060 -0.1484552622 0.5557692051 4292123434
-0.3048323095 -0.1478696913 0.5558891892 4292189227
-0.3048978746 -0.1472837329 0.5560088158 4292189227
-0.3049632311 -0.1466974020 0.5561279655 4292255020
-0.3045597970 -0.1458862424 0.5553922653 4292255020
-0.3046245575 -0.1453000605 0.5555103421 4292255020
-0.3042203486 -0.1444908679 0.5547732711 4292255020
-0.3042845726 -0.1439048499 0.5548903346 4292255020
-0.3043485284 -0.1433184445 0.5550070405 4292255020
-0.3039432466 -0.1425117552 0.5542678833 4292255020
-0.3040066361 -0.1419255286 0.5543835163 4292320813
-0.3040698171 -0.1413389295 0.5544987321 4292386604
-0.3041327596 -0.1407519728 0.5546135306 4292386604
-0.3041954637 -0.1401646584 0.5547278523 4292386604
-0.3042579293 -0.1395769715 0.5548417568 4292452397
-0.3043201566 -0.1389889121 0.5549552441 4292452397
-0.3039124012 -0.1381869316 0.5542117357 4292452397
-0.3039740622 -0.1375990659 0.5543241501 4292452910
-0.3040354848 -0.1370108575 0.5544361472 4292387117
-0.3040966690 -0.1364222765 0.5545477271 4292387117
-0.3036875129 -0.1356234103 0.5538015962 4292452910
-0.3037481308 -0.1350350380 0.5539121032 4292518703
-0.3038084805 -0.1344463229 0.5540221930 4292518703
-0.3033982217 -0.1336500496 0.5532740355 4292518449
-0.3034580350 -0.1330615431 0.5533831120 4292584242
-0.3030470014 -0.1322672963 0.5526335835 4292584242
-0.3031062484 -0.1316790134 0.5527415872 4292650035
-0.3031652272 -0.1310903728 0.5528491139 4292519219
-0.3032239676 -0.1305014044 0.5529562235 4292519219
-0.3032824695 -0.1299120933 0.5530629158 4292519219
-0.3033407032 -0.1293224394 0.5531691313 4292585012
-0.3033987284 -0.1287324429 0.5532749295 4292585012
-0.3029852808 -0.1279431283 0.5525209904 4292585012
-0.3030427396 -0.1273533702 0.5526257753 4292650805
-0.3026285470 -0.1265661418 0.5518704653 4292650805
-0.3022139370 -0.1257804185 0.5511143804 4292651318
-0.3022704422 -0.1251914948 0.5512174368 4292717111
-0.3023267388 -0.1246022508 0.5513200760 4292717111
-0.3019110262 -0.1238192096 0.5505620241 4292782904
-0.3019667566 -0.1232302338 0.5506635904 4292848697
-0.3015502989 -0.1224493012 0.5499041677 4292848697
-0.3016054332 -0.1218605936 0.5500047207 4292914490
-0.3016602993 -0.1212715581 0.5501047969 4292914490
-0.3017149270 -0.1206822097 0.5502043962 4293176632
-0.3017693460 -0.1200925335 0.5503035784 4293242425
-0.3018234670 -0.1195025444 0.5504023433 4293112126
-0.3018773794 -0.1189122424 0.5505006313 4293177919
-0.3019310236 -0.1183216199 0.5505984426 4293244997
-0.3019844294 -0.1177306846 0.5506958365 4293442376
-0.3020375669 -0.1171394363 0.5507927537 4293771604
-0.3020904660 -0.1165478751 0.5508892536 4294561120
-0.3016702831 -0.1157745346 0.5501229763 4294826111
-0.3017226160 -0.1151832864 0.5502184033 4294958725
-0.3017746806 -0.1145917252 0.5503133535 4294895262
-0.3018265069 -0.1139998585 0.5504078269 4294961826
-0.3018780649 -0.1134076938 0.5505018830 4294765994
-0.3019293845 -0.1128152162 0.5505954623 4294765994
-0.3019804358 -0.1122224480 0.5506886244 4294832038
-0.3020312786 -0.1116293743 0.5507812500 4294700452
-0.3025553226 -0.1112100407 0.5517368913 4294961817
-0.3030792475 -0.1107885465 0.5526923537 4294698645
-0.3036031127 -0.1103648916 0.5536476970 4294564210
-0.3036531508 -0.1097678393 0.5537388921 4293708901
-0.3041767180 -0.1093408018 0.5546936989 4293969498
-0.3042263389 -0.1087422296 0.5547841787 4293903705
-0.3042756915 -0.1081433594 0.5548741221 4293837661
-0.3047987819 -0.1077117175 0.5558280945 4293903454
-0.3053218126 -0.1072779223 0.5567818880 4293903965
-0.3058447242 -0.1068419665 0.5577354431 4293969758
-0.3058932424 -0.1062391400 0.5578239560 4294035289
-0.3064158559 -0.1057998091 0.5587769747 4294035289
-0.3064639568 -0.1051954776 0.5588647127 4294101084
-0.3069862723 -0.1047527641 0.5598171949 4294166877
-0.3070339262 -0.1041469350 0.5599040985 4294232927
-0.3080305755 -0.1038608849 0.5617215633 4294496099
-0.3085525334 -0.1034117118 0.5626733899 4294956393
-0.3090744019 -0.1029603779 0.5636250377 4294889315
-0.3091212809 -0.1023496762 0.5637105703 4294167388
-0.3101177216 -0.1020512581 0.5655276775 4293706837
-0.3111141920 -0.1017488092 0.5673447847 4293246284
-0.3116356432 -0.1012879238 0.5682957172 4292851526
-0.3131071925 -0.1011318117 0.5709791780 4292522561
-0.3145788908 -0.1009697840 0.5736629963 4292259389
-0.3155754805 -0.1006502584 0.5754803419 4291276118
-0.3110725582 -0.1890963167 0.5684201121 4290872850
-0.3106930256 -0.1882348061 0.5677266121 4290938643
-0.3116962910 -0.1882098317 0.5695598722 4290938643
-0.3103938103 -0.1867931783 0.5671798587 4290938643
-0.3100130260 -0.1859346330 0.5664840937 4290807320
-0.3096318245 -0.1850773692 0.5657874942 4290741527
-0.3097117245 -0.1844963282 0.5659335256 4291004181
-0.3093297482 -0.1836407632 0.5652354956 4290938388
-0.3094091117 -0.1830597073 0.5653805137 4290938388
-0.3090263307 -0.1822058409 0.5646811128 4290938388
-0.3086431324 -0.1813532710 0.5639808774 4291004181
-0.3087216318 -0.1807726026 0.5641242862 4291004181
-0.3087998927 -0.1801915020 0.5642673373 4291004183
-0.3088779747 -0.1796099693 0.5644100308 4291004183
-0.3084933162 -0.1787599772 0.5637071133 4291135256
-0.3085708618 -0.1781784296 0.5638487935 4291135256
-0.3086481690 -0.1775964350 0.5639900565 4291201049
-0.3087252676 -0.1770140082 0.5641309619 4291266842
-0.3083391786 -0.1761666238 0.5634254813 4291266844
-0.3079526424 -0.1753205657 0.5627191663 4291201051
-0.3080288768 -0.1747385859 0.5628584623 4291201051
-0.3081048727 -0.1741561741 0.5629973412 4291266844
-0.3081806600 -0.1735733300 0.5631358624 4291267357
-0.3077926934 -0.1727299243 0.5624269247 4291267357
-0.3078679442 -0.1721470952 0.5625643730 4291267357
-0.3079429865 -0.1715638489 0.5627014637 4291333150
-0.3075538874 -0.1707226783 0.5619905591 4291333148
-0.3076283634 -0.1701394469 0.5621266365 4291333148
-0.3072385192 -0.1693000644 0.5614142418 4291333148
-0.3073124588 -0.1687168777 0.5615493655 4291398941
-0.3073861599 -0.1681332737 0.5616840124 4291530527
-0.3069952130 -0.1672961563 0.5609696507 4291530527
-0.3075329065 -0.1669648141 0.5619521737 4291530525
-0.3066766262 -0.1658772826 0.5603874922 4291530525
-0.3067492247 -0.1652937829 0.5605201721 4291596318
-0.3063567281 -0.1644603014 0.5598029494 4291596318
-0.3064287901 -0.1638768464 0.5599346161 4291662111
-0.3060355186 -0.1630451977 0.5592160225 4291662111
-0.3056418002 -0.1622149050 0.5584965944 4291662111
-0.3057129681 -0.1616320014 0.5586265922 4291727904
-0.3057838976 -0.1610486954 0.5587562323 4291793697
-0.3058546185 -0.1604649723 0.5588854551 4291859490
-0.3054594696 -0.1596375108 0.5581634045 4291859490
-0.3050638735 -0.1588114053 0.5574405193 4291859490
-0.3051337004 -0.1582282633 0.5575681329 4291859490
-0.3047373593 -0.1574040353 0.5568438768 4291925283
-0.3048066199 -0.1568209827 0.5569704771 4291794467
-0.3044095039 -0.1559986323 0.5562447906 4291860260
-0.3049444854 -0.1556536853 0.5572223663 4291860260
-0.3045467138 -0.1548323333 0.5564954877 4291926053
-0.3046149611 -0.1542485952 0.5566202402 4291926055
-0.3046829998 -0.1536644697 0.5567445755 4291991848
-0.3047508001 -0.1530799419 0.5568684340 4292057641
-0.3048183620 -0.1524950266 0.5569919348 4292057641
-0.3044188321 -0.1516770869 0.5562618375 4291992105
-0.3044858277 -0.1510922909 0.5563843250 4291992105
-0.3045526147 -0.1505071223 0.5565063357 4291992105
-0.3041519821 -0.1496916115 0.5557742119 4292057898
-0.3042182028 -0.1491065770 0.5558952689 4292057898
-0.3042841852 -0.1485211402 0.5560158491 4292057898
-0.3043499589 -0.1479353309 0.5561360121 4292057898
-0.3044154942 -0.1473491490 0.5562557578 4292123691
-0.3040130734 -0.1465371400 0.5555204153 4292189484
-0.3040780425 -0.1459510922 0.5556390882 4292123691
-0.3036748469 -0.1451410353 0.5549023747 4292123691
-0.3037392497 -0.1445551515 0.5550200939 4292189484
-0.3038034141 -0.1439688951 0.5551373363 4292255020
-0.3033991456 -0.1431613415 0.5543985963 4292189227
-0.3034627438 -0.1425752491 0.5545148253 4292189227
-0.3035261035 -0.1419887841 0.5546305776 4292255020
-0.3035892248 -0.1414019465 0.5547459722 4292320811
-0.3031835258 -0.1405974478 0.5540046096 4292386604
-0.3032460809 -0.1400107890 0.5541189313 4292386604
-0.3033084273 -0.1394237727 0.5542328358 4292386604
-0.3033705056 -0.1388363987 0.5543462634 4292452397
-0.3034323752 -0.1382486671 0.5544592738 4292452397
-0.3034939766 -0.1376605630 0.5545718670 4292452910
-0.3035553694 -0.1370721161 0.5546840429 4292452910
-0.3031472266 -0.1362723559 0.5539382696 4292387117
-0.3032080233 -0.1356841028 0.5540493727 4292387117
-0.3032686114 -0.1350954920 0.5541600585 4292452910
-0.3028593659 -0.1342983246 0.5534122586 4292518703
-0.3029193878 -0.1337099224 0.5535219312 4292518449
-0.3025093973 -0.1329147816 0.5527727604 4292518449
-0.3025688231 -0.1323266029 0.5528813601 4292518449
-0.3026280105 -0.1317380667 0.5529894829 4292584242
-0.3026869297 -0.1311492026 0.5530971885 4292518449
-0.3027456403 -0.1305599809 0.5532044768 4292584242
-0.3028041124 -0.1299704313 0.5533112884 4292584242
-0.3028623164 -0.1293805242 0.5534176230 4292650035
-0.3024499118 -0.1285903007 0.5526641011 4292715828
-0.3025075495 -0.1280006468 0.5527694225 4292715828
-0.3025649488 -0.1274106503 0.5528742671 4292650805
-0.3021514714 -0.1266230792 0.5521187186 4292650805
-0.3017375469 -0.1258370280 0.5513623953 4292716598
-0.3017940521 -0.1252478659 0.5514656305 4292716598
-0.3018502891 -0.1246583760 0.5515683889 4292782391
-0.3014352918 -0.1238749996 0.5508100986 4292782391
-0.3014909625 -0.1232857779 0.5509117842 4292848184
-0.3010752201 -0.1225045100 0.5501521230 4292913977
-0.3011303246 -0.1219155565 0.5502527952 4292913977
-0.3011851609 -0.1213262826 0.5503529906 4292979770
-0.3012397587 -0.1207366809 0.5504527688 4293045047
-0.3012941182 -0.1201467663 0.5505520701 4293110840
-0.3013482094 -0.1195565313 0.5506509542 4292914747
-0.3014020920 -0.1189659759 0.5507493615 4293046333
-0.3014557064 -0.1183751076 0.5508473516 4293113411
-0.3015090525 -0.1177839190 0.5509448647 4293442376
-0.3015621603 -0.1171924248 0.5510419011 4293968985
-0.3016150296 -0.1166006103 0.5511385202 4294824294
-0.3011955619 -0.1158269495 0.5503720045 4294957954
-0.3012478352 -0.1152354479 0.5504675508 4294959239
-0.3012998998 -0.1146436334 0.5505626202 4294960799
-0.3013516665 -0.1140515208 0.5506572723 4294961570
-0.3014031947 -0.1134591028 0.5507514477 4294962603
-0.3014544845 -0.1128663793 0.5508451462 4294896810
-0.3015055358 -0.1122733504 0.5509383678 4294766247
-0.3015562892 -0.1116800234 0.5510311723 4294634661
-0.3016068339 -0.1110863984 0.5511234999 4294764956
-0.3026027381 -0.1108388528 0.5529433489 4294633370
-0.3026529253 -0.1102427691 0.5530350208 4294499189
-0.3031758070 -0.1098177135 0.5539905429 4293578087
-0.3032255769 -0.1092201099 0.5540814400 4293837912
-0.3037481904 -0.1087916717 0.5550364256 4293772119
-0.3037975132 -0.1081925482 0.5551264882 4293706332
-0.3038465679 -0.1075931340 0.5552161336 4293772125
-0.3043687344 -0.1071600839 0.5561702847 4293772378
-0.3048907816 -0.1067248806 0.5571242571 4293838171
-0.3054127097 -0.1062875241 0.5580779910 4294035289
-0.3054609597 -0.1056841537 0.5581661463 4294166875
-0.3059826195 -0.1052434146 0.5591193438 4294232157
-0.3060304224 -0.1046385393 0.5592067242 4294232157
-0.3065517843 -0.1041944176 0.5601593852 4294232927
-0.3070730269 -0.1037481502 0.5611118078 4294298720
-0.3075941503 -0.1032997221 0.5620640516 4294888804
-0.3081151247 -0.1028491408 0.5630161166 4294757218
-0.3086360097 -0.1023964062 0.5639678836 4294036316
-0.3091567755 -0.1019415110 0.5649194717 4293707351
-0.3101516664 -0.1016398743 0.5667374134 4293509204
-0.3116208613 -0.1014886796 0.5694220662 4293114446
-0.3126158416 -0.1011780351 0.5712401867 4292850756
-0.3136108220 -0.1008633524 0.5730583072 4292587584
-0.3150803447 -0.1006962880 0.5757435560 4292260685
-0.3160754144 -0.1003725901 0.5775618553 4292063306
-0.3170704842 -0.1000448540 0.5793801546 4290423666
-0.3185403049 -0.0998618975 0.5820658803 4290292080
-0.3118733764 -0.1906031370 0.5710424185 4290610705
-0.3105749786 -0.1891777813 0.5686650276 4291003410
-0.3129575253 -0.1899923682 0.5730274916 4291003410
-0.3116582334 -0.1885695457 0.5706484914 4290807572
-0.3103579879 -0.1871514618 0.5682677627 4290741779
-0.3095174432 -0.1860149056 0.5667287111 4290872346
-0.3091368973 -0.1851573139 0.5660319328 4290872346
-0.3092167675 -0.1845760792 0.5661781430 4290938390
-0.3088354468 -0.1837201715 0.5654799342 4290938390
-0.3089147508 -0.1831389070 0.5656251311 4290938390
-0.3085326552 -0.1822847128 0.5649255514 4290872597
-0.3081501424 -0.1814318150 0.5642251372 4290938390
-0.3082285821 -0.1808509380 0.5643687248 4290938390
-0.3083067834 -0.1802696288 0.5645120144 4291069463
-0.3083848059 -0.1796878725 0.5646548271 4291069463
-0.3084626198 -0.1791056693 0.5647972822 4291135256
-0.3080783188 -0.1782557815 0.5640936494 4291135256
-0.3081555665 -0.1776735783 0.5642350912 4291201049
-0.3082326055 -0.1770909429 0.5643761754 4291201049
-0.3083094358 -0.1765078604 0.5645168424 4291201051
-0.3079237044 -0.1756605953 0.5638105273 4291135258
-0.3079999983 -0.1750775278 0.5639502406 4291201051
-0.3076134920 -0.1742320210 0.5632425547 4291201051
-0.3072265387 -0.1733878404 0.5625340343 4291201564
-0.3073019385 -0.1728052199 0.5626720786 4291201564
-0.3073771298 -0.1722221822 0.5628097653 4291267357
-0.3074521124 -0.1716387123 0.5629470348 4291267357
-0.3075268567 -0.1710548252 0.5630838871 4291267355
-0.3071381450 -0.1702137589 0.5623721480 4291333148
-0.3072123230 -0.1696299016 0.5625080466 4291333148
-0.3072863221 -0.1690456122 0.5626434684 4291398941
-0.3073600829 -0.1684609056 0.5627785325 4291464734
-0.3069699407 -0.1676225811 0.5620641708 4291464734
-0.3070431352 -0.1670379043 0.5621982217 4291464734
-0.3066522181 -0.1662013829 0.5614824295 4291464734
-0.3062608540 -0.1653662175 0.5607658029 4291530527
-0.3063331544 -0.1647820771 0.5608982444 4291596320
-0.3059410155 -0.1639487296 0.5601802468 4291596320
-0.3060128093 -0.1633646488 0.5603116751 4291662113
-0.3056198955 -0.1625331491 0.5595922470 4291662113
-0.3056910932 -0.1619491279 0.5597226620 4291727906
-0.3057621121 -0.1613647044 0.5598526597 4291727906
-0.3053680956 -0.1605355293 0.5591312051 4291727906
