VERSION 0.7
FIELDS x y z rgba
SIZE 4 4 4 4
TYPE F F F U
COUNT 1 1 1 1
WIDTH 920
HEIGHT 1
VIEWPOINT 0.0 0.0 0.0 1.0 0.0 0.0 0.0
POINTS 920
DATA ascii
-0.2910584807 -0.1325628906 0.5462609529 4293389554
-0.2911168039 -0.1319823861 0.5463704467 4293389300
-0.2916348875 -0.1316091418 0.5473427773 4293455093
-0.2916928530 -0.1310270280 0.5474515557 4293586933
-0.2922107279 -0.1306503266 0.5484235287 4293718519
-0.2922683060 -0.1300666183 0.5485315919 4293652726
-0.2918652892 -0.1292786449 0.5477752090 4293784312
-0.2919223011 -0.1286951602 0.5478821993 4294046969
-0.2924396098 -0.1283134073 0.5488530993 4294244348
-0.2915749848 -0.1273260266 0.5472303629 4294375934
-0.2925526500 -0.1271428913 0.5490652323 4294441727
-0.2930696011 -0.1267564446 0.5500354767 4294376447
-0.2931255996 -0.1261694133 0.5501405597 4294376447
-0.2936423421 -0.1257795095 0.5511103868 4294442239
-0.2936979532 -0.1251908988 0.5512148142 4294508031
-0.2942144871 -0.1247975528 0.5521842241 4294508031
-0.2942697108 -0.1242073476 0.5522878766 4294508031
-0.2947860062 -0.1238105670 0.5532568693 4294376447
-0.2953022420 -0.1234115958 0.5542257428 4294179068
-0.2953569293 -0.1228185445 0.5543283224 4293785080
-0.2958729267 -0.1224161386 0.5552967787 4293653494
-0.2963888645 -0.1220115572 0.5562650561 4293653242
-0.2969047129 -0.1216047853 0.5572332144 4293653242
-0.2974204719 -0.1211958304 0.5582012534 4293455863
-0.2988600135 -0.1211592257 0.5609029531 4293192691
-0.2998377979 -0.1209303811 0.5627380610 4292929519
-0.3003535867 -0.1205120832 0.5637061000 4292732140
-0.3013314307 -0.1202760786 0.5655413866 4292863726
-0.3004603982 -0.1193018630 0.5639065504 4293192691
-0.3587667346 -0.1922301352 0.6747429371 4291942622
-0.3583944738 -0.1912817657 0.6740428209 4290955210
-0.3571107388 -0.1898503900 0.6716284156 4290955210
-0.3549149036 -0.1879413724 0.6674986482 4291678674
-0.3518063426 -0.1855601221 0.6616522670 4291810260
-0.3450495601 -0.1812752336 0.6489446163 4292007641
-0.2963451445 -0.1550686359 0.5573448539 4292007641
-0.2982364595 -0.1554351151 0.5609018803 4292138458
-0.2960232794 -0.1536630690 0.5567395091 4292138458
-0.2951775193 -0.1526072323 0.5551488400 4292270044
-0.2943311334 -0.1515545994 0.5535570383 4292335837
-0.2934841216 -0.1505051851 0.5519639850 4292205020
-0.2921799123 -0.1492258310 0.5495111942 4292205020
-0.2927014232 -0.1488805413 0.5504919887 4292270813
-0.2923094630 -0.1480703503 0.5497547984 4292336606
-0.2919170558 -0.1472615898 0.5490168333 4292336606
-0.2919811606 -0.1466837972 0.5491373539 4292402399
-0.2915880084 -0.1458769739 0.5483979583 4292402399
-0.2911944389 -0.1450715959 0.5476577878 4292468192
-0.2908004522 -0.1442676336 0.5469167829 4292468192
-0.2908633649 -0.1436910480 0.5470350981 4292402399
-0.2909260392 -0.1431140900 0.5471529961 4292533985
-0.2905309796 -0.1423126459 0.5464099646 4292599778
-0.2901355028 -0.1415126473 0.5456661582 4292599778
-0.2901973128 -0.1409364045 0.5457824469 4292665571
-0.2902588844 -0.1403597742 0.5458982587 4292731364
-0.2903202474 -0.1397827864 0.5460136533 4292731364
-0.2903814018 -0.1392054409 0.5461286306 4292927973
-0.2904423177 -0.1386277229 0.5462431908 4292993766
-0.2900447845 -0.1378318965 0.5454955697 4292928488
-0.2896468341 -0.1370375454 0.5447471142 4292928488
-0.2901652455 -0.1366764754 0.5457221270 4292994281
-0.2897666693 -0.1358832270 0.5449724793 4292994281
-0.2898262441 -0.1353055388 0.5450845361 4293060074
-0.2903442681 -0.1349406689 0.5460588336 4293125867
-0.2904034853 -0.1343613565 0.5461701751 4293125867
-0.2900035977 -0.1335703433 0.5454180837 4293191660
-0.2900622487 -0.1329912245 0.5455284119 4293323248
-0.2905797064 -0.1326212883 0.5465016365 4293389041
-0.2906379998 -0.1320405602 0.5466112494 4293323507
-0.2906960547 -0.1314594895 0.5467203856 4293389300
-0.2907538712 -0.1308780760 0.5468291640 4293586420
-0.2912708521 -0.1305021346 0.5478014946 4293718006
-0.2913283110 -0.1299191117 0.5479094982 4293652726
-0.2913855016 -0.1293357313 0.5480170846 4293652726
-0.2914424837 -0.1287520230 0.5481242537 4293784312
-0.2914992273 -0.1281679571 0.5482309461 4293850105
-0.2915557027 -0.1275835633 0.5483372211 4293981691
-0.2916119695 -0.1269988120 0.5484430194 4294113277
-0.2921280563 -0.1266131252 0.5494136214 4294244863
-0.2926440537 -0.1262252629 0.5503841043 4294244863
-0.2926997840 -0.1256376654 0.5504888892 4294376447
-0.2932155728 -0.1252463460 0.5514589548 4294376447
-0.2932709157 -0.1246571615 0.5515630245 4294508031
-0.2933259904 -0.1240676343 0.5516666174 4294508031
-0.2938414216 -0.1236716285 0.5526360273 4294376447
-0.2943567634 -0.1232734323 0.5536052585 4294179068
-0.2939505577 -0.1224890724 0.5528413057 4293981689
-0.2949264348 -0.1222794279 0.5546765924 4293850103
-0.2954414785 -0.1218756065 0.5556452870 4293653242
-0.2959564328 -0.1214696094 0.5566138029 4293653242
-0.2955491841 -0.1206848696 0.5558478832 4293521656
-0.2974473238 -0.1208383963 0.5594177246 4293390070
-0.2979621291 -0.1204249188 0.5603859425 4293324277
-0.2984768748 -0.1200092509 0.5613540411 4292995312
-0.2994529307 -0.1197759509 0.5631897449 4292666347
-0.2995060980 -0.1191713586 0.5632897019 4292534761
-0.3009437025 -0.1191145182 0.5659934878 4293390068
-0.3571800888 -0.1925285459 0.6731650233 4292074208
-0.3563541472 -0.1913371235 0.6716083884 4290824141
-0.3550728858 -0.1899056584 0.6691936255 4291021003
-0.3537907004 -0.1884790659 0.6667771339 4291415761
-0.3506882489 -0.1860919148 0.6609300375 4291744467
-0.3466741741 -0.1832359135 0.6533648372 4291876053
-0.3012477458 -0.1585948020 0.5677512288 4292072662
-0.2981302738 -0.1563293040 0.5618758798 4292138455
-0.2963769138 -0.1547892839 0.5585713983 4292138457
-0.2937117815 -0.1527823359 0.5535485148 4292138457
-0.2951444387 -0.1529095322 0.5562485456 4292335324
-0.2933884561 -0.1513854265 0.5529391170 4292401117
-0.2929984629 -0.1505706608 0.5522041321 4292139225
-0.2916964889 -0.1492907703 0.5497503281 4292205018
-0.2917613089 -0.1487130076 0.5498725176 4292205018
-0.2913699448 -0.1479033828 0.5491349101 4292270811
-0.2909781635 -0.1470952034 0.5483964682 4292270811
-0.2910421193 -0.1465180963 0.5485170484 4292336604
-0.2906495631 -0.1457118541 0.5477772355 4292336604
-0.2902565897 -0.1449070424 0.5470365882 4292402397
-0.2898631990 -0.1441036761 0.5462952256 4292402397
-0.2899259627 -0.1435277760 0.5464134812 4292402397
-0.2899885178 -0.1429515034 0.5465313792 4292468190
-0.2895940542 -0.1421506405 0.5457879305 4292533983
-0.2896560431 -0.1415745318 0.5459047556 4292533983
-0.2892608345 -0.1407756656 0.5451599360 4292599776
-0.2893222868 -0.1401997209 0.5452757478 4292665569
-0.2893835008 -0.1396234185 0.5453911424 4292665569
-0.2894445062 -0.1390467584 0.5455060601 4292927973
-0.2895052731 -0.1384697258 0.5456206203 4292927973
-0.2891083360 -0.1376744807 0.5448725224 4292862950
-0.2891685665 -0.1370976418 0.5449860096 4292862950
-0.2892285585 -0.1365204304 0.5450990796 4292928743
-0.2888305783 -0.1357277781 0.5443490148 4292994536
-0.2893478274 -0.1353649497 0.5453239083 4293060074
-0.2894071341 -0.1347866803 0.5454356670 4292994281
-0.2890082002 -0.1339956969 0.5446837544 4293060074
-0.2895250320 -0.1336290538 0.5456578732 4293060074
-0.2895836532 -0.1330497265 0.5457683206 4293191662
-0.2896420360 -0.1324700415 0.5458783507 4293323248
-0.2897001803 -0.1318899989 0.5459879637 4293389041
-0.2897580862 -0.1313096136 0.5460970998 4293454834
-0.2898157835 -0.1307288706 0.5462058187 4293652215
-0.2898732126 -0.1301477998 0.5463140607 4293783801
-0.2903891802 -0.1297713816 0.5472865105 4293652472
-0.2904462516 -0.1291886866 0.5473940372 4293652472
-0.2905030847 -0.1286056638 0.5475011468 4293718519
-0.2905597091 -0.1280222833 0.5476078391 4293718519
-0.2910751700 -0.1276398897 0.5485793352 4293850105
-0.2911313772 -0.1270549148 0.5486853123 4293981691
-0.2916466594 -0.1266690791 0.5496563911 4294047484
-0.2917024791 -0.1260825098 0.5497616529 4294047484
-0.2922175527 -0.1256932318 0.5507323742 4294113277
-0.2927325368 -0.1253017634 0.5517029166 4294244863
-0.2923282087 -0.1245165542 0.5509408712 4294310654
-0.2933025956 -0.1243174225 0.5527772903 4294376447
-0.2938173115 -0.1239203289 0.5537473559 4294310654
-0.2934121490 -0.1231350526 0.5529837608 4294179068
-0.2939265370 -0.1227354407 0.5539532304 4293981689
-0.2944408655 -0.1223336458 0.5549225807 4293850103
-0.2954152524 -0.1221198887 0.5567589998 4293719035
-0.2945488095 -0.1211449280 0.5551260114 4293653242
-0.2959833741 -0.1211151630 0.5578296781 4293521656
-0.2960369885 -0.1205172017 0.5579307079 4293521656
-0.2965508401 -0.1201054156 0.5588991642 4293587449
-0.2975251973 -0.1198770106 0.5607354641 4293455863
-0.2980389595 -0.1194599196 0.5617037416 4292929519
-0.2980919182 -0.1188569441 0.5618035793 4292534761
-0.2999878526 -0.1189847365 0.5653768182 4292863724
-0.3009624183 -0.1187410653 0.5672135353 4293587447
-0.3547717631 -0.1916315109 0.6700286269 4290955981
-0.3534930348 -0.1901990473 0.6676136255 4290561223
-0.3522134423 -0.1887714714 0.6651969552 4291349968
-0.3500249684 -0.1868640631 0.6610637903 4291481554
-0.2992472649 -0.1591279656 0.5651640296 4291810260
-0.3024953902 -0.1602204442 0.5712984800 4291810260
-0.2980216146 -0.1572254896 0.5628492236 4292072662
-0.2962719798 -0.1556807458 0.5595448613 4292072662
-0.2927032411 -0.1531912982 0.5528048873 4292203737
-0.2936787605 -0.1530855894 0.5546472669 4292203737
-0.2923808992 -0.1517955363 0.5521960855 4292269531
-0.2915370166 -0.1507456601 0.5506023169 4292335324
-0.2907574177 -0.1491222978 0.5491299033 4292270041
-0.2908220887 -0.1485452056 0.5492520928 4292335834
-0.2904313207 -0.1477361768 0.5485140681 4292335834
-0.2904954553 -0.1471592188 0.5486351848 4292401627
-0.2901039422 -0.1463521421 0.5478957891 4292401627
-0.2901675105 -0.1457753330 0.5480158329 4292467420
-0.2893196344 -0.1447422653 0.5464144945 4292467420
-0.2893825769 -0.1441665143 0.5465334058 4292467420
-0.2894452810 -0.1435903907 0.5466518402 4292533213
-0.2890518606 -0.1427886635 0.5459088087 4292533213
-0.2891140282 -0.1422127038 0.5460262299 4292599006
-0.2887198627 -0.1414129734 0.5452817678 4292664799
-0.2887814641 -0.1408371776 0.5453981757 4292730592
-0.2883865535 -0.1400394291 0.5446523428 4292730592
-0.2884476483 -0.1394638121 0.5447676778 4292796385
-0.2889649868 -0.1391075850 0.5457447171 4292862180
-0.2885691226 -0.1383114755 0.5449970961 4292862180
-0.2886295021 -0.1377347708 0.5451111197 4292927973
-0.2886896729 -0.1371576935 0.5452247858 4292927973
-0.2887496054 -0.1365802586 0.5453379750 4292993766
-0.2883523405 -0.1357872784 0.5445876718 4293125352
-0.2879546583 -0.1349957585 0.5438365936 4292994281
-0.2884708941 -0.1346324533 0.5448115468 4292994281
-0.2885298133 -0.1340545118 0.5449228883 4292994281
-0.2885885239 -0.1334762126 0.5450337529 4293060074
-0.2886469960 -0.1328975558 0.5451441407 4293125869
-0.2887052298 -0.1323185563 0.5452541709 4293257455
-0.2892208695 -0.1319479793 0.5462279916 4293257455
-0.2892787457 -0.1313673705 0.5463373065 4293389041
-0.2893363833 -0.1307864040 0.5464461446 4293586420
-0.2893937826 -0.1302050799 0.5465545654 4293718006
-0.2894509435 -0.1296234280 0.5466625094 4293586679
-0.2895078957 -0.1290414184 0.5467700362 4293586679
-0.2900227606 -0.1286623329 0.5477424860 4293521656
-0.2896210551 -0.1278763860 0.5469837785 4293653242
-0.2901356518 -0.1274947822 0.5479556322 4293849851
-0.2901917398 -0.1269104928 0.5480615497 4293849851
-0.2907060981 -0.1265254319 0.5490330458 4293850105
-0.2907617986 -0.1259395331 0.5491382480 4293850105
-0.2912759781 -0.1255510300 0.5501093268 4293915898
-0.2913312912 -0.1249635443 0.5502137542 4293981691
-0.2913863659 -0.1243757308 0.5503177643 4294047484
-0.2919001579 -0.1239825189 0.5512881279 4294113277
-0.2924138904 -0.1235871240 0.5522583723 4294113277
-0.2929275632 -0.1231895462 0.5532284975 4294047484
-0.2934411466 -0.1227897778 0.5541985035 4293981689
-0.2925767601 -0.1218141317 0.5525659919 4293915896
-0.2944681048 -0.1219836920 0.5561380386 4293719035
-0.2949814796 -0.1215773672 0.5571075678 4293653242
-0.2945756614 -0.1207919717 0.5563411713 4293653242
-0.2960079908 -0.1207581684 0.5590462685 4293587449
-0.2965211272 -0.1203452870 0.5600153804 4293653242
-0.2970341742 -0.1199302152 0.5609843731 4293653242
-0.2966273725 -0.1191435233 0.5602160692 4293390070
-0.2985199988 -0.1192773059 0.5637905002 4292995312
-0.2990855277 -0.1182480827 0.5648586154 4292995310
-0.3023594320 -0.1189079955 0.5710417628 4293719033
-0.3527390957 -0.1916758120 0.6675900817 4291416280
-0.3519157767 -0.1904884279 0.6660318971 4290823625
-0.3506387472 -0.1890598536 0.6636149883 4291218383
-0.3484545648 -0.1871494502 0.6594812274 4291547347
-0.3440029323 -0.1840351671 0.6510561109 4291415761
-0.2996553183 -0.1596799195 0.5671243072 4291810260
-0.2960967124 -0.1571609676 0.5603892803 4291810260
-0.2948039174 -0.1558548659 0.5579425693 4292007123
-0.2930566072 -0.1543148756 0.5546357036 4292072916
-0.2935770452 -0.1539715827 0.5556206107 4292138455
-0.2927358747 -0.1529148519 0.5540286303 4292138455
-0.2909861803 -0.1513889879 0.5507171750 4292138458
-0.2910516560 -0.1508110315 0.5508411527 4292204251
-0.2906627655 -0.1499983221 0.5501051545 4292204248
-0.2893649340 -0.1487200856 0.5476488471 4292270041
-0.2898837328 -0.1483771503 0.5486307144 4292270041
-0.2894935608 -0.1475687027 0.5478922725 4292270041
-0.2895575464 -0.1469924301 0.5480133891 4292335834
-0.2896212935 -0.1464157850 0.5481340289 4292335834
-0.2892300785 -0.1456098109 0.5473936200 4292401627
-0.2888384163 -0.1448052675 0.5466523767 4292401627
-0.2884463370 -0.1440021545 0.5459102988 4292401627
-0.2885089219 -0.1434267163 0.5460287333 4292467420
-0.2885712385 -0.1428509057 0.5461467505 4292467420
-0.2881781161 -0.1420503110 0.5454027057 4292533213
-0.2877845466 -0.1412511617 0.5446578264 4292664799
-0.2878460288 -0.1406760514 0.5447741747 4292664799
-0.2874517441 -0.1398788840 0.5440279245 4292664799
-0.2875126600 -0.1393039525 0.5441432595 4292730592
-0.2880291045 -0.1389485151 0.5451206565 4292730594
-0.2880896926 -0.1383719444 0.5452353358 4292796387
-0.2876940966 -0.1375769675 0.5444866419 4292862178
-0.2877541184 -0.1370005906 0.5446002483 4292927971
-0.2878139019 -0.1364238411 0.5447133780 4292927973
-0.2874172628 -0.1356314421 0.5439627171 4292993766
-0.2874765098 -0.1350549012 0.5440748334 4292928488
-0.2879919410 -0.1346914470 0.5450503230 4292994281
-0.2880508304 -0.1341132820 0.5451617837 4293060074
-0.2876528800 -0.1333231330 0.5444086194 4293060074
-0.2877112031 -0.1327451617 0.5445190072 4293060074
-0.2877693176 -0.1321668476 0.5446289778 4293125867
-0.2882840633 -0.1317970604 0.5456032157 4293191660
-0.2883417904 -0.1312171221 0.5457124710 4293323246
-0.2883992791 -0.1306368411 0.5458212495 4293520627
-0.2884565592 -0.1300562173 0.5459296703 4293718006
-0.2885136008 -0.1294752508 0.5460376143 4293586679
-0.2885704041 -0.1288939267 0.5461450815 4293586679
-0.2890843749 -0.1285156161 0.5471178889 4293718265
-0.2886832952 -0.1277302802 0.5463587642 4293784058
-0.2891969979 -0.1273494363 0.5473309755 4293719035
-0.2897106111 -0.1269664168 0.5483030677 4293719035
-0.2897664309 -0.1263815463 0.5484086871 4293784058
-0.2902798653 -0.1259950846 0.5493804216 4293784058
-0.2903352678 -0.1254086196 0.5494853258 4293784312
-0.2908484936 -0.1250187010 0.5504565835 4293850105
-0.2904454172 -0.1242346913 0.5496937633 4293719033
-0.2914165258 -0.1240372807 0.5515316725 4293784826
-0.2914711535 -0.1234476343 0.5516350865 4293784826
-0.2919839323 -0.1230508238 0.5526055098 4293784826
-0.2920381725 -0.1224595830 0.5527082086 4293915898
-0.2925507128 -0.1220593378 0.5536782146 4293915898
-0.2930631936 -0.1216568947 0.5546481609 4293849851
-0.2935755849 -0.1212522760 0.5556179285 4293849851
-0.2931703329 -0.1204684153 0.5548508763 4293719035
-0.2946001589 -0.1204364672 0.5575569868 4293653242
-0.2951123416 -0.1200252846 0.5585263371 4293587449
-0.2956244349 -0.1196119189 0.5594955087 4293653242
-0.2956773043 -0.1190115586 0.5595955253 4293587449
-0.2966483533 -0.1187786162 0.5614333153 4293390070
-0.2976194620 -0.1185416281 0.5632712841 4292732138
-0.2995094061 -0.1186645776 0.5668481588 4292600552
-0.3009402752 -0.1185986698 0.5695562363 4293192689
-0.3511626720 -0.1919611394 0.6660065055 4292073694
-0.3503410518 -0.1907737553 0.6644482613 4290823627
-0.3490666151 -0.1893441975 0.6620311737 4291086796
-0.3473390043 -0.1876751781 0.6587546468 4291481554
-0.3451578915 -0.1857693493 0.6546180248 4291416015
-0.3063251078 -0.1642234325 0.5809686780 4291350222
-0.2937236130 -0.1568487436 0.5570690036 4291810260
-0.2946965694 -0.1567472965 0.5589143038 4291810260
-0.2961225212 -0.1568817496 0.5616186857 4291941330
-0.2930199504 -0.1546205878 0.5557344556 4292007123
-0.2921806872 -0.1535620391 0.5541427135 4292072916
-0.2917938828 -0.1527438611 0.5534090996 4292138709
-0.2909534574 -0.1516908258 0.5518151522 4292138457
-0.2901123762 -0.1506409943 0.5502200723 4292204250
-0.2897241116 -0.1498288661 0.5494836569 4292204502
-0.2888818979 -0.1487845778 0.5478863120 4292204502
-0.2889462411 -0.1482088566 0.5480083823 4292204502
-0.2885566950 -0.1474009752 0.5472695827 4292270295
-0.2886205316 -0.1468253881 0.5473906398 4292270295
-0.2882302403 -0.1460194737 0.5466504097 4292336088
-0.2882935107 -0.1454440355 0.5467703938 4292336088
-0.2879024744 -0.1446400732 0.5460287929 4292336088
-0.2875109911 -0.1438375562 0.5452863574 4292401881
-0.2875734270 -0.1432628036 0.5454047322 4292401881
-0.2876356244 -0.1426876634 0.5455226898 4292467674
-0.2872430980 -0.1418876648 0.5447782278 4292467674
-0.2873047292 -0.1413126886 0.5448951125 4292533467
-0.2869114876 -0.1405146718 0.5441492796 4292599260
-0.2869725823 -0.1399398893 0.5442651510 4292665053
-0.2865785658 -0.1391438693 0.5435178876 4292665053
-0.2870941162 -0.1387892067 0.5444956422 4292730594
-0.2871545553 -0.1382133216 0.5446102619 4292730594
-0.2867595851 -0.1374189407 0.5438612103 4292861921
-0.2868194580 -0.1368432343 0.5439747572 4292927714
-0.2868791223 -0.1362671852 0.5440878868 4292862180
-0.2869385481 -0.1356907636 0.5442005992 4292927973
-0.2869977355 -0.1351139843 0.5443128943 4292862695
-0.2870567143 -0.1345368624 0.5444247127 4292862695
-0.2871154547 -0.1339593679 0.5445361137 4292994281
-0.2871739566 -0.1333815306 0.5446470976 4293060074
-0.2872322500 -0.1328033358 0.5447576642 4293060074
-0.2873481214 -0.1316459030 0.5449774265 4293191660
-0.2874057293 -0.1310666502 0.5450866818 4293454832
-0.2874630988 -0.1304870695 0.5451954603 4293718519
-0.2875202298 -0.1299071312 0.5453038216 4293915898
-0.2875771224 -0.1293268353 0.5454117656 4293849851
-0.2880903482 -0.1289505810 0.5463851094 4293915644
-0.2881468832 -0.1283686757 0.5464923382 4293915644
-0.2882031798 -0.1277864426 0.5465990901 4293915644
-0.2887160480 -0.1274054646 0.5475717783 4293719035
-0.2892288864 -0.1270222962 0.5485444069 4293719035
-0.2892846465 -0.1264372021 0.5486502051 4293784058
-0.2897972763 -0.1260505766 0.5496224165 4293784058
-0.2903098166 -0.1256617755 0.5505945086 4293718265
-0.2899077833 -0.1248768419 0.5498320460 4293718265
-0.2904200554 -0.1244855151 0.5508035421 4293653242
-0.2909322381 -0.1240919977 0.5517749786 4293653242
-0.2909868360 -0.1235021129 0.5518785119 4293653242
-0.2914988101 -0.1231051460 0.5528494716 4293653242
-0.2910953164 -0.1223213375 0.5520842671 4293719033
-0.2920647562 -0.1221132576 0.5539228320 4293719033
-0.2930342853 -0.1219011396 0.5557616353 4293784058
-0.2926300764 -0.1211163402 0.5549950004 4293784058
-0.2926834822 -0.1205216944 0.5550963283 4293915644
-0.2936528623 -0.1203020811 0.5569348335 4293849851
-0.2941641510 -0.1198916659 0.5579045415 4293784058
-0.2946753502 -0.1194790676 0.5588740706 4293718265
-0.2942697406 -0.1186945140 0.5581047535 4293587449
-0.2956975102 -0.1186472997 0.5608126521 4293455863
-0.2966669798 -0.1184111536 0.5626513362 4293126896
-0.2971779108 -0.1179888695 0.5636203885 4292732138
-0.2981474698 -0.1177455410 0.5654591918 4292797931
-0.2991170883 -0.1174981520 0.5672981143 4293390068
-0.3487689197 -0.1910550594 0.6628628969 4291086797
-0.3479483426 -0.1898707896 0.6613032818 4290757832
-0.3462242484 -0.1881988645 0.6580265760 4291350222
-0.3435960710 -0.1860446781 0.6530314684 4291416015
-0.3387083113 -0.1826829016 0.6437419057 4291284429
-0.2994875908 -0.1608967036 0.5691998005 4291547601
-0.2963940501 -0.1586088538 0.5633203387 4291810258
-0.2942026854 -0.1568149328 0.5591554642 4291744465
-0.2933661640 -0.1557495594 0.5575655699 4291875535
-0.2911725938 -0.1539701223 0.5533965230 4291941328
-0.2898822427 -0.1526756436 0.5509441495 4292072916
-0.2894957364 -0.1518607587 0.5502095222 4292138709
-0.2891088128 -0.1510472745 0.5494741201 4292138457
-0.2887214422 -0.1502352208 0.5487379432 4292204250
-0.2878810167 -0.1491899937 0.5471405983 4292204502
-0.2883982062 -0.1488490105 0.5481235981 4292138709
-0.2875568271 -0.1478075236 0.5465244651 4292204502
-0.2876207232 -0.1472330093 0.5466459394 4292204502
-0.2872313559 -0.1464271545 0.5459058881 4292270295
-0.2872947156 -0.1458527744 0.5460262895 4292270295
-0.2869046032 -0.1450488716 0.5452848673 4292270295
-0.2869673967 -0.1444746405 0.5454042554 4292270295
-0.2865765691 -0.1436727047 0.5446614027 4292336088
-0.2870923579 -0.1433250606 0.5456417203 4292336088
-0.2867008746 -0.1425241977 0.5448976755 4292401881
-0.2867626846 -0.1419493705 0.5450151563 4292467674
-0.2863704562 -0.1411504894 0.5442696810 4292533467
-0.2864317298 -0.1405758411 0.5443861485 4292599260
-0.2860387564 -0.1397789568 0.5436393023 4292665053
-0.2860994935 -0.1392044872 0.5437546968 4292599260
-0.2861600220 -0.1386296451 0.5438697338 4292730594
-0.2862203121 -0.1380544454 0.5439842939 4292664801
-0.2862803638 -0.1374788880 0.5440984368 4292796128
-0.2863401771 -0.1369029582 0.5442121625 4292861921
-0.2863998115 -0.1363266706 0.5443254709 4292927460
-0.2864591777 -0.1357500255 0.5444383025 4292927460
-0.2865183353 -0.1351730227 0.5445507169 4292862181
-0.2865772545 -0.1345956773 0.5446627140 4292927974
-0.2866359651 -0.1340179592 0.5447742939 4292862695
-0.2866944373 -0.1334398836 0.5448853970 4292994281
-0.2867526710 -0.1328614652 0.5449960828 4293060329
-0.2868106663 -0.1322826892 0.5451063514 4293060329
-0.2868684530 -0.1317035705 0.5452161431 4293257453
-0.2869260013 -0.1311240941 0.5453255177 4293652211
-0.2869833112 -0.1305442601 0.5454344749 4294047482
-0.2870404124 -0.1299640983 0.5455429554 4294244861
-0.2870972753 -0.1293835789 0.5456510186 4294244351
-0.2871538997 -0.1288027167 0.5457586646 4294310143
-0.2876661718 -0.1284250468 0.5467323065 4294244607
-0.2877224088 -0.1278425753 0.5468391776 4294178815
-0.2877784371 -0.1272597760 0.5469456315 4294047230
-0.2882903516 -0.1268773824 0.5479186177 4293915644
-0.2883459926 -0.1262929738 0.5480243564 4293784058
-0.2888577282 -0.1259071231 0.5489969254 4293652472
-0.2889129519 -0.1253211200 0.5491018891 4293718265
-0.2894244790 -0.1249318272 0.5500741005 4293718265
-0.2899359465 -0.1245403439 0.5510461330 4293587449
-0.2899906337 -0.1239514798 0.5511501431 4293587449
-0.2905018628 -0.1235565469 0.5521217585 4293522169
-0.2905561924 -0.1229660884 0.5522249937 4293587962
-0.2910671830 -0.1225677133 0.5531961918 4293653242
-0.2915781438 -0.1221671477 0.5541672707 4293653242
-0.2926532328 -0.1207636297 0.5562105775 4293849851
-0.2931637764 -0.1203552410 0.5571809411 4293915644
-0.2941316962 -0.1201314926 0.5590205193 4293915644
-0.2932696342 -0.1191601083 0.5573821068 4293784058
-0.2946949601 -0.1191169471 0.5600910783 4293521656
-0.2956628799 -0.1188838407 0.5619306564 4293390070
-0.2961731255 -0.1184635758 0.5629004240 4293390068
-0.2975989282 -0.1184054464 0.5656102896 4292995310
-0.2985670865 -0.1181601584 0.5674503446 4292666345
-0.2977032661 -0.1171896458 0.5658085942 4292929517
-0.2995873988 -0.1172986925 0.5693895221 4293653240
-0.3471993506 -0.1913323104 0.6612756848 4291415504
-0.3463804722 -0.1901480556 0.6597160697 4290560195
-0.3451103866 -0.1887205243 0.6572970152 4291152332
-0.3429380953 -0.1868069321 0.6531597376 4291481297
-0.3385107815 -0.1836789250 0.6447274685 4291612883
-0.2966604233 -0.1603427678 0.5650193095 4291678674
-0.2944745123 -0.1585381478 0.5608559847 4291678674
-0.2918362617 -0.1565002054 0.5558311939 4291743697
-0.2910012007 -0.1554365903 0.5542407036 4291875283
-0.2910680473 -0.1548563540 0.5543680191 4292006869
-0.2897805572 -0.1535581499 0.5519158840 4292072662
-0.2902981043 -0.1532181054 0.5529016256 4292072662
-0.2894609272 -0.1521637142 0.5513071418 4292138455
-0.2886231244 -0.1511125267 0.5497114658 4292138455
-0.2882364690 -0.1503001302 0.5489750504 4292138455
-0.2878493965 -0.1494891644 0.5482378006 4292203989
-0.2874619067 -0.1486796141 0.5474997759 4292203989
-0.2870739996 -0.1478714794 0.5467609763 4292203989
-0.2871378362 -0.1472967416 0.5468825698 4292203989
-0.2867491841 -0.1464905590 0.5461423397 4292269782
-0.2868124843 -0.1459159702 0.5462628603 4292335575
-0.2868755460 -0.1453409940 0.5463830233 4292401368
-0.2864858210 -0.1445372999 0.5456407666 4292401368
-0.2860956788 -0.1437350363 0.5448976755 4292335575
-0.2861579061 -0.1431607455 0.5450161695 4292401368
-0.2857670188 -0.1423604637 0.5442717075 4292467161
-0.2858287096 -0.1417863369 0.5443891883 4292532954
-0.2854370773 -0.1409880519 0.5436432958 4292598747
-0.2854982018 -0.1404140890 0.5437597632 4292598747
-0.2855591178 -0.1398397535 0.5438757539 4292664540
-0.2851664424 -0.1390440017 0.5431278348 4292664540
-0.2852268219 -0.1384698600 0.5432428122 4292730335
-0.2852869630 -0.1378953457 0.5433573723 4292796128
-0.2853468657 -0.1373204738 0.5434714556 4292730594
-0.2854065597 -0.1367452294 0.5435851812 4292796387
-0.2854660153 -0.1361696422 0.5436984301 4292796387
-0.2855252624 -0.1355936825 0.5438112617 4292862180
-0.2855842710 -0.1350173652 0.5439236760 4292862178
-0.2851889431 -0.1342269629 0.5431706905 4292927971
-0.2857016027 -0.1338636726 0.5441471338 4293059559
-0.2857599258 -0.1332862973 0.5442582369 4293059559
-0.2858180404 -0.1327085644 0.5443688631 4292994281
-0.2854214311 -0.1319204122 0.5436134934 4293257453
-0.2859335542 -0.1315520406 0.5445889235 4293389039
-0.2855362892 -0.1307650357 0.5438322425 4293849590
-0.2860481441 -0.1303941160 0.5448071361 4294639103
-0.2861050963 -0.1298146397 0.5449156165 4294770687
-0.2861618102 -0.1292348206 0.5450236201 4294639359
-0.2862183154 -0.1286546439 0.5451312065 4294639359
-0.2862745523 -0.1280741394 0.5452383757 4294639103
-0.2867858112 -0.1276959777 0.5462120771 4294507519
-0.2868416905 -0.1271138638 0.5463185310 4294375934
-0.2873527110 -0.1267322451 0.5472918153 4294244348
-0.2878637016 -0.1263484359 0.5482650399 4294047484
-0.2883746326 -0.1259624511 0.5492381454 4293981691
-0.2884298265 -0.1253762096 0.5493432879 4293784312
-0.2884847820 -0.1247896180 0.5494479537 4293718519
-0.2885395288 -0.1242027059 0.5495522022 4293718517
-0.2890499234 -0.1238107383 0.5505243540 4293718517
-0.2895602584 -0.1234165803 0.5514963269 4293718519
-0.2896144390 -0.1228268147 0.5515995026 4293718519
-0.2892122269 -0.1220442131 0.5508334637 4293784058
-0.2901783586 -0.1218378469 0.5526735783 4293784058
-0.2906882465 -0.1214367971 0.5536447167 4293587449
-0.2911980748 -0.1210335642 0.5546156764 4293784828
-0.2912513018 -0.1204393581 0.5547170639 4293982205
-0.2917608917 -0.1200326756 0.5556876063 4293916412
-0.2922703922 -0.1196238026 0.5566580296 4293719033
-0.2932365835 -0.1193987206 0.5584982038 4293587447
-0.2923754752 -0.1184294000 0.5568581820 4293718265
-0.2937984169 -0.1183840483 0.5595683455 4293652472
-0.2943075895 -0.1179664209 0.5605381131 4293586679
-0.2957308590 -0.1179110855 0.5632488132 4293520886
-0.2962400317 -0.1174872145 0.5642185807 4292994796
-0.2991391718 -0.1167379320 0.5697402954 4294179070
-0.3005631566 -0.1166576073 0.5724524260 4294244863
-0.3029024899 -0.1169245765 0.5769079328 4294310655
-0.3047846854 -0.1170061678 0.5804927349 4293784826
-0.3071249723 -0.1172546819 0.5849500895 4293390068
-0.3094657660 -0.1174934804 0.5894083381 4293586933
-0.3456323743 -0.1916055232 0.6596867442 4292468190
-0.3448151946 -0.1904212832 0.6581270695 4291152330
-0.3435476720 -0.1889927685 0.6557077765 4290888388
-0.3422792554 -0.1875691414 0.6532868743 4291348939
-0.3392104506 -0.1851680726 0.6474295855 4291612111
-0.3320899904 -0.1805769354 0.6338392496 4291743697
-0.2975103855 -0.1611430496 0.5678393245 4291809744
-0.2944281399 -0.1588492095 0.5619564056 4291743951
-0.2926951051 -0.1572934985 0.5586486459 4291809744
-0.2914113998 -0.1559856683 0.5561985970 4291809744
-0.2901268899 -0.1546828449 0.5537468791 4291875537
-0.2897427380 -0.1538635939 0.5530136824 4291941330
-0.2893581688 -0.1530457586 0.5522797108 4292072916
-0.2885223627 -0.1519918293 0.5506844521 4292072916
-0.2881368399 -0.1511777043 0.5499486327 4292138194
-0.2877508998 -0.1503649950 0.5492119789 4292138194
-0.2869133949 -0.1493189335 0.5476135015 4292138196
-0.2865265012 -0.1485099643 0.5468750596 4292138196
-0.2865905166 -0.1479353905 0.5469972491 4292138196
-0.2862028778 -0.1471283585 0.5462573767 4292203989
-0.2862663567 -0.1465539336 0.5463785529 4292269782
-0.2863295972 -0.1459791064 0.5464992523 4292269782
-0.2859409153 -0.1451745629 0.5457574129 4292335575
-0.2860036194 -0.1445998996 0.5458770990 4292335575
-0.2856141925 -0.1437973231 0.5451338291 4292401368
-0.2856763601 -0.1432228088 0.5452524424 4292401368
-0.2852861881 -0.1424222142 0.5445077419 4292401368
-0.2848955989 -0.1416230649 0.5437622666 4292467161
-0.2849569023 -0.1410492510 0.5438792706 4292467161
-0.2845655680 -0.1402520835 0.5431323647 4292532954
-0.2846263349 -0.1396784484 0.5432483554 4292598747
-0.2846868932 -0.1391044408 0.5433639288 4292664540
-0.2847472131 -0.1385300606 0.5434790254 4292664540
-0.2848072946 -0.1379553378 0.5435937047 4292730333
-0.2848671675 -0.1373802274 0.5437079668 4292664799
-0.2849268019 -0.1368047744 0.5438218117 4292730592
-0.2849862278 -0.1362289488 0.5439352393 4292730592
-0.2850454152 -0.1356527656 0.5440481901 4292796385
-0.2846511006 -0.1348614693 0.5432956219 4292862178
-0.2847097516 -0.1342854947 0.5434075594 4292862178
-0.2847681642 -0.1337091625 0.5435190201 4292993764
-0.2848263681 -0.1331324726 0.5436301231 4292927971
-0.2848843038 -0.1325554252 0.5437407494 4292994281
-0.2844883204 -0.1317678690 0.5429849029 4293323246
-0.2845457196 -0.1311910450 0.5430945158 4293454832
-0.2850568295 -0.1308221966 0.5440700054 4293915383
-0.2851138711 -0.1302437484 0.5441788435 4294507775
-0.2851706743 -0.1296649575 0.5442873240 4294573567
-0.2852272689 -0.1290858239 0.5443953276 4294376189
-0.2852836251 -0.1285063475 0.5445028543 4294441982
-0.2857941091 -0.1281302273 0.5454772115 4294573567
-0.2858500779 -0.1275491416 0.5455840230 4294573567
-0.2863603830 -0.1271695793 0.5465579629 4294573311
-0.2868705988 -0.1267878115 0.5475318432 4294573311
-0.2869260609 -0.1262038648 0.5476377010 4294376447
-0.2874360681 -0.1258186549 0.5486111045 4294310654
-0.2874911427 -0.1252330989 0.5487162471 4293981691
-0.2875459790 -0.1246472001 0.5488209128 4293850105
-0.2880556583 -0.1242572740 0.5497936606 4293784310
-0.2881101072 -0.1236697882 0.5498976111 4293718517
-0.2886195481 -0.1232764050 0.5508699417 4293718519
-0.2891289294 -0.1228808388 0.5518421531 4293718519
-0.2887274325 -0.1220979169 0.5510758162 4293718265
-0.2896919847 -0.1218914837 0.5529168248 4293652472
-0.2897454798 -0.1212995499 0.5530189872 4293784312
-0.2902544141 -0.1208970845 0.5539903045 4294047484
-0.2903075218 -0.1203035712 0.5540916920 4294376447
-0.2908162177 -0.1198976561 0.5550625920 4294376447
-0.2913248241 -0.1194895580 0.5560333729 4294113277
-0.2918333709 -0.1190792695 0.5570039749 4293915898
-0.2923418283 -0.1186667904 0.5579743981 4293784312
-0.2928501964 -0.1182521209 0.5589447021 4293718519
-0.2938147187 -0.1180185154 0.5607856512 4293455861
-0.2943229973 -0.1175985336 0.5617557764 4293455861
-0.2952876091 -0.1173577458 0.5635968447 4293192689
-0.2962522805 -0.1171128973 0.5654380322 4292732138
-0.2972170115 -0.1168639809 0.5672793388 4292929517
-0.3004649580 -0.1175038889 0.5734785199 4293719033
-0.3014302254 -0.1172421500 0.5753208399 4294047998
-0.3033091128 -0.1173297465 0.5789070129 4293916412
-0.3042746484 -0.1170579866 0.5807498097 4293850619
-0.3070680201 -0.1174814478 0.5860813260 4293521654
-0.3062058389 -0.1165022403 0.5844358206 4293257968
-0.3099141121 -0.1172559187 0.5915135741 4293586933
-0.3437012434 -0.1909397244 0.6573944688 4291612365
-0.3428851962 -0.1897577047 0.6558336616 4291086021
-0.3411706686 -0.1880838275 0.6525542736 4291086021
-0.3385570049 -0.1859234571 0.6475551128 4291414986
-0.3341453373 -0.1827906221 0.6391169429 4291546572
-0.3009808958 -0.1640087515 0.5756835938 4291743951
-0.2956591547 -0.1604805440 0.5655047894 4291743951
-0.2930313051 -0.1584314406 0.5604785085 4291678158
-0.2917505801 -0.1571189910 0.5580288768 4291809744
-0.2904690206 -0.1558115333 0.5555776358 4291809744
-0.2900860906 -0.1549896598 0.5548452735 4291875022
-0.2883532345 -0.1534510106 0.5515307784 4291940815
-0.2870692611 -0.1521576643 0.5490749478 4292006608
-0.2880347073 -0.1520572901 0.5509215593 4292072401
-0.2867496014 -0.1507694721 0.5484635234 4292072401
-0.2863641381 -0.1499582529 0.5477262735 4292072401
-0.2859782875 -0.1491484493 0.5469882488 4292072403
-0.2855919898 -0.1483400613 0.5462494493 4292072403
-0.2856558561 -0.1477661729 0.5463715792 4292138196
-0.2857195139 -0.1471918970 0.5464932919 4292203989
-0.2853321433 -0.1463859826 0.5457524061 4292203989
-0.2853952646 -0.1458118558 0.5458731055 4292269782
-0.2850071788 -0.1450078934 0.5451308489 4292269782
-0.2846186757 -0.1442053765 0.5443877578 4292269782
-0.2851320803 -0.1438595504 0.5453697443 4292335575
-0.2847429216 -0.1430581063 0.5446254015 4292335575
-0.2843533754 -0.1422580928 0.5438802838 4292401368
-0.2844148576 -0.1416844279 0.5439978838 4292401368
-0.2840245664 -0.1408864111 0.5432513952 4292467161
-0.2840854824 -0.1403129101 0.5433679223 4292532954
-0.2836944759 -0.1395168900 0.5426200032 4292532954
-0.2837548554 -0.1389435679 0.5427355170 4292532954
-0.2838150263 -0.1383698881 0.5428506136 4292598745
-0.2838749886 -0.1377958506 0.5429652929 4292664538
-0.2839347124 -0.1372214407 0.5430794954 4292599260
-0.2839941978 -0.1366466582 0.5431933403 4292665053
-0.2840534747 -0.1360715330 0.5433067083 4292665053
-0.2841125131 -0.1354960352 0.5434196591 4292730846
-0.2837188542 -0.1347053498 0.5426666737 4292796385
-0.2837773561 -0.1341300607 0.5427785516 4292796385
-0.2838356197 -0.1335544139 0.5428900123 4292927971
-0.2838936746 -0.1329784095 0.5430010557 4292862178
-0.2839514911 -0.1324020624 0.5431116223 4292928743
-0.2840090990 -0.1318253577 0.5432217717 4293191915
-0.2840664387 -0.1312483102 0.5433315039 4293389039
-0.2841235995 -0.1306709051 0.5434408188 4293849590
-0.2841804922 -0.1300931573 0.5435496569 4294507775
-0.2842371762 -0.1295150518 0.5436580777 4294573567
-0.2847470343 -0.1291422546 0.5446332693 4294573567
-0.2848033607 -0.1285625398 0.5447409749 4294573567
-0.2848594189 -0.1279824972 0.5448482037 4294573566
-0.2853689492 -0.1276049614 0.5458227992 4294573566
-0.2854246497 -0.1270233095 0.5459293127 4294573566
-0.2859340012 -0.1266423315 0.5469035506 4294573566
-0.2864432633 -0.1262591630 0.5478776097 4294442239
-0.2864984274 -0.1256746352 0.5479831696 4294376446
-0.2865533829 -0.1250897646 0.5480882525 4294179068
-0.2870622873 -0.1247018799 0.5490616560 4294047482
-0.2871168554 -0.1241154149 0.5491659641 4293784312
-0.2876255512 -0.1237240732 0.5501389503 4293652726
-0.2876797318 -0.1231360137 0.5502426028 4293652726
-0.2881882191 -0.1227412224 0.5512151718 4293652726
-0.2886966169 -0.1223442405 0.5521876216 4293652726
-0.2892049551 -0.1219450682 0.5531598926 4293586933
-0.2892584205 -0.1213528961 0.5532621741 4293850103
-0.2897665501 -0.1209502742 0.5542340279 4294113275
-0.2898196280 -0.1203565225 0.5543355346 4294508031
-0.2903274894 -0.1199504510 0.5553069711 4294573823
-0.2908353209 -0.1195421889 0.5562782288 4294310654
-0.2908878028 -0.1189455912 0.5563786626 4294047482
-0.2918506861 -0.1187190935 0.5582203269 4293850105
-0.2932690084 -0.1186728030 0.5609331727 4293784312
-0.2937766612 -0.1182539091 0.5619041324 4293587447
-0.2929175794 -0.1172856092 0.5602610111 4293455861
-0.2943360507 -0.1172280759 0.5629740953 4293390068
-0.2952990830 -0.1169840768 0.5648160577 4292929517
-0.2967179418 -0.1169155985 0.5675299168 4292534759
-0.2976811528 -0.1166625246 0.5693722963 4293192689
-0.2986444533 -0.1164053828 0.5712147355 4293982205
-0.3018879294 -0.1170280650 0.5774185061 4293784826
-0.3005712032 -0.1158788800 0.5749000311 4293916412
-0.3066044748 -0.1169017255 0.5864398479 4293126382
-0.3103067279 -0.1176538765 0.5935211182 4292929003
-0.3126407266 -0.1178744063 0.5979852676 4293784312
-0.3425881267 -0.1914561242 0.6566604376 4292074723
-0.3417738974 -0.1902732402 0.6550997496 4291085767
-0.3409590125 -0.1890934259 0.6535377502 4290954181
-0.3392471373 -0.1874215603 0.6502565145 4291217353
-0.3357411623 -0.1847696155 0.6435363889 4291480525
-0.2972612977 -0.1629597992 0.5697796345 4291546318
-0.2937432528 -0.1604056209 0.5630363822 4291677904
-0.2915690243 -0.1585973799 0.5588688254 4291743951
-0.2902908623 -0.1572839022 0.5564188957 4291678158
-0.2885630727 -0.1557332277 0.5531071424 4291743951
-0.2877982557 -0.1540946513 0.5516411662 4291809744
-0.2865170538 -0.1527984589 0.5491853952 4291875537
-0.2870317400 -0.1524616778 0.5501719713 4291875537
-0.2861985862 -0.1514096111 0.5485749841 4291875537
-0.2862635553 -0.1508343518 0.5486995578 4291941330
-0.2858788371 -0.1500228047 0.5479620695 4291941330
-0.2859432697 -0.1494476646 0.5480856299 4292072403
-0.2855578065 -0.1486380547 0.5473467708 4292072403
-0.2847220898 -0.1475967020 0.5457449555 4292138196
-0.2847855985 -0.1470231116 0.5458666086 4292138196
-0.2848488688 -0.1464491487 0.5459879041 4292203989
-0.2844617963 -0.1456443369 0.5452460051 4292203989
-0.2845245302 -0.1450705230 0.5453662276 4292203989
-0.2841367424 -0.1442676783 0.5446229577 4292203989
-0.2837485373 -0.1434662789 0.5438788533 4292269782
-0.2842608988 -0.1431199610 0.5448608994 4292269782
-0.2838720679 -0.1423196346 0.5441156030 4292335575
-0.2834827900 -0.1415207535 0.5433694720 4292401368
-0.2835439146 -0.1409474015 0.5434865952 4292467161
-0.2831538916 -0.1401505172 0.5427390933 4292467161
-0.2832144797 -0.1395773441 0.5428551435 4292467161
-0.2832748294 -0.1390038133 0.5429708362 4292467161
-0.2833349407 -0.1384299099 0.5430860519 4292532952
-0.2833948433 -0.1378556341 0.5432008505 4292532952
-0.2830031514 -0.1370624006 0.5424501300 4292533467
-0.2830625176 -0.1364883184 0.5425638556 4292599260
-0.2831216455 -0.1359138787 0.5426772237 4292599260
-0.2831805348 -0.1353390813 0.5427901149 4292665053
-0.2832392156 -0.1347639114 0.5429025888 4292730592
-0.2832976878 -0.1341883987 0.5430146456 4292730592
-0.2833558917 -0.1336125284 0.5431262255 4292862178
-0.2834139168 -0.1330363005 0.5432374477 4292796385
-0.2834716737 -0.1324597299 0.5433481932 4292797157
-0.2830770314 -0.1316724569 0.5425916910 4292928743
-0.2831342518 -0.1310960948 0.5427014232 4293060074
-0.2836436331 -0.1307278872 0.5436777472 4293652211
-0.2837004960 -0.1301499009 0.5437867641 4294507519
-0.2837571204 -0.1295715719 0.5438953042 4294704895
-0.2838135362 -0.1289929003 0.5440034270 4294639359
-0.2843224406 -0.1286186874 0.5449788570 4294573566
-0.2843784690 -0.1280384064 0.5450862646 4294507773
-0.2844342589 -0.1274577826 0.5451932549 4294507773
-0.2849428356 -0.1270788461 0.5461680293 4294507773
-0.2854513824 -0.1266977191 0.5471427441 4294507773
-0.2859598398 -0.1263144016 0.5481173396 4294508031
-0.2855616808 -0.1255303919 0.5473542213 4294508031
-0.2860698700 -0.1251445413 0.5483282804 4294376447
-0.2865779698 -0.1247565076 0.5493021607 4294113275
-0.2866324782 -0.1241698116 0.5494066477 4293784312
-0.2871403694 -0.1237783208 0.5503801703 4293586933
-0.2871944904 -0.1231900230 0.5504839420 4293521140
-0.2877021730 -0.1227950752 0.5514569879 4293586933
-0.2877559066 -0.1222051904 0.5515599847 4293521654
-0.2878094018 -0.1216149703 0.5516625643 4293521654
-0.2883166969 -0.1212153137 0.5526348948 4293850103
-0.2883697748 -0.1206235066 0.5527366996 4294047482
-0.2888768613 -0.1202204004 0.5537086129 4294376447
-0.2893838286 -0.1198151037 0.5546804070 4294442239
-0.2898907661 -0.1194076091 0.5556520224 4294310654
-0.2903975844 -0.1189979315 0.5566235185 4294047482
-0.2913588881 -0.1187713519 0.5584660769 4293850105
-0.2927748859 -0.1187250689 0.5611802340 4293784312
-0.2923723161 -0.1179391667 0.5604085922 4293521654
-0.2933336794 -0.1177022681 0.5622513294 4293455861
-0.2947499752 -0.1176428497 0.5649660230 4293390068
-0.2957115769 -0.1173968837 0.5668091774 4293126896
-0.2966732383 -0.1171468496 0.5686524510 4292534761
-0.2990002632 -0.1174289435 0.5731127858 4292863726
-0.2981415689 -0.1164567694 0.5714669228 4293719035
-0.3004691303 -0.1167260259 0.5759282708 4293784828
-0.3023418486 -0.1168096587 0.5795178413 4293850105
-0.3010270596 -0.1156606078 0.5769976974 4294047484
-0.3042664528 -0.1162572578 0.5832068324 4293455347
-0.3029509783 -0.1151094437 0.5806853771 4293060589
-0.3093807101 -0.1168936118 0.5930096507 4293784312
-0.3130780160 -0.1176238135 0.6000964642 4294310655
-0.3397693634 -0.1902859509 0.6526469588 4291153108
-0.3407447636 -0.1901049912 0.6545205116 4291085767
-0.3381420970 -0.1879312843 0.6495211720 4290954181
-0.3364326656 -0.1862632036 0.6462376118 4291283146
-0.3315897286 -0.1828742623 0.6369350553 4291612111
-0.3021264970 -0.1659802794 0.5803405046 4291677904
-0.2954818606 -0.1616992652 0.5675771236 4291677904
-0.2924162745 -0.1593975872 0.5616886616 4291677904
-0.2906927466 -0.1578376889 0.5583779812 4291677904
-0.2898642123 -0.1567691714 0.5567864776 4291678158
-0.2885869145 -0.1554624587 0.5543329716 4291743951
-0.2873087525 -0.1541607529 0.5518778563 4291809744
-0.2878230810 -0.1538224369 0.5528657436 4291875537
-0.2865436673 -0.1525271386 0.5504081845 4291875537
-0.2861604989 -0.1517124474 0.5496721864 4291875537
-0.2857768834 -0.1508991718 0.5489353538 4291875537
-0.2853928804 -0.1500873119 0.5481976867 4291875537
-0.2850084305 -0.1492768675 0.5474592447 4292072403
-0.2846235633 -0.1484678388 0.5467199683 4292072403
-0.2842382789 -0.1476602405 0.5459799170 4292072403
-0.2843017280 -0.1470864415 0.5461017489 4292072403
-0.2843649387 -0.1465122551 0.5462231636 4292072403
-0.2839785814 -0.1457071304 0.5454810858 4292138196
-0.2835918367 -0.1449034512 0.5447381735 4292138196
-0.2836541831 -0.1443299353 0.5448579192 4292203989
-0.2832666934 -0.1435282081 0.5441136360 4292203989
-0.2833285034 -0.1429548562 0.5442323685 4292269782
-0.2833901048 -0.1423811167 0.5443506837 4292269782
-0.2830015719 -0.1415819228 0.5436043143 4292269782
-0.2830626070 -0.1410083622 0.5437216163 4292335575
-0.2826733291 -0.1402111501 0.5429738760 4292401368
-0.2827338576 -0.1396377534 0.5430901051 4292467161
-0.2827941477 -0.1390639991 0.5432059169 4292532954
-0.2828542292 -0.1384898722 0.5433213115 4292467159
-0.2829140723 -0.1379153728 0.5434362888 4292532952
-0.2825230956 -0.1371218264 0.5426852703 4292532952
-0.2825824022 -0.1365475208 0.5427991748 4292598745
-0.2826414704 -0.1359728426 0.5429126620 4292664540
-0.2827003300 -0.1353978217 0.5430257320 4292730333
-0.2827589810 -0.1348224431 0.5431383848 4292664799
-0.2828173637 -0.1342466921 0.5432505608 4292664799
-0.2828755677 -0.1336705983 0.5433623195 4292796387
-0.2829335034 -0.1330941468 0.5434736013 4292796387
-0.2829912305 -0.1325173378 0.5435845256 4292796387
-0.2825973034 -0.1317297518 0.5428278446 4292927973
-0.2826544940 -0.1311531663 0.5429376364 4292993767
-0.2827114463 -0.1305762231 0.5430470705 4293520111
-0.2832198739 -0.1302065998 0.5440236926 4294112762
-0.2832764387 -0.1296280473 0.5441323519 4294375934
-0.2833327949 -0.1290491521 0.5442405939 4294376187
-0.2833889425 -0.1284698993 0.5443484187 4294441980
-0.2838968933 -0.1280942857 0.5453241467 4294442493
-0.2839526534 -0.1275134236 0.5454311967 4294442493
-0.2840081751 -0.1269322187 0.5455378890 4294508286
-0.2845157981 -0.1265518814 0.5465129614 4294508286
-0.2850233614 -0.1261693388 0.5474879146 4294573823
-0.2850783467 -0.1255852729 0.5475935340 4294573823
-0.2855857015 -0.1251992881 0.5485680699 4294508031
-0.2856403291 -0.1246136129 0.5486729741 4294179068
-0.2861474752 -0.1242241636 0.5496471524 4293718265
-0.2866545320 -0.1238325164 0.5506211519 4293455093
-0.2867086232 -0.1232439876 0.5507250428 4293324277
-0.2872154713 -0.1228488907 0.5516986847 4293455863
-0.2872691751 -0.1222587600 0.5518018007 4293455861
-0.2873226106 -0.1216683015 0.5519044399 4293455861
-0.2873758376 -0.1210775152 0.5520066619 4293718519
-0.2878821492 -0.1206764430 0.5529792309 4293915898
-0.2879349887 -0.1200840697 0.5530806780 4294179070
-0.2884410620 -0.1196795478 0.5540528297 4294442239
-0.2889471054 -0.1192728356 0.5550248623 4294376447
-0.2894530296 -0.1188639253 0.5559966564 4294113277
-0.2895051241 -0.1182674542 0.5560967326 4293850105
-0.2909185290 -0.1182239726 0.5588116646 4293718519
-0.2914243042 -0.1178075522 0.5597832203 4293455863
-0.2919300199 -0.1173889413 0.5607545972 4293390070
-0.2924356163 -0.1169681400 0.5617257953 4293390070
-0.2938494980 -0.1169065163 0.5644416213 4293390070
-0.2948093414 -0.1166592091 0.5662853122 4292863726
-0.2957692444 -0.1164078191 0.5681291819 4292666347
-0.2971836329 -0.1163302362 0.5708460212 4293258484
-0.2981437445 -0.1160697639 0.5726902485 4293719035
-0.2991039157 -0.1158052236 0.5745345950 4293784312
-0.3009734154 -0.1158867106 0.5781256557 4294047484
-0.3028433025 -0.1159603521 0.5817173719 4293784826
-0.3047135174 -0.1160261482 0.5853098035 4293719033
-0.3070389926 -0.1162563339 0.5897766948 4294179583
-0.3057253361 -0.1151064560 0.5872533917 4294376959
-0.3387427032 -0.1901165694 0.6520659924 4290757834
-0.3374843597 -0.1886885315 0.6496437192 4291151814
-0.3357785940 -0.1870166808 0.6463602185 4291020228
-0.3336251080 -0.1851037294 0.6422148347 4291283400
-0.3270030618 -0.1807302684 0.6294676661 4291546572
-0.2971424162 -0.1635911614 0.5719871521 4291612365
-0.2931897640 -0.1607879698 0.5643784404 4291612365
-0.2910231352 -0.1589773446 0.5602077842 4291678158
-0.2893024087 -0.1574186087 0.5568954349 4291809744
-0.2884750962 -0.1563514620 0.5553029180 4291678156
-0.2876471877 -0.1552875340 0.5537092090 4291678156
-0.2863711715 -0.1539861858 0.5512529612 4291743949
-0.2868845761 -0.1536486745 0.5522412062 4291809742
-0.2847119868 -0.1518761516 0.5480590463 4291875535
-0.2856724858 -0.1517775357 0.5499079823 4291875535
-0.2843938768 -0.1504899561 0.5474467278 4291875535
-0.2840103507 -0.1496795863 0.5467084646 4291809742
-0.2840744853 -0.1491058171 0.5468319058 4292006610
-0.2836902440 -0.1482973695 0.5460922122 4292006610
-0.2833055556 -0.1474903673 0.5453517437 4292006610
-0.2829204798 -0.1466847807 0.5446105003 4292006610
-0.2825349867 -0.1458806396 0.5438684225 4292072403
-0.2826600373 -0.1447361261 0.5441091657 4292138196
-0.2818247080 -0.1437056363 0.5425011516 4292138196
-0.2827842236 -0.1435900927 0.5443481803 4292203989
-0.2823970318 -0.1427894980 0.5436028838 4292203989
-0.2824584842 -0.1422164589 0.5437211394 4292203989
-0.2825196981 -0.1416430473 0.5438389778 4292269782
-0.2821314633 -0.1408449858 0.5430916548 4292335575
-0.2821921408 -0.1402717382 0.5432084799 4292401368
-0.2818031609 -0.1394756734 0.5424596667 4292401368
-0.2818633020 -0.1389025897 0.5425754786 4292401368
-0.2819232345 -0.1383291632 0.5426908135 4292401368
-0.2819829285 -0.1377553493 0.5428057313 4292467161
-0.2820424139 -0.1371811926 0.5429202318 4292467159
-0.2821016610 -0.1366066635 0.5430343151 4292532952
-0.2817106843 -0.1358148158 0.5422816873 4292598747
-0.2817693949 -0.1352404803 0.5423946977 4292664540
-0.2818278968 -0.1346657872 0.5425072908 4292664799
-0.2818861604 -0.1340907365 0.5426194668 4292664799
-0.2819441855 -0.1335153431 0.5427311659 4292664799
-0.2820020020 -0.1329395771 0.5428424478 4292730592
-0.2820595801 -0.1323634684 0.5429533124 4292730594
-0.2821169496 -0.1317870021 0.5430637002 4292862180
-0.2821740806 -0.1312101781 0.5431737304 4292993766
