VERSION 0.7
FIELDS x y z rgba
SIZE 4 4 4 4
TYPE F F F U
COUNT 1 1 1 1
WIDTH 920
HEIGHT 1
VIEWPOINT 0.0 0.0 0.0 1.0 0.0 0.0 0.0
POINTS 920
DATA ascii
-0.2916582227 -0.1130465269 0.5800318718 4284831321
-0.2912643850 -0.1122502834 0.5792486072 4284897114
-0.2913128734 -0.1116252691 0.5793449879 4284436563
-0.2918038666 -0.1111686379 0.5803214908 4284568149
-0.2922947705 -0.1107097939 0.5812977552 4284436817
-0.2923426330 -0.1100819483 0.5813929439 4284042059
-0.2928332388 -0.1096196398 0.5823686123 4283449409
-0.2928806543 -0.1089902297 0.5824629068 4283120444
-0.2929278016 -0.1083605140 0.5825566649 4283515202
-0.2929747105 -0.1077304929 0.5826499462 4283975753
-0.2934646308 -0.1072622016 0.5836243033 4283647817
-0.2939544618 -0.1067916974 0.5845984221 4283713610
-0.2940007150 -0.1061588749 0.5846903920 4283976782
-0.2944902182 -0.1056849062 0.5856639147 4284174161
-0.2945360243 -0.1050505340 0.5857549906 4284042575
-0.2945815623 -0.1044158563 0.5858455896 4283910989
-0.2946268320 -0.1037808880 0.5859356523 4283647817
-0.2951156497 -0.1033009738 0.5869077444 4283055680
-0.2956043184 -0.1028188467 0.5878795385 4283121473
-0.2960928380 -0.1023345217 0.5888511539 4283516231
-0.2961372733 -0.1016955227 0.5889394879 4283647817
-0.2961814404 -0.1010562330 0.5890273452 4283450438
-0.2966694534 -0.1005672142 0.5899978280 4283910989
-0.2967131436 -0.0999264047 0.5900847316 4283976782
-0.2972008288 -0.0994339362 0.5910546184 4283845196
-0.2976883650 -0.0989392698 0.5920242071 4283713610
-0.2986201346 -0.0985891148 0.5938772559 4283910473
-0.2999963462 -0.0983805805 0.5966141820 4284239438
-0.3009281456 -0.0980212167 0.5984672904 4284436817
-0.3018599451 -0.0976577327 0.6003203392 4284831575
-0.3032363355 -0.0974329859 0.6030576825 4285357919
-0.3041681349 -0.0970602855 0.6049107909 4285028954
-0.3055446744 -0.0968243927 0.6076483130 4285226849
-0.3069212735 -0.0965824500 0.6103860736 4285818986
-0.3078531325 -0.0961954370 0.6122392416 4284898654
-0.3092298508 -0.0959423482 0.6149771810 4285030240
-0.3110516667 -0.0958202779 0.6186003089 4288321689
-0.3128736615 -0.0956902131 0.6222237945 4293387750
-0.3134031892 -0.1772668213 0.6246566176 4291216330
-0.3130424619 -0.1763695478 0.6239376664 4287202957
-0.3122464120 -0.1752295792 0.6223509908 4285029990
-0.3114497066 -0.1740927547 0.6207630634 4283977302
-0.3102172613 -0.1727168709 0.6183066368 4283779662
-0.3085488081 -0.1711046547 0.6149811745 4284306006
-0.3060087264 -0.1690183878 0.6099184155 4284305749
-0.3021610081 -0.1662240326 0.6022493839 4283910991
-0.2987467349 -0.1636842042 0.5954442620 4283647817
-0.2953306437 -0.1611585021 0.5886355042 4283582024
-0.2919127047 -0.1586469263 0.5818231106 4283845455
-0.2889287770 -0.1563853920 0.5758756399 4283648076
-0.2872508764 -0.1548410952 0.5725314021 4283779916
-0.2864439189 -0.1537717730 0.5709230304 4283977295
-0.2852002978 -0.1524725705 0.5684443116 4284108881
-0.2848282158 -0.1516428888 0.5677026510 4284043088
-0.2844557166 -0.1508146375 0.5669602156 4283911248
-0.2840827703 -0.1499878168 0.5662169456 4284108627
-0.2841459215 -0.1493919045 0.5663427711 4283713869
-0.2842088342 -0.1487955898 0.5664681792 4283779662
-0.2847082019 -0.1484265327 0.5674634576 4283714123
-0.2843340039 -0.1476017982 0.5667176247 4283648330
-0.2843962312 -0.1470043063 0.5668417215 4283647817
-0.2844582498 -0.1464064121 0.5669652820 4283779403
-0.2840830088 -0.1455841660 0.5662173629 4283976782
-0.2837073207 -0.1447633654 0.5654686093 4284239954
-0.2837684751 -0.1441661566 0.5655904412 4284306260
-0.2833920717 -0.1433473527 0.5648401976 4284372053
-0.2830152214 -0.1425299942 0.5640891790 4284437846
-0.2826379836 -0.1417141110 0.5633372664 4284372053
-0.2826979458 -0.1411181390 0.5634567738 4284305747
-0.2831954062 -0.1407393068 0.5644482374 4284239954
-0.2828171849 -0.1399250478 0.5636944175 4284239954
-0.2824385762 -0.1391122639 0.5629398227 4284305747
-0.2829355299 -0.1387304515 0.5639302731 4284108368
-0.2829943299 -0.1381326020 0.5640475154 4283779403
-0.2834910750 -0.1377472728 0.5650376081 4284174161
-0.2835495472 -0.1371477395 0.5651540756 4283647817
-0.2836077511 -0.1365478486 0.5652701259 4283516231
-0.2832272947 -0.1357374638 0.5645118356 4284305747
-0.2832849622 -0.1351377517 0.5646268129 4283845196
-0.2837810218 -0.1347459406 0.5656154752 4282989887
-0.2842769921 -0.1343519092 0.5666040778 4283647819
-0.2843341529 -0.1337492615 0.5667179227 4283516233
-0.2843910456 -0.1331462413 0.5668313503 4283582026
-0.2848866880 -0.1327473968 0.5678192377 4283779405
-0.2845041752 -0.1319391131 0.5670568347 4283779405
-0.2845603824 -0.1313350201 0.5671688318 4283516233
-0.2850555778 -0.1309323013 0.5681558251 4283713612
-0.2851113975 -0.1303265542 0.5682671070 4284305749
-0.2851669788 -0.1297204494 0.5683778524 4284108370
-0.2852223217 -0.1291140020 0.5684881806 4283845198
-0.2852774262 -0.1285071969 0.5685980320 4283845198
-0.2848926485 -0.1277029514 0.5678310990 4283910991
-0.2849471867 -0.1270963848 0.5679398179 4283976784
-0.2854413092 -0.1266846657 0.5689246655 4283845198
-0.2859353423 -0.1262707263 0.5699093342 4283516233
-0.2855493426 -0.1254679114 0.5691400170 4283516233
-0.2856030166 -0.1248590201 0.5692470074 4283845198
-0.2856564522 -0.1242497861 0.5693534613 4283910991
-0.2861498594 -0.1238307133 0.5703369379 4284042577
-0.2857625782 -0.1230302900 0.5695649981 4284108370
-0.2858152688 -0.1224200353 0.5696700215 4284174163
-0.2863081992 -0.1219971329 0.5706525445 4284174163
-0.2859199643 -0.1211985201 0.5698786974 4284304979
-0.2855312824 -0.1204014495 0.5691040158 4284370772
-0.2860236466 -0.1199756637 0.5700853467 4284239186
-0.2860751450 -0.1193637401 0.5701879859 4283515463
-0.2861263752 -0.1187514812 0.5702900887 4283515463
-0.2866183221 -0.1183209345 0.5712705851 4283844428
-0.2866691351 -0.1177070811 0.5713719130 4284041807
-0.2871608138 -0.1172730401 0.5723518729 4284173393
-0.2876524031 -0.1168367863 0.5733317137 4284173393
-0.2877026498 -0.1162200719 0.5734318495 4284041807
-0.2881939709 -0.1157803312 0.5744111538 4284239184
-0.2882438004 -0.1151620224 0.5745103955 4284502356
-0.2882933617 -0.1145434007 0.5746092200 4284765528
-0.2883426845 -0.1139244512 0.5747075081 4284502356
-0.2892750204 -0.1136522144 0.5765658021 4284107598
-0.2897657156 -0.1132033020 0.5775437951 4284239184
-0.2898145020 -0.1125805676 0.5776410699 4285094493
-0.2898630202 -0.1119575128 0.5777378082 4285818216
-0.2899112999 -0.1113341451 0.5778340101 4285949543
-0.2904013395 -0.1108792275 0.5788107514 4285686371
-0.2904492021 -0.1102542952 0.5789060593 4285752164
-0.2909389436 -0.1097959131 0.5798822045 4285686371
-0.2909863591 -0.1091694087 0.5799767375 4285028441
-0.2910335064 -0.1085425988 0.5800706744 4284502097
-0.2915227711 -0.1080794856 0.5810458660 4284502097
-0.2915694714 -0.1074511185 0.5811389685 4284304718
-0.2920584381 -0.1069845408 0.5821135640 4283976012
-0.2925472856 -0.1065157577 0.5830878615 4283778633
-0.2921507061 -0.1057243943 0.5822974443 4283844426
-0.2926391661 -0.1052531078 0.5832710266 4284304977
-0.2926847339 -0.1046213359 0.5833618045 4284304977
-0.2931728959 -0.1041465923 0.5843347907 4283778633
-0.2932179868 -0.1035132706 0.5844246745 4283449668
-0.2937058210 -0.1030350775 0.5853970051 4283252289
-0.2941935360 -0.1025546715 0.5863690972 4283515461
-0.2942379713 -0.1019185707 0.5864576697 4283712840
-0.2942821681 -0.1012821794 0.5865457654 4283778633
-0.2952126265 -0.1009486541 0.5884002447 4283515461
-0.2952564061 -0.1003097817 0.5884875655 4283844426
-0.2957433462 -0.0998202711 0.5894580483 4283910219
-0.2962301075 -0.0993285626 0.5904282928 4284041805
-0.2971602976 -0.0989823937 0.5922822356 4283976012
-0.2980904579 -0.0986320972 0.5941361785 4284239437
-0.2990205884 -0.0982776731 0.5959900618 4284699988
-0.3003944457 -0.0980639756 0.5987283587 4284765268
-0.3013246059 -0.0977003425 0.6005823016 4285225819
-0.3026986122 -0.0974755064 0.6033208966 4285949543
-0.3040726781 -0.0972446203 0.6060596108 4285554785
-0.3050029278 -0.0968666747 0.6079136729 4285490021
-0.3059331179 -0.0964846015 0.6097677350 4285753193
-0.3073073626 -0.0962374732 0.6125067472 4284438103
-0.3086816669 -0.0959842801 0.6152459979 4285885549
-0.3100560904 -0.0957250223 0.6179853678 4289505447
-0.3118748367 -0.0955958813 0.6216104031 4293584613
-0.3113903999 -0.1779013276 0.6220217943 4293322732
-0.3110307455 -0.1770055443 0.6213033795 4290625219
-0.3111045361 -0.1763570756 0.6214508414 4286807171
-0.3107441068 -0.1754630804 0.6207308769 4283780693
-0.3099491596 -0.1743262857 0.6191428304 4283450701
-0.3087193370 -0.1729494035 0.6166862249 4283845459
-0.3061857522 -0.1708504856 0.6116251945 4283581772
-0.3032163084 -0.1685205847 0.6056935787 4283450186
-0.2998107076 -0.1659624130 0.5988906622 4283384647
-0.2959686518 -0.1631787419 0.5912159085 4283187268
-0.2925592661 -0.1606497020 0.5844054818 4283318082
-0.2895828784 -0.1583725959 0.5784599185 4282857531
-0.2874746621 -0.1565815955 0.5742486715 4283582283
-0.2858002484 -0.1550352573 0.5709038973 4283648076
-0.2841248214 -0.1534958184 0.5675571561 4283582537
-0.2837540209 -0.1526657045 0.5668163896 4283714123
-0.2829474509 -0.1516037881 0.5652052760 4283977295
-0.2830111086 -0.1510097682 0.5653324127 4283845709
-0.2826390266 -0.1501839310 0.5645892024 4283779403
-0.2822665572 -0.1493595392 0.5638450980 4283779403
-0.2823293507 -0.1487661451 0.5639705658 4283779403
-0.2823919058 -0.1481723636 0.5640955567 4283582024
-0.2824542522 -0.1475781798 0.5642200708 4283647815
-0.2825163603 -0.1469836086 0.5643441677 4284042573
-0.2825782597 -0.1463886499 0.5644677877 4284239952
-0.2826399207 -0.1457933038 0.5645909905 4284174159
-0.2822651267 -0.1449734867 0.5638422370 4284042575
-0.2818898857 -0.1441551298 0.5630927086 4283976782
-0.2819506824 -0.1435604542 0.5632141829 4284108881
-0.2820112705 -0.1429653913 0.5633351803 4284306260
-0.2816349864 -0.1421495676 0.5625835061 4284634712
-0.2808215618 -0.1411157399 0.5609586239 4284634712
-0.2813180089 -0.1407408416 0.5619503260 4284437333
-0.2813774943 -0.1401461065 0.5620691776 4284437333
-0.2814367712 -0.1395509988 0.5621875525 4284503126
-0.2814958096 -0.1389555037 0.5623055100 4284437333
-0.2815546095 -0.1383596510 0.5624229908 4284305747
-0.2820504904 -0.1379773319 0.5634135008 4284042575
-0.2821089327 -0.1373797953 0.5635302663 4284174161
-0.2826046050 -0.1369939595 0.5645204186 4284042575
-0.2826626897 -0.1363947541 0.5646364093 4283779403
-0.2822828591 -0.1355849802 0.5638777018 4284174161
-0.2823404074 -0.1349859685 0.5639926195 4284304977
-0.2823976874 -0.1343865991 0.5641070604 4283581254
-0.2824547291 -0.1337868720 0.5642210245 4283713612
-0.2825115621 -0.1331867576 0.5643345714 4283647819
-0.2830062509 -0.1327918619 0.5653226972 4283516233
-0.2835008800 -0.1323947459 0.5663107634 4283647819
-0.2831189036 -0.1315879971 0.5655477643 4283713612
-0.2836132348 -0.1311882883 0.5665352345 4283582026
-0.2836690843 -0.1305845380 0.5666467547 4283779405
-0.2837246656 -0.1299804151 0.5667577982 4284042577
-0.2837800086 -0.1293759495 0.5668683648 4284042577
-0.2833964527 -0.1285720915 0.5661021471 4283976784
-0.2834512591 -0.1279678494 0.5662116408 4283976784
-0.2835057974 -0.1273632646 0.5663206577 4284042577
-0.2831211984 -0.1265621036 0.5655522943 4284108370
-0.2836142182 -0.1261530370 0.5665372014 4284174163
-0.2841071784 -0.1257417500 0.5675219297 4284239956
-0.2841608822 -0.1251348406 0.5676291585 4284174163
-0.2837750614 -0.1243351176 0.5668584704 4284239186
-0.2842675447 -0.1239199862 0.5678422451 4284173393
-0.2843205035 -0.1233120486 0.5679480433 4284239186
-0.2843732536 -0.1227037683 0.5680533648 4284239186
-0.2848653495 -0.1222838610 0.5690363646 4284239186
-0.2849176824 -0.1216739714 0.5691409111 4284239186
-0.2845299840 -0.1208769158 0.5683664680 4284370772
-0.2841418982 -0.1200814098 0.5675912499 4284502358
-0.2846332788 -0.1196573377 0.5685728192 4284304979
-0.2846845388 -0.1190470532 0.5686752200 4283515463
-0.2847355902 -0.1184364483 0.5687771440 4283120705
-0.2847863734 -0.1178255081 0.5688785911 4283449670
-0.2852771580 -0.1173954085 0.5698589683 4283712842
-0.2857678533 -0.1169630885 0.5708391666 4283976014
-0.2858180404 -0.1163492873 0.5709394813 4284304979
-0.2863084972 -0.1159134880 0.5719191432 4284239186
-0.2863582671 -0.1152980924 0.5720186234 4284370770
-0.2868484557 -0.1148588061 0.5729977489 4284107598
-0.2868978083 -0.1142418236 0.5730963945 4283844426
-0.2873877287 -0.1137990654 0.5740749836 4283581254
-0.2874366641 -0.1131804958 0.5741727352 4283515461
-0.2879262865 -0.1127342582 0.5751507878 4283647047
-0.2879748046 -0.1121141091 0.5752477050 4284239184
-0.2880230844 -0.1114936545 0.5753441453 4284765528
-0.2885122299 -0.1110426784 0.5763213038 4284107341
-0.2890012860 -0.1105894893 0.5772982240 4283909962
-0.2890489399 -0.1099661961 0.5773934126 4284238927
-0.2890963554 -0.1093425974 0.5774880648 4284567892
-0.2895849347 -0.1088846773 0.5784640908 4284173134
-0.2896319032 -0.1082595214 0.5785579085 4284173134
-0.2901202142 -0.1077981368 0.5795332789 4284699478
-0.2901667356 -0.1071714163 0.5796262026 4284633685
-0.2906547189 -0.1067065597 0.5806010365 4284699735
-0.2911425829 -0.1062395051 0.5815755725 4284568149
-0.2911884785 -0.1056099758 0.5816672444 4284239184
-0.2907921970 -0.1048208475 0.5808756351 4284304977
-0.2912794948 -0.1043500304 0.5818490386 4284436563
-0.2913246155 -0.1037196144 0.5819391608 4283976012
-0.2922537625 -0.1034017801 0.5837951899 4283647047
-0.2922984958 -0.1027688682 0.5838845372 4283844426
-0.2923429608 -0.1021356657 0.5839733481 4284041805
-0.2928295135 -0.1016557366 0.5849452615 4284041805
-0.2928735316 -0.1010209993 0.5850332379 4284304977
-0.2938022316 -0.1006892622 0.5868883729 4284173391
-0.2942883670 -0.1002027243 0.5878594518 4284107598
-0.2947744131 -0.0997139737 0.5888303518 4283844426
-0.2952602804 -0.0992230251 0.5898009539 4283976012
-0.2961887717 -0.0988776758 0.5916556716 4284173391
-0.2971172631 -0.0985281989 0.5935103297 4284699988
-0.2984885871 -0.0983204767 0.5962496400 4285094746
-0.2994171083 -0.0979617834 0.5981044173 4285028694
-0.3007885814 -0.0977429226 0.6008440256 4285160280
-0.3026032150 -0.0976609886 0.6044688821 4286212714
-0.3035318553 -0.0972870216 0.6063238978 4286081128
-0.3044604659 -0.0969089270 0.6081788540 4285489505
-0.3053890169 -0.0965266973 0.6100336909 4285357919
-0.3067608774 -0.0962794647 0.6127740741 4285490534
-0.3081327975 -0.0960261747 0.6155145764 4288977563
-0.3095047772 -0.0957668200 0.6182551980 4291742409
-0.3095303774 -0.1772319078 0.6196811795 4291085256
-0.3091711402 -0.1763384938 0.6189619899 4286150781
-0.3083783388 -0.1752003580 0.6173747778 4283385165
-0.3080181181 -0.1743105501 0.6166536212 4283911509
-0.3067907989 -0.1729335934 0.6141965389 4283779151
-0.3046958148 -0.1710749120 0.6100023389 4283384393
-0.3017325103 -0.1687399745 0.6040697694 4283515979
-0.2979003191 -0.1659342200 0.5963976979 4282923842
-0.2940660715 -0.1631443948 0.5887215734 4282528566
-0.2906636000 -0.1606101990 0.5819098353 4282660152
-0.2885611057 -0.1588065773 0.5777005553 4282791479
-0.2860233486 -0.1567737162 0.5726199746 4283186237
-0.2847865522 -0.1554623395 0.5701439381 4283253318
-0.2835489213 -0.1541560292 0.5676662326 4283450697
-0.2827448249 -0.1530899256 0.5660563707 4283253572
-0.2823745310 -0.1522613317 0.5653150678 4283385158
-0.2815693021 -0.1512008160 0.5637030005 4283713610
-0.2820672989 -0.1508408338 0.5647000074 4283713610
-0.2816958725 -0.1500155926 0.5639563203 4283647817
-0.2813239992 -0.1491917819 0.5632118583 4283582024
-0.2813866436 -0.1485991031 0.5633372664 4283582024
-0.2814490497 -0.1480060071 0.5634621978 4283450438
-0.2815112174 -0.1474125236 0.5635867119 4284042059
-0.2811380029 -0.1465917230 0.5628395081 4284634196
-0.2811996341 -0.1459983736 0.5629628897 4284568403
-0.2812610567 -0.1454046369 0.5630858541 4284107852
-0.2813222706 -0.1448105127 0.5632084012 4283976266
-0.2809476554 -0.1439927518 0.5624584556 4284042059
-0.2810083032 -0.1433987767 0.5625798702 4283910989
-0.2810687423 -0.1428044140 0.5627008677 4284174161
-0.2802572250 -0.1417687088 0.5610762239 4284437333
-0.2798810899 -0.1409558654 0.5603231192 4284437333
-0.2799405456 -0.1403631270 0.5604422092 4284305747
-0.2804359496 -0.1399877220 0.5614339709 4284503126
-0.2804950476 -0.1393933147 0.5615523458 4284634712
-0.2805539370 -0.1387985200 0.5616702437 4284437333
-0.2806126177 -0.1382033527 0.5617876649 4284502356
-0.2811075449 -0.1378218383 0.5627785325 4284436563
-0.2811658382 -0.1372250021 0.5628952384 4284370770
-0.2812239230 -0.1366277933 0.5630115271 4284633942
-0.2817185223 -0.1362414360 0.5640017390 4284370770
-0.2817762196 -0.1356425732 0.5641172528 4284304977
-0.2813967466 -0.1348339617 0.5633575320 4284765528
-0.2810168564 -0.1340268552 0.5625969768 4284239184
-0.2815108001 -0.1336362511 0.5635858774 4284042577
-0.2815674841 -0.1330368519 0.5636993647 4284108370
-0.2816239297 -0.1324370801 0.5638123751 4283779405
-0.2821175456 -0.1320416778 0.5648005605 4283779405
-0.2821736336 -0.1314402670 0.5649128556 4283779405
-0.2822294533 -0.1308384985 0.5650246143 4283713612
-0.2822850645 -0.1302363575 0.5651359558 4283910991
-0.2823404372 -0.1296338737 0.5652468204 4283779405
-0.2823955715 -0.1290310472 0.5653571486 4284042577
-0.2824504673 -0.1284278482 0.5654670596 4284108370
-0.2825051248 -0.1278243065 0.5655764937 4284239956
-0.2821214795 -0.1270231754 0.5648084283 4284174163
-0.2821756005 -0.1264198720 0.5649167895 4284042577
-0.2826676965 -0.1260115951 0.5659019947 4283976784
-0.2827214301 -0.1254066676 0.5660095215 4284042577
-0.2827748954 -0.1248013899 0.5661165714 4283779405
-0.2828281224 -0.1241957694 0.5662231445 4283976014
-0.2828811407 -0.1235898063 0.5663292408 4283976014
-0.2829338908 -0.1229835078 0.5664348602 4283976784
-0.2829864025 -0.1223768741 0.5665400028 4284174163
-0.2834775150 -0.1219586879 0.5675231814 4284174163
-0.2835296094 -0.1213504374 0.5676275492 4284108370
-0.2831425071 -0.1205549389 0.5668525696 4284042577
-0.2827550173 -0.1197609976 0.5660767555 4284108370
-0.2832453847 -0.1193386540 0.5670585036 4284305749
-0.2832964659 -0.1187300161 0.5671607256 4284108370
-0.2833472788 -0.1181210428 0.5672624707 4283779405
-0.2833978534 -0.1175117493 0.5673637390 4283779405
-0.2838876545 -0.1170833781 0.5683443546 4283910991
-0.2839378417 -0.1164724827 0.5684447885 4284239956
-0.2844273746 -0.1160406247 0.5694248080 4284503128
-0.2844771147 -0.1154281422 0.5695244670 4284305749
-0.2854061723 -0.1151702553 0.5713843703 4284370770
-0.2854555845 -0.1145552397 0.5714833140 4284107598
-0.2859446704 -0.1141154692 0.5724624991 4283910219
-0.2855536938 -0.1133242548 0.5716797113 4283976012
-0.2856023610 -0.1127082855 0.5717771649 4284041805
-0.2856507897 -0.1120920032 0.5718741417 4283976012
-0.2861391902 -0.1116471738 0.5728518963 4283910219
-0.2861871719 -0.1110293120 0.5729479790 4284041805
-0.2866753042 -0.1105810106 0.5739251971 4283778633
-0.2867228687 -0.1099615842 0.5740204453 4283318082
-0.2872107029 -0.1095098108 0.5749970675 4283581254
-0.2872578204 -0.1088888124 0.5750914216 4283910219
-0.2877453864 -0.1084335744 0.5760675073 4283515461
-0.2882328033 -0.1079761162 0.5770433545 4283515461
-0.2887201309 -0.1075164527 0.5780189633 4283910219
-0.2892073393 -0.1070545763 0.5789943337 4283712840
-0.2896944284 -0.1065904945 0.5799694657 4284107598
-0.2897403836 -0.1059629172 0.5800614953 4284633942
-0.2897861004 -0.1053350493 0.5801530480 4284304977
-0.2898315489 -0.1047068760 0.5802440643 4284107598
-0.2898767591 -0.1040784121 0.5803345442 4284370770
-0.2903629541 -0.1036071107 0.5813079476 4284370770
-0.2908490598 -0.1031336039 0.5822811127 4284239184
-0.2908936143 -0.1025023460 0.5823702812 4284304977
-0.2909379303 -0.1018708050 0.5824589729 4284239184
-0.2914234996 -0.1013925970 0.5834311247 4284173391
-0.2914673388 -0.1007595137 0.5835189223 4284633942
-0.2923942804 -0.1004295647 0.5853746533 4284831321
-0.2933212221 -0.1000954956 0.5872303843 4284699735
-0.2938063741 -0.0996075049 0.5882016420 4284041805
-0.2947332561 -0.0992661491 0.5900572538 4284239184
-0.2956601083 -0.0989206582 0.5919128060 4284568149
-0.2961449623 -0.0984241366 0.5928835273 4284699729
-0.2975138128 -0.0982173011 0.5956239700 4285094487
-0.2988827825 -0.0980044082 0.5983646512 4285686624
-0.3002518415 -0.0977854580 0.6011055112 4286081382
-0.3016210198 -0.0975604504 0.6038466096 4286804851
-0.3029902875 -0.0973293856 0.6065878868 4286344300
-0.3039172888 -0.0969511345 0.6084437370 4286015849
-0.3048442304 -0.0965687484 0.6102994680 4287200123
-0.3062136471 -0.0963214263 0.6130411029 4289372321
-0.3075831831 -0.0960680321 0.6157828569 4292201420
-0.3085101247 -0.0956713110 0.6176386476 4293453027
-0.3083907664 -0.1783478856 0.6187755466 4293191913
-0.3076007664 -0.1772052795 0.6171904802 4290494400
-0.3072422743 -0.1763138026 0.6164711118 4286873218
-0.3068833053 -0.1754236668 0.6157509089 4283978326
-0.3060916066 -0.1742887199 0.6141623259 4283976016
-0.3052992225 -0.1731569320 0.6125724912 4284502360
-0.3032086194 -0.1712952554 0.6083777547 4284106319
-0.3002514541 -0.1689552814 0.6024443507 4284369491
-0.2964271903 -0.1661424786 0.5947710276 4284040780
-0.2887052894 -0.1611708552 0.5792773366 4284172366
-0.2922360301 -0.1624904275 0.5863616467 4283647047
-0.2858081758 -0.1582792103 0.5734643340 4283712840
-0.2841416597 -0.1567228585 0.5701205730 4283582283
-0.2829073668 -0.1554113775 0.5676440001 4283713869
-0.2821056247 -0.1543420404 0.5660352707 4283516233
-0.2813032269 -0.1532759368 0.5644253492 4283384647
-0.2809337974 -0.1524483263 0.5636840463 4283582026
-0.2805639207 -0.1516221613 0.5629419088 4283516233
-0.2801936269 -0.1507973969 0.5621989369 4283713612
-0.2802567780 -0.1502065957 0.5623256564 4283647819
-0.2798857391 -0.1493837833 0.5615811944 4283647819
-0.2799483538 -0.1487931013 0.5617067814 4283713612
-0.2800107300 -0.1482020169 0.5618319511 4283647817
-0.2800728679 -0.1476105452 0.5619567037 4283516231
-0.2801348269 -0.1470186710 0.5620809793 4283713610
-0.2797621191 -0.1461993903 0.5613331199 4284108368
-0.2793889940 -0.1453815699 0.5605844855 4284174161
-0.2794500887 -0.1447903663 0.5607070327 4284108368
-0.2795109451 -0.1441987753 0.5608291626 4284042575
-0.2795715630 -0.1436067969 0.5609508157 4283845196
-0.2796319723 -0.1430144310 0.5610720515 4283779403
-0.2796921730 -0.1424216926 0.5611928105 4283779403
-0.2793170512 -0.1416079998 0.5604401231 4283253059
-0.2789415419 -0.1407957524 0.5596866608 4283121473
-0.2790008485 -0.1402037144 0.5598056912 4283845196
-0.2794953287 -0.1398290992 0.5607978106 4284174161
-0.2795542777 -0.1392353922 0.5609161258 4284173391
-0.2800485492 -0.1388572454 0.5619078875 4284304977
-0.2801071703 -0.1382618546 0.5620254874 4284502356
-0.2801655531 -0.1376660913 0.5621426105 4284436563
-0.2802236974 -0.1370699555 0.5622593164 4284304977
-0.2802816331 -0.1364734471 0.5623754859 4284304977
-0.2803393006 -0.1358765811 0.5624912381 4283910221
-0.2803967893 -0.1352793276 0.5626065731 4284041807
-0.2804540098 -0.1346817166 0.5627214313 4284568151
-0.2800747752 -0.1338752210 0.5619604588 4283976014
-0.2801314592 -0.1332778037 0.5620741844 4283910989
-0.2801879048 -0.1326800287 0.5621874928 4283910989
-0.2806806564 -0.1322876364 0.5631761551 4283845196
-0.2811733186 -0.1318930238 0.5641646981 4283713610
-0.2807925642 -0.1310884356 0.5634006858 4283647817
-0.2808481753 -0.1304882914 0.5635122657 4283647817
-0.2813404202 -0.1300898045 0.5644999743 4283779403
-0.2813956439 -0.1294880211 0.5646107793 4284042575
-0.2810136080 -0.1286857426 0.5638442636 4284108368
-0.2810682952 -0.1280841976 0.5639539361 4284108368
-0.2811227441 -0.1274822801 0.5640631914 4284305747
-0.2807396650 -0.1266827136 0.5632945299 4284305747
-0.2807935476 -0.1260810494 0.5634026527 4284108368
-0.2812846601 -0.1256744862 0.5643880367 4284042575
-0.2817756832 -0.1252657026 0.5653733015 4283910989
-0.2813914120 -0.1244675517 0.5646022558 4284108368
-0.2814444304 -0.1238635778 0.5647086501 4283713612
-0.2819350064 -0.1234509498 0.5656929612 4283779405
-0.2815497518 -0.1226545945 0.5649200082 4283976784
-0.2816020548 -0.1220495999 0.5650249124 4284239956
-0.2816541195 -0.1214442700 0.5651293993 4284239956
-0.2821440697 -0.1210265309 0.5661124587 4284042577
-0.2817575336 -0.1202325970 0.5653368831 4284042577
-0.2813706100 -0.1194402203 0.5645605326 4284305749
-0.2814216316 -0.1188345030 0.5646629333 4284633944
-0.2814724147 -0.1182284504 0.5647647977 4284633944
-0.2819614708 -0.1178052872 0.5657460690 4284633944
-0.2820118666 -0.1171976402 0.5658471584 4284107600
-0.2820619941 -0.1165896654 0.5659477711 4284041807
-0.2825506330 -0.1161617413 0.5669282079 4284502358
-0.2826003730 -0.1155521795 0.5670279860 4284502358
-0.2830887437 -0.1151207760 0.5680078864 4284304979
-0.2831380665 -0.1145096198 0.5681068301 4284107087
-0.2840652168 -0.1142513230 0.5699671507 4284107087
-0.2841142118 -0.1136376336 0.5700654387 4283843915
-0.2841629386 -0.1130236313 0.5701631904 4283580743
-0.2842113972 -0.1124093160 0.5702604651 4283712329
-0.2842596471 -0.1117946878 0.5703572631 4283712329
-0.2843076289 -0.1111797392 0.5704535246 4283580743
-0.2843553424 -0.1105644852 0.5705493093 4283909708
-0.2848424017 -0.1101188585 0.5715265870 4283909708
-0.2853293717 -0.1096710190 0.5725036263 4283712329
-0.2853764892 -0.1090529412 0.5725982189 4283975501
-0.2858631611 -0.1086016297 0.5735747218 4283975501
-0.2863497436 -0.1081481129 0.5745509863 4283909708
-0.2868361771 -0.1076923832 0.5755270123 4283975501
-0.2873225212 -0.1072344482 0.5765028596 4283843915
-0.2878087461 -0.1067743003 0.5774784684 4283843915
-0.2882948816 -0.1063119397 0.5784538388 4283515204
-0.2883406579 -0.1056860164 0.5785456896 4283580997
-0.2883861959 -0.1050597951 0.5786370635 4283909962
-0.2884314656 -0.1044332832 0.5787279010 4284304720
-0.2884764969 -0.1038064733 0.5788182020 4284436052
-0.2894022167 -0.1034944281 0.5806756616 4284172880
-0.2898874283 -0.1030216813 0.5816492438 4284107087
-0.2899318635 -0.1023911238 0.5817384124 4284567638
-0.2899760604 -0.1017602831 0.5818270445 4285028189
-0.2904607356 -0.1012828350 0.5827995539 4284567638
-0.2905044854 -0.1006504595 0.5828873515 4284173134
-0.2914297283 -0.1003213376 0.5847437978 4284699478
-0.2923550010 -0.0999880955 0.5866003036 4285028440
-0.2928392291 -0.0995008722 0.5875719190 4285225819
-0.2937644124 -0.0991603360 0.5894283056 4285028440
-0.2946895957 -0.0988156721 0.5912846327 4285423198
-0.2956147790 -0.0984668806 0.5931409597 4285290583
-0.2969812155 -0.0982599556 0.5958826542 4284961618
-0.2979063988 -0.0979019478 0.5977390409 4285949026
-0.2992730141 -0.0976838768 0.6004810929 4285949026
-0.3010811806 -0.0976028591 0.6041091084 4286673778
-0.3020065129 -0.0972295552 0.6059657335 4286279020
-0.3033733964 -0.0969933048 0.6087083817 4287003771
-0.3042987287 -0.0966107622 0.6105650067 4290096042
-0.3056657314 -0.0963633433 0.6133078933 4291873482
-0.3070328534 -0.0961098522 0.6160508990 4292399826
-0.3079581857 -0.0957129747 0.6179075837 4293716969
-0.3064640462 -0.1783142239 0.6162830591 4292994793
-0.3065379560 -0.1776723266 0.6164317131 4289901236
-0.3048866689 -0.1760340184 0.6131110191 4285624691
-0.3058224022 -0.1758909672 0.6149927378 4284372314
-0.3046010435 -0.1745079607 0.6125366688 4284503900
-0.3029473126 -0.1728836447 0.6092110872 4284502360
-0.3004292250 -0.1707753986 0.6041473746 4284173395
-0.2979097068 -0.1686775684 0.5990806818 4284106319
-0.2945249975 -0.1661030799 0.5922742486 4284237905
-0.2902745306 -0.1630573869 0.5837268233 4284106573
-0.2868859470 -0.1605129093 0.5769125223 4284238159
-0.2847920060 -0.1587050259 0.5727016926 4283910221
-0.2826968133 -0.1569058299 0.5684884191 4284041807
-0.2814651430 -0.1555933207 0.5660115480 4283911248
-0.2806650996 -0.1545239687 0.5644027591 4284108627
-0.2798644602 -0.1534578651 0.5627926588 4284107600
-0.2790631652 -0.1523949951 0.5611813664 4283581256
-0.2791268229 -0.1518060863 0.5613092780 4283778633
-0.2787573636 -0.1509823352 0.5605663657 4283910219
-0.2783875167 -0.1501599997 0.5598226190 4283910219
-0.2784502804 -0.1495717168 0.5599488616 4283778633
-0.2785128653 -0.1489830464 0.5600746870 4283976012
-0.2785751820 -0.1483939737 0.5602000356 4283976012
-0.2786373198 -0.1478044987 0.5603249669 4283976012
-0.2786992192 -0.1472146362 0.5604494810 4283712840
-0.2787609100 -0.1466243863 0.5605735183 4283515461
-0.2788223624 -0.1460337341 0.5606970787 4283449668
-0.2784498930 -0.1452165097 0.5599480271 4283581254
-0.2780770063 -0.1444007307 0.5591982007 4283910219
-0.2781375945 -0.1438107640 0.5593200922 4284239184
-0.2781980038 -0.1432203948 0.5594415069 4284370770
-0.2782581449 -0.1426296532 0.5595625043 4284436563
-0.2778838873 -0.1418169439 0.5588098764 4284239184
-0.2775092423 -0.1410056949 0.5580564737 4283844426
-0.2775685489 -0.1404156685 0.5581757426 4283976012
-0.2776276469 -0.1398252398 0.5582945347 4284502356
-0.2776865065 -0.1392344534 0.5584129095 4284436563
-0.2781797945 -0.1388602555 0.5594049096 4283844426
-0.2782382965 -0.1382677853 0.5595225692 4283581254
-0.2782965600 -0.1376749575 0.5596397519 4284041805
-0.2783546150 -0.1370817423 0.5597564578 4284239184
-0.2784124315 -0.1364881545 0.5598727465 4284502356
-0.2784700394 -0.1358942091 0.5599885583 4283844426
-0.2785274088 -0.1352998912 0.5601039529 4282989117
-0.2785845399 -0.1347052008 0.5602188706 4283120703
-0.2786414623 -0.1341101527 0.5603333116 4283581254
-0.2786981463 -0.1335147321 0.5604472756 4283515461
-0.2787545919 -0.1329189539 0.5605608225 4283253059
-0.2788108289 -0.1323228180 0.5606738925 4283384645
-0.2793025374 -0.1319321394 0.5616627336 4283647817
-0.2797942162 -0.1315392405 0.5626513958 4283779403
-0.2794140279 -0.1307362020 0.5618868470 4283845196
-0.2794694006 -0.1301376969 0.5619982481 4283845196
-0.2799606323 -0.1297409236 0.5629860759 4283910989
-0.2800156474 -0.1291407794 0.5630967021 4283976782
-0.2800704241 -0.1285402775 0.5632068515 4284108368
-0.2801249623 -0.1279394180 0.5633165240 4284239954
-0.2801792622 -0.1273382157 0.5634257197 4284305747
-0.2797968388 -0.1265392601 0.5626567006 4283976782
-0.2798505723 -0.1259382963 0.5627647638 4283713610
-0.2799040973 -0.1253369898 0.5628724098 4283910989
-0.2803941369 -0.1249299273 0.5638577938 4284108368
-0.2800104320 -0.1241333410 0.5630862117 4284108368
-0.2800632417 -0.1235309988 0.5631924272 4283582026
-0.2805528045 -0.1231200993 0.5641769171 4283845198
-0.2806051970 -0.1225161403 0.5642822981 4284108370
-0.2802202106 -0.1217219532 0.5635080934 4284305749
-0.2802720666 -0.1211182699 0.5636124015 4284437335
-0.2803236842 -0.1205142438 0.5637161732 4284503128
-0.2799376845 -0.1197228208 0.5629399419 4284633944
-0.2795512378 -0.1189329550 0.5621628165 4284765530
-0.2796019912 -0.1183298230 0.5622648597 4284304979
-0.2796524763 -0.1177263632 0.5623664260 4284173393
-0.2801404595 -0.1173058748 0.5633476973 4283910221
-0.2801905572 -0.1167008206 0.5634484887 4283449670
-0.2806783020 -0.1162768379 0.5644292831 4283581256
-0.2807279825 -0.1156701893 0.5645291805 4284370772
-0.2812154591 -0.1152427271 0.5655094981 4284633944
-0.2817028463 -0.1148130521 0.5664895773 4284370772
-0.2821901441 -0.1143811643 0.5674695373 4284107087
-0.2822391093 -0.1137703955 0.5675679445 4283975501
-0.2822878063 -0.1131593063 0.5676658750 4283778122
-0.2823362648 -0.1125479043 0.5677633286 4283778122
-0.2828229368 -0.1121100038 0.5687420368 4283975501
-0.2828709781 -0.1114970222 0.5688386559 4283975501
-0.2829187810 -0.1108837351 0.5689347386 4283712329
-0.2829663157 -0.1102701351 0.5690303445 4283580743
-0.2834523916 -0.1098262370 0.5700078607 4283909708
-0.2834995091 -0.1092110649 0.5701025724 4284107087
-0.2839853168 -0.1087636948 0.5710794926 4284304466
-0.2844710052 -0.1083141193 0.5720561743 4284370259
-0.2849565744 -0.1078623235 0.5730326772 4284567638
-0.2850029171 -0.1072430834 0.5731258392 4284633431
-0.2854882181 -0.1067878231 0.5741017461 4284633431
-0.2859733999 -0.1063303575 0.5750774741 4284699224
-0.2864584625 -0.1058706790 0.5760529041 4284436565
-0.2865040004 -0.1052473709 0.5761444569 4284502358
-0.2865493000 -0.1046237648 0.5762355328 4284436563
-0.2870338857 -0.1041593701 0.5772100091 4284436563
-0.2870787084 -0.1035342216 0.5773001909 4284436306
-0.2880026996 -0.1032239646 0.5791582465 4284238927
-0.2884869277 -0.1027529538 0.5801320076 4284107339
-0.2885311842 -0.1021240503 0.5802209973 4284107339
-0.2885752022 -0.1014948636 0.5803095102 4284765269
-0.2894988954 -0.1011729091 0.5821670294 4285554785
-0.2899825573 -0.1006940231 0.5831396580 4284962648
-0.2904660702 -0.1002129391 0.5841119885 4284173132
-0.2909494936 -0.0997296497 0.5850840807 4284304718
-0.2918729782 -0.0993940607 0.5869411826 4284238925
-0.2927964926 -0.0990543514 0.5887982845 4283844167
-0.2941603363 -0.0988585055 0.5915409327 4285357406
-0.2950838804 -0.0985095724 0.5933981538 4286146405
-0.2964479029 -0.0983025804 0.5961410999 4286080612
-0.2973714769 -0.0979444236 0.5979983807 4285028694
-0.2991762757 -0.0978704095 0.6016277671 4284962901
-0.3000999391 -0.0975020528 0.6034851670 4284963160
-0.3014643192 -0.0972717777 0.6062288880 4286410606
-0.3023880124 -0.0968941897 0.6080863476 4289635491
-0.3033116460 -0.0965124592 0.6099437475 4292596176
-0.3046761751 -0.0962659121 0.6126877666 4292597718
-0.3060407937 -0.0960132852 0.6154319644 4292926683
-0.3053280115 -0.1794183403 0.6153729558 4292732140
-0.3049720526 -0.1785262376 0.6146555543 4291414475
-0.3046156466 -0.1776354909 0.6139372587 4288124825
-0.3042588234 -0.1767460704 0.6132180691 4285097064
-0.3039015532 -0.1758580059 0.6124979854 4282728516
-0.3026827276 -0.1744749099 0.6100415587 4283516492
-0.3014630675 -0.1730967909 0.6075833440 4284108629
-0.2998117805 -0.1714772731 0.6042552590 4283975503
-0.2955742478 -0.1683917344 0.5957147479 4284172882
-0.2921963930 -0.1658130139 0.5889068842 4283908940
-0.2883856297 -0.1630047262 0.5812264681 4283908940
-0.2850039601 -0.1604551077 0.5744109154 4283712329
-0.2820517421 -0.1581614316 0.5684608817 4283778122
-0.2808234096 -0.1568437815 0.5659852028 4283778635
-0.2791627645 -0.1552911550 0.5626382828 4283910221
-0.2796589732 -0.1549409330 0.5636383295 4283779662
-0.2784284651 -0.1536357105 0.5611582994 4284108627
-0.2780607045 -0.1528101116 0.5604171157 4284107598
-0.2772606313 -0.1517495662 0.5588046312 4283515461
-0.2773239017 -0.1511631757 0.5589321256 4283778633
-0.2773869634 -0.1505763978 0.5590592027 4284239184
-0.2770176232 -0.1497555822 0.5583148599 4284239184
-0.2770801485 -0.1491689086 0.5584408641 4284041805
-0.2771424651 -0.1485818475 0.5585664511 4284370770
-0.2767721117 -0.1477635056 0.5578200221 4284304977
-0.2768338621 -0.1471765786 0.5579444766 4284897114
-0.2773280740 -0.1468182951 0.5589405298 4284897114
-0.2773894966 -0.1462296546 0.5590643287 4284962650
-0.2774507105 -0.1456406265 0.5591877103 4284896857
-0.2770787776 -0.1448249221 0.5584380627 4284765271
-0.2771394551 -0.1442360282 0.5585603714 4284962650
-0.2767667770 -0.1434223056 0.5578092933 4285291615
-0.2763937116 -0.1426100433 0.5570573807 4285423201
-0.2764535248 -0.1420218498 0.5571779013 4285160027
-0.2765131295 -0.1414332688 0.5572980642 4284633683
-0.2761390209 -0.1406235546 0.5565440655 4284370511
-0.2761980593 -0.1400351375 0.5566630960 4284502097
-0.2762569189 -0.1394463480 0.5567816496 4284633685
-0.2767493129 -0.1390751749 0.5577740669 4284370513
-0.2768077850 -0.1384847015 0.5578919649 4283909962
-0.2768660486 -0.1378938556 0.5580093861 4283580997
-0.2769241035 -0.1373026520 0.5581263304 4283054910
-0.2769819200 -0.1367110610 0.5582428575 4283383875
-0.2774737477 -0.1363324672 0.5592340827 4284173391
-0.2775311768 -0.1357392222 0.5593498945 4283910219
-0.2771539986 -0.1349340975 0.5585896969 4283647047
-0.2772108912 -0.1343410462 0.5587043762 4283910219
-0.2772675753 -0.1337476224 0.5588186383 4283712840
-0.2773240507 -0.1331538409 0.5589324236 4283515461
-0.2773802578 -0.1325597018 0.5590457320 4283581254
-0.2774362564 -0.1319651902 0.5591585636 4283515461
-0.2779269516 -0.1315762401 0.5601475835 4283712840
-0.2784176171 -0.1311850697 0.5611364245 4283844426
-0.2780379653 -0.1303835660 0.5603713393 4283910219
-0.2780931294 -0.1297867000 0.5604825020 4283976012
-0.2785833478 -0.1293916553 0.5614705086 4284173391
-0.2786381245 -0.1287931502 0.5615808964 4284304977
-0.2786926925 -0.1281942725 0.5616908669 4284107598
-0.2787470222 -0.1275950670 0.5618003011 4284107598
-0.2788010836 -0.1269955039 0.5619093180 4284173391
-0.2784192264 -0.1261980981 0.5611397028 4284173391
-0.2784727514 -0.1255987734 0.5612475872 4283976012
-0.2785260677 -0.1249991059 0.5613549948 4284173391
-0.2790150940 -0.1245937720 0.5623406172 4284436563
-0.2786319554 -0.1237987429 0.5615684390 4284370770
-0.2786845565 -0.1231980473 0.5616744161 4283976014
-0.2791731060 -0.1227888763 0.5626590848 4284041807
-0.2787890136 -0.1219956428 0.5618849993 4284173393
-0.2788408995 -0.1213939339 0.5619895458 4284370772
-0.2788925469 -0.1207918972 0.5620936751 4284436565
-0.2789439559 -0.1201895177 0.5621972680 4284370772
-0.2785584927 -0.1193996593 0.5614204407 4284304979
-0.2781726718 -0.1186113656 0.5606427789 4284370772
-0.2782231867 -0.1180098802 0.5607445836 4284304979
-0.2782734931 -0.1174080744 0.5608459711 4283581256
-0.2783235312 -0.1168059409 0.5609468818 4283120705
-0.2788103521 -0.1163859069 0.5619280338 4283515463
-0.2792971134 -0.1159636602 0.5629090071 4284304979
-0.2793465853 -0.1153586581 0.5630087852 4284962909
-0.2798330784 -0.1149329245 0.5639892220 4284765530
-0.2798821628 -0.1143263429 0.5640881658 4283976014
-0.2803683877 -0.1138971299 0.5650681257 4283909708
-0.2808545232 -0.1134656966 0.5660479069 4283778122
-0.2809030414 -0.1128562689 0.5661457181 4283909708
-0.2809512913 -0.1122465208 0.5662429333 4284172880
-0.2809993029 -0.1116364598 0.5663397312 4284501845
-0.2814848423 -0.1111990213 0.5673183203 4284633431
-0.2815324366 -0.1105873883 0.5674142241 4284238673
-0.2815797925 -0.1099754423 0.5675096512 4283843915
-0.2816269100 -0.1093631908 0.5676046014 4283712329
-0.2821118236 -0.1089197621 0.5685819387 4284172880
-0.2825966179 -0.1084741205 0.5695590377 4284172880
-0.2830813527 -0.1080262735 0.5705359578 4284172880
-0.2831276655 -0.1074099392 0.5706292987 4284567638
-0.2836121023 -0.1069586203 0.5716056824 4284765017
-0.2840964198 -0.1065050960 0.5725817680 4284830810
-0.2841421366 -0.1058859527 0.5726739168 4284896603
-0.2850647271 -0.1055914089 0.5745333433 4284831325
-0.2851100564 -0.1049697548 0.5746247172 4284831325
-0.2851551771 -0.1043478101 0.5747156143 4284502358
-0.2856387794 -0.1038851440 0.5756903291 4284304979
-0.2861222625 -0.1034202725 0.5766648054 4284042059
-0.2866056561 -0.1029531956 0.5776390433 4283910473
-0.2870889008 -0.1024839059 0.5786129832 4283844679
-0.2875720561 -0.1020124182 0.5795867443 4283581507
-0.2876159549 -0.1013839319 0.5796751976 4283054650
-0.2885379493 -0.1010628045 0.5815334320 4284699475
-0.2890207171 -0.1005846858 0.5825064182 4285554784
-0.2895033360 -0.1001043692 0.5834791660 4284633682
-0.2904252112 -0.0997727811 0.5853371620 4284173132
-0.2913470864 -0.0994370654 0.5871951580 4284436304
-0.2922689617 -0.0990972221 0.5890531540 4284238927
-0.2931908369 -0.0987532511 0.5909110904 4284962650
-0.2945523262 -0.0985522345 0.5936551094 4285949026
-0.2959139049 -0.0983451605 0.5963993669 4286212198
-0.2968358696 -0.0979868621 0.5982574821 4285555038
-0.2986374497 -0.0979128256 0.6018884778 4285686624
-0.2995594740 -0.0975443274 0.6037468314 4284898137
-0.3004814982 -0.0971716866 0.6056050658 4288648338
-0.3018434942 -0.0969362184 0.6083500981 4292465103
-0.3027655184 -0.0965543389 0.6102083921 4293715170
-0.3041276336 -0.0963076875 0.6129536629 4293321441
-0.3054898381 -0.0960549712 0.6156991124 4293584613
-0.3034087718 -0.1793715060 0.6128767729 4292336866
-0.3034828007 -0.1787341535 0.6130263209 4289113009
-0.3031272590 -0.1778444350 0.6123080850 4287465866
-0.3023417890 -0.1767050475 0.6107215285 4285623662
-0.3019852638 -0.1758189201 0.6100013256 4285227621
-0.3007689416 -0.1744357497 0.6075444221 4283977554
-0.2995517850 -0.1730575413 0.6050857902 4283582026
-0.2974740267 -0.1711895466 0.6008887887 4283450440
-0.2936751246 -0.1683442593 0.5932151079 4283843915
-0.2946050167 -0.1682161093 0.5950934291 4283975501
-0.2903729081 -0.1651479304 0.5865447521 4284172880
-0.2865688503 -0.1623412371 0.5788606405 4283975501
-0.2810412049 -0.1585790664 0.5676949024 4283843915
-0.2789545953 -0.1567756236 0.5634800196 4283778122
-0.2777279317 -0.1554629058 0.5610021949 4283582026
-0.2773618102 -0.1546354890 0.5602626801 4283779405
-0.2765645087 -0.1535702646 0.5586521626 4283779662
-0.2761974931 -0.1527465880 0.5579108000 4284240213
-0.2758300304 -0.1519243270 0.5571685433 4283845196
-0.2758932710 -0.1513399482 0.5572962761 4283713610
-0.2759562731 -0.1507551819 0.5574235320 4284304977
-0.2760190666 -0.1501700133 0.5575503707 4284897114
-0.2760816514 -0.1495844275 0.5576767921 4285094493
-0.2761440277 -0.1489984691 0.5578027964 4284765528
-0.2762061656 -0.1484120935 0.5579283237 4284897114
-0.2758364379 -0.1475943625 0.5571814775 4284633942
-0.2758980393 -0.1470081210 0.5573059320 4284502356
-0.2759594321 -0.1464214921 0.5574299097 4284831321
-0.2760206163 -0.1458344758 0.5575535297 4285423201
-0.2756495178 -0.1450197548 0.5568039417 4285620580
-0.2757101655 -0.1444328874 0.5569264293 4285357408
-0.2757706046 -0.1438456178 0.5570484996 4284896857
-0.2753984630 -0.1430334151 0.5562967658 4284765271
-0.2754583657 -0.1424463093 0.5564177632 4284765271
-0.2755180299 -0.1418588161 0.5565382838 4284436304
-0.2751448750 -0.1410491616 0.5557845235 4284173132
-0.2747713029 -0.1402409673 0.5550299287 4284107852
-0.2748301029 -0.1396541893 0.5551487207 4284173645
-0.2753216028 -0.1392860264 0.5561415553 4284041805
-0.2753800750 -0.1386975646 0.5562596321 4284041805
-0.2754383385 -0.1381087303 0.5563772917 4284173391
-0.2754963636 -0.1375195086 0.5564945340 4283976012
-0.2755541503 -0.1369299293 0.5566112399 4283712840
-0.2756117284 -0.1363399774 0.5567275882 4283581254
-0.2761025131 -0.1359630972 0.5577189326 4283582024
-0.2761597335 -0.1353714764 0.5578345060 4283516231
-0.2762167156 -0.1347794980 0.5579496622 4283647817
-0.2762734890 -0.1341871321 0.5580642819 4284042575
-0.2758962214 -0.1333847046 0.5573022366 4283910989
-0.2759524584 -0.1327925473 0.5574157834 4283647817
-0.2760084569 -0.1322000474 0.5575289130 4283778633
-0.2760642171 -0.1316071749 0.5576415658 4283647047
-0.2765538990 -0.1312199384 0.5586307049 4283712840
-0.2770435214 -0.1308304816 0.5596197248 4283778633
-0.2766644657 -0.1300305426 0.5588540435 4283910219
-0.2767193913 -0.1294353157 0.5589650273 4284107598
-0.2772085965 -0.1290419847 0.5599531531 4284370770
-0.2772631645 -0.1284451187 0.5600633621 4284502356
-0.2773174644 -0.1278478950 0.5601731539 4284370770
-0.2773715854 -0.1272503138 0.5602824092 4283976012
-0.2774254382 -0.1266523898 0.5603911877 4283844426
-0.2770441473 -0.1258565485 0.5596210361 4284107598
-0.2770974636 -0.1252588630 0.5597286820 4284041805
-0.2771505415 -0.1246608421 0.5598359108 4283976012
-0.2772033811 -0.1240624711 0.5599426627 4284304977
-0.2772559822 -0.1234637648 0.5600489378 4284436563
-0.2773083746 -0.1228647158 0.5601547360 4284436565
-0.2777959406 -0.1224572659 0.5611395836 4284239186
-0.2774124146 -0.1216656044 0.5603649020 4284173393
-0.2774640918 -0.1210655421 0.5604692698 4284436565
-0.2775155306 -0.1204651520 0.5605731606 4284436565
-0.2771309912 -0.1196762547 0.5597963929 4284239186
-0.2771818638 -0.1190761328 0.5598991513 4284173393
-0.2767966092 -0.1182894036 0.5591209531 4284436565
-0.2768469155 -0.1176895797 0.5592226386 4284502358
-0.2768970132 -0.1170894206 0.5593237877 4284370772
-0.2773829997 -0.1166723892 0.5603054762 4284436565
-0.2778688967 -0.1162531376 0.5612869859 4284831323
-0.2783547342 -0.1158316731 0.5622683167 4284765530
-0.2784040868 -0.1152273789 0.5623680353 4284304979
-0.2793261111 -0.1149820909 0.5642305017 4284239186
-0.2793751359 -0.1143752635 0.5643295646 4284239186
-0.2794239223 -0.1137681231 0.5644280910 4283778122
-0.2790358067 -0.1129838452 0.5636441112 4283778122
-0.2795207798 -0.1125528812 0.5646237731 4283975501
-0.2795688510 -0.1119447872 0.5647208095 4284172880
-0.2796166837 -0.1113363802 0.5648174286 4284370259
-0.2801012099 -0.1109006777 0.5657961965 4284567638
-0.2801486254 -0.1102906987 0.5658919811 4284370259
-0.2801957726 -0.1096804142 0.5659872293 4284107087
-0.2802426815 -0.1090698242 0.5660820007 4284172880
-0.2807266414 -0.1086281240 0.5670595169 4284436052
-0.2807731330 -0.1080159619 0.5671533942 4284041294
-0.2812567651 -0.1075707972 0.5681303740 4283778122
-0.2813028395 -0.1069570780 0.5682234764 4283909708
-0.2817862332 -0.1065084487 0.5691998601 4284172880
-0.2822694778 -0.1060576066 0.5701760650 4284370259
-0.2827526331 -0.1056045517 0.5711520314 4284238673
-0.2832356989 -0.1051492915 0.5721277595 4284239186
-0.2837186456 -0.1046918184 0.5731032491 4284436565
-0.2837635577 -0.1040715352 0.5731940269 4284107598
-0.2846841514 -0.1037702486 0.5750536323 4283910219
-0.2851667702 -0.1033061519 0.5760284662 4283647047
-0.2856492400 -0.1028398424 0.5770030022 4283515461
-0.2856934071 -0.1022145525 0.5770922303 4283713094
-0.2861755788 -0.1017447859 0.5780662298 4283581508
-0.2866576016 -0.1012728140 0.5790399313 4283186236
-0.2875778973 -0.1009525284 0.5808988810 4283515201
-0.2880597711 -0.1004751772 0.5818722248 4284765268
-0.2889800072 -0.1001475900 0.5837311149 4285357405
-0.2894616723 -0.0996648669 0.5847040415 4284896855
-0.2908205092 -0.0994800329 0.5874488354 4284831062
-0.2917407453 -0.0991400555 0.5893077254 4285028441
-0.2930997610 -0.0989440605 0.5920528769 4285160027
-0.2940200567 -0.0985948518 0.5939118266 4285488475
-0.2953792214 -0.0983877033 0.5966573358 4285488475
-0.2971774936 -0.0983197168 0.6002897620 4285291866
-0.2980979085 -0.0979552045 0.6021490097 4286936691
-0.2994574010 -0.0977298543 0.6048951149 4287990408
-0.3003778756 -0.0973561034 0.6067544222 4291609023
-0.3012982905 -0.0969782099 0.6086136699 4293583584
-0.3022186756 -0.0965961739 0.6104727983 4293780963
-0.3035783768 -0.0963494331 0.6132193208 4293322211
-0.3019224107 -0.1795732677 0.6112456918 4292600038
-0.3015680015 -0.1786841452 0.6105282307 4288783784
-0.3016416430 -0.1780492663 0.6106773019 4285954685
-0.3008579314 -0.1769099236 0.6090906262 4286411382
-0.3000735343 -0.1757737100 0.6075026393 4284766557
-0.2992885411 -0.1746406555 0.6059134007 4284569178
-0.2976450920 -0.1730121821 0.6025862694 4284108627
-0.2960006297 -0.1713904738 0.5992569923 4283713612
-0.2874896824 -0.1658157855 0.5820264816 4283318854
-0.2888458073 -0.1659482419 0.5847719908 4284041807
-0.2854801118 -0.1633724272 0.5779581070 4284107600
-0.2821125686 -0.1608106941 0.5711404681 4284304979
-0.2791726887 -0.1585069299 0.5651885867 4284041807
-0.2775199711 -0.1569443047 0.5618426204 4284107600
-0.2762959003 -0.1556305736 0.5593645573 4283910221
-0.2755008340 -0.1545630395 0.5577549338 4283779405
-0.2751350701 -0.1537389308 0.5570144057 4283910991
-0.2747688591 -0.1529162526 0.5562730432 4283977041
-0.2744022608 -0.1520950049 0.5555308461 4284306006
-0.2744654417 -0.1515126377 0.5556587577 4284042577
-0.2745284140 -0.1509298831 0.5557861924 4284042577
-0.2745911777 -0.1503467262 0.5559132695 4283976014
-0.2746537030 -0.1497631669 0.5560398698 4283844428
-0.2747160196 -0.1491792053 0.5561660528 4284107600
-0.2747781277 -0.1485948563 0.5562917590 4283910221
-0.2748400271 -0.1480101049 0.5564171076 4283910221
-0.2744708359 -0.1471938789 0.5556696057 4283778635
-0.2745321989 -0.1466092616 0.5557938218 4284173391
-0.2745933235 -0.1460242569 0.5559176207 4284107598
-0.2746542692 -0.1454388499 0.5560410023 4284502099
-0.2742837071 -0.1446256638 0.5552908182 4284962650
-0.2743440866 -0.1440404058 0.5554130673 4284962650
-0.2744042873 -0.1434547603 0.5555348992 4284304720
-0.2740326822 -0.1426441073 0.5547826290 4283844169
-0.2740923464 -0.1420586109 0.5549033880 4283778376
-0.2741517723 -0.1414727420 0.5550236702 4284041548
-0.2737791240 -0.1406646222 0.5542693138 4284041548
-0.2734061182 -0.1398579627 0.5535140634 4284304720
