VERSION 0.7
FIELDS x y z rgba
SIZE 4 4 4 4
TYPE F F F U
COUNT 1 1 1 1
WIDTH 920
HEIGHT 1
VIEWPOINT 0.0 0.0 0.0 1.0 0.0 0.0 0.0
POINTS 920
DATA ascii
-0.3096370399 -0.1432685107 0.5985983610 4283582794
-0.3092495799 -0.1424249858 0.5978493094 4282661692
-0.3093112707 -0.1417890042 0.5979685783 4282530106
-0.3093726933 -0.1411526501 0.5980873108 4283188036
-0.3094338775 -0.1405159086 0.5982056260 4283188036
-0.3094947934 -0.1398787946 0.5983234048 4282990657
-0.3100054264 -0.1394436955 0.5993105173 4283188036
-0.3105159402 -0.1390063614 0.6002975106 4283188036
-0.3105762899 -0.1383662671 0.6004141569 4283122243
-0.3106363714 -0.1377258152 0.6005303264 4283319622
-0.3111464977 -0.1372836530 0.6015164852 4283714380
-0.3112061322 -0.1366415173 0.6016318202 4283977552
-0.3117159903 -0.1361958385 0.6026175022 4284109138
-0.3117752373 -0.1355520338 0.6027320027 4283911759
-0.3113835752 -0.1347129196 0.6019748449 4283977552
-0.3118929267 -0.1342633367 0.6029595137 4283582794
-0.3124021590 -0.1338115335 0.6039440036 4283780173
-0.3124604523 -0.1331653446 0.6040566564 4284306517
-0.3129694462 -0.1327100247 0.6050406694 4284174931
-0.3139293790 -0.1324427575 0.6068964005 4283977552
-0.3139871061 -0.1317926943 0.6070080400 4284240724
-0.3144958019 -0.1313306987 0.6079914570 4284109138
-0.3150044084 -0.1308664680 0.6089746952 4283649357
-0.3159642816 -0.1305865645 0.6108303666 4284044115
-0.3164727390 -0.1301169395 0.6118133664 4284241494
-0.3165295720 -0.1294604242 0.6119232178 4283978322
-0.3174893856 -0.1291710287 0.6137787104 4284373080
-0.3184492588 -0.1288775355 0.6156343818 4285425768
-0.3194091618 -0.1285799295 0.6174900532 4286544249
-0.3199172616 -0.1280972958 0.6184723377 4287004800
-0.3208771646 -0.1277924329 0.6203280687 4284307287
-0.3218371272 -0.1274834573 0.6221839190 4285754733
-0.3223450482 -0.1269922704 0.6231658459 4287004800
-0.3233050108 -0.1266760081 0.6250216365 4287136386
-0.3242650032 -0.1263556480 0.6268775463 4287400587
-0.3252250552 -0.1260311753 0.6287335157 4287466380
-0.3266375065 -0.1258769333 0.6314641237 4287926931
-0.3271451890 -0.1253698915 0.6324455738 4287729552
-0.3285578489 -0.1252055317 0.6351765990 4288782240
-0.3299707174 -0.1250351667 0.6379079223 4290756030
-0.3304782808 -0.1245176569 0.6388892531 4291546061
-0.3358869851 -0.1709322035 0.6507427096 4288716449
-0.3355135322 -0.1700199097 0.6500191689 4285360488
-0.3351395726 -0.1691090167 0.6492946744 4284307800
-0.3338712752 -0.1677503586 0.6468375325 4284702045
-0.3330492079 -0.1666203886 0.6452448368 4284702045
-0.3313321769 -0.1650481671 0.6419183016 4284372310
-0.3278251886 -0.1625955403 0.6351238489 4284174931
-0.3247637153 -0.1603780389 0.6291926503 4283517773
-0.3208058178 -0.1577329487 0.6215246916 4283649359
-0.3159509301 -0.1546657979 0.6121188402 4283582796
-0.3133317828 -0.1527091861 0.6070445776 4283188038
-0.3107112348 -0.1507631838 0.6019675732 4282990659
-0.3094327748 -0.1494767666 0.5994906425 4283319624
-0.3086013794 -0.1484108567 0.5978799462 4283583566
-0.3077693582 -0.1473482400 0.5962679982 4283780945
-0.3073847890 -0.1465024650 0.5955229998 4283648587
-0.3069998324 -0.1456581354 0.5947771072 4283845966
-0.3070626855 -0.1450269818 0.5948988795 4284043345
-0.3071252704 -0.1443954408 0.5950201750 4283977552
-0.3071876466 -0.1437635124 0.5951409936 4283977295
-0.3068011999 -0.1429222524 0.5943923593 4284240467
-0.3068629801 -0.1422904879 0.5945119858 4284109138
-0.3069244921 -0.1416583359 0.5946311951 4283780173
-0.3065369725 -0.1408196241 0.5938804150 4283517003
-0.3065978885 -0.1401876360 0.5939984322 4283319624
-0.3066585958 -0.1395552754 0.5941160321 4283517003
-0.3071680963 -0.1391259432 0.5951031446 4283714382
-0.3072283566 -0.1384919137 0.5952199101 4283714382
-0.3077376187 -0.1380590498 0.5962065458 4283714382
-0.3077974916 -0.1374233514 0.5963224769 4283911761
-0.3078570962 -0.1367872804 0.5964379907 4284043347
-0.3079164326 -0.1361508369 0.5965529680 4284043347
-0.3084251285 -0.1357118487 0.5975384712 4284043347
-0.3084840477 -0.1350737363 0.5976526141 4283846738
-0.3085427284 -0.1344352663 0.5977662802 4283649359
-0.3086011410 -0.1337964386 0.5978794694 4283583566
-0.3086592853 -0.1331572384 0.5979921222 4283846738
-0.3087171912 -0.1325176805 0.5981042981 4283780945
-0.3092249334 -0.1320700049 0.5990880132 4283386187
-0.3097325861 -0.1316200942 0.6000715494 4283911761
-0.3106904328 -0.1313583553 0.6019272804 4284306519
-0.3107476234 -0.1307136267 0.6020380855 4284240726
-0.3108045757 -0.1300685406 0.6021484137 4284306519
-0.3108612597 -0.1294231117 0.6022582054 4284043347
-0.3113682568 -0.1289639622 0.6032404900 4284043347
-0.3118751943 -0.1285025924 0.6042225957 4284043347
-0.3123820126 -0.1280389875 0.6052045226 4284109140
-0.3128887415 -0.1275731623 0.6061862111 4284701277
-0.3138462901 -0.1272879988 0.6080413461 4285359207
-0.3143528700 -0.1268167943 0.6090227962 4285030242
-0.3148593605 -0.1263433546 0.6100040674 4284964449
-0.3153657317 -0.1258677095 0.6109851003 4285030242
-0.3158719838 -0.1253898293 0.6119658947 4285030242
-0.3163781166 -0.1249097213 0.6129465103 4285161828
-0.3173355758 -0.1246046349 0.6148014665 4285359207
-0.3178415596 -0.1241191477 0.6157817841 4284570972
-0.3192505538 -0.1239821538 0.6185114980 4284702558
-0.3206597269 -0.1238391697 0.6212416291 4284965730
-0.3216173947 -0.1235167161 0.6230970025 4284439386
-0.3230268657 -0.1233626828 0.6258276701 4285228902
-0.3235327899 -0.1228594631 0.6268078685 4286215797
-0.3240385950 -0.1223540157 0.6277877688 4286282106
-0.3249962628 -0.1220160499 0.6296431422 4287663759
-0.3259539604 -0.1216739640 0.6314985752 4289308584
-0.3269116580 -0.1213277578 0.6333540678 4288584861
-0.3274171352 -0.1208105758 0.6343333721 4288848546
-0.3274701834 -0.1201252416 0.6344361305 4289572269
-0.3275229633 -0.1194395795 0.6345383525 4290295994
-0.3293852210 -0.1194096804 0.6381462812 4291019717
-0.3307952881 -0.1192087904 0.6408780813 4291217096
-0.3313002884 -0.1186776310 0.6418564916 4291677647
-0.3318051398 -0.1181442440 0.6428346038 4291875283
-0.3347151577 -0.1721472740 0.6498708129 4291217356
-0.3338972032 -0.1710063070 0.6482827067 4287400589
-0.3330786228 -0.1698685437 0.6466933489 4284374111
-0.3322593868 -0.1687339693 0.6451027393 4283978322
-0.3309933841 -0.1673770398 0.6426447630 4284833631
-0.3292804062 -0.1658004820 0.6393188834 4284635736
-0.3271200955 -0.1640070379 0.6351245046 4284635736
-0.3240658343 -0.1617766619 0.6291944385 4284766809
-0.3196705580 -0.1588928998 0.6206607819 4283779914
-0.3170593679 -0.1569110453 0.6155909896 4283517773
-0.3126601875 -0.1540594250 0.6070496440 4283649359
-0.3104926050 -0.1523215771 0.6028411984 4283845968
-0.3087706864 -0.1508107483 0.5994979739 4283648589
-0.3070477545 -0.1493068635 0.5961527824 4283517003
-0.3062179089 -0.1482427567 0.5945415497 4283714382
-0.3058345616 -0.1473974288 0.5937972665 4283846738
-0.3050035536 -0.1463389695 0.5921838880 4283846738
-0.3050665855 -0.1457111090 0.5923061967 4283780943
-0.3051293492 -0.1450828612 0.5924280882 4283846736
-0.3047443926 -0.1442424208 0.5916806459 4284306517
-0.3048065603 -0.1436143219 0.5918014050 4284306517
-0.3048685193 -0.1429858357 0.5919216275 4283911759
-0.3049302101 -0.1423569769 0.5920414329 4283780173
-0.3049916625 -0.1417277306 0.5921607614 4284043345
-0.3050528467 -0.1410980970 0.5922795534 4284240724
-0.3046657741 -0.1402618289 0.5915279984 4283582796
-0.3047263920 -0.1396323740 0.5916457176 4283385417
-0.3047867417 -0.1390025467 0.5917629004 4283648589
-0.3048468530 -0.1383723468 0.5918796062 4283780175
-0.3053551316 -0.1379443258 0.5928664207 4283845968
-0.3054148257 -0.1373124570 0.5929823518 4284240726
-0.3059228361 -0.1368809193 0.5939686894 4284372312
-0.3059821427 -0.1362473667 0.5940838456 4284174933
-0.3060411811 -0.1356134564 0.5941984653 4283582796
-0.3060999513 -0.1349791884 0.5943125486 4283648589
-0.3061584830 -0.1343445480 0.5944262147 4283714382
-0.3062167764 -0.1337095499 0.5945393443 4283845968
-0.3062747717 -0.1330741793 0.5946519971 4284043347
-0.3063325584 -0.1324384511 0.5947641730 4284174933
-0.3063900769 -0.1318023652 0.5948758125 4284109140
-0.3064473271 -0.1311659217 0.5949870348 4283977554
-0.3069537282 -0.1307205111 0.5959702730 4283911761
-0.3074600697 -0.1302728951 0.5969533324 4284109140
-0.3075167239 -0.1296335161 0.5970633030 4283977554
-0.3080227971 -0.1291823685 0.5980458856 4283977554
-0.3080790043 -0.1285413504 0.5981550217 4283845968
-0.3081349730 -0.1278999895 0.5982636809 4284109140
-0.3086405694 -0.1274440587 0.5992453694 4284174933
-0.3091461062 -0.1269858927 0.6002268791 4284109140
-0.3096515238 -0.1265255213 0.6012081504 4284306519
-0.3097066581 -0.1258799583 0.6013152599 4284767070
-0.3102118075 -0.1254160702 0.6022959948 4284767070
-0.3111671507 -0.1251310557 0.6041508317 4284767070
-0.3112217486 -0.1244816333 0.6042568684 4284964449
-0.3117265701 -0.1240110844 0.6052370071 4285227621
-0.3122312725 -0.1235383153 0.6062169075 4284767070
-0.3131864965 -0.1232406497 0.6080715060 4284503898
-0.3136910498 -0.1227625012 0.6090511680 4284109908
-0.3146462739 -0.1224575639 0.6109057665 4284175701
-0.3156015277 -0.1221485212 0.6127604842 4284504666
-0.3165568411 -0.1218353733 0.6146152616 4284044115
-0.3175121546 -0.1215181202 0.6164700985 4283715150
-0.3184675276 -0.1211967468 0.6183249950 4283254599
-0.3189717531 -0.1207005456 0.6193039417 4283255114
-0.3194758296 -0.1202021241 0.6202827096 4285097318
-0.3199798167 -0.1197014749 0.6212611794 4286478971
-0.3209350407 -0.1193664894 0.6231158376 4286544764
-0.3214388192 -0.1188604534 0.6240939498 4287005315
-0.3210394084 -0.1180202067 0.6233184934 4286347385
-0.3215427697 -0.1175116226 0.6242958307 4286940036
-0.3229493797 -0.1173290014 0.6270267963 4288913826
-0.3234526217 -0.1168140769 0.6280038953 4289637549
-0.3239557147 -0.1162969321 0.6289806962 4290361272
-0.3253624737 -0.1161000654 0.6317119598 4290493373
-0.3263173997 -0.1157368720 0.6335660219 4291611854
-0.3268202841 -0.1152102128 0.6345424056 4290362044
-0.3273230493 -0.1146813333 0.6355185509 4289177770
-0.3287299871 -0.1144651324 0.6382502317 4291283146
-0.3296847939 -0.1140864044 0.6401040554 4290822595
-0.3306396306 -0.1137035564 0.6419578791 4289901495
-0.3306896687 -0.1130073890 0.6420550346 4290493632
-0.3331728876 -0.1724446714 0.6482743621 4289572017
-0.3319117725 -0.1710743755 0.6458204985 4285624437
-0.3310948014 -0.1699375063 0.6442309022 4284373341
-0.3302772045 -0.1688038409 0.6426400542 4283978583
-0.3290137351 -0.1674468070 0.6401816607 4284570461
-0.3268587887 -0.1656434536 0.6359886527 4285031012
-0.3238118291 -0.1633992791 0.6300599575 4284832602
-0.3212087452 -0.1613913327 0.6249949932 4284701016
-0.3150394559 -0.1576104909 0.6129910946 4284634710
-0.3119871318 -0.1554089636 0.6070519686 4284239952
-0.3089331985 -0.1532198489 0.6011097431 4283451980
-0.3067694902 -0.1514835209 0.5968996882 4283715152
-0.3054965436 -0.1501944959 0.5944228172 4284044117
-0.3037766814 -0.1486922204 0.5910764337 4284044117
-0.3047328591 -0.1485014558 0.5929369330 4284109140
-0.3034578860 -0.1472240835 0.5904560685 4284109140
-0.3026284277 -0.1461674273 0.5888421535 4283978324
-0.3022448123 -0.1453287303 0.5880957842 4283780945
-0.3027538657 -0.1449189782 0.5890862346 4284044115
-0.3028162122 -0.1442941725 0.5892075300 4283912529
-0.3024315834 -0.1434570849 0.5884591937 4283845966
-0.3024933636 -0.1428324282 0.5885793567 4283582794
-0.3025548756 -0.1422073841 0.5886991024 4283648587
-0.3026161492 -0.1415819675 0.5888183117 4283977552
-0.3026771843 -0.1409561783 0.5889370441 4283977552
-0.3027379811 -0.1403300017 0.5890553594 4283582794
-0.3027985394 -0.1397034526 0.5891731381 4283714382
-0.3028588295 -0.1390765309 0.5892904401 4283451210
-0.3024714291 -0.1382447183 0.5885366797 4283582796
-0.3029786646 -0.1378215551 0.5895236731 4283582796
-0.3030382097 -0.1371935159 0.5896395445 4283582796
-0.3035452366 -0.1367668211 0.5906260610 4284043347
-0.3036043644 -0.1361371130 0.5907410979 4283977554
-0.3036632538 -0.1355070323 0.5908557177 4283319624
-0.3041698635 -0.1350755244 0.5918414593 4283780175
-0.3042283356 -0.1344437897 0.5919552445 4283714382
-0.3042865694 -0.1338116825 0.5920684934 4283648589
-0.3043445349 -0.1331792325 0.5921813250 4283845968
-0.3044022620 -0.1325463951 0.5922936201 4284043347
-0.3044597208 -0.1319132149 0.5924054384 4283845968
-0.3045169115 -0.1312796772 0.5925167203 4283780175
-0.3050224483 -0.1308381855 0.5935003757 4284043347
-0.3050792217 -0.1302030087 0.5936108232 4284438105
-0.3051357567 -0.1295674592 0.5937208533 4284306519
-0.3051920235 -0.1289315671 0.5938303471 4283911761
-0.3056969345 -0.1284839958 0.5948127508 4283714382
-0.3057527840 -0.1278464645 0.5949214101 4283780175
-0.3058083653 -0.1272085905 0.5950295925 4284240726
-0.3058637083 -0.1265703589 0.5951372385 4284043347
-0.3063679934 -0.1261167079 0.5961184502 4283648589
-0.3064228892 -0.1254768670 0.5962252617 4284240726
-0.3069269061 -0.1250197142 0.5972059369 4284438105
-0.3069813550 -0.1243782341 0.5973119140 4284767070
-0.3074850738 -0.1239175797 0.5982920527 4284701277
-0.3075390756 -0.1232744828 0.5983971357 4284767070
-0.3080425262 -0.1228103340 0.5993766785 4285096035
-0.3085458577 -0.1223439649 0.6003560424 4284109140
-0.3094989359 -0.1220527813 0.6022105217 4283582796
-0.3100021183 -0.1215810329 0.6031896472 4283517003
-0.3105052114 -0.1211070642 0.6041685343 4283188038
-0.3114582598 -0.1208054498 0.6060229540 4283451210
-0.3119612038 -0.1203261018 0.6070015430 4283845968
-0.3129142523 -0.1200172156 0.6088559031 4284174933
-0.3138673306 -0.1197042316 0.6107103825 4283911761
-0.3143700659 -0.1192163303 0.6116886139 4283517003
-0.3144222200 -0.1185563654 0.6117900610 4284240726
-0.3153751493 -0.1182338819 0.6136442423 4284702047
-0.3154269159 -0.1175713614 0.6137449145 4284833633
-0.3154783845 -0.1169085279 0.6138451099 4284899426
-0.3155295849 -0.1162453592 0.6139447093 4284241496
-0.3160313368 -0.1157469898 0.6149209738 4284636254
-0.3165329397 -0.1152464077 0.6158970594 4285623149
-0.3170344532 -0.1147436053 0.6168727875 4285623149
-0.3179868460 -0.1144008562 0.6187259555 4286281079
-0.3193903565 -0.1142153144 0.6214568615 4286478717
-0.3198916614 -0.1137030125 0.6224322915 4288452507
-0.3203928173 -0.1131884977 0.6234074235 4288716449
-0.3213451505 -0.1128302291 0.6252604723 4286150522
-0.3227488995 -0.1126253605 0.6279917955 4287466382
-0.3237012923 -0.1122579053 0.6298449039 4287334796
-0.3246536851 -0.1118863299 0.6316980720 4287269262
-0.3256060779 -0.1115106344 0.6335511804 4287137676
-0.3261067569 -0.1109770983 0.6345253587 4289900982
-0.3275107741 -0.1107468605 0.6372572780 4291216842
-0.3315593600 -0.1734178662 0.6465319991 4290887877
-0.3311892748 -0.1725067794 0.6458104253 4287729813
-0.3299306631 -0.1711363792 0.6433561444 4284439134
-0.3286711872 -0.1697710007 0.6409001946 4283320653
-0.3274108768 -0.1684106439 0.6384426355 4284702049
-0.3252610266 -0.1666001379 0.6342504621 4284373084
-0.3231099546 -0.1647983044 0.6300559044 4284241496
-0.3191795051 -0.1621021032 0.6223916411 4284373082
-0.3161363304 -0.1598716378 0.6164575219 4284569432
-0.3130915463 -0.1576535404 0.6105203032 4284306260
-0.3091555238 -0.1550018042 0.6028451920 4284173645
-0.3069972396 -0.1532545686 0.5986365676 4284173645
-0.3048377633 -0.1515160948 0.5944256186 4283386185
-0.3035673201 -0.1502269357 0.5919482708 4283780943
-0.3027412593 -0.1491622329 0.5903375149 4284240724
-0.3019146025 -0.1481008232 0.5887255073 4284240724
-0.3015326858 -0.1472602040 0.5879808664 4284109138
-0.3011503816 -0.1464210302 0.5872353315 4284109138
-0.3007676303 -0.1455833018 0.5864889622 4284043345
-0.3003844619 -0.1447470337 0.5857418180 4283845966
-0.3004466295 -0.1441260576 0.5858630538 4283845966
-0.3005085588 -0.1435046941 0.5859838128 4283977552
-0.3005702496 -0.1428829432 0.5861040950 4284109138
-0.3006317019 -0.1422608197 0.5862239003 4284043345
-0.3006928861 -0.1416383088 0.5863432288 4283648587
-0.3003076315 -0.1408061981 0.5855919719 4283385415
-0.3003682494 -0.1401838511 0.5857101679 4283582794
-0.3004286289 -0.1395611316 0.5858278871 4283845966
-0.3004887402 -0.1389380395 0.5859451890 4283517003
-0.3009952307 -0.1385200918 0.5869327784 4283780175
-0.3010549545 -0.1378953308 0.5870492458 4284174933
-0.3011144400 -0.1372701824 0.5871652365 4283911761
-0.3011736572 -0.1366446763 0.5872807503 4283517003
-0.3016795814 -0.1362206191 0.5882672668 4283714382
-0.3017384112 -0.1355934441 0.5883819461 4283977554
-0.3017970026 -0.1349659115 0.5884962082 4283977554
-0.3018553257 -0.1343380064 0.5886099339 4284109140
-0.3023606837 -0.1339078248 0.5895953774 4283977554
-0.3019712269 -0.1330811083 0.5888359547 4283845968
-0.3024762571 -0.1326483488 0.5898207426 4283845968
-0.3025336862 -0.1320180744 0.5899327397 4283911248
-0.3025908470 -0.1313874274 0.5900442004 4283713869
-0.3026477396 -0.1307564378 0.5901551247 4283713869
-0.3031521738 -0.1303175837 0.5911387801 4283911248
-0.3032086790 -0.1296849400 0.5912489295 4283780175
-0.3032649159 -0.1290519536 0.5913586020 4284306519
-0.3033208847 -0.1284186095 0.5914677382 4284635484
-0.3038247228 -0.1279736757 0.5924502015 4284503898
-0.3038802743 -0.1273386925 0.5925585628 4284306519
-0.3034873009 -0.1265164912 0.5917922258 4284635484
-0.3039906025 -0.1260676980 0.5927736759 4284306519
-0.3040453792 -0.1254316866 0.5928804874 4284043347
-0.3045484424 -0.1249793842 0.5938614607 4284372312
-0.3046027720 -0.1243417487 0.5939673781 4284569691
-0.3046568632 -0.1237037703 0.5940728784 4284635484
-0.3051594496 -0.1232466996 0.5950528979 4284569691
-0.3047642410 -0.1224267930 0.5942822695 4284569691
-0.3048175573 -0.1217878014 0.5943862200 4284767070
-0.3053196073 -0.1213269010 0.5953652263 4284174933
-0.3058215380 -0.1208637729 0.5963439941 4283977554
-0.3067725301 -0.1205749735 0.5981983542 4283845455
-0.3072743416 -0.1201064736 0.5991768837 4283779662
-0.3077760339 -0.1196357608 0.6001551747 4283779662
-0.3082776070 -0.1191628277 0.6011332273 4283648076
-0.3087790608 -0.1186876744 0.6021110415 4283845455
-0.3097299337 -0.1183821261 0.6039652824 4284174420
-0.3102312684 -0.1179015934 0.6049427986 4284043347
-0.3102827668 -0.1172489226 0.6050432324 4283780175
-0.3107837439 -0.1167649031 0.6060201526 4284372312
-0.3103849590 -0.1159426048 0.6052424908 4284701277
-0.3104356527 -0.1152889654 0.6053413749 4284174933
-0.3104860783 -0.1146350056 0.6054396629 4284306519
-0.3109862804 -0.1141459197 0.6064150929 4284701277
-0.3114863634 -0.1136546135 0.6073902249 4284569691
-0.3119863272 -0.1131611019 0.6083651185 4285227621
-0.3129363954 -0.1128277108 0.6102177501 4286148723
-0.3138864934 -0.1124902144 0.6120704412 4284898656
-0.3143861890 -0.1119881570 0.6130448580 4284569691
-0.3148857653 -0.1114838868 0.6140189767 4285754735
-0.3153851926 -0.1109774038 0.6149928570 4285820528
-0.3167857230 -0.1107838899 0.6177238226 4287202181
-0.3181864023 -0.1105843484 0.6204550862 4286610044
-0.3191364408 -0.1102230996 0.6223076582 4286083959
-0.3200864494 -0.1098577380 0.6241601706 4285426029
-0.3210364878 -0.1094882488 0.6260126829 4285491822
-0.3224374354 -0.1092674658 0.6287445426 4286478717
-0.3233875036 -0.1088887826 0.6305971146 4288190107
-0.3238864541 -0.1083550677 0.6315700412 4289703346
-0.3243852258 -0.1078191325 0.6325426698 4290229947
-0.3253350854 -0.1074299887 0.6343948841 4291282635
-0.3299481869 -0.1743825525 0.6447867155 4292072151
-0.3295793235 -0.1734720021 0.6440659165 4288782501
-0.3287669420 -0.1723305732 0.6424783468 4284965478
-0.3279539347 -0.1711923331 0.6408895254 4283452239
-0.3266969621 -0.1698268503 0.6384331584 4283386446
-0.3249957860 -0.1682368815 0.6351087093 4283846997
-0.3232935667 -0.1666537523 0.6317822337 4284636256
-0.3198160231 -0.1641667187 0.6249864101 4284044119
-0.3158929944 -0.1614670753 0.6173200011 4284109140
-0.3115242124 -0.1585576087 0.6087825298 4284043347
-0.3089286983 -0.1565658003 0.6037103534 4283911248
-0.3054438829 -0.1541364789 0.5969002843 4284042834
-0.3041775823 -0.1528370082 0.5944256783 4284174161
-0.3024662733 -0.1513204128 0.5910814404 4283910989
-0.3007539809 -0.1498107612 0.5877352953 4283714380
-0.3008180857 -0.1491895318 0.5878605247 4283977552
-0.2999930382 -0.1481289864 0.5862482190 4284043345
-0.2991673946 -0.1470717341 0.5846347213 4283845966
-0.2992303669 -0.1464529932 0.5847578049 4283780173
-0.2988483906 -0.1456171572 0.5840113759 4283780173
-0.2984659970 -0.1447827816 0.5832640529 4283911502
-0.2980831861 -0.1439498663 0.5825159550 4283977295
-0.2981449366 -0.1433323324 0.5826366544 4283714123
-0.2982064188 -0.1427144259 0.5827568173 4283845709
-0.2982676923 -0.1420961171 0.5828765631 4284108881
-0.2983287275 -0.1414774507 0.5829958320 4284503639
-0.2983894944 -0.1408583820 0.5831145644 4284503639
-0.2984500527 -0.1402389556 0.5832328796 4284240467
-0.2985103428 -0.1396191418 0.5833507180 4284043088
-0.2985703945 -0.1389989555 0.5834680796 4284108881
-0.2986302078 -0.1383783966 0.5835849643 4283977554
-0.2986897826 -0.1377574652 0.5837013721 4283977554
-0.2991949916 -0.1373408437 0.5846886635 4284109140
-0.2992541492 -0.1367182434 0.5848042965 4283977554
-0.2993130684 -0.1360952705 0.5849194527 4283780175
-0.2993717492 -0.1354719400 0.5850341320 4283911761
-0.2994301915 -0.1348482370 0.5851482749 4284240726
-0.2999346852 -0.1344242096 0.5861341953 4284503898
-0.2999927104 -0.1337988526 0.5862475634 4284372312
-0.3000504971 -0.1331731230 0.5863605142 4284174933
-0.3001080155 -0.1325470358 0.5864729285 4284108627
-0.3001652956 -0.1319206059 0.5865848064 4284042834
-0.3006690741 -0.1314891726 0.5875692964 4283977041
-0.3007259369 -0.1308610886 0.5876804590 4283911248
-0.3007825315 -0.1302326471 0.5877910852 4283845455
-0.3012858927 -0.1297964156 0.5887747407 4283713869
-0.3013420999 -0.1291663349 0.5888845325 4283845455
-0.3009508550 -0.1283451915 0.5881199837 4284174420
-0.3010064363 -0.1277153343 0.5882286429 4284437592
-0.3015091419 -0.1272739619 0.5892109871 4284569178
-0.3020117283 -0.1268303841 0.5901931524 4284634971
-0.3016192317 -0.1260106564 0.5894261003 4285029729
-0.3016738892 -0.1253784746 0.5895329714 4284700764
-0.3021759689 -0.1249310374 0.5905141234 4284437592
-0.3022302091 -0.1242972389 0.5906201005 4284700764
-0.3027320206 -0.1238463074 0.5916007161 4284700764
-0.3032337129 -0.1233931556 0.5925811529 4284240213
-0.3028393388 -0.1225751340 0.5918105245 4284306006
-0.3024445772 -0.1217586547 0.5910390019 4284371799
-0.3029456437 -0.1213026121 0.5920182467 4284503385
-0.3029984236 -0.1206658483 0.5921213627 4284503385
-0.3034992218 -0.1202063113 0.5931000710 4284700764
-0.3044483066 -0.1199211776 0.5949547291 4284371799
-0.3045005202 -0.1192805916 0.5950567722 4284437592
-0.3050010204 -0.1188144088 0.5960348248 4284503639
-0.3055013716 -0.1183460057 0.5970126390 4284240467
-0.3060016632 -0.1178753898 0.5979902744 4283977295
-0.3065018058 -0.1174025610 0.5989676714 4284240467
-0.3070018291 -0.1169275120 0.5999448299 4284569432
-0.3070528507 -0.1162802503 0.6000445485 4284437846
-0.3071036041 -0.1156326607 0.6001437306 4284766811
-0.3071540594 -0.1149847582 0.6002423763 4285029983
-0.3072042763 -0.1143365353 0.6003404856 4284306260
-0.3072542250 -0.1136879921 0.6004380584 4284240467
-0.3073039055 -0.1130391359 0.6005351543 4284503639
-0.3078026474 -0.1125542745 0.6015098095 4284372053
-0.3083012700 -0.1120672077 0.6024842262 4284635482
-0.3092492819 -0.1117403358 0.6043367982 4284898654
-0.3097477257 -0.1112478971 0.6053108573 4284108368
-0.3102460206 -0.1107532457 0.6062846780 4283976782
-0.3107442260 -0.1102563813 0.6072582603 4284766811
-0.3112422526 -0.1097573042 0.6082315445 4284635225
-0.3121900260 -0.1094136760 0.6100836396 4284503639
-0.3135876954 -0.1092226431 0.6128149629 4284306260
-0.3145354986 -0.1088698283 0.6146671772 4284569691
-0.3154833317 -0.1085129008 0.6165194511 4285227621
-0.3164311349 -0.1081518531 0.6183716655 4285031012
-0.3173789382 -0.1077866852 0.6202238798 4284044117
-0.3183267415 -0.1074173972 0.6220760345 4283583568
-0.3188242018 -0.1068930104 0.6230481863 4283846740
-0.3197718859 -0.1065164357 0.6249001622 4284307548
-0.3202691078 -0.1059866697 0.6258718371 4285689201
-0.3212166727 -0.1056028083 0.6277235746 4287728784
-0.3221642375 -0.1052148193 0.6295753121 4288584093
-0.3226611018 -0.1046765149 0.6305462718 4288782753
-0.3227071166 -0.1039907560 0.6306362152 4289967027
-0.3241051435 -0.1037375480 0.6333682537 4291282887
-0.3255032897 -0.1034783050 0.6361005306 4292203989
-0.3279717863 -0.1744287014 0.6423185468 4291677134
-0.3271615803 -0.1732859015 0.6407318711 4287728784
-0.3267929554 -0.1723795533 0.6400098801 4284504927
-0.3255392313 -0.1710098684 0.6375545859 4283188808
-0.3242847025 -0.1696452051 0.6350975633 4283320394
-0.3225868046 -0.1680550277 0.6317723393 4283912531
-0.3195600510 -0.1657828540 0.6258445382 4283715152
-0.3165316880 -0.1635230184 0.6199136376 4283648589
-0.3126161098 -0.1608199477 0.6122451425 4283845968
-0.3082556427 -0.1579060107 0.6037053466 4283977554
-0.3047789633 -0.1554618776 0.5968964696 4283517003
-0.3026297987 -0.1537071019 0.5926873684 4283187525
-0.3004794121 -0.1519610733 0.5884759426 4283450697
-0.2992143929 -0.1506702304 0.5859984756 4283779916
-0.2983919382 -0.1496067941 0.5843877792 4283845709
-0.2980123460 -0.1487680078 0.5836443305 4283977295
-0.2976323366 -0.1479306519 0.5829001069 4284043088
-0.2972518802 -0.1470947415 0.5821549892 4283780173
-0.2968710065 -0.1462602913 0.5814090967 4283517001
-0.2969335616 -0.1456449777 0.5815315843 4283648330
-0.2969958782 -0.1450292915 0.5816536546 4283714123
-0.2966139317 -0.1441973448 0.5809056163 4283779916
-0.2962315381 -0.1433668584 0.5801567435 4283845709
-0.2962929606 -0.1427518427 0.5802769661 4283582537
-0.2963541448 -0.1421364546 0.5803968310 4283845709
-0.2964150906 -0.1415206939 0.5805161595 4283911502
-0.2964757681 -0.1409045458 0.5806350112 4283977295
-0.2965362370 -0.1402880251 0.5807534456 4284174674
-0.2965964377 -0.1396711171 0.5808713436 4284240467
-0.2966564298 -0.1390538365 0.5809888244 4284108881
-0.2967161536 -0.1384361833 0.5811057687 4283977295
-0.2967756391 -0.1378181726 0.5812222958 4284108627
-0.2968348861 -0.1371997744 0.5813383460 4283977041
-0.2973390222 -0.1367857754 0.5823256373 4284042834
-0.2978430688 -0.1363695562 0.5833128095 4283845455
-0.2974564731 -0.1355452836 0.5825556517 4283582283
-0.2975148261 -0.1349245012 0.5826699734 4283450697
-0.2975729406 -0.1343033314 0.5827838182 4283648076
-0.2976308167 -0.1336818188 0.5828971267 4284174420
-0.2976884544 -0.1330599338 0.5830099583 4284174420
-0.2981915474 -0.1326359510 0.5839952826 4284042834
-0.2982487679 -0.1320124120 0.5841073394 4283911248
-0.2983057499 -0.1313885152 0.5842189193 4283779662
-0.2979164720 -0.1305688024 0.5834565759 4283779662
-0.2984189391 -0.1301396638 0.5844405890 4283977041
-0.2984751463 -0.1295146942 0.5845506787 4284042834
-0.2989773452 -0.1290820539 0.5855342746 4283779662
-0.2990331650 -0.1284554452 0.5856435299 4283582283
-0.2990887165 -0.1278285086 0.5857523680 4283845455
-0.2991440296 -0.1272011995 0.5858606696 4283977041
-0.2991990745 -0.1265735626 0.5859684944 4284042834
-0.2997005284 -0.1261335462 0.5869505405 4283977041
-0.2997551560 -0.1255042702 0.5870575309 4284042834
-0.2998095155 -0.1248746589 0.5871639848 4283779662
-0.3003105223 -0.1244298667 0.5881451964 4283779662
-0.3003644645 -0.1237986311 0.5882508755 4284306006
-0.3008652031 -0.1233503371 0.5892315507 4284371799
-0.3013658524 -0.1228998303 0.5902120471 4283648076
-0.3014191985 -0.1222656965 0.5903164744 4283911248
-0.3005777001 -0.1212703064 0.5886684656 4284174420
-0.3010777235 -0.1208169013 0.5896477699 4284108627
-0.3011302054 -0.1201827154 0.5897505283 4284240213
-0.3016299605 -0.1197258234 0.5907292962 4284437592
-0.3021296263 -0.1192667186 0.5917078257 4284437846
-0.3026291430 -0.1188053936 0.5926861763 4284043088
-0.3026808500 -0.1181670576 0.5927873850 4284043088
-0.3027322590 -0.1175283864 0.5928880572 4284437846
-0.3032313287 -0.1170623079 0.5938654542 4284240467
-0.3037302792 -0.1165940166 0.5948426127 4283779916
-0.3037810624 -0.1159524918 0.5949420929 4283648330
-0.3042797148 -0.1154807135 0.5959186554 4283582537
-0.3043300211 -0.1148375943 0.5960172415 4283714123
-0.3039318323 -0.1140259802 0.5952373743 4284240467
-0.3044298887 -0.1135504097 0.5962128043 4284635482
-0.3044794500 -0.1129063442 0.5963098407 4284569689
-0.3045287132 -0.1122619659 0.5964063406 4284438103
-0.3045777082 -0.1116172746 0.5965023041 4284240724
-0.3055237234 -0.1112991422 0.5983550549 4284043345
-0.3060210645 -0.1108144149 0.5993290544 4284438103
-0.3065182567 -0.1103274748 0.6003027558 4283713610
-0.3070153296 -0.1098383293 0.6012762785 4283384645
-0.3075122535 -0.1093469709 0.6022495031 4283647817
-0.3080090582 -0.1088534072 0.6032224894 4284239954
-0.3085057437 -0.1083576307 0.6041951776 4284174161
-0.3094514310 -0.1080164239 0.6060472727 4284239954
-0.3103970885 -0.1076710969 0.6078993082 4284174674
-0.3113427758 -0.1073216572 0.6097514033 4284898397
-0.3118391037 -0.1068141907 0.6107234359 4283977554
-0.3123352826 -0.1063045114 0.6116951704 4283845968
-0.3137302697 -0.1060966328 0.6144272089 4284109140
-0.3142263293 -0.1055806279 0.6153987050 4284043347
-0.3151718080 -0.1052125096 0.6172503829 4283451210
-0.3156676292 -0.1046911329 0.6182214022 4283385417
-0.3161632717 -0.1041675508 0.6191921234 4284373082
-0.3166587949 -0.1036417633 0.6201625466 4285228391
-0.3171541393 -0.1031137630 0.6211326718 4285096803
-0.3180992603 -0.1027288660 0.6229836345 4285820526
-0.3190443516 -0.1023398414 0.6248345971 4286544764
-0.3204394579 -0.1020900831 0.6275668740 4287268487
-0.3213845491 -0.1016918570 0.6294177771 4288190103
-0.3227797747 -0.1014309675 0.6321502924 4290295479
-0.3259997666 -0.1744687706 0.6398482919 4291346368
-0.3251911998 -0.1733268946 0.6382612586 4287201409
-0.3243820071 -0.1721881926 0.6366730332 4284635484
-0.3235721290 -0.1710526943 0.6350834966 4284109140
-0.3218785524 -0.1694554687 0.6317594647 4283845968
-0.3197423220 -0.1676335484 0.6275666356 4283517003
-0.3176048398 -0.1658203155 0.6233713031 4283582796
-0.3136987984 -0.1630968899 0.6157048345 4283451210
-0.3093488514 -0.1601606756 0.6071670651 4283779662
-0.3054387271 -0.1574701816 0.5994925499 4283384904
-0.3028529584 -0.1554766595 0.5944174528 4283516231
-0.3002658188 -0.1534936875 0.5893395543 4283647817
-0.2981195748 -0.1517464221 0.5851271152 4283516233
-0.2972993851 -0.1506806016 0.5835173130 4283647819
-0.2964785695 -0.1496180594 0.5819062591 4283779662
-0.2956571579 -0.1485587656 0.5802940130 4283911248
-0.2952778041 -0.1477242410 0.5795494318 4284043088
-0.2953408062 -0.1471116990 0.5796731710 4284043088
-0.2954035997 -0.1464987844 0.5797963738 4283780173
-0.2950231731 -0.1456667483 0.5790497065 4283582794
-0.2950853705 -0.1450539678 0.5791717768 4283648587
-0.2951473594 -0.1444408000 0.5792934299 4283780173
-0.2947658300 -0.1436112821 0.5785446167 4283779916
-0.2948272526 -0.1429982632 0.5786651969 4283779916
-0.2944449782 -0.1421707571 0.5779148936 4283911502
-0.2945058346 -0.1415579021 0.5780343413 4283779916
-0.2945664525 -0.1409446597 0.5781532526 4283714123
-0.2946268022 -0.1403310448 0.5782717466 4283779916
-0.2946869433 -0.1397170573 0.5783897638 4283648330
-0.2947468460 -0.1391026825 0.5785073638 4283385158
-0.2948064804 -0.1384879500 0.5786244273 4283516229
-0.2948659062 -0.1378728300 0.5787410140 4283976780
-0.2953692377 -0.1374640614 0.5797289610 4284042834
-0.2954282463 -0.1368472874 0.5798447728 4283713869
-0.2959313691 -0.1364349872 0.5808322430 4283648076
-0.2959899902 -0.1358165443 0.5809473395 4283582283
-0.2960483730 -0.1351977289 0.5810618997 4283516490
-0.2956618965 -0.1343764812 0.5803033710 4283516490
-0.2957197130 -0.1337578595 0.5804167986 4283516490
-0.2957772613 -0.1331388950 0.5805298090 4283713869
-0.2958346009 -0.1325195581 0.5806422830 4283845455
-0.2963365912 -0.1320981979 0.5816276073 4283713869
-0.2963935137 -0.1314772218 0.5817393064 4283582283
-0.2968952954 -0.1310523599 0.5827241540 4283516490
-0.2965065837 -0.1302341819 0.5819612741 4283648076
-0.2965627611 -0.1296121180 0.5820714831 4283911248
-0.2970640659 -0.1291833967 0.5830553770 4284042834
-0.2975652814 -0.1287524551 0.5840391517 4284042834
-0.2971753180 -0.1279356629 0.5832737684 4283845455
-0.2967849374 -0.1271204054 0.5825076103 4283582283
-0.2972855866 -0.1266865283 0.5834901929 4283187525
-0.2977861166 -0.1262504458 0.5844725966 4283253318
-0.2982865870 -0.1258121431 0.5854548812 4283253318
-0.2983410060 -0.1251844913 0.5855616927 4283384904
-0.2983951569 -0.1245564967 0.5856680274 4283516490
-0.2984490693 -0.1239281669 0.5857738256 4283582283
-0.2989489138 -0.1234837994 0.5867548585 4283911248
-0.2990024090 -0.1228538454 0.5868598819 4283977041
-0.2995019853 -0.1224059835 0.5878403783 4283713869
-0.2995550334 -0.1217744127 0.5879445076 4283845455
-0.2991613448 -0.1209619790 0.5871717930 4283911248
-0.2992137969 -0.1203306839 0.5872747302 4284042834
-0.2997126579 -0.1198777184 0.5882539153 4283977041
-0.3002114296 -0.1194225326 0.5892328620 4283977041
-0.3002632856 -0.1187883615 0.5893346071 4283779403
-0.3007617593 -0.1183296889 0.5903130174 4283582024
-0.3008131683 -0.1176939234 0.5904139280 4283318852
-0.3008643389 -0.1170578301 0.5905143023 4283450438
-0.3009152114 -0.1164214164 0.5906141400 4283385158
-0.3014130294 -0.1159567237 0.5915912390 4283385158
-0.3019107580 -0.1154898107 0.5925681591 4283911502
-0.3019610047 -0.1148505434 0.5926667452 4284569432
-0.3020109832 -0.1142109483 0.5927649140 4284372053
-0.3016132414 -0.1134027913 0.5919841528 4284240467
-0.3016626239 -0.1127635166 0.5920811296 4284372312
-0.3021593988 -0.1122902855 0.5930561423 4284503898
-0.3026560545 -0.1118148416 0.5940309167 4284372312
-0.3027047813 -0.1111727357 0.5941266418 4284043347
-0.3032011390 -0.1106938198 0.5951008201 4283911761
-0.3032494187 -0.1100501418 0.5951955914 4284240726
-0.3037454486 -0.1095677689 0.5961691141 4283910989
-0.3046894073 -0.1092438325 0.5980218649 4283779403
-0.3051852286 -0.1087560803 0.5989950895 4283910989
-0.3052327335 -0.1081073806 0.5990883112 4284108368
-0.3061765134 -0.1077739671 0.6009407043 4283845196
-0.3066719770 -0.1072795913 0.6019130945 4283910989
-0.3076156974 -0.1069388986 0.6037653685 4284437846
-0.3081109524 -0.1064391583 0.6047374010 4284766811
-0.3086060584 -0.1059372127 0.6057091951 4284043345
-0.3095496297 -0.1055860817 0.6075611711 4283517001
-0.3100445271 -0.1050787643 0.6085325480 4283384904
-0.3105392754 -0.1045692414 0.6095035672 4283582283
-0.3114827275 -0.1042076647 0.6113553047 4283845968
-0.3119772375 -0.1036927700 0.6123259068 4284174933
-0.3124716282 -0.1031756699 0.6132962108 4284372312
-0.3129658401 -0.1026563719 0.6142662764 4284306519
-0.3134599328 -0.1021348611 0.6152359843 4284503639
-0.3139538467 -0.1016111523 0.6162054539 4284701018
-0.3148968220 -0.1012296379 0.6180562377 4285096033
-0.3153905272 -0.1007005647 0.6190252304 4285622377
-0.3167827129 -0.1004542559 0.6217577457 4285623149
-0.3181749880 -0.1002019048 0.6244903803 4285952114
-0.3195673823 -0.0999435112 0.6272232533 4288124310
-0.3205102980 -0.0995394662 0.6290739775 4291611339
-0.3231516182 -0.1740285903 0.6356438398 4290954959
-0.3227848709 -0.1731256247 0.6349223852 4287332736
-0.3224176466 -0.1722240299 0.6342000961 4284306258
-0.3211688697 -0.1708550602 0.6317437291 4284372053
-0.3199192286 -0.1694911122 0.6292856932 4283977295
-0.3177872598 -0.1676670760 0.6250920296 4283713869
-0.3147723079 -0.1653884351 0.6191616058 4283713869
-0.3108738363 -0.1626606733 0.6114932299 4282859071
-0.3065322936 -0.1597190946 0.6029533744 4282990657
-0.3021885753 -0.1567953527 0.5944091678 4283253572
-0.2991664112 -0.1545734257 0.5884645581 4283385158
-0.2979080081 -0.1532721817 0.5859892964 4283582024
-0.2962073982 -0.1517498493 0.5826441050 4283582024
-0.2953888178 -0.1506849229 0.5810340047 4283713610
-0.2950112820 -0.1498475820 0.5802913308 4283845196
-0.2941915691 -0.1487882733 0.5786789656 4283779662
-0.2938130796 -0.1479547173 0.5779345036 4283911248
-0.2934341729 -0.1471226066 0.5771891475 4284042834
-0.2934968472 -0.1465125978 0.5773124695 4284042834
-0.2931171656 -0.1456824690 0.5765656233 4283845968
-0.2931793034 -0.1450725943 0.5766878128 4283714382
-0.2932411730 -0.1444623470 0.5768095255 4283780173
-0.2933028340 -0.1438516974 0.5769308209 4283845966
-0.2933642268 -0.1432406753 0.5770515800 4283911502
-0.2929828465 -0.1424141377 0.5763013959 4283845709
-0.2930436730 -0.1418032646 0.5764210820 4283648330
-0.2926615179 -0.1409787387 0.5756693482 4283845709
-0.2927218080 -0.1403680295 0.5757879615 4283845707
-0.2927818596 -0.1397569478 0.5759060383 4283845707
-0.2928416729 -0.1391454935 0.5760236979 4283911500
-0.2933443487 -0.1387432516 0.5770124793 4283845707
-0.2929605544 -0.1379214674 0.5762575865 4283845707
-0.2930196524 -0.1373088956 0.5763738155 4283977293
-0.2930785120 -0.1366959512 0.5764895678 4283582283
-0.2935805917 -0.1362885088 0.5774771571 4283450697
-0.2940826118 -0.1358788460 0.5784646273 4283648076
-0.2941409051 -0.1352629364 0.5785793662 4283582283
-0.2941989899 -0.1346466690 0.5786935687 4283319111
-0.2938129902 -0.1338278800 0.5779342651 4283384904
-0.2938704789 -0.1332118213 0.5780473948 4283713869
-0.2939277291 -0.1325953901 0.5781599879 4283911248
-0.2939847112 -0.1319786012 0.5782721043 4283977041
-0.2944856584 -0.1315598935 0.5792574286 4283911248
-0.2949865162 -0.1311389655 0.5802426338 4283713869
-0.2950429618 -0.1305192411 0.5803536773 4283713869
-0.2950991392 -0.1298991591 0.5804641843 4283845455
-0.2951551080 -0.1292787343 0.5805742741 4283845455
-0.2952108085 -0.1286579520 0.5806838274 4283779662
-0.2957109511 -0.1282296330 0.5816676021 4283845455
-0.2957662344 -0.1276072264 0.5817763805 4283911248
-0.2953764200 -0.1267935038 0.5810096264 4283713869
-0.2958760560 -0.1263613403 0.5819923878 4283384904
-0.2963756323 -0.1259269565 0.5829750299 4283582283
-0.2964299917 -0.1253022105 0.5830820203 4283319111
-0.2969292998 -0.1248643324 0.5840641260 4283384904
-0.2969832420 -0.1242379695 0.5841702223 4283779662
-0.2970369458 -0.1236112565 0.5842759013 4284240213
-0.2970904112 -0.1229842156 0.5843810439 4284306006
-0.2975890934 -0.1225402728 0.5853619576 4284306006
-0.2980876863 -0.1220941171 0.5863426924 4284371799
-0.2976948917 -0.1212826148 0.5855700374 4283977041
-0.2977474034 -0.1206532866 0.5856733322 4283713869
-0.2977996469 -0.1200236231 0.5857761502 4284042834
-0.2978516519 -0.1193936318 0.5858784318 4283779662
-0.2983493805 -0.1189410985 0.5868574381 4283845455
-0.2988469899 -0.1184863523 0.5878362656 4283910987
-0.2988983691 -0.1178534850 0.5879373550 4284437331
-0.2989495099 -0.1172202900 0.5880379081 4284239952
-0.2990003824 -0.1165867820 0.5881379843 4283713608
-0.2990509868 -0.1159529388 0.5882375240 4283713610
-0.2991013527 -0.1153187826 0.5883365870 4283910989
-0.2995979488 -0.1148554757 0.5893133879 4283977295
-0.3000944257 -0.1143899560 0.5902900100 4284174674
-0.2996975183 -0.1135836691 0.5895092487 4284240467
-0.2993001938 -0.1127789691 0.5887277126 4284437846
-0.2993492484 -0.1121432260 0.5888242126 4284109140
-0.2998448908 -0.1116736010 0.5897991657 4284306519
-0.3003404438 -0.1112017632 0.5907738805 4284109140
-0.3008358479 -0.1107277200 0.5917484164 4283780175
-0.3008840680 -0.1100878939 0.5918432474 4284043347
-0.3013792038 -0.1096103787 0.5928171277 4283714382
-0.3014269471 -0.1089689806 0.5929110646 4283714123
-0.3023690283 -0.1086487323 0.5947641730 4283845709
-0.3028637767 -0.1081645936 0.5957373381 4283779403
-0.3033583760 -0.1076782495 0.5967102051 4283516231
-0.3034053445 -0.1070318371 0.5968026519 4283845196
-0.3043472171 -0.1066989377 0.5986552835 4283910989
-0.3048414290 -0.1062059775 0.5996273756 4284437846
-0.3053354919 -0.1057108045 0.6005992293 4284503639
-0.3053816855 -0.1050593778 0.6006900668 4283845966
-0.3063232601 -0.1047138423 0.6025421619 4283648587
-0.3068169355 -0.1042120531 0.6035132408 4283845455
-0.3073104620 -0.1037080586 0.6044840217 4283845455
-0.3078038394 -0.1032018587 0.6054545045 4284043347
-0.3082970977 -0.1026934534 0.6064247489 4284372312
-0.3087901771 -0.1021828428 0.6073946953 4284109910
-0.3092831373 -0.1016700342 0.6083643436 4283912531
-0.3097759485 -0.1011550203 0.6093336940 4284108368
-0.3102686107 -0.1006378010 0.6103027463 4284437333
-0.3107610941 -0.1001183838 0.6112715006 4284306006
-0.3112534583 -0.0995967612 0.6122399569 4284569178
-0.3121941984 -0.0992154926 0.6140904427 4285096035
-0.3135835528 -0.0989716873 0.6168232560 4284701277
-0.3154216707 -0.0988624692 0.6204388738 4284636767
-0.3163625002 -0.0984659493 0.6222894788 4286544764
-0.3173032999 -0.0980653018 0.6241400838 4289374890
-0.3186928928 -0.0977982730 0.6268734336 4292072403
-0.3207508028 -0.1738163978 0.6323027611 4290820024
-0.3203846812 -0.1729162633 0.6315810680 4286806651
-0.3195785582 -0.1717812121 0.6299918890 4284371799
-0.3187717497 -0.1706493497 0.6284014583 4285227108
-0.3170847595 -0.1690517366 0.6250758171 4284700764
-0.3145169616 -0.1669938415 0.6200138330 4283911248
-0.3115077317 -0.1647137851 0.6140816808 4284042834
-0.3080568016 -0.1622143388 0.6072787642 4284108627
-0.3041638732 -0.1594982296 0.5996046066 4283779662
-0.3002689481 -0.1567981243 0.5919264555 4283582283
-0.2976931632 -0.1548010260 0.5868487358 4283450697
-0.2959969044 -0.1532706618 0.5835048556 4283648076
-0.2942996323 -0.1517472118 0.5801590085 4283713869
-0.2926013768 -0.1502306610 0.5768111944 4283845455
-0.2935466766 -0.1500730664 0.5786747336 4283910991
-0.2922878563 -0.1487893015 0.5761931539 4283845198
-0.2919101119 -0.1479576677 0.5754485130 4283976782
-0.2915319800 -0.1471274495 0.5747030973 4283779403
-0.2915945351 -0.1465203613 0.5748264194 4284042577
-0.2916568816 -0.1459128708 0.5749493241 4284042577
-0.2912776470 -0.1450851709 0.5742017031 4283713612
-0.2913394272 -0.1444778293 0.5743235350 4283582026
-0.2918424904 -0.1440880895 0.5753151774 4283845198
-0.2914622724 -0.1432619840 0.5745657086 4283713612
-0.2915233672 -0.1426534951 0.5746861100 4283647819
-0.2915841937 -0.1420446038 0.5748060346 4283713612
-0.2912029326 -0.1412210613 0.5740544200 4283910991
-0.2908212245 -0.1403989643 0.5733019710 4283976784
-0.2908811867 -0.1397908032 0.5734201670 4283845198
-0.2909409106 -0.1391822547 0.5735378861 4283976784
-0.2910003662 -0.1385733336 0.5736551285 4284042577
-0.2910596132 -0.1379640549 0.5737718940 4284042577
-0.2911186218 -0.1373543888 0.5738882422 4284108370
-0.2907348871 -0.1365365386 0.5731317401 4283845198
-0.2912359238 -0.1361339539 0.5741195083 4283779405
-0.2912942171 -0.1355231851 0.5742343664 4283779405
-0.2917950749 -0.1351170987 0.5752217174 4283713612
-0.2922958434 -0.1347087622 0.5762088895 4283779405
-0.2919106185 -0.1338918656 0.5754495263 4283713612
-0.2919680476 -0.1332787126 0.5755627155 4283516233
-0.2915821075 -0.1324638873 0.5748018622 4283582026
-0.2920821607 -0.1320513338 0.5757876635 4283845198
-0.2925821841 -0.1316365451 0.5767733455 4283976784
-0.2926387191 -0.1310210228 0.5768848062 4284042577
-0.2931384742 -0.1306027323 0.5778700113 4283779405
-0.2931946218 -0.1299855560 0.5779806972 4283713612
-0.2936941683 -0.1295637637 0.5789654255 4283779405
-0.2937498987 -0.1289449483 0.5790752769 4283582026
-0.2938053906 -0.1283257902 0.5791846514 4283582026
-0.2943045199 -0.1278991848 0.5801686645 4283779405
-0.2943595946 -0.1272783875 0.5802772045 4283845198
-0.2939703465 -0.1264662147 0.5795099139 4283845198
-0.2944689989 -0.1260357648 0.5804929137 4283713869
-0.2945233285 -0.1254139245 0.5806000233 4283713869
-0.2945774198 -0.1247917563 0.5807065964 4283779662
-0.2950756252 -0.1243565157 0.5816887617 4283779662
-0.2951292992 -0.1237327158 0.5817945600 4283910991
-0.2956272662 -0.1232939810 0.5827761889 4284239956
-0.2956805229 -0.1226685643 0.5828811526 4284174163
-0.2961782217 -0.1222263351 0.5838623047 4284503128
-0.2962310314 -0.1215993017 0.5839664340 4284569178
-0.2962836027 -0.1209719405 0.5840700269 4284240213
-0.2958909571 -0.1201635450 0.5832960606 4283977041
-0.2959429324 -0.1195364520 0.5833985209 4284042834
-0.2959946692 -0.1189090386 0.5835004449 4284174163
-0.2964913249 -0.1184591576 0.5844795108 4283976784
-0.2969878614 -0.1180070639 0.5854583979 4283976780
-0.2970390022 -0.1173767745 0.5855591893 4284108366
-0.2970898449 -0.1167461574 0.5856594443 4284042573
-0.2966949642 -0.1159411371 0.5848809481 4283450436
-0.2971907854 -0.1154839694 0.5858584046 4283121471
-0.2972408831 -0.1148523912 0.5859571695 4283253057
-0.2977364361 -0.1143917367 0.5869340301 4283318850
-0.2977860570 -0.1137585789 0.5870319009 4283187264
-0.2973895967 -0.1129557565 0.5862503052 4284042573
-0.2974386513 -0.1123229116 0.5863469839 4284371538
-0.2974874377 -0.1116897538 0.5864431858 4284437331
-0.2979820371 -0.1112227961 0.5874182582 4284305745
-0.2984765470 -0.1107536182 0.5883930326 4283976780
-0.2989709377 -0.1102822348 0.5893676281 4284568917
-0.2990188897 -0.1096449941 0.5894622207 4284437331
-0.2990666032 -0.1090074480 0.5895562172 4283845194
-0.2995604873 -0.1085313410 0.5905297995 4283517003
-0.3005007505 -0.1082138196 0.5923833847 4283385417
-0.3009944260 -0.1077323481 0.5933566093 4283517003
-0.3010413647 -0.1070897803 0.5934491158 4283714382
-0.3015347421 -0.1066048443 0.5944217443 4283845455
-0.3024747670 -0.1062746793 0.5962748528 4284240213
-0.3029679656 -0.1057843789 0.5972470641 4284437592
-0.3030140996 -0.1051367968 0.5973380208 4284174420
-0.3030599654 -0.1044889241 0.5974284410 4284306006
-0.3044467270 -0.1043002307 0.6001622081 4284108627
-0.3044922352 -0.1036489010 0.6002519131 4284306006
-0.3049846888 -0.1031485274 0.6012226939 4284108627
-0.3054769933 -0.1026459485 0.6021931767 4284634971
-0.3064164817 -0.1022904962 0.6040452123 4285029729
-0.3064611554 -0.1016341820 0.6041333079 4285161315
-0.3065055907 -0.1009775773 0.6042208672 4284700764
-0.3069972396 -0.1004671454 0.6051900983 4284897882
-0.3074887693 -0.0999545082 0.6061590314 4284634710
-0.3079801202 -0.0994396731 0.6071276665 4284766811
-0.3089190423 -0.0990662128 0.6089785695 4284898397
-0.3089624047 -0.0984034017 0.6090640426 4284898397
-0.3099011481 -0.0980236158 0.6109145880 4284832604
-0.3117356598 -0.0979210958 0.6145309806 4285227360
-0.3126744628 -0.0975311473 0.6163816452 4285029981
-0.3136132061 -0.0971370637 0.6182322502 4285162850
-0.3149999976 -0.0968766734 0.6209660769 4288584086
-0.3168350458 -0.0967470631 0.6245835423 4292138709
-0.3187946677 -0.1738352180 0.6298255920 4289768367
-0.3179907203 -0.1726988107 0.6282372475 4286280050
-0.3176248074 -0.1718028784 0.6275143623 4284240467
-0.3163808286 -0.1704355329 0.6250566840 4284371799
-0.3146971166 -0.1688377261 0.6217302680 4285029729
-0.3125733733 -0.1670121849 0.6175344586 4284832350
-0.3086919188 -0.1642606705 0.6098661423 4284108627
-0.3048084974 -0.1615251452 0.6021938324 4283779662
-0.3013623357 -0.1590374261 0.5953854322 4283845455
-0.2979143858 -0.1565638930 0.5885735154 4284043088
-0.2931461334 -0.1534145325 0.5791531205 4284043088
-0.2954090238 -0.1539503634 0.5836238265 4283910989
-0.2923963666 -0.1517384946 0.5776718855 4283910989
-0.2920208573 -0.1509026140 0.5769299865 4283779403
-0.2912050486 -0.1498418152 0.5753182173 4283713610
-0.2903886139 -0.1487842798 0.5737052560 4283779403
-0.2900116444 -0.1479545385 0.5729604959 4284108368
-0.2896342278 -0.1471262425 0.5722149014 4284239954
-0.2896966934 -0.1465220600 0.5723382831 4284042575
-0.2897589207 -0.1459174901 0.5724612474 4283976784
-0.2898209393 -0.1453125179 0.5725837350 4283713612
-0.2894421518 -0.1444872469 0.5718353391 4283450440
-0.2895035744 -0.1438824385 0.5719567537 4283450440
-0.2900055349 -0.1434953213 0.5729483962 4283450440
-0.2900665998 -0.1428888142 0.5730690956 4283450440
-0.2901274264 -0.1422819346 0.5731892586 4283450440
-0.2897470295 -0.1414593458 0.5724377036 4283582026
-0.2893661857 -0.1406382471 0.5716853142 4283779405
-0.2889849544 -0.1398185939 0.5709320903 4283910991
-0.2890445590 -0.1392129660 0.5710498691 4283910991
-0.2891039550 -0.1386069655 0.5711672306 4284042577
-0.2891631126 -0.1380005926 0.5712841153 4284174163
-0.2892220318 -0.1373938471 0.5714005232 4284108370
