VERSION 0.7
FIELDS x y z rgba
SIZE 4 4 4 4
TYPE F F F U
COUNT 1 1 1 1
WIDTH 920
HEIGHT 1
VIEWPOINT 0.0 0.0 0.0 1.0 0.0 0.0 0.0
POINTS 920
DATA ascii
-0.2813942432 -0.1057287455 0.5684080720 4283778124
-0.2818772495 -0.1052776054 0.5693837404 4283646538
-0.2823601663 -0.1048242524 0.5703591704 4284172880
-0.2828429639 -0.1043686941 0.5713344216 4283975501
-0.2828877270 -0.1037503257 0.5714249015 4283580743
-0.2829322517 -0.1031316593 0.5715148449 4283646536
-0.2834145725 -0.1026713923 0.5724890828 4284567638
-0.2834586799 -0.1020511910 0.5725781322 4284633431
-0.2835024893 -0.1014306992 0.5726667047 4284370259
-0.2835460901 -0.1008099169 0.5727547407 4284370259
-0.2831510901 -0.1000340059 0.5719568729 4284304466
-0.2827557325 -0.0992597267 0.5711582303 4284370259
-0.2827984095 -0.0986400172 0.5712444186 4284238673
-0.2828408480 -0.0980200246 0.5713301301 4284436052
-0.2828830183 -0.0973997563 0.5714153647 4284501845
-0.2829249203 -0.0967792124 0.5715000033 4284172880
-0.2834053040 -0.0963074788 0.5724703670 4283975501
-0.2834467888 -0.0956854224 0.5725541115 4283778122
-0.2830491662 -0.0949159414 0.5717509389 4284830810
-0.2830900550 -0.0942943022 0.5718335509 4284501845
-0.2831306756 -0.0936724022 0.5719156265 4284304466
-0.2831710577 -0.0930502340 0.5719972253 4284107087
-0.2836502790 -0.0925710946 0.5729652047 4283778376
-0.2836902142 -0.0919474289 0.5730458498 4283909962
-0.2837298810 -0.0913235024 0.5731259584 4284041548
-0.2842085361 -0.0908397138 0.5740928650 4283712583
-0.2842477560 -0.0902143046 0.5741720796 4283909962
-0.2847261131 -0.0897270963 0.5751383305 4283975755
-0.2847648561 -0.0891002044 0.5752165914 4284041546
-0.2848033309 -0.0884730518 0.5752943158 4283778374
-0.2852811217 -0.0879812092 0.5762594938 4283646788
-0.2853191495 -0.0873525888 0.5763362646 4283778374
-0.2857966125 -0.0868573412 0.5773007274 4283844167
-0.2858341634 -0.0862272456 0.5773765445 4283844167
-0.2858714461 -0.0855969042 0.5774518847 4283976012
-0.2863483429 -0.0850970373 0.5784152150 4283778633
-0.2863851488 -0.0844652355 0.5784895420 4284107852
-0.2868616879 -0.0839619637 0.5794520974 4284107852
-0.2873380482 -0.0834565088 0.5804143548 4284173645
-0.2873741686 -0.0828220472 0.5804873705 4283515715
-0.2878501713 -0.0823132023 0.5814489126 4283054910
-0.2883260250 -0.0818021744 0.5824100971 4283120703
-0.2888017297 -0.0812889636 0.5833709836 4283449668
-0.2888369560 -0.0806506351 0.5834420919 4284239184
-0.2893122435 -0.0801340416 0.5844022036 4284831321
-0.2897874117 -0.0796152651 0.5853620172 4284304977
-0.2902623713 -0.0790943131 0.5863214731 4284304977
-0.2911776900 -0.0786902383 0.5881703496 4284436563
-0.2920929790 -0.0782820284 0.5900191665 4284370770
-0.2943300009 -0.0782209858 0.5945379138 4285226079
-0.2956859469 -0.0779177248 0.5972768664 4286873729
-0.2957197428 -0.0772629455 0.5973451734 4291413446
-0.3013271391 -0.1920974106 0.6100406051 4290756032
-0.3009792268 -0.1911985874 0.6093361974 4288913828
-0.3006308377 -0.1903010458 0.6086308956 4289701543
-0.2990024388 -0.1885976791 0.6053341627 4286675065
-0.2986528575 -0.1877053976 0.6046264768 4284437843
-0.2953155637 -0.1849436015 0.5978700519 4284635222
-0.2936837375 -0.1832610667 0.5945664048 4284436052
-0.2929047942 -0.1821161509 0.5929894447 4284370259
-0.2887085378 -0.1788576692 0.5844940543 4284238673
-0.2862186730 -0.1766713560 0.5794532895 4284107087
-0.2824453712 -0.1737069339 0.5718142390 4283843915
-0.2795247734 -0.1712819636 0.5659013987 4283843915
-0.2770299613 -0.1691301018 0.5608506203 4283909708
-0.2758165300 -0.1677688658 0.5583940148 4283514950
-0.2750299573 -0.1666717827 0.5568016171 4283646536
-0.2750984430 -0.1660944819 0.5569402575 4283646536
-0.2747387886 -0.1652593464 0.5562121272 4283514950
-0.2748067677 -0.1646820903 0.5563497543 4283449157
-0.2744463980 -0.1638487875 0.5556201339 4283514950
-0.2745138407 -0.1632715762 0.5557567477 4283580743
-0.2745811045 -0.1626939476 0.5558928847 4283646536
-0.2742196918 -0.1618629694 0.5551611781 4283843915
-0.2734292746 -0.1607813835 0.5535609722 4283843917
-0.2739242911 -0.1604562849 0.5545631051 4283843917
-0.2735617161 -0.1596285701 0.5538291335 4283712331
-0.2731987536 -0.1588022411 0.5530942678 4283975503
-0.2728353739 -0.1579773128 0.5523586273 4283975503
-0.2729006410 -0.1574012488 0.5524907708 4283712331
-0.2725365460 -0.1565782130 0.5517536402 4283580745
-0.2726013064 -0.1560022384 0.5518847704 4283514952
-0.2730952799 -0.1556706280 0.5528848171 4283383366
-0.2731597424 -0.1550929248 0.5530152917 4283975503
-0.2736535966 -0.1547577679 0.5540151000 4284041296
-0.2737177312 -0.1541783512 0.5541449785 4283909710
-0.2742114663 -0.1538396478 0.5551445484 4283712331
-0.2742752731 -0.1532585025 0.5552737117 4283843917
-0.2747688591 -0.1529162526 0.5562730432 4283909710
-0.2752624750 -0.1525717825 0.5572723150 4284436054
-0.2753258348 -0.1519875973 0.5574006438 4285160027
-0.2749586999 -0.1511664540 0.5566573739 4285028441
-0.2754519582 -0.1508180350 0.5576559305 4284436306
-0.2750841975 -0.1499979049 0.5569114089 4283646790
-0.2747160196 -0.1491792053 0.5561660528 4283120446
-0.2747781277 -0.1485948563 0.5562917590 4283120446
-0.2752708197 -0.1482421011 0.5572891831 4282988606
-0.2753325701 -0.1476560384 0.5574142933 4283120192
-0.2753941417 -0.1470695734 0.5575388670 4282988606
-0.2754554749 -0.1464827359 0.5576630831 4283185985
-0.2755165994 -0.1458954960 0.5577868223 4284041294
-0.2760087550 -0.1455352604 0.5587831736 4284304466
-0.2760695219 -0.1449463218 0.5589062572 4284041548
-0.2761300802 -0.1443569958 0.5590288043 4283383618
-0.2761904299 -0.1437672824 0.5591509938 4283646790
-0.2758188844 -0.1429534703 0.5583988428 4283844169
-0.2758786976 -0.1423639059 0.5585198998 4283843915
-0.2755064368 -0.1415520906 0.5577662587 4283975501
-0.2759976387 -0.1411836296 0.5587606430 4284041294
-0.2756247520 -0.1403729022 0.5580057502 4283712329
-0.2752514780 -0.1395636499 0.5572500229 4284172880
-0.2753099799 -0.1389740407 0.5573685169 4284304466
-0.2758005559 -0.1386013031 0.5583616495 4284172880
-0.2758587003 -0.1380100101 0.5584793687 4283843915
-0.2754841447 -0.1372029632 0.5577210784 4283186498
-0.2764068842 -0.1370407790 0.5595892072 4282989119
-0.2760317922 -0.1362339109 0.5588298440 4282857533
-0.2765217721 -0.1358537376 0.5598218441 4282989119
-0.2765789032 -0.1352596730 0.5599374175 4283449670
-0.2766357660 -0.1346652210 0.5600526333 4283581256
-0.2766924500 -0.1340704262 0.5601673126 4283449670
-0.2771819532 -0.1336841285 0.5611583591 4283581256
-0.2772382498 -0.1330876648 0.5612723231 4283712331
-0.2772943079 -0.1324908435 0.5613858104 4283909710
-0.2773501575 -0.1318936497 0.5614988804 4283712331
-0.2774057388 -0.1312960982 0.5616114140 4283843917
-0.2774611115 -0.1306981891 0.5617235303 4283843917
-0.2775162458 -0.1300999224 0.5618351698 4284501847
-0.2775711715 -0.1295013130 0.5619463325 4284501847
-0.2776258588 -0.1289023310 0.5620570183 4283975503
-0.2781141698 -0.1285034716 0.5630456209 4283909708
-0.2781684697 -0.1279028654 0.5631555319 4283514950
-0.2777884901 -0.1271032840 0.5623862743 4283712329
-0.2782763541 -0.1267005652 0.5633739829 4284436052
-0.2783299387 -0.1260989010 0.5634824634 4284107087
-0.2783833146 -0.1254968941 0.5635905266 4283843915
-0.2784364522 -0.1248945296 0.5636980534 4283514950
-0.2784893215 -0.1242918298 0.5638051629 4283449157
-0.2781074345 -0.1234958172 0.5630319715 4283646538
-0.2781597674 -0.1228933707 0.5631379485 4283449159
-0.2782118917 -0.1222905889 0.5632434487 4283383366
-0.2782637477 -0.1216874644 0.5633484125 4283580745
-0.2783153653 -0.1210840046 0.5634529591 4284041296
-0.2783667445 -0.1204802096 0.5635569692 4284172882
-0.2779828608 -0.1196887717 0.5627798438 4284172882
-0.2780337036 -0.1190852523 0.5628827214 4284370261
-0.2785194814 -0.1186668277 0.5638661981 4284107089
-0.2785699069 -0.1180617064 0.5639683008 4283580745
-0.2786201239 -0.1174562573 0.5640699267 4283778124
-0.2786700726 -0.1168504804 0.5641710162 4284041296
-0.2791552842 -0.1164260060 0.5651533604 4283843917
-0.2792048156 -0.1158186346 0.5652536750 4283580745
-0.2792541385 -0.1152109429 0.5653535128 4283646538
-0.2793031931 -0.1146029234 0.5654528141 4284238675
-0.2793520093 -0.1139945909 0.5655516386 4284304466
-0.2794005871 -0.1133859381 0.5656499863 4284238673
-0.2798849046 -0.1129529029 0.5666304827 4284436054
-0.2799330652 -0.1123426631 0.5667279959 4284436054
-0.2799809873 -0.1117321178 0.5668250322 4283975503
-0.2800286710 -0.1111212522 0.5669215322 4283712331
-0.2800760865 -0.1105100736 0.5670175552 4283778124
-0.2801232636 -0.1098985896 0.5671131015 4283909710
-0.2801702023 -0.1092868000 0.5672081113 4283843917
-0.2802169025 -0.1086746976 0.5673026443 4284041296
-0.2802633643 -0.1080622971 0.5673967004 4283975503
-0.2803095579 -0.1074495837 0.5674902201 4283580745
-0.2803555131 -0.1068365723 0.5675832629 4283843917
-0.2804012001 -0.1062232628 0.5676757693 4284370261
-0.2804466784 -0.1056096479 0.5677677989 4284238675
-0.2809287906 -0.1051592901 0.5687438250 4284107089
-0.2814107835 -0.1047067121 0.5697196722 4284107087
-0.2814556360 -0.1040903032 0.5698104501 4284107087
-0.2819373310 -0.1036342680 0.5707856417 4283712329
-0.2824189365 -0.1031760275 0.5717606544 4283580743
-0.2824631631 -0.1025568172 0.5718501806 4284370259
-0.2825071514 -0.1019373164 0.5719392300 4284370259
-0.2825508714 -0.1013175324 0.5720277429 4284172880
-0.2825943232 -0.1006974578 0.5721157789 4284370259
-0.2822000384 -0.0999221802 0.5713174939 4284172880
-0.2818053365 -0.0991485417 0.5705184340 4283843915
-0.2818479240 -0.0985295400 0.5706046820 4283778122
-0.2818902433 -0.0979102626 0.5706903338 4284304466
-0.2823700905 -0.0974417701 0.5716618299 4284567638
-0.2824119925 -0.0968209729 0.5717465878 4284501845
-0.2824535966 -0.0961998999 0.5718308687 4284633431
-0.2824949622 -0.0955785513 0.5719146132 4284633431
-0.2820980549 -0.0948097110 0.5711110234 4284436052
-0.2825769484 -0.0943350345 0.5720805526 4284370259
-0.2826175392 -0.0937128738 0.5721627474 4284501845
-0.2826578915 -0.0930904523 0.5722444057 4284633431
-0.2831362486 -0.0926111192 0.5732129216 4284304466
-0.2827377915 -0.0918447971 0.5724062324 4284238673
-0.2827773690 -0.0912215784 0.5724863410 4284304466
-0.2832551599 -0.0907385573 0.5734536052 4283909708
-0.2837328017 -0.0902533457 0.5744206309 4284304720
-0.2837717235 -0.0896274149 0.5744993687 4284238927
-0.2842490077 -0.0891387910 0.5754656792 4284173134
-0.2842874825 -0.0885113776 0.5755435228 4284041548
-0.2843256593 -0.0878837109 0.5756208301 4283975755
-0.2843635976 -0.0872557908 0.5756976604 4284041548
-0.2848401368 -0.0867613107 0.5766624212 4284238927
-0.2848775983 -0.0861319229 0.5767382979 4284502099
-0.2849147916 -0.0855022892 0.5768135786 4284239184
-0.2849517465 -0.0848724097 0.5768883824 4284173391
-0.2858666480 -0.0845018849 0.5787405968 4284502356
-0.2863423526 -0.0839984119 0.5797036290 4284436563
-0.2863786519 -0.0833648890 0.5797771811 4284699735
-0.2864146829 -0.0827311277 0.5798501372 4284173391
-0.2864504755 -0.0820971280 0.5799225569 4283844426
-0.2869253755 -0.0815878287 0.5808840394 4283976012
-0.2869606912 -0.0809523836 0.5809555054 4284107598
-0.2878747284 -0.0805626959 0.5828059912 4284304977
-0.2883491516 -0.0800468624 0.5837664604 4284568151
-0.2883837819 -0.0794077963 0.5838366151 4284502358
-0.2888578475 -0.0788885802 0.5847963095 4284370772
-0.2897714376 -0.0784862787 0.5866459012 4284436565
-0.2906849682 -0.0780798569 0.5884953737 4285226081
-0.2911586165 -0.0775521547 0.5894542336 4285752425
-0.2925118208 -0.0772546157 0.5921938419 4285031012
-0.2912255526 -0.0762598291 0.5895897746 4288583834
-0.3003469110 -0.1919040084 0.6094264388 4290426297
-0.2999995649 -0.1910057515 0.6087216735 4289110437
-0.2992261648 -0.1898387372 0.6071523428 4289635750
-0.2988778353 -0.1889439523 0.6064455509 4287727753
-0.2963997722 -0.1867091507 0.6014173627 4284306000
-0.2943461537 -0.1847519279 0.5972504020 4285161309
-0.2939955294 -0.1838690639 0.5965390205 4284699224
-0.2902349830 -0.1808628440 0.5889085531 4284107087
-0.2877511382 -0.1786662936 0.5838686824 4284041294
-0.2852658033 -0.1764800251 0.5788257122 4284041294
-0.2819259167 -0.1737782061 0.5720488429 4283778122
-0.2785841227 -0.1710902750 0.5652680993 4283646536
-0.2756671011 -0.1686773449 0.5593492389 4283712329
-0.2744557559 -0.1673173755 0.5568913221 4283580743
-0.2736704946 -0.1662216783 0.5552979708 4283514950
-0.2737386823 -0.1656459868 0.5554363728 4283580743
-0.2738066912 -0.1650698483 0.5555743575 4283383364
-0.2738744915 -0.1644932926 0.5557119250 4283251778
-0.2739420831 -0.1639162898 0.5558490753 4283317573
-0.2735820115 -0.1630840600 0.5551184416 4283317573
-0.2736490965 -0.1625071168 0.5552545190 4283383366
-0.2737159729 -0.1619297564 0.5553902388 4283712331
-0.2733548582 -0.1610998660 0.5546575189 4283646538
-0.2729933262 -0.1602713466 0.5539239645 4284041296
-0.2722033858 -0.1591939181 0.5523211360 4284041296
-0.2722690403 -0.1586184949 0.5524542928 4283712331
-0.2719062567 -0.1577941477 0.5517182350 4283383366
-0.2719713748 -0.1572187990 0.5518503785 4283185987
-0.2716079056 -0.1563963443 0.5511128306 4283120192
-0.2716725171 -0.1558210850 0.5512439013 4283251778
-0.2717369199 -0.1552453935 0.5513745546 4283514950
-0.2722297907 -0.1549132764 0.5523747206 4283843915
-0.2727226913 -0.1545789093 0.5533748269 4284501845
-0.2732155919 -0.1542423218 0.5543749332 4284238673
-0.2732794583 -0.1536622941 0.5545045137 4284172880
-0.2733430862 -0.1530818492 0.5546336770 4284304466
-0.2738357484 -0.1527404040 0.5556333065 4284238673
-0.2743283808 -0.1523967236 0.5566328764 4284567638
-0.2743915915 -0.1518132389 0.5567611456 4284765268
-0.2744545937 -0.1512293518 0.5568889976 4284238924
-0.2740877867 -0.1504093111 0.5561447144 4283844167
-0.2741502523 -0.1498255432 0.5562714338 4283844167
-0.2742125392 -0.1492413729 0.5563977957 4283251778
-0.2742745578 -0.1486568004 0.5565236807 4283251778
-0.2747663856 -0.1483039260 0.5575216413 4283778122
-0.2748281062 -0.1477176398 0.5576468706 4283449157
-0.2744594216 -0.1469007134 0.5568987131 4283383364
-0.2745206058 -0.1463145763 0.5570228696 4283317571
-0.2745815516 -0.1457280368 0.5571465492 4283778122
-0.2750727832 -0.1453686059 0.5581433177 4284107087
-0.2751334012 -0.1447803676 0.5582662821 4284041548
-0.2751937807 -0.1441917419 0.5583888888 4283646790
-0.2752539814 -0.1436027288 0.5585109591 4283778374
-0.2748830914 -0.1427895129 0.5577583909 4283975753
-0.2749427259 -0.1422006637 0.5578794479 4284107087
-0.2745711207 -0.1413894594 0.5571253896 4284107087
-0.2750613689 -0.1410217881 0.5581201315 4284172880
-0.2746891379 -0.1402116716 0.5573648214 4284041294
-0.2743164897 -0.1394030303 0.5566087365 4284238673
-0.2743748426 -0.1388141215 0.5567271113 4284436052
-0.2744329572 -0.1382248402 0.5568450689 4284370259
-0.2744908631 -0.1376351863 0.5569626093 4283778122
-0.2745485604 -0.1370451450 0.5570796132 4283712842
-0.2746060193 -0.1364547461 0.5571961999 4283976014
-0.2746632695 -0.1358639747 0.5573123693 4283844428
-0.2747202814 -0.1352728307 0.5574280620 4283778635
-0.2752090991 -0.1348930895 0.5584199429 4283910221
-0.2752657533 -0.1343002915 0.5585348606 4283778635
-0.2757543921 -0.1339170188 0.5595263839 4283647049
-0.2758106887 -0.1333225518 0.5596405864 4283844428
-0.2762991190 -0.1329357624 0.5606316924 4284172882
-0.2763550580 -0.1323396415 0.5607451200 4284172882
-0.2764107287 -0.1317431480 0.5608581305 4284107089
-0.2764661908 -0.1311463118 0.5609706640 4284699226
-0.2769541740 -0.1307533979 0.5619608164 4284436054
-0.2770092487 -0.1301549077 0.5620725751 4284172882
-0.2770641148 -0.1295560598 0.5621838570 4284172882
-0.2771187425 -0.1289568543 0.5622947216 4283712331
-0.2767400444 -0.1281567216 0.5615262985 4283778122
-0.2767941058 -0.1275577545 0.5616360307 4283383364
-0.2768479586 -0.1269584298 0.5617452860 4283514950
-0.2773348987 -0.1265565008 0.5627333522 4284172880
-0.2773883641 -0.1259555370 0.5628418326 4284238673
-0.2774415910 -0.1253542155 0.5629497766 4284172880
-0.2774945796 -0.1247525662 0.5630573034 4284107087
-0.2775473297 -0.1241505668 0.5631643534 4284172880
-0.2775998712 -0.1235482246 0.5632709265 4284107089
-0.2772183120 -0.1227534413 0.5624967813 4284041296
-0.2772702873 -0.1221513599 0.5626022220 4283909710
-0.2773220241 -0.1215489432 0.5627071857 4283712331
-0.2773734927 -0.1209461913 0.5628116727 4283843917
-0.2774247527 -0.1203431040 0.5629156828 4284041296
-0.2770415545 -0.1195522919 0.5621380806 4284107089
-0.2770922482 -0.1189494804 0.5622409582 4284172882
-0.2775771022 -0.1185318381 0.5632247925 4284304468
-0.2776274085 -0.1179274246 0.5633268356 4284172882
-0.2776774764 -0.1173226833 0.5634284616 4284041296
-0.2781619430 -0.1169002652 0.5644114614 4283383366
-0.2782115936 -0.1162939295 0.5645121932 4283185987
-0.2782610059 -0.1156872585 0.5646125078 4283778124
-0.2783102095 -0.1150802746 0.5647122860 4283975503
-0.2783591449 -0.1144729629 0.5648115873 4283778124
-0.2784078419 -0.1138653308 0.5649104118 4284370261
-0.2784563005 -0.1132573858 0.5650086999 4284041296
-0.2785045207 -0.1126491204 0.5651065707 4284567640
-0.2789877057 -0.1122156084 0.5660870075 4285093984
-0.2790355086 -0.1116057634 0.5661839843 4284501847
-0.2790830731 -0.1109956056 0.5662804842 4283646538
-0.2791303992 -0.1103851423 0.5663765073 4283514952
-0.2791774571 -0.1097743586 0.5664719939 4283843917
-0.2792242765 -0.1091632769 0.5665670037 4283975501
-0.2792708576 -0.1085518822 0.5666615367 4284041294
-0.2793171704 -0.1079401821 0.5667555332 4284107089
-0.2793632746 -0.1073281839 0.5668490529 4283975503
-0.2794091105 -0.1067158803 0.5669420362 4284041296
-0.2794546783 -0.1061032787 0.5670345426 4284238675
-0.2795000374 -0.1054903716 0.5671265125 4284238673
-0.2799812257 -0.1050407887 0.5681029558 4284501845
-0.2804623246 -0.1045889929 0.5690791011 4284436054
-0.2805070579 -0.1039732844 0.5691698790 4284436054
-0.2809878588 -0.1035180241 0.5701454282 4284107087
-0.2814685404 -0.1030605584 0.5711207986 4283843915
-0.2815126777 -0.1024420559 0.5712103248 4284436052
-0.2815565467 -0.1018232703 0.5712993145 4284436052
-0.2816001475 -0.1012041867 0.5713878274 4284436052
-0.2816435099 -0.1005848199 0.5714758039 4284699224
-0.2812499106 -0.0998101830 0.5706771612 4284436052
-0.2808558941 -0.0990371853 0.5698776841 4283712329
-0.2808983624 -0.0984188914 0.5699638724 4283383364
-0.2809405923 -0.0978003219 0.5700495243 4283909708
-0.2814195454 -0.0973326042 0.5710213780 4284172880
-0.2814613283 -0.0967125148 0.5711061358 4284238673
-0.2815028429 -0.0960921496 0.5711903572 4284304466
-0.2815440893 -0.0954715088 0.5712741017 4284238673
-0.2811478674 -0.0947033092 0.5704700947 4284436052
-0.2811885476 -0.0940830931 0.5705527067 4284304466
-0.2816663682 -0.0936079621 0.5715221763 4284304466
-0.2821440399 -0.0931306258 0.5724914074 4284370259
-0.2821840942 -0.0925076753 0.5725727081 4284172880
-0.2817863226 -0.0917420089 0.5717656016 4284172880
-0.2818257809 -0.0911194980 0.5718456507 4284567638
-0.2823026776 -0.0906372443 0.5728133321 4284765017
-0.2827794254 -0.0901528001 0.5737806559 4284501845
-0.2832560539 -0.0896661654 0.5747477412 4284238673
-0.2832946479 -0.0890397206 0.5748261213 4284238673
-0.2833330035 -0.0884130150 0.5749039650 4284238673
-0.2833711207 -0.0877860561 0.5749812126 4284304466
-0.2838469744 -0.0872935578 0.5759468079 4284370259
-0.2838846147 -0.0866651237 0.5760231614 4284436306
-0.2839219868 -0.0860364437 0.5760989785 4284699478
-0.2843972743 -0.0855393186 0.5770634413 4284699478
-0.2844341993 -0.0849091783 0.5771383047 4284567892
-0.2849091589 -0.0844086483 0.5781020522 4284633685
-0.2853839397 -0.0839059353 0.5790654421 4284633685
-0.2854201794 -0.0832731202 0.5791389346 4284962396
-0.2854561210 -0.0826400667 0.5792118907 4284765017
-0.2854918242 -0.0820067674 0.5792843103 4284173391
-0.2855272293 -0.0813732371 0.5793561935 4283844426
-0.2860010564 -0.0808634982 0.5803175569 4283778633
-0.2864747047 -0.0803515762 0.5812786818 4283910219
-0.2869481742 -0.0798374712 0.5822393894 4284107600
-0.2874215245 -0.0793211833 0.5831997991 4284502358
-0.2878946662 -0.0788027272 0.5841599107 4284502358
-0.2883676589 -0.0782820806 0.5851196647 4284370772
-0.2888405025 -0.0777592659 0.5860790610 4285160288
-0.2897521853 -0.0773514733 0.5879289508 4285226081
-0.2893465757 -0.0765908733 0.5871059299 4284372312
-0.2920144498 -0.0766387358 0.5925192237 4286280309
-0.2933651507 -0.0763318464 0.5952599049 4290755003
-0.2987358868 -0.1967058480 0.6075266600 4291547096
-0.2988156080 -0.1960831285 0.6076887846 4291218131
-0.2988950908 -0.1954599321 0.6078504324 4291086545
-0.2989743650 -0.1948362291 0.6080116630 4291152338
-0.2986292541 -0.1939365566 0.6073098183 4291415251
-0.2987079918 -0.1933127493 0.6074699163 4291481044
-0.2988648415 -0.1920636594 0.6077889204 4292006359
-0.2989429533 -0.1914383918 0.6079477668 4290492090
-0.2985960841 -0.1905415803 0.6072423458 4289110437
-0.2961245179 -0.1882953048 0.6022160053 4289767336
-0.2970511317 -0.1882133037 0.6041004658 4288517269
-0.2954275310 -0.1865170449 0.6007986069 4284634965
-0.2946532071 -0.1853623986 0.5992239118 4285227102
-0.2913264632 -0.1826113313 0.5924584270 4285225822
-0.2892739773 -0.1806711406 0.5882843733 4284370513
-0.2872201800 -0.1787394285 0.5841076970 4284107341
-0.2843138576 -0.1762883961 0.5781972408 4284041548
-0.2809801102 -0.1735864133 0.5714175105 4283844169
-0.2776444256 -0.1708983034 0.5646338463 4283975755
-0.2747327387 -0.1684853137 0.5587124825 4284041294
-0.2735235691 -0.1671257168 0.5562534332 4283843915
-0.2727396786 -0.1660305113 0.5546593070 4283909708
-0.2728077173 -0.1654555053 0.5547976494 4283843915
-0.2728755474 -0.1648800671 0.5549355745 4283712329
-0.2729431689 -0.1643041968 0.5550730824 4283712329
-0.2730105817 -0.1637279093 0.5552102327 4283778124
-0.2726511359 -0.1628962606 0.5544791818 4283778124
-0.2727180421 -0.1623200178 0.5546152592 4283778124
-0.2727847397 -0.1617433578 0.5547509193 4283909710
-0.2724242508 -0.1609140486 0.5540177822 4283975501
-0.2720633447 -0.1600861251 0.5532838106 4284238673
-0.2717020214 -0.1592596024 0.5525490046 4284304466
-0.2713402808 -0.1584344655 0.5518133640 4283909708
-0.2709781229 -0.1576107293 0.5510768890 4283712329
-0.2710430920 -0.1570360661 0.5512089729 4283909708
-0.2706802189 -0.1562142223 0.5504710078 4284173134
-0.2707446516 -0.1556396484 0.5506020784 4284436306
-0.2712366879 -0.1553096324 0.5516027212 4284370513
-0.2713008225 -0.1547333449 0.5517331362 4284107341
-0.2717927694 -0.1543997824 0.5527335405 4284896857
-0.2722846866 -0.1540639997 0.5537340045 4284304720
-0.2723484039 -0.1534846574 0.5538635254 4284370513
-0.2724118829 -0.1529049128 0.5539926291 4284831064
-0.2729035914 -0.1525642723 0.5549926162 4284962650
-0.2733952701 -0.1522213966 0.5559924841 4284962650
-0.2734583318 -0.1516386122 0.5561207533 4284173132
-0.2735211551 -0.1510554254 0.5562485456 4283844167
-0.2735837996 -0.1504718363 0.5563759208 4283712583
-0.2732172906 -0.1496529132 0.5556305647 4283778376
-0.2732793987 -0.1490694433 0.5557568669 4283515204
-0.2733412683 -0.1484855860 0.5558826923 4283515204
-0.2738321424 -0.1481335014 0.5568809509 4284107341
-0.2734644115 -0.1473166645 0.5561330914 4283844169
-0.2735256255 -0.1467316002 0.5562576652 4283646790
-0.2735866606 -0.1461461633 0.5563817620 4283515204
-0.2736474574 -0.1455603242 0.5565053821 4283580743
-0.2741377354 -0.1452016830 0.5575024486 4283975501
-0.2741982043 -0.1446141601 0.5576254129 4283909962
-0.2742584348 -0.1440262347 0.5577479005 4283844169
-0.2743184865 -0.1434379220 0.5578699708 4283712583
-0.2743782699 -0.1428492218 0.5579916239 4283844169
-0.2744378746 -0.1422601491 0.5581128001 4283844426
-0.2740669847 -0.1414486319 0.5573585629 4283976012
-0.2745563686 -0.1410808414 0.5583538413 4284436565
-0.2746153176 -0.1404906064 0.5584736466 4284831323
-0.2742434740 -0.1396807283 0.5577175021 4284370772
-0.2738712430 -0.1388723105 0.5569605231 4284239186
-0.2739293277 -0.1382828057 0.5570785999 4284304979
-0.2739871740 -0.1376929283 0.5571962595 4283844428
-0.2740448117 -0.1371026784 0.5573134422 4283909708
-0.2741022110 -0.1365120560 0.5574302077 4284238673
-0.2741594017 -0.1359210461 0.5575464964 4284107089
-0.2742163539 -0.1353296936 0.5576623082 4284107089
-0.2742730975 -0.1347379535 0.5577777028 4284304468
-0.2747609317 -0.1343567818 0.5587698221 4284107089
-0.2748172879 -0.1337633729 0.5588844419 4283778122
-0.2753049433 -0.1333786696 0.5598761439 4283383364
-0.2753609419 -0.1327836215 0.5599900484 4283712329
-0.2754167318 -0.1321882010 0.5601034760 4284172880
-0.2754722834 -0.1315924227 0.5602164268 4284370259
-0.2759594619 -0.1312016100 0.5612071753 4283909708
-0.2760146260 -0.1306041628 0.5613194108 4283712329
-0.2760695815 -0.1300063729 0.5614311695 4283909708
-0.2761242986 -0.1294082254 0.5615423918 4284172880
-0.2761787772 -0.1288097352 0.5616531968 4283909708
-0.2762330174 -0.1282108724 0.5617635250 4283909710
-0.2762870491 -0.1276116669 0.5618734360 4283843917
-0.2763408422 -0.1270121038 0.5619828105 4283646538
-0.2763943970 -0.1264121979 0.5620917082 4283778124
-0.2764477134 -0.1258119345 0.5622001290 4284370261
-0.2765008211 -0.1252113432 0.5623081326 4284501847
-0.2765536606 -0.1246103868 0.5624155998 4284370261
-0.2766062915 -0.1240090951 0.5625226498 4284436054
-0.2766586840 -0.1234074607 0.5626291633 4284107089
-0.2767108381 -0.1228054836 0.5627351999 4284041296
-0.2763296366 -0.1220119298 0.5619599819 4283843917
-0.2763812244 -0.1214102134 0.5620649457 4283449159
-0.2764325738 -0.1208081692 0.5621693730 4283383366
-0.2764837146 -0.1202057898 0.5622733831 4283514952
-0.2765346169 -0.1196030751 0.5623768568 4283712331
-0.2765852511 -0.1190000251 0.5624798536 4284107089
-0.2766356766 -0.1183966473 0.5625823736 4284238675
-0.2766858339 -0.1177929342 0.5626844168 4283975503
-0.2771695554 -0.1173725873 0.5636680722 4283778124
-0.2772193253 -0.1167672724 0.5637693405 4283580745
-0.2777027786 -0.1163434312 0.5647525191 4283712331
-0.2777521312 -0.1157365218 0.5648528934 4284172882
-0.2773672044 -0.1149494052 0.5640701056 4283975503
-0.2774160206 -0.1143428013 0.5641693473 4283646538
-0.2774645984 -0.1137358770 0.5642681718 4283843917
-0.2775129378 -0.1131286398 0.5643664598 4283514952
-0.2779954076 -0.1126971766 0.5653476119 4284041298
-0.2780433297 -0.1120883524 0.5654450655 4284567642
-0.2780909836 -0.1114792153 0.5655420423 4284238675
-0.2781384289 -0.1108697653 0.5656384826 4283909710
-0.2781856358 -0.1102600098 0.5657344460 4283909710
-0.2782325745 -0.1096499413 0.5658299327 4283712331
-0.2782792747 -0.1090395600 0.5659249425 4283646536
-0.2783257365 -0.1084288731 0.5660194159 4283975501
-0.2783719599 -0.1078178883 0.5661133528 4284041296
-0.2784179151 -0.1072065905 0.5662068725 4283909710
-0.2784636319 -0.1065950021 0.5662998557 4284107089
-0.2785091102 -0.1059831008 0.5663923025 4284041296
-0.2785543203 -0.1053709090 0.5664842725 4283712329
-0.2790346146 -0.1049221009 0.5674610138 4284107087
-0.2795148194 -0.1044710875 0.5684375763 4284501847
-0.2799948752 -0.1040178537 0.5694138408 4284501847
-0.2804748416 -0.1035624146 0.5703899264 4284436054
-0.2805190980 -0.1029449180 0.5704799294 4284238675
-0.2809987664 -0.1024860144 0.5714554191 4284567640
-0.2810426056 -0.1018669754 0.5715445280 4284567640
-0.2810861766 -0.1012476385 0.5716331601 4284699224
-0.2811294794 -0.1006280258 0.5717212558 4284699224
-0.2807366252 -0.0998530686 0.5709223151 4284765017
-0.2807793915 -0.0992338434 0.5710092783 4284107087
-0.2808218598 -0.0986143276 0.5710957050 4283843915
-0.2804279923 -0.0978423730 0.5702946782 4284041294
-0.2804699242 -0.0972232670 0.5703799129 4284304466
-0.2805115879 -0.0966038853 0.5704646707 4284370259
-0.2805530131 -0.0959842280 0.5705488920 4284238673
-0.2805941701 -0.0953642949 0.5706325769 4284041294
-0.2801986337 -0.0945967510 0.5698282123 4284370259
-0.2806757092 -0.0941236243 0.5707984567 4284436052
-0.2807161212 -0.0935028791 0.5708805919 4284633431
-0.2811928988 -0.0930263177 0.5718501806 4284962396
-0.2812328339 -0.0924040750 0.5719314218 4284765017
-0.2812725306 -0.0917815715 0.5720121861 4284107087
-0.2813119590 -0.0911587998 0.5720923543 4283975755
-0.2817880213 -0.0906763598 0.5730604529 4284173134
-0.2822639346 -0.0901917145 0.5740283132 4284173134
-0.2823027074 -0.0895662308 0.5741071701 4284041548
-0.2823412120 -0.0889404938 0.5741855502 4284172880
-0.2823794782 -0.0883144960 0.5742633343 4284238673
-0.2824174762 -0.0876882449 0.5743405819 4284172880
-0.2828924656 -0.0871965140 0.5753065348 4284304466
-0.2829299867 -0.0865687951 0.5753828883 4284238927
-0.2829672694 -0.0859408230 0.5754587054 4284173134
-0.2834416926 -0.0854444653 0.5764235258 4284961880
-0.2834784985 -0.0848150253 0.5764983296 4285619810
-0.2835150361 -0.0841853470 0.5765726566 4284698708
-0.2839888930 -0.0836843699 0.5775363445 4284303950
-0.2840249836 -0.0830532312 0.5776097178 4284765271
-0.2840607762 -0.0824218616 0.5776825547 4284370513
-0.2845340669 -0.0819162726 0.5786450505 4283120446
-0.2845694125 -0.0812834501 0.5787168741 4282988860
-0.2850423455 -0.0807744637 0.5796786547 4283712583
-0.2850771844 -0.0801402032 0.5797495246 4284173134
-0.2859877050 -0.0797499642 0.5816012025 4284107600
-0.2860221267 -0.0791132823 0.5816712379 4284173393
-0.2864943445 -0.0785965547 0.5826315880 4284173393
-0.2869664133 -0.0780776516 0.5835915804 4284502358
-0.2874383032 -0.0775565654 0.5845512748 4284962907
-0.2883482575 -0.0771505535 0.5864018202 4285028700
-0.2896964252 -0.0768566802 0.5891434550 4284437333
-0.2910445929 -0.0765567273 0.5918852091 4285226849
-0.2928311825 -0.0763650090 0.5955185294 4288254097
-0.2973360419 -0.1962273270 0.6060487628 4291612889
-0.2969923615 -0.1953279227 0.6053482890 4291349717
-0.2970714569 -0.1947071701 0.6055094600 4291086545
-0.2971503139 -0.1940859109 0.6056701541 4291152338
-0.2972289622 -0.1934641600 0.6058304906 4291481044
-0.2973074019 -0.1928419173 0.6059903502 4291678423
-0.2973856032 -0.1922191828 0.6061497927 4291874773
-0.2974636257 -0.1915959567 0.6063088179 4291743187
-0.2975414395 -0.1909722388 0.6064674258 4290163895
-0.2971950471 -0.1900768727 0.6057614088 4288453277
-0.2968482673 -0.1891828179 0.6050544977 4289701543
-0.2960768342 -0.1880206764 0.6034821868 4289109406
-0.2953047752 -0.1868616194 0.6019085050 4285424481
-0.2924100459 -0.1843677014 0.5960083008 4285424481
-0.2907871306 -0.1826858968 0.5927003622 4285094236
-0.2883138955 -0.1804791540 0.5876592398 4284173134
-0.2862638533 -0.1785475910 0.5834807158 4283778376
-0.2837876976 -0.1763604879 0.5784336925 4283317825
-0.2800352275 -0.1733943224 0.5707851648 4283383618
-0.2771306932 -0.1709682643 0.5648649931 4284238927
-0.2742244601 -0.1685543209 0.5589413047 4284370259
-0.2730175853 -0.1671942025 0.5564813614 4283975501
-0.2722352147 -0.1660985798 0.5548866987 4284107087
-0.2714522183 -0.1650061160 0.5532907844 4283909708
-0.2719453573 -0.1646900028 0.5542958975 4283843917
-0.2715871334 -0.1638579965 0.5535656810 4284041296
-0.2716542482 -0.1632833034 0.5537025332 4284238675
-0.2717212141 -0.1627081931 0.5538389683 4284304468
-0.2713619471 -0.1618785113 0.5531067252 4284172882
-0.2714283466 -0.1613034457 0.5532421470 4283975503
-0.2710683644 -0.1604756415 0.5525083542 4284107087
-0.2711342871 -0.1599006355 0.5526427031 4283975501
-0.2707735896 -0.1590747088 0.5519075394 4283909708
-0.2704124749 -0.1582501680 0.5511714816 4283712329
-0.2700509429 -0.1574270278 0.5504345894 4283975755
-0.2705424428 -0.1571008712 0.5514364243 4284567892
-0.2701803148 -0.1562786996 0.5506982803 4284765271
-0.2702446878 -0.1557039320 0.5508294702 4284896857
-0.2703088522 -0.1551287472 0.5509602427 4284502099
-0.2707999349 -0.1547973156 0.5519612432 4283317825
-0.2708638012 -0.1542204022 0.5520913601 4284765269
-0.2713547647 -0.1538854092 0.5530921221 4285028441
-0.2714183033 -0.1533067822 0.5532215834 4285094234
-0.2714816332 -0.1527277380 0.5533506870 4284436304
-0.2719723582 -0.1523878872 0.5543509126 4283975753
-0.2724630833 -0.1520458162 0.5553511977 4283975753
-0.2725259960 -0.1514637321 0.5554793477 4283712583
-0.2725886703 -0.1508812457 0.5556071401 4283646790
-0.2726511359 -0.1502983570 0.5557344556 4283712583
-0.2722852528 -0.1494800448 0.5549886823 4283712583
-0.2723472118 -0.1488972753 0.5551149249 4283580997
-0.2724089324 -0.1483141035 0.5552407503 4283515204
-0.2728988528 -0.1479628235 0.5562393665 4283778373
-0.2725317180 -0.1471465975 0.5554910898 4283646787
-0.2725928128 -0.1465622485 0.5556156039 4283844167
-0.2726536691 -0.1459774971 0.5557396412 4283712581
-0.2731431127 -0.1456209719 0.5567372441 4283449411
-0.2732036412 -0.1450345218 0.5568606257 4283712583
-0.2732639611 -0.1444476992 0.5569835305 4283514950
-0.2737531364 -0.1440863162 0.5579805970 4283449157
-0.2738130987 -0.1434977800 0.5581028461 4283185985
-0.2738728523 -0.1429088712 0.5582246184 4283317571
-0.2739323676 -0.1423195750 0.5583459735 4283252289
-0.2739916742 -0.1417298913 0.5584668517 4283054910
-0.2740507722 -0.1411398202 0.5585872531 4283449670
-0.2741096318 -0.1405493766 0.5587072372 4284633944
-0.2737385333 -0.1397391707 0.5579508543 4284436565
-0.2737968564 -0.1391488910 0.5580697656 4284370772
-0.2738549709 -0.1385582387 0.5581882000 4284173391
-0.2739128768 -0.1379672140 0.5583061576 4283383875
-0.2739705145 -0.1373758018 0.5584236979 4283580743
-0.2740279734 -0.1367840171 0.5585407615 4284041294
-0.2740851641 -0.1361918747 0.5586574078 4283975503
-0.2741421759 -0.1355993599 0.5587735772 4283778124
-0.2741989195 -0.1350064725 0.5588892698 4283580745
-0.2742554545 -0.1344132125 0.5590044856 4283580745
-0.2743117809 -0.1338195801 0.5591192842 4283843915
-0.2747985721 -0.1334347427 0.5601115227 4283580743
-0.2748545408 -0.1328394562 0.5602255464 4282988606
-0.2749102414 -0.1322438121 0.5603390932 4283712329
-0.2749657333 -0.1316478103 0.5604522228 4284370259
-0.2750210166 -0.1310514361 0.5605648756 4283449157
-0.2755071819 -0.1306591779 0.5615558624 4283317571
-0.2755620778 -0.1300611645 0.5616677403 4283778122
-0.2756167352 -0.1294627786 0.5617791414 4284304466
-0.2756711841 -0.1288640499 0.5618900657 4284633431
-0.2757253647 -0.1282649636 0.5620005727 4283909710
-0.2757793367 -0.1276655197 0.5621105433 4284041296
-0.2758330703 -0.1270657331 0.5622200966 4283580745
-0.2758865654 -0.1264655888 0.5623291135 4283251780
-0.2759398520 -0.1258651018 0.5624377131 4284304468
-0.2759928703 -0.1252642572 0.5625458360 4284633433
-0.2760456800 -0.1246630847 0.5626534224 4284567640
-0.2760982513 -0.1240615547 0.5627605915 4284501847
-0.2761505842 -0.1234596819 0.5628672838 4284238675
-0.2757704556 -0.1226652116 0.5620924234 4284107089
-0.2762545645 -0.1222549230 0.5630791783 4284041296
-0.2758737803 -0.1214616522 0.5623030663 4284041296
-0.2759250998 -0.1208593696 0.5624076128 4283909710
-0.2759761810 -0.1202567518 0.5625117421 4283449159
-0.2755943537 -0.1194662526 0.5617335439 4283383366
-0.2756448984 -0.1188639179 0.5618364811 4284041296
-0.2761279941 -0.1184469014 0.5628211498 4284501847
-0.2766110003 -0.1180276573 0.5638056397 4284172882
-0.2766609490 -0.1174224392 0.5639075041 4284107089
-0.2767106891 -0.1168168932 0.5640088916 4284041296
-0.2767601609 -0.1162110195 0.5641097426 4284370261
-0.2768094242 -0.1156048179 0.5642101169 4284501847
-0.2768584192 -0.1149982959 0.5643100142 4283843917
-0.2769072056 -0.1143914536 0.5644094348 4283383366
-0.2769557238 -0.1137842909 0.5645083189 4283843917
-0.2770040035 -0.1131768152 0.5646067262 4283712331
-0.2770520449 -0.1125690117 0.5647046566 4284172884
-0.2775335014 -0.1121361107 0.5656859875 4284304470
-0.2775811255 -0.1115267351 0.5657830834 4284107091
-0.2776285410 -0.1109170392 0.5658797026 4284633435
-0.2776756585 -0.1103070378 0.5659757853 4284633433
-0.2777225673 -0.1096967235 0.5660713911 4283514952
-0.2777692378 -0.1090861037 0.5661664605 4283383364
-0.2778156400 -0.1084751710 0.5662610531 4284107087
-0.2774276435 -0.1076954007 0.5654702187 4283975503
-0.2774735093 -0.1070848182 0.5655636787 4283580745
-0.2779534161 -0.1066405550 0.5665418506 4284107089
-0.2779988348 -0.1060284153 0.5666344762 4284238675
-0.2780440152 -0.1054159701 0.5667265654 4283712329
-0.2785234749 -0.1049669906 0.5677037835 4284041294
-0.2794373930 -0.1046785936 0.5695666075 4284370261
-0.2799167037 -0.1042242274 0.5705435872 4284501847
-0.2799611688 -0.1036067680 0.5706341863 4284830812
-0.2800053656 -0.1029890105 0.5707243085 4284765019
-0.2800493538 -0.1023709700 0.5708139539 4284765019
-0.2805279791 -0.1019106358 0.5717895627 4284501847
-0.2805715203 -0.1012910530 0.5718782544 4284304466
-0.2806147933 -0.1006711796 0.5719664693 4283843915
-0.2802226841 -0.0998959094 0.5711672902 4284041294
-0.2802653909 -0.0992764235 0.5712543130 4283909708
-0.2803078592 -0.0986566618 0.5713408589 4283975501
-0.2803500593 -0.0980366245 0.5714268684 4284041294
-0.2799566090 -0.0972650275 0.5706249475 4284304466
-0.2799982429 -0.0966453925 0.5707097650 4284501845
-0.2800396085 -0.0960254818 0.5707941055 4284172880
-0.2800807357 -0.0954052955 0.5708779097 4284041294
-0.2796859443 -0.0946374312 0.5700732470 4283844169
-0.2797265053 -0.0940176621 0.5701559186 4283778376
-0.2806383371 -0.0936885923 0.5720144510 4283843915
-0.2806785107 -0.0930663571 0.5720963478 4284304466
-0.2807184160 -0.0924438611 0.5721777081 4284436052
-0.2807580531 -0.0918210968 0.5722585320 4283778122
-0.2807974517 -0.0911980718 0.5723388195 4283515204
-0.2808365822 -0.0905747861 0.5724185705 4283844169
-0.2813116312 -0.0900909156 0.5733867884 4284041548
-0.2817865014 -0.0896048471 0.5743547082 4284041548
-0.2818249762 -0.0889788494 0.5744331479 4284370259
-0.2818632126 -0.0883525908 0.5745110512 4284436052
-0.2819011509 -0.0877260864 0.5745884180 4284370259
-0.2819388807 -0.0870993212 0.5746653080 4284633431
-0.2819763124 -0.0864723101 0.5747416019 4284699478
-0.2824500501 -0.0859779343 0.5757071972 4284436306
-0.2829236388 -0.0854813680 0.5766724944 4284830292
-0.2829604149 -0.0848516747 0.5767474174 4285817187
-0.2829969227 -0.0842217281 0.5768218637 4284896087
-0.2830331624 -0.0835915431 0.5768957138 4284501329
-0.2830691338 -0.0829611197 0.5769690871 4284961880
-0.2831048667 -0.0823304504 0.5770418644 4284896087
-0.2835772634 -0.0818256289 0.5780047774 4283974985
-0.2836125195 -0.0811935142 0.5780766010 4283909192
-0.2840845585 -0.0806852952 0.5790387392 4283909962
-0.2841193080 -0.0800517425 0.5791096091 4284304720
-0.2845909894 -0.0795401335 0.5800709724 4284172880
-0.2850624919 -0.0790263414 0.5810320377 4284041294
-0.2855338156 -0.0785103738 0.5819927454 4283976014
-0.2855676711 -0.0778729767 0.5820617676 4284107600
-0.2860386372 -0.0773536265 0.5830217004 4284304977
-0.2865094543 -0.0768321007 0.5839813352 4285028700
-0.2874175310 -0.0764247179 0.5858322382 4284568919
-0.2883255780 -0.0760132074 0.5876830220 4284963677
-0.2892335057 -0.0755975619 0.5895336866 4286345843
-0.2923294902 -0.0757447407 0.5958440900 4290753974
-0.2951731980 -0.1945719570 0.6030054092 4291743446
-0.2956742346 -0.1942311078 0.6040289998 4291348429
-0.2957527936 -0.1936114132 0.6041894555 4291019464
-0.2954085171 -0.1927155256 0.6034861803 4290624705
-0.2959092557 -0.1923705488 0.6045091152 4289835189
-0.2959871888 -0.1917493790 0.6046683192 4289505965
-0.2960648835 -0.1911277026 0.6048270464 4288782242
-0.2961423993 -0.1905055642 0.6049853563 4288254867
-0.2957965136 -0.1896116585 0.6042788029 4288715418
-0.2917163074 -0.1856718957 0.5959433913 4289570211
-0.2930622697 -0.1858633757 0.5986930132 4285623401
-0.2914433777 -0.1841751486 0.5953857899 4285491815
-0.2893996835 -0.1822267771 0.5912107825 4285817959
-0.2873547077 -0.1802868694 0.5870331526 4283646790
-0.2853084505 -0.1783554554 0.5828528404 4282988860
-0.2828368247 -0.1761683822 0.5778036118 4283054653
-0.2790912688 -0.1732019335 0.5701518655 4283383618
-0.2761920989 -0.1707758307 0.5642291903 4284173134
-0.2737155557 -0.1686232537 0.5591698885 4284238673
-0.2716620266 -0.1667415500 0.5549747944 4284172880
-0.2713055313 -0.1659069508 0.5542464852 4283909708
-0.2705239654 -0.1648149639 0.5526497960 4284304466
-0.2705913186 -0.1642418206 0.5527874231 4284699478
-0.2706584930 -0.1636682451 0.5529246330 4284831064
-0.2707254589 -0.1630942523 0.5530614853 4284896857
-0.2707922161 -0.1625198275 0.5531978607 4284502099
-0.2708587945 -0.1619449854 0.5533338189 4283909708
-0.2704998255 -0.1611163914 0.5526005030 4283843915
-0.2705658972 -0.1605416089 0.5527354479 4283909708
-0.2702062130 -0.1597148776 0.5520007014 4283909708
-0.2702717483 -0.1591401547 0.5521345735 4283843915
-0.2699113488 -0.1583153009 0.5513983369 4283646536
-0.2699763775 -0.1577406526 0.5515311956 4283712583
-0.2696152627 -0.1569176912 0.5507934690 4283844169
-0.2696797848 -0.1563431323 0.5509252548 4283975501
-0.2697440982 -0.1557681412 0.5510566235 4284238673
-0.2698082030 -0.1551927477 0.5511875749 4284304466
-0.2702984214 -0.1548612118 0.5521890521 4284107087
-0.2703621984 -0.1542840898 0.5523194075 4285225822
-0.2708523273 -0.1539489925 0.5533206463 4284304720
-0.2709158063 -0.1533701569 0.5534502864 4283909962
-0.2709790468 -0.1527908891 0.5535795093 4283580997
-0.2714689374 -0.1524509341 0.5545803308 4283120192
-0.2719588280 -0.1521087587 0.5555810928 4283646536
-0.2720216513 -0.1515264660 0.5557094216 4283646536
-0.2720842659 -0.1509437561 0.5558373332 4283580743
-0.2721466720 -0.1503606588 0.5559648275 4283449157
-0.2717815042 -0.1495420337 0.5552188754 4283449157
-0.2718434036 -0.1489590555 0.5553452969 4283646536
-0.2719050646 -0.1483756751 0.5554712415 4283909708
-0.2723941207 -0.1480242759 0.5564703345 4284041548
-0.2720277309 -0.1472077221 0.5557218790 4284041548
-0.2720887661 -0.1466231644 0.5558465123 4284238927
-0.2721495628 -0.1460382044 0.5559707284 4284173134
-0.2722101510 -0.1454528570 0.5560945272 4283778376
-0.2722705305 -0.1448671222 0.5562178493 4283646790
-0.2727588713 -0.1445078403 0.5572154522 4283646790
-0.2728188932 -0.1439204067 0.5573381186 4283975755
-0.2733070850 -0.1435575932 0.5583354235 4283515202
-0.2733667791 -0.1429684609 0.5584573746 4283449409
-0.2729976773 -0.1421557665 0.5577033162 4283252030
-0.2730568349 -0.1415667981 0.5578241944 4282988858
-0.2735445201 -0.1411987394 0.5588204861 4283909959
-0.2736033201 -0.1406080723 0.5589405894 4284896854
-0.2732329667 -0.1397975683 0.5581840277 4284962648
-0.2732912302 -0.1392070651 0.5583030581 4284699476
-0.2733492851 -0.1386161894 0.5584216118 4284173134
-0.2729778886 -0.1378082484 0.5576629639 4283778376
-0.2730354071 -0.1372175515 0.5577804446 4283383618
-0.2735220790 -0.1368412971 0.5587746501 4283712583
-0.2735792398 -0.1362489313 0.5588914156 4283909962
-0.2736361921 -0.1356561780 0.5590077043 4283909962
-0.2736928761 -0.1350630671 0.5591235757 4283646790
-0.2737493813 -0.1344695836 0.5592389703 4283909962
-0.2738056183 -0.1338757426 0.5593538880 4284370259
-0.2742915750 -0.1334907562 0.5603466034 4284238673
-0.2743474543 -0.1328952461 0.5604608059 4283449670
-0.2744031250 -0.1322993636 0.5605745316 4283976014
-0.2744585574 -0.1317031384 0.5606877804 4284304466
-0.2749440372 -0.1313120276 0.5616795421 4283778122
-0.2749991119 -0.1307141334 0.5617920160 4283317571
-0.2750539482 -0.1301158965 0.5619040728 4283514950
-0.2751085460 -0.1295172870 0.5620155931 4283910221
-0.2751629353 -0.1289183199 0.5621266961 4284304979
-0.2752170861 -0.1283189952 0.5622373223 4284304979
-0.2752709985 -0.1277193278 0.5623474717 4284765530
-0.2753246725 -0.1271193027 0.5624571443 4284041296
-0.2753781080 -0.1265189350 0.5625662804 4283317573
-0.2754313350 -0.1259182096 0.5626749992 4284172882
-0.2754843235 -0.1253171414 0.5627832413 4284699226
-0.2755370736 -0.1247157231 0.5628910065 4284304979
-0.2755895853 -0.1241139621 0.5629982948 4284239186
-0.2756418586 -0.1235118583 0.5631051064 4284370774
-0.2752624750 -0.1227170676 0.5623300672 4284041809
-0.2757457197 -0.1223066226 0.5633172989 4284107602
-0.2753657103 -0.1215130389 0.5625409484 4284173395
-0.2754169703 -0.1209105179 0.5626456738 4284172882
-0.2754679918 -0.1203076690 0.5627499223 4283975503
-0.2750869393 -0.1195168495 0.5619714260 4284041294
-0.2751373947 -0.1189142764 0.5620745420 4284567638
-0.2756196558 -0.1184971035 0.5630597472 4284962396
-0.2761017978 -0.1180777028 0.5640447140 4284633431
-0.2761517167 -0.1174722463 0.5641466975 4284436054
-0.2762013972 -0.1168664545 0.5642482042 4284370261
-0.2766831517 -0.1164422855 0.5652323365 4284699226
-0.2767324448 -0.1158348992 0.5653330088 4284699226
-0.2767814696 -0.1152271852 0.5654332042 4284172880
-0.2763977349 -0.1144400612 0.5646492243 4284172880
-0.2768788338 -0.1140107960 0.5656321049 4284436054
-0.2769271433 -0.1134021282 0.5657308102 4284304468
-0.2769752145 -0.1127931327 0.5658289790 4284238675
-0.2770230472 -0.1121838242 0.5659266710 4284304468
-0.2770706117 -0.1115742028 0.5660238862 4284041296
-0.2771179676 -0.1109642684 0.5661206245 4283909710
-0.2771650553 -0.1103540212 0.5662168264 4284304468
-0.2772119343 -0.1097434610 0.5663125515 4284370261
-0.2772585452 -0.1091325954 0.5664077997 4284699226
-0.2773048878 -0.1085214242 0.5665025115 4285028191
-0.2773510218 -0.1079099402 0.5665967464 4284633433
-0.2773968875 -0.1072981581 0.5666904449 4284107089
-0.2774425149 -0.1066860706 0.5667836666 4284304468
-0.2779214978 -0.1062394232 0.5677621365 4284370261
-0.2779667079 -0.1056257784 0.5678544641 4284172882
-0.2788790762 -0.1053394824 0.5697184205 4284304468
-0.2793577313 -0.1048861891 0.5706961751 4284436313
-0.2794024050 -0.1042687744 0.5707874298 4284567899
-0.2794468105 -0.1036510691 0.5708782077 4284633433
-0.2799249887 -0.1031930596 0.5718550682 4284699226
-0.2795349061 -0.1024147719 0.5710581541 4284765019
-0.2795785964 -0.1017961875 0.5711473823 4284370261
-0.2796220183 -0.1011773124 0.5712360740 4284370774
-0.2796651721 -0.1005581543 0.5713242888 4284041809
-0.2797080874 -0.0999387056 0.5714119673 4284370261
-0.2793163657 -0.0991647467 0.5706117153 4284633433
-0.2797931731 -0.0986989588 0.5715857744 4284699224
-0.2798353434 -0.0980786607 0.5716719031 4284830810
-0.2798772454 -0.0974580869 0.5717574954 4284698710
-0.2799188793 -0.0968372300 0.5718426108 4284435538
-0.2799603045 -0.0962160975 0.5719271898 4284172882
-0.2795666456 -0.0954462588 0.5711230040 4284107089
-0.2796074748 -0.0948255435 0.5712063909 4284107087
-0.2800829709 -0.0943510681 0.5721777678 4283843915
-0.2801233530 -0.0937288478 0.5722602606 4283712329
-0.2801634669 -0.0931063592 0.5723422170 4283909708
-0.2802033424 -0.0924836025 0.5724236965 4284172880
-0.2802429497 -0.0918605849 0.5725045800 4284436052
-0.2802822888 -0.0912373066 0.5725849867 4284304466
-0.2803213894 -0.0906137601 0.5726648569 4283909708
-0.2807955742 -0.0901296884 0.5736335516 4284238673
-0.2812696397 -0.0896434262 0.5746020079 4284633431
-0.2813080549 -0.0890171677 0.5746805072 4284830810
-0.2817817628 -0.0885274783 0.5756482482 4284765017
-0.2818197608 -0.0878997371 0.5757258534 4284567638
-0.2818574905 -0.0872717500 0.5758029222 4284370259
-0.2814592421 -0.0865095854 0.5749893785 4284238673
-0.2819321454 -0.0860150084 0.5759554505 4284238673
-0.2824048996 -0.0855182409 0.5769212246 4284238927
-0.2824416459 -0.0848882794 0.5769962668 4285423201
-0.2824780941 -0.0842580795 0.5770707726 4285094236
-0.2825143337 -0.0836276338 0.5771447420 4284436306
-0.2821142375 -0.0828688592 0.5763274431 4284896857
-0.2821498513 -0.0822389051 0.5764002204 4285357408
-0.2826213837 -0.0817348436 0.5773634911 4285291615
-0.2826565206 -0.0811034366 0.5774353147 4284896857
-0.2831276655 -0.0805959851 0.5783978105 4284238927
-0.2831623554 -0.0799631402 0.5784686208 4284304720
-0.2836331427 -0.0794522911 0.5794304013 4284567892
-0.2841037512 -0.0789392665 0.5803918242 4284436306
-0.2841377556 -0.0783037767 0.5804612637 4284633685
-0.2846079767 -0.0777873695 0.5814219117 4283975755
-0.2850780785 -0.0772687793 0.5823822021 4284436304
-0.2851113677 -0.0766306594 0.5824502110 4284962648
-0.2855810523 -0.0761086866 0.5834097266 4284635225
-0.2864872813 -0.0756999403 0.5852611065 4284766811
-0.2873934507 -0.0752870589 0.5871123075 4285030240
-0.2887363732 -0.0749834850 0.5898557305 4288385683
-0.2944647968 -0.1958862096 0.6029262543 4291612632
