VERSION 0.7
FIELDS x y z rgba
SIZE 4 4 4 4
TYPE F F F U
COUNT 1 1 1 1
WIDTH 920
HEIGHT 1
VIEWPOINT 0.0 0.0 0.0 1.0 0.0 0.0 0.0
POINTS 920
DATA ascii
-0.2923898101 -0.1702907681 0.5840669870 4286951866
-0.2920273542 -0.1694315225 0.5833429098 4287802553
-0.2916644514 -0.1685736477 0.5826180577 4287802553
-0.2913011312 -0.1677171290 0.5818922520 4287671993
-0.2909373939 -0.1668619812 0.5811656713 4287606200
-0.2905732095 -0.1660082042 0.5804381967 4287737785
-0.2897748053 -0.1649089307 0.5788433552 4288000957
-0.2894096673 -0.1640588045 0.5781139731 4288460736
-0.2890441120 -0.1632100642 0.5773837566 4288723908
-0.2886781394 -0.1623627096 0.5766526461 4288986310
-0.2891801298 -0.1620032340 0.5776554346 4289117896
-0.2883791924 -0.1609145105 0.5760555267 4289249223
-0.2880120277 -0.1600704193 0.5753220916 4289315016
-0.2872099578 -0.1589871943 0.5737199187 4289642441
-0.2877110839 -0.1586260349 0.5747209191 4289774027
-0.2873427570 -0.1577852219 0.5739851594 4290363852
-0.2869740129 -0.1569458246 0.5732485652 4290561231
-0.2861699462 -0.1558709294 0.5716423988 4291216330
-0.2866702676 -0.1555072069 0.5726418495 4289374126
-0.2854301333 -0.1542010009 0.5701646209 4288504163
-0.2854948342 -0.1536023021 0.5702938437 4286793545
-0.2851239741 -0.1527699679 0.5695530176 4289411384
-0.2851881087 -0.1521713734 0.5696811676 4289148212
-0.2848165333 -0.1513409764 0.5689389110 4289540651
-0.2848801315 -0.1507424861 0.5690659285 4289803823
-0.2840721011 -0.1496844590 0.5674518347 4289673527
-0.2832634747 -0.1486296803 0.5658365488 4289673527
-0.2833260298 -0.1480336785 0.5659614801 4289673017
-0.2833883166 -0.1474372745 0.5660859346 4289804603
-0.2830143273 -0.1466145664 0.5653389096 4289673017
-0.2826399207 -0.1457933038 0.5645909905 4289541431
-0.2822651267 -0.1449734867 0.5638422370 4289542457
-0.2823262513 -0.1443782747 0.5639643669 4289345078
-0.2819506824 -0.1435604542 0.5632141829 4289539888
-0.2820112705 -0.1429653913 0.5633351803 4290197818
-0.2816349864 -0.1421495676 0.5625835061 4289411646
-0.2812582850 -0.1413352042 0.5618310571 4288687923
-0.2808811665 -0.1405223012 0.5610777736 4290210416
-0.2805036604 -0.1397108734 0.5603236556 4293500066
-0.2805627286 -0.1391176134 0.5604416728 4292585649
-0.2801844776 -0.1383081973 0.5596860647 4291532961
-0.2798058093 -0.1375002712 0.5589296818 4290023831
-0.2803013325 -0.1371216625 0.5599194765 4287457904
-0.2799220383 -0.1363148391 0.5591617823 4288835959
-0.2782299221 -0.1348733157 0.5557817221 4292849332
-0.2791621983 -0.1347056627 0.5576440096 4293440958
-0.2783440351 -0.1336930990 0.5560096502 4290940824
-0.2779630125 -0.1328931749 0.5552485585 4288111218
-0.2780194283 -0.1323030889 0.5553612113 4288177011
-0.2780756056 -0.1317126453 0.5554734468 4289163646
-0.2772555351 -0.1307088733 0.5538353324 4290282127
-0.2768729925 -0.1299140155 0.5530711412 4291135639
-0.2769282162 -0.1293253154 0.5531814694 4290806674
-0.2761066854 -0.1283288449 0.5515403748 4289755267
-0.2765996158 -0.1279440671 0.5525251031 4289755267
-0.2762156427 -0.1271534115 0.5517580509 4291399065
-0.2762697637 -0.1265651584 0.5518661737 4293307062
-0.2758850753 -0.1257766187 0.5510976911 4293570748
-0.2754999697 -0.1249895915 0.5503284335 4292057509
-0.2755532265 -0.1244021878 0.5504348278 4290020749
-0.2751674056 -0.1236172840 0.5496641397 4288770682
-0.2752201259 -0.1230301410 0.5497694612 4288638326
-0.2748335898 -0.1222473681 0.5489973426 4291204253
-0.2748857737 -0.1216604933 0.5491015911 4293508289
-0.2744985223 -0.1208798662 0.5483280420 4292981945
-0.2741108835 -0.1201007888 0.5475536585 4290605438
-0.2746015787 -0.1197063252 0.5485338569 4286855237
-0.2742132843 -0.1189284623 0.5477582216 4287573819
-0.2742641568 -0.1183418110 0.5478598475 4288297542
-0.2743147612 -0.1177548319 0.5479609370 4289147451
-0.2739254832 -0.1169797555 0.5471833348 4289147451
-0.2735357881 -0.1162062436 0.5464048982 4290000960
-0.2735855579 -0.1156201810 0.5465042591 4290264132
-0.2736350894 -0.1150337979 0.5466032028 4290528074
-0.2736843824 -0.1144470945 0.5467016697 4290922832
-0.2724131644 -0.1133109108 0.5441623926 4291384664
-0.2737822533 -0.1132727414 0.5468972325 4291845215
-0.2729503512 -0.1123227626 0.5452354550 4291778393
-0.2738792002 -0.1120971367 0.5470908880 4291449428
-0.2739273310 -0.1115088686 0.5471869707 4291316814
-0.2730942369 -0.1105636358 0.5455228686 4290724677
-0.2740228474 -0.1103314012 0.5473778248 4289083200
-0.2745108902 -0.1099186465 0.5483526587 4289148993
-0.2749988139 -0.1095036864 0.5493273735 4289611091
-0.2737235725 -0.1083883718 0.5467799902 4291124330
-0.2764153183 -0.1088407561 0.5521569252 4291854222
-0.2769030631 -0.1084182411 0.5531312227 4293170082
-0.2778317332 -0.1081652269 0.5549862981 4291995828
-0.2783193886 -0.1077373624 0.5559604168 4292259000
-0.2761600316 -0.1062885597 0.5516469479 4290623679
-0.2770882547 -0.1060308367 0.5535011888 4290821058
-0.2829172015 -0.1070055068 0.5651448369 4291482838
-0.2842876613 -0.1068928912 0.5678824186 4292928743
-0.2772695720 -0.1036386862 0.5538633466 4293784052
-0.3076921403 -0.2104004025 0.6160010099 4292797680
-0.3077774942 -0.2097741663 0.6161718965 4291942371
-0.3078626692 -0.2091474086 0.6163423657 4290627287
-0.3079476058 -0.2085201293 0.6165124774 4289443013
-0.3080323637 -0.2078923434 0.6166821122 4288655041
-0.3076889515 -0.2069761604 0.6159946322 4288852420
-0.3077731729 -0.2063481957 0.6161631942 4289050571
-0.3082853258 -0.2060058564 0.6171885729 4289576915
-0.3083692193 -0.2053759843 0.6173565388 4287800508
-0.3084529340 -0.2047456205 0.6175240874 4284116100
-0.3085364103 -0.2041147351 0.6176912189 4281614943
-0.3077623844 -0.2029180974 0.6161416769 4281088599
-0.3074164689 -0.2020062059 0.6154491305 4286086816
-0.3070701063 -0.2010955662 0.6147556901 4288784329
-0.3062942922 -0.1999061853 0.6132025123 4288919488
-0.3059469163 -0.1989989281 0.6125070453 4288787902
-0.3051698804 -0.1978147179 0.6109514236 4288853697
-0.3048215210 -0.1969108582 0.6102539897 4288524732
-0.3044727147 -0.1960082799 0.6095556617 4288656067
-0.3041234612 -0.1951069534 0.6088564992 4288392895
-0.3037737608 -0.1942069083 0.6081563830 4288457923
-0.3034236133 -0.1933081299 0.6074554324 4288392130
-0.3030730486 -0.1924106330 0.6067535281 4288785600
-0.3027220368 -0.1915144175 0.6060508490 4288719807
-0.3019404709 -0.1903483421 0.6044861078 4288391606
-0.3015884459 -0.1894555837 0.6037814021 4288391606
-0.3012360036 -0.1885641217 0.6030758023 4287671993
-0.3008831441 -0.1876739562 0.6023693681 4287606200
-0.3005298078 -0.1867850870 0.6016619802 4286229433
-0.2993147075 -0.1853640974 0.5992293954 4285439917
-0.2985295355 -0.1842138022 0.5976574421 4284519847
-0.2981745601 -0.1833315045 0.5969467759 4283993503
-0.2978191674 -0.1824505329 0.5962352753 4283601314
-0.2970322371 -0.1813077331 0.5946598649 4283864486
-0.2975383103 -0.1809547991 0.5956729650 4283536289
-0.2976130545 -0.1803382486 0.5958226323 4283470496
-0.2968246937 -0.1792003065 0.5942443609 4284257704
-0.2960357070 -0.1780654788 0.5926647782 4284520876
-0.2956777215 -0.1771924496 0.5919480920 4284847529
-0.2957510352 -0.1765785366 0.5920948982 4285571252
-0.2945285738 -0.1751935184 0.5896474719 4286491317
-0.2950330973 -0.1748373657 0.5906575918 4286359731
-0.2942414284 -0.1737136990 0.5890725851 4286163120
-0.2938812673 -0.1728473753 0.5883516073 4286228913
-0.2930884063 -0.1717291176 0.5867642760 4285703859
-0.2927272916 -0.1708664000 0.5860413313 4285638066
-0.2919332385 -0.1697535366 0.5844516158 4286360501
-0.2915711701 -0.1688944399 0.5837267637 4286492087
-0.2912086546 -0.1680366993 0.5830010176 4286688694
-0.2908457220 -0.1671803296 0.5822744370 4286688694
-0.2904823720 -0.1663253158 0.5815469623 4287213496
-0.2896855772 -0.1652247161 0.5799517632 4287476668
-0.2888881266 -0.1641273052 0.5783553123 4288066751
-0.2885232866 -0.1632782370 0.5776249170 4288329923
-0.2881580293 -0.1624305695 0.5768936276 4288854471
-0.2886591852 -0.1620709747 0.5778969526 4288920264
-0.2878597379 -0.1609818190 0.5762964487 4289051592
-0.2874933183 -0.1601374000 0.5755628943 4289248971
-0.2871264517 -0.1592943817 0.5748283863 4289904845
-0.2867591679 -0.1584527493 0.5740931034 4290102224
-0.2868253887 -0.1578513384 0.5742256641 4290561233
-0.2864573598 -0.1570116132 0.5734888911 4290692819
-0.2860889137 -0.1561733037 0.5727512836 4289504166
-0.2857200503 -0.1553363949 0.5720127821 4285885551
-0.2853507698 -0.1545009017 0.5712735057 4286856513
-0.2854155004 -0.1539010704 0.5714030862 4287382857
-0.2850454748 -0.1530674994 0.5706622601 4289805113
-0.2851096392 -0.1524677724 0.5707907677 4289607734
-0.2847388685 -0.1516361237 0.5700484514 4289607471
-0.2843676805 -0.1508059204 0.5693053603 4289344299
-0.2839960754 -0.1499771327 0.5685614347 4289477429
-0.2836240828 -0.1491497904 0.5678166151 4289477429
-0.2832516432 -0.1483238786 0.5670710206 4289738039
-0.2828787863 -0.1474994123 0.5663245916 4289803832
-0.2829408050 -0.1469023973 0.5664487481 4289738040
-0.2825672328 -0.1460798979 0.5657008290 4289672247
-0.2821932137 -0.1452588439 0.5649520755 4289280826
-0.2818188071 -0.1444392502 0.5642024875 4289412412
-0.2818796635 -0.1438434273 0.5643243194 4289280309
-0.2819402814 -0.1432472169 0.5644456744 4289280309
-0.2815648019 -0.1424301565 0.5636940002 4289345332
-0.2811889350 -0.1416145414 0.5629414916 4289674297
-0.2803766131 -0.1405817717 0.5613151789 4291453537
-0.2799997926 -0.1397700161 0.5605608225 4292374639
-0.2796226144 -0.1389597356 0.5598056912 4290797665
-0.2792449892 -0.1381509453 0.5590496659 4288429117
-0.2801761925 -0.1379884183 0.5609139800 4288169795
-0.2793615460 -0.1369657964 0.5592830181 4287248693
-0.2794194818 -0.1363726705 0.5593990088 4289418066
-0.2781671286 -0.1351427138 0.5568917990 4292312958
-0.2782243490 -0.1345516294 0.5570063591 4293567401
-0.2778444588 -0.1337498873 0.5562458038 4293567401
-0.2779011130 -0.1331590116 0.5563592911 4291991719
-0.2775205374 -0.1323593259 0.5555973053 4290939031
-0.2771395147 -0.1315611601 0.5548345447 4289429121
-0.2776325345 -0.1311776340 0.5558215380 4287521124
-0.2772508860 -0.1303806156 0.5550575256 4286399824
-0.2759940624 -0.1291756630 0.5525413156 4287452512
-0.2764863968 -0.1287910789 0.5535269976 4289688963
-0.2761035562 -0.1279985905 0.5527605414 4292518062
-0.2752826512 -0.1270056963 0.5511170626 4293898173
-0.2753366530 -0.1264181584 0.5512251854 4292648106
-0.2749525905 -0.1256302297 0.5504562855 4289097078
-0.2745681405 -0.1248438209 0.5496866107 4286794323
-0.2750592530 -0.1244552955 0.5506698489 4286073167
-0.2746741772 -0.1236700788 0.5498989224 4286336339
-0.2742886841 -0.1228864044 0.5491271615 4288834165
-0.2739028037 -0.1221042573 0.5483546257 4292913331
-0.2739548683 -0.1215180829 0.5484588146 4294097094
-0.2735682726 -0.1207380891 0.5476848483 4293044406
-0.2736197710 -0.1201521829 0.5477879643 4289355885
-0.2732324600 -0.1193743423 0.5470126271 4287711060
-0.2728447616 -0.1185980514 0.5462364554 4290143085
-0.2733341455 -0.1182027757 0.5472161770 4291919496
-0.2729458213 -0.1174277142 0.5464387536 4292839050
-0.2725571096 -0.1166542098 0.5456605554 4291062639
-0.2730459571 -0.1162560806 0.5466392040 4288232766
-0.2722175419 -0.1152978539 0.5449807644 4287706422
-0.2722668648 -0.1147131249 0.5450794697 4287833384
-0.2718767524 -0.1139439940 0.5442984700 4288030763
-0.2723648250 -0.1135427132 0.5452755690 4288946730
-0.2719740868 -0.1127748415 0.5444932580 4289867832
-0.2715829313 -0.1120085567 0.5437102318 4291184464
-0.2716309130 -0.1114241406 0.5438063145 4292039773
-0.2712390721 -0.1106600687 0.5430218577 4291648355
-0.2712865472 -0.1100759879 0.5431168079 4291319390
-0.2726530433 -0.1100239754 0.5458526015 4290792008
-0.2718205750 -0.1090834141 0.5441859961 4290463043
-0.2714274824 -0.1083219126 0.5433990359 4289935935
-0.2727939785 -0.1082604527 0.5461347103 4289278005
-0.2750408053 -0.1085403338 0.5506328940 4288951873
-0.2715663016 -0.1065651253 0.5436769128 4289741389
-0.2716121078 -0.1059789285 0.5437686443 4289945454
-0.2738591135 -0.1062465161 0.5482671261 4291656072
-0.2717030048 -0.1048056558 0.5439506173 4292321713
-0.2783546150 -0.1067522615 0.5572671294 4293111229
-0.2775195241 -0.1058146954 0.5555953383 4292657358
-0.2753621936 -0.1043796167 0.5512763262 4292788944
-0.2758477926 -0.1039500982 0.5522484779 4291610061
-0.2772147357 -0.1038485914 0.5549851060 4291675854
-0.2781856954 -0.1029747576 0.5569289923 4292666598
-0.2791119814 -0.1026967764 0.5587834120 4293718259
-0.3061941564 -0.2105253041 0.6143681407 4292206569
-0.3062794209 -0.2099011242 0.6145392060 4290562264
-0.3063644767 -0.2092764080 0.6147098541 4289312197
-0.3064492941 -0.2086511850 0.6148800850 4288522939
-0.3061070144 -0.2077357173 0.6141932607 4288654525
-0.3061913252 -0.2071103305 0.6143624187 4289246149
-0.3062753975 -0.2064844370 0.6145311594 4289311942
-0.3063592911 -0.2058580071 0.6146994829 4289245383
-0.3077251613 -0.2060897797 0.6174400449 4288982211
-0.3069539666 -0.2048889995 0.6158926487 4286021789
-0.3070373535 -0.2042601556 0.6160599589 4280955728
-0.3071205020 -0.2036308199 0.6162267923 4280758353
-0.3067755997 -0.2027182281 0.6155347824 4282205799
-0.3064302504 -0.2018068880 0.6148418188 4287929786
-0.3056563735 -0.2006158233 0.6132890582 4288390337
-0.3053100109 -0.1997078508 0.6125941277 4288195516
-0.3049632311 -0.1988011450 0.6118983030 4288327102
-0.3046160042 -0.1978957057 0.6112015843 4288458434
-0.3042683303 -0.1969915181 0.6105039716 4288129469
-0.3034915328 -0.1958120316 0.6089454293 4288129469
-0.3031428754 -0.1949112713 0.6082458496 4288326848
-0.3027937710 -0.1940117776 0.6075453758 4288129210
-0.3024442196 -0.1931135654 0.6068440080 4288195003
-0.3025233448 -0.1924896687 0.6070027947 4287931829
-0.3021730185 -0.1915931255 0.6062998772 4287866036
-0.3013929427 -0.1904266030 0.6047346592 4287800756
-0.3010416329 -0.1895335317 0.6040297747 4287866549
-0.3006899059 -0.1886417419 0.6033239961 4288063415
-0.3003377318 -0.1877512485 0.6026173830 4288063415
-0.3004148901 -0.1871297508 0.6027722359 4287866036
-0.3000619411 -0.1862409711 0.6020640731 4287602864
-0.2997085750 -0.1853534877 0.6013550162 4287668148
-0.2984945476 -0.1839372367 0.5989190936 4287536562
-0.2981400788 -0.1830541641 0.5982078910 4286291633
-0.2977851629 -0.1821723878 0.5974957943 4285765289
-0.2974298298 -0.1812919378 0.5967828035 4284519843
-0.2983656824 -0.1811972260 0.5986605883 4284388257
-0.2967178524 -0.1795350164 0.5953542590 4284192414
-0.2963612080 -0.1786585301 0.5946387053 4284192414
-0.2955732942 -0.1775246114 0.5930576921 4284716446
-0.2952156663 -0.1766516864 0.5923401713 4285374376
-0.2948576212 -0.1757801026 0.5916217566 4285833389
-0.2944991589 -0.1749098748 0.5909025073 4285701803
-0.2941402495 -0.1740409732 0.5901823640 4285702319
-0.2937809229 -0.1731734276 0.5894613862 4285570733
-0.2934211493 -0.1723072231 0.5887395144 4285439658
-0.2930609584 -0.1714423746 0.5880168080 4285768623
-0.2927003503 -0.1705788821 0.5872932673 4285965492
-0.2919074595 -0.1694660634 0.5857023597 4286162871
-0.2915458977 -0.1686061919 0.5849768519 4286359220
-0.2911838889 -0.1677476913 0.5842505097 4286425013
-0.2903892994 -0.1666425765 0.5826562643 4287015608
-0.2900263369 -0.1657877266 0.5819279552 4287278780
-0.2892306149 -0.1646880656 0.5803313851 4287934911
-0.2884342670 -0.1635916084 0.5787335038 4288263876
-0.2880698144 -0.1627427042 0.5780022740 4288788931
-0.2881375849 -0.1621386409 0.5781382322 4288788931
-0.2877723873 -0.1612915993 0.5774054527 4289313474
-0.2874067724 -0.1604459584 0.5766718984 4289445060
-0.2866077721 -0.1593609750 0.5750687122 4289969860
-0.2862412333 -0.1585190296 0.5743332505 4290364618
-0.2863073945 -0.1579173952 0.5744659901 4290364105
-0.2859400809 -0.1570773572 0.5737290382 4289969347
-0.2851390243 -0.1560016274 0.5721216798 4287990665
-0.2856376469 -0.1556376517 0.5731222034 4285885289
-0.2848356366 -0.1545656770 0.5715129972 4287512129
-0.2849003077 -0.1539656222 0.5716427565 4287248957
-0.2845309973 -0.1531317234 0.5709017515 4289082419
-0.2841612697 -0.1522992551 0.5701599121 4289279798
-0.2842250764 -0.1516998112 0.5702878833 4289215284
-0.2838546038 -0.1508692801 0.5695445538 4289346870
-0.2834837139 -0.1500401795 0.5688004494 4289476664
-0.2831124365 -0.1492125243 0.5680554509 4289542457
-0.2831750512 -0.1486142278 0.5681810379 4289738810
-0.2828029990 -0.1477885246 0.5674346089 4289475638
-0.2824305594 -0.1469642520 0.5666872859 4289214005
-0.2820577025 -0.1461414397 0.5659391880 4289279798
-0.2816844285 -0.1453200728 0.5651901960 4289147699
-0.2813107371 -0.1445001513 0.5644404292 4289147699
-0.2809366286 -0.1436816901 0.5636897683 4289345591
-0.2809970975 -0.1430861801 0.5638111234 4289148212
-0.2806222737 -0.1422697157 0.5630590320 4289214259
-0.2802470326 -0.1414547116 0.5623061061 4289214259
-0.2798713744 -0.1406411678 0.5615524054 4289278256
-0.2794953287 -0.1398290992 0.5607978106 4289146670
-0.2795542777 -0.1392353922 0.5609161258 4289473579
-0.2791774869 -0.1384253502 0.5601601005 4289605165
-0.2792359293 -0.1378318071 0.5602773428 4290657340
-0.2784226835 -0.1368096918 0.5586456060 4290196789
-0.2789162695 -0.1364304423 0.5596359968 4289476665
-0.2781021297 -0.1354122311 0.5580024719 4290266181
-0.2777234018 -0.1346086711 0.5572425127 4290339686
-0.2777803242 -0.1340170056 0.5573567152 4291852925
-0.2774008512 -0.1332155168 0.5565953851 4291859095
-0.2770209908 -0.1324155182 0.5558331609 4292385439
-0.2770770490 -0.1318246275 0.5559456348 4291529876
-0.2766964734 -0.1310267001 0.5551820397 4287977054
-0.2763154805 -0.1302302927 0.5544175506 4287847522
-0.2763706744 -0.1296401918 0.5545283556 4290742414
-0.2755522728 -0.1286419928 0.5528862476 4292848308
-0.2756068408 -0.1280530542 0.5529957414 4293243066
-0.2752243280 -0.1272617579 0.5522282124 4290806675
-0.2744044662 -0.1262709200 0.5505831838 4287188060
-0.2740210593 -0.1254836172 0.5498139262 4285870659
-0.2736372650 -0.1246978268 0.5490438342 4286265417
-0.2736902535 -0.1241118386 0.5491501689 4287516504
-0.2733057439 -0.1233281791 0.5483786464 4290806154
-0.2733581960 -0.1227424443 0.5484839082 4293045683
-0.2725355029 -0.1217654794 0.5468332171 4293703613
-0.2730248868 -0.1213754639 0.5478151441 4291928746
-0.2722013295 -0.1204025149 0.5461626649 4288902268
-0.2726903260 -0.1200108975 0.5471438169 4288440173
-0.2727414668 -0.1194253713 0.5472464561 4291203479
-0.2727923691 -0.1188395247 0.5473486185 4293571512
-0.2715291977 -0.1176839098 0.5448141098 4292979375
-0.2720174491 -0.1172890961 0.5457937121 4291136658
-0.2720674872 -0.1167041510 0.5458941460 4288307559
-0.2716791332 -0.1159318984 0.5451148748 4288167498
-0.2721669078 -0.1155332997 0.5460935831 4288957014
-0.2717778981 -0.1147622913 0.5453131199 4290201940
-0.2713885307 -0.1139928550 0.5445318222 4290004561
-0.2709987462 -0.1132249832 0.5437497497 4289742408
-0.2710471749 -0.1126409620 0.5438469052 4288558134
-0.2706566751 -0.1118753105 0.5430634022 4288292139
-0.2711433172 -0.1114719808 0.5440397859 4289081655
-0.2711910307 -0.1108870283 0.5441355705 4290069065
-0.2707996070 -0.1101232842 0.5433502197 4291121753
-0.2712857723 -0.1097161919 0.5443256497 4291252826
-0.2713327706 -0.1091303229 0.5444199443 4290923861
-0.2705013156 -0.1081928685 0.5427516699 4292039773
-0.2718653083 -0.1081323475 0.5454884768 4292171359
-0.2719116807 -0.1075446159 0.5455815196 4291709525
-0.2710791230 -0.1066110060 0.5439110398 4290854216
-0.2724431455 -0.1065400913 0.5466479063 4289609017
-0.2729283869 -0.1061213985 0.5476215482 4289411638
-0.2729739845 -0.1055305749 0.5477129817 4290004300
-0.2717003822 -0.1044325009 0.5451575518 4291254367
-0.2739438415 -0.1046840996 0.5496590137 4291462284
-0.2722297013 -0.1034221724 0.5462195873 4293436074
-0.2727140188 -0.1029982045 0.5471913815 4292002750
-0.2750024199 -0.1026363373 0.5517829657 4291999436
-0.2799765766 -0.1026203185 0.5617634654 4291612379
-0.2809013724 -0.1023330539 0.5636190176 4292664550
-0.2827068865 -0.1023605615 0.5672416687 4293717238
-0.2735021412 -0.0984180495 0.5487726927 4294441212
-0.3047842085 -0.2100239247 0.6129050255 4292140776
-0.3048691452 -0.2094012648 0.6130757928 4290233297
-0.3049538732 -0.2087780982 0.6132461429 4288851644
-0.3050383925 -0.2081544101 0.6134161353 4288588474
-0.3046965301 -0.2072403580 0.6127287149 4289180611
-0.3047805130 -0.2066165209 0.6128975749 4289706185
-0.3048643172 -0.2059921473 0.6130660772 4289377220
-0.3049478829 -0.2053672671 0.6132341027 4288521658
-0.3054578602 -0.2050282359 0.6142596602 4287666349
-0.3055411279 -0.2044014484 0.6144270897 4283982461
-0.3056241870 -0.2037741542 0.6145941615 4282337636
-0.3052800596 -0.2028626353 0.6139021516 4281942625
-0.3045084178 -0.2016694993 0.6123504043 4284245380
-0.3050177097 -0.2013252825 0.6133745313 4289245646
-0.3042450845 -0.2001355290 0.6118208170 4289311439
-0.3038991988 -0.1992290020 0.6111252904 4289115076
-0.3031253219 -0.1980444044 0.6095690727 4289115076
-0.3036337495 -0.1976981759 0.6105914712 4289049799
-0.3032866716 -0.1967945397 0.6098935008 4288786627
-0.3029391468 -0.1958921850 0.6091946363 4288720834
-0.3030191660 -0.1952668875 0.6093555689 4288786627
-0.3026708663 -0.1943661869 0.6086551547 4288851904
-0.3023221493 -0.1934667677 0.6079539061 4288983490
-0.3019729555 -0.1925686151 0.6072517037 4288720317
-0.3020517826 -0.1919440031 0.6074102521 4288654524
-0.3012733161 -0.1907761693 0.6058447361 4288523708
-0.3009228110 -0.1898818761 0.6051399112 4288457915
-0.3005718887 -0.1889888644 0.6044342518 4288392122
-0.3002205193 -0.1880971640 0.6037276387 4288326329
-0.2998687327 -0.1872067451 0.6030201912 4288325559
-0.2999455929 -0.1865845621 0.6031748056 4288193973
-0.2995930314 -0.1856958717 0.6024658084 4287670197
-0.2988107204 -0.1845433265 0.6008926034 4287670197
-0.2980277240 -0.1833938807 0.5993180871 4287472309
-0.2976736426 -0.1825108975 0.5986060500 4287143344
-0.2973191142 -0.1816292256 0.5978931189 4286945965
-0.2973939180 -0.1810104549 0.5980435014 4286748586
-0.2966087759 -0.1798698604 0.5964646339 4286224293
-0.2962529659 -0.1789921671 0.5957490802 4286092707
-0.2958967090 -0.1781157851 0.5950326920 4285438629
-0.2955400348 -0.1772407591 0.5943154097 4285767594
-0.2951829135 -0.1763670594 0.5935972929 4285177513
-0.2943949401 -0.1752385050 0.5920127630 4284914341
-0.2940368652 -0.1743683815 0.5912926197 4285438377
-0.2941089571 -0.1737540066 0.5914376378 4285438377
-0.2937501073 -0.1728856862 0.5907160044 4285895846
-0.2933908403 -0.1720187068 0.5899935365 4286290604
-0.2930311561 -0.1711530834 0.5892701745 4286029487
-0.2922399938 -0.1700380296 0.5876792073 4286226866
-0.2918793261 -0.1691760421 0.5869539380 4286489264
-0.2910870016 -0.1680664122 0.5853605866 4286686643
-0.2915880680 -0.1677042246 0.5863682032 4287146165
-0.2903633118 -0.1663510650 0.5839053392 4287475130
-0.2895693183 -0.1652491838 0.5823085904 4287999932
-0.2892062962 -0.1643958539 0.5815786123 4288263104
-0.2884111404 -0.1632994413 0.5799795985 4288853697
-0.2880471647 -0.1624497920 0.5792477131 4288919490
-0.2876828015 -0.1616015285 0.5785149336 4289378240
-0.2873179913 -0.1607546508 0.5777813792 4289641412
-0.2869527936 -0.1599091589 0.5770469308 4290166215
-0.2861548960 -0.1588251591 0.5754423738 4290429387
-0.2857887149 -0.1579833925 0.5747060776 4290495178
-0.2854221463 -0.1571430266 0.5739688873 4290429385
-0.2846225798 -0.1560668796 0.5723609924 4290035392
-0.2851203680 -0.1557027847 0.5733620524 4289311669
-0.2843198776 -0.1546303779 0.5717522502 4289632662
-0.2839516103 -0.1537956595 0.5710117221 4287987837
-0.2835829258 -0.1529623717 0.5702702999 4289222232
-0.2836468816 -0.1523631066 0.5703989267 4288366923
-0.2832774520 -0.1515317410 0.5696560740 4289803835
-0.2833408713 -0.1509325951 0.5697835684 4289606456
-0.2829707265 -0.1501031667 0.5690392256 4289673016
-0.2821667194 -0.1490462422 0.5674223900 4289607223
-0.2822291553 -0.1484486461 0.5675479770 4289346102
-0.2818577588 -0.1476235241 0.5668011308 4289346102
-0.2814859450 -0.1467998624 0.5660533905 4289410355
-0.2811137140 -0.1459776461 0.5653048754 4289344562
-0.2807410657 -0.1451568753 0.5645555258 4289540660
-0.2803680301 -0.1443375647 0.5638053417 4289540660
-0.2799945474 -0.1435196996 0.5630543232 4289475889
-0.2800548673 -0.1429248899 0.5631756186 4289607475
-0.2796806693 -0.1421090364 0.5624231100 4289674293
-0.2793060541 -0.1412946284 0.5616697669 4289608500
-0.2789310515 -0.1404817104 0.5609156489 4289411123
-0.2789901793 -0.1398881376 0.5610345602 4289345330
-0.2790490985 -0.1392941922 0.5611530542 4289475895
-0.2786730230 -0.1384838372 0.5603967905 4289739067
-0.2787314057 -0.1378900707 0.5605141521 4289606202
-0.2779196799 -0.1368675530 0.5588818789 4289803581
-0.2784124315 -0.1364881545 0.5598727465 4289804351
-0.2775998116 -0.1354695410 0.5582386255 4289409593
-0.2767865956 -0.1344542652 0.5566033125 4288688174
-0.2768433988 -0.1338633001 0.5567174554 4288688174
-0.2760291994 -0.1328528672 0.5550801754 4289019447
-0.2769562900 -0.1326802671 0.5569444895 4289808963
-0.2757057250 -0.1314651519 0.5544296503 4289086783
-0.2753256857 -0.1306687891 0.5536654592 4288428853
-0.2753809690 -0.1300797462 0.5537766218 4290276975
-0.2746190727 -0.1284926832 0.5522444844 4293308091
-0.2746735215 -0.1279044449 0.5523539782 4292715954
-0.2747277319 -0.1273158640 0.5524629951 4289755018
-0.2743455470 -0.1265257746 0.5516944528 4287649642
-0.2735267282 -0.1255369931 0.5500478148 4289028723
-0.2731436491 -0.1247508973 0.5492774844 4290936720
-0.2731966078 -0.1241646782 0.5493839979 4292976806
-0.2728128135 -0.1233807132 0.5486122370 4293700529
-0.2724286616 -0.1225982755 0.5478396416 4293045168
-0.2729174197 -0.1222084463 0.5488225222 4290676620
-0.2720958591 -0.1212326214 0.5471704602 4288178804
-0.2717105746 -0.1204538792 0.5463956594 4289757836
-0.2721987367 -0.1200621128 0.5473773479 4291996081
-0.2718128264 -0.1192845851 0.5466012955 4292851390
-0.2714265287 -0.1185086071 0.5458244681 4292255918
-0.2714770138 -0.1179240793 0.5459259748 4289821577
-0.2715272307 -0.1173392236 0.5460270047 4288901247
-0.2711399198 -0.1165660396 0.5452480912 4290282900
-0.2707522213 -0.1157944128 0.5444684625 4292124845
-0.2703641057 -0.1150243580 0.5436879992 4292651189
-0.2704131901 -0.1144410521 0.5437867045 4292652469
-0.2704620361 -0.1138574257 0.5438848734 4292652469
-0.2700729072 -0.1130901948 0.5431023836 4293110959
-0.2696834207 -0.1123245358 0.5423191190 4292650408
-0.2697314024 -0.1117418632 0.5424156189 4292641162
-0.2694358528 -0.1098134145 0.5418213010 4289280840
-0.2690913081 -0.1084705293 0.5411284566 4289411898
-0.2704527676 -0.1084150523 0.5438662171 4290593865
-0.2696223557 -0.1074797511 0.5421963334 4291383381
-0.2687914371 -0.1065479591 0.5405253768 4292105566
-0.2697142065 -0.1063111201 0.5423810482 4291908187
-0.2706370354 -0.1060701758 0.5442368388 4291514189
-0.2684889734 -0.1046284065 0.5399171710 4291316810
-0.2685338557 -0.1040459052 0.5400074124 4290330179
-0.2703339159 -0.1041393429 0.5436272621 4289803835
-0.2725732327 -0.1043929756 0.5481303930 4290130242
-0.2686670721 -0.1022966653 0.5402752757 4290919758
-0.2709063292 -0.1025440022 0.5447784066 4291320419
-0.2731460929 -0.1027815044 0.5492824316 4293096830
-0.2736294866 -0.1023520231 0.5502544641 4294087595
-0.2741127610 -0.1019203439 0.5512263179 4294944189
-0.2715204656 -0.1003498137 0.5460133553 4291214281
-0.2750790119 -0.1010503918 0.5531693697 4291082695
-0.2751224637 -0.1004516482 0.5532568097 4290559174
-0.2720887661 -0.0987360701 0.5471561551 4291414483
-0.2725709081 -0.0983020216 0.5481257439 4292138972
-0.2734926343 -0.0980233699 0.5499792695 4292796902
-0.2748963237 -0.0972980708 0.5528020263 4294178038
-0.3042264879 -0.2101088762 0.6131529212 4293061877
-0.3034613132 -0.2089008689 0.6116107106 4292206571
-0.3035457134 -0.2082792372 0.6117808223 4290956504
-0.3036299050 -0.2076570839 0.6119505167 4289443011
-0.3037138879 -0.2070344090 0.6121197939 4288653495
-0.3033721745 -0.2061221451 0.6114311218 4288850876
-0.3034556508 -0.2054993212 0.6115993261 4289245634
-0.3035388887 -0.2048759758 0.6117671132 4289442758
-0.3036219478 -0.2042521238 0.6119344831 4287008417
-0.3037047684 -0.2036277652 0.6121014357 4282535013
-0.3037874103 -0.2030028850 0.6122679710 4283324529
-0.3038698137 -0.2023775131 0.6124340892 4283127152
-0.3035257161 -0.2014686465 0.6117405891 4285693079
-0.3036076128 -0.2008431405 0.6119055748 4290560991
-0.3032627404 -0.1999358982 0.6112105250 4290626784
-0.3029174507 -0.1990299374 0.6105146408 4290889946
-0.3025717139 -0.1981252134 0.6098178029 4290824153
-0.3026524186 -0.1975003183 0.6099804640 4290693080
-0.3023059070 -0.1965972483 0.6092820764 4290561494
-0.3023860753 -0.1959722489 0.6094436646 4290495701
-0.3020387888 -0.1950708330 0.6087437272 4290364115
-0.3016910851 -0.1941706836 0.6080429554 4290232014
-0.3017703891 -0.1935459524 0.6082027555 4290166221
-0.3018494546 -0.1929207444 0.6083621383 4289837769
-0.3015006781 -0.1920226663 0.6076591611 4289706183
-0.3011514246 -0.1911258698 0.6069552898 4289706185
-0.3008017540 -0.1902303547 0.6062505245 4289706185
-0.3004516363 -0.1893361360 0.6055449247 4289574597
-0.3001011014 -0.1884432137 0.6048383713 4289508804
-0.2993218899 -0.1872836649 0.6032679677 4289508804
-0.2998270094 -0.1869283020 0.6042860150 4289377218
-0.2990468442 -0.1857722402 0.6027135849 4289115329
-0.2986945510 -0.1848845184 0.6020035744 4288983743
-0.2983418107 -0.1839981079 0.6012926698 4288851644
-0.2979886532 -0.1831130087 0.6005808711 4288654265
-0.2972061932 -0.1819666624 0.5990038514 4288719290
-0.2968520522 -0.1810850948 0.5982900858 4288587704
-0.2964974642 -0.1802048385 0.5975754857 4288128180
-0.2961424589 -0.1793259233 0.5968599916 4287996594
-0.2949284315 -0.1779303402 0.5944131613 4287407025
-0.2954311669 -0.1775720865 0.5954263806 4287407025
-0.2946453393 -0.1764399558 0.5938426256 4286488494
-0.2943609655 -0.1749513298 0.5932694674 4286093736
-0.2940033674 -0.1740804315 0.5925487280 4285962150
-0.2932154238 -0.1729572862 0.5909606814 4285895328
-0.2937169373 -0.1725953817 0.5919714570 4286092707
-0.2929280102 -0.1714758426 0.5903814435 4286225322
-0.2925687134 -0.1706103534 0.5896572471 4286356908
-0.2922089696 -0.1697462201 0.5889322162 4286751407
-0.2922792435 -0.1691325605 0.5890738368 4287014579
-0.2914882004 -0.1680220664 0.5874795318 4287474101
-0.2906965017 -0.1669147611 0.5858839750 4287737273
-0.2903349698 -0.1660570055 0.5851552486 4288262076
-0.2895421088 -0.1649551690 0.5835573077 4288525248
-0.2891796231 -0.1641010940 0.5828267336 4288984257
-0.2883856297 -0.1630047262 0.5812264681 4289050050
-0.2880221605 -0.1621543318 0.5804939270 4289509056
-0.2872270048 -0.1610634774 0.5788913369 4289772228
-0.2868626118 -0.1602167636 0.5781569481 4290100422
-0.2864978015 -0.1593714505 0.5774216652 4290166215
-0.2861325443 -0.1585275382 0.5766854882 4290428617
-0.2853352129 -0.1574468315 0.5750785470 4290560203
-0.2845372558 -0.1563693583 0.5734702945 4290624969
-0.2850342989 -0.1560042202 0.5744720697 4290690762
-0.2842354178 -0.1549304873 0.5728619099 4290625218
-0.2834359109 -0.1538599879 0.5712505579 4290164667
-0.2830679417 -0.1530263722 0.5705089569 4291339691
-0.2831318378 -0.1524268985 0.5706377029 4290550175
-0.2827631533 -0.1515952051 0.5698946118 4290606718
-0.2823940217 -0.1507649571 0.5691507459 4289225065
-0.2820245028 -0.1499361396 0.5684059858 4288169544
-0.2816545665 -0.1491087526 0.5676603913 4287445821
-0.2812842131 -0.1482827961 0.5669139028 4288230193
-0.2809134424 -0.1474582851 0.5661666393 4288690744
-0.2805422544 -0.1466352195 0.5654185414 4289672500
-0.2801706493 -0.1458136141 0.5646696091 4289738293
-0.2802317739 -0.1452178955 0.5647928119 4289674295
-0.2794262469 -0.1441747248 0.5631692410 4289345330
-0.2794867158 -0.1435800791 0.5632911921 4289542711
-0.2791135609 -0.1427633613 0.5625391006 4289542711
-0.2787400186 -0.1419481039 0.5617862344 4289607734
-0.2787996233 -0.1413541436 0.5619063973 4289476148
-0.2784253359 -0.1405408978 0.5611520410 4289541428
-0.2780506313 -0.1397291273 0.5603968501 4289607221
-0.2781094015 -0.1391358823 0.5605152845 4289541430
-0.2777339816 -0.1383261383 0.5597586036 4289673016
-0.2777922153 -0.1377330720 0.5598759651 4289541688
-0.2778502107 -0.1371396333 0.5599928498 4289541688
-0.2774737477 -0.1363324672 0.5592340827 4289607223
-0.2770968676 -0.1355267912 0.5584745407 4289673016
-0.2771539986 -0.1349340975 0.5585896969 4290066997
-0.2763419151 -0.1339199096 0.5569529533 4290066997
-0.2759638131 -0.1331187189 0.5561909676 4290000689
-0.2755853236 -0.1323190331 0.5554281473 4289934896
-0.2756412029 -0.1317286044 0.5555407405 4289935411
-0.2752619982 -0.1309309900 0.5547764301 4290001204
-0.2748823762 -0.1301348805 0.5540113449 4288756277
-0.2749373913 -0.1295452565 0.5541222692 4289808965
-0.2745570540 -0.1287512332 0.5533556938 4292182401
-0.2746115327 -0.1281618327 0.5534654856 4294353570
-0.2733599246 -0.1269655675 0.5509428978 4293895085
-0.2734136879 -0.1263782680 0.5510512590 4293895085
-0.2730317414 -0.1255903393 0.5502815247 4293501357
-0.2726494074 -0.1248039231 0.5495109558 4293830322
-0.2722666860 -0.1240190417 0.5487395525 4292516772
-0.2718835771 -0.1232356951 0.5479674339 4290806154
-0.2719358504 -0.1226504445 0.5480727553 4288702831
-0.2711161375 -0.1216736212 0.5464206934 4289097589
-0.2716037333 -0.1212842539 0.5474034548 4291532959
-0.2712191939 -0.1205051914 0.5466284156 4293309370
-0.2708342671 -0.1197276786 0.5458526015 4292326074
-0.2704489529 -0.1189517230 0.5450760126 4290154905
-0.2704995275 -0.1183682308 0.5451779366 4289557890
-0.2701134980 -0.1175944433 0.5443999171 4291136922
-0.2701635063 -0.1170112416 0.5445007086 4293307062
-0.2697767913 -0.1162396297 0.5437212586 4293767613
-0.2698262632 -0.1156567261 0.5438210368 4292386474
-0.2698755264 -0.1150735021 0.5439202785 4290346891
-0.2690510154 -0.1141194478 0.5422585011 4289162871
-0.2695364952 -0.1137217954 0.5432369709 4288307562
-0.2695849836 -0.1131385639 0.5433347225 4290278782
-0.2691962123 -0.1123725995 0.5425512195 4293700018
-0.2692441642 -0.1117896885 0.5426478386 4294811565
-0.2692918777 -0.1112064719 0.5427439809 4292574603
-0.2689020932 -0.1104433611 0.5419583917 4287637044
-0.2693865895 -0.1100391075 0.5429348350 4287900216
-0.2689962089 -0.1092772782 0.5421480536 4289082166
-0.2690428793 -0.1086937785 0.5422421694 4288687408
-0.2695268989 -0.1082857624 0.5432176590 4288490033
-0.2691355944 -0.1075258702 0.5424290299 4288161068
-0.2683061957 -0.1065936908 0.5407574177 4289542468
-0.2692273557 -0.1063567623 0.5426139235 4290858328
-0.2692728639 -0.1057717651 0.5427056551 4291840846
-0.2680044174 -0.1046733633 0.5401491523 4291840846
-0.2693631947 -0.1046008766 0.5428877473 4291843669
-0.2689699531 -0.1038458645 0.5420951843 4291251532
-0.2694526017 -0.1034288183 0.5430679321 4291771720
-0.2681823373 -0.1023406759 0.5405077338 4291705927
-0.2704176009 -0.1025881320 0.5450128317 4291377726
-0.2704616189 -0.1019991785 0.5451015234 4291048761
-0.2683132887 -0.1005881429 0.5407716632 4290463311
-0.2709873915 -0.1009838209 0.5461612344 4291713378
-0.2710307539 -0.1003930569 0.5462486148 4289366939
-0.2710738778 -0.0998020172 0.5463355184 4291340729
-0.2684845626 -0.0982474759 0.5411168933 4291150539
-0.2685267925 -0.0976616144 0.5412019491 4291413711
-0.2690075934 -0.0972340927 0.5421710610 4291152079
-0.2694883049 -0.0968043804 0.5431399345 4291678423
-0.2704079151 -0.0965291858 0.5449932814 4292334813
-0.2700103819 -0.0957826525 0.5441921353 4292532192
-0.2727276385 -0.0955251157 0.5496686101 4293586418
-0.3021399677 -0.2077798098 0.6103138328 4293127158
-0.3022238612 -0.2071591914 0.6104832888 4292008679
-0.3018829226 -0.2062479854 0.6097946167 4290758612
-0.3019662797 -0.2056272179 0.6099629402 4290034635
-0.3020493984 -0.2050059289 0.6101309061 4289574084
-0.3021323383 -0.2043841332 0.6102984548 4289311172
-0.3022150695 -0.2037618309 0.6104655266 4286679452
-0.3022975922 -0.2031390071 0.6106322408 4282995818
-0.3023799062 -0.2025156766 0.6107984781 4282864232
-0.3024620116 -0.2018918395 0.6109643579 4282468450
-0.3025439084 -0.2012674958 0.6111297607 4284376447
-0.3026255965 -0.2006426454 0.6112947464 4289441997
-0.3022813201 -0.1997359693 0.6105993390 4290889443
-0.3019365966 -0.1988305449 0.6099030375 4290955226
-0.3020174205 -0.1982059479 0.6100662947 4291152605
-0.3020980358 -0.1975808442 0.6102291346 4291152859
-0.3017522395 -0.1966774464 0.6095306277 4291152859
-0.3018323183 -0.1960522234 0.6096923947 4291218652
-0.3014857471 -0.1951504797 0.6089923382 4291284445
-0.3015652895 -0.1945251524 0.6091529727 4291284445
-0.3012179434 -0.1936250776 0.6084513664 4291152859
-0.3012969494 -0.1929996461 0.6086109281 4291087066
-0.3013757169 -0.1923737228 0.6087700725 4291021273
-0.3010272980 -0.1914757192 0.6080662608 4290955226
-0.3006784618 -0.1905789971 0.6073616147 4290955226
-0.2999019325 -0.1894137412 0.6057930589 4290824151
-0.2995521128 -0.1885204911 0.6050863862 4290758358
-0.2987743914 -0.1873604953 0.6035154462 4290758099
-0.2992786467 -0.1870050281 0.6045340300 4290626513
-0.2989276052 -0.1861147881 0.6038249731 4290429136
-0.2985761166 -0.1852258593 0.6031149626 4290297550
-0.2982242107 -0.1843382269 0.6024041176 4290035402
-0.2974438965 -0.1831883341 0.6008278728 4289903816
-0.2975190878 -0.1825669110 0.6009798050 4289706951
-0.2971658707 -0.1816832274 0.6002663374 4289509572
-0.2968122363 -0.1808008701 0.5995519757 4289509058
-0.2964581549 -0.1799198389 0.5988367200 4289443265
-0.2961036265 -0.1790401191 0.5981206298 4289442498
-0.2948914468 -0.1776453406 0.5956720114 4289310912
-0.2953933179 -0.1772847027 0.5966857672 4288785853
-0.2946086824 -0.1761525869 0.5951008201 4288588474
-0.2946812510 -0.1755346358 0.5952474475 4288130490
-0.2943246067 -0.1746616066 0.5945270061 4287801525
-0.2939674854 -0.1737899333 0.5938056707 4286949037
-0.2936099768 -0.1729196012 0.5930834413 4286883244
-0.2932519913 -0.1720506400 0.5923603773 4286816683
-0.2928936183 -0.1711830199 0.5916364789 4286882476
-0.2925347984 -0.1703167558 0.5909116864 4287145135
-0.2921755612 -0.1694518626 0.5901859999 4287276721
-0.2918158770 -0.1685883403 0.5894594789 4287604657
-0.2910259068 -0.1674787849 0.5878637433 4287736243
-0.2906652689 -0.1666189134 0.5871352553 4288261558
-0.2898741364 -0.1655148268 0.5855371952 4288590523
-0.2895125449 -0.1646586061 0.5848067999 4289115327
-0.2891505361 -0.1638037711 0.5840755701 4289246913
-0.2883577347 -0.1627074629 0.5824741125 4289574848
-0.2879947722 -0.1618563086 0.5817409754 4289706434
-0.2872008085 -0.1607655287 0.5801371932 4289968836
-0.2868369222 -0.1599180698 0.5794020891 4290034629
-0.2864725888 -0.1590720117 0.5786662102 4290165445
-0.2861078382 -0.1582273543 0.5779294372 4290231238
-0.2853116989 -0.1571467221 0.5763212442 4290559942
-0.2849460244 -0.1563057899 0.5755825639 4290428356
-0.2841487229 -0.1552307159 0.5739720464 4290559174
-0.2837821245 -0.1543935388 0.5732315183 4290427588
-0.2829836905 -0.1533240527 0.5716187358 4290362565
-0.2826161385 -0.1524906158 0.5708763003 4290494151
-0.2822481692 -0.1516586095 0.5701329708 4290558915
-0.2823114693 -0.1510590166 0.5702608228 4290493122
-0.2815109789 -0.1499989033 0.5686439276 4290945709
-0.2811417878 -0.1491711885 0.5678980947 4289629849
-0.2807721496 -0.1483449340 0.5671514869 4290144884
-0.2804020941 -0.1475200951 0.5664039850 4288960610
-0.2800316513 -0.1466967165 0.5656556487 4289018687
-0.2796607912 -0.1458747834 0.5649065375 4288623929
-0.2792895138 -0.1450542957 0.5641565323 4289936440
-0.2789178193 -0.1442352682 0.5634057522 4289870647
-0.2785457075 -0.1434177011 0.5626541376 4290330430
-0.2781732082 -0.1426015943 0.5619016290 4290067258
-0.2782329917 -0.1420077831 0.5620223880 4289804602
-0.2778597474 -0.1411936879 0.5612685084 4289738809
-0.2779189944 -0.1406000406 0.5613881350 4289739067
-0.2775450349 -0.1397879571 0.5606327653 4289673274
-0.2771706581 -0.1389773339 0.5598765612 4289541943
-0.2772290409 -0.1383844167 0.5599944592 4289673529
-0.2768539488 -0.1375758201 0.5592367649 4289739061
-0.2773451507 -0.1371974647 0.5602290034 4289804854
-0.2769694030 -0.1363899857 0.5594700575 4289739059
-0.2765932679 -0.1355839968 0.5587102771 4289673266
-0.2762167156 -0.1347794980 0.5579496622 4289673525
-0.2758397758 -0.1339764893 0.5571882129 4289739318
-0.2758962214 -0.1333847046 0.5573022366 4289542970
-0.2755185664 -0.1325837523 0.5565393567 4289542970
-0.2751404941 -0.1317843199 0.5557757020 4289803062
-0.2747620046 -0.1309863776 0.5550111532 4290066234
-0.2743831277 -0.1301899552 0.5542458296 4289673268
-0.2744381130 -0.1296001077 0.5543568730 4289475889
-0.2740585208 -0.1288057715 0.5535901189 4289279535
-0.2741129398 -0.1282161474 0.5537000299 4290792774
-0.2737326324 -0.1274239123 0.5529318452 4291979621
-0.2724827528 -0.1262305379 0.5504071116 4291519070
-0.2716667950 -0.1252428442 0.5487589240 4290601829
-0.2717198133 -0.1246574447 0.5488659739 4289614934
-0.2709029019 -0.1236746684 0.5472158790 4287449935
-0.2713901997 -0.1232880428 0.5482001901 4287581521
-0.2714424133 -0.1227025613 0.5483056903 4289755265
-0.2706242204 -0.1217253432 0.5466529727 4292715950
-0.2706758380 -0.1211410686 0.5467572212 4292914101
-0.2702919543 -0.1203626320 0.5459817648 4291927206
-0.2703430057 -0.1197786331 0.5460849404 4289232262
-0.2699584365 -0.1190023646 0.5453080535 4289232262
-0.2695734501 -0.1182276458 0.5445303917 4291729823
-0.2696236670 -0.1176445410 0.5446318388 4293440441
-0.2696736455 -0.1170611084 0.5447328091 4293438636
-0.2692876458 -0.1162891909 0.5439531207 4291004295
-0.2693370879 -0.1157060564 0.5440529585 4287909967
-0.2689504027 -0.1149363220 0.5432718992 4286659900
-0.2689993083 -0.1143534929 0.5433706641 4286132532
-0.2686119080 -0.1135859564 0.5425881147 4287316806
-0.2686602771 -0.1130034402 0.5426858068 4290933625
-0.2687083781 -0.1124206185 0.5427830219 4294881205
-0.2683199942 -0.1116559207 0.5419984460 4294943921
-0.2683675885 -0.1110734195 0.5420945883 4291851393
-0.2684149146 -0.1104906052 0.5421902537 4288691017
-0.2684620619 -0.1099074781 0.5422854424 4290993772
-0.2689455450 -0.1095018163 0.5432620645 4292771717
-0.2685555816 -0.1087403223 0.5424743891 4292771717
-0.2677285075 -0.1078045592 0.5408036709 4291851134
-0.2678203285 -0.1066393778 0.5409892201 4287969093
-0.2669919729 -0.1057103202 0.5393158793 4287837507
-0.2675639987 -0.1041353047 0.5404714346 4291445316
-0.2676085532 -0.1035520434 0.5405613780 4291379523
-0.2667782009 -0.1026319936 0.5388841033 4291443521
-0.2676969767 -0.1023846492 0.5407399535 4291246142
-0.2668658495 -0.1014678404 0.5390611291 4291379004
-0.2660341859 -0.1005545631 0.5373812318 4291642176
-0.2678278089 -0.1006314009 0.5410042405 4290986313
-0.2678709328 -0.1000464186 0.5410913825 4290591555
-0.2652872205 -0.0984860435 0.5358723402 4287389809
-0.2679564953 -0.0988756046 0.5412641764 4289626771
-0.2666851878 -0.0978079662 0.5386962295 4290228921
-0.2658511996 -0.0969054475 0.5370116234 4292334297
-0.2680830359 -0.0971172974 0.5415198207 4292731113
-0.2663722932 -0.0958997309 0.5380641818 4292533734
-0.2703571022 -0.0967275724 0.5461133718 4292794596
-0.2717134058 -0.0966030136 0.5488530397 4292991975
-0.2726315558 -0.0963175669 0.5507076979 4292402146
-0.2704810500 -0.0949507728 0.5463637710 4292402146
-0.2713987827 -0.0946638286 0.5482175350 4292600036
-0.2719185650 -0.0936245769 0.5492674708 4294046452
-0.3005628288 -0.2051317245 0.6084932089 4292600562
-0.3006456494 -0.2045119852 0.6086608768 4291284702
-0.3007282615 -0.2038917392 0.6088281274 4289508551
-0.3012349308 -0.2035576701 0.6098539233 4286811038
-0.3013172448 -0.2029355168 0.6100205779 4285297801
-0.3013993800 -0.2023128569 0.6101868153 4285297801
-0.3014812768 -0.2016896904 0.6103526354 4284770946
-0.3015629649 -0.2010660172 0.6105179787 4283915637
-0.3012196124 -0.2001595199 0.6098228693 4286152601
-0.3017257154 -0.1998171508 0.6108475327 4288389563
-0.3013817072 -0.1989114136 0.6101510525 4289507266
-0.3010372519 -0.1980069280 0.6094537377 4290099403
-0.3015429974 -0.1976612806 0.6104775667 4290691538
-0.3011978865 -0.1967575550 0.6097788811 4290954710
-0.3012778759 -0.1961321235 0.6099408269 4291086294
-0.3013576567 -0.1955062002 0.6101023555 4291349466
-0.3010114729 -0.1946045160 0.6094014645 4291416031
-0.3010907173 -0.1939784735 0.6095619202 4291350238
-0.3007437587 -0.1930784583 0.6088594794 4291547617
-0.3012485504 -0.1927249283 0.6098814607 4291416031
-0.3004747331 -0.1915539950 0.6083148718 4291350238
-0.3001265824 -0.1906569451 0.6076100469 4291350238
-0.2997779846 -0.1897611916 0.6069043279 4291350238
-0.2994289696 -0.1888667196 0.6061977148 4291350238
-0.2986528575 -0.1877053976 0.6046264768 4291284443
-0.2983028591 -0.1868144274 0.6039178371 4291284443
-0.2983792722 -0.1861911118 0.6040725708 4291219169
-0.2984554768 -0.1855673343 0.6042268276 4291087583
-0.2981043756 -0.1846784800 0.6035160422 4291153116
-0.2977528572 -0.1837909520 0.6028043628 4291218909
-0.2974008918 -0.1829047352 0.6020918489 4291283675
-0.2974759042 -0.1822817177 0.6022436619 4291086296
-0.2966956496 -0.1811362505 0.6006640792 4290954710
-0.2963424027 -0.1802539825 0.5999488831 4290888917
-0.2959887087 -0.1793730557 0.5992328525 4290758101
-0.2952067256 -0.1782351434 0.5976497531 4290692308
-0.2948520780 -0.1773577780 0.5969316959 4290364113
-0.2944969833 -0.1764817387 0.5962128043 4290232527
-0.2945696115 -0.1758626699 0.5963598490 4290035916
-0.2942137420 -0.1749884188 0.5956394076 4289772744
-0.2942858338 -0.1743693352 0.5957853794 4289181888
-0.2939292192 -0.1734968722 0.5950633883 4289116095
-0.2935721874 -0.1726257801 0.5943405628 4288393914
-0.2932147086 -0.1717560291 0.5936169028 4288262328
-0.2928568125 -0.1708876342 0.5928922892 4288195765
-0.2924984992 -0.1700206101 0.5921669006 4288064179
-0.2921397388 -0.1691549420 0.5914406180 4288063666
-0.2913514972 -0.1680431664 0.5898447037 4288063666
-0.2909917831 -0.1671811491 0.5891165137 4288260786
-0.2906316519 -0.1663205028 0.5883874297 4288458165
-0.2902710736 -0.1654612273 0.5876574516 4288917689
-0.2894805968 -0.1643594950 0.5860571265 4289049275
-0.2891190946 -0.1635039002 0.5853252411 4289443005
-0.2883274555 -0.1624076515 0.5837225914 4289508798
-0.2879649997 -0.1615557373 0.5829887390 4289771457
-0.2876021266 -0.1607052386 0.5822541118 4289968836
-0.2868088186 -0.1596168131 0.5806480646 4290165443
-0.2864449918 -0.1587700099 0.5799114704 4290099650
-0.2860807478 -0.1579246223 0.5791741014 4290361793
-0.2852858007 -0.1568440646 0.5775646567 4290230207
-0.2844902277 -0.1557667404 0.5759540200 4290622914
-0.2841245234 -0.1549274176 0.5752136707 4290622914
-0.2833278179 -0.1538556665 0.5736007094 4290295492
-0.2825304866 -0.1527871788 0.5719865561 4290295492
-0.2821633518 -0.1519539505 0.5712432265 4289967302
-0.2822266817 -0.1513532102 0.5713714361 4290098888
-0.2814278007 -0.1502917558 0.5697541237 4290886348
-0.2806283534 -0.1492335796 0.5681356192 4290623176
-0.2802594602 -0.1484069973 0.5673887730 4290556090
-0.2798901200 -0.1475818455 0.5666410923 4290029746
-0.2795203924 -0.1467581540 0.5658925772 4289826189
-0.2791502774 -0.1459359080 0.5651432276 4288510329
-0.2787797153 -0.1451151073 0.5643930435 4289683296
-0.2784087360 -0.1442957520 0.5636420250 4288499022
-0.2780373693 -0.1434778571 0.5628901720 4289673266
-0.2776655853 -0.1426614374 0.5621374846 4289541680
-0.2772933841 -0.1418464631 0.5613839626 4289740090
-0.2773528099 -0.1412529945 0.5615042448 4290003262
-0.2769798934 -0.1404400319 0.5607492924 4289871422
-0.2766065598 -0.1396285444 0.5599934459 4289542457
-0.2766651213 -0.1390357763 0.5601119995 4289607481
-0.2767234445 -0.1384426355 0.5602300763 4289870653
-0.2767815590 -0.1378491223 0.5603477359 4290001981
-0.2759743035 -0.1368263066 0.5587134361 4289936188
-0.2764644325 -0.1364474446 0.5597057343 4290067004
-0.2756563127 -0.1354285330 0.5580696464 4290001211
-0.2752804160 -0.1346246451 0.5573086143 4289805113
-0.2749041021 -0.1338222474 0.5565468073 4289870906
-0.2749603987 -0.1332311779 0.5566607714 4289609274
-0.2741502821 -0.1322219670 0.5550206900 4289477688
-0.2737727761 -0.1314240694 0.5542564392 4290000954
-0.2738281488 -0.1308346987 0.5543684959 4289737782
