VERSION 0.7
FIELDS x y z rgba
SIZE 4 4 4 4
TYPE F F F U
COUNT 1 1 1 1
WIDTH 920
HEIGHT 1
VIEWPOINT 0.0 0.0 0.0 1.0 0.0 0.0 0.0
POINTS 920
DATA ascii
-0.2935425043 -0.1201157421 0.5799362063 4286488641
-0.2940385342 -0.1196732819 0.5809162259 4287406705
-0.2949787378 -0.1194084361 0.5827736855 4290104218
-0.3187942207 -0.1812304407 0.6312097907 4290363844
-0.3184333444 -0.1803247631 0.6304951906 4284771688
-0.3176350892 -0.1791739464 0.6289146543 4284311137
-0.3168361783 -0.1780262887 0.6273328066 4283258954
-0.3138510287 -0.1756585240 0.6214222312 4282601024
-0.3082408607 -0.1718404740 0.6103141904 4282995779
-0.3000038564 -0.1665884703 0.5940049887 4282798400
-0.2961370051 -0.1637897789 0.5863486528 4282798654
-0.2935806811 -0.1617300510 0.5812871456 4281548587
-0.2914605439 -0.1599209011 0.5770893097 4282206263
-0.2906523347 -0.1588380486 0.5754891038 4282601021
-0.2898435295 -0.1577584147 0.5738876462 4282929217
-0.2890340686 -0.1566819847 0.5722849369 4283323975
-0.2882240117 -0.1556088030 0.5706810355 4283719237
-0.2887277007 -0.1552455574 0.5716783404 4283258686
-0.2874784768 -0.1539414376 0.5692048669 4282470188
-0.2875433862 -0.1533436328 0.5693333745 4282404395
-0.2876081169 -0.1527454257 0.5694615245 4282338851
-0.2872340679 -0.1519148797 0.5687208772 4282996781
-0.2872982025 -0.1513167769 0.5688479543 4283983927
-0.2873621285 -0.1507182866 0.5689744949 4283852341
-0.2869870365 -0.1498901993 0.5682318211 4283721266
-0.2870504260 -0.1492918134 0.5683572888 4283589680
-0.2871135771 -0.1486930400 0.5684823394 4283129895
-0.2867373824 -0.1478674263 0.5677375197 4282866723
-0.2867999971 -0.1472687721 0.5678614974 4282866975
-0.2864230871 -0.1464451253 0.5671151876 4282866975
-0.2860457599 -0.1456229240 0.5663680434 4282866973
-0.2856679857 -0.1448021680 0.5656201243 4282998559
-0.2852898240 -0.1439828575 0.5648713708 4282933535
-0.2849112451 -0.1431650221 0.5641217828 4283130914
-0.2840924859 -0.1421286166 0.5625005960 4283328794
-0.2837129533 -0.1413146108 0.5617491603 4283723552
-0.2833330333 -0.1405020654 0.5609969497 4284053020
-0.2829526961 -0.1396909803 0.5602438450 4284316192
-0.2825719714 -0.1388813853 0.5594899654 4284250910
-0.2826310396 -0.1382886469 0.5596069694 4283856152
-0.2826898694 -0.1376955509 0.5597234964 4283922461
-0.2831889093 -0.1373156309 0.5607115626 4284185633
-0.2832473814 -0.1367208809 0.5608273745 4283988258
-0.2837462425 -0.1363374442 0.5618150830 4283461914
-0.2838043571 -0.1357410252 0.5619301200 4283132696
-0.2847437859 -0.1355639398 0.5637902021 4282606352
-0.2852424979 -0.1351738572 0.5647776127 4282079756
-0.2857411206 -0.1347815543 0.5657649040 4282145549
-0.2862397134 -0.1343870312 0.5667521358 4282604820
-0.2862971127 -0.1337841451 0.5668657422 4283131164
-0.2863542438 -0.1331809014 0.5669789314 4283724312
-0.2864111662 -0.1325772852 0.5670916438 4283790105
-0.2864678502 -0.1319733262 0.5672038198 4283658772
-0.2865242958 -0.1313689947 0.5673156381 4284053530
-0.2870220840 -0.1309657991 0.5683012009 4284053784
-0.2870781422 -0.1303598434 0.5684122443 4283330061
-0.2871339619 -0.1297535151 0.5685227513 4283330311
-0.2867477238 -0.1289481521 0.5677579641 4283659276
-0.2868029773 -0.1283420622 0.5678673983 4283659790
-0.2872999907 -0.1279324442 0.5688514709 4283791376
-0.2873548567 -0.1273247153 0.5689601302 4284054548
-0.2874094844 -0.1267166436 0.5690682530 4284186134
-0.2879061103 -0.1263022423 0.5700516105 4284384018
-0.2879603505 -0.1256925315 0.5701589584 4284581397
-0.2880143225 -0.1250824928 0.5702658296 4284646422
-0.2885105610 -0.1246633083 0.5712483525 4284778008
-0.2890067399 -0.1242419034 0.5722307563 4284646940
-0.2890601456 -0.1236289591 0.5723365545 4284778526
-0.2895560563 -0.1232040673 0.5733184814 4284779288
-0.2896090746 -0.1225895062 0.5734233856 4284516116
-0.2901047468 -0.1221611127 0.5744048357 4284647197
-0.2906003296 -0.1217305064 0.5753861070 4285239334
-0.2910958230 -0.1212976798 0.5763671398 4285765429
-0.2915912271 -0.1208626404 0.5773480535 4286357566
-0.2920865417 -0.1204253808 0.5783287883 4285830460
-0.2930250764 -0.1201677024 0.5801870823 4286422597
-0.2939636707 -0.1199059188 0.5820454955 4287735419
-0.2949023247 -0.1196400300 0.5839040279 4291025069
-0.3169942498 -0.1799054593 0.6290291548 4286219134
-0.3161972761 -0.1787560135 0.6274476647 4284179551
-0.3158358932 -0.1778553575 0.6267305613 4283456333
-0.3128560185 -0.1754875481 0.6208174229 4282995782
-0.3076922297 -0.1719126850 0.6105706692 4283390789
-0.3003430665 -0.1671443880 0.5959872603 4282996031
-0.2956100404 -0.1638586670 0.5865952969 4283062077
-0.2930583358 -0.1617981046 0.5815317631 4282338354
-0.2918156981 -0.1604686677 0.5790659785 4282140973
-0.2901353240 -0.1589049548 0.5757314563 4282009387
-0.2893279791 -0.1578248888 0.5741294622 4282075180
-0.2885200381 -0.1567480415 0.5725262165 4282667317
-0.2881487310 -0.1559110135 0.5717893839 4283258938
-0.2877769768 -0.1550753862 0.5710517168 4282864180
-0.2874048054 -0.1542411745 0.5703132153 4282272808
-0.2874697745 -0.1536422372 0.5704420805 4282272808
-0.2870968580 -0.1528099626 0.5697020888 4282273058
-0.2867235541 -0.1519790888 0.5689613223 4282602023
-0.2867876291 -0.1513807774 0.5690885186 4283391792
-0.2868514955 -0.1507820487 0.5692152381 4283654964
-0.2864771187 -0.1499536335 0.5684723258 4283392555
-0.2865404487 -0.1493550241 0.5685979724 4283458348
-0.2866035402 -0.1487560272 0.5687232018 4283195686
-0.2862280905 -0.1479300857 0.5679781437 4282998307
-0.2862906456 -0.1473312229 0.5681022406 4282998559
-0.2863529623 -0.1467319429 0.5682259202 4282998559
-0.2859764397 -0.1459085047 0.5674787760 4282998558
-0.2855994999 -0.1450865120 0.5667307973 4283130144
-0.2852221727 -0.1442659646 0.5659820437 4283065632
-0.2848443985 -0.1434468776 0.5652323961 4283197218
-0.2844662070 -0.1426292509 0.5644819736 4283591968
-0.2840875983 -0.1418130696 0.5637306571 4284118312
-0.2832694352 -0.1407801062 0.5621070862 4284382244
-0.2828899026 -0.1399677843 0.5613539815 4284316451
-0.2829493284 -0.1393733621 0.5614719391 4284382242
-0.2830085456 -0.1387785524 0.5615894198 4284382242
-0.2830675244 -0.1381833702 0.5617064238 4284316198
-0.2831262648 -0.1375878304 0.5618230104 4283921440
-0.2831847668 -0.1369919181 0.5619391203 4283526686
-0.2836828828 -0.1366074234 0.5629275441 4283000342
-0.2837410271 -0.1360098422 0.5630429387 4282802711
-0.2842389345 -0.1356218308 0.5640310049 4282736918
-0.2847368121 -0.1352315992 0.5650188923 4282276882
-0.2856747806 -0.1350472420 0.5668802261 4282211089
-0.2861726284 -0.1346516460 0.5678681135 4282539029
-0.2862300575 -0.1340475976 0.5679820180 4283065373
-0.2862872481 -0.1334431767 0.5680955052 4283723803
-0.2867847383 -0.1330427825 0.5690827370 4283723803
-0.2868415415 -0.1324367076 0.5691954494 4283592980
-0.2864573896 -0.1316277832 0.5684331656 4283987738
-0.2865136564 -0.1310219318 0.5685448050 4284053530
-0.2865696549 -0.1304157376 0.5686559081 4283461393
-0.2866254151 -0.1298091710 0.5687665939 4283527436
-0.2866809666 -0.1292022616 0.5688768029 4283790608
-0.2867362499 -0.1285949945 0.5689865351 4283725585
-0.2867912948 -0.1279873848 0.5690957308 4283857171
-0.2868461013 -0.1273794174 0.5692045093 4284120343
-0.2869006991 -0.1267710924 0.5693128109 4284317722
-0.2873964906 -0.1263565421 0.5702966452 4284449811
-0.2874506712 -0.1257465929 0.5704041719 4284449811
-0.2875045836 -0.1251363009 0.5705111623 4284514836
-0.2879999876 -0.1247169599 0.5714942217 4284712215
-0.2884953320 -0.1242953986 0.5724771619 4284646940
-0.2885487080 -0.1236822084 0.5725830793 4284778526
-0.2890437841 -0.1232571527 0.5735654831 4284713240
-0.2895388007 -0.1228298694 0.5745477676 4284581654
-0.2895915806 -0.1222137883 0.5746524930 4284910370
-0.2900863290 -0.1217830107 0.5756343007 4285765679
-0.2905809879 -0.1213500202 0.5766158700 4286093881
-0.2910755873 -0.1209148094 0.5775972605 4286422846
-0.2920125127 -0.1206602007 0.5794565082 4286026816
-0.2925069630 -0.1202196106 0.5804377198 4286553160
-0.2934439480 -0.1199577302 0.5822969675 4288129156
-0.3151223361 -0.1792381108 0.6266958117 4287601302
-0.3147618771 -0.1783375889 0.6259789467 4283785308
-0.3144010007 -0.1774384081 0.6252612472 4283982677
-0.3118618429 -0.1753162891 0.6202115417 4283522126
-0.3071429133 -0.1719848216 0.6108268499 4283653959
-0.3006784618 -0.1677006483 0.5979707241 4282996029
-0.2955182791 -0.1641696244 0.5877084732 4282667569
-0.2929712832 -0.1621073335 0.5826431513 4282733362
-0.2912949622 -0.1605361402 0.5793094039 4282470187
-0.2896176279 -0.1589717865 0.5759736300 4282009636
-0.2888118029 -0.1578912884 0.5743710399 4281812511
-0.2880053520 -0.1568140239 0.5727671981 4282273062
-0.2876347303 -0.1559766829 0.5720301867 4282864431
-0.2872637212 -0.1551407278 0.5712923408 4282798638
-0.2868922651 -0.1543062031 0.5705536008 4282732845
-0.2869571745 -0.1537070423 0.5706827044 4282469673
-0.2865850031 -0.1528744400 0.5699424744 4282338855
-0.2866493464 -0.1522753835 0.5700705051 4282338855
-0.2862764299 -0.1514447033 0.5693288445 4282339106
-0.2863402367 -0.1508457512 0.5694557428 4282799657
-0.2859665453 -0.1500170231 0.5687125921 4283195176
-0.2860298157 -0.1494181901 0.5688384175 4283458348
-0.2860928774 -0.1488189548 0.5689637661 4283524390
-0.2857181430 -0.1479927003 0.5682185292 4283458597
-0.2857806087 -0.1473935992 0.5683428049 4283393570
-0.2858428955 -0.1467941105 0.5684666634 4283327777
-0.2854670882 -0.1459703445 0.5677192807 4283196189
-0.2855288088 -0.1453709900 0.5678420067 4283261982
-0.2851522863 -0.1445492059 0.5670931935 4283131166
-0.2852134407 -0.1439500004 0.5672148466 4283394338
-0.2848361731 -0.1431301981 0.5664645433 4283723554
-0.2840201855 -0.1420925856 0.5648417473 4284249898
-0.2836419940 -0.1412766278 0.5640896559 4284579113
-0.2832633853 -0.1404621452 0.5633366704 4284513320
-0.2828843594 -0.1396491379 0.5625829101 4284579112
-0.2829436064 -0.1390531808 0.5627007484 4284513319
-0.2830026150 -0.1384568512 0.5628181100 4284052517
-0.2830614150 -0.1378601491 0.5629349947 4283197208
-0.2831199467 -0.1372630745 0.5630514622 4282802712
-0.2836173177 -0.1368775219 0.5640405416 4282605333
-0.2836754918 -0.1362787783 0.5641562939 4282473493
-0.2846118808 -0.1360997260 0.5660185218 4282605079
-0.2842304707 -0.1352892965 0.5652599931 4282539286
-0.2856062353 -0.1353130639 0.5679960251 4282341907
-0.2861033082 -0.1349163800 0.5689845681 4282604822
-0.2861607969 -0.1343111694 0.5690988898 4283131166
-0.2862180173 -0.1337056011 0.5692126751 4283592218
-0.2862749994 -0.1330996603 0.5693259835 4283460632
-0.2863317430 -0.1324933618 0.5694388747 4283460883
-0.2863882780 -0.1318866909 0.5695512891 4283855641
-0.2860045433 -0.1310780197 0.5687881708 4283987737
-0.2860605121 -0.1304715723 0.5688994527 4283856151
-0.2861162126 -0.1298647821 0.5690102577 4283724815
-0.2861717045 -0.1292576194 0.5691205859 4283856401
-0.2862269282 -0.1286501139 0.5692304373 4283922196
-0.2862819433 -0.1280422658 0.5693398118 4283987989
-0.2863367200 -0.1274340600 0.5694487095 4284054552
-0.2863912284 -0.1268255115 0.5695571303 4284383517
-0.2864454985 -0.1262166053 0.5696651340 4284581397
-0.2869403064 -0.1258006096 0.5706491470 4284318225
-0.2869941890 -0.1251900792 0.5707563162 4284712215
-0.2874887884 -0.1247705668 0.5717399120 4284843801
-0.2879832685 -0.1243488491 0.5727233291 4284909343
-0.2880365849 -0.1237354130 0.5728293657 4284975136
-0.2885308564 -0.1233101860 0.5738123059 4284712733
-0.2890250087 -0.1228827462 0.5747950673 4284515354
-0.2895191014 -0.1224530861 0.5757776499 4284910118
-0.2895716727 -0.1218354777 0.5758822560 4285765427
-0.2900655270 -0.1214023158 0.5768643618 4286093881
-0.2910008430 -0.1211507767 0.5787244439 4286488639
-0.2914945781 -0.1207122356 0.5797063708 4286289992
-0.2924299538 -0.1204534248 0.5815665722 4286947922
-0.2933653891 -0.1201905087 0.5834269524 4288852631
-0.3136888444 -0.1788177341 0.6252259612 4288851115
-0.3133288920 -0.1779186726 0.6245085597 4284048226
-0.3129685223 -0.1770209670 0.6237902641 4284377692
-0.3065207601 -0.1726951897 0.6109389663 4283982934
-0.3109417558 -0.1744974107 0.6197506785 4283786058
-0.3005750775 -0.1680141091 0.5990883708 4283391300
-0.2958593965 -0.1647229642 0.5896893740 4282667567
-0.2924468219 -0.1621753573 0.5828876495 4282470188
-0.2907735705 -0.1606035382 0.5795525908 4282470437
-0.2895346880 -0.1592780650 0.5770833492 4282338851
-0.2887304425 -0.1581962556 0.5754804015 4282339104
-0.2879256010 -0.1571176499 0.5738762021 4282141725
-0.2871201336 -0.1560422778 0.5722707510 4282272290
-0.2876214087 -0.1556777656 0.5732699037 4282403876
-0.2868149877 -0.1546061337 0.5716626048 4282535464
-0.2864439189 -0.1537717730 0.5709230304 4282074913
-0.2860724628 -0.1529388577 0.5701826215 4282009890
-0.2861367464 -0.1523395628 0.5703108311 4282075683
-0.2857645452 -0.1515085697 0.5695689321 4281615894
-0.2858282924 -0.1509093940 0.5696960092 4282010652
-0.2854553461 -0.1500803381 0.5689526796 4282997796
-0.2850819826 -0.1492527276 0.5682085156 4283326761
-0.2851448655 -0.1486541927 0.5683338046 4283458852
-0.2852075398 -0.1480552554 0.5684587359 4283458852
-0.2852699459 -0.1474559307 0.5685831308 4283525152
-0.2853321731 -0.1468562037 0.5687071085 4283393566
-0.2853941619 -0.1462561041 0.5688306689 4283262235
-0.2850187421 -0.1454325467 0.5680824518 4283328028
-0.2850801945 -0.1448325664 0.5682048798 4283261980
-0.2851413786 -0.1442322135 0.5683268905 4283722531
-0.2847649455 -0.1434111744 0.5675765872 4283789347
-0.2843880653 -0.1425915956 0.5668254495 4284052519
-0.2840107977 -0.1417734772 0.5660734773 4284381734
-0.2836330831 -0.1409568340 0.5653206706 4284579113
-0.2832549810 -0.1401416510 0.5645670295 4284381733
-0.2833143473 -0.1395436078 0.5646853447 4284052768
-0.2833735049 -0.1389452070 0.5648032427 4283394587
-0.2834323943 -0.1383464187 0.5649206638 4282802450
-0.2834910750 -0.1377472728 0.5650376081 4282539286
-0.2835495472 -0.1371477395 0.5651540756 4282539286
-0.2840460837 -0.1367588937 0.5661438107 4282407702
-0.2841041684 -0.1361577064 0.5662595630 4282473495
-0.2846005261 -0.1357653290 0.5672488809 4282539540
-0.2850968540 -0.1353707314 0.5682381392 4282605333
-0.2860318124 -0.1351812482 0.5701016188 4282933533
-0.2856505215 -0.1343684644 0.5693416595 4283525670
-0.2857076824 -0.1337626576 0.5694555640 4283789343
-0.2857646346 -0.1331564784 0.5695690513 4283591964
-0.2858213186 -0.1325499415 0.5696820617 4283394836
-0.2858777940 -0.1319430470 0.5697946548 4283592215
-0.2854948044 -0.1311340481 0.5690312982 4283724566
-0.2855506837 -0.1305273622 0.5691426992 4283790359
-0.2856063545 -0.1299203336 0.5692536235 4283659024
-0.2856617868 -0.1293129474 0.5693641305 4283790610
-0.2857169807 -0.1287052035 0.5694741011 4283922198
-0.2857719362 -0.1280971020 0.5695836544 4283987991
-0.2858266532 -0.1274886578 0.5696926713 4284119577
-0.2858811021 -0.1268798709 0.5698012710 4284448542
-0.2859353423 -0.1262707263 0.5699093342 4284581143
-0.2864293158 -0.1258545667 0.5708939433 4284252178
-0.2864831686 -0.1252437979 0.5710012317 4284645911
-0.2869769037 -0.1248241290 0.5719853044 4284777497
-0.2874705493 -0.1244022399 0.5729692578 4284975136
-0.2879641354 -0.1239781380 0.5739530325 4285106722
-0.2880172431 -0.1233631819 0.5740588903 4284844319
-0.2885105908 -0.1229355708 0.5750421882 4284646940
-0.2890038192 -0.1225057393 0.5760253072 4284910118
-0.2894969881 -0.1220736951 0.5770082474 4285568048
-0.2899900675 -0.1216394231 0.5779910088 4286093881
-0.2904830575 -0.1212029308 0.5789735913 4286422846
-0.2914168537 -0.1209471971 0.5808347464 4286552400
-0.2919097245 -0.1205053180 0.5818171501 4287341916
-0.2928435504 -0.1202423051 0.5836783648 4289970350
-0.3122577667 -0.1783968806 0.6237544417 4290232768
-0.3123321235 -0.1777461618 0.6239029765 4284969328
-0.3115384579 -0.1766030341 0.6223175526 4283785555
-0.3098761141 -0.1749729663 0.6189969778 4284048727
-0.3060422242 -0.1721288860 0.6113385558 4283983436
-0.3009036481 -0.1685709357 0.6010739207 4283391299
-0.2961966991 -0.1652766466 0.5916714668 4282931249
-0.2927905321 -0.1627261788 0.5848674178 4282931249
-0.2902515233 -0.1606708616 0.5797955990 4282997032
-0.2890149057 -0.1593448818 0.5773254037 4282733860
-0.2882121801 -0.1582626402 0.5757218599 4282536733
-0.2874088287 -0.1571836174 0.5741171241 4282339354
-0.2866048515 -0.1561078280 0.5725111365 4282207518
-0.2871052623 -0.1557431817 0.5735107660 4282339104
-0.2858652472 -0.1544360667 0.5710337758 4282601508
-0.2859300375 -0.1538364589 0.5711631775 4282404129
-0.2855592966 -0.1530032009 0.5704225898 4282404899
-0.2856235206 -0.1524036974 0.5705508590 4282733864
-0.2852520347 -0.1515723765 0.5698088408 4282602787
-0.2853157222 -0.1509729922 0.5699360371 4282800166
-0.2849434912 -0.1501436085 0.5691924691 4282866211
-0.2845708430 -0.1493156701 0.5684481263 4283195176
-0.2846336663 -0.1487169117 0.5685735941 4283392806
-0.2846962810 -0.1481177509 0.5686986446 4283392806
-0.2847586572 -0.1475182027 0.5688232780 4283327777
-0.2848207951 -0.1469182521 0.5689473748 4283327777
-0.2848827243 -0.1463179141 0.5690711141 4283262749
-0.2849444151 -0.1457171887 0.5691943169 4283394335
-0.2845694125 -0.1448938400 0.5684452653 4283459099
-0.2846305668 -0.1442932487 0.5685673952 4283722271
-0.2846914828 -0.1436922848 0.5686891079 4283854370
-0.2847521901 -0.1430909187 0.5688103437 4284051749
-0.2843758166 -0.1422706395 0.5680584908 4284118308
-0.2839990258 -0.1414518207 0.5673058629 4284184101
-0.2836218178 -0.1406344622 0.5665524006 4284052769
-0.2832442224 -0.1398185939 0.5657981038 4283592218
-0.2833034098 -0.1392190307 0.5659162998 4283263001
-0.2833623290 -0.1386190802 0.5660340190 4283065622
-0.2834210694 -0.1380187720 0.5661513209 4282474263
-0.2843544781 -0.1378422230 0.5680158734 4282342677
-0.2844129205 -0.1372393072 0.5681326389 4282276884
-0.2849087715 -0.1368462443 0.5691230893 4282145298
-0.2849668264 -0.1362416595 0.5692390800 4282342930
-0.2854624689 -0.1358450651 0.5702291727 4282606102
-0.2855201364 -0.1352388114 0.5703443885 4283065119
-0.2855775952 -0.1346322000 0.5704591274 4283394084
-0.2851966918 -0.1338196695 0.5696982741 4283723552
-0.2852535844 -0.1332132518 0.5698119402 4283526173
-0.2853102386 -0.1326064765 0.5699250698 4283263253
-0.2853666544 -0.1319993436 0.5700377822 4283329046
-0.2854228318 -0.1313918531 0.5701499581 4283461140
-0.2850402296 -0.1305831075 0.5693857074 4283461140
-0.2850958407 -0.1299758255 0.5694968104 4283593231
-0.2851512134 -0.1293682009 0.5696074367 4283790610
-0.2852063775 -0.1287602186 0.5697175860 4283921944
-0.2852612734 -0.1281518936 0.5698272586 4283921944
-0.2853159308 -0.1275432110 0.5699364543 4283987737
-0.2853703499 -0.1269341707 0.5700451732 4284448288
-0.2854245305 -0.1263247877 0.5701534152 4284777756
-0.2859176695 -0.1259084642 0.5711384416 4284514584
-0.2859714627 -0.1252974570 0.5712459087 4284514585
-0.2864643633 -0.1248776391 0.5722305179 4284777757
-0.2869571745 -0.1244555861 0.5732149482 4284975136
-0.2874499261 -0.1240313202 0.5741992593 4285106722
-0.2879425883 -0.1236048266 0.5751833916 4284910112
-0.2884351611 -0.1231761128 0.5761673450 4284778526
-0.2889276743 -0.1227451786 0.5771511197 4285041706
-0.2889802456 -0.1221261397 0.5772561431 4285765429
-0.2894724607 -0.1216916963 0.5782394409 4286488642
-0.2899646163 -0.1212550402 0.5792225003 4286686021
-0.2908967733 -0.1209992096 0.5810845494 4286880862
-0.2913888395 -0.1205571666 0.5820674300 4287933550
-0.3104701936 -0.1770794094 0.6215626597 4286285442
-0.3105439246 -0.1764307022 0.6217103004 4283127625
-0.3088845611 -0.1748008877 0.6183882356 4284377692
-0.3054908514 -0.1722008288 0.6115940213 4284510034
-0.3007949889 -0.1688847691 0.6021929383 4283917897
-0.2960966825 -0.1655882150 0.5927869081 4283523640
-0.2926968038 -0.1630358100 0.5859802961 4282865710
-0.2901625335 -0.1609787643 0.5809066296 4282734625
-0.2889283001 -0.1596513391 0.5784357190 4283063590
-0.2876932323 -0.1583289504 0.5759631395 4282932255
-0.2873254120 -0.1574874073 0.5752267241 4282603290
-0.2865230441 -0.1564102918 0.5736203790 4282668067
-0.2861542702 -0.1555724591 0.5728821158 4282668067
-0.2857851088 -0.1547360569 0.5721430182 4282799653
-0.2858498991 -0.1541353166 0.5722727776 4282733860
-0.2854799926 -0.1533008367 0.5715321898 4282470688
-0.2855442464 -0.1527001858 0.5716608763 4282536481
-0.2851735950 -0.1518676430 0.5709187984 4282734373
-0.2848024964 -0.1510365158 0.5701758862 4282602787
-0.2848659158 -0.1504364908 0.5703027844 4282405921
-0.2844940722 -0.1496073157 0.5695583820 4282734886
-0.2841218412 -0.1487795711 0.5688131452 4283064103
-0.2841843665 -0.1481801867 0.5689383745 4283064103
-0.2842466831 -0.1475804001 0.5690631270 4282998559
-0.2843087912 -0.1469802260 0.5691874027 4282998559
-0.2843706310 -0.1463796645 0.5693112612 4283131164
-0.2844322920 -0.1457787156 0.5694346428 4283394336
-0.2844936848 -0.1451773643 0.5695576072 4283590685
-0.2845548689 -0.1445756257 0.5696800947 4283524892
-0.2846158147 -0.1439735144 0.5698021054 4283591198
-0.2846765518 -0.1433710009 0.5699236989 4283920163
-0.2847370505 -0.1427681148 0.5700448155 4283855138
-0.2843611836 -0.1419471204 0.5692923069 4283657759
-0.2839848995 -0.1411276013 0.5685389638 4283592218
-0.2840445042 -0.1405254155 0.5686583519 4283460632
-0.2841039002 -0.1399228424 0.5687772632 4283263260
-0.2841630578 -0.1393198967 0.5688956976 4283329053
-0.2837854028 -0.1385034919 0.5681396127 4282540058
-0.2842806876 -0.1381128728 0.5691311955 4282211093
-0.2843391597 -0.1375088096 0.5692482591 4282211350
-0.2843973935 -0.1369043589 0.5693648458 4282013971
-0.2848923504 -0.1365089267 0.5703557134 4282014476
-0.2849501967 -0.1359028071 0.5704715848 4282211855
-0.2850078344 -0.1352963299 0.5705869198 4282539288
-0.2850652337 -0.1346894801 0.5707018375 4282605081
-0.2851223648 -0.1340822726 0.5708162189 4282999829
-0.2847419083 -0.1332699656 0.5700545311 4282999829
-0.2847985029 -0.1326629668 0.5701678395 4282868241
-0.2848548591 -0.1320555955 0.5702806711 4283197206
-0.2849109769 -0.1314478666 0.5703930259 4283526935
-0.2849668562 -0.1308397800 0.5705049038 4283526935
-0.2845846713 -0.1300312877 0.5697397590 4283527440
-0.2846400142 -0.1294234097 0.5698505640 4283790612
-0.2851330936 -0.1290133744 0.5708376765 4283987225
-0.2851880193 -0.1284038723 0.5709476471 4283987225
-0.2852427065 -0.1277940124 0.5710571408 4284053018
-0.2852971554 -0.1271837950 0.5711661577 4284447776
-0.2853513956 -0.1265732348 0.5712746978 4284843550
-0.2854053676 -0.1259623319 0.5713827610 4284711964
-0.2858975828 -0.1255436242 0.5723682046 4284974884
-0.2859511673 -0.1249310970 0.5724754930 4285106470
-0.2864431441 -0.1245088875 0.5734604001 4285040928
-0.2869350612 -0.1240844578 0.5744452477 4284909342
-0.2874268889 -0.1236578003 0.5754298568 4284712731
-0.2879186273 -0.1232289225 0.5764143467 4284646938
-0.2884102762 -0.1227978244 0.5773986578 4285107497
-0.2889018655 -0.1223644987 0.5783827901 4285962806
-0.2893933356 -0.1219289526 0.5793667436 4286620489
-0.2898847461 -0.1214911789 0.5803505182 4286817868
-0.2908153534 -0.1212343127 0.5822135806 4287209576
-0.2917460203 -0.1209733412 0.5840768218 4288525436
-0.3090444505 -0.1766590476 0.6200871468 4288127392
-0.3086856008 -0.1757657528 0.6193671227 4284048727
-0.3078938425 -0.1746285260 0.6177784801 4284706657
-0.3049387634 -0.1722726822 0.6118492484 4284773204
-0.3011167347 -0.1694421768 0.6041804552 4284115274
-0.2964271903 -0.1661424786 0.5947710276 4283524404
-0.2930337191 -0.1635872126 0.5879621506 4282932267
-0.2905042768 -0.1615275145 0.5828868747 4282800677
-0.2888394892 -0.1599579304 0.5795465708 4282998056
-0.2876068056 -0.1586341262 0.5770732760 4282800679
-0.2868065536 -0.1575533450 0.5754675865 4282471714
-0.2864390314 -0.1567128897 0.5747301579 4282668832
-0.2860710919 -0.1558738351 0.5739918947 4282997797
-0.2852691710 -0.1548009366 0.5723828673 4283129896
-0.2853339314 -0.1541999727 0.5725128055 4283064103
-0.2849647403 -0.1533651650 0.5717719793 4282932516
-0.2850289345 -0.1527642906 0.5719008446 4282800930
-0.2846589983 -0.1519314200 0.5711585879 4282932003
-0.2842886448 -0.1510999799 0.5704154372 4282997796
-0.2843519747 -0.1504997313 0.5705425143 4282537245
-0.2839808762 -0.1496702284 0.5697979331 4282603038
-0.2840436697 -0.1490700990 0.5699239373 4282800928
-0.2841062546 -0.1484695673 0.5700494647 4282800928
-0.2841686010 -0.1478686482 0.5701745749 4282735135
-0.2842307091 -0.1472673416 0.5702992678 4282998307
-0.2842926085 -0.1466656178 0.5704234242 4283327272
-0.2843542993 -0.1460635215 0.5705471635 4283524651
-0.2844157219 -0.1454610229 0.5706704855 4283394336
-0.2844769359 -0.1448581368 0.5707932711 4283394336
-0.2845379412 -0.1442548782 0.5709156394 4283460129
-0.2845987082 -0.1436512172 0.5710375905 4283723301
-0.2846592367 -0.1430471689 0.5711590052 4283657507
-0.2847195268 -0.1424427330 0.5712800026 4283328542
-0.2839087248 -0.1414041668 0.5696531534 4283131163
-0.2844038904 -0.1410167664 0.5706467032 4283065370
-0.2840277851 -0.1401970983 0.5698921084 4283197469
-0.2840870023 -0.1395929903 0.5700108409 4282802711
-0.2841459513 -0.1389885098 0.5701291561 4282342161
-0.2837688029 -0.1381714046 0.5693724155 4282407954
-0.2842631936 -0.1377784312 0.5703644156 4282671126
-0.2843214571 -0.1371728182 0.5704813004 4282342161
-0.2843794823 -0.1365668476 0.5705977678 4282013193
-0.2844372988 -0.1359605044 0.5707137585 4282210572
-0.2844948769 -0.1353537887 0.5708292723 4282275857
-0.2845521867 -0.1347467005 0.5709443092 4282604822
-0.2846092880 -0.1341392547 0.5710588694 4282736405
-0.2846661508 -0.1335314363 0.5711729527 4282802198
-0.2842861116 -0.1327193975 0.5704103708 4283131413
-0.2843424082 -0.1321117878 0.5705233216 4283197206
-0.2843984663 -0.1315038204 0.5706358552 4283131664
-0.2844543159 -0.1308954954 0.5707478523 4283526422
-0.2845098972 -0.1302868128 0.5708594322 4283592979
-0.2841281295 -0.1294785738 0.5700933933 4283856151
-0.2846203744 -0.1290683746 0.5710811019 4283988507
-0.2846752703 -0.1284586340 0.5711911917 4283856921
-0.2847298980 -0.1278485358 0.5713008046 4284120091
-0.2847842872 -0.1272380799 0.5714100003 4284580642
-0.2848384678 -0.1266272813 0.5715186596 4284777507
-0.2853299975 -0.1262097061 0.5725049376 4285172265
-0.2853837609 -0.1255972832 0.5726128221 4284910882
-0.2858750820 -0.1251761913 0.5735986233 4285371433
-0.2863663137 -0.1247528866 0.5745842457 4284910379
-0.2864195108 -0.1241375431 0.5746909976 4284449828
-0.2869105041 -0.1237107217 0.5756761432 4284712743
-0.2874014080 -0.1232816800 0.5766611099 4285239087
-0.2883304358 -0.1230374053 0.5785251856 4285501493
-0.2888212502 -0.1226029694 0.5795099735 4285896251
-0.2893119752 -0.1221663058 0.5804945827 4286224450
-0.2898026109 -0.1217274219 0.5814790726 4286356036
-0.2907316685 -0.1214695275 0.5833431482 4287274114
-0.2916607857 -0.1212075129 0.5852074027 4289511076
-0.3076211810 -0.1762382090 0.6186099648 4289903292
-0.3072628081 -0.1753463745 0.6178893447 4285035624
-0.3064723611 -0.1742105335 0.6162997484 4284904038
-0.3043859899 -0.1723444760 0.6121041775 4284773204
-0.3014346659 -0.1699999273 0.6061692238 4283917895
-0.2971858382 -0.1669397056 0.5976250768 4283458096
-0.2933667898 -0.1641389579 0.5899451971 4283194924
-0.2908422053 -0.1620766073 0.5848683715 4282800930
-0.2887484431 -0.1602646708 0.5806578994 4282866723
-0.2875181437 -0.1589394212 0.5781838298 4282866724
-0.2867195010 -0.1578573138 0.5765778422 4282603552
-0.2859202325 -0.1567784399 0.5749705434 4282866464
-0.2855530083 -0.1559390575 0.5742321014 4282866464
-0.2851853669 -0.1551011056 0.5734927654 4282998050
-0.2848173082 -0.1542645544 0.5727525949 4282998050
-0.2844488323 -0.1534294337 0.5720115900 4282998307
-0.2840799391 -0.1525957286 0.5712697506 4282932514
-0.2841437459 -0.1519951373 0.5713981390 4282932255
-0.2837741077 -0.1511633694 0.5706548095 4282866462
-0.2838374078 -0.1505629122 0.5707820654 4282471704
-0.2834670246 -0.1497330815 0.5700372458 4282274325
-0.2839632928 -0.1493607610 0.5710352063 4282538010
-0.2840259075 -0.1487590969 0.5711610913 4282801182
-0.2836545706 -0.1479308307 0.5704143643 4282801180
-0.2837166190 -0.1473293006 0.5705391765 4283130145
-0.2842123806 -0.1469517052 0.5715361238 4283524390
-0.2842740715 -0.1463484615 0.5716602206 4283590183
-0.2843355536 -0.1457448155 0.5717838407 4283327777
-0.2843967974 -0.1451407820 0.5719069839 4283196191
-0.2844578326 -0.1445363611 0.5720297098 4283130398
-0.2845186293 -0.1439315528 0.5721519589 4283459363
-0.2845791876 -0.1433263421 0.5722737312 4283525156
-0.2842049599 -0.1425028741 0.5715212226 4283261984
-0.2842649817 -0.1418978274 0.5716418624 4283064603
-0.2838900089 -0.1410763562 0.5708878636 4282867224
-0.2839494646 -0.1404714733 0.5710074306 4282210064
-0.2840086818 -0.1398662180 0.5711265206 4282736408
-0.2836326659 -0.1390473098 0.5703703761 4282736154
-0.2836913466 -0.1384422183 0.5704883337 4282472982
-0.2837497890 -0.1378367543 0.5706058741 4282473236
-0.2838080227 -0.1372309178 0.5707229376 4282341650
-0.2838659883 -0.1366247088 0.5708395243 4282012683
-0.2839237452 -0.1360181421 0.5709556937 4282012683
-0.2839812338 -0.1354111880 0.5710713267 4282275854
-0.2840385139 -0.1348038763 0.5711864829 4282407440
-0.2840955853 -0.1341961920 0.5713012218 4282341901
-0.2841523886 -0.1335881352 0.5714154840 4282539280
-0.2837730646 -0.1327757686 0.5706526637 4283263253
-0.2838293016 -0.1321679205 0.5707657933 4283460632
-0.2838853300 -0.1315597296 0.5708783865 4283197711
-0.2839410901 -0.1309511662 0.5709905624 4283395090
-0.2839966416 -0.1303422451 0.5711022615 4283790358
-0.2840519547 -0.1297329664 0.5712134838 4284185116
-0.2841069996 -0.1291233301 0.5713242292 4284054300
-0.2841618359 -0.1285133511 0.5714344978 4284054300
-0.2846530080 -0.1280994862 0.5724222064 4284383265
-0.2847074568 -0.1274878532 0.5725317001 4284778023
-0.2847616374 -0.1268758774 0.5726406574 4285172779
-0.2848155797 -0.1262635440 0.5727491379 4285567537
-0.2853062153 -0.1258435994 0.5737357736 4285239594
-0.2857967615 -0.1254214048 0.5747222304 4285108008
-0.2862872481 -0.1249969974 0.5757085681 4284844074
-0.2863404751 -0.1243804693 0.5758156180 4284712488
-0.2868307233 -0.1239525452 0.5768014193 4285173039
-0.2873208523 -0.1235224009 0.5777871013 4285699383
-0.2878109217 -0.1230900288 0.5787726045 4285764669
-0.2883009017 -0.1226554215 0.5797579288 4286554185
-0.2887907922 -0.1222185940 0.5807430744 4287013204
-0.2897182405 -0.1219637766 0.5826081038 4287078997
-0.2906457186 -0.1217048392 0.5844732523 4288194450
-0.2915733159 -0.1214417890 0.5863385797 4290957756
-0.3058424592 -0.1749265194 0.6164098382 4286087801
-0.3054841757 -0.1740375310 0.6156877279 4284837734
-0.3034015596 -0.1721716374 0.6114903092 4284641618
-0.3008866310 -0.1700707078 0.6064216495 4283654723
-0.2975079119 -0.1674947441 0.5996119976 4283129131
-0.2936961055 -0.1646910310 0.5919294357 4283194924
-0.2911763489 -0.1626260430 0.5868510008 4282866721
-0.2890866399 -0.1608115584 0.5826393366 4282669342
-0.2874272764 -0.1592448503 0.5792949796 4282866975
-0.2861985564 -0.1579232216 0.5768185258 4282801182
-0.2858325839 -0.1570812017 0.5760809183 4282669081
-0.2854661644 -0.1562405974 0.5753424764 4282603288
-0.2850993574 -0.1554013938 0.5746031404 4282603288
-0.2843000293 -0.1543290764 0.5729921460 4282734874
-0.2839322686 -0.1534936279 0.5722509623 4282932253
-0.2839963734 -0.1528923213 0.5723801255 4282998046
-0.2836278677 -0.1520588100 0.5716374516 4282932253
-0.2832589447 -0.1512267143 0.5708938837 4282866460
-0.2833221555 -0.1506260186 0.5710213184 4282669081
-0.2829525173 -0.1497958899 0.5702763200 4282076944
-0.2834479511 -0.1494234353 0.5712748170 4282209042
-0.2835104764 -0.1488215476 0.5714008808 4282603800
-0.2835728228 -0.1482192427 0.5715264678 4282669593
-0.2832018733 -0.1473911852 0.5707789063 4282998558
-0.2836967707 -0.1470134705 0.5717763305 4283393059
-0.2837584317 -0.1464100033 0.5719006062 4283458852
-0.2838198543 -0.1458061337 0.5720243454 4283195680
-0.2838810384 -0.1452018619 0.5721476674 4282932508
-0.2839419842 -0.1445972174 0.5722705722 4282734874
-0.2840027213 -0.1439921707 0.5723929405 4282800667
-0.2840632200 -0.1433867514 0.5725148916 4282734874
-0.2836897373 -0.1425629407 0.5717621446 4282405909
-0.2837496996 -0.1419576705 0.5718829632 4282208785
-0.2833754420 -0.1411358863 0.5711287260 4282011406
-0.2834348679 -0.1405307651 0.5712484717 4282275089
-0.2834940255 -0.1399252713 0.5713676810 4283064605
-0.2835529745 -0.1393194050 0.5714864731 4283196191
-0.2831773460 -0.1385007352 0.5707294941 4282735640
-0.2832357585 -0.1378950328 0.5708471537 4282604054
-0.2832939029 -0.1372889727 0.5709643364 4282472468
-0.2833518386 -0.1366825253 0.5710811019 4282275089
-0.2834095061 -0.1360757202 0.5711973906 4282275089
-0.2834669650 -0.1354685426 0.5713132024 4282472717
-0.2835241854 -0.1348609775 0.5714285374 4282538510
-0.2835811973 -0.1342530698 0.5715433955 4282538508
-0.2836379409 -0.1336447895 0.5716577768 4282867473
-0.2832593620 -0.1328320950 0.5708947182 4283592217
-0.2833155394 -0.1322240084 0.5710079670 4283789596
-0.2833715081 -0.1316155791 0.5711207390 4283329297
-0.2834272385 -0.1310067773 0.5712330937 4283329297
-0.2834827304 -0.1303976178 0.5713449121 4283856151
-0.2835379839 -0.1297881007 0.5714562535 4284316702
-0.2835929990 -0.1291782409 0.5715671182 4284185116
-0.2840834856 -0.1287655085 0.5725557208 4284514081
-0.2841380835 -0.1281539947 0.5726658106 4284778023
-0.2846283615 -0.1277377456 0.5736538768 4284909609
-0.2846825719 -0.1271245778 0.5737631917 4285238574
-0.2847365737 -0.1265110821 0.5738719702 4285238574
-0.2852264345 -0.1260900199 0.5748592615 4284778793
-0.2852800190 -0.1254748851 0.5749672651 4284713000
-0.2857696414 -0.1250503063 0.5759540796 4284909617
-0.2862592041 -0.1246235073 0.5769407749 4285041203
-0.2867486775 -0.1241944805 0.5779272914 4285567290
-0.2872380614 -0.1237632260 0.5789136291 4286225220
-0.2877273560 -0.1233297437 0.5798997879 4286092613
-0.2882165909 -0.1228940338 0.5808857679 4286618957
-0.2887057066 -0.1224560961 0.5818715692 4287341667
-0.2896316051 -0.1222002432 0.5837376714 4287341667
-0.2905575335 -0.1219402701 0.5856038332 4289049510
-0.3048545420 -0.1747526675 0.6157972217 4287141002
-0.3044968843 -0.1738642454 0.6150746942 4284575075
-0.3028481901 -0.1722431779 0.6117444634 4284641366
-0.3007681966 -0.1703851670 0.6075429320 4283786057
-0.2978262007 -0.1680500954 0.6016001105 4283063600
-0.2944520712 -0.1654853821 0.5947844982 4283129393
-0.2915066779 -0.1631758064 0.5888348818 4283129896
-0.2894210219 -0.1613587737 0.5846219659 4282866724
-0.2877649367 -0.1597896218 0.5812767148 4282998307
-0.2865387201 -0.1584656537 0.5787997842 4282932514
-0.2857426703 -0.1573840976 0.5771917701 4282603288
-0.2853770852 -0.1565422565 0.5764533281 4282537495
-0.2850110829 -0.1557018310 0.5757139921 4282471702
-0.2846446633 -0.1548628211 0.5749738216 4282471702
-0.2838464379 -0.1537915021 0.5733614564 4282537495
-0.2839105725 -0.1531890482 0.5734909773 4282603288
-0.2835429013 -0.1523543000 0.5727483034 4282866460
-0.2831748128 -0.1515209675 0.5720047355 4283063839
-0.2828062773 -0.1506890804 0.5712603927 4282735387
-0.2828692198 -0.1500877589 0.5713874698 4282011664
-0.2829319239 -0.1494860351 0.5715141892 4281945870
-0.2829944193 -0.1488839239 0.5716403723 4282274835
-0.2830566764 -0.1482814103 0.5717661381 4282406421
-0.2831187248 -0.1476784945 0.5718914866 4282538007
-0.2831805348 -0.1470751762 0.5720162988 4282801179
-0.2832421064 -0.1464714855 0.5721407533 4282932765
-0.2833034694 -0.1458673775 0.5722646713 4283327266
-0.2833645940 -0.1452628970 0.5723881721 4283195680
-0.2834255099 -0.1446580142 0.5725111961 4283064094
-0.2834861875 -0.1440527439 0.5726337433 4283129887
-0.2835466266 -0.1434470862 0.5727558136 4283064094
-0.2831738591 -0.1426229626 0.5720028281 4282735129
-0.2832337618 -0.1420174539 0.5721238256 4282669336
-0.2832934260 -0.1414115727 0.5722443461 4282603543
-0.2829195857 -0.1405900121 0.5714892149 4282669332
-0.2829787135 -0.1399842799 0.5716086626 4282998297
-0.2830376029 -0.1393781751 0.5717275739 4283129883
-0.2830962539 -0.1387716979 0.5718460679 4283129883
-0.2827210426 -0.1379532665 0.5710881948 4283064090
-0.2827791572 -0.1373469681 0.5712055564 4282735125
-0.2828370035 -0.1367402822 0.5713224411 4282603539
-0.2828946412 -0.1361332387 0.5714388490 4282866711
-0.2829520404 -0.1355258226 0.5715547800 4282472715
-0.2830092311 -0.1349180490 0.5716702938 4282735887
-0.2830661535 -0.1343098879 0.5717852712 4283000081
-0.2831228375 -0.1337013692 0.5718998313 4283526425
-0.2831793129 -0.1330924928 0.5720138550 4284053279
-0.2828011215 -0.1322800517 0.5712499619 4284053279
-0.2828570306 -0.1316713691 0.5713629127 4283592980
-0.2829127014 -0.1310623288 0.5714753270 4283461394
-0.2829681337 -0.1304529458 0.5715873241 4284316702
-0.2830233574 -0.1298431903 0.5716987848 4284250909
-0.2835131288 -0.1294316053 0.5726881623 4283921945
-0.2835679352 -0.1288201958 0.5727989078 4284119324
-0.2840575278 -0.1284050792 0.5737878084 4284449059
-0.2841119468 -0.1277920455 0.5738977194 4284712231
-0.2846012712 -0.1273733974 0.5748862028 4284844076
-0.2846553028 -0.1267587245 0.5749952793 4284778283
-0.2851443887 -0.1263365597 0.5759832859 4284712749
-0.2851980031 -0.1257202327 0.5760915875 4284646956
-0.2856868804 -0.1252945662 0.5770791173 4284975924
-0.2861756682 -0.1248666644 0.5780664086 4285370682
-0.2866643965 -0.1244365275 0.5790535808 4285567550
-0.2871530056 -0.1240041628 0.5800406337 4285830722
-0.2876415551 -0.1235695779 0.5810274482 4285960775
-0.2881300151 -0.1231327504 0.5820140839 4286289740
-0.2886183560 -0.1226937026 0.5830006003 4287340912
-0.2895427048 -0.1224368140 0.5848677158 4287669877
-0.2904671133 -0.1221757978 0.5867349505 4290233531
-0.3034383357 -0.1743319631 0.6143146753 4288588193
-0.3030811548 -0.1734450161 0.6135916114 4284509027
-0.3018647432 -0.1720698923 0.6111289859 4284772701
-0.3002180159 -0.1704559028 0.6077951193 4284246357
-0.2977110445 -0.1683628559 0.6027197242 4283392060
-0.2952026427 -0.1662802547 0.5976414084 4283326267
-0.2922630012 -0.1639670283 0.5916900635 4283392818
-0.2897516191 -0.1619063169 0.5866057873 4283129646
-0.2876688242 -0.1600954235 0.5823891163 4282801445
-0.2868750989 -0.1590084136 0.5807822347 4282735652
-0.2860807478 -0.1579246223 0.5791741014 4283064352
-0.2852858007 -0.1568440646 0.5775646567 4282998559
-0.2849206030 -0.1560024023 0.5768253803 4282801180
-0.2845550179 -0.1551621556 0.5760852098 4282406422
-0.2841889858 -0.1543233246 0.5753442049 4282011664
-0.2838225663 -0.1534859091 0.5746023059 4281945871
-0.2834556997 -0.1526499242 0.5738596320 4282209043
-0.2830884159 -0.1518153548 0.5731160641 4282538008
-0.2827207446 -0.1509822309 0.5723716617 4282538007
-0.2823526263 -0.1501505375 0.5716264844 4282011663
-0.2824153006 -0.1495485902 0.5717532635 4281880077
-0.2824777067 -0.1489462405 0.5718796849 4282077456
-0.2825399041 -0.1483435035 0.5720055699 4282143249
-0.2826018929 -0.1477403641 0.5721310377 4282077456
-0.2826636434 -0.1471368223 0.5722560883 4282209042
-0.2827251554 -0.1465328932 0.5723806620 4282472214
-0.2827864587 -0.1459285766 0.5725047588 4282537748
-0.2828475237 -0.1453238577 0.5726283789 4282669334
-0.2829083800 -0.1447187513 0.5727515221 4282735127
-0.2829689980 -0.1441132575 0.5728742480 4282932506
-0.2830293775 -0.1435073614 0.5729964972 4282932508
-0.2830895185 -0.1429010928 0.5731183290 4282735129
-0.2827171683 -0.1420771927 0.5723644495 4282735127
-0.2827767730 -0.1414710730 0.5724851489 4282800920
-0.2828361690 -0.1408645809 0.5726053715 4282800918
-0.2824627459 -0.1400432289 0.5718493462 4282800918
-0.2825215757 -0.1394369006 0.5719684362 4282998551
-0.2825801671 -0.1388301849 0.5720871091 4283327516
-0.2826385200 -0.1382230967 0.5722052455 4283261723
-0.2822637260 -0.1374048889 0.5714464784 4282735379
-0.2823215425 -0.1367979944 0.5715635419 4282537746
-0.2823791206 -0.1361907125 0.5716800690 4282800918
-0.2824364603 -0.1355830580 0.5717961788 4282538762
-0.2824935913 -0.1349750459 0.5719118118 4282801934
-0.2825504541 -0.1343666613 0.5720269680 4283329046
-0.2826071084 -0.1337579042 0.5721416473 4283986976
-0.2826635242 -0.1331487894 0.5722558498 4284382244
-0.2822860777 -0.1323360205 0.5714917183 4284382244
-0.2823419273 -0.1317271143 0.5716047883 4283922461
-0.2823975384 -0.1311178356 0.5717173815 4283790875
-0.2824529111 -0.1305082142 0.5718294978 4283527957
-0.2825080752 -0.1298982203 0.5719411373 4283198992
-0.2829970121 -0.1294864714 0.5729309916 4283462164
-0.2830517590 -0.1288748384 0.5730418563 4283856922
-0.2835404873 -0.1284595728 0.5740312934 4284383525
-0.2840291560 -0.1280420721 0.5750205517 4284844076
-0.2840833664 -0.1274274886 0.5751303434 4284646956
-0.2845717669 -0.1270064712 0.5761191249 4284515370
-0.2846255898 -0.1263902485 0.5762280822 4285370682
-0.2851137817 -0.1259656996 0.5772163868 4284910131
-0.2856018841 -0.1255389303 0.5782045722 4285041465
-0.2856551111 -0.1249197870 0.5783123970 4285962567
-0.2861429751 -0.1244894937 0.5793000460 4286093640
-0.2870657146 -0.1242452115 0.5811681151 4286159433
-0.2875534892 -0.1238095090 0.5821556449 4286816601
-0.2880411744 -0.1233715788 0.5831429958 4287474531
-0.2885287702 -0.1229314134 0.5841301084 4287800961
-0.2894515693 -0.1226734892 0.5859982967 4288656270
-0.3020245433 -0.1739107668 0.6128305197 4289838260
-0.3016678989 -0.1730252951 0.6121068001 4284969578
-0.3008821905 -0.1718963236 0.6105125546 4284509789
-0.2996671498 -0.1705265790 0.6080471277 4284312410
-0.2975936234 -0.1686757356 0.6038398147 4283654984
-0.2955189049 -0.1668335348 0.5996299982 4283391812
-0.2930139005 -0.1647587866 0.5945472121 4283458104
-0.2900784016 -0.1624542028 0.5885908008 4283129139
-0.2879996598 -0.1606407613 0.5843729377 4282472480
-0.2867783606 -0.1593130082 0.5818948150 4282275101
-0.2859856188 -0.1582278758 0.5802862644 4282406421
-0.2851922810 -0.1571459919 0.5786765218 4282538007
-0.2843983173 -0.1560673416 0.5770655274 4282669593
-0.2840334177 -0.1552267671 0.5763251185 4282472214
-0.2840979397 -0.1546215415 0.5764560103 4282209042
-0.2833024263 -0.1535498947 0.5748418570 4282077456
-0.2833662927 -0.1529456675 0.5749714375 4282274835
-0.2829998434 -0.1521098763 0.5742278695 4282538007
-0.2826329768 -0.1512755007 0.5734835267 4282078226
-0.2822656929 -0.1504425704 0.5727382898 4281880847
-0.2823283672 -0.1498394907 0.5728654265 4282011663
-0.2823908329 -0.1492359936 0.5729922056 4282011663
-0.2820225060 -0.1484055370 0.5722448230 4282011917
-0.2820844054 -0.1478021741 0.5723704100 4281946124
-0.2821460962 -0.1471984088 0.5724955797 4281880845
-0.2822075486 -0.1465942562 0.5726203322 4282209810
-0.2822687924 -0.1459897012 0.5727445483 4282472468
-0.2823297977 -0.1453847587 0.5728683472 4282538261
-0.2823905945 -0.1447794288 0.5729916692 4282669847
-0.2824511528 -0.1441736966 0.5731145740 4282735640
-0.2825114727 -0.1435675919 0.5732369423 4282669847
-0.2825715542 -0.1429610848 0.5733588934 4282406675
-0.2826314270 -0.1423541903 0.5734803677 4282472468
-0.2822594941 -0.1415305138 0.5727256536 4282472468
-0.2823188007 -0.1409237832 0.5728460550 4282735638
-0.2823778987 -0.1403166801 0.5729659200 4282867224
-0.2820048928 -0.1394955665 0.5722090602 4283064601
-0.2820634246 -0.1388886124 0.5723278522 4283196187
-0.2821217179 -0.1382813007 0.5724461675 4282933015
-0.2821798027 -0.1376736015 0.5725640059 4282538257
-0.2818054259 -0.1368556321 0.5718043447 4282472466
-0.2818629444 -0.1362481266 0.5719211102 4282669845
-0.2819202542 -0.1356402487 0.5720373392 4282605069
-0.2819772959 -0.1350319982 0.5721530914 4282670862
-0.2820341289 -0.1344233751 0.5722683668 4283197972
-0.2820906937 -0.1338143796 0.5723832250 4283987488
-0.2821470499 -0.1332050264 0.5724975467 4284448037
-0.2817703485 -0.1323919445 0.5717331767 4284513830
-0.2818261385 -0.1317828000 0.5718464255 4284251426
-0.2823147178 -0.1313747913 0.5728377104 4284251426
-0.2823701203 -0.1307639778 0.5729501843 4283264785
-0.2824252844 -0.1301528215 0.5730621219 4283001613
-0.2824802399 -0.1295413077 0.5731735826 4283725593
-0.2829682827 -0.1291271746 0.5741638541 4284251937
-0.2830228209 -0.1285140067 0.5742745399 4284712490
-0.2835106254 -0.1280963421 0.5752643347 4285173041
-0.2839983702 -0.1276764572 0.5762540102 4284975923
-0.2840523422 -0.1270603538 0.5763635635 4284910130
-0.2845398486 -0.1266369373 0.5773527026 4285567807
-0.2845934331 -0.1260191798 0.5774614811 4285567807
-0.2855146229 -0.1257834136 0.5793305635 4285238846
-0.2855678797 -0.1251630783 0.5794386864 4285567811
-0.2860549986 -0.1247316748 0.5804270506 4285632838
-0.2865419984 -0.1242980435 0.5814152360 4286093389
-0.2874631584 -0.1240495592 0.5832843781 4286816349
-0.2879500985 -0.1236105114 0.5842723250 4287013728
-0.2884369195 -0.1231692359 0.5852601528 4288063632
-0.2893581390 -0.1229102761 0.5871294141 4289774250
-0.3006848097 -0.1728509814 0.6114901304 4286811782
-0.2999005020 -0.1717224866 0.6098951101 4284443487
-0.2991155684 -0.1705971658 0.6082988381 4284180315
-0.2974739671 -0.1689887494 0.6049603820 4283523145
-0.2958313227 -0.1673871428 0.6016197801 4283194180
-0.2933312058 -0.1653097421 0.5965353847 4283260727
-0.2908296585 -0.1632428318 0.5914481282 4282997555
-0.2887551188 -0.1614259332 0.5872291923 4282471965
-0.2871078849 -0.1598563343 0.5838792920 4282406172
-0.2858882546 -0.1585312784 0.5813989639 4282538008
-0.2850964963 -0.1574480534 0.5797888041 4282669594
-0.2843041420 -0.1563680768 0.5781774521 4282866460
-0.2839401066 -0.1555262655 0.5774371028 4282800667
-0.2840046287 -0.1549198925 0.5775683522 4282538007
-0.2836398482 -0.1540800184 0.5768264532 4282340628
-0.2828454375 -0.1530093700 0.5752109289 4282143249
-0.2829090059 -0.1524045169 0.5753402114 4282011663
-0.2825429738 -0.1515689194 0.5745958090 4282077456
-0.2821764946 -0.1507347375 0.5738505721 4282077456
-0.2818096280 -0.1499020010 0.5731044412 4282275089
-0.2818720341 -0.1492982954 0.5732313395 4282275089
-0.2819342017 -0.1486941725 0.5733577609 4282143503
-0.2815662622 -0.1478639245 0.5726095438 4282209296
-0.2816278934 -0.1472599357 0.5727348924 4282144017
-0.2816893160 -0.1466555446 0.5728597641 4282275603
-0.2817504704 -0.1460507810 0.5729841590 4282735640
-0.2818114161 -0.1454456002 0.5731080770 4282801433
-0.2818721533 -0.1448400468 0.5732315779 4282735638
-0.2819326520 -0.1442340910 0.5733546019 4282801431
-0.2819929123 -0.1436277479 0.5734771490 4282669845
-0.2820529342 -0.1430210173 0.5735992789 4282538259
-0.2821127474 -0.1424138993 0.5737209320 4282604052
-0.2817415297 -0.1415898949 0.5729659796 4282669845
-0.2818008065 -0.1409829408 0.5730865002 4282604054
-0.2818598151 -0.1403755993 0.5732065439 4282735640
-0.2814875543 -0.1395541579 0.5724494457 4283064603
-0.2815460265 -0.1389469951 0.5725684166 4283130396
-0.2816042900 -0.1383394450 0.5726868510 4282933017
-0.2816623151 -0.1377315074 0.5728048086 4282669845
-0.2817200720 -0.1371232122 0.5729223490 4282604822
-0.2813461125 -0.1363054812 0.5721618533 4282867994
-0.2814033628 -0.1356973648 0.5722782612 4282802961
-0.2814603448 -0.1350888759 0.5723941326 4282802961
-0.2815171182 -0.1344800293 0.5725095868 4283461144
-0.2815736532 -0.1338708103 0.5726245642 4284119074
-0.2816299498 -0.1332612187 0.5727390647 4284448035
-0.2816860080 -0.1326512694 0.5728530884 4284382242
-0.2817418575 -0.1320409477 0.5729665756 4284185887
-0.2817974389 -0.1314302683 0.5730796456 4284383266
-0.2818527818 -0.1308192313 0.5731922388 4283725336
-0.2819079161 -0.1302078366 0.5733042955 4283396371
-0.2823952436 -0.1297948360 0.5742954016 4283462421
-0.2824499905 -0.1291817874 0.5744066834 4283791386
-0.2829371095 -0.1287652701 0.5753973126 4284054560
-0.2834241390 -0.1283465177 0.5763878226 4284449318
-0.2839111090 -0.1279255301 0.5773781538 4284909871
-0.2839651406 -0.1273082346 0.5774880052 4285107250
-0.2844518721 -0.1268837303 0.5784778595 4285238333
-0.2845054865 -0.1262647957 0.5785869360 4285501505
-0.2849919796 -0.1258367598 0.5795763135 4285501251
-0.2854784131 -0.1254064739 0.5805655122 4285435458
-0.2859647572 -0.1249739677 0.5815545321 4285895501
-0.2864509821 -0.1245392263 0.5825433731 4286685017
-0.2869371474 -0.1241022497 0.5835320950 4286881375
