VERSION 0.7
FIELDS x y z rgba
SIZE 4 4 4 4
TYPE F F F U
COUNT 1 1 1 1
WIDTH 920
HEIGHT 1
VIEWPOINT 0.0 0.0 0.0 1.0 0.0 0.0 0.0
POINTS 920
DATA ascii
-0.3918930888 -0.1234058514 0.5863845348 4282659390
-0.3930492401 -0.1231164858 0.5881144404 4282330425
-0.3942054510 -0.1228232905 0.5898444653 4281804336
-0.3953616917 -0.1225262657 0.5915745497 4281672750
-0.3976133168 -0.1225630417 0.5949436426 4281541675
-0.4009608626 -0.1229283139 0.5999525189 4281607468
-0.3988306522 -0.1216121763 0.5967651010 4281345064
-0.4005349576 -0.1214659810 0.5993152261 4280358169
-0.4033960700 -0.1209923550 0.6035962701 4280622113
-0.4040045142 -0.1205032021 0.6045066714 4281214250
-0.4057093263 -0.1203372180 0.6070575714 4281280043
-0.4063176215 -0.1198421493 0.6079677939 4280886312
-0.4085710645 -0.1198275462 0.6113395691 4280952105
-0.3936520815 -0.1549759656 0.5899969935 4282794050
-0.3931854963 -0.1541375220 0.5892977118 4283451210
-0.3916335702 -0.1528769732 0.5869717002 4283122245
-0.3922508657 -0.1524647325 0.5878968835 4282793021
-0.3923254609 -0.1518404186 0.5880087018 4282529849
-0.3929425180 -0.1514248848 0.5889335275 4282397750
-0.3924738169 -0.1505906880 0.5882310271 4282134578
-0.3920046389 -0.1497578770 0.5875278115 4282395953
-0.3926210403 -0.1493395567 0.5884516835 4282264367
-0.3921510875 -0.1485077888 0.5877473354 4282001195
-0.3922239244 -0.1478822082 0.5878564715 4281606437
-0.3922964633 -0.1472562850 0.5879651904 4281343265
-0.3923687041 -0.1466300189 0.5880734921 4281211679
-0.3924406767 -0.1460033953 0.5881813765 4281276446
-0.3919687271 -0.1451750845 0.5874739885 4281144860
-0.3920400441 -0.1445486546 0.5875808597 4280946967
-0.3921110630 -0.1439218819 0.5876873136 4279894279
-0.3921818137 -0.1432947665 0.5877933502 4279566338
-0.3922522664 -0.1426673084 0.5878989697 4280025865
-0.3917782903 -0.1418425143 0.5871886015 4280485903
-0.3918480873 -0.1412152648 0.5872932076 4280683282
-0.3913732767 -0.1403924078 0.5865815878 4281208856
-0.3914423883 -0.1397653520 0.5866851807 4281472028
-0.3909667134 -0.1389444619 0.5859722495 4281470741
-0.3910351694 -0.1383176148 0.5860748291 4281602327
-0.3905586600 -0.1374986768 0.5853606462 4281668121
-0.3900816441 -0.1366811544 0.5846456885 4281602328
-0.3896041512 -0.1358650625 0.5839300156 4281733660
-0.3885811865 -0.1348612458 0.5823968649 4281865246
-0.3881026804 -0.1340488791 0.5816796422 4281866529
-0.3876236677 -0.1332379431 0.5809617639 4281998115
-0.3838725686 -0.1313093305 0.5753396749 4281275678
-0.3872096241 -0.1318060309 0.5803411603 4281407264
-0.3867293000 -0.1309985220 0.5796212554 4281869359
-0.3862484992 -0.1301924735 0.5789006948 4282000945
-0.3857672513 -0.1293878555 0.5781794190 4285423979
-0.3858312666 -0.1287668198 0.5782753229 4292727002
-0.3858949840 -0.1281454712 0.5783708096 4294964991
-0.3870502412 -0.1278845668 0.5801022649 4294966271
-0.3871135414 -0.1272608489 0.5801972151 4294572539
-0.3882687688 -0.1269940436 0.5819286108 4294177781
-0.3894240260 -0.1267234236 0.5836600661 4294572026
-0.3900330961 -0.1262721121 0.5845729709 4294769405
-0.3906420469 -0.1258187443 0.5854856372 4294701562
-0.3917973340 -0.1255383939 0.5872171521 4294701562
-0.3929526508 -0.1252542287 0.5889487267 4290753212
-0.3941080272 -0.1249662116 0.5906803608 4283318603
-0.3952634633 -0.1246743724 0.5924121141 4282330425
-0.3964189291 -0.1243786961 0.5941438675 4281935667
-0.3970275819 -0.1239085123 0.5950561166 4281278249
-0.3981830478 -0.1236060485 0.5967879295 4281080870
-0.3993385434 -0.1232997477 0.5985197425 4280621598
-0.4015883505 -0.1233256459 0.6018916965 4280621598
-0.4032912850 -0.1231770292 0.6044440269 4280621852
-0.4044471383 -0.1228565499 0.6061763763 4280490266
-0.4061503708 -0.1226975992 0.6087291241 4280688676
-0.4073063433 -0.1223685443 0.6104617119 4280557090
-0.4084623456 -0.1220356524 0.6121942401 4280557347
-0.4079754949 -0.1212108210 0.6114645600 4280820519
-0.4085835516 -0.1207110882 0.6123759747 4281148457
-0.4097392559 -0.1203702018 0.6141080856 4281082664
-0.4108949602 -0.1200254783 0.6158402562 4280950565
-0.4115027487 -0.1195177585 0.6167511940 4280753186
-0.3936546147 -0.1558919996 0.5909845233 4282727487
-0.3931891322 -0.1550518125 0.5902857184 4283385417
-0.3916397691 -0.1537875682 0.5879597664 4283450697
-0.3900895417 -0.1525281519 0.5856323838 4282924353
-0.3912478685 -0.1523284614 0.5873714089 4282595129
-0.3913223445 -0.1517047137 0.5874831676 4282397750
-0.3913965523 -0.1510806233 0.5875945687 4282266164
-0.3914704621 -0.1504561752 0.5877055526 4282002992
-0.3904595077 -0.1494163275 0.5861877799 4282264367
-0.3910750449 -0.1489995569 0.5871119499 4282066988
-0.3911480308 -0.1483749151 0.5872215033 4281803816
-0.3917633593 -0.1479548514 0.5881452560 4281474851
-0.3918358684 -0.1473286450 0.5882541537 4281343265
-0.3913652897 -0.1464989036 0.5875476599 4281277472
-0.3908942640 -0.1456705630 0.5868405104 4281210653
-0.3909657300 -0.1450450569 0.5869477987 4281013274
-0.3910369277 -0.1444192082 0.5870546699 4281210139
-0.3911078274 -0.1437930167 0.5871611834 4280749588
-0.3917217851 -0.1433653384 0.5880828500 4280683795
-0.3912488222 -0.1425396204 0.5873727798 4280881174
-0.3907753825 -0.1417153180 0.5866620541 4280946454
-0.3903014660 -0.1408924162 0.5859505534 4280814868
-0.3903707862 -0.1402662843 0.5860546231 4280945684
-0.3904398084 -0.1396398246 0.5861582160 4280945684
-0.3899646401 -0.1388194263 0.5854449272 4281142803
-0.3900330067 -0.1381931603 0.5855475068 4281208596
-0.3895570040 -0.1373747289 0.5848329067 4281274390
-0.3896246850 -0.1367486864 0.5849345326 4281208597
-0.3896920979 -0.1361223310 0.5850357413 4281274392
-0.3886704743 -0.1351171583 0.5835019946 4281405978
-0.3887371421 -0.1344919056 0.5836020708 4281275421
-0.3882589340 -0.1336788386 0.5828841925 4281472800
-0.3877802789 -0.1328672171 0.5821655989 4280816412
-0.3851222396 -0.1313140839 0.5781751275 4281013791
-0.3879112005 -0.1316179782 0.5823621154 4281212456
-0.3874312937 -0.1308089048 0.5816416740 4281475628
-0.3869509399 -0.1300012767 0.5809205174 4285556335
-0.3875603080 -0.1295595318 0.5818353295 4293056737
-0.3876243830 -0.1289343834 0.5819315314 4294966783
-0.3882334232 -0.1284893900 0.5828458667 4294966783
-0.3888423443 -0.1280423254 0.5837600231 4294704382
-0.3894511759 -0.1275931895 0.5846740603 4294375417
-0.3906054497 -0.1273198128 0.5864068866 4294375160
-0.3912141323 -0.1268656552 0.5873206854 4294704125
-0.3918226957 -0.1264094412 0.5882343650 4294636539
-0.3935227394 -0.1263014972 0.5907865763 4294899711
-0.3941312432 -0.1258393675 0.5917001367 4292529880
-0.3952855766 -0.1255485862 0.5934330821 4285621615
-0.3964399695 -0.1252539754 0.5951662064 4281804594
-0.3975944221 -0.1249555200 0.5968993306 4281738801
-0.3982026875 -0.1244824678 0.5978124738 4281081640
-0.3993571103 -0.1241772175 0.5995455980 4280752675
-0.4005115926 -0.1238681227 0.6012787819 4280753186
-0.4016660750 -0.1235551983 0.6030120254 4280555807
-0.4028206170 -0.1232384220 0.6047452688 4280490012
-0.4045218229 -0.1230841354 0.6072992682 4280555805
-0.4056764841 -0.1227587834 0.6090327501 4280885285
-0.4068311751 -0.1224295944 0.6107662320 4280687906
-0.4090796709 -0.1224238873 0.6141418219 4280491297
-0.4096875787 -0.1219224408 0.6150544882 4280688676
-0.4108423889 -0.1215808168 0.6167881489 4281148457
-0.4103557765 -0.1207523346 0.6160576344 4281214250
-0.4115103483 -0.1204056740 0.6177909970 4281147944
-0.4115703404 -0.1197367087 0.6178810596 4280950565
-0.3921086490 -0.1555391252 0.5896468163 4283188038
-0.3921845257 -0.1549139619 0.5897609591 4283385417
-0.3900959194 -0.1534371823 0.5866201520 4283318854
-0.3885473907 -0.1521788985 0.5842914581 4282792510
-0.3897042274 -0.1519808620 0.5860310793 4282660152
-0.3897784650 -0.1513585746 0.5861427784 4282462773
-0.3898524344 -0.1507359296 0.5862540007 4282331187
-0.3899261355 -0.1501129270 0.5863648057 4282133808
-0.3894579113 -0.1492819637 0.5856606960 4282066988
-0.3895309567 -0.1486591250 0.5857705474 4281869609
-0.3901455700 -0.1482418329 0.5866947770 4281540644
-0.3902181685 -0.1476174295 0.5868039727 4281343265
-0.3892063200 -0.1465843618 0.5852823853 4281211679
-0.3903625011 -0.1463675797 0.5870209932 4281080093
-0.3904342353 -0.1457421482 0.5871288776 4281013274
-0.3899633288 -0.1449148059 0.5864207745 4280881688
-0.3905768991 -0.1444902271 0.5873433948 4280749588
-0.3906477988 -0.1438637674 0.5874500275 4280815381
-0.3907184005 -0.1432369500 0.5875561833 4280815381
-0.3907887340 -0.1426098049 0.5876619816 4280815381
-0.3892302215 -0.1413907260 0.5853182673 4280880661
-0.3887567222 -0.1405691803 0.5846062899 4280880661
-0.3888258338 -0.1399445087 0.5847101808 4281011477
-0.3888946474 -0.1393195093 0.5848136544 4280945684
-0.3889631629 -0.1386941820 0.5849167109 4280880659
-0.3890314102 -0.1380685121 0.5850193501 4280946452
-0.3885559440 -0.1372505575 0.5843043327 4281143063
-0.3886235356 -0.1366251111 0.5844059587 4281143063
-0.3886908293 -0.1359993517 0.5845071673 4281078042
-0.3887578249 -0.1353732497 0.5846079588 4281078042
-0.3888245523 -0.1347468346 0.5847082734 4280947483
-0.3888909817 -0.1341200918 0.5848081708 4281079069
-0.3889571428 -0.1334930360 0.5849076509 4280685083
-0.3884789050 -0.1326798201 0.5841885209 4280948255
-0.3885443807 -0.1320530027 0.5842869878 4280950055
-0.3886095881 -0.1314258724 0.5843849778 4281213227
-0.3886744976 -0.1307984143 0.5844826102 4285754484
-0.3887391090 -0.1301706582 0.5845797658 4293254886
-0.3893479705 -0.1297240108 0.5854953527 4294967039
-0.3894121051 -0.1290947348 0.5855917931 4294967039
-0.3900206685 -0.1286448240 0.5865069628 4294770175
-0.3911738992 -0.1283716410 0.5882411599 4294507003
-0.3917823136 -0.1279167086 0.5891560912 4294309113
-0.3929356039 -0.1276367307 0.5908904076 4294638078
-0.3935438693 -0.1271767765 0.5918051004 4294702845
-0.3941520154 -0.1267147511 0.5927196145 4294966015
-0.3953053057 -0.1264250278 0.5944538713 4294175220
-0.3964586258 -0.1261314750 0.5961882472 4288385436
-0.3970665634 -0.1256614625 0.5971024632 4282397760
-0.3982198834 -0.1253611147 0.5988367796 4281871416
-0.3993732333 -0.1250569224 0.6005712152 4281608242
-0.3999809623 -0.1245789230 0.6014850736 4280950312
-0.4005885422 -0.1240988597 0.6023987532 4280884772
-0.4022876918 -0.1239530891 0.6049539447 4280621600
-0.4034411013 -0.1236344054 0.6066883802 4280555805
-0.4051405489 -0.1234782860 0.6092439890 4280687391
-0.4062940776 -0.1231510192 0.6109786630 4280950563
-0.4074476361 -0.1228199005 0.6127133965 4280818977
-0.4086012244 -0.1224849373 0.6144481301 4280622111
-0.4097548127 -0.1221461222 0.6161828637 4280753697
-0.4109084010 -0.1218034551 0.6179176569 4281147944
-0.4120620191 -0.1214569360 0.6196523905 4281279530
-0.4115758836 -0.1206259802 0.6189213395 4281279017
-0.4116359353 -0.1199558154 0.6190117002 4281147431
-0.4122424126 -0.1194437668 0.6199237108 4281213737
-0.4123019278 -0.1187721267 0.6200131774 4280753186
-0.3937292099 -0.1571021974 0.5930743814 4282596671
-0.3900243640 -0.1549711823 0.5874937773 4283122245
-0.3911805153 -0.1547758877 0.5892353058 4283188038
-0.3890943825 -0.1532992721 0.5860928893 4283055682
-0.3870071173 -0.1518292129 0.5829488635 4282726717
-0.3881624341 -0.1516328454 0.5846891403 4282594359
-0.3882364631 -0.1510120034 0.5848006606 4282265394
-0.3883102238 -0.1503908187 0.5849117637 4282133551
-0.3883837163 -0.1497692764 0.5850224495 4281936172
-0.3884569108 -0.1491473764 0.5851327181 4281869609
-0.3879887164 -0.1483182758 0.5844274759 4281672230
-0.3880612552 -0.1476965398 0.5845367312 4281409058
-0.3886748552 -0.1472795904 0.5854610205 4281211679
-0.3888187706 -0.1460326612 0.5856777430 4280816921
-0.3894319236 -0.1456111968 0.5866013765 4280750615
-0.3889615536 -0.1447843462 0.5858928561 4280619029
-0.3895743489 -0.1443604529 0.5868158937 4280750102
-0.3896451294 -0.1437345743 0.5869225264 4280684309
-0.3897156417 -0.1431083530 0.5870287418 4280749588
-0.3897858560 -0.1424817890 0.5871344805 4280683795
-0.3893135786 -0.1416576058 0.5864230990 4280814868
-0.3882985115 -0.1406383961 0.5848941207 4280946454
-0.3883675933 -0.1400134414 0.5849981904 4281012247
-0.3878938854 -0.1391934752 0.5842846036 4281012247
-0.3879623115 -0.1385687292 0.5843876600 4280946454
-0.3880304396 -0.1379436553 0.5844902992 4281012247
-0.3875555098 -0.1371262074 0.5837749243 4281078040
-0.3876229823 -0.1365013421 0.5838765502 4281143833
-0.3876901567 -0.1358761638 0.5839777589 4281143835
-0.3877570629 -0.1352506578 0.5840785503 4281143835
-0.3883668482 -0.1348133832 0.5849970579 4281013276
-0.3884332776 -0.1341863573 0.5850970745 4281144862
-0.3879560530 -0.1333722174 0.5843782425 4280422681
-0.3880217969 -0.1327454150 0.5844773054 4280883232
-0.3880872726 -0.1321183145 0.5845759511 4281016360
-0.3881524503 -0.1314908862 0.5846741199 4281345325
-0.3882173598 -0.1308631450 0.5847718716 4285886583
-0.3888257742 -0.1304174960 0.5856882930 4293255399
-0.3888901770 -0.1297882497 0.5857853293 4294967039
-0.3894982636 -0.1293393224 0.5867013335 4294967039
-0.3901062608 -0.1288883388 0.5876171589 4294770429
-0.3912583292 -0.1286141574 0.5893524885 4294573050
-0.3924104273 -0.1283361316 0.5910878778 4294375160
-0.3930182457 -0.1278771609 0.5920034647 4294638332
-0.3941704035 -0.1275923550 0.5937389135 4294834943
-0.3947780430 -0.1271283478 0.5946542621 4294769151
-0.3959302008 -0.1268367320 0.5963897109 4294702078
-0.3965377212 -0.1263677031 0.5973048210 4290622912
-0.3971450925 -0.1258966029 0.5982196927 4284043098
-0.3982972205 -0.1255952269 0.5999551415 4281674550
-0.3994493484 -0.1252900213 0.6016906500 4281739828
-0.4000565112 -0.1248109192 0.6026051641 4281147691
-0.4012086689 -0.1244988963 0.6043406725 4280818468
-0.4023608267 -0.1241830364 0.6060761809 4280686882
-0.4040583074 -0.1240307093 0.6086331010 4280752673
-0.4057559967 -0.1238727570 0.6111903191 4280752673
-0.4069084227 -0.1235435680 0.6129261851 4281015845
-0.4086063802 -0.1233752519 0.6154838800 4281015845
-0.4097589254 -0.1230374724 0.6172199249 4280884772
-0.4098200500 -0.1223699525 0.6173120141 4280884772
-0.4109724462 -0.1220262423 0.6190478802 4281016358
-0.4115789831 -0.1215175167 0.6199615002 4281147944
-0.4116394222 -0.1208464354 0.6200525165 4281213224
-0.4122455716 -0.1203344464 0.6209655404 4281213224
-0.4123054445 -0.1196618900 0.6210557818 4280884772
-0.4123650193 -0.1189890429 0.6211454868 4281213737
-0.4129705131 -0.1184726134 0.6220575571 4280557090
-0.3942641914 -0.1582402438 0.5948754549 4282136120
-0.3932622969 -0.1571788639 0.5933637619 4282925636
-0.3911806047 -0.1556910723 0.5902228355 4282924866
-0.3896374702 -0.1544236988 0.5878944993 4282793280
-0.3875536621 -0.1529481262 0.5847504139 4282660924
-0.3860085905 -0.1516912729 0.5824192166 4282529338
-0.3860825896 -0.1510731131 0.5825307965 4282331187
-0.3861562908 -0.1504545957 0.5826420188 4282068015
-0.3862297237 -0.1498357207 0.5827528238 4281936429
-0.3863028884 -0.1492165029 0.5828632116 4281739050
-0.3863757551 -0.1485969275 0.5829731822 4281673000
-0.3864483535 -0.1479770094 0.5830827355 4281409828
-0.3870612979 -0.1475628316 0.5840075016 4281277472
-0.3871334493 -0.1469413340 0.5841163993 4281080093
-0.3866645098 -0.1461151540 0.5834088922 4280882714
-0.3872769177 -0.1456973255 0.5843328834 4280685335
-0.3878892064 -0.1452774107 0.5852566957 4280619029
-0.3879603446 -0.1446536779 0.5853640437 4280619029
-0.3885723948 -0.1442304850 0.5862874985 4280947481
-0.3886430860 -0.1436051875 0.5863941312 4280750102
-0.3887134790 -0.1429795474 0.5865003467 4280815381
-0.3887835741 -0.1423535794 0.5866061449 4280881174
-0.3883118331 -0.1415298730 0.5858943462 4280946454
-0.3883812726 -0.1409040987 0.5859991312 4280946454
-0.3873668909 -0.1398867071 0.5844686627 4280946454
-0.3874355853 -0.1392620057 0.5845722556 4280946454
-0.3869620264 -0.1384430826 0.5838577747 4280880661
-0.3870300651 -0.1378186047 0.5839604139 4280946454
-0.3870978057 -0.1371937841 0.5840626359 4280946967
-0.3871652782 -0.1365686506 0.5841643810 4281078553
-0.3872324526 -0.1359431744 0.5842657685 4281078299
-0.3872993290 -0.1353173852 0.5843666792 4281078299
-0.3879084587 -0.1348799169 0.5852857828 4281013278
-0.3874322474 -0.1340648383 0.5845672488 4281144864
-0.3874982893 -0.1334380805 0.5846668482 4280422683
-0.3875640333 -0.1328110099 0.5847660899 4280883234
-0.3876294792 -0.1321836114 0.5848648548 4281082410
-0.3882376552 -0.1317401528 0.5857824087 4281279789
-0.3883026242 -0.1311112344 0.5858804584 4285689718
-0.3889749646 -0.1300340891 0.5868949294 4294967039
-0.3895824850 -0.1295840889 0.5878115892 4294967039
-0.3901899159 -0.1291320175 0.5887280703 4294967295
-0.3913407624 -0.1288568377 0.5904644728 4294835709
-0.3924916685 -0.1285778135 0.5922009945 4294572539
-0.3930989206 -0.1281177551 0.5931172371 4294572539
-0.3942498565 -0.1278319359 0.5948538184 4294966783
-0.3948569596 -0.1273668408 0.5957698226 4294769151
-0.3954639435 -0.1268996745 0.5966856480 4294637567
-0.3955267370 -0.1262567490 0.5967804193 4292597985
-0.3961333632 -0.1257863194 0.5976957083 4286938504
-0.3978283405 -0.1256576031 0.6002531052 4281675064
-0.3995234966 -0.1255232692 0.6028108001 4281410863
-0.4001300931 -0.1250430644 0.6037260294 4281410863
-0.4012810290 -0.1247300282 0.6054626107 4280884259
-0.4024319947 -0.1244131401 0.6071991920 4280752673
-0.4041276276 -0.1242598668 0.6097576022 4281015329
-0.4058234394 -0.1241009682 0.6123163104 4280883743
-0.4069746435 -0.1237707511 0.6140533090 4281081638
-0.4086707532 -0.1236014739 0.6166124344 4281147431
-0.4098220766 -0.1232626587 0.6183495522 4281147431
-0.4104283452 -0.1227569580 0.6192643046 4281081638
-0.4110344648 -0.1222491860 0.6201788187 4280950052
-0.4110952318 -0.1215780899 0.6202704906 4281015845
-0.4117009342 -0.1210670471 0.6211844087 4281147431
-0.4112157524 -0.1202350035 0.6204523444 4281147431
-0.4112755656 -0.1195630133 0.6205425858 4280884774
-0.4113350213 -0.1188907400 0.6206323504 4280950567
-0.4124854207 -0.1185317487 0.6223680377 4281082410
-0.4125443995 -0.1178571060 0.6224570870 4280753445
-0.3932566345 -0.1581007987 0.5943512321 4282531391
-0.3922559023 -0.1570397913 0.5928387642 4282794563
-0.3907155693 -0.1557670236 0.5905107856 4282596671
-0.3859401941 -0.1532151401 0.5832934976 4282333499
-0.3870930672 -0.1530227959 0.5850358605 4282266423
-0.3855499327 -0.1517653465 0.5827036500 4282134837
-0.3856239021 -0.1511469185 0.5828154087 4282002992
-0.3851581514 -0.1503175944 0.5821115375 4281739820
-0.3852314651 -0.1496993154 0.5822223425 4281674027
-0.3853045106 -0.1490806937 0.5823327303 4281476648
-0.3853772581 -0.1484617144 0.5824427009 4281541414
-0.3854497671 -0.1478423774 0.5825522542 4281278242
-0.3855219781 -0.1472226977 0.5826613903 4281145886
-0.3861339688 -0.1468079984 0.5835863352 4280948507
-0.3851254284 -0.1457778364 0.5820620656 4280816921
-0.3862771988 -0.1455651671 0.5838028193 4280751128
-0.3868887424 -0.1451459378 0.5847270489 4280684822
-0.3869597614 -0.1445228010 0.5848343968 4280684822
-0.3875710666 -0.1441002786 0.5857582688 4280684309
-0.3876416385 -0.1434755772 0.5858649611 4280552723
-0.3877119124 -0.1428505331 0.5859711766 4280749588
-0.3877819180 -0.1422251612 0.5860769749 4280881174
-0.3873106837 -0.1414019465 0.5853647590 4280946454
-0.3873800337 -0.1407767683 0.5854695439 4280814868
-0.3869079649 -0.1399555057 0.5847560763 4280880661
-0.3869766295 -0.1393305212 0.5848599076 4281078040
-0.3870450258 -0.1387052089 0.5849632621 4280881174
-0.3865717053 -0.1378864497 0.5842479467 4280881174
-0.3866394460 -0.1372613609 0.5843502879 4280881688
-0.3867068887 -0.1366359293 0.5844522119 4280947481
-0.3867740631 -0.1360101849 0.5845537186 4280881688
-0.3868409395 -0.1353841126 0.5846548080 4280947481
-0.3869075179 -0.1347577125 0.5847554207 4281013791
-0.3875158131 -0.1343188435 0.5856747627 4281079584
-0.3875819147 -0.1336909235 0.5857747197 4280422940
-0.3871055841 -0.1328765750 0.5850547552 4280883491
-0.3871710300 -0.1322488934 0.5851536989 4280820008
-0.3877785206 -0.1318052262 0.5860718489 4280885801
-0.3878434896 -0.1311760396 0.5861700177 4285690231
-0.3884506822 -0.1307291090 0.5870876908 4292598496
-0.3885151446 -0.1300983876 0.5871851444 4294572543
-0.3891220391 -0.1296481937 0.5881023407 4294901503
-0.3897288144 -0.1291959137 0.5890194178 4294967295
-0.3908783495 -0.1289206147 0.5907567739 4294901502
-0.3914849758 -0.1284633130 0.5916736126 4294704125
-0.3920915127 -0.1280039251 0.5925902724 4294506746
-0.3932410479 -0.1277188659 0.5943276882 4294967039
-0.3938474059 -0.1272544414 0.5952441096 4294769663
-0.3944536448 -0.1267879456 0.5961603522 4294506495
-0.3945163488 -0.1261456162 0.5962551236 4294045944
-0.3951222301 -0.1256758571 0.5971708298 4290426300
-0.3962715864 -0.1253760010 0.5989078879 4283386449
-0.3985083103 -0.1254144907 0.6022884250 4281213996
-0.3996579349 -0.1251051575 0.6040258408 4281411375
-0.4002637267 -0.1246226653 0.6049414277 4281213224
-0.4019572139 -0.1244749650 0.6075009108 4280950052
-0.4031069279 -0.1241540834 0.6092385054 4281081122
-0.4048007131 -0.1239960119 0.6117984653 4281146915
-0.4064947069 -0.1238323078 0.6143587232 4281016358
-0.4081888795 -0.1236629710 0.6169192195 4281016358
-0.4093389213 -0.1233239993 0.6186572909 4281213224
-0.4099445343 -0.1228180677 0.6195725799 4281147431
-0.4100055099 -0.1221478432 0.6196647286 4281146663
-0.4106107354 -0.1216386482 0.6205794811 4281146663
-0.4106711447 -0.1209669337 0.6206707954 4281081640
-0.4107312560 -0.1202949286 0.6207616329 4281015847
-0.4107910395 -0.1196226254 0.6208519340 4281082153
-0.4108504951 -0.1189500317 0.6209418178 4280884774
-0.4109096527 -0.1182771474 0.6210312247 4281016617
-0.4115135074 -0.1177599430 0.6219438910 4281148203
-0.3937088251 -0.1598732173 0.5960351825 4281479732
-0.3906354606 -0.1573110819 0.5913823843 4282663491
-0.3912501037 -0.1569004953 0.5923129320 4282597698
-0.3897115886 -0.1556279957 0.5899837613 4282465085
-0.3887105286 -0.1545744091 0.5884682536 4282201913
-0.3860933185 -0.1528842300 0.5845060945 4282003764
-0.3850905895 -0.1518394202 0.5829880238 4281872178
-0.3846258521 -0.1510092169 0.5822844505 4281674540
-0.3841606081 -0.1501803845 0.5815801620 4281411368
-0.3842338026 -0.1495627016 0.5816909671 4281279782
-0.3843067288 -0.1489446610 0.5818013549 4281016610
-0.3843793869 -0.1483262628 0.5819113255 4281277988
-0.3844517469 -0.1477075368 0.5820208788 4281080609
-0.3845238686 -0.1470884383 0.5821300745 4280948509
-0.3845956624 -0.1464690119 0.5822387934 4280816923
-0.3846672177 -0.1458492279 0.5823470950 4280751130
-0.3852781057 -0.1454327852 0.5832718611 4280685337
-0.3853491843 -0.1448114365 0.5833795071 4280684824
-0.3859598041 -0.1443917006 0.5843039155 4280619031
-0.3860304356 -0.1437688023 0.5844108462 4280750104
-0.3866407871 -0.1433457732 0.5853348374 4280750104
-0.3861708641 -0.1425219774 0.5846234560 4280815127
-0.3862406313 -0.1418980658 0.5847290754 4280880920
-0.3863101602 -0.1412738115 0.5848343372 4281012249
-0.3863793910 -0.1406492144 0.5849391222 4280946456
-0.3853673339 -0.1396326125 0.5834069848 4280946456
-0.3865169883 -0.1393990219 0.5851474404 4281209628
-0.3860446811 -0.1385793388 0.5844324231 4280881688
-0.3861126900 -0.1379542947 0.5845353603 4280881688
-0.3856395483 -0.1371365786 0.5838190913 4280947481
-0.3857068717 -0.1365117431 0.5839210153 4280947481
-0.3863149881 -0.1360771656 0.5848416090 4280816410
-0.3863818347 -0.1354508102 0.5849428773 4280947996
-0.3864484131 -0.1348241270 0.5850436687 4281145377
-0.3870560527 -0.1343850642 0.5859635472 4281145377
-0.3871221542 -0.1337568611 0.5860636234 4280225561
-0.3871879578 -0.1331283301 0.5861632228 4280817698
-0.3872534931 -0.1324994713 0.5862624049 4280556837
-0.3873187006 -0.1318702996 0.5863611698 4280754216
-0.3873836696 -0.1312408149 0.5864595175 4286216577
-0.3879902065 -0.1307936907 0.5873777270 4292664291
-0.3880546689 -0.1301626861 0.5874752998 4293849594
-0.3886608779 -0.1297122836 0.5883930922 4294704895
-0.3892669976 -0.1292598099 0.5893107057 4294835711
-0.3898729980 -0.1288052499 0.5902281404 4294901503
-0.3904789090 -0.1283486187 0.5911453962 4294769663
-0.3910846710 -0.1278899014 0.5920624733 4294572285
-0.3911478221 -0.1272526234 0.5921580791 4294835455
-0.3917532563 -0.1267906427 0.5930746198 4294835455
-0.3923585713 -0.1263265908 0.5939910412 4294506751
-0.3924210072 -0.1256866157 0.5940855145 4294440959
-0.3930259943 -0.1252193004 0.5950013995 4292598498
-0.3941738009 -0.1249219701 0.5967390537 4286479749
-0.3953216374 -0.1246207952 0.5984767675 4281872697
-0.3964695036 -0.1243157685 0.6002145410 4280820009
-0.3981606066 -0.1241763011 0.6027747393 4281213737
-0.4003952146 -0.1241997331 0.6061576605 4280950565
-0.4015434384 -0.1238804832 0.6078959703 4281016099
-0.4032351375 -0.1237241328 0.6104570031 4281081892
-0.4049270153 -0.1235621423 0.6130183339 4280950565
-0.4066190720 -0.1233945191 0.6155799627 4280950565
-0.4077676535 -0.1230571792 0.6173188090 4281212710
-0.4083724320 -0.1225527972 0.6182343960 4281278503
-0.4084332287 -0.1218840405 0.6183264256 4281343783
-0.4090376496 -0.1213763878 0.6192414761 4281277990
-0.4096419215 -0.1208666489 0.6201562285 4281080870
-0.4091578424 -0.1200355962 0.6194233894 4280949284
-0.4092174470 -0.1193647608 0.6195136309 4281016360
-0.4092767239 -0.1186936349 0.6196033955 4281147946
-0.4098800421 -0.1181791574 0.6205167174 4280950567
-0.4104831815 -0.1176626086 0.6214298606 4281082153
-0.4105416834 -0.1169888303 0.6215184331 4281148973
-0.4111444354 -0.1164690182 0.6224309206 4280622629
-0.3943124115 -0.1603879929 0.5979543328 4282137662
-0.3917807341 -0.1580380201 0.5941151977 4282795077
-0.3897073865 -0.1565450430 0.5909710526 4282663491
-0.3887082040 -0.1554887444 0.5894558430 4282070840
-0.3877083063 -0.1544355303 0.5879395604 4281807668
-0.3861698806 -0.1531720906 0.5856066346 4281741362
-0.3851685226 -0.1521259397 0.5840880871 4281609776
-0.3841664493 -0.1510828882 0.5825685263 4281411625
-0.3837018609 -0.1502536833 0.5818639994 4281214246
-0.3832367957 -0.1494258493 0.5811587572 4281148453
-0.3833096027 -0.1488084048 0.5812691450 4280819488
-0.3833821118 -0.1481906176 0.5813791156 4281014816
-0.3834543824 -0.1475724727 0.5814887285 4280883230
-0.3835263550 -0.1469539702 0.5815978646 4280882716
-0.3841368258 -0.1465406567 0.5825235844 4280751130
-0.3842083514 -0.1459205896 0.5826320648 4280685337
-0.3848185539 -0.1455039829 0.5835574269 4280553751
-0.3848896325 -0.1448823512 0.5836651921 4280553238
-0.3854995966 -0.1444624364 0.5845901966 4280553238
-0.3855701983 -0.1438392550 0.5846972466 4280618518
-0.3861798942 -0.1434160471 0.5856218338 4280750104
-0.3862500489 -0.1427913159 0.5857282281 4280749334
-0.3857803643 -0.1419676840 0.5850159526 4280683541
-0.3853102326 -0.1411454678 0.5843030214 4280946456
-0.3848395944 -0.1403246522 0.5835893154 4280946456
-0.3843684793 -0.1395052522 0.5828748941 4280815127
-0.3844368458 -0.1388823390 0.5829785466 4280946713
-0.3845049143 -0.1382590830 0.5830817819 4280946967
-0.3851128519 -0.1378288120 0.5840036869 4280946967
-0.3851804435 -0.1372040212 0.5841062069 4280947481
-0.3847074509 -0.1363873482 0.5833889246 4280881688
-0.3853148222 -0.1359534711 0.5843099952 4280815897
-0.3853815794 -0.1353276968 0.5844112039 4281013276
-0.3854480386 -0.1347016096 0.5845119953 4281145123
-0.3860549331 -0.1342632324 0.5854322910 4281145123
-0.3866617084 -0.1338227838 0.5863524675 4280291355
-0.3861866295 -0.1330076754 0.5856320262 4280949285
-0.3862520456 -0.1323794127 0.5857312083 4280622630
-0.3863171637 -0.1317508370 0.5858299732 4280820009
-0.3863820136 -0.1311219484 0.5859283209 4286808714
-0.3864465654 -0.1304927319 0.5860261917 4292730084
-0.3865108192 -0.1298632026 0.5861236453 4293190896
-0.3865748048 -0.1292333752 0.5862206817 4294177791
-0.3871800005 -0.1287833303 0.5871384144 4294769663
-0.3877850771 -0.1283312291 0.5880559683 4294967039
-0.3878483474 -0.1276986897 0.5881519318 4294901247
-0.3884531260 -0.1272433102 0.5890690088 4294769663
-0.3885158896 -0.1266092658 0.5891642570 4294704127
-0.3891203403 -0.1261506230 0.5900808573 4294769919
-0.3897246420 -0.1256898940 0.5909972787 4294507519
-0.3897867203 -0.1250531673 0.5910913944 4294310143
-0.3903906941 -0.1245891750 0.5920072794 4294111994
-0.3909945786 -0.1241231114 0.5929229856 4289835449
-0.3921406865 -0.1238262430 0.5946610570 4283386449
-0.3932868242 -0.1235255226 0.5963991284 4280754729
-0.3955181241 -0.1235599369 0.5997827649 4281345323
-0.3972071409 -0.1234183386 0.6023440957 4281213737
-0.3983536661 -0.1231034026 0.6040827036 4281081892
-0.4000430107 -0.1229514331 0.6066445112 4281016099
-0.4022754133 -0.1229597628 0.6100298166 4280950565
-0.4039652050 -0.1227956340 0.6125923395 4280950565
-0.4051121473 -0.1224617064 0.6143316031 4281146917
-0.4051728249 -0.1217973828 0.6144236326 4281146917
-0.4057764113 -0.1212951392 0.6153389215 4281408806
-0.4069231451 -0.1209523082 0.6170778871 4281343013
-0.4075264931 -0.1204450130 0.6179928184 4281015331
-0.4075862765 -0.1197759360 0.6180834770 4280949538
-0.4076457024 -0.1191065758 0.6181735992 4280950052
-0.4077048302 -0.1184369102 0.6182632446 4281147431
-0.4088510275 -0.1180810109 0.6200013757 4281082153
-0.4094534218 -0.1175651103 0.6209149361 4280950567
-0.4100556672 -0.1170471385 0.6218281984 4281016617
-0.4101138413 -0.1163727492 0.6219164133 4281148203
-0.4107156992 -0.1158515215 0.6228290796 4280491556
-0.3953708708 -0.1617571265 0.6005709767 4281939770
-0.3916933537 -0.1595914662 0.5949847698 4282532677
-0.3917707503 -0.1589618027 0.5951023698 4282730056
-0.3902375400 -0.1576810926 0.5927734375 4282335298
-0.3876296580 -0.1559731364 0.5888120532 4282006333
-0.3877054155 -0.1553492695 0.5889270902 4281874490
-0.3872437775 -0.1545107365 0.5882259011 4281611318
-0.3857072890 -0.1532467008 0.5858919024 4281544242
-0.3836325705 -0.1517749280 0.5827404261 4281281070
-0.3831689954 -0.1509448439 0.5820362568 4281149225
-0.3832424283 -0.1503269672 0.5821477771 4280951846
-0.3827779889 -0.1494987607 0.5814422965 4280951076
-0.3828507662 -0.1488810480 0.5815528631 4280753697
-0.3829232752 -0.1482629776 0.5816630125 4280949023
-0.3829955161 -0.1476445496 0.5817727447 4280751644
-0.3830674887 -0.1470257789 0.5818820596 4280488472
-0.3831391633 -0.1464066654 0.5819909573 4280356886
-0.3832105994 -0.1457871944 0.5820994377 4280291093
-0.3838200271 -0.1453712732 0.5830252171 4280291093
-0.3844294250 -0.1449532658 0.5839508176 4280422165
-0.3845002055 -0.1443310231 0.5840583444 4280356372
-0.3851093054 -0.1439097077 0.5849835873 4280487958
-0.3851796389 -0.1432859004 0.5850903988 4280487958
-0.3852496743 -0.1426617652 0.5851967931 4280553751
-0.3853194416 -0.1420372874 0.5853027701 4280553751
-0.3848499060 -0.1412146837 0.5845895410 4280684824
-0.3843798935 -0.1403934956 0.5838756561 4280684824
-0.3844486177 -0.1397697628 0.5839800239 4280750617
-0.3839777708 -0.1389505267 0.5832647681 4280750617
-0.3835064471 -0.1381327063 0.5825488567 4280620062
-0.3835741282 -0.1375097185 0.5826516747 4280620062
-0.3836415410 -0.1368864030 0.5827540755 4280620058
-0.3837086558 -0.1362627596 0.5828559995 4280620058
-0.3837755024 -0.1356387883 0.5829575062 4280816921
-0.3838420510 -0.1350144893 0.5830586553 4280948507
-0.3849882483 -0.1347679049 0.5847997069 4281080093
-0.3850544095 -0.1341411918 0.5849002004 4281080093
-0.3856604397 -0.1337014288 0.5858207345 4280752673
-0.3862663507 -0.1332595795 0.5867411494 4281213224
-0.3857915401 -0.1324446648 0.5860198736 4281017901
-0.3858566284 -0.1318157911 0.5861188173 4280886315
-0.3859214783 -0.1311866045 0.5862172842 4287598230
-0.3859860003 -0.1305571049 0.5863153338 4292269533
-0.3860502541 -0.1299272925 0.5864129066 4293256174
-0.3861142099 -0.1292971671 0.5865100622 4293519346
-0.3856370151 -0.1284865141 0.5857852101 4294308601
-0.3862412572 -0.1280359775 0.5867030621 4294637566
-0.3863043487 -0.1274049133 0.5867989063 4294967039
-0.3869082928 -0.1269510984 0.5877162814 4294967039
-0.3869708776 -0.1263185292 0.5878113508 4294901759
-0.3875744939 -0.1258614510 0.5887281895 4294901759
-0.3876365721 -0.1252273917 0.5888225436 4294901759
-0.3876983821 -0.1245930269 0.5889164209 4294901759
-0.3883014619 -0.1241314858 0.5898324847 4294967039
-0.3889043927 -0.1236678734 0.5907483697 4292927460
-0.3900489509 -0.1233735308 0.5924869776 4288057751
-0.3911935389 -0.1230753437 0.5942255855 4281741623
-0.3923381865 -0.1227733046 0.5959643126 4280951594
-0.3945668340 -0.1228047907 0.5993496180 4280820008
-0.3962537944 -0.1226610690 0.6019121408 4280753188
-0.3973987699 -0.1223447993 0.6036513448 4280424223
-0.3996282518 -0.1223567128 0.6070379615 4280818981
-0.4047517180 -0.1211929619 0.6148205400 4281016360
-0.4037264884 -0.1202046052 0.6132631898 4280950567
-0.4054142535 -0.1200228781 0.6158269048 4280753188
-0.4054737389 -0.1193561703 0.6159173250 4280687395
-0.4066187143 -0.1190069392 0.6176565289 4280555809
-0.4072207212 -0.1184958592 0.6185709834 4280753188
-0.4083655775 -0.1181397885 0.6203100085 4280884774
-0.4095104635 -0.1177798584 0.6220490932 4281082153
-0.4095689356 -0.1171054393 0.6221379042 4281147946
-0.4101703763 -0.1165851504 0.6230515242 4281147946
-0.4107716382 -0.1160627753 0.6239648461 4281147946
-0.3948954642 -0.1618356556 0.6008625627 4282400834
-0.3933660984 -0.1605438739 0.5985355377 4282795849
-0.3912998140 -0.1590390503 0.5953915119 4282532677
-0.3892323971 -0.1575407386 0.5922457576 4282072126
-0.3882363439 -0.1564812511 0.5907301903 4281677368
-0.3867032528 -0.1552095711 0.5883975029 4281677111
-0.3862421513 -0.1543715298 0.5876958966 4281413939
-0.3857805431 -0.1535348445 0.5869935155 4281281838
-0.3842451870 -0.1522741914 0.5846573710 4281084459
-0.3832456470 -0.1512301862 0.5831364989 4281017639
-0.3822454512 -0.1501892954 0.5816146135 4280820260
-0.3823184967 -0.1495716423 0.5817257762 4280819490
-0.3823912740 -0.1489536613 0.5818365216 4280622111
-0.3824637830 -0.1483353078 0.5819467902 4280751644
-0.3819987178 -0.1475091577 0.5812392235 4280554265
-0.3820705712 -0.1468909681 0.5813485384 4280356886
-0.3826796114 -0.1464781761 0.5822752118 4280159507
-0.3832885921 -0.1460632980 0.5832018256 4280159507
-0.3833598197 -0.1454423368 0.5833101869 4280225300
-0.3840392828 -0.1444016248 0.5843440890 4280356886
-0.3841097653 -0.1437787563 0.5844513178 4280422165
-0.3847180307 -0.1433560550 0.5853768587 4280422165
-0.3847880661 -0.1427316368 0.5854834318 4280422165
-0.3843195438 -0.1419081241 0.5847705007 4280487958
-0.3843889236 -0.1412838995 0.5848760605 4280553751
-0.3833810985 -0.1402653307 0.5833426118 4280619544
-0.3834497035 -0.1396421790 0.5834469795 4280816410
-0.3829793930 -0.1388234496 0.5827313662 4280882203
-0.3830473423 -0.1382005066 0.5828347802 4280750876
-0.3831150234 -0.1375772357 0.5829377174 4280685083
-0.3831824064 -0.1369536370 0.5830402374 4280751130
-0.3832495213 -0.1363297105 0.5831423998 4280816923
-0.3827772141 -0.1355145872 0.5824237466 4280816921
-0.3833828568 -0.1350808740 0.5833452940 4280882714
-0.3845277429 -0.1348341852 0.5850872993 4281014300
-0.3845939040 -0.1342071891 0.5851879716 4280948507
-0.3846597672 -0.1335798800 0.5852881670 4280752157
-0.3852649331 -0.1331387162 0.5862089992 4281081122
-0.3853303492 -0.1325098872 0.5863084793 4280688422
-0.3853954375 -0.1318807304 0.5864075422 4280885801
-0.3854602575 -0.1312512606 0.5865061879 4286808201
-0.3855247796 -0.1306214780 0.5866043568 4290953160
-0.3850489855 -0.1298093051 0.5858803988 4292203229
-0.3851128221 -0.1291797757 0.5859775543 4292992745
-0.3851763904 -0.1285499334 0.5860742927 4293255915
-0.3852396905 -0.1279197633 0.5861705542 4294111224
-0.3853026628 -0.1272892952 0.5862663984 4294703871
-0.3859058321 -0.1268361658 0.5871841908 4294967039
-0.3859683275 -0.1262041926 0.5872792602 4294901503
-0.3865711987 -0.1257477850 0.5881965756 4294901503
-0.3860924542 -0.1249393374 0.5874680877 4294901759
-0.3861540556 -0.1243064553 0.5875618458 4294901759
-0.3862153888 -0.1236732677 0.5876551867 4294769663
-0.3868174255 -0.1232120991 0.5885711908 4293190633
-0.3879604042 -0.1229203045 0.5903103352 4291610573
-0.3885622621 -0.1224540994 0.5912261605 4285426031
-0.3897052705 -0.1221554875 0.5929653049 4280425250
-0.3913896382 -0.1220217869 0.5955281854 4280820008
-0.3930742145 -0.1218824610 0.5980914235 4280621602
-0.3947589993 -0.1217374951 0.6006549001 4280424223
-0.4061345160 -0.1190661117 0.6179636121 4280687395
-0.4078204930 -0.1188709289 0.6205289364 4280621602
-0.4089642167 -0.1185129210 0.6222692132 4280687395
-0.4095654786 -0.1179947555 0.6231840253 4281082153
-0.4096822441 -0.1166431978 0.6233617067 4281082153
-0.4102828503 -0.1161205843 0.6242755651 4281016360
-0.4108832777 -0.1155958921 0.6251891851 4280950567
-0.4109406769 -0.1149173155 0.6252765656 4280492326
-0.3970159888 -0.1636524349 0.6051117182 4282005822
-0.3944193423 -0.1619141698 0.6011540294 4282663752
-0.3923566341 -0.1604029685 0.5980101824 4282795849
-0.3897574246 -0.1586803198 0.5940485597 4282335298
-0.3887633383 -0.1576172560 0.5925334096 4281874747
-0.3872329593 -0.1563410312 0.5902009010 4281545782
-0.3851659894 -0.1548542678 0.5870504975 4281414196
-0.3852410913 -0.1542320848 0.5871649981 4281216817
-0.3847800493 -0.1533958912 0.5864623189 4281150252
-0.3837824762 -0.1523482949 0.5849418640 4280952873
-0.3827842474 -0.1513038129 0.5834203959 4280886053
-0.3823215365 -0.1504734755 0.5827151537 4280688674
-0.3818583488 -0.1496445239 0.5820091963 4280622111
-0.3819310963 -0.1490262598 0.5821201205 4280424732
-0.3820035756 -0.1484076381 0.5822305679 4280488985
-0.3820757866 -0.1477886736 0.5823405981 4280357399
-0.3816109896 -0.1469626427 0.5816321969 4280160020
-0.3816825449 -0.1463438570 0.5817412734 4280028434
-0.3822907507 -0.1459296644 0.5826682448 4280093714
-0.3823618591 -0.1453092992 0.5827766657 4280159507
-0.3829698265 -0.1448917985 0.5837032199 4280225300
-0.3830404580 -0.1442698687 0.5838109255 4280291093
-0.3836481571 -0.1438490748 0.5847371221 4280422165
-0.3837183714 -0.1432255954 0.5848441124 4280356372
-0.3837882578 -0.1426017582 0.5849506855 4280356372
-0.3838579059 -0.1419775933 0.5850568414 4280422165
-0.3833895326 -0.1411551088 0.5843429565 4280487958
-0.3834585249 -0.1405311525 0.5844480991 4280619544
-0.3829892874 -0.1397106200 0.5837329626 4280685337
-0.3830576241 -0.1390868574 0.5838370323 4280751130
-0.3825875521 -0.1382682920 0.5831205845 4280882205
-0.3821170032 -0.1374511421 0.5824034214 4280750619
-0.3821842968 -0.1368281394 0.5825060010 4280751130
-0.3822512925 -0.1362048090 0.5826081038 4280751130
-0.3823180199 -0.1355811507 0.5827097893 4280685337
-0.3829230070 -0.1351472437 0.5836318731 4280816923
-0.3835279047 -0.1347112507 0.5845538378 4281013787
-0.3830552101 -0.1338965297 0.5838333964 4280947994
-0.3836597204 -0.1334581375 0.5847547650 4280620058
-0.3837251961 -0.1328310966 0.5848545432 4280883230
-0.3843294382 -0.1323894262 0.5857754946 4280818979
-0.3849335611 -0.1319456547 0.5866962671 4281213737
-0.3849983513 -0.1313159019 0.5867950320 4284504676
-0.3850628734 -0.1306858212 0.5868933797 4286215294
-0.3851270974 -0.1300554276 0.5869912505 4286610824
-0.3846515417 -0.1292434633 0.5862664580 4287860891
-0.3847150803 -0.1286133230 0.5863633156 4290032060
-0.3847783506 -0.1279828697 0.5864596963 4292071643
-0.3848413229 -0.1273521185 0.5865557194 4293782518
-0.3849039972 -0.1267210394 0.5866512656 4294506239
-0.3849664032 -0.1260896623 0.5867463350 4294901503
-0.3850285113 -0.1254579872 0.5868409872 4294901503
-0.3850903213 -0.1248259991 0.5869352221 4294901503
-0.3851518333 -0.1241937056 0.5870289803 4294901503
-0.3857533336 -0.1237344146 0.5879456997 4294967039
-0.3858143389 -0.1231006309 0.5880387425 4292861668
-0.3864155114 -0.1226380691 0.5889549851 4292268504
-0.3870165348 -0.1221734360 0.5898710489 4288057752
-0.3881580532 -0.1218764707 0.5916109085 4280556836
-0.3892996311 -0.1215756461 0.5933508277 4280688422
-0.4090178013 -0.1187290922 0.6234042645 4280555809
-0.4096184671 -0.1182097942 0.6243197322 4280884774
-0.4102189839 -0.1176884100 0.6252350211 4281147946
-0.4113613069 -0.1173195168 0.6269760728 4281147946
-0.4103353918 -0.1163320467 0.6254124641 4281016360
-0.4109352231 -0.1158062145 0.6263267398 4281016360
-0.4109927118 -0.1151264235 0.6264142990 4281018670
-0.3933294713 -0.1624077708 0.6005094647 4282400580
-0.3923389912 -0.1613332629 0.5989972353 4282597959
-0.3908131421 -0.1600428820 0.5966677070 4282598472
-0.3876821995 -0.1581030935 0.5918875933 4282072128
-0.3877587616 -0.1574765444 0.5920044780 4281743161
-0.3862302005 -0.1562006027 0.5896707773 4281611575
-0.3857708275 -0.1553604454 0.5889694095 4281414196
-0.3842406869 -0.1540924162 0.5866333246 4281216817
-0.3832449019 -0.1530429721 0.5851129889 4281084459
-0.3833191395 -0.1524223834 0.5852263570 4280821287
-0.3823221624 -0.1513774246 0.5837042332 4280820260
-0.3818600774 -0.1505467147 0.5829987526 4280557088
-0.3813975453 -0.1497173756 0.5822925568 4280555805
-0.3814702630 -0.1490988433 0.5824036002 4280358426
-0.3815427423 -0.1484799534 0.5825142264 4280488985
-0.3816149235 -0.1478607059 0.5826244354 4280291606
-0.3816868365 -0.1472411156 0.5827342272 4280094227
-0.3812223077 -0.1464152336 0.5820250511 4280028434
-0.3818298578 -0.1460008770 0.5829525590 4280094227
-0.3819009364 -0.1453802288 0.5830610991 4280160020
-0.3825082183 -0.1449625492 0.5839883089 4280225300
-0.3825788498 -0.1443403512 0.5840961337 4280159507
-0.3826492131 -0.1437178105 0.5842035413 4280291093
-0.3832560480 -0.1432956010 0.5851300359 4280291093
-0.3833259642 -0.1426714957 0.5852367282 4280356372
-0.3828586042 -0.1418481022 0.5845232010 4280356372
-0.3829278350 -0.1412241906 0.5846289396 4280422165
-0.3824596405 -0.1404027492 0.5839141011 4280487958
-0.3825282156 -0.1397790462 0.5840188265 4280619544
-0.3825965226 -0.1391550004 0.5841230750 4280685337
-0.3821270764 -0.1383360475 0.5834063888 4280816410
-0.3816571832 -0.1375185251 0.5826889873 4280750617
-0.3817244470 -0.1368952394 0.5827916861 4280685337
-0.3817914426 -0.1362716258 0.5828939676 4280685337
-0.3818581402 -0.1356476843 0.5829957724 4280685337
-0.3819245398 -0.1350234151 0.5830971599 4280751130
-0.3825286925 -0.1345881224 0.5840195417 4280882714
-0.3825946450 -0.1339623183 0.5841202140 4280882714
-0.3826602995 -0.1333362013 0.5842204690 4280422933
-0.3832639754 -0.1328964084 0.5851420760 4280817691
-0.3833291531 -0.1322687566 0.5852416158 4280621087
-0.3839325011 -0.1318256855 0.5861628056 4281410603
-0.3839972019 -0.1311965138 0.5862615705 4284307038
-0.3840616047 -0.1305670440 0.5863599181 4285820277
-0.3841257393 -0.1299372464 0.5864577889 4284965999
-0.3847284019 -0.1294884831 0.5873779058 4284702827
-0.3842530847 -0.1286766976 0.5866522789 4284374121
-0.3843163550 -0.1280459613 0.5867488384 4286611083
-0.3843792975 -0.1274149120 0.5868449211 4289505975
-0.3839027882 -0.1266057342 0.5861174464 4292071902
-0.3839650750 -0.1259749532 0.5862125158 4293914617
-0.3840270936 -0.1253438741 0.5863071680 4294638335
-0.3840887845 -0.1247124746 0.5864014030 4294704127
-0.3841502070 -0.1240807772 0.5864951611 4294835711
-0.3847509623 -0.1236221641 0.5874123573 4294704127
-0.3848118782 -0.1229889765 0.5875053406 4293717236
-0.3854122758 -0.1225270927 0.5884220004 4292334811
-0.3860125840 -0.1220631376 0.5893384814 4288189852
-0.3866127431 -0.1215971038 0.5902547836 4280885802
-0.3861326873 -0.1207911149 0.5895218849 4280556837
-0.4101515412 -0.1192600802 0.6261922717 4280687395
-0.4096694291 -0.1184249744 0.6254562140 4280555809
-0.4102693498 -0.1179024503 0.6263721585 4280753188
-0.4108691216 -0.1173778474 0.6272878051 4281213739
-0.4103859067 -0.1165436581 0.6265500784 4281082153
-0.4104436934 -0.1158638299 0.6266382933 4281016360
-0.4105011523 -0.1151837111 0.6267260313 4280886314
-0.4105582833 -0.1145033091 0.6268132925 4280952107
-0.3949084878 -0.1640077382 0.6039443016 4282400580
-0.3923189044 -0.1622656435 0.5999839306 4282597959
-0.3907956779 -0.1609715968 0.5976544619 4282466373
-0.3898055553 -0.1599013954 0.5961402059 4282466373
-0.3882806301 -0.1586160958 0.5938081145 4282005822
-0.3867547810 -0.1573356092 0.5914746523 4281611575
-0.3857623637 -0.1562763900 0.5899568796 4281545782
-0.3847692013 -0.1552202702 0.5884380341 4281479989
-0.3843098879 -0.1543819606 0.5877355933 4281216817
-0.3838500977 -0.1535450071 0.5870323777 4281018666
-0.3828550875 -0.1524964571 0.5855107307 4280689701
-0.3818594217 -0.1514510065 0.5839880109 4280688674
-0.3813979626 -0.1506199241 0.5832822919 4280425502
-0.3814710677 -0.1500006020 0.5833940506 4280358426
-0.3815438747 -0.1493809223 0.5835054517 4280226840
-0.3816164434 -0.1487608850 0.5836163759 4280423192
-0.3811533749 -0.1479327232 0.5829082131 4280291606
-0.3812252879 -0.1473128498 0.5830181837 4280094227
-0.3812969029 -0.1466926336 0.5831277370 4280028434
-0.3813682497 -0.1460720599 0.5832368135 4280094227
-0.3819750547 -0.1456554234 0.5841648579 4280160020
-0.3820459545 -0.1450332999 0.5842732787 4280094227
-0.3821165562 -0.1444108188 0.5843812823 4280028434
-0.3821868896 -0.1437879801 0.5844888091 4280291093
-0.3822569549 -0.1431648135 0.5845959783 4280291093
-0.3823267519 -0.1425413042 0.5847026706 4280225300
-0.3823962510 -0.1419174522 0.5848090053 4280291093
-0.3819290400 -0.1410951018 0.5840944648 4280291093
-0.3819978833 -0.1404714435 0.5841997862 4280291093
-0.3820664585 -0.1398474574 0.5843046308 4280487958
-0.3821347356 -0.1392231286 0.5844090581 4280487958
-0.3816659451 -0.1384038031 0.5836921334 4280488472
-0.3811966777 -0.1375859082 0.5829744339 4280488472
-0.3812639117 -0.1369623393 0.5830773115 4280488472
-0.3813309073 -0.1363384426 0.5831797123 4280488472
-0.3813975751 -0.1357142180 0.5832816958 4280620058
-0.3814639747 -0.1350896657 0.5833832622 4280620058
-0.3820674717 -0.1346541643 0.5843061805 4280620312
-0.3821333945 -0.1340280920 0.5844069719 4280686105
-0.3821990490 -0.1334016770 0.5845074058 4280357140
-0.3822644055 -0.1327749491 0.5846073627 4280686105
-0.3828671873 -0.1323337704 0.5855292082 4280620571
-0.3829320669 -0.1317055076 0.5856284499 4281607466
-0.3829966784 -0.1310769469 0.5857272148 4283845717
-0.3835989833 -0.1306312680 0.5866483450 4285358956
-0.3836630881 -0.1300011873 0.5867463946 4284965229
-0.3837268949 -0.1293707788 0.5868439674 4284833643
-0.3837904334 -0.1287400723 0.5869411230 4283781984
-0.3838536739 -0.1281090379 0.5870378613 4283518812
-0.3839166164 -0.1274776906 0.5871341228 4284308328
-0.3845178187 -0.1270239502 0.5880535245 4286874255
-0.3840416372 -0.1262140870 0.5873253345 4290296002
-0.3841037154 -0.1255818307 0.5874202251 4292861929
-0.3841654956 -0.1249492541 0.5875147581 4294046201
-0.3842269778 -0.1243163794 0.5876087546 4294440959
-0.3842881620 -0.1236831993 0.5877023339 4294374909
-0.3843490779 -0.1230497137 0.5877954960 4293322221
-0.3844096959 -0.1224159375 0.5878881812 4292663776
-0.3850092292 -0.1219526529 0.5888050795 4287005578
-0.3856086433 -0.1214872971 0.5897217989 4280688423
-0.3845897615 -0.1205127984 0.5881635547 4280754216
-0.4104343653 -0.1167554036 0.6276884675 4281082153
-0.4099513888 -0.1159214303 0.6269498467 4281213739
-0.4100088477 -0.1152409911 0.6270377040 4280623140
-0.4095249772 -0.1144091338 0.6262977123 4280952105
-0.4095817208 -0.1137290224 0.6263844967 4280754726
-0.3954147398 -0.1651704311 0.6057474017 4281808443
-0.3933623731 -0.1636435986 0.6026033759 4282729545
-0.3907757699 -0.1619023979 0.5986408591 4282795338
-0.3903207481 -0.1610495150 0.5979437828 4282466373
-0.3893318772 -0.1599788368 0.5964289308 4282203714
-0.3856751323 -0.1578198075 0.5908270478 4281743163
-0.3873520792 -0.1578467041 0.5933960080 4281414196
-0.3852938116 -0.1563521624 0.5902429223 4281348403
-0.3843019605 -0.1552955508 0.5887234211 4281348146
-0.3838432729 -0.1544568688 0.5880207419 4281216560
-0.3833841085 -0.1536195427 0.5873173475 4280952875
-0.3813222647 -0.1521443278 0.5841587186 4280623910
-0.3813959956 -0.1515245885 0.5842716694 4280557088
-0.3809351623 -0.1506931186 0.5835657716 4280293916
-0.3810082376 -0.1500735283 0.5836777091 4280292633
-0.3810810447 -0.1494535655 0.5837892294 4280226840
-0.3811535835 -0.1488332599 0.5839003325 4280094997
-0.3806911707 -0.1480047256 0.5831919312 4280029204
-0.3807630241 -0.1473845840 0.5833020806 4279963411
