VERSION 0.7
FIELDS x y z rgba
SIZE 4 4 4 4
TYPE F F F U
COUNT 1 1 1 1
WIDTH 920
HEIGHT 1
VIEWPOINT 0.0 0.0 0.0 1.0 0.0 0.0 0.0
POINTS 920
DATA ascii
-0.3202992678 -0.1322726309 0.5189299583 4280754978
-0.3208752871 -0.1319329143 0.5198631883 4280754978
-0.3219647706 -0.1318012923 0.5216283202 4280689955
-0.3215136230 -0.1310378611 0.5208973885 4280755748
-0.3231168091 -0.1311096251 0.5234947801 4280755494
-0.3242065609 -0.1309682131 0.5252603292 4280755494
-0.3232409060 -0.1299962401 0.5236958265 4280821287
-0.3253585398 -0.1302622110 0.5271267295 4280887080
-0.3317769766 -0.1304430217 0.5375254750 4281479732
-0.3380127549 -0.1322862357 0.5476282835 4281808443
-0.3391048014 -0.1321032047 0.5493975878 4281940029
-0.3401969671 -0.1319162995 0.5511670709 4281939772
-0.3407745063 -0.1315268278 0.5521027446 4282005565
-0.3413519859 -0.1311352402 0.5530382991 4282400840
-0.3414144218 -0.1305446476 0.5531395078 4282927184
-0.3409615457 -0.1297577322 0.5524057746 4283453528
-0.3410233855 -0.1291673928 0.5525059700 4283782493
-0.3405697346 -0.1283825040 0.5517709851 4283979872
-0.3396002948 -0.1274057478 0.5502003431 4284243044
-0.3391456604 -0.1266246885 0.5494637489 4284572009
-0.3392060697 -0.1260366440 0.5495616198 4284900974
-0.3382350206 -0.1250669807 0.5479884148 4285230709
-0.3377790451 -0.1242903471 0.5472496748 4285625467
-0.3373226523 -0.1235151961 0.5465102196 4286086020
-0.3368657827 -0.1227415204 0.5457700491 4286612364
-0.3364084959 -0.1219693348 0.5450291634 4287138708
-0.3359507620 -0.1211986318 0.5442875624 4287665052
-0.3360087276 -0.1206147000 0.5443814993 4288059810
-0.3360664546 -0.1200304627 0.5444750190 4288388775
-0.3356075585 -0.1192624494 0.5437315702 4289309107
-0.3356646597 -0.1186785176 0.5438240767 4289506486
-0.3357215226 -0.1180942804 0.5439161658 4289769658
-0.3352615237 -0.1173289642 0.5431709290 4289967037
-0.3353177309 -0.1167450398 0.5432620049 4290165186
-0.3353736997 -0.1161608249 0.5433526635 4290428358
-0.3343957365 -0.1152201518 0.5417682528 4290625737
-0.3344510198 -0.1146371514 0.5418577790 4290888909
-0.3345060050 -0.1140538603 0.5419468880 4290625737
-0.3345607519 -0.1134702936 0.5420355797 4290691530
-0.3346152604 -0.1128864288 0.5421238542 4290954702
-0.3346694708 -0.1123022884 0.5422117114 4290954702
-0.3347234130 -0.1117178574 0.5422991514 4290954448
-0.3347771168 -0.1111331508 0.5423861146 4290954448
-0.3348305523 -0.1105481610 0.5424726605 4291020241
-0.3348837197 -0.1099628881 0.5425587893 4291086034
-0.3354542851 -0.1095463932 0.5434831977 4290822346
-0.3355070055 -0.1089596674 0.5435686111 4291151311
-0.3355594277 -0.1083726585 0.5436536074 4290953932
-0.3361295462 -0.1079517156 0.5445772409 4291217104
-0.3361815214 -0.1073632538 0.5446614623 4291152081
-0.3367513418 -0.1069390476 0.5455846190 4290888909
-0.3378391862 -0.1066763625 0.5473470688 4290362563
-0.3259699643 -0.1571947932 0.5290693641 4287929752
-0.3265518248 -0.1568865031 0.5300136805 4286811271
-0.3250986338 -0.1556020677 0.5276550651 4288382483
-0.3231356442 -0.1540798098 0.5244690180 4288382483
-0.3237164617 -0.1537729949 0.5254117846 4287792905
-0.3207336068 -0.1517776698 0.5205703378 4287529733
-0.3197859824 -0.1507525593 0.5190323591 4288054805
-0.3193470538 -0.1499697417 0.5183199048 4288120598
-0.3199265301 -0.1496649384 0.5192604661 4288252435
-0.3189773560 -0.1486456841 0.5177199244 4288318228
-0.3180275261 -0.1476295441 0.5161782503 4288318481
-0.3180965781 -0.1470879614 0.5162903070 4288450067
-0.3181653917 -0.1465460211 0.5164020061 4288450067
-0.3177239895 -0.1457697600 0.5156856179 4288252688
-0.3183023632 -0.1454610974 0.5166243315 4288186896
-0.3183704913 -0.1449180990 0.5167348981 4288252689
-0.3184384108 -0.1443747729 0.5168451667 4288384275
-0.3185060918 -0.1438310891 0.5169550180 4288384275
-0.3185735643 -0.1432870477 0.5170645118 4288384021
-0.3186407983 -0.1427426785 0.5171736479 4288449814
-0.3181970716 -0.1419700682 0.5164533854 4288449818
-0.3182637393 -0.1414258927 0.5165616274 4288515611
-0.3178192079 -0.1406552196 0.5158401728 4288121118
-0.3173742592 -0.1398859620 0.5151179433 4288121118
-0.3169288635 -0.1391181201 0.5143950582 4287989534
-0.3175055683 -0.1387986988 0.5153310895 4287923741
-0.3170594871 -0.1380319446 0.5146070719 4287858719
-0.3166129887 -0.1372665912 0.5138823986 4287858719
-0.3161660433 -0.1365026683 0.5131569505 4287661866
-0.3167420626 -0.1361801624 0.5140918493 4287661866
-0.3162944317 -0.1354173273 0.5133653283 4287332917
-0.3168701828 -0.1350924075 0.5142998099 4287332917
-0.3169339299 -0.1345480382 0.5144032836 4287596348
-0.3169974089 -0.1340033412 0.5145063400 4287596348
-0.3170606792 -0.1334583163 0.5146089792 4287925326
-0.3176360130 -0.1331276745 0.5155428052 4288056912
-0.3176988959 -0.1325811148 0.5156449080 4288122481
-0.3177615702 -0.1320342422 0.5157465935 4288319860
-0.3183366060 -0.1316991150 0.5166799426 4287729552
-0.3189116418 -0.1313618869 0.5176131725 4288058517
-0.3199994266 -0.1312329024 0.5193787813 4288190618
-0.3195486069 -0.1304717660 0.5186470747 4288256411
-0.3211494684 -0.1305462420 0.5212453604 4288256157
-0.3217244148 -0.1301997900 0.5221785307 4288387743
-0.3202464581 -0.1290241629 0.5197797418 4288519329
-0.3223608732 -0.1292947084 0.5232115388 4288585122
-0.3260160685 -0.1301728487 0.5291441679 4288387743
-0.3296723962 -0.1310382485 0.5350785851 4288585122
-0.3281937540 -0.1298586726 0.5326786637 4288717222
-0.3323650360 -0.1309097856 0.5394489169 4288914601
-0.3344824016 -0.1311405748 0.5428855419 4289309105
-0.3335168958 -0.1301605850 0.5413184762 4289506484
-0.3294668496 -0.1279858500 0.5347449780 4289440945
-0.3351826370 -0.1296017617 0.5440220237 4289572531
-0.3352442682 -0.1290210485 0.5441220999 4289375927
-0.3347913921 -0.1282429993 0.5433870554 4289639099
-0.3348524272 -0.1276625395 0.5434861183 4289967807
-0.3343987465 -0.1268865317 0.5427497625 4290033600
-0.3344591856 -0.1263063252 0.5428478122 4289967807
-0.3334900737 -0.1253389567 0.5412749052 4289967807
-0.3335497975 -0.1247598976 0.5413718820 4290099393
-0.3330944479 -0.1239889041 0.5406327844 4290165186
-0.3326386809 -0.1232193857 0.5398930311 4290165186
-0.3321824372 -0.1224513501 0.5391525626 4290296772
-0.3317257762 -0.1216847971 0.5384113789 4290428358
-0.3312686980 -0.1209197342 0.5376694798 4290494151
-0.3313264549 -0.1203433201 0.5377632380 4290494151
-0.3308685720 -0.1195803434 0.5370200276 4290362565
-0.3314411640 -0.1191895902 0.5379494429 4290296772
-0.3314981461 -0.1186122820 0.5380418897 4290296772
-0.3315548897 -0.1180346683 0.5381339788 4290296772
-0.3316113353 -0.1174567640 0.5382256508 4290494151
-0.3311517537 -0.1166967973 0.5374796391 4290559944
-0.3306916952 -0.1159383282 0.5367329717 4290428358
-0.3307472169 -0.1153613478 0.5368230939 4290362311
-0.3308024704 -0.1147840694 0.5369127989 4290296518
-0.3303413093 -0.1140283346 0.5361642838 4290362311
-0.3303959668 -0.1134513840 0.5362529755 4290428104
-0.3304503560 -0.1128741503 0.5363413095 4290757069
-0.3305045068 -0.1122966334 0.5364291668 4290559690
-0.3305583894 -0.1117188260 0.5365166068 4290559690
-0.3306120038 -0.1111407429 0.5366036296 4290625483
-0.3306653500 -0.1105623767 0.5366902351 4290888655
-0.3312352002 -0.1101555824 0.5376151204 4291151827
-0.3312880993 -0.1095757559 0.5377010107 4291086034
-0.3318576515 -0.1091656908 0.5386254191 4291020241
-0.3319101334 -0.1085844040 0.5387105942 4291151311
-0.3324794173 -0.1081710756 0.5396345854 4291085518
-0.3330485821 -0.1077556536 0.5405583978 4290888909
-0.3331004381 -0.1071717367 0.5406424999 4291283667
-0.3336693347 -0.1067530513 0.5415658355 4291546839
-0.3342381120 -0.1063322797 0.5424889922 4291086288
-0.3348067701 -0.1059094220 0.5434120297 4290362565
-0.3250261545 -0.1570227146 0.5284901857 4288192928
-0.3245912492 -0.1562262028 0.5277829766 4286877068
-0.3236477971 -0.1551874131 0.5262489319 4288316429
-0.3211790919 -0.1534234434 0.5222348571 4288382222
-0.3222671747 -0.1533610076 0.5240041018 4288055058
-0.3208133876 -0.1520895958 0.5216402411 4287791886
-0.3188501596 -0.1505828500 0.5184480548 4287990282
-0.3184117675 -0.1498005688 0.5177351832 4287990282
-0.3179728985 -0.1490196586 0.5170216560 4287990535
-0.3175336123 -0.1482401192 0.5163073540 4287990535
-0.3176028430 -0.1476986557 0.5164199471 4288121354
-0.3171627820 -0.1469210237 0.5157043338 4288121354
-0.3172314465 -0.1463797241 0.5158160329 4288252437
-0.3172999024 -0.1458380818 0.5159273148 4288384023
-0.3173681498 -0.1452960968 0.5160382986 4288252184
-0.3174361587 -0.1447537392 0.5161488652 4288515356
-0.3175039291 -0.1442110538 0.5162590742 4288384791
-0.3170617223 -0.1434374154 0.5155400634 4288318998
-0.3171289563 -0.1428948939 0.5156493783 4288450065
-0.3171959519 -0.1423520297 0.5157582760 4288384272
-0.3167526424 -0.1415808499 0.5150374770 4288449808
-0.3168190718 -0.1410381794 0.5151455402 4288515601
-0.3163750172 -0.1402689219 0.5144234300 4288909328
-0.3164408803 -0.1397264451 0.5145305395 4289040914
-0.3165065050 -0.1391836405 0.5146372914 4289106958
-0.3165719211 -0.1386404932 0.5147436261 4289106958
-0.3161264062 -0.1378742605 0.5140192509 4289107467
-0.3156804442 -0.1371094584 0.5132941008 4289107467
-0.3157449663 -0.1365670562 0.5133990049 4288845075
-0.3158092499 -0.1360243261 0.5135035515 4288976661
-0.3158733249 -0.1354812533 0.5136076808 4288977431
-0.3159371316 -0.1349378675 0.5137115121 4288780052
-0.3160007298 -0.1343941391 0.5138149261 4288912397
-0.3165755272 -0.1340666711 0.5147495270 4289043983
-0.3161272407 -0.1333057135 0.5140205622 4289241899
-0.3167017698 -0.1329758316 0.5149547458 4289505071
-0.3167645335 -0.1324299276 0.5150568485 4289570148
-0.3168270886 -0.1318836957 0.5151585340 4289701734
-0.3174013197 -0.1315493137 0.5160922408 4289111467
-0.3174634874 -0.1310015470 0.5161933303 4289572018
-0.3185496926 -0.1308742762 0.5179594755 4289703863
-0.3180993497 -0.1301145852 0.5172272325 4289572277
-0.3191855848 -0.1299822628 0.5189934373 4289572277
-0.3207844198 -0.1300538182 0.5215930939 4289572277
-0.3187958598 -0.1286716759 0.5183597207 4289572277
-0.3239831030 -0.1301800460 0.5267941952 4289638070
-0.3230193257 -0.1292092204 0.5252270699 4289769656
-0.3225677609 -0.1284458339 0.5244928002 4289901242
-0.3257061839 -0.1291071326 0.5295959115 4289704381
-0.3267934918 -0.1289477497 0.5313637853 4289638588
-0.3278808892 -0.1287844777 0.5331319571 4289836480
-0.3284552395 -0.1284166873 0.5340658426 4289902273
-0.3295428455 -0.1282465458 0.5358342528 4289704381
-0.3260099590 -0.1262827069 0.5300897956 4289835967
-0.3291509449 -0.1269047558 0.5351970196 4289704894
-0.3292112648 -0.1263332516 0.5352951288 4289770687
-0.3287576437 -0.1255652606 0.5345575213 4289968066
-0.3288173974 -0.1249940321 0.5346546769 4290033859
-0.3288768828 -0.1244224980 0.5347514153 4290033346
-0.3284221292 -0.1236571297 0.5340120196 4290099139
-0.3284810185 -0.1230858713 0.5341077447 4290164932
-0.3280255198 -0.1223225743 0.5333670974 4290164932
-0.3275695741 -0.1215607673 0.5326257348 4290164932
-0.3276275098 -0.1209903806 0.5327199697 4290164932
-0.3271707892 -0.1202306524 0.5319772959 4290296002
-0.3272281289 -0.1196605638 0.5320705771 4290361795
-0.3272852302 -0.1190901697 0.5321634412 4290427588
-0.3273420930 -0.1185194775 0.5322558284 4290427588
-0.3273986876 -0.1179484949 0.5323478580 4290427588
-0.3274550140 -0.1173772141 0.5324394703 4290493381
-0.3275111020 -0.1168056354 0.5325306654 4290428104
-0.3275669515 -0.1162337661 0.5326214433 4290362311
-0.3271073699 -0.1154797524 0.5318742394 4290296518
-0.3271626234 -0.1149081960 0.5319640040 4290296518
-0.3272176087 -0.1143363565 0.5320534110 4290428104
-0.3272723258 -0.1137642339 0.5321424007 4290625483
-0.3268113136 -0.1130135655 0.5313928127 4290625483
-0.3273809850 -0.1126191169 0.5323191285 4290493897
-0.3274349272 -0.1120461375 0.5324068069 4290296518
-0.3269729018 -0.1112973243 0.5316555500 4290493897
-0.3275420666 -0.1108993217 0.5325810313 4290625483
-0.3275952339 -0.1103254929 0.5326674581 4290625483
-0.3281641304 -0.1099242270 0.5335925221 4290757069
-0.3282168806 -0.1093489379 0.5336782336 4291020241
-0.3287855089 -0.1089444011 0.5346028209 4291151827
-0.3288378119 -0.1083676517 0.5346878767 4291283413
-0.3294061720 -0.1079598516 0.5356120467 4290953932
-0.3299744129 -0.1075499579 0.5365359783 4291151311
-0.3305425644 -0.1071379855 0.5374597907 4291349460
-0.3311106265 -0.1067239270 0.5383834839 4291283667
-0.3311619461 -0.1061421856 0.5384669304 4291415510
-0.3317297101 -0.1057248637 0.5393900871 4291283924
-0.3328141570 -0.1054692268 0.5411533713 4290560201
-0.3235759139 -0.1566049159 0.5270839930 4288059292
-0.3226341605 -0.1555651873 0.5255498886 4286875018
-0.3221990764 -0.1547722816 0.5248411894 4287661330
-0.3207485676 -0.1534949839 0.5224784017 4287661330
-0.3218352497 -0.1534325480 0.5242485404 4287596550
-0.3198757470 -0.1519194394 0.5210565925 4287464964
-0.3189308047 -0.1508934349 0.5195173621 4288318481
-0.3179852068 -0.1498705447 0.5179770589 4287923723
-0.3175469935 -0.1490892917 0.5172632337 4288187145
-0.3171083629 -0.1483094245 0.5165487528 4288121352
-0.3167381585 -0.1469897777 0.5159456730 4288055561
-0.3162982762 -0.1462131888 0.5152291656 4287923721
-0.3163666129 -0.1456721872 0.5153404474 4288121100
-0.3164346814 -0.1451308429 0.5154513717 4288252686
-0.3165025711 -0.1445891410 0.5155619383 4288450065
-0.3165702224 -0.1440470964 0.5156721473 4288516377
-0.3166376352 -0.1435047090 0.5157819390 4288121619
-0.3161956370 -0.1427321285 0.5150619745 4288450582
-0.3162625134 -0.1421899050 0.5151708722 4288450582
-0.3163291514 -0.1416473538 0.5152794123 4288516375
-0.3158860505 -0.1408772320 0.5145576596 4288253203
-0.3159521222 -0.1403348744 0.5146653056 4288516112
-0.3155082762 -0.1395667046 0.5139423013 4288581905
-0.3155737817 -0.1390245408 0.5140489936 4288647185
-0.3156390488 -0.1384820342 0.5141553283 4288910357
-0.3157041073 -0.1379391849 0.5142613053 4288647947
-0.3152588010 -0.1371740550 0.5135359168 4289042705
-0.3153232932 -0.1366314143 0.5136409998 4288780309
-0.3153875768 -0.1360884607 0.5137456656 4288977688
-0.3154515922 -0.1355451643 0.5138499737 4288844566
-0.3155153990 -0.1350015402 0.5139539242 4288844566
-0.3155789673 -0.1344575882 0.5140574574 4289172238
-0.3156422973 -0.1339133084 0.5141606331 4289303824
-0.3151945770 -0.1331528872 0.5134313107 4289108522
-0.3157683015 -0.1328237653 0.5143658519 4289503280
-0.3163419962 -0.1324925423 0.5153003931 4288979819
-0.3164044917 -0.1319460720 0.5154021978 4289177198
-0.3164667785 -0.1313992888 0.5155036449 4289440432
-0.3160174787 -0.1306407750 0.5147717595 4289506225
-0.3171020746 -0.1305152476 0.5165385008 4289506227
-0.3171637654 -0.1299666017 0.5166389942 4289506227
-0.3177368343 -0.1296263784 0.5175725222 4289572020
-0.3193334043 -0.1296997815 0.5201731920 4289572020
-0.3199678361 -0.1287992597 0.5212066174 4289374898
-0.3210529089 -0.1286549717 0.5229741335 4289441461
-0.3200895488 -0.1276896149 0.5214048624 4289375668
-0.3227112293 -0.1281514019 0.5256754756 4289244341
-0.3237966299 -0.1279963851 0.5274435282 4289244341
-0.3243697584 -0.1276358813 0.5283770561 4289376697
-0.3249428272 -0.1272732764 0.5293105841 4289639869
-0.3255158365 -0.1269085705 0.5302439332 4289574589
-0.3250633478 -0.1261438429 0.5295069218 4289377210
-0.3230719864 -0.1247863621 0.5262631178 4289508798
-0.3251828849 -0.1250131577 0.5297015905 4289443005
-0.3252422810 -0.1244473457 0.5297983885 4289639871
-0.3253014386 -0.1238812283 0.5298947096 4289508285
-0.3253603280 -0.1233147979 0.5299906731 4289574078
-0.3254189789 -0.1227480695 0.5300862193 4289574078
-0.3249640167 -0.1219883114 0.5293450952 4290034629
-0.3250221014 -0.1214218661 0.5294396877 4289837250
-0.3245663345 -0.1206641868 0.5286973119 4289836480
-0.3246238232 -0.1200980321 0.5287909508 4289836480
-0.3246810436 -0.1195315719 0.5288841128 4289770174
-0.3247379959 -0.1189648136 0.5289769173 4289901760
-0.3247947395 -0.1183977574 0.5290693045 4290098625
-0.3243371844 -0.1176439673 0.5283240080 4290230211
-0.3249074221 -0.1172627583 0.5292528868 4290032832
-0.3249633908 -0.1166948229 0.5293440223 4290164418
-0.3250190914 -0.1161265895 0.5294348001 4290033600
-0.3250745535 -0.1155580580 0.5295251608 4289967807
-0.3246152997 -0.1148073003 0.5287770629 4289967807
-0.3246701658 -0.1142390966 0.5288664103 4290033600
-0.3247247934 -0.1136706024 0.5289554000 4290033346
-0.3247791529 -0.1131018251 0.5290439129 4289967553
-0.3248332441 -0.1125327647 0.5291320682 4289967553
-0.3248870969 -0.1119634137 0.5292198062 4290033346
-0.3249406815 -0.1113937870 0.5293070674 4290033346
-0.3249940276 -0.1108238772 0.5293939710 4290099139
-0.3250471056 -0.1102536842 0.5294803977 4290230725
-0.3256151378 -0.1098570377 0.5304057002 4290362311
-0.3256677687 -0.1092853919 0.5304914713 4290493898
-0.3262355626 -0.1088854745 0.5314163566 4290559691
-0.3262877762 -0.1083123684 0.5315014124 4290691277
-0.3263397217 -0.1077389866 0.5315859914 4290757070
-0.3269070387 -0.1073346287 0.5325101614 4290626766
-0.3274742663 -0.1069281846 0.5334341526 4290758352
-0.3280414045 -0.1065196544 0.5343579650 4290758352
-0.3286084235 -0.1061090380 0.5352815986 4290626766
-0.3291753531 -0.1056963354 0.5362050533 4290626766
-0.3297421634 -0.1052815542 0.5371283889 4290495180
-0.3303088844 -0.1048646793 0.5380515456 4289639869
-0.3230678141 -0.1572281569 0.5272101164 4288257438
-0.3227069378 -0.1558823138 0.5266212225 4286875017
-0.3207525015 -0.1543566585 0.5234317780 4286937868
-0.3203174174 -0.1535664946 0.5227218270 4287201040
-0.3193749487 -0.1525355875 0.5211837888 4287267850
-0.3194459081 -0.1519902796 0.5212996006 4286938885
-0.3185023069 -0.1509638280 0.5197597742 4287923975
-0.3175580502 -0.1499404907 0.5182188153 4288187147
-0.3171204925 -0.1491589099 0.5175048113 4287989514
-0.3166825175 -0.1483787149 0.5167900324 4288186893
-0.3162440658 -0.1475998908 0.5160745382 4287792386
-0.3158051968 -0.1468224525 0.5153583884 4288055558
-0.3158737123 -0.1462815851 0.5154701471 4288121102
-0.3154340684 -0.1455060542 0.5147526860 4288252688
-0.3155020177 -0.1449653506 0.5148636103 4288384524
-0.3155697584 -0.1444242895 0.5149741173 4288450317
-0.3156372607 -0.1438829005 0.5150843263 4288450319
-0.3157045543 -0.1433411539 0.5151941180 4288516112
-0.3152631223 -0.1425691098 0.5144737363 4288252686
-0.3153298199 -0.1420275420 0.5145826340 4288450065
-0.3153963387 -0.1414856315 0.5146911144 4288581651
-0.3154626191 -0.1409433931 0.5147992969 4288515858
-0.3150197268 -0.1401743442 0.5140765905 4288317715
-0.3150854409 -0.1396322846 0.5141838193 4288909852
-0.3151509166 -0.1390898973 0.5142906904 4288777498
-0.3152161837 -0.1385471672 0.5143971443 4289172256
-0.3152812123 -0.1380040944 0.5145033002 4288778519
-0.3148365617 -0.1372386217 0.5137776732 4289107484
-0.3149010241 -0.1366957575 0.5138828754 4288779297
-0.3149652779 -0.1361525655 0.5139877200 4288910883
-0.3150292933 -0.1356090456 0.5140921474 4288778268
-0.3150930703 -0.1350651830 0.5141962171 4288909854
-0.3146466315 -0.1343033314 0.5134677291 4289106707
-0.3141997755 -0.1335429102 0.5127385259 4289238293
-0.3147728443 -0.1332157403 0.5136736631 4288912677
-0.3153458536 -0.1328864843 0.5146087408 4289307435
-0.3154084682 -0.1323409826 0.5147109628 4288848494
-0.3144499063 -0.1313686520 0.5131466985 4289111666
-0.3155330122 -0.1312490255 0.5149141550 4289440693
-0.3161056042 -0.1309140623 0.5158485770 4289440693
-0.3161673844 -0.1303663850 0.5159494281 4289835451
-0.3162289262 -0.1298183948 0.5160498619 4289309107
-0.3178845346 -0.1293453127 0.5187516212 4289506486
-0.3169233203 -0.1283795834 0.5171830058 4289046705
-0.3185178339 -0.1284479648 0.5197850466 4289375670
-0.3190899491 -0.1281001270 0.5207186937 4289112755
-0.3186390996 -0.1273413897 0.5199829936 4289046962
-0.3202340603 -0.1273981780 0.5225857496 4289113527
-0.3208060265 -0.1270440519 0.5235191584 4289310906
-0.3213779628 -0.1266878396 0.5244524479 4289443005
-0.3219498396 -0.1263295412 0.5253857374 4289443005
-0.3225216568 -0.1259691417 0.5263188481 4289377212
-0.3220693767 -0.1252085268 0.5255807638 4289179833
-0.3205923736 -0.1240530461 0.5231704712 4289378239
-0.3221879303 -0.1240862682 0.5257742405 4289049274
-0.3222468197 -0.1235246733 0.5258703828 4289509055
-0.3223054707 -0.1229627728 0.5259661078 4289574848
-0.3223639131 -0.1224005669 0.5260614157 4289640384
-0.3224220574 -0.1218380556 0.5261563659 4289771970
-0.3224799931 -0.1212752461 0.5262508392 4289771970
-0.3225376606 -0.1207121238 0.5263449550 4289771970
-0.3225950897 -0.1201487035 0.5264387131 4289640384
-0.3221392930 -0.1193948686 0.5256949067 4289640384
-0.3221961558 -0.1188317463 0.5257876515 4289573306
-0.3222527206 -0.1182683259 0.5258799791 4289836478
-0.3223090768 -0.1177046075 0.5259719491 4289968064
-0.3223651648 -0.1171405986 0.5260635018 4289836478
-0.3224210143 -0.1165762991 0.5261545777 4289770685
-0.3224765956 -0.1160117015 0.5262452960 4289836478
-0.3225319386 -0.1154468134 0.5263355970 4289902273
-0.3225870132 -0.1148816347 0.5264255404 4289902273
-0.3226418495 -0.1143161654 0.5265150070 4289902273
-0.3226964474 -0.1137504056 0.5266040564 4289968066
-0.3227507770 -0.1131843701 0.5266927481 4289968066
-0.3228048384 -0.1126180440 0.5267809629 4289968066
-0.3233727813 -0.1122298539 0.5277078152 4289968066
-0.3234264255 -0.1116620600 0.5277953744 4290033859
-0.3234798312 -0.1110939831 0.5278825164 4289968066
-0.3235329688 -0.1105256230 0.5279692411 4290099652
-0.3235858679 -0.1099569798 0.5280555487 4290165446
-0.3241530359 -0.1095619723 0.5289810896 4290231239
-0.3242054880 -0.1089918762 0.5290666819 4290428618
-0.3242577016 -0.1084214970 0.5291519165 4290560204
-0.3248244226 -0.1080220416 0.5300767422 4290560204
-0.3253910542 -0.1076205000 0.5310013890 4290691790
-0.3254426420 -0.1070474908 0.5310856104 4290494925
-0.3260090053 -0.1066426784 0.5320098400 4290692304
-0.3270903826 -0.1064033508 0.5337744951 4290758352
-0.3276566267 -0.1059934571 0.5346985459 4290758352
-0.3282227516 -0.1055814847 0.5356224179 4290758352
-0.3287887871 -0.1051674262 0.5365461111 4290495180
-0.3293547332 -0.1047512814 0.5374696851 4289639869
-0.3221263885 -0.1570546627 0.5266283751 4288192158
-0.3217659295 -0.1557099819 0.5260390639 4286283910
-0.3213321865 -0.1549164057 0.5253299475 4284109056
-0.3203918338 -0.1538810879 0.5237926245 4284240640
-0.3199570775 -0.1530910879 0.5230818391 4285753867
-0.3180027306 -0.1515783519 0.5198867917 4284372224
-0.3170602620 -0.1505531967 0.5183459520 4285950722
-0.3166236877 -0.1497707814 0.5176322460 4286937617
-0.3166933954 -0.1492284983 0.5177462101 4287201040
-0.3162560761 -0.1484479606 0.5170312524 4287727384
-0.3158182800 -0.1476688087 0.5163155198 4287660827
-0.3148730099 -0.1466548741 0.5147701502 4288121378
-0.3154485524 -0.1463499367 0.5157110691 4287595537
-0.3150095642 -0.1455740780 0.5149933696 4287792916
-0.3150774837 -0.1450331509 0.5151044130 4288055323
-0.3151451945 -0.1444918811 0.5152150989 4288318495
-0.3152126670 -0.1439502537 0.5153254271 4288122122
-0.3147722185 -0.1431773454 0.5146054029 4288385294
-0.3148391545 -0.1426359117 0.5147147775 4288450065
-0.3143979311 -0.1418649256 0.5139934421 4288581651
-0.3144643009 -0.1413236707 0.5141019821 4288450067
-0.3145304322 -0.1407820731 0.5142101049 4288384274
-0.3140881062 -0.1400135756 0.5134869814 4288844045
-0.3141537011 -0.1394721717 0.5135941505 4289041424
-0.3142190576 -0.1389304250 0.5137010217 4288777742
-0.3142841756 -0.1383883357 0.5138074756 4289106707
-0.3143490553 -0.1378459185 0.5139135718 4289238805
-0.3144137263 -0.1373031586 0.5140193105 4289173012
-0.3144781888 -0.1367600709 0.5141246319 4289041951
-0.3140334189 -0.1359962374 0.5133975148 4289173537
-0.3140972853 -0.1354533732 0.5135019422 4288844059
-0.3141609430 -0.1349101663 0.5136060119 4288909852
-0.3142243624 -0.1343666315 0.5137097239 4289040921
-0.3137781620 -0.1336058676 0.5129802227 4289238300
-0.3138410151 -0.1330625564 0.5130829811 4288847913
-0.3139036596 -0.1325189322 0.5131853819 4289176878
-0.3139660358 -0.1319749653 0.5132873654 4288586367
-0.3140282035 -0.1314306855 0.5133889914 4288915332
-0.3146000206 -0.1310985535 0.5143238306 4289441463
-0.3146618009 -0.1305527389 0.5144248605 4289178291
-0.3147233725 -0.1300066113 0.5145254731 4289178291
-0.3147846758 -0.1294601560 0.5146257281 4289178291
-0.3158663511 -0.1293312609 0.5163941383 4289046962
-0.3164377809 -0.1289904416 0.5173283219 4289112755
-0.3159882128 -0.1282332093 0.5165933371 4289113527
-0.3170699477 -0.1280962676 0.5183618069 4288916148
-0.3176411688 -0.1277500540 0.5192956924 4289179833
-0.3171907961 -0.1269927621 0.5185593963 4288850868
-0.3187834620 -0.1270513684 0.5211631656 4288785075
-0.3188435733 -0.1264961660 0.5212614536 4288850868
-0.3194145262 -0.1261424869 0.5221948028 4288916661
-0.3194742501 -0.1255857646 0.5222924948 4289048247
-0.3200449646 -0.1252287775 0.5232255459 4289048505
-0.3201043010 -0.1246705502 0.5233225226 4289048505
-0.3201633990 -0.1241120100 0.5234191418 4289247166
-0.3202222586 -0.1235531569 0.5235153437 4289312959
-0.3202808499 -0.1229939982 0.5236111879 4289312446
-0.3203392029 -0.1224345341 0.5237065554 4289180860
-0.3203973174 -0.1218747646 0.5238015652 4289246653
-0.3204551935 -0.1213146895 0.5238961577 4289444032
-0.3200008273 -0.1205614135 0.5231533647 4289312446
-0.3200581074 -0.1200016290 0.5232470036 4289509825
-0.3201151490 -0.1194415465 0.5233402252 4289575102
-0.3201719224 -0.1188811660 0.5234330893 4289640895
-0.3202284873 -0.1183204874 0.5235255361 4289574589
-0.3197723329 -0.1175711006 0.5227797627 4289640382
-0.3203408122 -0.1171982437 0.5237091780 4289903041
-0.3203966320 -0.1166366786 0.5238004327 4289705662
-0.3204521835 -0.1160748228 0.5238912702 4289837248
-0.3210203052 -0.1156974882 0.5248200297 4289771455
-0.3210754395 -0.1151341498 0.5249101520 4289771457
-0.3211303353 -0.1145705208 0.5249999166 4289837250
-0.3211849630 -0.1140066087 0.5250892639 4289837250
-0.3212393522 -0.1134423986 0.5251781344 4289837250
-0.3212935030 -0.1128779128 0.5252666473 4289837250
-0.3213473856 -0.1123131365 0.5253547430 4289903043
-0.3214010000 -0.1117480770 0.5254424214 4289903043
-0.3219678998 -0.1113603413 0.5263692141 4289903043
-0.3220210969 -0.1107938141 0.5264562368 4289902788
-0.3220740557 -0.1102270111 0.5265427828 4290034374
-0.3226405084 -0.1098348200 0.5274688601 4290034374
-0.3226930499 -0.1092665493 0.5275547504 4290165960
-0.3227453232 -0.1086980104 0.5276402235 4290363339
-0.3227973580 -0.1081291884 0.5277252793 4290429132
-0.3233632147 -0.1077313647 0.5286503434 4290429132
-0.3234148026 -0.1071610898 0.5287346840 4290560718
-0.3244946301 -0.1069294661 0.5305000544 4290560718
-0.3245458603 -0.1063568294 0.5305838585 4290692304
-0.3256256878 -0.1061192155 0.5323491693 4290758097
-0.3261910677 -0.1057109684 0.5332734585 4290758097
-0.3267563283 -0.1053006276 0.5341976285 4290758352
-0.3278361559 -0.1050531194 0.5359629393 4290495180
-0.3284012973 -0.1046376973 0.5368868709 4289639871
-0.3211128414 -0.1574296355 0.5259262919 4288324007
-0.3216907680 -0.1571275741 0.5268728137 4288258214
-0.3212584555 -0.1563318074 0.5261647701 4287863205
-0.3213309348 -0.1557823420 0.5262835026 4286284173
-0.3203924596 -0.1547443420 0.5247464776 4282463744
-0.3199588060 -0.1539526433 0.5240362287 4282266368
-0.3195247054 -0.1531623155 0.5233252048 4283187717
-0.3185844421 -0.1521318704 0.5217852592 4281806080
-0.3176435232 -0.1511045396 0.5202441812 4282924544
-0.3167019486 -0.1500802934 0.5187020302 4284174611
-0.3157596886 -0.1490591764 0.5171587467 4284306200
-0.3153228760 -0.1482791752 0.5164433718 4283187719
-0.3154606819 -0.1471958607 0.5166690946 4285030162
-0.3145163357 -0.1461828798 0.5151223540 4284503302
-0.3145844340 -0.1456420869 0.5152339339 4284898060
-0.3146523535 -0.1451009363 0.5153451562 4286016788
-0.3147200346 -0.1445594281 0.5154559612 4286543132
-0.3142805696 -0.1437856704 0.5147362351 4286543875
-0.3143476844 -0.1432443410 0.5148462057 4286741254
-0.3139074743 -0.1424725056 0.5141251683 4287793426
-0.3139740229 -0.1419313699 0.5142341852 4287267082
-0.3140403628 -0.1413898915 0.5143428445 4287530506
-0.3141064644 -0.1408480555 0.5144510865 4288188436
-0.3136648238 -0.1400792301 0.5137277246 4287594756
-0.3137303591 -0.1395375878 0.5138351321 4288186893
-0.3132879436 -0.1387707144 0.5131104589 4288186896
-0.3133529127 -0.1382292807 0.5132169127 4288450068
-0.3134177029 -0.1376875043 0.5133230090 4288187147
-0.3134822249 -0.1371454000 0.5134286880 4288121354
-0.3135465384 -0.1366029680 0.5135340095 4288845595
-0.3131023347 -0.1358396709 0.5128064752 4288911388
-0.3131660819 -0.1352974474 0.5129109025 4288844566
-0.3132295907 -0.1347548962 0.5130149722 4288910359
-0.3132928908 -0.1342120171 0.5131186247 4289041692
-0.3133559525 -0.1336688101 0.5132218599 4289304864
-0.3134187758 -0.1331252605 0.5133247972 4288979507
-0.3134813905 -0.1325813979 0.5134273171 4289308472
-0.3135437369 -0.1320372075 0.5135294795 4288782994
-0.3136058748 -0.1314926893 0.5136312246 4289046166
-0.3136677742 -0.1309478581 0.5137326121 4288718765
-0.3142387569 -0.1306143850 0.5146677494 4289113523
-0.3143002987 -0.1300680190 0.5147685409 4288653487
-0.3143615723 -0.1295213252 0.5148689151 4288850866
-0.3144226670 -0.1289743185 0.5149689317 4288917686
-0.3155028820 -0.1288432926 0.5167381763 4288654514
-0.3160734773 -0.1285011321 0.5176727176 4287931304
-0.3161341250 -0.1279505193 0.5177720189 4286615444
-0.3167045414 -0.1276050508 0.5187062621 4285168768
-0.3172748983 -0.1272575110 0.5196404457 4284642424
-0.3173350394 -0.1267041564 0.5197389126 4284115312
-0.3173949122 -0.1261505038 0.5198370218 4283588968
-0.3179649711 -0.1257984489 0.5207706094 4283457382
-0.3180244565 -0.1252432764 0.5208680630 4283523175
-0.3180837333 -0.1246877834 0.5209651589 4283457382
-0.3181427717 -0.1241319850 0.5210618377 4283325796
-0.3182015419 -0.1235758737 0.5211580992 4284050033
-0.3182601035 -0.1230194569 0.5212540030 4284971135
-0.3183183968 -0.1224627420 0.5213494897 4285694344
-0.3183764517 -0.1219057143 0.5214445591 4287207583
-0.3189453781 -0.1215431616 0.5223764181 4288457650
-0.3190030456 -0.1209846288 0.5224708319 4289378752
-0.3190604746 -0.1204257980 0.5225648880 4289509825
-0.3191176355 -0.1198666692 0.5226585269 4289180860
-0.3191745579 -0.1193072349 0.5227517486 4289377469
-0.3187196553 -0.1185572073 0.5220066905 4289443262
-0.3192876875 -0.1181874722 0.5229369998 4289771970
-0.3193438649 -0.1176271513 0.5230290294 4289706177
-0.3193998039 -0.1170665324 0.5231206417 4289706175
-0.3194554746 -0.1165056154 0.5232118368 4289771968
-0.3195109367 -0.1159444079 0.5233026743 4289969347
-0.3200782537 -0.1155678183 0.5242317915 4289640382
-0.3201332688 -0.1150051281 0.5243219733 4289706434
-0.3201880455 -0.1144421473 0.5244116783 4289772227
-0.3202425838 -0.1138788834 0.5245009661 4289772227
-0.3202968836 -0.1133153290 0.5245898962 4289706434
-0.3203509152 -0.1127514914 0.5246783495 4289837763
-0.3209173381 -0.1123668626 0.5256060958 4289837763
-0.3204582036 -0.1116229519 0.5248541236 4289837763
-0.3210242987 -0.1112359539 0.5257812738 4289837763
-0.3210774064 -0.1106700823 0.5258682370 4289903556
-0.3211302459 -0.1101039276 0.5259548426 4289969349
-0.3216959238 -0.1097124740 0.5268812776 4289969094
-0.3222615123 -0.1093189269 0.5278076530 4290100680
-0.3223137856 -0.1087501273 0.5278931856 4290298059
-0.3223657608 -0.1081810519 0.5279783607 4290363852
-0.3229309320 -0.1077830568 0.5289040208 4290429645
-0.3229824901 -0.1072125211 0.5289884806 4290495438
-0.3235473633 -0.1068112627 0.5299136043 4290561231
-0.3241121471 -0.1064079106 0.5308386683 4290627024
-0.3246768415 -0.1060024723 0.5317634940 4290758097
-0.3257552385 -0.1057617664 0.5335297585 4290692304
-0.3263198137 -0.1053512469 0.5344544053 4290758352
-0.3268842697 -0.1049386337 0.5353788733 4290495180
-0.3279626966 -0.1046880260 0.5371451378 4289574078
-0.3198862076 -0.1553645432 0.5248720646 4286350730
-0.3194535375 -0.1545720249 0.5241621137 4282464000
-0.3190203905 -0.1537808627 0.5234514475 4283450889
-0.3195966184 -0.1534759849 0.5243968964 4283319313
-0.3181528151 -0.1522026360 0.5220279098 4283056141
-0.3172132373 -0.1511748433 0.5204862356 4282728973
-0.3167782128 -0.1503900141 0.5197724700 4282926352
-0.3163427413 -0.1496065706 0.5190579295 4282399744
-0.3154013753 -0.1485863775 0.5175133348 4281083904
-0.3154704869 -0.1480438113 0.5176267028 4282596617
-0.3150336742 -0.1472645104 0.5169100165 4282465031
-0.3151022196 -0.1467220932 0.5170224309 4282004224
-0.3146646321 -0.1459446847 0.5163044930 4281675264
-0.3142266273 -0.1451686770 0.5155857801 4283582734
-0.3142942786 -0.1446269602 0.5156967640 4282924804
-0.3138554692 -0.1438528597 0.5149767995 4281345024
-0.3139225543 -0.1433113217 0.5150868893 4281345024
-0.3134829998 -0.1425391436 0.5143656135 4284899338
-0.3135495186 -0.1419977844 0.5144748092 4281938688
-0.3136158288 -0.1414560676 0.5145835876 4281608448
-0.3136819303 -0.1409140229 0.5146920085 4283976981
-0.3137477934 -0.1403716207 0.5148000717 4283318784
-0.3133064508 -0.1396029890 0.5140759349 4284371466
-0.3128646612 -0.1388357729 0.5133510828 4283252224
-0.3129296303 -0.1382941157 0.5134576559 4285554972
-0.3129943609 -0.1377521306 0.5135638714 4284765952
-0.3130588830 -0.1372097880 0.5136697292 4285950219
-0.3131231666 -0.1366671324 0.5137752295 4288319006
-0.3131872118 -0.1361241192 0.5138803124 4288582178
-0.3127433360 -0.1353610456 0.5131520033 4288778773
-0.3128068447 -0.1348182708 0.5132561922 4288844566
-0.3128701150 -0.1342751533 0.5133599639 4289107744
-0.3129331470 -0.1337317079 0.5134634376 4289502502
-0.3129959404 -0.1331879348 0.5135664940 4289176645
-0.3130585253 -0.1326438487 0.5136691332 4289505610
-0.3131208420 -0.1320994198 0.5137714148 4288980381
-0.3131829500 -0.1315546781 0.5138733387 4289111967
-0.3137533665 -0.1312222779 0.5148092508 4288720561
-0.3138150871 -0.1306760013 0.5149105191 4288523182
-0.3138765991 -0.1301293969 0.5150114894 4288590004
-0.3139378726 -0.1295824796 0.5151120424 4287734695
-0.3145687580 -0.1286959201 0.5161471367 4283327334
-0.3146294057 -0.1281471550 0.5162466764 4281552206
-0.3151990473 -0.1278045475 0.5171813369 4281223241
-0.3152593374 -0.1272542626 0.5172802806 4281617999
-0.3153194189 -0.1267036498 0.5173788071 4282275929
-0.3158887327 -0.1263565421 0.5183129907 4282999398
-0.3159483969 -0.1258044243 0.5184109211 4283591535
-0.3160078526 -0.1252519786 0.5185084343 4284511610
-0.3165768385 -0.1249003708 0.5194420218 4284972161
-0.3166358769 -0.1243464276 0.5195389390 4284971648
-0.3166947067 -0.1237921715 0.5196354389 4284576890
-0.3167532682 -0.1232376024 0.5197315216 4283524460
-0.3168115914 -0.1226827353 0.5198272467 4283063909
-0.3173799515 -0.1223242208 0.5207597613 4282405722
-0.3169275522 -0.1215720773 0.5200174451 4282010964
-0.3174955845 -0.1212111637 0.5209495425 4282471001
-0.3175530434 -0.1206541806 0.5210437775 4284839549
-0.3176102638 -0.1200968996 0.5211376548 4287536548
-0.3181779385 -0.1197315007 0.5220690966 4289444545
-0.3182347417 -0.1191727147 0.5221623182 4289378239
-0.3182913065 -0.1186136380 0.5222551823 4289115067
-0.3183476329 -0.1180542633 0.5223475695 4289640641
-0.3184036911 -0.1174945831 0.5224395990 4289706434
-0.3184595406 -0.1169346198 0.5225311518 4289640384
-0.3185151219 -0.1163743511 0.5226223469 4289771970
-0.3190817833 -0.1159996986 0.5235521793 4289837250
-0.3191369474 -0.1154379472 0.5236427188 4289705664
-0.3191918731 -0.1148759127 0.5237328410 4289706688
-0.3192465603 -0.1143135801 0.5238225460 4289772481
-0.3193009794 -0.1137509644 0.5239118338 4289772481
-0.3198669255 -0.1133694574 0.5248404741 4289772481
-0.3199209571 -0.1128053591 0.5249291062 4289772481
-0.3199747205 -0.1122409850 0.5250172615 4289838274
-0.3205402493 -0.1118550077 0.5259452462 4289903556
-0.3205935955 -0.1112891585 0.5260327458 4289837763
-0.3206466734 -0.1107230335 0.5261198878 4289969349
-0.3206995130 -0.1101566255 0.5262065530 4289903556
-0.3212644756 -0.1097650006 0.5271335244 4290035142
-0.3213168979 -0.1091971248 0.5272195339 4290166728
-0.3218815923 -0.1088022292 0.5281460881 4290232521
-0.3219335675 -0.1082328930 0.5282313824 4290364107
-0.3224980235 -0.1078347266 0.5291575193 4290429900
-0.3225495517 -0.1072639376 0.5292420983 4290429900
-0.3231137395 -0.1068625003 0.5301678181 4290561231
-0.3236778080 -0.1064589694 0.5310933590 4290692817
-0.3242417872 -0.1060533524 0.5320187211 4290692817
-0.3253187835 -0.1058125496 0.5337858796 4290692817
-0.3258826435 -0.1054018438 0.5347110629 4290758352
-0.3264464140 -0.1049890518 0.5356361270 4290429387
-0.3203140199 -0.1570264101 0.5265336037 4288456106
-0.3199552000 -0.1556817740 0.5259437561 4286351482
-0.3195233047 -0.1548880488 0.5252338052 4283122688
-0.3185868561 -0.1538522542 0.5236944556 4285228054
-0.3176497519 -0.1528195441 0.5221540332 4284767251
-0.3167119324 -0.1517899483 0.5206124783 4282332928
-0.3162779212 -0.1510042846 0.5198990107 4282137600
-0.3158434331 -0.1502199918 0.5191848278 4283585044
-0.3164178133 -0.1499152780 0.5201290250 4280886272
-0.3154779077 -0.1488937736 0.5185839534 4282070540
-0.3150421977 -0.1481127590 0.5178677440 4281610496
-0.3146060705 -0.1473331153 0.5171508193 4284044831
-0.3146745861 -0.1467904747 0.5172634125 4282465803
-0.3142376542 -0.1460127383 0.5165452361 4281676288
-0.3143056035 -0.1454702765 0.5166569352 4284240692
-0.3138679266 -0.1446944624 0.5159374475 4282595867
-0.3139353096 -0.1441521645 0.5160482526 4281214976
-0.3134968281 -0.1433782578 0.5153274536 4281214976
-0.3135636747 -0.1428361386 0.5154373646 4284635691
-0.3126185834 -0.1418346614 0.5138837695 4281609216
-0.3121787906 -0.1410649717 0.5131608844 4282201600
-0.3122446239 -0.1405244470 0.5132691264 4284043803
-0.3123102486 -0.1399835795 0.5133769512 4281279232
-0.3123756349 -0.1394423693 0.5134844780 4283516189
-0.3124408126 -0.1389008164 0.5135915875 4281081344
-0.3125057518 -0.1383589357 0.5136983395 4284963126
-0.3125704527 -0.1378167123 0.5138046741 4282068992
-0.3126349449 -0.1372741610 0.5139107108 4284634901
-0.3126991987 -0.1367312521 0.5140163302 4288121888
-0.3127632439 -0.1361880302 0.5141215920 4288385060
-0.3128270209 -0.1356444657 0.5142264366 4288647446
-0.3128905892 -0.1351005733 0.5143309236 4288779032
-0.3129539490 -0.1345563531 0.5144350529 4289108516
-0.3125097156 -0.1337945908 0.5137048364 4289634860
-0.3125725091 -0.1332505941 0.5138080716 4289176673
-0.3126350641 -0.1327062696 0.5139108896 4289571431
-0.3126973510 -0.1321616173 0.5140132904 4288981410
-0.3127594590 -0.1316166371 0.5141153336 4289047203
-0.3128212988 -0.1310713291 0.5142170191 4288392625
-0.3133908510 -0.1307375878 0.5151532292 4288063660
-0.3134523332 -0.1301907599 0.5152543187 4285959054
-0.3135135770 -0.1296436042 0.5153549910 4282537818
-0.3135746121 -0.1290961206 0.5154553056 4280105276
-0.3141437173 -0.1287566721 0.5163908005 4280368448
-0.3136959374 -0.1280002147 0.5156547427 4281750871
-0.3142647743 -0.1276583523 0.5165897608 4283198317
-0.3143249452 -0.1271087229 0.5166887045 4284383361
-0.3148935735 -0.1267635524 0.5176234245 4285370256
-0.3149533868 -0.1262124032 0.5177217126 4286422174
-0.3150129318 -0.1256609410 0.5178196430 4286882725
-0.3150722682 -0.1251091510 0.5179171562 4287539886
-0.3151313365 -0.1245570630 0.5180142522 4287803058
-0.3151901662 -0.1240046620 0.5181109905 4287736495
-0.3152487874 -0.1234519556 0.5182073116 4287341737
-0.3153071404 -0.1228989363 0.5183032751 4286816163
-0.3158747256 -0.1225432605 0.5192362666 4285829268
-0.3164422810 -0.1221854910 0.5201691985 4285302924
-0.3165000975 -0.1216297746 0.5202642679 4283855478
-0.3170674443 -0.1212687120 0.5211968422 4282340956
-0.3171248734 -0.1207114831 0.5212912560 4281156682
-0.3171820641 -0.1201539561 0.5213852525 4281945171
-0.3172389865 -0.1195961237 0.5214788318 4285563786
-0.3178058267 -0.1192293763 0.5224105716 4288852922
-0.3173521459 -0.1184795648 0.5216648579 4289050301
-0.3179186583 -0.1181104258 0.5225960612 4289312446
-0.3179747164 -0.1175505072 0.5226882100 4289641411
-0.3180305064 -0.1169902906 0.5227799416 4289706434
-0.3180860579 -0.1164297760 0.5228712559 4289706434
-0.3181413710 -0.1158689782 0.5229622126 4289574591
-0.3187071979 -0.1154929623 0.5238922834 4289771970
-0.3187620938 -0.1149306744 0.5239825249 4289706175
-0.3188167512 -0.1143681034 0.5240723491 4289771968
-0.3188711405 -0.1138052344 0.5241617560 4289771968
-0.3194364011 -0.1134235561 0.5250909328 4289771968
-0.3194903731 -0.1128592193 0.5251796842 4289837761
-0.3195441067 -0.1122945845 0.5252680182 4289903554
-0.3195976019 -0.1117296740 0.5253559351 4289903554
-0.3201622665 -0.1113423407 0.5262841582 4289903554
-0.3202153444 -0.1107759625 0.5263713598 4289969349
-0.3207797706 -0.1103853509 0.5272991657 4289903556
-0.3208324015 -0.1098175049 0.5273857117 4290035142
-0.3213965595 -0.1094236150 0.5283131003 4290166728
-0.3214487731 -0.1088543087 0.5283989310 4290232521
-0.3215007484 -0.1082847193 0.5284843445 4290364107
-0.3220644891 -0.1078863740 0.5294110179 4290495693
-0.3221160173 -0.1073153317 0.5294957161 4290429900
-0.3226794600 -0.1069137156 0.5304219127 4290561231
-0.3232428432 -0.1065100133 0.5313479900 4290692817
-0.3238061070 -0.1061042175 0.5322738886 4290692817
-0.3243692815 -0.1056963354 0.5331996679 4290692817
-0.3254448771 -0.1054524258 0.5349676609 4290693072
-0.3260079026 -0.1050394550 0.5358932018 4290364107
-0.3193016052 -0.1574006230 0.5258293748 4287205528
-0.3193742931 -0.1568520963 0.5259491205 4287600286
-0.3194468021 -0.1563031971 0.5260685086 4287929738
-0.3195190728 -0.1557539254 0.5261874795 4286482292
-0.3190878034 -0.1549598724 0.5254772902 4285161479
-0.3186561167 -0.1541671604 0.5247663856 4286674718
-0.3182239830 -0.1533758342 0.5240547061 4286215188
-0.3172877431 -0.1523440480 0.5225129724 4282070272
-0.3168545961 -0.1515563130 0.5217996240 4282596864
-0.3154132962 -0.1502897888 0.5194260478 4285294375
-0.3149790168 -0.1495065540 0.5187109113 4281345792
-0.3150483966 -0.1489630193 0.5188251734 4282332685
-0.3146133423 -0.1481816620 0.5181087255 4280622080
-0.3141778708 -0.1474016905 0.5173915625 4285359165
-0.3137419224 -0.1466231048 0.5166736841 4282333186
-0.3133055568 -0.1458459198 0.5159550309 4281741056
-0.3133733571 -0.1453040987 0.5160667300 4284766022
-0.3134409487 -0.1447619200 0.5161780119 4282923818
-0.3135083318 -0.1442193985 0.5162889361 4281214208
-0.3125655651 -0.1432138085 0.5147364140 4281411584
-0.3131373227 -0.1429028213 0.5156779885 4284634935
-0.3121935725 -0.1419009119 0.5141237974 4280884736
-0.3122597337 -0.1413596272 0.5142327547 4281675008
-0.3118202686 -0.1405901313 0.5135090351 4284504106
-0.3118858635 -0.1400490403 0.5136170387 4281872384
-0.3119512200 -0.1395076066 0.5137246847 4283517208
-0.3120163679 -0.1389658302 0.5138319731 4281278976
-0.3120812774 -0.1384237260 0.5139388442 4285226555
-0.3121459484 -0.1378812790 0.5140453577 4281608192
-0.3122104108 -0.1373384893 0.5141515136 4284700445
-0.3122746348 -0.1367953569 0.5142573118 4287924509
-0.3123386502 -0.1362519115 0.5143626928 4288516646
-0.3124024272 -0.1357081085 0.5144677162 4288582168
-0.3124659657 -0.1351639926 0.5145723820 4288779547
-0.3125292659 -0.1346195340 0.5146766305 4289043758
-0.3125923574 -0.1340747476 0.5147805214 4289504309
-0.3121484816 -0.1333132237 0.5140495300 4289110914
-0.3122109771 -0.1327686608 0.5141524673 4289505672
-0.3122732937 -0.1322237700 0.5142550468 4288851626
-0.3128423691 -0.1318923235 0.5151922703 4288851626
-0.3123971522 -0.1311330348 0.5144590735 4288261298
-0.3129659891 -0.1307991594 0.5153958201 4285366406
-0.3130274415 -0.1302520931 0.5154970288 4281354316
-0.3130886853 -0.1297046989 0.5155978799 4280433214
-0.3131496608 -0.1291569918 0.5156983137 4281487699
-0.3132104278 -0.1286089569 0.5157983899 4282737766
-0.3132709563 -0.1280606091 0.5158980489 4283397749
-0.3138390779 -0.1277186126 0.5168336034 4284055679
-0.3138992190 -0.1271687448 0.5169326663 4284648074
-0.3139591217 -0.1266185492 0.5170313120 4285174418
-0.3140188158 -0.1260680556 0.5171296000 4285765272
-0.3140782416 -0.1255172342 0.5172274709 4285831065
-0.3146457374 -0.1251683235 0.5181620717 4286159003
-0.3147048056 -0.1246159896 0.5182593465 4286224796
-0.3147636354 -0.1240633503 0.5183562040 4286224026
-0.3148221970 -0.1235104054 0.5184526443 4286092440
-0.3148805499 -0.1229571477 0.5185487270 4285501073
-0.3159562051 -0.1227990687 0.5203201771 4285501073
-0.3160142601 -0.1222434044 0.5204157233 4285369487
-0.3160720468 -0.1216874421 0.5205109119 4284645764
-0.3161296248 -0.1211311743 0.5206057429 4284645251
-0.3161869347 -0.1205745935 0.5207000971 4283526770
-0.3162440062 -0.1200177222 0.5207940936 4281749074
-0.3168101609 -0.1196529120 0.5217264891 4281156937
-0.3168668449 -0.1190945357 0.5218197703 4286944925
-0.3174327910 -0.1187264398 0.5227518082 4289445059
-0.3174890578 -0.1181665659 0.5228444934 4289312959
-0.3170354068 -0.1174176261 0.5220973492 4289510338
-0.3170910776 -0.1168580651 0.5221890807 4289706434
-0.3176563978 -0.1164851785 0.5231200457 4289640641
-0.3182216585 -0.1161102057 0.5240509510 4289640384
-0.3177667260 -0.1153627858 0.5233017802 4289903556
-0.3183316886 -0.1149854213 0.5242320895 4289706175
-0.3183863163 -0.1144225970 0.5243220925 4289706175
-0.3189510107 -0.1140419468 0.5252520442 4289771968
-0.3190052211 -0.1134776399 0.5253413320 4289771968
-0.3195696771 -0.1130937114 0.5262708664 4289837761
-0.3196235001 -0.1125279292 0.5263594985 4289903554
-0.3201877177 -0.1121407077 0.5272886157 4289903556
-0.3202410936 -0.1115734503 0.5273765326 4289969349
-0.3202942014 -0.1110059172 0.5274640322 4289969349
-0.3203471005 -0.1104380935 0.5275511146 4289969349
-0.3203997016 -0.1098699868 0.5276377797 4290100935
-0.3209631741 -0.1094759330 0.5285656452 4290166728
-0.3210153580 -0.1089063659 0.5286515951 4290232521
-0.3215785623 -0.1085090339 0.5295791030 4290364107
-0.3216303289 -0.1079380065 0.5296643376 4290495693
-0.3216818273 -0.1073667035 0.5297491550 4290495693
-0.3222445846 -0.1069649085 0.5306759477 4290627024
-0.3228072524 -0.1065610275 0.5316025019 4290692817
-0.3233698010 -0.1061550602 0.5325289369 4290692817
-0.3239322603 -0.1057469919 0.5334551930 4290692817
-0.3244946301 -0.1053368375 0.5343813300 4290693072
-0.3250568807 -0.1049245968 0.5353072286 4290364107
-0.3189376295 -0.1569246501 0.5261924267 4287072921
-0.3190100789 -0.1563755274 0.5263119340 4287995020
-0.3190823197 -0.1558260471 0.5264311433 4286284402
-0.3176465034 -0.1545425802 0.5240622759 4286279702
-0.3182206750 -0.1542386115 0.5250095725 4286345495
-0.3187948465 -0.1539325267 0.5259568691 4287135512
-0.3173572421 -0.1526566297 0.5235850811 4286280203
-0.3169248700 -0.1518677026 0.5228717327 4286083602
-0.3149825335 -0.1503595710 0.5196672082 4286412567
-0.3160587549 -0.1502939463 0.5214427710 4284503826
-0.3146182597 -0.1490322351 0.5190662146 4284832791
-0.3146873713 -0.1484881341 0.5191802382 4282595840
-0.3142526746 -0.1477069557 0.5184630156 4285885481
-0.3138175011 -0.1469271630 0.5177450776 4283056640
-0.3133819103 -0.1461487710 0.5170264244 4282332928
-0.3134498000 -0.1456058472 0.5171384215 4283846150
-0.3130134046 -0.1448293626 0.5164185166 4282793472
-0.3125765920 -0.1440542787 0.5156978369 4282200320
-0.3121393323 -0.1432805806 0.5149764419 4282002944
-0.3117016554 -0.1425082982 0.5142542720 4283255040
-0.3117679954 -0.1419671327 0.5143637657 4281478656
-0.3118340969 -0.1414256245 0.5144728422 4283912200
-0.3113952875 -0.1406558007 0.5137488842 4285885990
-0.3114608526 -0.1401144862 0.5138570666 4281937920
-0.3115912974 -0.1390308291 0.5140722394 4280555264
-0.3116561770 -0.1384884864 0.5141792893 4285292349
-0.3117208481 -0.1379458010 0.5142859817 4281805056
-0.3117852807 -0.1374027878 0.5143922567 4282923529
-0.3118494749 -0.1368594468 0.5144981742 4285555968
-0.3119134605 -0.1363157630 0.5146037340 4288385063
-0.3119772077 -0.1357717365 0.5147089362 4288647971
-0.3120407164 -0.1352273822 0.5148137212 4288911143
-0.3121039867 -0.1346827000 0.5149180889 4289043768
-0.3121670485 -0.1341376901 0.5150221586 4289504319
-0.3122298717 -0.1335923374 0.5151258111 4288914329
-0.3122924864 -0.1330466568 0.5152290463 4289309087
