VERSION 0.7
FIELDS x y z rgba
SIZE 4 4 4 4
TYPE F F F U
COUNT 1 1 1 1
WIDTH 920
HEIGHT 1
VIEWPOINT 0.0 0.0 0.0 1.0 0.0 0.0 0.0
POINTS 920
DATA ascii
-0.2195631564 -0.1620453149 0.5219715834 4286874756
-0.2188767940 -0.1609606296 0.5203399062 4286808963
-0.2189358324 -0.1604257524 0.5204802155 4286808704
-0.2189946920 -0.1598904431 0.5206201673 4286742911
-0.2186802179 -0.1590832174 0.5198725462 4286677118
-0.2191119194 -0.1588185132 0.5208988786 4286413946
-0.2187969238 -0.1580122709 0.5201500058 4286282360
-0.2188550234 -0.1574761569 0.5202881098 4286413946
-0.2189129591 -0.1569396108 0.5204258561 4286282358
-0.2189707160 -0.1564026326 0.5205631852 4285953393
-0.2190283239 -0.1558652371 0.5207000971 4285624428
-0.2190857530 -0.1553274244 0.5208366513 4285492842
-0.2187690437 -0.1545250416 0.5200837851 4285295463
-0.2188260406 -0.1539873034 0.5202192664 4285295463
-0.2185087204 -0.1531868279 0.5194648504 4285229670
-0.2181910127 -0.1523877829 0.5187096000 4285032291
-0.2182473093 -0.1518506259 0.5188434124 4284900704
-0.2186778784 -0.1515726000 0.5198670030 4284900704
-0.2179848403 -0.1505164504 0.5182194710 4284703328
-0.2176658958 -0.1497212797 0.5174611807 4284769121
-0.2180960476 -0.1494410932 0.5184838176 4284703328
-0.2177765667 -0.1486469507 0.5177242756 4284637535
-0.2174567133 -0.1478542536 0.5169638991 4284769121
-0.2175115347 -0.1473169923 0.5170942545 4284769121
-0.2175661623 -0.1467793286 0.5172241330 4285163879
-0.2176206410 -0.1462412477 0.5173535943 4285887602
-0.2176749259 -0.1457027793 0.5174826980 4286742911
-0.2173536569 -0.1449136138 0.5167189240 4287071876
-0.2174075097 -0.1443752646 0.5168469548 4287466634
-0.2174611837 -0.1438365132 0.5169745684 4287795599
-0.2175146937 -0.1432973742 0.5171017647 4287992724
-0.2175680250 -0.1427578330 0.5172285438 4288058517
-0.2172453254 -0.1419722587 0.5164613724 4288255896
-0.2172982097 -0.1414328665 0.5165870786 4288584861
-0.2173509151 -0.1408930570 0.5167124271 4288387743
-0.2174034566 -0.1403528750 0.5168372989 4288387743
-0.2170795947 -0.1395704150 0.5160673857 4288387743
-0.2171316892 -0.1390303820 0.5161912441 4288519329
-0.2171836048 -0.1384899467 0.5163146257 4288651169
-0.2168588489 -0.1377100646 0.5155426264 4288651169
-0.2169103175 -0.1371698081 0.5156649947 4288716962
-0.2165849358 -0.1363919675 0.5148914456 4288848548
-0.2166359723 -0.1358518749 0.5150127411 4288980134
-0.2166868150 -0.1353114247 0.5151336193 4288914341
-0.2167374790 -0.1347705722 0.5152540803 4288848548
-0.2167879641 -0.1342293471 0.5153741241 4288848548
-0.2164611667 -0.1334552467 0.5145971775 4288914341
-0.2165112048 -0.1329142153 0.5147161484 4288980134
-0.2161837816 -0.1321421862 0.5139377713 4289111720
-0.2162333727 -0.1316013485 0.5140556693 4289111720
-0.2162827849 -0.1310601383 0.5141730905 4289046184
-0.2163320184 -0.1305185556 0.5142901540 4289046184
-0.2160034329 -0.1297497749 0.5135090351 4289111977
-0.2156745046 -0.1289825141 0.5127270222 4289111977
-0.2157230228 -0.1284417212 0.5128423572 4289111977
-0.2157713473 -0.1279005706 0.5129572749 4289243563
-0.2158195078 -0.1273590475 0.5130717158 4289309356
-0.2154894173 -0.1265950650 0.5122870207 4289309356
-0.2155371159 -0.1260537803 0.5124004483 4289309356
-0.2155846357 -0.1255121231 0.5125133991 4289309356
-0.2152536660 -0.1247508749 0.5117265582 4289309356
-0.2153007239 -0.1242094636 0.5118384361 4289309356
-0.2153476179 -0.1236676946 0.5119498968 4289375149
-0.2153943032 -0.1231255755 0.5120609403 4289375149
-0.2146835625 -0.1221522316 0.5103712678 4289375149
-0.2151084393 -0.1218257993 0.5113813281 4289375149
-0.2147756964 -0.1210700572 0.5105903149 4289375149
-0.2144426107 -0.1203158721 0.5097984672 4289375149
-0.2144881487 -0.1197748706 0.5099066496 4289375149
-0.2145334780 -0.1192335263 0.5100144744 4289375149
-0.2145786285 -0.1186918393 0.5101218224 4289440942
-0.2142444104 -0.1179410666 0.5093272328 4289440942
-0.2142891139 -0.1173996627 0.5094335079 4289440942
-0.2139542699 -0.1166510805 0.5086374879 4289440942
-0.2139985114 -0.1161099598 0.5087426901 4289375149
-0.2140425742 -0.1155684963 0.5088474154 4289375149
-0.2140864432 -0.1150267050 0.5089517236 4289440942
-0.2141301334 -0.1144845784 0.5090555549 4289440942
-0.2141736299 -0.1139421165 0.5091589689 4289506735
-0.2138371170 -0.1131982654 0.5083589554 4289506735
-0.2138801515 -0.1126561165 0.5084612966 4289506735
-0.2139230072 -0.1121136323 0.5085631609 4289572528
-0.2139656544 -0.1115708277 0.5086645484 4289441710
-0.2136280090 -0.1108304933 0.5078618526 4289441710
-0.2132900208 -0.1100917682 0.5070583224 4289441710
-0.2133319527 -0.1095499247 0.5071580410 4289441710
-0.2133737057 -0.1090077609 0.5072572827 4289441710
-0.2134152651 -0.1084652841 0.5073561072 4289441710
-0.2130761296 -0.1077301130 0.5065498948 4289507503
-0.2131172419 -0.1071879715 0.5066475868 4289441710
-0.2131581455 -0.1066455171 0.5067448616 4289638321
-0.2131988555 -0.1061027497 0.5068416595 4289572528
-0.2132393867 -0.1055596769 0.5069379807 4289638321
-0.2128988653 -0.1048287600 0.5061284304 4289704114
-0.2129389346 -0.1042860374 0.5062236786 4289638321
-0.2129787952 -0.1037430093 0.5063185096 4289704114
-0.2126374096 -0.1030150652 0.5055068731 4289704114
-0.2126768231 -0.1024724022 0.5056006312 4289704114
-0.2127160579 -0.1019294411 0.5056938529 4289703855
-0.2127550840 -0.1013861746 0.5057866573 4289703855
-0.2124125659 -0.1006618887 0.5049723387 4289703857
-0.2124511302 -0.1001190096 0.5050640702 4289769650
-0.2124895155 -0.0995758250 0.5051552653 4289769650
-0.2125276923 -0.0990323573 0.5052460432 4289769650
-0.2121840417 -0.0983117670 0.5044291019 4289769648
-0.2126034647 -0.0979445353 0.5054261684 4289835441
-0.2126410604 -0.0974001884 0.5055155754 4289769650
-0.2122966200 -0.0966816694 0.5046967268 4289703857
-0.2123337537 -0.0961377248 0.5047850013 4289703857
-0.2119887322 -0.0954215676 0.5039647818 4289703857
-0.2120254040 -0.0948780403 0.5040519834 4289638064
-0.2120618820 -0.0943342298 0.5041387081 4289638064
-0.2117159963 -0.0936211422 0.5033164024 4289572271
-0.2117520124 -0.0930777565 0.5034020543 4289572271
-0.2117878348 -0.0925340876 0.5034871697 4289572528
-0.2118234634 -0.0919901505 0.5035718679 4289506735
-0.2118588835 -0.0914459378 0.5036560893 4289572528
-0.2118941098 -0.0909014493 0.5037398338 4289572528
-0.2115465850 -0.0901935920 0.5029136539 4289572528
-0.2115813494 -0.0896495506 0.5029963255 4289572528
-0.2116159201 -0.0891052410 0.5030784607 4289638575
-0.2112675458 -0.0884005129 0.5022503138 4289638575
-0.2113016546 -0.0878566578 0.5023313761 4289572782
-0.2109526992 -0.0871543661 0.5015017986 4289572782
-0.2113692611 -0.0867681578 0.5024921298 4289572782
-0.2110197991 -0.0860673189 0.5016613007 4289572782
-0.2110530287 -0.0855234116 0.5017403364 4289572782
-0.2107029855 -0.0848250166 0.5009081364 4289572782
-0.2107357681 -0.0842815787 0.5009860992 4289572782
-0.2111515552 -0.0838901475 0.5019745827 4289572782
-0.2108007222 -0.0831939578 0.5011405349 4289572528
-0.2108329087 -0.0826497674 0.5012170076 4289572528
-0.2108648866 -0.0821053311 0.5012930632 4289638064
-0.2108966559 -0.0815606490 0.5013685822 4289638064
-0.2105447352 -0.0808684155 0.5005319118 4289638062
-0.2105760425 -0.0803242400 0.5006063581 4289572269
-0.2106071562 -0.0797798112 0.5006803274 4289441196
-0.2106380761 -0.0792351514 0.5007538199 4289441196
-0.2106687725 -0.0786902457 0.5008268356 4289506989
-0.2106992751 -0.0781451017 0.5008993745 4289506989
-0.2103457451 -0.0774583817 0.5000588894 4289506989
-0.2103757858 -0.0769137591 0.5001302958 4289441196
-0.2104056180 -0.0763689131 0.5002012253 4289375401
-0.2104352564 -0.0758238286 0.5002716780 4289309608
-0.2104646862 -0.0752785206 0.5003416538 4289178792
-0.2104939073 -0.0747329816 0.5004111528 4289178792
-0.2101387680 -0.0740518421 0.4995668232 4289243817
-0.2105517536 -0.0736412257 0.5005486012 4289243817
-0.2098118216 -0.0728282407 0.4987895787 4289243817
-0.2098401338 -0.0722838044 0.4988568723 4289243817
-0.2098682225 -0.0717391372 0.4989236593 4289243817
-0.2095116973 -0.0710638687 0.4980760813 4289243817
-0.2095393389 -0.0705197752 0.4981417656 4289243817
-0.2095667571 -0.0699754581 0.4982070029 4289243817
-0.2095939964 -0.0694309399 0.4982717037 4289243817
-0.2092363834 -0.0687598065 0.4974215627 4289178024
-0.2092631459 -0.0682158545 0.4974852204 4289243304
-0.2092897147 -0.0676717013 0.4975483418 4289243304
-0.2093160599 -0.0671273470 0.4976109862 4289243304
-0.2093422115 -0.0665827766 0.4976731539 4289243304
-0.2089832872 -0.0659166202 0.4968198836 4289243304
-0.2090089768 -0.0653726459 0.4968809485 4289243304
-0.2090344578 -0.0648284778 0.4969415069 4289112229
-0.2090597302 -0.0642841160 0.4970015883 4289046436
-0.2086997330 -0.0636221692 0.4961457849 4288980643
-0.2087245435 -0.0630784109 0.4962047637 4288980643
-0.2087491602 -0.0625344664 0.4962632656 4288980643
-0.2087735534 -0.0619903244 0.4963212609 4288980643
-0.2087977380 -0.0614459962 0.4963787794 4288980643
-0.2084364444 -0.0607891120 0.4955198467 4288914850
-0.2080983371 -0.0595911741 0.4947160482 4288980643
-0.2081215978 -0.0590481125 0.4947713912 4288914850
-0.2081446648 -0.0585048683 0.4948261976 4288849057
-0.2081675231 -0.0579614453 0.4948805571 4288783264
-0.2078046352 -0.0573115125 0.4940178394 4288783264
-0.2082126141 -0.0568740629 0.4949877262 4288717471
-0.2078492194 -0.0562257953 0.4941238463 4288651678
-0.2082568556 -0.0557859838 0.4950929284 4288914339
-0.2082786709 -0.0552416854 0.4951447845 4288848546
-0.2083002776 -0.0546972156 0.4951961339 4288848546
-0.2079358846 -0.0540522970 0.4943298697 4288848546
-0.2079570293 -0.0535085015 0.4943801463 4288716960
-0.2079779655 -0.0529645421 0.4944298863 4288716960
-0.2076127827 -0.0523231626 0.4935617745 4288782753
-0.2076332569 -0.0517798848 0.4936104417 4288782753
-0.2076535374 -0.0512364507 0.4936586320 4288716960
-0.2072875798 -0.0505986325 0.4927886426 4288651167
-0.2069213390 -0.0499626771 0.4919179678 4288585374
-0.2069409043 -0.0494207926 0.4919644892 4288519581
-0.2073463798 -0.0489699468 0.4929284155 4288585374
-0.2073655576 -0.0484267473 0.4929740131 4288651167
-0.2073845267 -0.0478833988 0.4930191040 4288651167
-0.2074032873 -0.0473399013 0.4930636883 4288519581
-0.2078080922 -0.0468834005 0.4940260649 4288519581
-0.2074401677 -0.0462524667 0.4931513965 4288322202
-0.2074582875 -0.0457085334 0.4931944609 4287927957
-0.2078625709 -0.0452485643 0.4941555560 4288651680
-0.2082666904 -0.0447864272 0.4951163232 4290099640
-0.2098299563 -0.0445683561 0.4988326728 4291349707
-0.2090745121 -0.0438556559 0.4970367551 4291743699
-0.2106376737 -0.0436271727 0.5007528663 4291941078
-0.2122008651 -0.0433904380 0.5044690967 4291810262
-0.2126044333 -0.0429113917 0.5054284930 4292007641
-0.2145541757 -0.0427382067 0.5100636482 4292205277
-0.2137977183 -0.0420228019 0.5082653165 4292336863
-0.2161340564 -0.0419111326 0.5138195753 4292534243
-0.2173105180 -0.0415652618 0.5166163445 4292665829
-0.2181002200 -0.0411402285 0.5184937716 4292797415
-0.2188898325 -0.0407110006 0.5203709006 4292863208
-0.2196793109 -0.0402775817 0.5222477317 4292994283
-0.2208554745 -0.0399098657 0.5250438452 4293191662
-0.2220315784 -0.0395359285 0.5278398395 4293323248
-0.2216602564 -0.0388843194 0.5269570351 4293586420
-0.2228361070 -0.0385020003 0.5297524333 4293783799
-0.2236250043 -0.0380476303 0.5316278934 4293915385
-0.2240268588 -0.0375242643 0.5325832367 4293915385
-0.2248154730 -0.0370625332 0.5344580412 4293981178
-0.2244430333 -0.0364082977 0.5335726142 4293849590
-0.2263922989 -0.0361265130 0.5382066369 4293783797
-0.2267934978 -0.0355914906 0.5391604304 4294112248
-0.2275815457 -0.0351140313 0.5410338640 4294178041
-0.2279823869 -0.0345736928 0.5419868231 4294112248
-0.2291572243 -0.0341465697 0.5447797775 4294309627
-0.2299448401 -0.0336565636 0.5466521978 4293914869
-0.2299580425 -0.0330510885 0.5466835499 4293059560
-0.2303581685 -0.0325001366 0.5476347804 4292793297
-0.2307580858 -0.0319470428 0.5485855341 4290951093
-0.2311578244 -0.0313918106 0.5495358109 4289964196
-0.2315573543 -0.0308344383 0.5504856110 4290227368
-0.2319566905 -0.0302749295 0.5514349937 4290226339
-0.2327430695 -0.0297628082 0.5533044934 4290094753
-0.2335292995 -0.0292465109 0.5551735759 4290422950
-0.2339280695 -0.0286785606 0.5561215878 4290093985
-0.2347139418 -0.0281549394 0.5579898357 4290752942
-0.2351123095 -0.0275817066 0.5589368939 4292134595
-0.2355104685 -0.0270063449 0.5598834753 4293386974
-0.2199441940 -0.1720761657 0.5242617130 4290165946
-0.2203769833 -0.1718311161 0.5252932906 4289705395
-0.2200688422 -0.1710080355 0.5245588422 4289374381
-0.2205015123 -0.1707602888 0.5255901814 4288387486
-0.2201928496 -0.1699381024 0.5248544216 4287400589
-0.2202546149 -0.1694024503 0.5250016451 4286347901
-0.2199453115 -0.1685820669 0.5242643952 4285492076
-0.2200066596 -0.1680464298 0.5244106054 4284505181
-0.2200678289 -0.1675103307 0.5245563984 4283649357
-0.2197576314 -0.1666922271 0.5238170624 4283386185
-0.2198183835 -0.1661561430 0.5239618421 4282794559
-0.2195075601 -0.1653398573 0.5232209563 4283978833
-0.2195678800 -0.1648038030 0.5233647227 4285427049
-0.2192564309 -0.1639893502 0.5226223469 4285821807
-0.2196880430 -0.1637303680 0.5236511827 4286217339
-0.2193760574 -0.1629168540 0.5229074955 4286348925
-0.2190636992 -0.1621047258 0.5221629739 4286283650
-0.2191230059 -0.1615682989 0.5223042965 4286217857
-0.2191821337 -0.1610314250 0.5224452615 4286544762
-0.2188688964 -0.1602216363 0.5216985941 4286610555
-0.2189275920 -0.1596848220 0.5218385458 4286611071
-0.2182412893 -0.1586062461 0.5202026367 4286611071
-0.2190445215 -0.1586098820 0.5221172571 4286479739
-0.2183574736 -0.1575341076 0.5204796195 4286282360
-0.2184153199 -0.1569973975 0.5206174850 4286348151
-0.2184730023 -0.1564602554 0.5207549930 4286413944
-0.2185305208 -0.1559226960 0.5208920240 4286084979
-0.2185878605 -0.1553847045 0.5210287571 4286216565
-0.2182719111 -0.1545820534 0.5202756524 4286150772
-0.2183288187 -0.1540441513 0.5204113126 4285953393
-0.2180122584 -0.1532434076 0.5196567178 4285690221
-0.2176953256 -0.1524440944 0.5189012885 4285361256
-0.2177515328 -0.1519067734 0.5190352798 4285163876
-0.2181811631 -0.1516286731 0.5200593472 4285098083
-0.2174897492 -0.1505721658 0.5184112787 4284900705
-0.2175453454 -0.1500345170 0.5185437799 4284769119
-0.2176007777 -0.1494964659 0.5186759233 4284440154
-0.2172820568 -0.1487020552 0.5179162025 4284440154
-0.2173370570 -0.1481641084 0.5180472732 4284505949
-0.2173918784 -0.1476257443 0.5181779861 4284308570
-0.2170722634 -0.1468338072 0.5174161196 4284242777
-0.2167522907 -0.1460433304 0.5166534781 4284505949
-0.2168064117 -0.1455056220 0.5167824626 4284440156
-0.2168603539 -0.1449674964 0.5169110298 4284703328
-0.2169141173 -0.1444289684 0.5170391798 4285032293
-0.2165929973 -0.1436415315 0.5162737370 4285427051
-0.2166463286 -0.1431031525 0.5164008737 4285690223
-0.2166994810 -0.1425643563 0.5165275931 4286084981
-0.2167524695 -0.1420251727 0.5166538954 4286808704
-0.2168052644 -0.1414856017 0.5167797208 4287400841
-0.2168578953 -0.1409456283 0.5169051886 4287861399
-0.2169103622 -0.1404052675 0.5170302391 4287861399
-0.2165872753 -0.1396225244 0.5162600875 4287927446
-0.2166392803 -0.1390823126 0.5163840652 4288059032
-0.2166911215 -0.1385417283 0.5165076256 4288256411
-0.2163671404 -0.1377615631 0.5157353878 4288256411
-0.2164185345 -0.1372211277 0.5158579350 4288322204
-0.2160939276 -0.1364430189 0.5150842071 4288585376
-0.2161448747 -0.1359027624 0.5152056217 4288782755
-0.2161956429 -0.1353621185 0.5153266191 4288651169
-0.2162462324 -0.1348210871 0.5154471993 4288651169
-0.2162966430 -0.1342796832 0.5155673623 4288651169
-0.2159706205 -0.1335053146 0.5147902369 4288716962
-0.2160205841 -0.1329641044 0.5149093866 4288848548
-0.2160703689 -0.1324225217 0.5150279999 4289045927
-0.2157434672 -0.1316507906 0.5142487884 4289045927
-0.2157928050 -0.1311094016 0.5143663883 4288914852
-0.2158419490 -0.1305676401 0.5144835711 4288980645
-0.2158909291 -0.1300255060 0.5146002769 4289111718
-0.2155628651 -0.1292570382 0.5138183236 4289111718
-0.2152344435 -0.1284900904 0.5130354762 4289177511
-0.2152827084 -0.1279487461 0.5131505132 4289177511
-0.2153307796 -0.1274070591 0.5132651329 4289112231
-0.2153786719 -0.1268649846 0.5133792758 4289112231
-0.2150491029 -0.1261013299 0.5125937462 4289243817
-0.2150965482 -0.1255594939 0.5127068162 4289243817
-0.2147663683 -0.1247979775 0.5119197965 4289309097
-0.2148133665 -0.1242563874 0.5120317936 4289309097
-0.2144825608 -0.1234970093 0.5112432837 4289374890
-0.2145291120 -0.1229556575 0.5113542676 4289440683
-0.2141976953 -0.1221984401 0.5105642676 4289375403
-0.2146216482 -0.1218719035 0.5115748048 4289309610
-0.2142896950 -0.1211158857 0.5107835531 4289309356
-0.2139573991 -0.1203614399 0.5099915266 4289309356
-0.2140028626 -0.1198202521 0.5100998878 4289309356
-0.2140481323 -0.1192787215 0.5102077723 4289309356
-0.2137149572 -0.1185270697 0.5094136596 4289309356
-0.2141381204 -0.1181946397 0.5104222894 4289375149
-0.2138044089 -0.1174442172 0.5096268654 4289375149
-0.2138488591 -0.1169022843 0.5097327828 4289440942
-0.2138931155 -0.1163600087 0.5098382831 4289375149
-0.2139371932 -0.1158173978 0.5099433661 4289375149
-0.2136023492 -0.1150704324 0.5091452003 4289375149
-0.2136459649 -0.1145281196 0.5092491508 4289375149
-0.2133105099 -0.1137833670 0.5084495544 4289440942
-0.2133536637 -0.1132413521 0.5085524917 4289440942
-0.2133966386 -0.1126990095 0.5086548924 4289440942
-0.2134394348 -0.1121563390 0.5087568760 4289440942
-0.2134820223 -0.1116133481 0.5088584423 4289375919
-0.2131451666 -0.1108727455 0.5080555081 4289375919
-0.2128079683 -0.1101337522 0.5072517395 4289375919
-0.2128498554 -0.1095917225 0.5073515773 4289441712
-0.2128915340 -0.1090493649 0.5074509382 4289507505
-0.2125534713 -0.1083132848 0.5066450834 4289507505
-0.2125947028 -0.1077712625 0.5067433715 4289441712
-0.2126357406 -0.1072289348 0.5068411827 4289507505
-0.2126765847 -0.1066862866 0.5069385767 4289638321
-0.2127172500 -0.1061433256 0.5070354939 4289572528
-0.2127577066 -0.1056000590 0.5071319342 4289638575
-0.2127979845 -0.1050564796 0.5072278976 4289704368
-0.2124579847 -0.1043259650 0.5064175129 4289638575
-0.2124978006 -0.1037827432 0.5065124035 4289704368
-0.2125374228 -0.1032392159 0.5066068769 4289770161
-0.2125768512 -0.1026953906 0.5067008138 4289704368
-0.2122357339 -0.1019685194 0.5058877468 4289769648
-0.2118942887 -0.1012432948 0.5050738454 4289769648
-0.2123134881 -0.1008813083 0.5060730577 4289769650
-0.2123520672 -0.1003372520 0.5061650276 4289769650
-0.2123904526 -0.0997929052 0.5062565207 4289769650
-0.2116672546 -0.0988925323 0.5045326948 4289703857
-0.2124666423 -0.0987033248 0.5064381361 4289703855
-0.2121236026 -0.0979821831 0.5056204796 4289769648
-0.2113993466 -0.0970877782 0.5038940907 4289769650
-0.2121984810 -0.0968928114 0.5057989359 4289703857
-0.2114735693 -0.0960017443 0.5040709972 4289638064
-0.2118914872 -0.0956302956 0.5050671697 4289638064
-0.2115470022 -0.0949145779 0.5042460561 4289638064
-0.2112021893 -0.0942005292 0.5034241676 4289638064
-0.2112383544 -0.0936572179 0.5035103559 4289638064
-0.2112743109 -0.0931136385 0.5035960674 4289638064
-0.2113100737 -0.0925697684 0.5036813617 4289506735
-0.2113456428 -0.0920256302 0.5037661195 4289506735
-0.2109994590 -0.0913160890 0.5029409528 4289572528
-0.2110345662 -0.0907723904 0.5030246377 4289638321
-0.2110694796 -0.0902284160 0.5031078458 4289572528
-0.2111041993 -0.0896841735 0.5031905770 4289638321
-0.2107568979 -0.0889784694 0.5023627877 4289638321
-0.2111730278 -0.0885948911 0.5033546686 4289572528
-0.2108252048 -0.0878906250 0.5025255680 4289572528
-0.2108590603 -0.0873463079 0.5026062727 4289572528
-0.2108927220 -0.0868017301 0.5026865005 4289638321
-0.2105440646 -0.0861006230 0.5018554330 4289638321
-0.2109594196 -0.0857117921 0.5028455257 4289572528
-0.2109924853 -0.0851664320 0.5029243231 4289572528
-0.2106430382 -0.0844675228 0.5020913482 4289506735
-0.2106756270 -0.0839226469 0.5021690726 4289506735
-0.2107080221 -0.0833775252 0.5022462606 4289506735
-0.2103577405 -0.0826818123 0.5014113188 4289506735
-0.2103896737 -0.0821371749 0.5014874339 4289638062
-0.2104214132 -0.0815922916 0.5015630722 4289703855
-0.2100702971 -0.0808997974 0.5007261634 4289638062
-0.2101015598 -0.0803554133 0.5008007288 4289572269
-0.2101326287 -0.0798107907 0.5008747578 4289506989
-0.2101634890 -0.0792659223 0.5009483099 4289506989
-0.2101941556 -0.0787208155 0.5010213852 4289506989
-0.2098416984 -0.0780330747 0.5001812577 4289572782
-0.2098718882 -0.0774884894 0.5002532601 4289572782
-0.2099018991 -0.0769436732 0.5003247857 4289506989
-0.2099316865 -0.0763986185 0.5003957748 4289441194
-0.2099612802 -0.0758533329 0.5004662871 4289441194
-0.2096074671 -0.0751703978 0.4996229708 4289310378
-0.2096365988 -0.0746256486 0.4996924102 4289310378
-0.2096655220 -0.0740806758 0.4997613728 4289244585
-0.2096942514 -0.0735354722 0.4998298287 4289178792
-0.2097227722 -0.0729900524 0.4998978078 4289309608
-0.2097510844 -0.0724444091 0.4999652803 4289243815
-0.2093956769 -0.0717671067 0.4991181493 4289178022
-0.2094235271 -0.0712220222 0.4991845489 4289243815
-0.2094511837 -0.0706767216 0.4992504418 4289243815
-0.2090949565 -0.0700027570 0.4984013438 4289178022
-0.2091221511 -0.0694580302 0.4984661639 4289243815
-0.2087653726 -0.0687866434 0.4976157248 4289243815
-0.2087920904 -0.0682424903 0.4976794422 4289309095
-0.2088186145 -0.0676981285 0.4977426529 4289243302
-0.2088449299 -0.0671535656 0.4978053868 4289243302
-0.2088710368 -0.0666087940 0.4978676140 4289177509
-0.2088969499 -0.0660638213 0.4979293644 4289177509
-0.2089226395 -0.0655186400 0.4979906082 4289243302
-0.2085640281 -0.0648538321 0.4971358180 4289112229
-0.2089734077 -0.0644276887 0.4981116354 4289178022
-0.2086142898 -0.0637644827 0.4972556233 4289178022
-0.2082548887 -0.0631030947 0.4963989258 4289112229
-0.2082794607 -0.0625589415 0.4964574873 4289177509
-0.2079194933 -0.0619001724 0.4955994785 4289111716
-0.2079436034 -0.0613566414 0.4956569672 4289045923
-0.2079675049 -0.0608129203 0.4957139492 4289045923
-0.2079911977 -0.0602690130 0.4957704246 4288914337
-0.2076301873 -0.0596145242 0.4949099123 4288980130
-0.2080379725 -0.0591806434 0.4958818853 4288980130
-0.2076764554 -0.0585278012 0.4950201809 4288980130
-0.2076992840 -0.0579841696 0.4950746000 4288980130
-0.2081065625 -0.0575467311 0.4960453808 4288980130
-0.2077443004 -0.0568963736 0.4951818883 4288980130
-0.2077665031 -0.0563522130 0.4952348173 4288914337
-0.2077884823 -0.0558078773 0.4952872097 4288848546
-0.2078102678 -0.0552633703 0.4953391254 4288782753
-0.2074469626 -0.0546173602 0.4944731593 4288782753
-0.2078531981 -0.0541738458 0.4954414666 4288782753
-0.2078743428 -0.0536288284 0.4954918921 4288848546
-0.2075102925 -0.0529853478 0.4946241379 4288848546
-0.2075309902 -0.0524410121 0.4946734607 4288782753
-0.2071664035 -0.0518002361 0.4938044250 4288716960
-0.2068015337 -0.0511613153 0.4929347336 4288651167
-0.2068215311 -0.0506185219 0.4929823577 4288716960
-0.2068413049 -0.0500755720 0.4930295348 4288716960
-0.2068608850 -0.0495324694 0.4930761755 4288716960
-0.2068802416 -0.0489892103 0.4931223094 4288782753
-0.2068993896 -0.0484458022 0.4931679666 4288782753
-0.2065330148 -0.0478130355 0.4922946692 4288585887
-0.2069370598 -0.0473585315 0.4932577610 4288520094
-0.2065701932 -0.0467274971 0.4923832715 4288520094
-0.2069738954 -0.0462706760 0.4933455586 4288322715
-0.2073774487 -0.0458116829 0.4943074882 4288191643
-0.2077808678 -0.0453505218 0.4952690601 4289178538
-0.2085696608 -0.0449703187 0.4971492290 4290889158
-0.2089728117 -0.0445038080 0.4981102049 4291678674
-0.2109181881 -0.0443595126 0.5027471781 4291876055
-0.2097786814 -0.0435642861 0.5000310540 4291941848
-0.2105670273 -0.0431703441 0.5019102097 4292007386
-0.2117409855 -0.0428502597 0.5047084689 4292138972
-0.2125291824 -0.0424469151 0.5065872073 4292336864
-0.2148602754 -0.0423434563 0.5121436119 4292534243
-0.2160341740 -0.0420026667 0.5149417520 4292600806
-0.2168222368 -0.0415816605 0.5168201923 4292666599
-0.2176101804 -0.0411564596 0.5186983347 4292929003
-0.2183980197 -0.0407270677 0.5205762386 4292994796
-0.2191857398 -0.0402934775 0.5224538445 4293125869
-0.2203592807 -0.0399256200 0.5252510905 4293257455
-0.2207608521 -0.0394137241 0.5262083411 4293454834
-0.2215482295 -0.0389675610 0.5280851126 4293718006
-0.2223354876 -0.0385172032 0.5299616456 4293915385
-0.2231226265 -0.0380626582 0.5318378806 4293981178
-0.2235235870 -0.0375390835 0.5327935815 4293915385
-0.2243104428 -0.0370771736 0.5346691608 4293915385
-0.2250971645 -0.0366110764 0.5365443826 4293915383
-0.2254976332 -0.0360790119 0.5374989510 4293849590
-0.2262840569 -0.0356055535 0.5393735170 4294112248
-0.2266841829 -0.0350681692 0.5403272510 4294178041
-0.2274703085 -0.0345873609 0.5422010422 4294112248
-0.2278700620 -0.0340446644 0.5431539416 4294112248
-0.2282696366 -0.0334998183 0.5441063643 4293520111
-0.2290552855 -0.0330084972 0.5459790230 4292401630
-0.2302270830 -0.0325676352 0.5487720966 4291147189
-0.2302398235 -0.0319596790 0.5488024950 4290160294
-0.2306386679 -0.0314042270 0.5497531891 4290227368
-0.2314236611 -0.0308982190 0.5516242981 4290227368
-0.2322084904 -0.0303880330 0.5534950495 4290226341
-0.2326067835 -0.0298241265 0.5544444323 4290226341
-0.2333912700 -0.0293066073 0.5563143492 4290093472
-0.2322434485 -0.0285474118 0.5535783768 4290422437
-0.2338004112 -0.0281196050 0.5572895408 4291936959
-0.2341978699 -0.0275471676 0.5582369566 4293515991
-0.2196897417 -0.1699998677 0.5250452161 4290361787
-0.2197514027 -0.1694640666 0.5251925588 4290098615
-0.2194428593 -0.1686434150 0.5244551897 4289572271
-0.2195041031 -0.1681076139 0.5246015191 4288914341
-0.2195651829 -0.1675713658 0.5247475505 4287992985
-0.2192557454 -0.1667529792 0.5240079761 4287137676
-0.2193164080 -0.1662167460 0.5241529346 4285624691
-0.2193768919 -0.1656800658 0.5242975354 4284900968
-0.2194372267 -0.1651429385 0.5244417191 4284506210
-0.2194973975 -0.1646053642 0.5245855451 4284177245
-0.2188156545 -0.1635130793 0.5229561925 4283979864
-0.2185043246 -0.1627002060 0.5222121477 4284440415
-0.2193058431 -0.1627146900 0.5241277218 4284835175
-0.2189940810 -0.1619018614 0.5233826041 4285032554
-0.2190532386 -0.1613639146 0.5235239863 4285427312
-0.2187408358 -0.1605529487 0.5227773786 4285822070
-0.2187995613 -0.1600150466 0.5229176879 4286216313
-0.2177433819 -0.1586644351 0.5203935504 4286150520
-0.2185448110 -0.1586681008 0.5223088861 4286150520
-0.2186029404 -0.1581298262 0.5224478245 4286282106
-0.2179171443 -0.1570550948 0.5208088160 4286150522
-0.2183467001 -0.1567848772 0.5218354464 4285887350
-0.2184042186 -0.1562462300 0.5219728947 4285953143
-0.2180894166 -0.1554418951 0.5212205052 4286282108
-0.2177742273 -0.1546389908 0.5204672813 4286413178
-0.2178310603 -0.1541009098 0.5206030607 4286150006
-0.2175152451 -0.1532999128 0.5198482871 4285886834
-0.2171990871 -0.1525003314 0.5190926790 4285689455
-0.2176278532 -0.1522234976 0.5201174021 4285558383
-0.2173111588 -0.1514249295 0.5193605423 4285229418
-0.2169940919 -0.1506277919 0.5186027884 4285098597
-0.2170496136 -0.1500899792 0.5187354684 4284967011
-0.2174779922 -0.1498087049 0.5197592378 4284637792
-0.2167869955 -0.1487570703 0.5181078315 4284440413
-0.2168419063 -0.1482189447 0.5182390809 4284440156
-0.2168966532 -0.1476804167 0.5183699131 4284242777
-0.2165777981 -0.1468882263 0.5176078677 4283979603
-0.2166320980 -0.1463498026 0.5177376270 4283979603
-0.2166862339 -0.1458109915 0.5178670287 4284308567
-0.2163664997 -0.1450212896 0.5171028376 4284440153
-0.2164201885 -0.1444825977 0.5172311664 4284570970
-0.2164736986 -0.1439435035 0.5173590779 4284570970
-0.2165270448 -0.1434040070 0.5174865723 4284570970
-0.2162061483 -0.1426173747 0.5167196393 4284570970
-0.2162590474 -0.1420780122 0.5168460608 4284768604
-0.2163117826 -0.1415382624 0.5169720650 4285229155
-0.2163643241 -0.1409981102 0.5170976520 4285558894
-0.2160422802 -0.1402145624 0.5163279772 4285887859
-0.2160943896 -0.1396745741 0.5164525509 4286677375
-0.2161463201 -0.1391341835 0.5165766478 4287203719
-0.2161980867 -0.1385934055 0.5167003274 4287730576
-0.2158748806 -0.1378129870 0.5159279108 4288125334
-0.2159262002 -0.1372723728 0.5160505772 4288191129
-0.2159773260 -0.1367313862 0.5161727667 4288322715
-0.2156532407 -0.1359535605 0.5153982043 4288388508
-0.2157039344 -0.1354127377 0.5155193806 4288256922
-0.2153792232 -0.1346369833 0.5147433281 4288388508
-0.2154294699 -0.1340963393 0.5148633718 4288520094
-0.2154795229 -0.1335553229 0.5149830580 4288585887
-0.2155294120 -0.1330139190 0.5151022673 4288783266
-0.2155791223 -0.1324721575 0.5152210593 4288980645
-0.2152529955 -0.1317001730 0.5144416690 4288914852
-0.2153022587 -0.1311585903 0.5145593882 4288849059
-0.2153513432 -0.1306166500 0.5146766901 4288980645
-0.2154002339 -0.1300743371 0.5147935748 4289112231
-0.2150729597 -0.1293056011 0.5140113831 4289046438
-0.2151214033 -0.1287634969 0.5141271353 4289112231
-0.2147935033 -0.1279968619 0.5133435130 4289178024
-0.2148415148 -0.1274549812 0.5134582520 4289178022
-0.2148893327 -0.1269127429 0.5135725141 4289178022
-0.2145605534 -0.1261488199 0.5127867460 4289243815
-0.2146079242 -0.1256068051 0.5128999352 4289309608
-0.2142785192 -0.1248450130 0.5121127367 4289440681
-0.2143254429 -0.1243032366 0.5122248530 4289506474
-0.2143721879 -0.1237611026 0.5123365521 4289506474
-0.2136650681 -0.1227855012 0.5106465816 4289572267
-0.2144651115 -0.1226757690 0.5125586390 4289638060
-0.2137573063 -0.1217032894 0.5108670592 4289638060
-0.2134260684 -0.1209479645 0.5100753903 4289440683
-0.2134716362 -0.1204069406 0.5101842880 4289374890
-0.2135170251 -0.1198655665 0.5102927685 4289375403
-0.2135622203 -0.1193238497 0.5104008317 4289375403
-0.2136072367 -0.1187817976 0.5105084181 4289243563
-0.2132745981 -0.1180304885 0.5097134113 4289309356
-0.2133191675 -0.1174887046 0.5098199248 4289506735
-0.2133635432 -0.1169465855 0.5099259615 4289572528
-0.2134077400 -0.1164041236 0.5100315809 4289375149
-0.2134517431 -0.1158613265 0.5101367831 4289309356
-0.2131176889 -0.1151140928 0.5093383789 4289310128
-0.2131612301 -0.1145715937 0.5094424486 4289375921
-0.2128265798 -0.1138265803 0.5086426735 4289178542
-0.2128696740 -0.1132843792 0.5087456703 4289178542
-0.2129125893 -0.1127418429 0.5088481903 4289310128
-0.2129553109 -0.1121989861 0.5089502931 4289310128
-0.2126195133 -0.1114574745 0.5081477761 4289310126
-0.2130401880 -0.1111122891 0.5091531873 4289310126
-0.2127038538 -0.1103720665 0.5083493590 4289375919
-0.2123671919 -0.1096334532 0.5075447559 4289441712
-0.2124088109 -0.1090909094 0.5076442361 4289441712
-0.2124502510 -0.1085480526 0.5077432394 4289507505
-0.2124914825 -0.1080048755 0.5078418255 4289507505
-0.2121536881 -0.1072698310 0.5070344806 4289507505
-0.2121944875 -0.1067269892 0.5071319938 4289507505
-0.2122350782 -0.1061838418 0.5072290301 4289507505
-0.2122754753 -0.1056403816 0.5073255897 4289507505
-0.2119365484 -0.1049089357 0.5065155625 4289507505
-0.2119764984 -0.1043658331 0.5066110492 4289507505
-0.2120162547 -0.1038224176 0.5067060590 4289507505
-0.2120558172 -0.1032786965 0.5068005919 4289573298
-0.2120951861 -0.1027346775 0.5068947077 4289573298
-0.2121343613 -0.1021903530 0.5069882870 4289834928
-0.2114142329 -0.1012820601 0.5052672029 4289834928
-0.2118325084 -0.1009199396 0.5062668920 4289769648
-0.2118710279 -0.1003756970 0.5063589811 4289769648
-0.2119093537 -0.0998311490 0.5064505339 4289769648
-0.2119474858 -0.0992863104 0.5065416694 4289703855
-0.2116055340 -0.0985642225 0.5057244301 4289703857
-0.2116432041 -0.0980197787 0.5058144927 4289703857
-0.2113006413 -0.0973000377 0.5049957633 4289835443
-0.2113378644 -0.0967559963 0.5050847530 4289703857
-0.2109947205 -0.0960386172 0.5042646527 4289638321
-0.2114117146 -0.0956670418 0.5052612424 4289638321
-0.2114483416 -0.0951221362 0.5053487420 4289572530
-0.2111044079 -0.0944068506 0.5045267940 4289572530
-0.2111405879 -0.0938623622 0.5046132207 4289703603
-0.2107960582 -0.0931494609 0.5037898421 4289637810
-0.2108317763 -0.0926053971 0.5038751960 4289507503
-0.2108672857 -0.0920610651 0.5039600730 4289441710
-0.2105219066 -0.0913512632 0.5031346679 4289507505
-0.2109377235 -0.0909715667 0.5041283965 4289507505
-0.2109726369 -0.0904264152 0.5042118430 4289638321
-0.2106264830 -0.0897187516 0.5033845901 4289638321
-0.2106609493 -0.0891740397 0.5034669638 4289572782
-0.2106952071 -0.0886290669 0.5035488009 4289572782
-0.2107292712 -0.0880838260 0.5036302209 4289572782
-0.2107631415 -0.0875383243 0.5037111640 4289638575
-0.2107968032 -0.0869925544 0.5037916303 4289703857
-0.2108302712 -0.0864465311 0.5038716197 4289638064
-0.2104822248 -0.0857449099 0.5030397773 4289703857
-0.2105152309 -0.0851993561 0.5031186938 4289703857
-0.2101666033 -0.0845001861 0.5022854805 4289638062
-0.2098176628 -0.0838027373 0.5014515519 4289638062
-0.2098499537 -0.0832583979 0.5015286803 4289703857
-0.2098820359 -0.0827138051 0.5016053915 4289638064
-0.2099139243 -0.0821689665 0.5016815662 4289572528
-0.2099456042 -0.0816238821 0.5017573237 4289506735
-0.2099770755 -0.0810785517 0.5018325448 4289506735
-0.2096265256 -0.0803865492 0.5009947419 4289506735
-0.2100394368 -0.0799871534 0.5019815564 4289572528
-0.2096883655 -0.0792966560 0.5011425018 4289572528
-0.2097189873 -0.0787513480 0.5012156963 4289572528
-0.2097494006 -0.0782058015 0.5012883544 4289572528
-0.2097796053 -0.0776600167 0.5013605952 4289506735
-0.2094274461 -0.0769735351 0.5005189776 4289506735
-0.2094572037 -0.0764282793 0.5005900264 4289506735
-0.2094867527 -0.0758827925 0.5006606579 4289440942
-0.2095160931 -0.0753370672 0.5007308125 4289440942
-0.2095452249 -0.0747911260 0.5008004308 4289440942
-0.2095741630 -0.0742449462 0.5008695722 4289440942
-0.2092204094 -0.0735640675 0.5000241399 4289375149
-0.2092488855 -0.0730184391 0.5000922084 4289375149
-0.2092771679 -0.0724725872 0.5001597404 4289309356
-0.2093052268 -0.0719265193 0.5002268553 4289309356
-0.2085677087 -0.0711192489 0.4984641969 4289243563
-0.2089779973 -0.0707042366 0.4994447827 4289243563
-0.2086226046 -0.0700300187 0.4985954165 4289243563
-0.2086497545 -0.0694850832 0.4986602962 4289243817
-0.2086766958 -0.0689399391 0.4987246990 4289243817
-0.2083204836 -0.0682690814 0.4978733957 4289243817
-0.2083469778 -0.0677245185 0.4979366660 4289243817
-0.2083732486 -0.0671797469 0.4979994595 4289178024
-0.2083993107 -0.0666347742 0.4980617762 4289178024
-0.2084251791 -0.0660895929 0.4981235862 4289243817
-0.2084508389 -0.0655442029 0.4981849194 4289243817
-0.2084762901 -0.0649986193 0.4982457459 4289243817
-0.2085015327 -0.0644528419 0.4983060658 4289243817
-0.2081432492 -0.0637893826 0.4974497855 4289178024
-0.2081680447 -0.0632442087 0.4975090325 4289178024
-0.2081926167 -0.0626988485 0.4975677729 4289112231
-0.2078335285 -0.0620388240 0.4967095852 4289112231
-0.2078576535 -0.0614940785 0.4967672229 4289112229
-0.2074980140 -0.0608366951 0.4959077239 4289046436
-0.2079052627 -0.0604040250 0.4968810380 4289112229
-0.2075451314 -0.0597482808 0.4960203171 4289046436
-0.2075683773 -0.0592037961 0.4960758686 4288980643
-0.2075914145 -0.0586591288 0.4961309433 4288980643
-0.2076142430 -0.0581142828 0.4961855114 4288914850
-0.2076368630 -0.0575692579 0.4962395728 4288849057
-0.2072754353 -0.0569186509 0.4953757823 4288849057
-0.2072976083 -0.0563742816 0.4954287410 4288849057
-0.2073195577 -0.0558297373 0.4954812229 4288849059
-0.2069573402 -0.0551826395 0.4946155548 4288849059
-0.2069788426 -0.0546387620 0.4946669340 4288849059
-0.2070001364 -0.0540947169 0.4947178066 4288849059
-0.2066371292 -0.0534511507 0.4938502610 4288783266
-0.2066579610 -0.0529077798 0.4939000309 4288783266
-0.2066785842 -0.0523642488 0.4939493239 4288783266
-0.2066989988 -0.0518205538 0.4939981401 4288783266
-0.2071034461 -0.0513720103 0.4949647188 4288651680
-0.2071234882 -0.0508269854 0.4950126112 4288651680
-0.2067589909 -0.0501885153 0.4941415191 4288585887
-0.2067785710 -0.0496441871 0.4941883087 4288585887
-0.2064135671 -0.0490084440 0.4933159351 4288782753
-0.2064326853 -0.0484648272 0.4933616519 4288782753
-0.2064515948 -0.0479210541 0.4934068322 4288716960
-0.2064702958 -0.0473771356 0.4934515357 4288848546
-0.2064887881 -0.0468330719 0.4934957325 4288454815
-0.2065070719 -0.0462888591 0.4935394228 4288191643
-0.2069097310 -0.0458296910 0.4945017695 4288322715
-0.2073122561 -0.0453683510 0.4954637587 4289901747
-0.2084839493 -0.0450711586 0.4982640147 4291151560
-0.2088862360 -0.0446034521 0.4992254674 4291743697
-0.2108272612 -0.0444580875 0.5038644075 4291744467
-0.2093056142 -0.0435814224 0.5002277493 4292073432
-0.2100922018 -0.0431873314 0.5021076798 4292139227
-0.2124179751 -0.0431013703 0.5076661110 4292205020
-0.2135893404 -0.0427718870 0.5104656219 4292402144
-0.2147606909 -0.0424361750 0.5132650733 4292665316
-0.2155470699 -0.0420192033 0.5151444674 4292862695
-0.2163333595 -0.0415980332 0.5170236826 4292862695
-0.2171195447 -0.0411726683 0.5189025998 4292863208
-0.2179056257 -0.0407431088 0.5207812786 4293060587
-0.2190766037 -0.0403803177 0.5235798359 4293387752
-0.2198624909 -0.0399413519 0.5254580379 4293650924
-0.2202631682 -0.0394292586 0.5264157057 4293652213
-0.2210487872 -0.0389829166 0.5282932520 4293783799
-0.2218342870 -0.0385323875 0.5301705599 4293784060
-0.2222345024 -0.0380117819 0.5311270356 4293784060
-0.2230197191 -0.0375538841 0.5330036879 4293849594
-0.2245752364 -0.0372194797 0.5367212296 4293915387
-0.2234340906 -0.0364370458 0.5339939594 4294440959
-0.2249893546 -0.0360932425 0.5377109647 4294243580
-0.2253887355 -0.0355588160 0.5386654735 4294572543
-0.2257879376 -0.0350222401 0.5396195650 4294440959
-0.2265722901 -0.0345422626 0.5414940715 4293914356
-0.2269711345 -0.0340003707 0.5424473286 4293980149
-0.2273698002 -0.0334563367 0.5434001088 4293123810
-0.2281536609 -0.0329658389 0.5452734828 4290755262
-0.2285519689 -0.0324164927 0.5462253690 4289765272
-0.2293355018 -0.0319186524 0.5480980277 4290028444
-0.2297334373 -0.0313640013 0.5490490198 4290226339
-0.2301311791 -0.0308072139 0.5499995947 4290357925
-0.2305287123 -0.0302482862 0.5509496927 4290161575
-0.2316970825 -0.0297863446 0.5537420511 4289898403
-0.2320942581 -0.0292211026 0.5546912551 4290031278
-0.2324912250 -0.0286537260 0.5556399822 4291281345
-0.2328879982 -0.0280842166 0.5565882325 4292401109
-0.2332845479 -0.0275125764 0.5575360060 4293914348
-0.2187533081 -0.1668136567 0.5241986513 4290427840
-0.2188138664 -0.1662772596 0.5243437290 4290230461
-0.2188742608 -0.1657404006 0.5244885087 4289572531
-0.2185646892 -0.1649240553 0.5237466097 4288980393
-0.2186246514 -0.1643872410 0.5238903761 4288190877
-0.2186844647 -0.1638499647 0.5240336657 4287072396
-0.2183739841 -0.1630359292 0.5232896805 4286085501
-0.2184333801 -0.1624986976 0.5234319568 4285164399
-0.2184925973 -0.1619610190 0.5235738754 4284374883
-0.2181812227 -0.1611493081 0.5228277445 4284045916
-0.2182400078 -0.1606116742 0.5229686499 4283980123
-0.2182986438 -0.1600736082 0.5231091380 4284177243
-0.2179863751 -0.1592642516 0.5223608017 4284506208
-0.2180445641 -0.1587262452 0.5225002766 4284835173
-0.2181026042 -0.1581877917 0.5226393342 4285032552
-0.2177894413 -0.1573808044 0.5218889117 4285493103
-0.2178470343 -0.1568424255 0.5220269561 4285887861
-0.2179044634 -0.1563035995 0.5221645832 4285822068
-0.2175904214 -0.1554990113 0.5214120150 4285953654
-0.2172760069 -0.1546958238 0.5206585526 4286019188
-0.2177042365 -0.1544210911 0.5216847658 4286150774
-0.2173893005 -0.1536189020 0.5209300518 4286150774
-0.2167022824 -0.1525564641 0.5192837715 4286019188
-0.2167583257 -0.1520188004 0.5194180608 4285887602
-0.2171860784 -0.1517405510 0.5204430819 4285690223
-0.2164978981 -0.1506833285 0.5187940001 4285822320
-0.2165533155 -0.1501453370 0.5189267993 4285624941
-0.2169807553 -0.1498640031 0.5199511051 4285361515
-0.2166636735 -0.1490681320 0.5191912651 4285229929
-0.2163462192 -0.1482737064 0.5184305310 4285098343
-0.2164008766 -0.1477349997 0.5185614824 4284835171
-0.2160827965 -0.1469425410 0.5177993178 4284637533
-0.2161370218 -0.1464039534 0.5179291964 4284440154
-0.2161910534 -0.1458649635 0.5180587173 4284308568
-0.2162449360 -0.1453255713 0.5181878209 4284308568
-0.2159257084 -0.1445361376 0.5174228549 4284242775
-0.2159791291 -0.1439968646 0.5175508857 4284176982
-0.2160323858 -0.1434572041 0.5176784992 4284307798
-0.2160854787 -0.1429171413 0.5178056955 4284307798
-0.2157650888 -0.1421307623 0.5170379877 4284373846
-0.2158177346 -0.1415908337 0.5171641111 4284505432
-0.2158702016 -0.1410505176 0.5172898769 4284243034
-0.2155489326 -0.1402667016 0.5165200233 4284374620
-0.2156009674 -0.1397265345 0.5166446567 4284571999
-0.2156528234 -0.1391859651 0.5167689323 4284703585
-0.2153306603 -0.1384047419 0.5159969330 4285164136
-0.2153820693 -0.1378643364 0.5161201358 4285756273
-0.2154332995 -0.1373235434 0.5162429214 4286414203
-0.2154843658 -0.1367823780 0.5163652301 4287072133
-0.2155352384 -0.1362408102 0.5164871812 4287664270
-0.2155859470 -0.1356988698 0.5166086555 4287993235
-0.2156364620 -0.1351565570 0.5167297125 4288453786
-0.2153123468 -0.1343801469 0.5159530640 4288716958
-0.2149878889 -0.1336052418 0.5151755810 4288585372
-0.2146630734 -0.1328318417 0.5143972039 4288519579
-0.2147126049 -0.1322908401 0.5145159364 4288716958
-0.2147619724 -0.1317494661 0.5146341920 4288980130
-0.2148111612 -0.1312077045 0.5147520900 4288717473
-0.2144851983 -0.1304375529 0.5139709711 4288980645
-0.2145339400 -0.1298960000 0.5140877366 4289178024
-0.2145824879 -0.1293540895 0.5142041445 4289178024
-0.2142556459 -0.1285866052 0.5134208798 4289046438
-0.2146790624 -0.1282691509 0.5144355297 4289046438
-0.2143516839 -0.1275028437 0.5136510134 4289046438
-0.2143994421 -0.1269604117 0.5137654543 4289112231
-0.2140714377 -0.1261962205 0.5129794478 4288783266
-0.2141187340 -0.1256540269 0.5130928159 4288914852
-0.2137901187 -0.1248919740 0.5123053789 4289178024
-0.2138369679 -0.1243500113 0.5124176145 4289309610
-0.2135077417 -0.1235901043 0.5116286874 4289309610
-0.2135541439 -0.1230483875 0.5117399096 4289309610
-0.2132243067 -0.1222906336 0.5109494925 4289309610
-0.2132702619 -0.1217491627 0.5110596418 4289178024
-0.2129398137 -0.1209935769 0.5102677345 4289178024
-0.2129853219 -0.1204523668 0.5103768110 4289178024
-0.2130306363 -0.1199108139 0.5104854107 4289178538
-0.2126993090 -0.1191580147 0.5096914172 4289178538
-0.2127441764 -0.1186167300 0.5097989440 4289046952
-0.2127888650 -0.1180750951 0.5099060535 4288981159
-0.2128333598 -0.1175331250 0.5100126863 4289178024
-0.2128776759 -0.1169908196 0.5101188421 4289178024
-0.2129217982 -0.1164481714 0.5102245808 4289178540
-0.2129657418 -0.1159051880 0.5103299022 4289178540
-0.2130094916 -0.1153618693 0.5104346871 4289244333
-0.2126759589 -0.1146150008 0.5096355081 4289310126
-0.2127192616 -0.1140719801 0.5097392201 4289178540
-0.2123851329 -0.1133273318 0.5089385509 4289178540
-0.2124279737 -0.1127846092 0.5090412498 4289244333
-0.2120932490 -0.1120422035 0.5082390904 4289310126
-0.2125131041 -0.1116981879 0.5092452168 4289375403
-0.2118002921 -0.1107596233 0.5075371265 4289375403
-0.2118422389 -0.1102175340 0.5076376200 4289375403
-0.2118839771 -0.1096751243 0.5077376962 4289441196
-0.2119255364 -0.1091323942 0.5078372359 4289441196
-0.2119669169 -0.1085893437 0.5079364181 4289506989
-0.2120080888 -0.1080459729 0.5080350637 4289441710
-0.2116710991 -0.1073106676 0.5072275400 4289441710
-0.2117118239 -0.1067676395 0.5073251128 4289507505
-0.2117523551 -0.1062242985 0.5074222684 4289507505
-0.2117926925 -0.1056806445 0.5075189471 4289507505
-0.2118328512 -0.1051366851 0.5076151490 4289507505
-0.2114944607 -0.1044056416 0.5068042874 4289507505
-0.2115341574 -0.1038620323 0.5068993568 4289507505
-0.2115736604 -0.1033181176 0.5069940090 4289507505
-0.2116129696 -0.1027739048 0.5070882440 4289507505
-0.2116520852 -0.1022293866 0.5071819425 4289638062
-0.2116910070 -0.1016845703 0.5072752237 4289703855
-0.2117297351 -0.1011394486 0.5073680282 4289638575
-0.2113894373 -0.1004140750 0.5065525770 4289638575
-0.2114277035 -0.0998693407 0.5066443086 4289638575
-0.2114657760 -0.0993243083 0.5067355633 4289638575
-0.2115036696 -0.0987789780 0.5068263412 4289769650
-0.2115413547 -0.0982333571 0.5069166422 4289769650
-0.2108204961 -0.0973373130 0.5051892400 4289703857
-0.2112368941 -0.0969671607 0.5061870813 4289769650
-0.2108946294 -0.0962485448 0.5053668618 4289704114
-0.2109313905 -0.0957037285 0.5054549575 4289638321
-0.2109679729 -0.0951586291 0.5055426359 4289638321
-0.2106248438 -0.0944430754 0.5047203898 4289638321
-0.2106609643 -0.0938983932 0.5048069358 4289572528
-0.2106968760 -0.0933534354 0.5048930049 4289572528
-0.2107326090 -0.0928081945 0.5049785972 4289573298
-0.2107681334 -0.0922626778 0.5050637722 4289507505
-0.2100438029 -0.0913863778 0.5033280253 4289507507
-0.2104586959 -0.0910065472 0.5043222904 4289507507
-0.2101136148 -0.0902979076 0.5034953356 4289507507
-0.2101482302 -0.0897532701 0.5035782456 4289507507
-0.2101826370 -0.0892083645 0.5036607385 4289638321
-0.2098367065 -0.0885028616 0.5028317571 4289638321
-0.2098706514 -0.0879584104 0.5029131174 4289572528
-0.2099044174 -0.0874136910 0.5029940009 4289638321
-0.2103182822 -0.0870260820 0.5039857626 4289638323
-0.2099713236 -0.0863234773 0.5031543374 4289572530
-0.2100044787 -0.0857779756 0.5032337904 4289638321
-0.2100374252 -0.0852322206 0.5033127666 4289638321
-0.2100701779 -0.0846862048 0.5033912659 4289638321
-0.2097221166 -0.0839875117 0.5025572181 4289638321
-0.2097544074 -0.0834419876 0.5026345849 4289572528
-0.2097865045 -0.0828962028 0.5027114749 4289572528
-0.2094376087 -0.0822007135 0.5018754005 4289572528
-0.2094692439 -0.0816554278 0.5019512177 4289572528
-0.2095006704 -0.0811098963 0.5020265579 4289572528
-0.2091509402 -0.0804176331 0.5011884570 4289572528
-0.2091819197 -0.0798726082 0.5012627244 4289506735
-0.2092126906 -0.0793273374 0.5013364553 4289506735
-0.2092432529 -0.0787818283 0.5014097095 4289572528
-0.2092736214 -0.0782360807 0.5014824867 4289506735
-0.2089225501 -0.0775485784 0.5006411672 4289506735
-0.2089524567 -0.0770033523 0.5007128716 4289506735
-0.2089821547 -0.0764578953 0.5007840395 4289506735
-0.2090116590 -0.0759121999 0.5008547306 4289506735
-0.2090409696 -0.0753662810 0.5009249449 4289440942
-0.2090700567 -0.0748201311 0.5009946823 4289440942
-0.2087173909 -0.0741382167 0.5001495481 4289440942
-0.2087460309 -0.0735926107 0.5002181530 4289440942
-0.2087744623 -0.0730467811 0.5002863407 4289440942
-0.2088026851 -0.0725007281 0.5003539324 4289440942
-0.2084489316 -0.0718229115 0.4995062649 4289375149
-0.2084767073 -0.0712774172 0.4995728135 4289375149
-0.2085042745 -0.0707317069 0.4996388555 4289375149
-0.2081497014 -0.0700572357 0.4987892210 4289375149
-0.2077948302 -0.0693845525 0.4979388416 4289309610
-0.2078216821 -0.0688401982 0.4980031848 4289309610
-0.2078483254 -0.0682956427 0.4980670512 4289309610
-0.2078747749 -0.0677508712 0.4981304109 4289309610
-0.2079010159 -0.0672058910 0.4981932640 4289243817
-0.2075448185 -0.0665381700 0.4973397553 4289243817
-0.2079528719 -0.0661153197 0.4983175397 4289243817
-0.2079784870 -0.0655697361 0.4983789325 4289178024
-0.2080039084 -0.0650239438 0.4984398186 4289178024
-0.2080291063 -0.0644779503 0.4985002279 4289178024
-0.2080541104 -0.0639317632 0.4985601306 4289178024
-0.2073139101 -0.0631523505 0.4967863858 4289178024
-0.2073384076 -0.0626077801 0.4968450963 4289178024
-0.2073626965 -0.0620630197 0.4969033003 4289178024
-0.2074106485 -0.0609729290 0.4970182180 4289112229
-0.2070516050 -0.0603161119 0.4961578250 4289112229
-0.2070750296 -0.0597716048 0.4962139428 4289112229
-0.2074810416 -0.0593363903 0.4971868992 4289046436
-0.2071212381 -0.0586820394 0.4963247180 4289046436
-0.2071440369 -0.0581369847 0.4963793159 4288980643
-0.2071666270 -0.0575917512 0.4964334667 4288980643
-0.2071890086 -0.0570463426 0.4964870811 4288980643
-0.2068281621 -0.0563963167 0.4956223965 4288980643
