VERSION 0.7
FIELDS x y z rgba
SIZE 4 4 4 4
TYPE F F F U
COUNT 1 1 1 1
WIDTH 921
HEIGHT 1
VIEWPOINT 0.0 0.0 0.0 1.0 0.0 0.0 0.0
POINTS 921
DATA ascii
-0.2375646681 -0.1949929893 0.4965851009 4289497962
-0.2368257046 -0.1938364208 0.4950404167 4289300583
-0.2360860854 -0.1926827580 0.4934943914 4289235558
-0.2353458256 -0.1915320009 0.4919469953 4289301351
-0.2350122035 -0.1907146722 0.4912496209 4289103972
-0.2346781790 -0.1898985654 0.4905514121 4289103972
-0.2343437672 -0.1890837103 0.4898523688 4289234790
-0.2336012721 -0.1879420877 0.4883003235 4289234790
-0.2332659364 -0.1871305406 0.4875994027 4289168995
-0.2325222790 -0.1859939247 0.4860449135 4289234788
-0.2313699126 -0.1845348030 0.4836360812 4289300324
-0.2310330272 -0.1837295294 0.4829318821 4289300324
-0.2311040461 -0.1832492799 0.4830803573 4289235042
-0.2307664901 -0.1824456602 0.4823747575 4289300835
-0.2308371067 -0.1819653809 0.4825223684 4289300834
-0.2309075892 -0.1814846545 0.4826696813 4289300834
-0.2309779078 -0.1810034811 0.4828166664 4289366114
-0.2310480922 -0.1805218756 0.4829633832 4289300321
-0.2311181277 -0.1800398231 0.4831098020 4289235039
-0.2311880291 -0.1795573384 0.4832558930 4289235039
-0.2312577814 -0.1790744215 0.4834016860 4289300573
-0.2313273847 -0.1785910577 0.4835471809 4289168987
-0.2313968390 -0.1781072617 0.4836923778 4289037399
-0.2314661443 -0.1776230335 0.4838372469 4289037399
-0.2307157069 -0.1765113324 0.4822686017 4289103447
-0.2303745598 -0.1757152826 0.4815554917 4289103447
-0.2304430604 -0.1752323359 0.4816986918 4289103445
-0.2305114120 -0.1747489572 0.4818415642 4289103445
-0.2301693410 -0.1739550531 0.4811265171 4289103443
-0.2310580760 -0.1740901172 0.4829842746 4289037650
-0.2303050607 -0.1729878634 0.4814102054 4289169236
-0.2303726822 -0.1725036353 0.4815515876 4289235029
-0.2308509350 -0.1723255962 0.4825512767 4289234770
-0.2309183925 -0.1718396395 0.4826922715 4289234770
-0.2309857011 -0.1713532656 0.4828329682 4289234769
-0.2314639688 -0.1711705029 0.4838327169 4289103183
-0.2311198413 -0.1703792363 0.4831133783 4288971849
-0.2315980643 -0.1701938808 0.4841129780 4289103435
-0.2308419049 -0.1691020876 0.4825323820 4289431884
-0.2317315340 -0.1692155749 0.4843919873 4289497677
-0.2313863188 -0.1684260964 0.4836703539 4289497675
-0.2314525396 -0.1679367572 0.4838088155 4289497675
-0.2315186113 -0.1674470007 0.4839469194 4289431882
-0.2315845340 -0.1669568270 0.4840847254 4289431882
-0.2312381119 -0.1661700308 0.4833605886 4289367108
-0.2313036025 -0.1656799018 0.4834974706 4289301315
-0.2313689440 -0.1651893407 0.4836340547 4289367110
-0.2314341217 -0.1646983773 0.4837702811 4289432903
-0.2314991355 -0.1642069966 0.4839062095 4289498444
-0.2315640002 -0.1637151986 0.4840417802 4289564237
-0.2316287011 -0.1632229835 0.4841770232 4289629777
-0.2316932380 -0.1627303660 0.4843119681 4289563984
-0.2317576259 -0.1622373313 0.4844465256 4289564499
-0.2322350889 -0.1620322019 0.4854445755 4289564499
-0.2322992682 -0.1615374684 0.4855787158 4289564497
-0.2323632836 -0.1610423177 0.4857125580 4289630290
-0.2324271351 -0.1605467647 0.4858460128 4289630290
-0.2324908376 -0.1600508094 0.4859791696 4289564497
-0.2325543612 -0.1595544368 0.4861119688 4289498702
-0.2330316454 -0.1593406796 0.4871096313 4289564495
-0.2330949605 -0.1588426232 0.4872419834 4289367631
-0.2327439785 -0.1580628902 0.4865083396 4289433424
-0.2328068614 -0.1575649083 0.4866397679 4289433424
-0.2328695804 -0.1570665091 0.4867708683 4289433424
-0.2329321206 -0.1565677226 0.4869016111 4289498963
-0.2325799316 -0.1557908207 0.4861654043 4289498963
-0.2326420397 -0.1552921087 0.4862952232 4289433172
-0.2327039689 -0.1547930092 0.4864246845 4289498965
-0.2327657491 -0.1542935073 0.4865538180 4289368149
-0.2328273505 -0.1537936032 0.4866825938 4289433942
-0.2324736565 -0.1530200541 0.4859432578 4289433944
-0.2329500616 -0.1527926028 0.4869391024 4289433944
-0.2330111712 -0.1522915214 0.4870668352 4289433944
-0.2330721021 -0.1517900378 0.4871941805 4289368151
-0.2331328690 -0.1512881517 0.4873211980 4289367896
-0.2331934571 -0.1507858932 0.4874478579 4289367896
-0.2332538813 -0.1502832323 0.4875741899 4289368151
-0.2333141416 -0.1497801840 0.4877001345 4289302358
-0.2333742231 -0.1492767483 0.4878257215 4289302358
-0.2334341258 -0.1487729251 0.4879509509 4289302358
-0.2330776602 -0.1480044127 0.4872058034 4289170517
-0.2331371158 -0.1475007087 0.4873301089 4289236310
-0.2331964076 -0.1469966173 0.4874540269 4289171030
-0.2332555205 -0.1464921534 0.4875775874 4289171030
-0.2333144546 -0.1459873021 0.4877007902 4289105239
-0.2333732247 -0.1454820633 0.4878236353 4289105239
-0.2334318161 -0.1449764520 0.4879461229 4289039446
-0.2334902287 -0.1444704533 0.4880682230 4289039446
-0.2335484773 -0.1439640671 0.4881899655 4288973653
-0.2336065471 -0.1434573084 0.4883113503 4288973653
-0.2336644381 -0.1429501772 0.4884323776 4288973399
-0.2337221503 -0.1424426734 0.4885530174 4288973399
-0.2337796837 -0.1419347823 0.4886732697 4288908376
-0.2338370532 -0.1414265335 0.4887931645 4288842583
-0.2338942289 -0.1409178972 0.4889127016 4288776790
-0.2339512408 -0.1404088885 0.4890318513 4288710997
-0.2340080589 -0.1398995072 0.4891506433 4288645206
-0.2340646982 -0.1393897682 0.4892690480 4288579413
-0.2341211736 -0.1388796568 0.4893870950 4288513620
-0.2341774553 -0.1383691579 0.4895047545 4288447827
-0.2342335582 -0.1378583163 0.4896220267 4288447827
-0.2342894822 -0.1373470873 0.4897389114 4288382034
-0.2343452275 -0.1368355006 0.4898554385 4288315986
-0.2344007939 -0.1363235563 0.4899715781 4288250193
-0.2340375036 -0.1355687231 0.4892121851 4288118607
-0.2340926081 -0.1350569576 0.4893273711 4288118607
-0.2341475189 -0.1345448345 0.4894421697 4288053327
-0.2342022508 -0.1340323538 0.4895565808 4287921741
-0.2342568040 -0.1335195154 0.4896706045 4287921489
-0.2343111634 -0.1330063194 0.4897842407 4287921489
-0.2343653440 -0.1324927658 0.4898974895 4287855696
-0.2344193459 -0.1319788545 0.4900103509 4287855696
-0.2344731539 -0.1314645857 0.4901228547 4287789903
-0.2345267832 -0.1309499592 0.4902349412 4287724110
-0.2345802188 -0.1304349899 0.4903466403 4287724112
-0.2346334755 -0.1299196631 0.4904579520 4287789905
-0.2346865386 -0.1294039935 0.4905688763 4287789905
-0.2347394228 -0.1288879663 0.4906794131 4287789905
-0.2347921133 -0.1283715963 0.4907895625 4287921491
-0.2352647334 -0.1280836016 0.4917774796 4287921491
-0.2353171408 -0.1275656223 0.4918870330 4287790418
-0.2353693545 -0.1270472854 0.4919961989 4287856211
-0.2350009978 -0.1263026595 0.4912261963 4287855956
-0.2350527346 -0.1257845610 0.4913343489 4287855956
-0.2355248779 -0.1254902184 0.4923212826 4287724113
-0.2355763316 -0.1249705106 0.4924288392 4287724113
-0.2356276065 -0.1244504601 0.4925360084 4287789906
-0.2356786728 -0.1239300743 0.4926427603 4287789906
-0.2357295603 -0.1234093532 0.4927491248 4287855699
-0.2357802540 -0.1228882968 0.4928551018 4287855699
-0.2358307540 -0.1223668978 0.4929606318 4287855956
-0.2358810604 -0.1218451709 0.4930658042 4287921749
-0.2359311730 -0.1213231087 0.4931705594 4287987542
-0.2359810770 -0.1208007112 0.4932748973 4287987542
-0.2360308021 -0.1202779859 0.4933788180 4287921751
-0.2360803336 -0.1197549328 0.4934823513 4287921751
-0.2365513295 -0.1194444597 0.4944668710 4287987544
-0.2366005480 -0.1189198121 0.4945697784 4287921751
-0.2362277359 -0.1181837991 0.4937904775 4287855958
-0.2362764925 -0.1176594347 0.4938923717 4287921751
-0.2363250405 -0.1171347424 0.4939938486 4287791196
-0.2367954850 -0.1168179661 0.4949772358 4287791196
-0.2364215404 -0.1160844043 0.4941955805 4287856735
-0.2368917614 -0.1157651097 0.4951784909 4287856735
-0.2369395941 -0.1152381971 0.4952784777 4287922528
-0.2369872481 -0.1147109643 0.4953780770 4287988321
-0.2366121560 -0.1139798835 0.4945940375 4287989092
-0.2370819300 -0.1136555597 0.4955759943 4287989092
-0.2371289730 -0.1131273806 0.4956743419 4287857765
-0.2371758074 -0.1125988886 0.4957722425 4287726179
-0.2372224480 -0.1120700836 0.4958697557 4287791974
-0.2376918346 -0.1117397919 0.4968509078 4287923560
-0.2377381474 -0.1112094223 0.4969477057 4287792231
-0.2377842665 -0.1106787473 0.4970441163 4287858024
-0.2382533699 -0.1103437543 0.4980246723 4287923819
-0.2382991612 -0.1098115146 0.4981203973 4287792233
-0.2387681007 -0.1094730720 0.4991006255 4287858278
-0.2388135642 -0.1089392751 0.4991956651 4287858278
-0.2388588190 -0.1084051728 0.4992902875 4287858024
-0.2389038801 -0.1078707650 0.4993844628 4287858024
-0.2389487326 -0.1073360592 0.4994781911 4287923819
-0.2389933765 -0.1068010554 0.4995715320 4287989612
-0.2390378118 -0.1062657535 0.4996643960 4287858541
-0.2390820384 -0.1057301462 0.4997568429 4287858541
-0.2391260564 -0.1051942483 0.4998488724 4287793263
-0.2391698658 -0.1046580523 0.4999404550 4287859056
-0.2392134815 -0.1041215584 0.5000315905 4287990388
-0.2392568737 -0.1035847813 0.5001223087 4288187767
-0.2393000573 -0.1030477062 0.5002126098 4288319355
-0.2393430471 -0.1025103405 0.5003024340 4288385148
-0.2393858135 -0.1019726917 0.5003918409 4288254334
-0.2390038520 -0.1012549028 0.4995934367 4288254334
-0.2390461266 -0.1007176265 0.4996818006 4288123008
-0.2390881926 -0.1001800746 0.4997697473 4288188801
-0.2391300499 -0.0996422321 0.4998572171 4288320387
-0.2391716987 -0.0991041139 0.4999442697 4288451973
-0.2392131239 -0.0985657051 0.5000308752 4288583559
-0.2392543554 -0.0980270281 0.5001170635 4288715145
-0.2397203892 -0.0976612270 0.5010912418 4288715145
-0.2397612631 -0.0971210375 0.5011766553 4288780938
-0.2402271032 -0.0967518091 0.5021504164 4288517512
-0.2402676195 -0.0962101072 0.5022351146 4288714891
-0.2403079122 -0.0956681296 0.5023193359 4288846477
-0.2403479964 -0.0951258838 0.5024031401 4288846477
-0.2403878719 -0.0945833623 0.5024864674 4288912270
-0.2404275388 -0.0940405801 0.5025693774 4289043856
-0.2408925742 -0.0936630070 0.5035414696 4288978063
-0.2409318686 -0.0931187198 0.5036236048 4288780684
-0.2409709543 -0.0925741717 0.5037052631 4288583052
-0.2410098165 -0.0920293629 0.5037865043 4288583052
-0.2410484552 -0.0914842859 0.5038673282 4288846224
-0.2410868853 -0.0909389481 0.5039476156 4289043603
-0.2411251068 -0.0903933495 0.5040274858 4288978325
-0.2411630899 -0.0898474976 0.5041069388 4288978325
-0.2412008643 -0.0893013775 0.5041858554 4288978841
-0.2412384152 -0.0887550116 0.5042644143 4288978841
-0.2412757576 -0.0882083848 0.5043424368 4288847515
-0.2417392284 -0.0878163874 0.5053111911 4288913308
-0.2417761832 -0.0872682929 0.5053884983 4288847517
-0.2418129295 -0.0867199451 0.5054652691 4288913310
-0.2418494523 -0.0861713514 0.5055416226 4289045412
-0.2418857515 -0.0856225118 0.5056174994 4289374377
-0.2423485070 -0.0852234587 0.5065848231 4289769137
-0.2423844188 -0.0846731588 0.5066598654 4290163895
-0.2424201220 -0.0841226131 0.5067344904 4290624965
-0.2428824604 -0.0837189555 0.5077009201 4291282895
-0.2429177761 -0.0831669569 0.5077747703 4291810009
-0.2429528683 -0.0826147124 0.5078481436 4292402146
-0.2429877371 -0.0820622370 0.5079209805 4292994283
-0.2430223823 -0.0815095156 0.5079934001 4293454834
-0.2430568039 -0.0809565634 0.5080654025 4293980408
-0.2430910021 -0.0804033801 0.5081368685 4294375166
-0.2431249768 -0.0798499584 0.5082078576 4294243582
-0.2431587130 -0.0792963058 0.5082784295 4293980410
-0.2431922406 -0.0787424296 0.5083484650 4293586422
-0.2432255298 -0.0781883225 0.5084180832 4293389043
-0.2432585955 -0.0776339844 0.5084871650 4293257203
-0.2432914376 -0.0770794228 0.5085558295 4293191410
-0.2433240563 -0.0765246376 0.5086240172 4293060078
-0.2437841296 -0.0761031434 0.5095857382 4292796906
-0.2438163459 -0.0755469427 0.5096530914 4292928238
-0.2442761362 -0.0751220807 0.5106141567 4292862445
-0.2447358221 -0.0746950507 0.5115750432 4292993517
-0.2447674572 -0.0741362348 0.5116412044 4293125103
-0.2452268451 -0.0737058371 0.5126014352 4292993262
-0.2452580780 -0.0731456205 0.5126667619 4292861676
-0.2457171679 -0.0727118626 0.5136263967 4292927209
-0.2457479984 -0.0721502379 0.5136908293 4292664037
-0.2462067902 -0.0717131197 0.5146498084 4291478987
-0.2462372035 -0.0711500943 0.5147134066 4290557885
-0.2462673932 -0.0705868676 0.5147765279 4291082937
-0.2462973446 -0.0700234324 0.5148391128 4291017144
-0.2467554659 -0.0695805848 0.5157967210 4291278257
-0.2467850000 -0.0690157637 0.5158584714 4291278257
-0.2472428083 -0.0685695708 0.5168154240 4291278000
-0.2472719252 -0.0680033639 0.5168763399 4291278000
-0.2477294207 -0.0675538257 0.5178326368 4291673015
-0.2477581203 -0.0669862404 0.5178925991 4291409843
-0.2477865815 -0.0664184541 0.5179521441 4291081648
-0.2482435703 -0.0659644008 0.5189073682 4291015855
-0.2482716143 -0.0653952435 0.5189659595 4291015085
-0.2482994199 -0.0648258999 0.5190240741 4290817706
-0.2487558722 -0.0643673390 0.5199782252 4290817706
-0.2487832606 -0.0637966245 0.5200354457 4291015085
-0.2488103956 -0.0632257238 0.5200921893 4291278000
-0.2492663264 -0.0627626628 0.5210452676 4291541172
-0.2497221231 -0.0622974485 0.5219979882 4291804342
-0.2497486323 -0.0617240258 0.5220534205 4292067514
-0.2502040863 -0.0612554885 0.5230054259 4292001721
-0.2502301633 -0.0606807172 0.5230599642 4291935928
-0.2506852448 -0.0602088645 0.5240112543 4291672756
-0.2507109046 -0.0596327521 0.5240648389 4291212205
-0.2511656582 -0.0591575839 0.5250154138 4291014313
-0.2511908710 -0.0585801341 0.5250681043 4290487969
-0.2516452372 -0.0581016578 0.5260179043 4289632915
-0.2520994842 -0.0576210357 0.5269674063 4288843399
-0.2521240413 -0.0570410974 0.5270187855 4288317053
-0.2530074716 -0.0566533580 0.5288653970 4287988088
-0.2530316114 -0.0560711026 0.5289158821 4287856500
-0.2534851730 -0.0555828884 0.5298639536 4287922293
-0.2535088658 -0.0549993180 0.5299134851 4287856754
-0.2539620399 -0.0545078106 0.5308607817 4287659375
-0.2544150651 -0.0540141612 0.5318077207 4287461995
-0.2544381022 -0.0534281246 0.5318558812 4287461995
-0.2548907399 -0.0529311895 0.5328020453 4287461993
-0.2553431988 -0.0524321161 0.5337477922 4287461993
-0.2562253773 -0.0520181842 0.5355919003 4287396454
-0.2562475801 -0.0514275581 0.5356382728 4287264868
-0.2566995323 -0.0509220771 0.5365830064 4287264616
-0.2575813234 -0.0504987687 0.5384261608 4287264616
-0.2576028705 -0.0499047153 0.5384712219 4287198821
-0.2580542564 -0.0493928380 0.5394148231 4287133028
-0.2585054934 -0.0488788262 0.5403580070 4287067235
-0.2589565217 -0.0483626835 0.5413008332 4287067235
-0.2598375678 -0.0479237586 0.5431424975 4287067235
-0.2594278157 -0.0472456664 0.5422859788 4287133028
-0.2603085339 -0.0468014926 0.5441269279 4287067235
-0.2607588172 -0.0462768413 0.5450681448 4287133028
-0.2612089217 -0.0457500629 0.5460090041 4287133282
-0.2616588175 -0.0452211648 0.5469494462 4287133282
-0.2612477541 -0.0445433781 0.5460901856 4287133282
-0.2616972029 -0.0440122224 0.5470296741 4287133282
-0.2621464729 -0.0434789471 0.5479688048 4287067746
-0.2625955343 -0.0429435521 0.5489075184 4287067746
-0.2630444169 -0.0424060374 0.5498457551 4287133793
-0.2634930611 -0.0418664105 0.5507836342 4287068000
-0.2635109723 -0.0412572511 0.5508210063 4286936160
-0.2639591992 -0.0407143869 0.5517579913 4286804574
-0.2639766037 -0.0401039906 0.5517943501 4286870367
-0.2648550570 -0.0396223255 0.5536306500 4286870367
-0.2653026879 -0.0390731245 0.5545662642 4286870880
-0.2657501101 -0.0385218188 0.5555015206 4287068259
-0.2657665610 -0.0379069634 0.5555359721 4286871650
-0.2666442990 -0.0374128781 0.5573707223 4286871650
-0.2662295103 -0.0367363617 0.5565036535 4286806116
-0.2671068311 -0.0362370722 0.5583375692 4286806116
-0.2675531805 -0.0356762335 0.5592705011 4286806116
-0.2679992914 -0.0351132937 0.5602030158 4286806116
-0.2684451938 -0.0345482528 0.5611351132 4286806116
-0.2680290341 -0.0338722020 0.5602652431 4286871909
-0.2684744596 -0.0333049633 0.5611962676 4286413666
-0.2689196467 -0.0327356271 0.5621268749 4286479459
-0.2693645954 -0.0321641937 0.5630570054 4286413666
-0.2693783641 -0.0315402076 0.5630857348 4286413666
-0.2698228657 -0.0309655908 0.5640148520 4286414181
-0.2702671289 -0.0303888842 0.5649435520 4286282595
-0.2702800930 -0.0297626220 0.5649706721 4286019937
-0.2707239091 -0.0291827377 0.5658983588 4286085730
-0.2711674869 -0.0286007691 0.5668255687 4285955170
-0.2716108263 -0.0280167162 0.5677522421 4285889377
-0.2716227770 -0.0273871087 0.5677772760 4285824100
-0.2724967897 -0.0268423632 0.5696042180 4285824100
-0.2733706236 -0.0262935385 0.5714308023 4285693027
-0.2738130391 -0.0257001631 0.5723555684 4285627234
-0.2738240063 -0.0250652377 0.5723785162 4285430625
-0.2742659152 -0.0244687106 0.5733022690 4285364832
-0.2742763460 -0.0238326378 0.5733240843 4285233755
-0.2751490474 -0.0232694373 0.5751482844 4285167962
-0.2751589417 -0.0226312224 0.5751690269 4285234016
-0.2755998969 -0.0220274106 0.5760906935 4285299809
-0.2760405838 -0.0214215312 0.5770118833 4285168740
-0.2756183743 -0.0207486451 0.5761293173 4285168740
-0.2764898837 -0.0201721080 0.5779510736 4285365867
-0.2769298255 -0.0195610374 0.5788706541 4285629039
-0.2769381404 -0.0189184397 0.5788880587 4285694581
-0.2769461572 -0.0182757843 0.5789048672 4285760374
-0.2773853242 -0.0176605396 0.5798227787 4285892992
-0.2778242230 -0.0170432385 0.5807402730 4286221957
-0.2786942720 -0.0164493490 0.5825589299 4286550670
-0.2787012458 -0.0158024784 0.5825735331 4286945428
-0.2787079513 -0.0151555613 0.5825874805 4287340188
-0.2791458070 -0.0145310583 0.5835027695 4287537567
-0.2795833945 -0.0139045082 0.5844174623 4287799208
-0.2791578174 -0.0132350009 0.5835278630 4287996587
-0.2804577947 -0.0126452744 0.5862452984 4288391345
-0.2808946073 -0.0120125944 0.5871583223 4288391345
-0.2813311517 -0.0113778738 0.5880708694 4288786103
-0.2813359499 -0.0107246675 0.5880808234 4288654517
-0.2817719281 -0.0100868754 0.5889922380 4289246654
-0.2817761600 -0.0094326045 0.5890010595 4289049275
-0.2826431394 -0.0088051911 0.5908132792 4289180091
-0.2826468050 -0.0081488602 0.5908209682 4289377470
-0.2830817103 -0.0075039449 0.5917300582 4289443265
-0.2839478552 -0.0068674390 0.5935406089 4289640644
-0.2843822241 -0.0062174695 0.5944485664 4289640644
-0.2848163247 -0.0055654771 0.5953559279 4289640644
-0.2848185897 -0.0049040332 0.5953606963 4289838023
-0.2848205566 -0.0042425743 0.5953648090 4289706437
-0.2852537930 -0.0035865284 0.5962704420 4289772230
-0.2861182988 -0.0029328910 0.5980775356 4289772230
-0.2869825363 -0.0022752360 0.5998840332 4289903303
-0.2874149382 -0.0016111457 0.6007878780 4289969096
-0.2874154747 -0.0009436292 0.6007890105 4289969096
-0.2878473103 -0.0002765245 0.6016916633 4289969096
-0.2878472805 0.0003919980 0.6016916037 4289903301
-0.2891416252 0.0010652893 0.6043971777 4289837508
-0.2891410291 0.0017368142 0.6043959260 4290034887
-0.2891401350 0.0024083338 0.6043940783 4289771715
-0.2900020480 0.0030890398 0.6061957479 4289771202
-0.2895690203 0.0037569483 0.6052905917 4290231753
-0.2904303372 0.0044426448 0.6070910096 4290231753
-0.2908598185 0.0051247333 0.6079887152 4290231753
-0.2912890017 0.0058088112 0.6088858247 4289836995
-0.2917178571 0.0064948755 0.6097823381 4286086794
-0.2921464443 0.0071829245 0.6106781960 4284903035
-0.2925747037 0.0078729559 0.6115733981 4284376691
-0.2930026948 0.0085649686 0.6124680042 4283784552
-0.2929988205 0.0092453426 0.6124599576 4283718759
-0.2934261858 0.0099403067 0.6133533120 4283981931
-0.2942847610 0.0106528653 0.6151479483 4284837240
-0.2942799926 0.0113361562 0.6151379943 4285560705
-0.2955694199 0.0120722828 0.6178333163 4287402909
-0.2951325774 0.0127398828 0.6169201732 4289837250
-0.2968527973 0.0135035776 0.6205159426 4289837250
-0.2981412113 0.0142546156 0.6232091188 4289903041
-0.2989977896 0.0149899898 0.6249997020 4289771455
-0.3011483848 0.0157972220 0.6294950843 4289770685
-0.3024357259 0.0165671539 0.6321859956 4289704892
-0.3037226796 0.0173430461 0.6348761916 4289639099
-0.2701125145 -0.2706412673 0.5659342408 4286414205
-0.2686284781 -0.2685289979 0.5628249645 4286282360
-0.2683304846 -0.2676064670 0.5622006059 4285690223
-0.2680321038 -0.2666849196 0.5615754128 4285426279
-0.2677333057 -0.2657643855 0.5609493256 4284965728
-0.2674340904 -0.2648448050 0.5603224635 4284308053
-0.2663417757 -0.2631430626 0.5580338836 4283847502
-0.2668344378 -0.2630086243 0.5590660572 4283650123
-0.2661373615 -0.2617020011 0.5576055646 4283584330
-0.2662331164 -0.2611764371 0.5578062534 4283648066
-0.2659318745 -0.2602618337 0.5571750402 4283582273
-0.2652331293 -0.2589605749 0.5557110906 4283714372
-0.2649309337 -0.2580487728 0.5550778508 4283845958
-0.2646282911 -0.2571379542 0.5544438362 4283582784
-0.2639277577 -0.2558428645 0.5529760718 4283780163
-0.2644194365 -0.2557039261 0.5540062189 4284767571
-0.2633201778 -0.2540279329 0.5517030954 4287004533
-0.2634136677 -0.2535049319 0.5518989563 4287399809
-0.2631089985 -0.2525992393 0.5512606502 4288123532
-0.2628039122 -0.2516945601 0.5506214499 4287926413
-0.2617017627 -0.2500297725 0.5483122468 4287926413
-0.2625910044 -0.2502680719 0.5501753092 4288386968
-0.2622848153 -0.2493656874 0.5495338440 4288584347
-0.2615794837 -0.2480861694 0.5480560660 4288453277
-0.2608734667 -0.2468092889 0.5465767980 4288387484
-0.2605658174 -0.2459116280 0.5459321737 4288453277
-0.2602577209 -0.2450150251 0.5452866554 4288453277
-0.2599492371 -0.2441194654 0.5446403027 4288519068
-0.2596403360 -0.2432249486 0.5439931154 4288584861
-0.2593310177 -0.2423315048 0.5433450937 4288650654
-0.2582218647 -0.2406939268 0.5410211682 4288716447
-0.2579114437 -0.2398042083 0.5403708220 4288716960
-0.2572006285 -0.2385445684 0.5388815403 4288716960
-0.2576895654 -0.2383981496 0.5399059057 4288782753
-0.2565775216 -0.2367720753 0.5375760198 4288848546
-0.2558649480 -0.2355188727 0.5360829830 4288848546
-0.2551516593 -0.2342683524 0.5345885754 4288782753
-0.2548384070 -0.2333875000 0.5339322686 4288782753
-0.2545247376 -0.2325077355 0.5332750678 4288848546
-0.2542106807 -0.2316290587 0.5326170325 4288914339
-0.2534950972 -0.2303869277 0.5311177969 4288914339
-0.2527788579 -0.2291475236 0.5296170712 4288980134
-0.2532660365 -0.2289995849 0.5306378007 4288980134
-0.2525488138 -0.2277631909 0.5291351676 4288980134
-0.2530358732 -0.2276134044 0.5301555991 4289045927
-0.2519159317 -0.2260195613 0.5278091431 4289045927
-0.2507950664 -0.2244300842 0.5254607201 4289045927
-0.2504773438 -0.2235626727 0.5247950554 4289111207
-0.2501592040 -0.2226963937 0.5241284966 4289111207
-0.2498406768 -0.2218312174 0.5234611034 4289176998
-0.2495217472 -0.2209671736 0.5227928758 4289111205
-0.2487998158 -0.2197486907 0.5212802887 4289111205
-0.2484799325 -0.2188877165 0.5206100941 4289111205
-0.2481596470 -0.2180278897 0.5199390650 4289045412
-0.2482419610 -0.2175223231 0.5201115012 4289045412
-0.2475178838 -0.2163116485 0.5185944438 4289111205
-0.2471963763 -0.2154552341 0.5179208517 4289111205
-0.2468744814 -0.2145999819 0.5172464252 4288980132
-0.2465521842 -0.2137458622 0.5165711045 4289177511
-0.2458258271 -0.2125439048 0.5150492787 4288914341
-0.2455025911 -0.2116929293 0.5143720508 4288782755
-0.2447750270 -0.2104957551 0.5128476620 4288913828
-0.2444508523 -0.2096479237 0.5121684670 4288848035
-0.2441262752 -0.2088012546 0.5114884377 4288386453
-0.2438012958 -0.2079557478 0.5108075142 4287399558
-0.2434759289 -0.2071114331 0.5101258159 4286082922
-0.2431501448 -0.2062682807 0.5094432235 4284898648
-0.2428239584 -0.2054263055 0.5087597966 4284962382
-0.2416877002 -0.2039024234 0.5063791871 4285620312
-0.2413604558 -0.2030644715 0.5056935549 4286934369
-0.2410328239 -0.2022277266 0.5050070286 4288052850
-0.2407047749 -0.2013921589 0.5043197274 4288775543
-0.2403763384 -0.2005577832 0.5036315918 4288709750
-0.2396420091 -0.1993872374 0.5020930767 4289365355
-0.2389070243 -0.1982195675 0.5005531311 4289562734
-0.2385771275 -0.1973904669 0.4998619258 4289431660
-0.2382468283 -0.1965625882 0.4991699159 4289431660
-0.2375101298 -0.1954018772 0.4976263940 4289432169
-0.2367727906 -0.1942440718 0.4960815310 4289366376
-0.2360347956 -0.1930891722 0.4945352972 4289366628
-0.2352961302 -0.1919371784 0.4929876924 4289366628
-0.2349633425 -0.1911187321 0.4922904074 4289234529
-0.2346301526 -0.1903015226 0.4915923178 4289168736
-0.2342965752 -0.1894855499 0.4908934236 4289168738
-0.2339625955 -0.1886707991 0.4901936650 4289168738
-0.2332212031 -0.1875300258 0.4886403084 4289234529
-0.2324791700 -0.1863921732 0.4870856106 4289234529
-0.2317364812 -0.1852572560 0.4855295718 4289234529
-0.2309931517 -0.1841252893 0.4839721620 4289234529
-0.2306566983 -0.1833201647 0.4832672179 4289169248
-0.2303198576 -0.1825162768 0.4825614691 4289235041
-0.2299826145 -0.1817136705 0.4818548858 4289235041
-0.2300528735 -0.1812336445 0.4820021093 4289169248
-0.2301229984 -0.1807531863 0.4821490347 4289234782
-0.2301929742 -0.1802722812 0.4822956622 4289234782
-0.2302628160 -0.1797909439 0.4824419618 4289168987
-0.2303325087 -0.1793091744 0.4825879931 4289168987
-0.2304020524 -0.1788269579 0.4827336967 4289234778
-0.2304714471 -0.1783443093 0.4828791022 4289168985
-0.2301319391 -0.1775458753 0.4821677506 4289103447
-0.2302009314 -0.1770632118 0.4823122919 4289037654
-0.2294517606 -0.1759528220 0.4807426631 4289102932
-0.2295202017 -0.1754710227 0.4808860421 4289102932
-0.2295884937 -0.1749887764 0.4810291529 4289168979
-0.2292472869 -0.1741950363 0.4803142548 4289168979
-0.2293151617 -0.1737128049 0.4804564714 4289103186
-0.2293829024 -0.1732301265 0.4805983901 4289103186
-0.2294504791 -0.1727470309 0.4807399809 4289234770
-0.2295179218 -0.1722635180 0.4808812737 4289234770
-0.2295852154 -0.1717795581 0.4810222685 4289168976
-0.2296523452 -0.1712951958 0.4811629355 4289234769
-0.2297193259 -0.1708103865 0.4813032746 4289235023
-0.2297861725 -0.1703251749 0.4814433157 4289235023
-0.2302633077 -0.1701428145 0.4824429750 4289169228
-0.2303299606 -0.1696558744 0.4825826287 4289169228
-0.2303964496 -0.1691685170 0.4827219546 4289235019
-0.2304627895 -0.1686807424 0.4828609526 4289300812
-0.2301180661 -0.1678927243 0.4821386933 4289497675
-0.2305950224 -0.1677039117 0.4831379950 4289431882
-0.2306609005 -0.1672148854 0.4832760394 4289431882
-0.2307266295 -0.1667254120 0.4834137559 4289366089
-0.2307922095 -0.1662355363 0.4835511446 4289498177
-0.2304461151 -0.1654497981 0.4828259945 4289498177
-0.2305112630 -0.1649599671 0.4829624891 4289497924
-0.2305762470 -0.1644697189 0.4830986559 4289497924
-0.2306410670 -0.1639790535 0.4832344949 4289563721
-0.2307057530 -0.1634879708 0.4833699763 4289629514
-0.2303581685 -0.1627054214 0.4826417565 4289498445
-0.2304224074 -0.1622143984 0.4827763438 4289498445
-0.2308988124 -0.1620122641 0.4837744832 4289563984
-0.2305504233 -0.1612311155 0.4830445349 4289563984
-0.2310267240 -0.1610264033 0.4840424955 4289498704
-0.2310904413 -0.1605328619 0.4841760099 4289564497
-0.2315667868 -0.1603246927 0.4851740003 4289564497
-0.2316302955 -0.1598294526 0.4853070676 4289498704
-0.2316936404 -0.1593338102 0.4854398072 4289432909
-0.2317568213 -0.1588377506 0.4855721891 4289498702
-0.2318198383 -0.1583413035 0.4857042134 4289367118
-0.2314693630 -0.1575630754 0.4849699140 4289432911
-0.2315319479 -0.1570666879 0.4851010442 4289433424
-0.2315943688 -0.1565699130 0.4852318168 4289433424
-0.2316566259 -0.1560727209 0.4853622615 4289433170
-0.2313049287 -0.1552973241 0.4846253991 4289433170
-0.2313667536 -0.1548002362 0.4847548902 4289433172
-0.2314283997 -0.1543027461 0.4848840833 4289433172
-0.2314898819 -0.1538048536 0.4850128889 4289498965
-0.2315512002 -0.1533065587 0.4851413667 4289498965
-0.2316123545 -0.1528078765 0.4852694869 4289368151
-0.2316733301 -0.1523088068 0.4853972495 4289368151
-0.2317341566 -0.1518093348 0.4855246842 4289433944
-0.2317948043 -0.1513094753 0.4856517315 4289433944
-0.2318552732 -0.1508092135 0.4857784510 4289433689
-0.2319155931 -0.1503085643 0.4859048128 4289367896
-0.2319757342 -0.1498075277 0.4860308170 4289367896
-0.2320356965 -0.1493061036 0.4861564636 4289302103
-0.2320954949 -0.1488042921 0.4862817824 4289302103
-0.2321551293 -0.1483020931 0.4864067137 4289302103
-0.2322145849 -0.1477995068 0.4865312874 4289302105
-0.2318583578 -0.1470330209 0.4857849181 4289302105
-0.2319173664 -0.1465305686 0.4859085679 4289236312
-0.2319762111 -0.1460277289 0.4860318303 4289236312
-0.2320348769 -0.1455245018 0.4861547351 4289170519
-0.2320933640 -0.1450209022 0.4862772822 4289170519
-0.2321516871 -0.1445169151 0.4863994718 4289170265
-0.2322098315 -0.1440125555 0.4865213037 4289104472
-0.2322677970 -0.1435078084 0.4866427779 4289039192
-0.2327419519 -0.1432589591 0.4876361787 4289039192
-0.2327996641 -0.1427525580 0.4877571464 4288973399
-0.2324406505 -0.1419913173 0.4870049357 4288907606
-0.2324979305 -0.1414850652 0.4871249199 4288907606
-0.2325550169 -0.1409784555 0.4872445464 4288841813
-0.2326119244 -0.1404714584 0.4873637855 4288776020
-0.2326686680 -0.1399640888 0.4874826670 4288776020
-0.2327252328 -0.1394563615 0.4876011610 4288710227
-0.2327816039 -0.1389482468 0.4877192974 4288710227
-0.2328378111 -0.1384397745 0.4878370464 4288710229
-0.2324764580 -0.1376837492 0.4870799482 4288644436
-0.2325322032 -0.1371754408 0.4871967435 4288776022
-0.2330053449 -0.1369121522 0.4881880581 4288776022
-0.2330608219 -0.1364022046 0.4883042872 4288644951
-0.2331161350 -0.1358918995 0.4884201586 4288579158
-0.2327533811 -0.1351386160 0.4876601398 4288447572
-0.2328082174 -0.1346285045 0.4877750576 4288513365
-0.2328628749 -0.1341180354 0.4878895581 4288447572
-0.2329173535 -0.1336072087 0.4880037010 4288315986
-0.2329716533 -0.1330960244 0.4881174564 4288250708
-0.2326074094 -0.1323464364 0.4873543084 4288119122
-0.2326612324 -0.1318354607 0.4874670804 4287987536
-0.2327148765 -0.1313241273 0.4875794947 4287921743
-0.2331869900 -0.1310477108 0.4885686338 4287987282
-0.2332403660 -0.1305347383 0.4886804819 4287987282
-0.2337124050 -0.1302548647 0.4896694720 4288053075
-0.2337654978 -0.1297402680 0.4897807240 4288184661
-0.2338184118 -0.1292253286 0.4898915887 4288053075
-0.2338711470 -0.1287100464 0.4900020659 4288053075
-0.2339236736 -0.1281944066 0.4901121259 4288053075
-0.2343953401 -0.1279072464 0.4911003411 4287987282
-0.2344475985 -0.1273899972 0.4912098348 4287987284
-0.2344996780 -0.1268723905 0.4913189411 4287987284
-0.2341319621 -0.1261284202 0.4905485213 4287921492
-0.2341835648 -0.1256110519 0.4906566143 4287855699
-0.2342349589 -0.1250933558 0.4907643497 4287789906
-0.2347060591 -0.1247985736 0.4917513430 4287789906
-0.2347571701 -0.1242792606 0.4918584526 4287789906
-0.2348081023 -0.1237596124 0.4919651449 4287789906
-0.2348588407 -0.1232396290 0.4920714498 4287724370
-0.2344891578 -0.1224997789 0.4912968874 4287790163
-0.2345394194 -0.1219800487 0.4914022088 4287790163
-0.2345894873 -0.1214599907 0.4915071130 4287790163
-0.2346393615 -0.1209395975 0.4916116297 4287855958
-0.2346890420 -0.1204188764 0.4917157292 4287855958
-0.2347385436 -0.1198978275 0.4918194115 4287855958
-0.2347878367 -0.1193764433 0.4919227064 4287855958
-0.2352577895 -0.1190677360 0.4929073453 4287790935
-0.2353067845 -0.1185447648 0.4930099845 4287725142
-0.2349345535 -0.1178103387 0.4922301173 4287659349
-0.2354041934 -0.1174978390 0.4932140708 4287725142
-0.2354526073 -0.1169738919 0.4933154881 4287855960
-0.2355008125 -0.1164496243 0.4934165180 4287855960
-0.2355488241 -0.1159250364 0.4935171008 4287790681
-0.2355966419 -0.1154001206 0.4936172962 4287724888
-0.2356442660 -0.1148748919 0.4937170744 4287724888
-0.2356916815 -0.1143493429 0.4938164353 4287790681
-0.2357389033 -0.1138234809 0.4939153492 4287856476
-0.2357859313 -0.1132972986 0.4940138757 4287856476
-0.2358327508 -0.1127708033 0.4941119850 4287790942
-0.2358793765 -0.1122440025 0.4942096770 4287725149
-0.2363478541 -0.1119167283 0.4951912165 4287790943
-0.2363941669 -0.1113883555 0.4952882230 4287856736
-0.2364402711 -0.1108596772 0.4953848422 4287791713
-0.2364861667 -0.1103306860 0.4954810143 4287791713
-0.2369542569 -0.1099974588 0.4964617193 4287791713
-0.2369998246 -0.1094669104 0.4965572357 4287791713
-0.2374677509 -0.1091302335 0.4975375831 4287725919
-0.2375130057 -0.1085981205 0.4976324141 4287791712
-0.2375580519 -0.1080657095 0.4977267981 4287791713
-0.2376029044 -0.1075330004 0.4978207648 4287791713
-0.2376475483 -0.1069999859 0.4979142845 4287791461
-0.2381149232 -0.1066561118 0.4988935292 4287857254
-0.2381592244 -0.1061215475 0.4989863634 4287857767
-0.2382033318 -0.1055866927 0.4990787804 4287923560
-0.2382472306 -0.1050515324 0.4991707504 4287923819
-0.2382909209 -0.1045160815 0.4992622733 4287989612
-0.2383344024 -0.1039803326 0.4993533790 4288055920
-0.2383776754 -0.1034442931 0.4994440675 4288187506
-0.2384207398 -0.1029079631 0.4995342791 4288319096
-0.2380400449 -0.1021895185 0.4987366498 4288319096
-0.2380826175 -0.1016535610 0.4988258481 4288319355
-0.2381249815 -0.1011173204 0.4989145994 4288253562
-0.2377433479 -0.1004018188 0.4981150329 4288188288
-0.2377852201 -0.0998659655 0.4982027411 4288254081
-0.2378268838 -0.0993298292 0.4982900321 4288319874
-0.2378683239 -0.0987934098 0.4983768761 4288385667
-0.2379095703 -0.0982567072 0.4984633029 4288385667
-0.2383747548 -0.0978939161 0.4994379282 4288319874
-0.2384156436 -0.0973557010 0.4995236099 4288385667
-0.2388806343 -0.0969894901 0.5004978180 4288385667
-0.2389211655 -0.0964497626 0.5005827546 4288188547
-0.2393859476 -0.0960801244 0.5015565753 4288254340
-0.2394261360 -0.0955388919 0.5016407371 4288320133
-0.2394661009 -0.0949973911 0.5017244816 4288385926
-0.2395058572 -0.0944556221 0.5018078089 4288451719
-0.2395454049 -0.0939135775 0.5018906593 4288649098
-0.2400095314 -0.0935368240 0.5028631091 4288780686
-0.2400487214 -0.0929932892 0.5029451847 4288846479
-0.2400876880 -0.0924494863 0.5030268431 4289043603
-0.2401264459 -0.0919054151 0.5031080246 4288977810
-0.2397399098 -0.0911993831 0.5022981763 4289043605
-0.2397781610 -0.0906557590 0.5023782849 4289109398
-0.2398161888 -0.0901118740 0.5024579763 4288846741
-0.2398540080 -0.0895677283 0.5025372505 4288649362
-0.2398916036 -0.0890233293 0.5026160479 4288518292
-0.2399289906 -0.0884786695 0.5026943684 4288584085
-0.2399661541 -0.0879337564 0.5027722120 4288715931
-0.2400031090 -0.0873885974 0.5028496385 4289176482
-0.2404654324 -0.0869971588 0.5038182735 4289703344
-0.2405020148 -0.0864505321 0.5038949251 4290492860
-0.2405383587 -0.0859036520 0.5039710999 4291216842
-0.2410002947 -0.0855075940 0.5049389005 4292006358
-0.2410362810 -0.0849592537 0.5050143003 4292599009
-0.2410720289 -0.0844106674 0.5050892234 4293059560
-0.2411075681 -0.0838618353 0.5051636696 4293586422
-0.2415689230 -0.0834599584 0.5061302781 4293981180
-0.2416040897 -0.0829096809 0.5062039495 4294310143
-0.2416390181 -0.0823591575 0.5062771440 4294375935
-0.2416737229 -0.0818083957 0.5063498616 4294244351
-0.2417082191 -0.0812573954 0.5064221025 4293915387
-0.2417424768 -0.0807061642 0.5064939260 4293586422
-0.2417765111 -0.0801547021 0.5065652132 4293389043
-0.2422368079 -0.0797433928 0.5075296164 4293059824
-0.2422704548 -0.0791904926 0.5076001287 4292862445
-0.2423038781 -0.0786373615 0.5076701641 4292730859
-0.2419104278 -0.0779465288 0.5068458319 4292665066
-0.2423700541 -0.0775304139 0.5078088045 4292665066
-0.2424028069 -0.0769765973 0.5078774095 4292796652
-0.2424353361 -0.0764225647 0.5079455972 4292927724
-0.2428945005 -0.0760018751 0.5089076161 4292927724
-0.2429266274 -0.0754464194 0.5089749098 4292797166
-0.2438125163 -0.0751539841 0.5108309984 4292665580
-0.2438443005 -0.0745961368 0.5108976364 4292730859
-0.2443029583 -0.0741677359 0.5118585825 4292862445
-0.2443343401 -0.0736084804 0.5119243264 4292927724
-0.2447926998 -0.0731767118 0.5128846765 4292993517
-0.2448236793 -0.0726160482 0.5129495859 4293256687
-0.2452817410 -0.0721809268 0.5139093399 4293256687
-0.2453123033 -0.0716188550 0.5139733553 4292729569
-0.2453426421 -0.0710565820 0.5140368938 4291479502
-0.2453727424 -0.0704941005 0.5141000152 4291477956
-0.2458301485 -0.0700532421 0.5150583386 4291214784
-0.2458598465 -0.0694893673 0.5151205063 4291410874
-0.2458893061 -0.0689252913 0.5151822567 4291279288
-0.2459185272 -0.0683610067 0.5152434707 4291278257
-0.2463752478 -0.0679144338 0.5162004232 4291212464
-0.2468318492 -0.0674657002 0.5171570778 4291212466
-0.2468604594 -0.0668988526 0.5172170401 4291015087
-0.2473167330 -0.0664467812 0.5181729794 4290751915
-0.2473449409 -0.0658785626 0.5182321072 4290620329
-0.2478008866 -0.0654231459 0.5191873908 4290686122
-0.2478286624 -0.0648535639 0.5192455649 4290949294
-0.2482842803 -0.0643948093 0.5202001929 4291409586
-0.2483116388 -0.0638238639 0.5202574730 4291804344
-0.2483387440 -0.0632527247 0.5203142762 4292199102
-0.2483656257 -0.0626813993 0.5203706026 4291804344
-0.2492487878 -0.0623240620 0.5222209692 4291409584
-0.2492752820 -0.0617504008 0.5222764611 4291080619
-0.2497298717 -0.0612816699 0.5232289433 4290356383
-0.2497559339 -0.0607066602 0.5232835412 4289303695
-0.2502101958 -0.0602346100 0.5242353082 4288777606
-0.2502357960 -0.0596582554 0.5242889524 4288580227
-0.2506897151 -0.0591828898 0.5252400041 4288251258
-0.2511434555 -0.0587053746 0.5261906981 4288119672
-0.2511684597 -0.0581265204 0.5262430310 4287856500
-0.2516218424 -0.0576456971 0.5271929502 4287790707
-0.2520750761 -0.0571627282 0.5281425714 4287659375
-0.2525281608 -0.0566776134 0.5290918350 4287527789
-0.2525522709 -0.0560951158 0.5291423798 4287461995
-0.2530049980 -0.0556066968 0.5300909281 4287593581
-0.2530286610 -0.0550228767 0.5301405191 4287461993
-0.2534810007 -0.0545311645 0.5310882330 4287396200
-0.2539331913 -0.0540373102 0.5320356488 4287330661
-0.2543851733 -0.0535413139 0.5329826474 4287330661
-0.2544080019 -0.0529538803 0.5330304503 4287330661
-0.2548596263 -0.0524545982 0.5339766741 4287330661
-0.2565983534 -0.0522151254 0.5376196504 4287264866
-0.2561914623 -0.0515359454 0.5367671251 4287199073
-0.2562134266 -0.0509439260 0.5368131995 4287264616
-0.2562351525 -0.0503517538 0.5368586779 4287330409
-0.2575443387 -0.0500094816 0.5396016836 4287265129
-0.2579949498 -0.0494963937 0.5405457616 4287133543
-0.2584453523 -0.0489811748 0.5414894819 4287133541
-0.2580369115 -0.0483030789 0.5406336784 4287133541
-0.2589162588 -0.0478649624 0.5424761176 4287133541
-0.2593660951 -0.0473443419 0.5434185863 4287133541
-0.2598157525 -0.0468215980 0.5443606377 4287067748
-0.2602652013 -0.0462967232 0.5453023314 4287133541
-0.2607144713 -0.0457697250 0.5462436080 4287133539
-0.2607339919 -0.0451661907 0.5462845564 4287199332
-0.2611828446 -0.0446359366 0.5472249389 4287199332
-0.2620610893 -0.0441759825 0.5490650535 4287199332
-0.2620799541 -0.0435690656 0.5491045713 4287133539
-0.2625282109 -0.0430324487 0.5500437617 4287133539
-0.2625465691 -0.0424242765 0.5500822663 4287264866
-0.2629944086 -0.0418844186 0.5510205626 4287133280
-0.2630122900 -0.0412749983 0.5510579944 4286936160
-0.2634596825 -0.0407319069 0.5519953966 4286870367
-0.2634770870 -0.0401212461 0.5520318151 4287001953
-0.2643539011 -0.0396393761 0.5538688898 4287001953
-0.2643707991 -0.0390264839 0.5539043546 4287068259
-0.2648173571 -0.0384759381 0.5548399687 4287134052
-0.2652637064 -0.0379232839 0.5557751060 4286937189
-0.2657098472 -0.0373685211 0.5567098856 4286937189
-0.2661557794 -0.0368116535 0.5576441288 4286871909
-0.2657414675 -0.0361357331 0.5567761660 4286871909
-0.2666169703 -0.0356341265 0.5586104393 4286937704
-0.2674922645 -0.0351284184 0.5604443550 4286937704
-0.2679373324 -0.0345631391 0.5613768697 4286806888
-0.2679520845 -0.0339412764 0.5614077449 4286806888
-0.2683967054 -0.0333727971 0.5623393059 4286413666
-0.2684109211 -0.0327497348 0.5623691082 4286413666
-0.2692852318 -0.0322295427 0.5642009377 4286479461
-0.2697291672 -0.0316547751 0.5651310682 4286479461
-0.2697426677 -0.0310284272 0.5651593804 4286479974
-0.2701861560 -0.0304504745 0.5660884976 4286348388
-0.2701991498 -0.0298229437 0.5661157370 4286020450
-0.2706421316 -0.0292418115 0.5670439005 4286086243
-0.2710848749 -0.0286585931 0.5679715276 4285955170
-0.2710970938 -0.0280287992 0.5679971576 4285955170
-0.2711090446 -0.0273989215 0.5680221915 4285889893
-0.2724117637 -0.0268964320 0.5707516074 4285889893
-0.2724232376 -0.0262633916 0.5707756281 4285758820
-0.2728648186 -0.0256707612 0.5717008114 4285627234
-0.2733061612 -0.0250760540 0.5726254582 4285364832
-0.2737472355 -0.0244792700 0.5735496879 4285299039
-0.2737576663 -0.0238429233 0.5735715032 4285233757
-0.2746287286 -0.0232794806 0.5753964782 4285233757
-0.2750690877 -0.0226764772 0.5763191581 4285299296
-0.2755092084 -0.0220714044 0.5772413015 4285299296
-0.2755185962 -0.0214307792 0.5772609711 4285299556
-0.2763887346 -0.0208550561 0.5790840387 4285365349
-0.2759670615 -0.0201808177 0.5782005787 4285628270
-0.2764061689 -0.0195694845 0.5791205764 4285891442
-0.2768450379 -0.0189560894 0.5800400972 4285826169
-0.2768530846 -0.0183121543 0.5800569057 4285891962
-0.2768608332 -0.0176681653 0.5800731778 4286023810
-0.2772989273 -0.0170505997 0.5809910297 4286352775
-0.2781673372 -0.0164564531 0.5828105211 4286550672
-0.2781743109 -0.0158093031 0.5828251243 4286879637
-0.2781809866 -0.0151621075 0.5828391314 4287274140
-0.2786180079 -0.0145373344 0.5837547779 4287537312
-0.2786241472 -0.0138890473 0.5837676525 4287865001
-0.2790606618 -0.0132611832 0.5846822262 4288062380
-0.2794969082 -0.0126312738 0.5855962038 4288457138
-0.2807942033 -0.0120362444 0.5883142948 4288391345
-0.2803685963 -0.0113653317 0.5874225497 4288851896
-0.2803733647 -0.0107128453 0.5874325633 4288851896
-0.2812392116 -0.0100912340 0.5892466903 4289049275
-0.2816741467 -0.0094511313 0.5901579261 4289378240
-0.2821087837 -0.0088089956 0.5910685658 4289245884
-0.2825431526 -0.0081648277 0.5919786096 4289443263
-0.2829772234 -0.0075186314 0.5928881168 4289574851
-0.2834110558 -0.0068704067 0.5937970877 4289706437
-0.2838445902 -0.0062201563 0.5947054625 4289574851
-0.2842778563 -0.0055678822 0.5956131816 4289640644
-0.2847108543 -0.0049135857 0.5965204239 4289969609
-0.2851435542 -0.0042572692 0.5974270105 4289969609
-0.2855759859 -0.0035989350 0.5983330011 4289838023
-0.2855774164 -0.0029341585 0.5983359814 4289838023
-0.2860092819 -0.0022727964 0.5992407799 4289969096
-0.2864408493 -0.0016094218 0.6001450419 4289969096
-0.2868721187 -0.0009440370 0.6010486484 4289969096
-0.2868723869 -0.0002762292 0.6010491848 4289969096
-0.2873031199 0.0003921674 0.6019516587 4289903301
-0.2881642878 0.0010641589 0.6037559509 4289837508
-0.2881636620 0.0017349713 0.6037546396 4289969094
-0.2894549966 0.0024165667 0.6064602137 4289969094
-0.2890230715 0.0030857760 0.6055552363 4290034374
-0.2890215814 0.0037585718 0.6055521369 4289968581
-0.2907427251 0.0044577732 0.6091582775 4289902788
-0.2911714017 0.0051421616 0.6100564003 4289968581
-0.2915997505 0.0058285398 0.6109538674 4289442237
-0.2924585342 0.0065265177 0.6127531528 4285034106
-0.2915941179 0.0071860282 0.6109420657 4284705656
-0.2924523056 0.0078879753 0.6127400994 4285560965
-0.2924487293 0.0085686687 0.6127326488 4285626758
-0.2928755879 0.0092629595 0.6136270165 4285100414
-0.2928714454 0.0099446019 0.6136183143 4284771447
-0.2932977080 0.0106418412 0.6145113707 4284179310
-0.2937236428 0.0113410531 0.6154037714 4284113259
-0.2941492498 0.0120422356 0.6162955165 4286744979
-0.2950052321 0.0127640199 0.6180889606 4289903043
-0.2962915599 0.0135094104 0.6207840443 4289837250
-0.2975775003 0.0142607735 0.6234783530 4289837248
-0.2980018556 0.0149748251 0.6243674159 4289771455
-0.2988564968 0.0157134775 0.6261580586 4289836478
-0.3044475913 0.0167161729 0.6378723979 4289704892
-0.3070161343 0.0182866063 0.6432539821 4289705146
-0.2677060962 -0.2682311237 0.5622006059 4286611325
-0.2681985795 -0.2680988014 0.5632349253 4286216567
-0.2671107352 -0.2663880885 0.5609503388 4286019188
-0.2668124437 -0.2654680312 0.5603238940 4285558637
-0.2673045695 -0.2653339803 0.5613573790 4285031521
-0.2670057416 -0.2644143701 0.5607298613 4284439384
-0.2655194104 -0.2623229027 0.5576084256 4283979088
-0.2652193308 -0.2614075840 0.5569782853 4283715916
-0.2653148472 -0.2608826756 0.5571788549 4283911238
-0.2654102445 -0.2603571713 0.5573791862 4283845445
-0.2647129595 -0.2590554953 0.5559148192 4283845956
-0.2644113898 -0.2581434250 0.5552815199 4283780163
-0.2641094327 -0.2572323680 0.5546473861 4283714370
-0.2638070583 -0.2563223243 0.5540123582 4283582784
-0.2635042667 -0.2554132938 0.5533764958 4283583297
-0.2632010579 -0.2545052767 0.5527397990 4284570192
-0.2632946074 -0.2539813519 0.5529361963 4286018410
-0.2621961832 -0.2523100078 0.5506294966 4287400063
-0.2622890472 -0.2517873645 0.5508244634 4287663496
-0.2619842291 -0.2508834600 0.5501843095 4287663496
-0.2616789937 -0.2499805689 0.5495433211 4288123796
-0.2613733411 -0.2490787208 0.5489014387 4288321175
-0.2610673010 -0.2481779009 0.5482587218 4288387484
-0.2603627145 -0.2469006181 0.5467790365 4288453277
-0.2600557208 -0.2460026890 0.5461343527 4288387484
-0.2597483099 -0.2451058030 0.5454887152 4288387484
-0.2594404817 -0.2442099750 0.5448423028 4288453277
-0.2591322660 -0.2433152050 0.5441949964 4288519070
-0.2588236034 -0.2424214929 0.5435468554 4288650656
-0.2573177516 -0.2404106408 0.5403844118 4288716449
-0.2582051158 -0.2406372428 0.5422479510 4288716960
-0.2566975951 -0.2386333346 0.5390820503 4288651167
-0.2563869357 -0.2377462834 0.5384296179 4288716960
-0.2560758293 -0.2368603051 0.5377762914 4288782753
-0.2557643354 -0.2359753996 0.5371221304 4288782753
-0.2550526857 -0.2347236723 0.5356276035 4288782753
-0.2547402382 -0.2338417470 0.5349714756 4288848546
-0.2544273734 -0.2329608947 0.5343144536 4288848546
-0.2541141212 -0.2320811450 0.5336565971 4288848546
-0.2538004518 -0.2312024832 0.5329979062 4288782753
-0.2534863949 -0.2303249091 0.5323383212 4288914341
-0.2527713478 -0.2290853858 0.5308366418 4288914341
-0.2524563074 -0.2282108217 0.5301750898 4288980134
-0.2513391674 -0.2266145200 0.5278289914 4288980134
-0.2510230839 -0.2257438004 0.5271651745 4288980134
-0.2507065833 -0.2248741984 0.5265005231 4289045927
-0.2503896654 -0.2240056992 0.5258349776 4289045927
-0.2500723600 -0.2231383324 0.5251686573 4289045927
-0.2489515841 -0.2215573788 0.5228149295 4289176998
-0.2494365424 -0.2214069515 0.5238333344 4289176998
-0.2487162203 -0.2201872319 0.5223206282 4289176998
-0.2487990856 -0.2196800709 0.5224946737 4289176998
-0.2480776906 -0.2184642553 0.5209797025 4289111205
-0.2469534129 -0.2168979645 0.5186186433 4289111205
-0.2466328889 -0.2160409689 0.5179454684 4289045412
-0.2463119477 -0.2151851207 0.5172714591 4289045412
-0.2459906042 -0.2143304050 0.5165966749 4289111718
-0.2456688583 -0.2134768516 0.5159209967 4289309097
-0.2449438423 -0.2122753114 0.5143983960 4289111720
-0.2446211725 -0.2114248872 0.5137207508 4288914341
-0.2447012216 -0.2109231055 0.5138888359 4288782755
-0.2439746112 -0.2097275108 0.5123628974 4288782755
-0.2436507195 -0.2088805884 0.5116827488 4288979105
-0.2437299639 -0.2083798200 0.5118491650 4288715933
-0.2434054017 -0.2075343877 0.5111675858 4288122764
-0.2426766604 -0.2063467950 0.5096371770 4286412146
-0.2423511744 -0.2055045515 0.5089536309 4285423961
-0.2416212410 -0.2043218166 0.5074207187 4284766031
-0.2416990101 -0.2038236111 0.5075840354 4285093709
-0.2409680039 -0.2026449144 0.5060488582 4286343776
-0.2402363569 -0.2014690638 0.5045123696 4287724400
-0.2399086058 -0.2006344199 0.5038240552 4287987572
-0.2391757667 -0.1994634867 0.5022850633 4288708460
-0.2388470918 -0.1986320764 0.5015948415 4289366390
-0.2381130755 -0.1974660456 0.5000533462 4289432434
-0.2377834767 -0.1966378838 0.4993611574 4289235055
-0.2374534905 -0.1958109438 0.4986681342 4289300585
-0.2367177606 -0.1946519017 0.4971230626 4289300585
-0.2359813750 -0.1934957504 0.4955766201 4289235042
-0.2356499434 -0.1926741451 0.4948805869 4289103456
-0.2349123806 -0.1915229708 0.4933316708 4289168735
-0.2345800251 -0.1907046437 0.4926336706 4289168735
-0.2342472821 -0.1898875535 0.4919348955 4289234271
-0.2335080206 -0.1887434572 0.4903824031 4289234271
-0.2331743538 -0.1879296750 0.4896816909 4289234528
-0.2324339449 -0.1867905855 0.4881267548 4289234528
