VERSION 0.7
FIELDS x y z rgba
SIZE 4 4 4 4
TYPE F F F U
COUNT 1 1 1 1
WIDTH 920
HEIGHT 1
VIEWPOINT 0.0 0.0 0.0 1.0 0.0 0.0 0.0
POINTS 920
DATA ascii
-0.2356242090 -0.1678108871 0.5165120959 4289111720
-0.2352907509 -0.1670003235 0.5157811046 4289111720
-0.2353551388 -0.1664728075 0.5159222484 4289045927
-0.2350210100 -0.1656640470 0.5151898265 4289111720
-0.2342880517 -0.1645767689 0.5135831237 4289111720
-0.2343516052 -0.1640506387 0.5137224197 4289111720
-0.2344149947 -0.1635240614 0.5138613582 4289111720
-0.2344782054 -0.1629970670 0.5139999390 4289177513
-0.2341423631 -0.1621933430 0.5132637620 4289177513
-0.2338061482 -0.1613909900 0.5125266910 4289177513
-0.2338686436 -0.1608645171 0.5126637220 4289111720
-0.2335317582 -0.1600640118 0.5119252205 4289111720
-0.2335937917 -0.1595375985 0.5120612383 4289111720
-0.2336556613 -0.1590107679 0.5121968389 4289111720
-0.2333178520 -0.1582126021 0.5114563107 4289045927
-0.2333792746 -0.1576858312 0.5115909576 4289111718
-0.2330407798 -0.1568895429 0.5108489394 4289045925
-0.2331017554 -0.1563628465 0.5109826326 4289045925
-0.2331625521 -0.1558357477 0.5111159086 4289045925
-0.2328231335 -0.1550418437 0.5103718638 4289045925
-0.2328834832 -0.1545148194 0.5105041265 4289045925
-0.2329436392 -0.1539873779 0.5106360316 4289045925
-0.2326032966 -0.1531958729 0.5098899007 4289045925
-0.2322625518 -0.1524057537 0.5091429949 4289111718
-0.2323219925 -0.1518789232 0.5092732906 4289111718
-0.2319805920 -0.1510907263 0.5085248947 4289111718
-0.2320395857 -0.1505640000 0.5086542368 4289111718
-0.2320983857 -0.1500368565 0.5087831616 4289045925
-0.2317560613 -0.1492511034 0.5080327392 4289045925
-0.2318144143 -0.1487240791 0.5081606507 4289045925
-0.2314714342 -0.1479402632 0.5074087381 4289045925
-0.2315293252 -0.1474133581 0.5075356960 4289045925
-0.2315870523 -0.1468860656 0.5076622367 4289045925
-0.2312431186 -0.1461047232 0.5069082975 4289045927
-0.2308988273 -0.1453248113 0.5061535835 4288980134
-0.2305541486 -0.1445463449 0.5053979754 4288980134
-0.2306108624 -0.1440202147 0.5055223107 4288980134
-0.2302655280 -0.1432437301 0.5047653317 4288980132
-0.2303217798 -0.1427177489 0.5048885942 4288980132
-0.2303778529 -0.1421913952 0.5050115585 4288980130
-0.2300315946 -0.1414174139 0.5042524934 4288980130
-0.2300872058 -0.1408912092 0.5043743849 4288914339
-0.2297402918 -0.1401192248 0.5036139488 4288914339
-0.2297954410 -0.1395931840 0.5037348270 4288980130
-0.2298504263 -0.1390667558 0.5038553476 4288980130
-0.2295025736 -0.1382973343 0.5030928254 4288980130
-0.2295570970 -0.1377710849 0.5032123327 4288914337
-0.2296114266 -0.1372444481 0.5033314824 4288980132
-0.2292626500 -0.1364775896 0.5025669336 4288914339
-0.2293165326 -0.1359511465 0.5026850104 4288848546
-0.2289671004 -0.1351863146 0.5019190311 4288914339
-0.2290205210 -0.1346600503 0.5020361543 4288980132
-0.2290737480 -0.1341334283 0.5021528006 4288914339
-0.2287233919 -0.1333712041 0.5013847947 4288914339
-0.2283726782 -0.1326104850 0.5006160140 4288914339
-0.2284251750 -0.1320846081 0.5007310510 4288848546
-0.2284774780 -0.1315583736 0.5008457303 4288848546
-0.2281258255 -0.1308002770 0.5000748634 4288848546
-0.2281776816 -0.1302742660 0.5001885295 4288848546
-0.2282293290 -0.1297478825 0.5003017783 4288848546
-0.2278767675 -0.1289924383 0.4995289147 4288848546
-0.2279279679 -0.1284662783 0.4996411204 4288848546
-0.2279789746 -0.1279397756 0.4997529387 4288782753
-0.2272211760 -0.1269610822 0.4980917871 4288717473
-0.2272716314 -0.1264357418 0.4982023835 4288717473
-0.2273218930 -0.1259100437 0.4983125627 4288651680
-0.2273719758 -0.1253840029 0.4984223545 4288651680
-0.2270171940 -0.1246354431 0.4976446629 4288651680
-0.2270668149 -0.1241096407 0.4977534115 4288651680
-0.2267114073 -0.1233632043 0.4969743192 4288717473
-0.2267605513 -0.1228376552 0.4970820546 4288717473
-0.2268095165 -0.1223117635 0.4971893728 4288783266
-0.2264531851 -0.1215680614 0.4964082539 4288783266
-0.2265016735 -0.1210424304 0.4965145588 4288783266
-0.2265499830 -0.1205164641 0.4966204762 4288783266
-0.2261927426 -0.1197755113 0.4958373308 4288783266
-0.2262405753 -0.1192498207 0.4959422052 4288717473
-0.2262882292 -0.1187237948 0.4960466623 4288717473
-0.2263356894 -0.1181974337 0.4961507022 4288717473
-0.2259772569 -0.1174598634 0.4953649640 4288586401
-0.2260242403 -0.1169337854 0.4954679906 4288520608
-0.2256651670 -0.1161983982 0.4946808815 4288651680
-0.2257117033 -0.1156726182 0.4947828650 4288651680
-0.2253519893 -0.1149394065 0.4939943552 4288717473
-0.2253980488 -0.1144139245 0.4940952957 4288717473
-0.2254439145 -0.1138881221 0.4941958487 4288585887
-0.2250833064 -0.1131577417 0.4934053421 4288454301
-0.2251286954 -0.1126322448 0.4935048521 4288651680
-0.2251739055 -0.1121064276 0.4936039448 4288651680
-0.2248123735 -0.1113788933 0.4928114712 4288651167
-0.2248571217 -0.1108533964 0.4929095209 4288651167
-0.2249016613 -0.1103275865 0.4930071533 4288585374
-0.2245392352 -0.1096029133 0.4922126830 4288519581
-0.2245832980 -0.1090774387 0.4923093021 4288453788
-0.2250341177 -0.1087483019 0.4932975173 4288387995
-0.2246708721 -0.1080255583 0.4925012589 4288453790
-0.2247143537 -0.1074991524 0.4925965667 4288322204
-0.2247576416 -0.1069724485 0.4926914871 4288321691
-0.2243935019 -0.1062526032 0.4918932319 4288321691
-0.2244363129 -0.1057262495 0.4919870794 4288255896
-0.2244789451 -0.1051995903 0.4920805395 4288321689
-0.2245213687 -0.1046726331 0.4921735525 4288256409
-0.2241560519 -0.1039563715 0.4913727045 4288190616
-0.2241979986 -0.1034297794 0.4914646745 4287861649
-0.2242397666 -0.1029028893 0.4915562272 4287993235
-0.2238735408 -0.1021895632 0.4907534420 4287992976
-0.2239148319 -0.1016630530 0.4908439517 4287861390
-0.2239559144 -0.1011362448 0.4909340143 4288058254
-0.2235888094 -0.1004258916 0.4901292622 4288058254
-0.2236294150 -0.0998994634 0.4902183115 4287795596
-0.2236698419 -0.0993727520 0.4903069139 4287795596
-0.2237100601 -0.0988457575 0.4903950691 4287727485
-0.2233417779 -0.0981390700 0.4895877540 4287398520
-0.2229731530 -0.0974340215 0.4887796938 4287069813
-0.2230126262 -0.0969081074 0.4888662398 4286675055
-0.2226433903 -0.0962053910 0.4880568087 4286148453
-0.2226823866 -0.0956798792 0.4881423116 4285556316
-0.2223125249 -0.0949795023 0.4873315394 4285226320
-0.2223510593 -0.0944544151 0.4874159992 4284963148
-0.2219805866 -0.0937563851 0.4866038859 4284633667
-0.2220186591 -0.0932317153 0.4866873324 4284370495
-0.2216475755 -0.0925360471 0.4858738780 4283910460
-0.2216851711 -0.0920118093 0.4859562814 4283778874
-0.2217225581 -0.0914873034 0.4860382378 4283975224
-0.2213505954 -0.0907947123 0.4852228761 4284041017
-0.2213875055 -0.0902706459 0.4853037894 4284500794
-0.2218335122 -0.0899122134 0.4862814844 4284698173
-0.2214607447 -0.0892217383 0.4854643345 4285288766
-0.2214970589 -0.0886968896 0.4855439365 4285683524
-0.2211236805 -0.0880088061 0.4847254455 4286275661
-0.2211595178 -0.0874844193 0.4848040342 4286802005
-0.2207855433 -0.0867987424 0.4839842319 4287328090
-0.2208209038 -0.0862748250 0.4840617478 4287657055
-0.2204463184 -0.0855915546 0.4832406342 4288248164
-0.2204812169 -0.0850681067 0.4833171368 4288577129
-0.2205159217 -0.0845444128 0.4833931923 4288905063
-0.2201404721 -0.0838642940 0.4825701416 4289168235
-0.2201746851 -0.0833410770 0.4826451838 4289365612
-0.2202087194 -0.0828176215 0.4827197492 4289365612
-0.2202425301 -0.0822939202 0.4827938974 4289496170
-0.2198659480 -0.0816177055 0.4819683731 4289430377
-0.2194890380 -0.0809432045 0.4811421335 4289495657
-0.2195221037 -0.0804207399 0.4812146723 4289561450
-0.2191445976 -0.0797486976 0.4803871214 4289627757
-0.2191772163 -0.0792267472 0.4804586172 4289693550
-0.2192096114 -0.0787045583 0.4805296361 4289759343
-0.2192418128 -0.0781821311 0.4806002378 4289825136
-0.2192738205 -0.0776594877 0.4806703627 4289759343
-0.2188949138 -0.0769921541 0.4798398018 4289693550
-0.2189264446 -0.0764700323 0.4799088836 4289759089
-0.2193685621 -0.0760901719 0.4808780551 4289824882
-0.2193997353 -0.0755666196 0.4809463918 4289759859
-0.2194306999 -0.0750428438 0.4810142815 4289759859
-0.2190504819 -0.0743792951 0.4801808000 4289759859
-0.2190809846 -0.0738560632 0.4802476466 4289759859
-0.2187001705 -0.0731950253 0.4794128835 4289825652
-0.2187301964 -0.0726723373 0.4794787169 4289825652
-0.2187600136 -0.0721494406 0.4795440733 4289891447
-0.2187896222 -0.0716263205 0.4796089828 4289957240
-0.2192303389 -0.0712366477 0.4805750549 4289760374
-0.2188482285 -0.0705794618 0.4797374308 4289891960
-0.2188772112 -0.0700557157 0.4798009694 4289957753
-0.2189059854 -0.0695317611 0.4798640609 4289957753
-0.2193460912 -0.0691373199 0.4808287919 4289957753
-0.2193744928 -0.0686119720 0.4808910787 4289891960
-0.2202259749 -0.0683419034 0.4827575982 4289891960
-0.2202540785 -0.0678141713 0.4828191996 4289891960
-0.2202819586 -0.0672862455 0.4828803241 4289957499
-0.2194860578 -0.0665085539 0.4811356068 4289891706
-0.2195134163 -0.0659822077 0.4811955988 4289892219
-0.2195405662 -0.0654556602 0.4812551141 4289958012
-0.2195675075 -0.0649289191 0.4813141823 4289892219
-0.2191822529 -0.0642811507 0.4804696441 4289892219
-0.2196207643 -0.0638748556 0.4814309180 4289826426
-0.2196470648 -0.0633475408 0.4814885855 4289760633
-0.2196731716 -0.0628200322 0.4815457761 4289826941
-0.2196990550 -0.0622923374 0.4816025198 4289826941
-0.2197247148 -0.0617644601 0.4816587865 4289826941
-0.2197501808 -0.0612363964 0.4817146063 4289892734
-0.2201877683 -0.0608220510 0.4826738238 4289892734
-0.2202128470 -0.0602926314 0.4827288091 4289958527
-0.2206501365 -0.0598749481 0.4836874008 4290024320
-0.2206748426 -0.0593441799 0.4837415516 4290090113
-0.2202868015 -0.0587032996 0.4828909338 4290024833
-0.2203110158 -0.0581731722 0.4829440415 4290024833
-0.2203350365 -0.0576428659 0.4829966724 4290090626
-0.2203588188 -0.0571123883 0.4830488265 4290024833
-0.2203824073 -0.0565817431 0.4831005037 4290024835
-0.2204057723 -0.0560509227 0.4831517339 4290024835
-0.2200161368 -0.0554159693 0.4822975993 4290024835
-0.2200390249 -0.0548858121 0.4823477864 4290090628
-0.2200616896 -0.0543554910 0.4823974967 4290090374
-0.2204970717 -0.0539259911 0.4833518565 4290090374
-0.2205193639 -0.0533943474 0.4834007323 4289959558
-0.2205414325 -0.0528625436 0.4834491014 4290025351
-0.2205632776 -0.0523305833 0.4834969938 4290025351
-0.2209979892 -0.0518954620 0.4844499528 4290091144
-0.2214325666 -0.0514581949 0.4854025841 4290091144
-0.2214538604 -0.0509237722 0.4854492247 4290091144
-0.2214749157 -0.0503891967 0.4854954183 4290091146
-0.2210825235 -0.0497614555 0.4846352339 4290091146
-0.2215163857 -0.0493195876 0.4855863154 4290091146
-0.2211234868 -0.0486935452 0.4847250283 4290156939
-0.2219703346 -0.0483394042 0.4865814149 4290156939
-0.2219903469 -0.0478030853 0.4866252840 4290156939
-0.2224235535 -0.0473546423 0.4875749052 4290156939
-0.2224431634 -0.0468170382 0.4876178801 4290222732
-0.2220490426 -0.0461932719 0.4867539406 4290157196
-0.2220681757 -0.0456563830 0.4867958724 4290157196
-0.2220870703 -0.0451193601 0.4868373275 4290157196
-0.2221057564 -0.0445821993 0.4868782759 4290157196
-0.2225378603 -0.0441269241 0.4878254831 4290157196
-0.2246245146 -0.0439935923 0.4923996329 4290222989
-0.2234016061 -0.0432099737 0.4897189140 4290288782
-0.2238332480 -0.0427482948 0.4906651080 4290288782
-0.2246785164 -0.0423625037 0.4925180078 4290420368
-0.2255236655 -0.0419725738 0.4943706989 4290222989
-0.2259549052 -0.0415024981 0.4953159988 4290157196
-0.2288691849 -0.0414803512 0.5017043948 4290157196
-0.2268168777 -0.0405559614 0.4972055256 4290157196
-0.2297311872 -0.0405175276 0.5035939813 4290091403
-0.2309898585 -0.0401769243 0.5063531399 4290157196
-0.2314205021 -0.0396881811 0.5072971582 4290157196
-0.2318509817 -0.0391973145 0.5082407594 4290026125
-0.2343515158 -0.0390492827 0.5137222409 4289828746
-0.2356099337 -0.0386851206 0.5164808035 4289040774
-0.2381106019 -0.0385157727 0.5219625235 4288843395
-0.2385407090 -0.0380043574 0.5229053497 4289042576
-0.2397989482 -0.0376207717 0.5256635547 4290161057
-0.2402287275 -0.0371031016 0.5266056657 4290886071
-0.2410725355 -0.0366462730 0.5284553766 4291083450
-0.2431589365 -0.0363712013 0.5330289602 4291019202
-0.2440025359 -0.0359030962 0.5348782539 4291413960
-0.2448460013 -0.0354308635 0.5367271900 4291546061
-0.2469322681 -0.0351313390 0.5413005352 4291611854
-0.2469468415 -0.0345319510 0.5413324237 4291875283
-0.2477898747 -0.0340463258 0.5431804657 4292270041
-0.2490471601 -0.0336125009 0.5459365249 4292467420
-0.2494755089 -0.0330626965 0.5468755364 4292335834
-0.2503180802 -0.0325646885 0.5487225056 4292205020
-0.2515749335 -0.0321154669 0.5514776707 4292270813
-0.2515882552 -0.0315044038 0.5515068769 4292336606
-0.2520157993 -0.0309441388 0.5524441004 4292402399
-0.2528576553 -0.0304316524 0.5542895794 4292533985
-0.2536993623 -0.0299150459 0.5561346412 4292599778
-0.2545408607 -0.0293943174 0.5579793453 4292731109
-0.2549676299 -0.0288226046 0.5589148402 4292731109
-0.2566379607 -0.0283863656 0.5625763535 4292796902
-0.2566497326 -0.0277625732 0.5626021624 4292862695
-0.2570758462 -0.0271825399 0.5635362864 4292862695
-0.2591603994 -0.0267717484 0.5681057572 4292928488
-0.2583421171 -0.0260580052 0.5663120151 4292928490
-0.2600116730 -0.0255931281 0.5699718595 4292994283
-0.2608516812 -0.0250404850 0.5718132257 4292929003
-0.2612767518 -0.0244449303 0.5727450848 4292929003
-0.2617016137 -0.0238472819 0.5736763477 4293125867
-0.2625409663 -0.0232843291 0.5755163431 4293125867
-0.2633801401 -0.0227172691 0.5773559213 4293257453
-0.2642191052 -0.0221461058 0.5791949630 4293389039
-0.2646430433 -0.0215370804 0.5801243186 4293520625
-0.2658963799 -0.0209914669 0.5828717351 4293520625
-0.2659050524 -0.0203445163 0.5828907490 4293455087
-0.2663282752 -0.0197282340 0.5838184953 4293389294
-0.2671661079 -0.0191395935 0.5856551528 4293322731
-0.2675888836 -0.0185181443 0.5865818858 4293388524
-0.2684262693 -0.0179223195 0.5884174705 4293454317
-0.2688485086 -0.0172957107 0.5893431306 4293388524
-0.2696854472 -0.0166927110 0.5911777616 4293388524
-0.2705221176 -0.0160856210 0.5930118561 4293454317
-0.2709436417 -0.0154507803 0.5939358473 4293256938
-0.2709499896 -0.0147912214 0.5939497352 4292664801
-0.2722008824 -0.0141965402 0.5966918468 4291939526
-0.2726216316 -0.0135544930 0.5976141691 4290426287
-0.2730421424 -0.0129103838 0.5985359550 4289504669
-0.2738773525 -0.0122828251 0.6003668308 4289570462
-0.2738823593 -0.0116159869 0.6003777981 4289899427
-0.2743020654 -0.0109657031 0.6012978554 4289636255
-0.2747215331 -0.0103133647 0.6022173166 4289373085
-0.2755557001 -0.0096735423 0.6040459275 4289504671
-0.2763895988 -0.0090296473 0.6058739424 4290557359
-0.2768082619 -0.0083691357 0.6067916751 4291939012
-0.2772266269 -0.0077065774 0.6077088118 4293518560
-0.2505545914 -0.2614640594 0.5505814552 4290428867
-0.2506467998 -0.2609483302 0.5507841110 4290363074
-0.2511194050 -0.2608272433 0.5518226027 4290296768
-0.2504502833 -0.2595207691 0.5503522754 4290099389
-0.2509227693 -0.2593977451 0.5513905883 4289902265
-0.2513954341 -0.2592725754 0.5524292588 4289639093
-0.2507251501 -0.2579691410 0.5509563088 4289572782
-0.2508165240 -0.2574507892 0.5511571169 4289309610
-0.2509078085 -0.2569318712 0.5513576865 4289046438
-0.2506175041 -0.2560227215 0.5507197380 4288454301
-0.2510899901 -0.2558923662 0.5517580509 4287730065
-0.2511809170 -0.2553717494 0.5519577861 4287006342
-0.2508898377 -0.2544632554 0.5513181686 4286019445
-0.2513623834 -0.2543288469 0.5523566008 4285229929
-0.2506886423 -0.2530350685 0.5508760810 4283585358
-0.2503965199 -0.2521288693 0.5502341390 4282993221
-0.2508688569 -0.2519919574 0.5512720346 4282400571
-0.2505761981 -0.2510862052 0.5506289601 4282532157
-0.2506658733 -0.2505640388 0.5508260131 4282795328
-0.2507553995 -0.2500413358 0.5510227680 4282532156
-0.2504618466 -0.2491370887 0.5503776670 4282663742
-0.2501678765 -0.2482338995 0.5497317314 4282861121
-0.2498735338 -0.2473317534 0.5490849018 4282795328
-0.2507289052 -0.2475662827 0.5509645343 4282795328
-0.2500506639 -0.2462860793 0.5494741201 4282926400
-0.2493717521 -0.2450085282 0.5479822755 4282860607
-0.2498435229 -0.2448620498 0.5490189195 4282794814
-0.2491636723 -0.2435874194 0.5475249887 4282794814
-0.2492512614 -0.2430644929 0.5477175117 4282729535
-0.2485703528 -0.2417936027 0.5462212563 4282729535
-0.2482731044 -0.2408982813 0.5455680490 4282663743
-0.2487443686 -0.2407482415 0.5466036201 4282663743
-0.2484465986 -0.2398534417 0.5459492803 4282860352
-0.2485331446 -0.2393302023 0.5461394787 4282991938
-0.2482347190 -0.2384367436 0.5454836488 4282991940
-0.2483208776 -0.2379132360 0.5456730127 4282794561
-0.2484069020 -0.2373891622 0.5458620787 4282728768
-0.2477222830 -0.2361300886 0.5443576574 4282794561
-0.2478078008 -0.2356065661 0.5445455313 4282926139
-0.2471221089 -0.2343512923 0.5430387855 4283320897
-0.2479784042 -0.2345578820 0.5449204445 4284110413
-0.2476777285 -0.2336687744 0.5442597270 4284965722
-0.2473766506 -0.2327807397 0.5435981154 4285623398
-0.2474612296 -0.2322561443 0.5437839627 4286215535
-0.2463871241 -0.2306464761 0.5414236784 4286741879
-0.2464710325 -0.2301232666 0.5416080952 4287005051
-0.2465548217 -0.2295995206 0.5417922139 4287202432
-0.2462518960 -0.2287161946 0.5411264896 4287202432
-0.2463352829 -0.2281922102 0.5413097739 4287268225
-0.2464185208 -0.2276676893 0.5414927006 4287399811
-0.2465016395 -0.2271426469 0.5416753292 4287399811
-0.2458104193 -0.2259055525 0.5401563644 4287465604
-0.2455057651 -0.2250261605 0.5394869447 4287662984
-0.2452007085 -0.2241478860 0.5388166308 4287860363
-0.2452827543 -0.2236240357 0.5389968753 4287730065
-0.2453646660 -0.2230996490 0.5391768813 4287861651
-0.2454464436 -0.2225747257 0.5393565893 4287861651
-0.2451401949 -0.2216985077 0.5386836529 4287927444
-0.2452215701 -0.2211733758 0.5388624072 4288059030
-0.2453027964 -0.2206477225 0.5390409231 4288124823
-0.2449956238 -0.2197732627 0.5383659005 4288124823
-0.2450764328 -0.2192474008 0.5385435224 4288124823
-0.2443800718 -0.2180277705 0.5370132923 4288190616
-0.2440717071 -0.2171567529 0.5363356471 4288256409
-0.2441517264 -0.2166318297 0.5365114808 4288453788
-0.2442315966 -0.2161063999 0.5366870165 4288585374
-0.2439222932 -0.2152371854 0.5360073447 4288519579
-0.2440017611 -0.2147115618 0.5361819267 4288519579
-0.2440810800 -0.2141854316 0.5363562703 4288519579
-0.2437708378 -0.2133180201 0.5356745124 4288387993
-0.2434602082 -0.2124517858 0.5349919200 4288519581
-0.2435388416 -0.2119257897 0.5351647139 4288453788
-0.2432275414 -0.2110610604 0.5344806910 4288519581
-0.2433057725 -0.2105349004 0.5346525311 4288585374
-0.2433838397 -0.2100082338 0.5348241329 4288585374
-0.2430716157 -0.2091453522 0.5341380239 4288651167
-0.2427589893 -0.2082836479 0.5334510207 4288716960
-0.2428363711 -0.2077571601 0.5336210728 4288716960
-0.2425230742 -0.2068970054 0.5329326391 4288651167
-0.2426000535 -0.2063703537 0.5331017971 4288716960
-0.2422860861 -0.2055117190 0.5324118733 4288716960
-0.2419717312 -0.2046543062 0.5317210555 4288716960
-0.2416569740 -0.2037980855 0.5310294032 4288782753
-0.2417329848 -0.2032719851 0.5311964750 4288716960
-0.2418088466 -0.2027453929 0.5313631296 4288716960
-0.2418845594 -0.2022183090 0.5315294862 4288782753
-0.2415685952 -0.2013643533 0.5308352113 4288782753
-0.2416438758 -0.2008371353 0.5310006142 4288782753
-0.2417190224 -0.2003094256 0.5311657190 4288848546
-0.2414021194 -0.1994574219 0.5304693580 4288914339
-0.2414768338 -0.1989295781 0.5306335688 4288914339
-0.2411592603 -0.1980791688 0.5299357176 4288980132
-0.2412335426 -0.1975512058 0.5300989747 4288980132
-0.2405229360 -0.1963820308 0.5285374522 4288980132
-0.2405966818 -0.1958548129 0.5286994576 4288914339
-0.2402776629 -0.1950084716 0.5279984474 4288914339
-0.2403509766 -0.1944811493 0.5281595588 4288914339
-0.2400312871 -0.1936364323 0.5274569988 4288980132
-0.2401041687 -0.1931090057 0.5276172161 4288980132
-0.2397838086 -0.1922659129 0.5269132257 4289045925
-0.2398562580 -0.1917383969 0.5270724297 4289045925
-0.2395352423 -0.1908969432 0.5263670087 4288980132
-0.2396072745 -0.1903693378 0.5265252590 4288980132
-0.2396791428 -0.1898412555 0.5266832113 4289045925
-0.2393571734 -0.1890018433 0.5259757042 4289045925
-0.2390348166 -0.1881636977 0.5252673626 4289045925
-0.2391059846 -0.1876359284 0.5254237056 4289111718
-0.2387829572 -0.1867994517 0.5247138739 4289177511
-0.2388536930 -0.1862716079 0.5248693228 4289111718
-0.2385299951 -0.1854368001 0.5241580009 4289177511
-0.2386002988 -0.1849088967 0.5243124962 4289111718
-0.2382759303 -0.1840757728 0.5235997438 4289045925
-0.2379511893 -0.1832439303 0.5228860974 4289111718
-0.2380207777 -0.1827163845 0.5230390429 4289111718
-0.2376953512 -0.1818862408 0.5223239660 4289045925
-0.2377645075 -0.1813586503 0.5224758983 4289111718
-0.2378334999 -0.1808305979 0.5226275325 4289177511
-0.2375071496 -0.1800025851 0.5219103694 4289177511
-0.2375756949 -0.1794744879 0.5220609903 4289243306
-0.2372486740 -0.1786482036 0.5213423967 4289243306
-0.2373167872 -0.1781200767 0.5214920640 4289243304
-0.2369890958 -0.1772955060 0.5207719803 4289177511
-0.2362652719 -0.1761771441 0.5191814303 4289243304
-0.2363325655 -0.1756503135 0.5193292499 4289243304
-0.2356077284 -0.1745363474 0.5177364945 4289177511
-0.2360705584 -0.1743028313 0.5187535286 4289177511
-0.2357410342 -0.1734839678 0.5180293918 4289177511
-0.2358074337 -0.1729571074 0.5181753635 4289177511
-0.2358736843 -0.1724298000 0.5183209181 4289243304
-0.2355432212 -0.1716131419 0.5175947547 4289243304
-0.2356090248 -0.1710858345 0.5177393556 4289243304
-0.2356746644 -0.1705580950 0.5178835392 4289177511
-0.2353432626 -0.1697436571 0.5171553493 4289177511
-0.2350114733 -0.1689305753 0.5164262652 4289177511
-0.2354734838 -0.1686877608 0.5174414515 4289177511
-0.2351411432 -0.1678755730 0.5167111754 4289177511
-0.2348084152 -0.1670647413 0.5159800053 4289177511
-0.2344752997 -0.1662552506 0.5152480006 4289111718
-0.2345393300 -0.1657280177 0.5153887272 4289111718
-0.2342055440 -0.1649203449 0.5146552920 4289045925
-0.2342691272 -0.1643931419 0.5147950053 4289045925
-0.2339346856 -0.1635873020 0.5140600801 4289045925
-0.2339978218 -0.1630601436 0.5141987801 4289045925
-0.2336627245 -0.1622561365 0.5134624243 4289111718
-0.2333272398 -0.1614535004 0.5127252340 4289177511
-0.2333896458 -0.1609268636 0.5128623843 4289111718
-0.2330535054 -0.1601260751 0.5121237040 4289045927
-0.2331154644 -0.1595994830 0.5122599006 4289111720
-0.2331772596 -0.1590724885 0.5123956800 4289177513
-0.2332388759 -0.1585450619 0.5125310421 4289111720
-0.2329015285 -0.1577471048 0.5117897391 4289111720
-0.2325637788 -0.1569505334 0.5110475421 4289111720
-0.2326246798 -0.1564236730 0.5111813545 4289111720
-0.2326853871 -0.1558963954 0.5113148093 4289111720
-0.2327459306 -0.1553687006 0.5114478469 4289111720
-0.2324069887 -0.1545750052 0.5107030272 4289111720
-0.2320676446 -0.1537827253 0.5099573135 4289111720
-0.2321274579 -0.1532556117 0.5100888014 4289045927
-0.2317874730 -0.1524652243 0.5093416572 4289177513
-0.2318468392 -0.1519382149 0.5094721317 4289111720
-0.2315061837 -0.1511497498 0.5087235570 4289111720
-0.2315650880 -0.1506228298 0.5088530183 4289045927
-0.2316238284 -0.1500955224 0.5089820623 4289045927
-0.2312822491 -0.1493094862 0.5082314610 4289045927
-0.2313405275 -0.1487822831 0.5083594918 4289045927
-0.2309982777 -0.1479981989 0.5076074600 4288980134
-0.2310561091 -0.1474711150 0.5077345371 4288914339
-0.2311137617 -0.1469436437 0.5078611970 4288980132
-0.2311712205 -0.1464157701 0.5079874992 4288980134
-0.2308277786 -0.1456346661 0.5072327852 4288980134
-0.2304839492 -0.1448550075 0.5064772367 4288980134
-0.2305406779 -0.1443277895 0.5066018701 4288914341
-0.2301961929 -0.1435500979 0.5058448911 4288914339
-0.2302524745 -0.1430230290 0.5059685707 4288914339
-0.2303085774 -0.1424955726 0.5060918331 4288980130
-0.2303645015 -0.1419677287 0.5062147379 4288980130
-0.2296173722 -0.1409466863 0.5045729876 4288980130
-0.2292712182 -0.1401744187 0.5038123131 4288980130
-0.2293263078 -0.1396481991 0.5039333701 4288914337
-0.2293812037 -0.1391215920 0.5040540099 4288914337
-0.2294359356 -0.1385946125 0.5041742921 4288914591
-0.2290885597 -0.1378254443 0.5034109354 4288914591
-0.2287408262 -0.1370577663 0.5026468039 4288980132
-0.2287948132 -0.1365315020 0.5027654171 4288980132
-0.2288486212 -0.1360048652 0.5028836727 4288980132
-0.2289022356 -0.1354778707 0.5030015111 4288980132
-0.2285532951 -0.1347133219 0.5022346973 4288980132
-0.2286064625 -0.1341865063 0.5023515224 4288914339
-0.2282568663 -0.1334240139 0.5015833378 4288914339
-0.2283095717 -0.1328973919 0.5016991496 4288980132
-0.2279593349 -0.1321369559 0.5009295344 4288914339
-0.2280115634 -0.1316105425 0.5010442734 4288914339
-0.2280636281 -0.1310837716 0.5011587143 4288848546
-0.2277124673 -0.1303259581 0.5003870130 4288848546
-0.2277640551 -0.1297993958 0.5005003810 4288848546
-0.2274122536 -0.1290436834 0.4997273386 4288848546
-0.2274633795 -0.1285173297 0.4998396933 4288848546
-0.2275143266 -0.1279906332 0.4999516308 4288848546
-0.2267581075 -0.1270115823 0.4982898831 4288848548
-0.2268085033 -0.1264860481 0.4984006286 4288848548
-0.2268587053 -0.1259601712 0.4985109568 4288848546
-0.2269087285 -0.1254339367 0.4986208677 4288848546
-0.2265547216 -0.1246851012 0.4978429377 4288717473
-0.2266042680 -0.1241591126 0.4979518354 4288783266
-0.2266536355 -0.1236327812 0.4980603158 4288783266
-0.2262987047 -0.1228866652 0.4972803593 4288651680
-0.2263476104 -0.1223605871 0.4973878264 4288717473
-0.2259920388 -0.1216166019 0.4966064692 4288717473
-0.2260404825 -0.1210907847 0.4967129230 4288651680
-0.2260887176 -0.1205646321 0.4968189299 4288651680
-0.2257322371 -0.1198234037 0.4960355759 4288717473
-0.2257800251 -0.1192975193 0.4961405993 4288651680
-0.2258276194 -0.1187712997 0.4962451756 4288651680
-0.2258750200 -0.1182447523 0.4963493347 4288783266
-0.2255173475 -0.1175069064 0.4955633581 4288586401
-0.2251593173 -0.1167706177 0.4947766066 4288586401
-0.2252059728 -0.1162449718 0.4948791564 4288520608
-0.2252524495 -0.1157189980 0.4949812591 4288520608
-0.2252987176 -0.1151926965 0.4950829446 4288652194
-0.2249395102 -0.1144598424 0.4942936003 4288652194
-0.2249853164 -0.1139338464 0.4943942726 4288651680
-0.2246254683 -0.1132031903 0.4936035275 4288454301
-0.2246708125 -0.1126774997 0.4937031567 4288585887
-0.2247159630 -0.1121514961 0.4938023686 4288651680
-0.2247609198 -0.1116251722 0.4939011633 4288651680
-0.2243998945 -0.1108979955 0.4931078255 4288585887
-0.2248502523 -0.1105715781 0.4940974414 4288716962
-0.2248946279 -0.1100443155 0.4941949546 4288716962
-0.2245327681 -0.1093190536 0.4933998287 4288716962
-0.2245766819 -0.1087921187 0.4934962988 4288716962
-0.2242141962 -0.1080690995 0.4926997721 4288651428
-0.2242576331 -0.1075425074 0.4927951992 4288585635
-0.2243008763 -0.1070156023 0.4928902388 4288651169
-0.2239374965 -0.1062954813 0.4920917153 4288585376
-0.2239802629 -0.1057689339 0.4921857119 4288453275
-0.2236162722 -0.1050510779 0.4913858473 4288387482
-0.2236585617 -0.1045248806 0.4914787710 4288387734
-0.2237006724 -0.1039983854 0.4915713072 4288256148
-0.2237425745 -0.1034715921 0.4916633964 4288190355
-0.2237842828 -0.1029445082 0.4917550385 4288190355
-0.2234188318 -0.1022309139 0.4909519851 4288256148
-0.2234600782 -0.1017042026 0.4910426140 4288256148
-0.2235011160 -0.1011771932 0.4911327958 4288125075
-0.2235419601 -0.1006499007 0.4912225604 4287927696
-0.2231753469 -0.0999399424 0.4904169440 4287796369
-0.2232157141 -0.0994130373 0.4905056357 4287730576
-0.2232558876 -0.0988858417 0.4905939102 4287794821
-0.2228883803 -0.0981788784 0.4897863567 4287860614
-0.2229280919 -0.0976520851 0.4898735881 4287729803
-0.2225599736 -0.0969474465 0.4890646636 4287598217
-0.2225991935 -0.0964210480 0.4891508818 4287859846
-0.2222304642 -0.0957187489 0.4883405864 4287728260
-0.2222692221 -0.0951927677 0.4884257615 4287529336
-0.2218998671 -0.0944928080 0.4876141548 4287068785
-0.2215301841 -0.0937945098 0.4868017733 4286476649
-0.2215681970 -0.0932696387 0.4868853092 4285950305
-0.2216060162 -0.0927445069 0.4869683981 4285162333
-0.2216436267 -0.0922190994 0.4870510697 4284833368
-0.2212727964 -0.0915245563 0.4862361550 4284504403
-0.2213099301 -0.0909995884 0.4863177836 4284043852
-0.2209384888 -0.0903074294 0.4855015576 4283976768
-0.2213836163 -0.0899488553 0.4864796996 4283779389
-0.2214201540 -0.0894230977 0.4865599871 4284237111
-0.2210478932 -0.0887330696 0.4857419729 4284302904
-0.2210839689 -0.0882077664 0.4858212471 4284368695
-0.2207111120 -0.0875201300 0.4850018919 4284631867
-0.2207466960 -0.0869952813 0.4850801229 4285157439
-0.2203732431 -0.0863100588 0.4842594564 4285552197
-0.2204083651 -0.0857856795 0.4843366146 4286078023
-0.2204432935 -0.0852610543 0.4844133556 4286472781
-0.2200689614 -0.0845789686 0.4835907817 4287063890
-0.2201033980 -0.0840548202 0.4836664796 4287656027
-0.2201376557 -0.0835304335 0.4837417603 4288313439
-0.2201716900 -0.0830057934 0.4838165641 4288576611
-0.2197962254 -0.0823276043 0.4829914868 4288839011
-0.2198297977 -0.0818034559 0.4830652773 4288970597
-0.2194537371 -0.0811277181 0.4822388887 4289232998
-0.2194868475 -0.0806040689 0.4823116362 4289430377
-0.2191101909 -0.0799307823 0.4814839363 4289495917
-0.2191428244 -0.0794076473 0.4815556705 4289627503
-0.2187655717 -0.0787368268 0.4807266891 4289628273
-0.2187977284 -0.0782141984 0.4807973504 4289825652
-0.2188296914 -0.0776913464 0.4808675647 4289825652
-0.2188614458 -0.0771682635 0.4809373319 4289628273
-0.2188929915 -0.0766449571 0.4810066521 4289694066
-0.2189243287 -0.0761214197 0.4810755253 4289694066
-0.2185454369 -0.0754560903 0.4802429378 4289759859
-0.2185762972 -0.0749330893 0.4803107679 4289759859
-0.2186069638 -0.0744098648 0.4803781509 4289759861
-0.2182272226 -0.0737477988 0.4795436859 4289825654
-0.2178471535 -0.0730874836 0.4787085056 4289891447
-0.2178770900 -0.0725655705 0.4787742794 4289891447
-0.2179068178 -0.0720434487 0.4788396060 4289891447
-0.2179363370 -0.0715211108 0.4789044559 4289891447
-0.2183761299 -0.0711322650 0.4798708856 4289826165
-0.2179947495 -0.0704758018 0.4790328145 4290023544
-0.2180236429 -0.0699528307 0.4790963233 4290023803
-0.2180523425 -0.0694296584 0.4791593552 4289958010
-0.2184915096 -0.0690360442 0.4801244438 4289892217
-0.2185198367 -0.0685114712 0.4801867008 4289826424
-0.2185479552 -0.0679866970 0.4802484810 4289891960
-0.2189867198 -0.0675885230 0.4812126458 4289957753
-0.2190144807 -0.0670623630 0.4812736213 4289892219
-0.2186310589 -0.0664111674 0.4804310799 4289760633
-0.2186583281 -0.0658855885 0.4804910123 4289695610
-0.2186854035 -0.0653598234 0.4805504978 4289827196
-0.2183011472 -0.0647119880 0.4797061384 4289695355
-0.2183277458 -0.0641868189 0.4797645807 4289695355
-0.2183541358 -0.0636614636 0.4798225462 4289826427
-0.2187915742 -0.0632548109 0.4807838202 4289826427
-0.2184062749 -0.0626101792 0.4799371362 4289892220
-0.2184320390 -0.0620842539 0.4799937308 4289958013
-0.2184575796 -0.0615581423 0.4800498784 4289826941
-0.2184829116 -0.0610318482 0.4801055491 4289892734
-0.2185080349 -0.0605053753 0.4801607430 4290024320
-0.2193560451 -0.0602046251 0.4820241928 4289958527
-0.2193808258 -0.0596758053 0.4820786715 4289892734
-0.2198170573 -0.0592577755 0.4830372334 4290024320
-0.2194297761 -0.0586176328 0.4821862280 4290090113
-0.2194539160 -0.0580882803 0.4822392762 4290090113
-0.2194778621 -0.0575587563 0.4822918773 4289959040
-0.2195015848 -0.0570290573 0.4823440015 4290024833
-0.2191132158 -0.0563931875 0.4814906120 4290024835
-0.2191364616 -0.0558641441 0.4815416932 4290024835
-0.2191594988 -0.0553349331 0.4815923274 4290024835
-0.2191823274 -0.0548055544 0.4816424549 4289959042
-0.2196169645 -0.0543780364 0.4825975597 4289893765
-0.2196394056 -0.0538473353 0.4826468527 4289893765
-0.2204858661 -0.0535165332 0.4845069349 4289959558
-0.2196836174 -0.0527854487 0.4827440381 4289959558
-0.2197054029 -0.0522542670 0.4827919006 4290025351
-0.2197269797 -0.0517229289 0.4828393161 4290091144
-0.2201606184 -0.0512874760 0.4837922156 4290156937
-0.2205941081 -0.0508498773 0.4847448170 4290156937
-0.2197903842 -0.0501279831 0.4829786420 4290156937
-0.2206358910 -0.0497821309 0.4848366082 4290091144
-0.2198315710 -0.0490639284 0.4830691516 4290091144
-0.2202643156 -0.0486227311 0.4840201139 4290156937
-0.2211094499 -0.0482694469 0.4858772159 4290222730
-0.2211293876 -0.0477339067 0.4859210551 4290156937
-0.2211491168 -0.0471982248 0.4859643877 4290156939
-0.2211686224 -0.0466623977 0.4860072732 4290222732
-0.2211879194 -0.0461264327 0.4860496521 4290157196
-0.2212069780 -0.0455903262 0.4860915542 4290157196
-0.2216385603 -0.0451381393 0.4870399237 4290091403
-0.2216572315 -0.0446007587 0.4870809317 4290091403
-0.2220884711 -0.0441452973 0.4880285859 4290157196
-0.2229324132 -0.0437687524 0.4898830950 4290222989
-0.2237762511 -0.0433880724 0.4917373955 4290288784
-0.2233812958 -0.0427661017 0.4908694923 4290288784
-0.2238119245 -0.0423021019 0.4918157756 4290354577
-0.2246553600 -0.0419130176 0.4936691821 4290288784
-0.2263247073 -0.0416718796 0.4973374903 4290222991
-0.2271680087 -0.0412725173 0.4991906285 4290157198
-0.2275981456 -0.0407949798 0.5001358390 4290091405
-0.2321590632 -0.0410456620 0.5101582408 4290025612
-0.2309366763 -0.0402657054 0.5074720979 4290091405
-0.2334322780 -0.0401309021 0.5129560232 4290354577
-0.2326225042 -0.0394237377 0.5111766458 4289961102
-0.2347048968 -0.0392036103 0.5157525539 4288842621
-0.2359608412 -0.0388372913 0.5185124278 4288251773
-0.2392830700 -0.0387998894 0.5258128643 4289567633
-0.2368193418 -0.0378221944 0.5203989744 4290491053
-0.2397282720 -0.0377014764 0.5267912149 4291083190
-0.2409839332 -0.0373105817 0.5295504332 4291281858
-0.2414127588 -0.0367875583 0.5304927230 4291347651
-0.2447352111 -0.0366963223 0.5377936959 4291348682
-0.2439235449 -0.0359790735 0.5360100865 4291480268
-0.2455922514 -0.0356255881 0.5396770239 4291743697
-0.2451935261 -0.0349691026 0.5388007760 4291941076
-0.2481025159 -0.0347782299 0.5451931953 4292006871
-0.2481169105 -0.0341744646 0.5452248454 4292270043
-0.2493717074 -0.0337384492 0.5479821563 4292402399
-0.2497992516 -0.0331863984 0.5489216447 4292468192
-0.2502265871 -0.0326322354 0.5498607159 4292401629
-0.2514942586 -0.0315694958 0.5526463389 4292533215
-0.2527483106 -0.0311098229 0.5554021001 4292599008
-0.2535885572 -0.0305941030 0.5572484732 4292665316
-0.2548423111 -0.0301231593 0.5600035787 4292731109
-0.2540273368 -0.0294066109 0.5582126379 4292731109
-0.2552807331 -0.0289284308 0.5609669089 4292796902
-0.2552926838 -0.0283064824 0.5609931946 4292862695
-0.2569595277 -0.0278639253 0.5646560192 4292862695
-0.2586262524 -0.0274132174 0.5683185458 4292863210
-0.2578099370 -0.0266972426 0.5665247440 4292863210
-0.2586486340 -0.0261525977 0.5683677793 4292929003
-0.2594871521 -0.0256038364 0.5702103376 4292929003
-0.2603254616 -0.0250509642 0.5720525384 4292929003
-0.2607496977 -0.0244551599 0.5729847550 4292994796
-0.2615876198 -0.0238950718 0.5748260021 4293257708
-0.2628392279 -0.0233676750 0.5775763988 4293257708
-0.2636767328 -0.0227983594 0.5794168115 4293389039
-0.2641001046 -0.0221901573 0.5803470612 4293520625
-0.2645232081 -0.0215798672 0.5812768340 4293520625
-0.2645321190 -0.0209347326 0.5812963843 4293454832
-0.2657827139 -0.0203847867 0.5840445161 4293520110
-0.2662051022 -0.0197672378 0.5849727392 4293520110
-0.2666272521 -0.0191476084 0.5859003663 4293454315
-0.2670491636 -0.0185258985 0.5868275166 4293585901
-0.2674708366 -0.0179021135 0.5877540708 4293454317
-0.2683062851 -0.0173029564 0.5895899534 4293256938
-0.2687274516 -0.0166740119 0.5905154943 4293125352
-0.2695624530 -0.0160676781 0.5923503041 4293059559
-0.2699831128 -0.0154335825 0.5932747126 4292664542
-0.2704035342 -0.0147974184 0.5941985846 4291480268
-0.2708236873 -0.0141591877 0.5951218605 4289834404
-0.2729000449 -0.0136014512 0.5996845365 4289373853
-0.2720773816 -0.0128961643 0.5978767276 4289636253
-0.2724967599 -0.0122507345 0.5987983346 4289899425
-0.2733300328 -0.0116208540 0.6006293893 4289767841
-0.2737489045 -0.0109702982 0.6015498042 4289241497
-0.2745816410 -0.0103332717 0.6033797860 4289307290
-0.2749999762 -0.0096775955 0.6042990685 4290294185
-0.2754180729 -0.0090198684 0.6052177548 4292070598
-0.2758358717 -0.0083600907 0.6061358452 4293518044
-0.2494558841 -0.2597333193 0.5495082736 4290362822
-0.2499272972 -0.2596124709 0.5505467653 4290297029
-0.2496389449 -0.2587019503 0.5499115586 4290231236
-0.2497303039 -0.2581854165 0.5501127839 4290033857
-0.2498215437 -0.2576682866 0.5503137708 4289902263
-0.2499126643 -0.2571506202 0.5505145192 4289704884
-0.2500036657 -0.2566323876 0.5507149696 4289508016
-0.2500945628 -0.2561135888 0.5509151816 4289376430
-0.2498045415 -0.2552051842 0.5502762794 4289375917
-0.2498950511 -0.2546860278 0.5504757166 4289178538
-0.2499854416 -0.2541663051 0.5506747961 4288783266
-0.2500757277 -0.2536460459 0.5508736968 4288125336
-0.2501658797 -0.2531252205 0.5510722995 4287204232
-0.2498744279 -0.2522187531 0.5504302382 4286348923
-0.2495825738 -0.2513132989 0.5497874022 4285296235
-0.2496720999 -0.2507923543 0.5499845743 4284243547
-0.2497614920 -0.2502708733 0.5501815081 4283256652
-0.2498507798 -0.2497488260 0.5503781438 4282598722
-0.2491755784 -0.2484640479 0.5488908291 4282269498
-0.2488820255 -0.2475621998 0.5482441783 4282072119
-0.2493529767 -0.2474203557 0.5492815971 4282597180
-0.2490589023 -0.2465189844 0.5486338139 4282597180
-0.2491471469 -0.2459965497 0.5488281846 4282728766
-0.2488524318 -0.2450964898 0.5481789708 4282794559
-0.2493232787 -0.2449500114 0.5492161512 4282794561
-0.2486449033 -0.2436749786 0.5477218628 4282662975
-0.2487323880 -0.2431519330 0.5479145050 4282531387
-0.2488197237 -0.2426283360 0.5481069684 4282531387
-0.2489069551 -0.2421041876 0.5482990742 4282860607
-0.2482267320 -0.2408350259 0.5468006730 4282663228
-0.2483134270 -0.2403113991 0.5469916463 4282729019
-0.2480160743 -0.2394165993 0.5463366508 4282794812
-0.2477183193 -0.2385228872 0.5456807613 4282729021
-0.2470359802 -0.2372612506 0.5441776514 4282531642
-0.2478902787 -0.2374750376 0.5460595489 4282465849
-0.2475915998 -0.2365829349 0.5454016328 4282597435
-0.2469079494 -0.2353253663 0.5438956022 4282794559
-0.2469930649 -0.2348019779 0.5440831184 4282399801
-0.2470780611 -0.2342780530 0.5442703366 4282268984
-0.2471629232 -0.2337535918 0.5444573164 4282466363
-0.2468625307 -0.2328653038 0.5437955856 4282992193
-0.2461764961 -0.2316156477 0.5422843695 4283452744
-0.2462605685 -0.2310920209 0.5424695611 4284110159
-0.2467300147 -0.2309286892 0.5435037017 4284833882
-0.2460426539 -0.2296831608 0.5419895649 4285886056
-0.2461261898 -0.2291587442 0.5421735644 4286543986
-0.2458236963 -0.2282754481 0.5415071845 4286742133
-0.2459068298 -0.2277507931 0.5416903496 4286939512
-0.2459898293 -0.2272256017 0.5418731570 4287201912
-0.2456863970 -0.2263440043 0.5412047505 4287201912
-0.2457689941 -0.2258185744 0.5413867235 4287464571
-0.2450783402 -0.2245841622 0.5398653150 4287530364
-0.2451604158 -0.2240593284 0.5400460958 4287401352
-0.2448555231 -0.2231813967 0.5393744707 4287598731
-0.2445502430 -0.2223045975 0.5387020111 4287664270
-0.2442445606 -0.2214289457 0.5380286574 4287598477
-0.2447128892 -0.2212545872 0.5390602946 4287730063
-0.2444066852 -0.2203795463 0.5383857489 4287993235
-0.2437126040 -0.2191572189 0.5368568301 4288124821
-0.2434054762 -0.2182853073 0.5361802578 4288124821
-0.2442611009 -0.2184547931 0.5380650759 4288124310
-0.2435657084 -0.2172367424 0.5365332365 4288255896
-0.2432576567 -0.2163666189 0.5358546376 4288453277
-0.2433372885 -0.2158418745 0.5360300541 4288650656
-0.2434167862 -0.2153166384 0.5362051725 4288716449
-0.2431077957 -0.2144483030 0.5355245471 4288650656
-0.2431868762 -0.2139228731 0.5356987715 4288650656
-0.2432658225 -0.2133969218 0.5358726382 4288650656
-0.2433446199 -0.2128704637 0.5360462070 4288519581
-0.2426455766 -0.2116650790 0.5345063210 4288519581
-0.2427238375 -0.2111392766 0.5346787572 4288519840
-0.2424128354 -0.2102754414 0.5339936614 4288519840
-0.2424906939 -0.2097494751 0.5341651440 4288520094
-0.2425683886 -0.2092230022 0.5343363285 4288651680
-0.2422564626 -0.2083610296 0.5336492062 4288717473
-0.2423337549 -0.2078343928 0.5338194370 4288585887
-0.2424108982 -0.2073072493 0.5339893699 4288520092
-0.2417081743 -0.2061147243 0.5324414372 4288651678
-0.2413948029 -0.2052566707 0.5317510962 4288652194
-0.2418612242 -0.2050613165 0.5327785611 4288586401
-0.2411570847 -0.2038740814 0.5312274694 4288520608
-0.2412329912 -0.2033478469 0.5313946605 4288586401
-0.2413087487 -0.2028210908 0.5315615535 4288783264
-0.2409937680 -0.2019665241 0.5308676958 4288849057
-0.2410691082 -0.2014396489 0.5310336947 4288783266
-0.2411442995 -0.2009122670 0.5311992764 4288717473
-0.2412193269 -0.2003844082 0.5313645601 4288783266
-0.2409031391 -0.1995321363 0.5306680799 4288849059
-0.2405865639 -0.1986810863 0.5299707055 4288849059
-0.2406609058 -0.1981534511 0.5301344395 4288783266
-0.2403436452 -0.1973039955 0.5294356346 4288849059
-0.2400260121 -0.1964557767 0.5287358761 4288849059
-0.2400996536 -0.1959284097 0.5288981199 4288849059
-0.2401731461 -0.1954005510 0.5290600061 4288849059
-0.2398545593 -0.1945543140 0.5283582211 4288914852
-0.2399276197 -0.1940263510 0.5285191536 4288980645
-0.2396083772 -0.1931817383 0.5278159380 4288914852
-0.2396810055 -0.1926536858 0.5279759169 4288914852
-0.2397534847 -0.1921251565 0.5281355977 4288914852
-0.2394333035 -0.1912825555 0.5274302363 4288914852
-0.2391127199 -0.1904412210 0.5267241001 4289045923
-0.2387917489 -0.1896011382 0.5260170102 4288980130
-0.2388632447 -0.1890732944 0.5261745453 4288980130
-0.2385416031 -0.1882348657 0.5254660249 4289045923
-0.2382195741 -0.1873977035 0.5247566700 4288980132
-0.2382903695 -0.1868701875 0.5249125957 4289045925
-0.2383610159 -0.1863421947 0.5250682235 4289111718
-0.2380380481 -0.1855071038 0.5243567228 4289111718
-0.2377146780 -0.1846732944 0.5236444473 4289045925
-0.2377846092 -0.1841456443 0.5237984657 4289045925
-0.2374605834 -0.1833135337 0.5230847001 4289111718
-0.2375300825 -0.1827858239 0.5232378244 4289111718
-0.2372053862 -0.1819554120 0.5225225687 4289111718
-0.2372744530 -0.1814276576 0.5226746798 4289111718
-0.2373433560 -0.1808994412 0.5228264928 4289045925
-0.2366233468 -0.1797715276 0.5212404132 4289045925
-0.2370861918 -0.1795428991 0.5222600102 4289177511
-0.2367598861 -0.1787163317 0.5215411782 4289177511
-0.2364332080 -0.1778910607 0.5208215714 4289177511
-0.2365009636 -0.1773632020 0.5209708214 4289177511
-0.2361736000 -0.1765396744 0.5202497244 4289111718
-0.2354508191 -0.1754231155 0.5186575651 4289111718
-0.2355177402 -0.1748965532 0.5188049674 4289111718
-0.2355844975 -0.1743695289 0.5189520121 4289111718
-0.2352557182 -0.1735503972 0.5182277560 4289243306
-0.2353220284 -0.1730233729 0.5183738470 4289177513
-0.2353881896 -0.1724959016 0.5185195804 4289243306
-0.2354541868 -0.1719679832 0.5186649561 4289177513
-0.2351241857 -0.1711514890 0.5179380178 4289177513
-0.2351897359 -0.1706235856 0.5180824399 4289177513
-0.2348590642 -0.1698088795 0.5173540115 4289243306
-0.2349241674 -0.1692809761 0.5174974203 4289111720
-0.2349891067 -0.1687526256 0.5176404715 4289243304
-0.2346575111 -0.1679401696 0.5169100165 4289177511
-0.2343255132 -0.1671290547 0.5161786675 4289177511
-0.2343897372 -0.1666011959 0.5163201690 4289177511
-0.2340570688 -0.1657918841 0.5155873895 4289111718
-0.2341208458 -0.1652640551 0.5157278776 4289045925
-0.2337875366 -0.1644565761 0.5149936080 4289045925
-0.2338508666 -0.1639287770 0.5151331425 4289045925
-0.2339140177 -0.1634005457 0.5152722597 4288980132
-0.2335797697 -0.1625953615 0.5145359635 4288980132
-0.2328477800 -0.1615159363 0.5129234791 4289045925
-0.2329101115 -0.1609891206 0.5130608082 4289045925
-0.2329722643 -0.1604618877 0.5131977201 4289045927
-0.2326365858 -0.1596613079 0.5124582648 4288914341
-0.2326983064 -0.1591341197 0.5125942230 4288914341
-0.2323619574 -0.1583354175 0.5118533373 4288980134
-0.2324232161 -0.1578083038 0.5119882822 4289111720
-0.2320862263 -0.1570114642 0.5112459064 4289045927
-0.2321470380 -0.1564844251 0.5113798976 4289111720
-0.2322076708 -0.1559569687 0.5115134716 4289111720
-0.2322681397 -0.1554291099 0.5116466880 4289177513
-0.2319299281 -0.1546351314 0.5109016299 4289177513
-0.2315913439 -0.1538425535 0.5101557970 4289111720
-0.2316510826 -0.1533152759 0.5102873445 4289111720
-0.2313118279 -0.1525246203 0.5095400810 4289177511
-0.2313711196 -0.1519974321 0.5096706748 4289111718
-0.2310312092 -0.1512086838 0.5089219213 4289177511
-0.2310900539 -0.1506816000 0.5090515018 4289177511
-0.2311487049 -0.1501541138 0.5091807246 4289111718
-0.2308078706 -0.1493677944 0.5084299445 4289111718
-0.2308660746 -0.1488404274 0.5085581541 4289045925
-0.2305245847 -0.1480560452 0.5078058839 4288980132
-0.2305823267 -0.1475287974 0.5079330802 4288980132
-0.2306399047 -0.1470011324 0.5080599189 4288980132
-0.2306973040 -0.1464730948 0.5081863999 4289045925
-0.2299546748 -0.1454387754 0.5065504909 4288980132
-0.2304115444 -0.1451637894 0.5075569153 4288980132
-0.2300681919 -0.1443843842 0.5068005323 4288914339
-0.2297244519 -0.1436064094 0.5060433745 4288914339
-0.2297806591 -0.1430791616 0.5061671734 4288914339
-0.2298366874 -0.1425515264 0.5062906146 4288914339
-0.2290915251 -0.1415286511 0.5046491027 4288914339
-0.2291469872 -0.1410020739 0.5047712922 4288914339
-0.2288015783 -0.1402295381 0.5040104389 4288914339
-0.2288566083 -0.1397031397 0.5041316152 4288980132
-0.2289114445 -0.1391763538 0.5042524338 4288980132
-0.2289660871 -0.1386491805 0.5043728352 4288980132
-0.2286194861 -0.1378797442 0.5036092997 4288980132
-0.2282724977 -0.1371117830 0.5028449297 4288914337
-0.2283264101 -0.1365853399 0.5029637218 4288914337
-0.2283801585 -0.1360585392 0.5030820966 4288914337
-0.2284337133 -0.1355313510 0.5032000542 4288980130
-0.2280855179 -0.1347665191 0.5024330616 4288980130
-0.2281386107 -0.1342395246 0.5025500059 4288914337
-0.2277897745 -0.1334767491 0.5017815828 4288914337
-0.2278424203 -0.1329499483 0.5018975139 4288914337
-0.2278948724 -0.1324227899 0.5020130873 4288848544
-0.2275451124 -0.1316626370 0.5012426376 4288848544
-0.2275971025 -0.1311356723 0.5013571382 4288783266
-0.2272467017 -0.1303775907 0.5005852580 4288783266
-0.2272982299 -0.1298508495 0.5006988049 4288849059
-0.2273495644 -0.1293237358 0.5008118749 4288849059
-0.2269982398 -0.1285683215 0.5000379682 4288849059
-0.2270491272 -0.1280414313 0.5001500845 4288849059
-0.2266971618 -0.1272881031 0.4993747473 4288849059
-0.2263448238 -0.1265362948 0.4985986054 4288849059
-0.2263949662 -0.1260102242 0.4987090826 4288849059
-0.2264449298 -0.1254838109 0.4988191128 4288849059
-0.2264946997 -0.1249570400 0.4989287555 4288783266
-0.2261411697 -0.1242085248 0.4981499910 4288717473
-0.2261904776 -0.1236819997 0.4982585907 4288717473
-0.2258363068 -0.1229356080 0.4974784255 4288651680
-0.2258851528 -0.1224093437 0.4975860119 4288651680
-0.2255303413 -0.1216650829 0.4968044460 4288651680
-0.2255787253 -0.1211390793 0.4969110191 4288717473
-0.2256269157 -0.1206127331 0.4970171750 4288717473
-0.2252711952 -0.1198712289 0.4962335825 4288651680
-0.2253189236 -0.1193451583 0.4963387251 4288717473
-0.2253664434 -0.1188187525 0.4964434206 4288783266
-0.2254137993 -0.1182920113 0.4965476990 4288717473
-0.2250568867 -0.1175538898 0.4957615137 4288651680
-0.2246996313 -0.1168173328 0.4949745238 4288717473
-0.2247462273 -0.1162914932 0.4950771928 4288717473
-0.2247926444 -0.1157653257 0.4951794147 4288717473
-0.2248388678 -0.1152388304 0.4952812195 4288717473
-0.2248848826 -0.1147120222 0.4953826070 4288651680
-0.2249307185 -0.1141848788 0.4954835773 4288520094
-0.2241670936 -0.1132485792 0.4938014448 4288520094
-0.2242123783 -0.1127227023 0.4939011931 4288454047
-0.2242574692 -0.1121964976 0.4940005243 4288454047
-0.2243023813 -0.1116699874 0.4940994382 4288388254
