VERSION 0.7
FIELDS x y z rgba
SIZE 4 4 4 4
TYPE F F F U
COUNT 1 1 1 1
WIDTH 920
HEIGHT 1
VIEWPOINT 0.0 0.0 0.0 1.0 0.0 0.0 0.0
POINTS 920
DATA ascii
-0.3276129663 -0.1037233770 0.5232467651 4294901759
-0.3281866908 -0.1033226326 0.5241630673 4294704382
-0.3287602961 -0.1029198170 0.5250791907 4294770175
-0.3288102150 -0.1023519561 0.5251589417 4294770175
-0.3293835223 -0.1019459143 0.5260746479 4294704383
-0.3299567401 -0.1015378013 0.5269901752 4294441212
-0.3300060332 -0.1009673625 0.5270688534 4293651696
-0.3305789828 -0.1005560234 0.5279839039 4292073434
-0.3311517835 -0.1001426205 0.5288988352 4290033851
-0.3327861428 -0.1475516409 0.5324536562 4288716968
-0.3328558505 -0.1469908208 0.5325651765 4289111726
-0.3267993033 -0.1431543231 0.5228747725 4289374898
-0.3263506591 -0.1423776299 0.5221569538 4289178287
-0.3274509907 -0.1422755718 0.5239174366 4288980908
-0.3259685636 -0.1410519928 0.5215455890 4289046187
-0.3255186677 -0.1402786374 0.5208258033 4289111980
-0.3250683248 -0.1395066977 0.5201052427 4288980140
-0.3235837221 -0.1382943243 0.5177298784 4288980140
-0.3246833384 -0.1381870806 0.5194892287 4289046187
-0.3247488737 -0.1376376748 0.5195941329 4288914601
-0.3248142004 -0.1370879412 0.5196986198 4288848808
-0.3238446116 -0.1361030340 0.5181472898 4288914601
-0.3244266808 -0.1357709169 0.5190786123 4288980393
-0.3244911730 -0.1352210641 0.5191817880 4288980393
-0.3240378201 -0.1344560981 0.5184563994 4289046187
-0.3241017461 -0.1339064687 0.5185586810 4289111980
-0.3236475885 -0.1331434846 0.5178320408 4289243053
-0.3237109482 -0.1325940788 0.5179334283 4289637811
-0.3232560158 -0.1318330914 0.5172055364 4289637810
-0.3228006661 -0.1310735345 0.5164769888 4289703603
-0.3228631020 -0.1305249333 0.5165768862 4289704117
-0.3224069476 -0.1297673881 0.5158470273 4289835703
-0.3224688172 -0.1292190403 0.5159460306 4290033082
-0.3225304186 -0.1286703646 0.5160446167 4290362047
-0.3220731914 -0.1279153973 0.5153130293 4290559425
-0.3221342266 -0.1273669899 0.5154107213 4290691011
-0.3216761947 -0.1266140491 0.5146778822 4290625218
-0.3217366636 -0.1260658950 0.5147746205 4290888390
-0.3212778866 -0.1253149807 0.5140405297 4291217356
-0.3213377595 -0.1247671098 0.5141363740 4291480528
-0.3213974237 -0.1242189184 0.5142318010 4291677907
-0.3204182088 -0.1232708469 0.5126650929 4291809493
-0.3204771876 -0.1227238253 0.5127594471 4292006871
-0.3205358982 -0.1221764982 0.5128534436 4292072664
-0.3205944002 -0.1216288805 0.5129470229 4292138976
-0.3206526637 -0.1210809574 0.5130402446 4292204769
-0.3207106888 -0.1205327362 0.5131330490 4292402148
-0.3202485740 -0.1197897494 0.5123936534 4292467941
-0.3197860122 -0.1190482527 0.5116536021 4292599527
-0.3198431134 -0.1185009256 0.5117449760 4292665320
-0.3198999763 -0.1179533005 0.5118359327 4292665318
-0.3199566007 -0.1174053922 0.5119265318 4292665318
-0.3200129569 -0.1168571860 0.5120167136 4292599525
-0.3200690746 -0.1163086966 0.5121064782 4292796904
-0.3201249540 -0.1157599166 0.5121958852 4293257455
-0.3207012117 -0.1153981835 0.5131179094 4293389041
-0.3202359974 -0.1146614924 0.5123735666 4294573311
-0.3208119273 -0.1142974049 0.5132950544 4294770687
-0.3208669126 -0.1137465909 0.5133830309 4294770687
-0.3214426339 -0.1133792549 0.5143041611 4294770687
-0.3214972317 -0.1128269807 0.5143914819 4294901759
-0.3215515614 -0.1122744232 0.5144784451 4294901759
-0.3216056228 -0.1117215902 0.5145649910 4294704383
-0.3221808076 -0.1113486513 0.5154852271 4294375419
-0.3222344816 -0.1107943654 0.5155711174 4294112247
-0.3228093982 -0.1104181856 0.5164909363 4294178040
-0.3228626549 -0.1098624468 0.5165761709 4294309626
-0.3229156733 -0.1093064398 0.5166609883 4294375419
-0.3234901726 -0.1089258417 0.5175802112 4294507003
-0.3235427737 -0.1083683893 0.5176643729 4294704382
-0.3241170347 -0.1079845503 0.5185831785 4294770175
-0.3241691887 -0.1074256524 0.5186666250 4294704382
-0.3242211044 -0.1068664864 0.5187496543 4294770175
-0.3247949481 -0.1064782441 0.5196678042 4294835967
-0.3248464167 -0.1059176400 0.5197501779 4294835967
-0.3254199922 -0.1055261567 0.5206679106 4294835967
-0.3259934783 -0.1051326022 0.5215854645 4294901759
-0.3260443509 -0.1045694053 0.5216668844 4294901759
-0.3266175687 -0.1041726172 0.5225840211 4294901759
-0.3266680241 -0.1036079898 0.5226647258 4294901759
-0.3272409439 -0.1032079682 0.5235813856 4294901759
-0.3278137743 -0.1028058827 0.5244979262 4294901759
-0.3283865154 -0.1024017259 0.5254142880 4294835967
-0.3284361660 -0.1018333435 0.5254937410 4294901759
-0.3284855485 -0.1012647077 0.5255727172 4294901759
-0.3290578127 -0.1008561552 0.5264883637 4294835967
-0.3291067481 -0.1002861038 0.5265666842 4294178040
-0.3296787143 -0.0998743251 0.5274817944 4292730594
-0.3302505910 -0.0994604826 0.5283967853 4290757574
-0.3308223486 -0.0990445688 0.5293115973 4288981163
-0.3318366110 -0.1473925561 0.5318796039 4289506227
-0.3303600550 -0.1461483687 0.5295128822 4290032571
-0.3279198408 -0.1439008862 0.5256016850 4289966776
-0.3254093528 -0.1422196925 0.5215777159 4290033081
-0.3249607682 -0.1414449364 0.5208587646 4289967288
-0.3245117664 -0.1406715810 0.5201390386 4289967288
-0.3240622878 -0.1398996413 0.5194186568 4290230460
-0.3236123919 -0.1391291022 0.5186975002 4290164668
-0.3231620491 -0.1383599788 0.5179756880 4290098875
-0.3237439394 -0.1380325705 0.5189083219 4290427839
-0.3232929111 -0.1372645199 0.5181854367 4290427839
-0.3233579993 -0.1367163062 0.5182897449 4290427837
-0.3223895431 -0.1357327104 0.5167374611 4290493630
-0.3234874606 -0.1356188655 0.5184972286 4290559164
-0.3230349720 -0.1348538846 0.5177720189 4290361785
-0.3230990171 -0.1343052238 0.5178746581 4290690752
-0.3231628239 -0.1337562352 0.5179768801 4290953924
-0.3227092028 -0.1329937875 0.5172498822 4290822338
-0.3222551644 -0.1322327852 0.5165221095 4291217096
-0.3223180771 -0.1316845715 0.5166229010 4291217356
-0.3218632638 -0.1309255660 0.5158939362 4291151563
-0.3214080036 -0.1301680058 0.5151642561 4291151563
-0.3219876587 -0.1298293322 0.5160933137 4291217356
-0.3215317130 -0.1290728897 0.5153625607 4291414735
-0.3215932250 -0.1285248697 0.5154610872 4291743700
-0.3216544986 -0.1279765368 0.5155593157 4291941079
-0.3211974502 -0.1272226870 0.5148267746 4292006872
-0.3212581277 -0.1266746074 0.5149240494 4291941593
-0.3213185966 -0.1261262149 0.5150209069 4292138972
-0.3208604455 -0.1253749728 0.5142865777 4292336353
-0.3209203184 -0.1248268485 0.5143825412 4292467939
-0.3204613924 -0.1240776479 0.5136469603 4292599525
-0.3200020492 -0.1233299151 0.5129107237 4292665318
-0.3200610280 -0.1227826551 0.5130052567 4292796902
-0.3201197386 -0.1222350895 0.5130993724 4292862695
-0.3201782107 -0.1216872260 0.5131930709 4292862445
-0.3202364445 -0.1211390570 0.5132864118 4292796652
-0.3197753131 -0.1203951463 0.5125473142 4292862445
-0.3198329806 -0.1198472753 0.5126397014 4292928238
-0.3193711042 -0.1191054434 0.5118994117 4292994285
-0.3194281757 -0.1185578704 0.5119909048 4293060078
-0.3194850087 -0.1180100068 0.5120819807 4293125871
-0.3195416033 -0.1174618527 0.5121726990 4293060078
-0.3195979595 -0.1169134006 0.5122630000 4293060078
-0.3196540475 -0.1163646653 0.5123529434 4293191664
-0.3197099268 -0.1158156395 0.5124424696 4293454834
-0.3202854693 -0.1154537573 0.5133650303 4293389041
-0.3198209107 -0.1147167310 0.5126203895 4294375935
-0.3203961551 -0.1143524870 0.5135424137 4294441727
-0.3204511404 -0.1138014272 0.5136305094 4294507519
-0.3205058575 -0.1132500768 0.5137182474 4294441727
-0.3210807145 -0.1128814071 0.5146396160 4294309626
-0.3211350441 -0.1123286039 0.5147266984 4294309626
-0.3211891055 -0.1117755175 0.5148133636 4294243833
-0.3217635751 -0.1114024222 0.5157341361 4294243833
-0.3218172193 -0.1108478829 0.5158201456 4294309626
-0.3223914504 -0.1104715392 0.5167405605 4294572798
-0.3224447072 -0.1099155545 0.5168258548 4294770175
-0.3224976957 -0.1093592942 0.5169107914 4294835967
-0.3225504160 -0.1088027582 0.5169953704 4294638591
-0.3231240809 -0.1084208190 0.5179148316 4294901759
-0.3236976564 -0.1080368161 0.5188341737 4294901759
-0.3237498105 -0.1074776649 0.5189177394 4294770175
-0.3238016963 -0.1069182456 0.5190009475 4294901759
-0.3238533437 -0.1063585579 0.5190836787 4294901759
-0.3244262934 -0.1059689745 0.5200020671 4294835967
-0.3244775236 -0.1054078490 0.5200841427 4294835967
-0.3250502348 -0.1050150245 0.5210021138 4294901759
-0.3251010180 -0.1044524685 0.5210835338 4294901759
-0.3256734312 -0.1040564105 0.5220010281 4294901759
-0.3262457848 -0.1036582813 0.5229184031 4294901759
-0.3262959421 -0.1030931324 0.5229988098 4294835967
-0.3268680274 -0.1026917621 0.5239157081 4294901759
-0.3274399936 -0.1022883356 0.5248324871 4294770175
-0.3280118406 -0.1018828303 0.5257490873 4294770175
-0.3280612230 -0.1013139337 0.5258282423 4294835967
-0.3281103075 -0.1007447764 0.5259069204 4294901759
-0.3281591535 -0.1001753658 0.5259852409 4294835967
-0.3287303746 -0.0997643098 0.5269007683 4294507003
-0.3287787735 -0.0991934910 0.5269783735 4293520108
-0.3298724592 -0.0989359990 0.5287313461 4291151560
-0.3298586011 -0.1467752755 0.5296520591 4289573557
-0.3288984299 -0.1457612514 0.5281102657 4290165694
-0.3258782923 -0.1438414156 0.5232608914 4290428866
-0.3269760609 -0.1437426209 0.5250235200 4290297280
-0.3229236901 -0.1413850337 0.5185167193 4290427839
-0.3224753439 -0.1406134367 0.5177968144 4290493632
-0.3225418031 -0.1400669813 0.5179035068 4290691009
-0.3220926821 -0.1392973214 0.5171823502 4290888388
-0.3216431141 -0.1385290623 0.5164604783 4290954181
-0.3217086494 -0.1379833519 0.5165657401 4291085767
-0.3222896159 -0.1376575679 0.5174986124 4291283148
-0.3218390346 -0.1368909329 0.5167750716 4291348941
-0.3219038844 -0.1363442242 0.5168792009 4291480528
-0.3209365606 -0.1353619397 0.5153259635 4291612114
-0.3220328987 -0.1352498233 0.5170863271 4291612113
-0.3215808570 -0.1344862580 0.5163605213 4291612113
-0.3216446638 -0.1339391172 0.5164629817 4291809492
-0.3217082322 -0.1333916634 0.5165650845 4291941078
-0.3217715919 -0.1328438669 0.5166667700 4292006872
-0.3213180900 -0.1320834011 0.5159386396 4292204251
-0.3208641708 -0.1313243657 0.5152097344 4292204767
-0.3209266067 -0.1307773739 0.5153099895 4292204767
-0.3204719126 -0.1300203502 0.5145798922 4292270560
-0.3205337524 -0.1294735968 0.5146791935 4292336353
-0.3205953836 -0.1289265305 0.5147781372 4292467939
-0.3206567764 -0.1283791512 0.5148767233 4292533732
-0.3207179010 -0.1278314590 0.5149748921 4292665318
-0.3202614188 -0.1270781606 0.5142419338 4292731111
-0.3203220069 -0.1265307218 0.5143392086 4292731111
-0.3203823268 -0.1259829849 0.5144360662 4292665318
-0.3204424083 -0.1254349351 0.5145325661 4292796906
-0.3199844956 -0.1246848106 0.5137972832 4292928492
-0.3200440109 -0.1241370291 0.5138928294 4292928492
-0.3195853233 -0.1233889610 0.5131562948 4292994285
-0.3196442723 -0.1228414625 0.5132509470 4293060335
-0.3191848099 -0.1220954508 0.5125131607 4292928749
-0.3192431629 -0.1215482280 0.5126069188 4292994544
-0.3193012774 -0.1210007146 0.5127002001 4292994544
-0.3193591535 -0.1204528958 0.5127931833 4292994542
-0.3194167912 -0.1199047789 0.5128856897 4293060335
-0.3189555705 -0.1191626117 0.5121451020 4293191664
-0.3190126419 -0.1186148003 0.5122367144 4293323250
-0.3190694451 -0.1180666909 0.5123279691 4293454836
-0.3191260099 -0.1175182909 0.5124188066 4293520629
-0.3191823661 -0.1169696003 0.5125092268 4293454836
-0.3192384541 -0.1164206192 0.5125992894 4293454836
-0.3192942739 -0.1158713549 0.5126889944 4293454834
-0.3193498850 -0.1153217927 0.5127782822 4293520627
-0.3194052279 -0.1147719547 0.5128671527 4293718006
-0.3199797869 -0.1144075468 0.5137897134 4294112764
-0.3200347424 -0.1138562411 0.5138779283 4294244350
-0.3200894296 -0.1133046523 0.5139657855 4294046971
-0.3206636012 -0.1129358187 0.5148876905 4294309113
-0.3207179010 -0.1123827621 0.5149748921 4294243320
-0.3207719624 -0.1118294373 0.5150616765 4294178040
-0.3208257556 -0.1112758219 0.5151480436 4294243833
-0.3208793104 -0.1107219383 0.5152340531 4294375419
-0.3209325969 -0.1101677716 0.5153196454 4294507005
-0.3220261335 -0.1099686399 0.5170754790 4294769918
-0.3220790923 -0.1094121262 0.5171605349 4294704125
-0.3221318126 -0.1088553444 0.5172452331 4294835709
-0.3227047920 -0.1084732413 0.5181652308 4294835709
-0.3227570951 -0.1079150066 0.5182491541 4294770175
-0.3233298063 -0.1075296625 0.5191687942 4294770175
-0.3233816624 -0.1069699824 0.5192520618 4294835711
-0.3234332800 -0.1064100415 0.5193349719 4294835711
-0.3234846592 -0.1058498323 0.5194174647 4294835709
-0.3240567744 -0.1054589078 0.5203360915 4294835709
-0.3241077065 -0.1048972607 0.5204178691 4294835711
-0.3246795535 -0.1045030951 0.5213360786 4294835711
-0.3247300684 -0.1039400175 0.5214171410 4294835709
-0.3247803152 -0.1033766866 0.5214978456 4294835709
-0.3253516853 -0.1029781178 0.5224153399 4294770429
-0.3254015148 -0.1024133563 0.5224953294 4294770429
-0.3259726167 -0.1020115465 0.5234123468 4294770175
-0.3265436292 -0.1016076803 0.5243292451 4294770175
-0.3265928328 -0.1010403335 0.5244082212 4294770175
-0.3271635473 -0.1006332263 0.5253246427 4294770175
-0.3272123039 -0.1000644639 0.5254029036 4294901759
-0.3272607923 -0.0994954407 0.5254807472 4294901759
-0.3278310299 -0.0990839526 0.5263963938 4294375671
-0.3278790712 -0.0985135213 0.5264735222 4293322983
-0.3284490407 -0.0980987996 0.5273886919 4291283146
-0.3273701370 -0.1459282339 0.5265954137 4290099389
-0.3269248605 -0.1451454610 0.5258792043 4290428354
-0.3244225681 -0.1434547007 0.5218541622 4290560195
-0.3255187273 -0.1433576345 0.5236173868 4290494402
-0.3235289454 -0.1419031173 0.5204166770 4290888390
-0.3230814636 -0.1411294192 0.5196968913 4291019976
-0.3216044307 -0.1399094313 0.5173209310 4291217353
-0.3212871253 -0.1380487531 0.5168105364 4291612113
-0.3208374083 -0.1372821182 0.5160871744 4291743699
-0.3203872740 -0.1365168989 0.5153630972 4291809492
-0.3204518855 -0.1359717250 0.5154670477 4291809493
-0.3205162883 -0.1354262084 0.5155705810 4291941079
-0.3200650215 -0.1346635073 0.5148447752 4292072664
-0.3201288581 -0.1341182142 0.5149474144 4292138457
-0.3196768165 -0.1333575100 0.5142202973 4292270044
-0.3202557862 -0.1330266595 0.5151515603 4292335837
-0.3203189075 -0.1324803829 0.5152530670 4292533216
-0.3203817606 -0.1319337934 0.5153542161 4292730595
-0.3199284077 -0.1311753094 0.5146249533 4292599525
-0.3199907243 -0.1306289583 0.5147252083 4292599525
-0.3195365667 -0.1298724860 0.5139946938 4292665318
-0.3195982873 -0.1293263733 0.5140939951 4292665318
-0.3196597993 -0.1287799627 0.5141928792 4292731111
-0.3197210729 -0.1282332242 0.5142914653 4292796904
-0.3197820783 -0.1276861727 0.5143895745 4292796904
-0.3193261623 -0.1269334257 0.5136561990 4292862697
-0.3193866014 -0.1263866276 0.5137534738 4292796906
-0.3194468319 -0.1258395314 0.5138503313 4292796906
-0.3195067942 -0.1252921224 0.5139467716 4292862699
-0.3195665181 -0.1247444153 0.5140428543 4292928492
-0.3191088140 -0.1239954308 0.5133066177 4292994285
-0.3186506927 -0.1232479140 0.5125696659 4293125871
-0.3187095225 -0.1227010563 0.5126643181 4293191664
-0.3187681139 -0.1221539006 0.5127585530 4293191664
-0.3188264370 -0.1216064394 0.5128523707 4293125871
-0.3188845515 -0.1210586801 0.5129458308 4293191664
-0.3184246421 -0.1203149930 0.5122060776 4293257457
-0.3184821606 -0.1197675243 0.5122985840 4293257457
-0.3185394406 -0.1192197651 0.5123907328 4293389043
-0.3185964823 -0.1186717078 0.5124824643 4293520629
-0.3186532855 -0.1181233600 0.5125738382 4293652215
-0.3187098503 -0.1175747141 0.5126648545 4293718008
-0.3187661469 -0.1170257777 0.5127553940 4293783799
-0.3188222051 -0.1164765581 0.5128455758 4293849592
-0.3188780546 -0.1159270406 0.5129354000 4293849592
-0.3189336061 -0.1153772399 0.5130248070 4293915385
-0.3189889491 -0.1148271486 0.5131137967 4294046971
-0.3190440536 -0.1142767742 0.5132024288 4294441727
-0.3196177483 -0.1139110401 0.5141252279 4294639103
-0.3196724355 -0.1133591980 0.5142132044 4294573311
-0.3197268546 -0.1128070801 0.5143007636 4294572798
-0.3197810650 -0.1122546792 0.5143879652 4294507005
-0.3198350072 -0.1117019951 0.5144746900 4294507005
-0.3204079866 -0.1113294736 0.5153964162 4294507005
-0.3204615414 -0.1107753366 0.5154825449 4294507005
-0.3205147982 -0.1102209166 0.5155682564 4294638591
-0.3205678463 -0.1096662283 0.5156535506 4294835711
-0.3211402595 -0.1092881039 0.5165743232 4294901503
-0.3211928904 -0.1087319627 0.5166589618 4294835711
-0.3217650652 -0.1083505973 0.5175793767 4294835711
-0.3218172789 -0.1077930108 0.5176633000 4294770175
-0.3223891854 -0.1074083969 0.5185832977 4294770175
-0.3224409819 -0.1068493724 0.5186665654 4294835709
-0.3224925101 -0.1062900797 0.5187494755 4294835709
-0.3230639994 -0.1059010476 0.5196687579 4294835709
-0.3231150806 -0.1053403169 0.5197509527 4294835709
-0.3236863315 -0.1049480513 0.5206698179 4294835709
-0.3237369955 -0.1043858826 0.5207512975 4294835709
-0.3237874210 -0.1038234532 0.5208324194 4294835709
-0.3238375485 -0.1032607630 0.5209130645 4294835709
-0.3244081736 -0.1028629243 0.5218309760 4294770429
-0.3244578838 -0.1022988111 0.5219109654 4294770429
-0.3250282407 -0.1018977314 0.5228283405 4294770175
-0.3250775039 -0.1013321951 0.5229076147 4294770175
-0.3256475627 -0.1009278819 0.5238246322 4294638589
-0.3256964087 -0.1003609300 0.5239031911 4294572796
-0.3262661695 -0.0999533832 0.5248196721 4294704636
-0.3263145685 -0.0993850157 0.5248975158 4294836222
-0.3263626993 -0.0988163874 0.5249749422 4294704382
-0.3269320130 -0.0984044597 0.5258907080 4294309624
-0.3269796968 -0.0978344232 0.5259674191 4293059557
-0.3275486827 -0.0974192619 0.5268826485 4291414732
-0.3289230168 -0.1474717706 0.5300403237 4290099389
-0.3253996670 -0.1453094929 0.5243626833 4290493633
-0.3244413733 -0.1443006694 0.5228184462 4290625219
-0.3229689598 -0.1430675387 0.5204457045 4290822598
-0.3240635097 -0.1429721862 0.5222095251 4290756805
-0.3220762014 -0.1415187567 0.5190070868 4290757574
-0.3216291666 -0.1407464743 0.5182867050 4290954953
-0.3206678033 -0.1397516429 0.5167375207 4291152332
-0.3207337558 -0.1392061412 0.5168437958 4291283918
-0.3202853799 -0.1384380907 0.5161212683 4291415504
-0.3198365569 -0.1376714557 0.5153980255 4291481297
-0.3199016154 -0.1371266991 0.5155028701 4291547090
-0.3194520473 -0.1363620162 0.5147783756 4291678676
-0.3195165396 -0.1358174831 0.5148823261 4291612628
-0.3195807934 -0.1352726072 0.5149858594 4291744214
-0.3191300929 -0.1345104575 0.5142595768 4291941593
-0.3191937804 -0.1339658052 0.5143622160 4292073179
-0.3192572296 -0.1334208250 0.5144644976 4292073179
-0.3188054264 -0.1326612234 0.5137364268 4292204765
-0.3188683093 -0.1321164817 0.5138377547 4292402144
-0.3189309537 -0.1315714121 0.5139387250 4292467937
-0.3184780478 -0.1308143586 0.5132088661 4292796136
-0.3185401261 -0.1302695274 0.5133088827 4292796136
-0.3186019659 -0.1297243983 0.5134086013 4292796136
-0.3186635971 -0.1291789412 0.5135078430 4292861929
-0.3176935017 -0.1282168776 0.5119445920 4292861929
-0.3187861145 -0.1280870736 0.5137053132 4292861929
-0.3183310628 -0.1273342967 0.5129720569 4292731113
-0.3183916509 -0.1267884672 0.5130696297 4292731113
-0.3184519708 -0.1262423247 0.5131668448 4292731113
-0.3185120523 -0.1256958693 0.5132637024 4292796906
-0.3180555999 -0.1249462813 0.5125281215 4292796906
-0.3181151152 -0.1244001016 0.5126240253 4292862699
-0.3181743920 -0.1238536164 0.5127195716 4292928492
-0.3182334304 -0.1233068258 0.5128147006 4292994285
-0.3182922304 -0.1227597296 0.5129094720 4293060078
-0.3183507919 -0.1222123280 0.5130038261 4293125871
-0.3178922236 -0.1214671209 0.5122648478 4293322478
-0.3179502189 -0.1209200099 0.5123583078 4293322478
-0.3180079460 -0.1203726009 0.5124513507 4293191662
-0.3180654645 -0.1198248938 0.5125439763 4293257455
-0.3181227148 -0.1192768961 0.5126363039 4293323248
-0.3181797564 -0.1187285930 0.5127281547 4293454834
-0.3182365298 -0.1181800067 0.5128196478 4293586420
-0.3182930648 -0.1176311150 0.5129107833 4293586420
-0.3178316951 -0.1168915629 0.5121673346 4293586420
-0.3178876638 -0.1163429841 0.5122575164 4293586420
-0.3179433644 -0.1157941222 0.5123472810 4293652213
-0.3179988563 -0.1152449697 0.5124366879 4293652213
-0.3185720742 -0.1148823351 0.5133603811 4293718006
-0.3186271489 -0.1143317148 0.5134491324 4293981178
-0.3186819553 -0.1137808114 0.5135374665 4294244350
-0.3187365532 -0.1132296175 0.5136254430 4294375935
-0.3193092346 -0.1128613651 0.5145483017 4294507005
-0.3193634152 -0.1123087183 0.5146355629 4294507005
-0.3194173276 -0.1117557883 0.5147224665 4294638591
-0.3194710016 -0.1112025753 0.5148089528 4294638591
-0.3200431466 -0.1108287126 0.5157309175 4294638591
-0.3200964034 -0.1102740467 0.5158167481 4294704383
-0.3201494217 -0.1097191051 0.5159021616 4294769918
-0.3202021718 -0.1091638952 0.5159872174 4294835711
-0.3202547133 -0.1086084023 0.5160718560 4294835711
-0.3208261132 -0.1082277671 0.5169926286 4294835711
-0.3208782077 -0.1076708287 0.5170765519 4294770175
-0.3214493394 -0.1072869524 0.5179969668 4294770175
-0.3215010166 -0.1067285761 0.5180802345 4294835709
-0.3215524554 -0.1061699241 0.5181630850 4294835709
-0.3216036260 -0.1056110114 0.5182455182 4294835709
-0.3221741617 -0.1052215472 0.5191649199 4294835709
-0.3227446377 -0.1048300043 0.5200842023 4294835709
-0.3227951825 -0.1042684913 0.5201656818 4294835709
-0.3233653903 -0.1038737148 0.5210845470 4294835709
-0.3234155178 -0.1033107638 0.5211653113 4294835709
-0.3234654069 -0.1027475595 0.5212457180 4294770429
-0.3240351379 -0.1023483723 0.5221638083 4294770429
-0.3240845799 -0.1017837375 0.5222434998 4294770175
-0.3241337836 -0.1012188494 0.5223227143 4294770175
-0.3247030675 -0.1008152664 0.5232400894 4294901759
-0.3247517943 -0.1002489552 0.5233186483 4294770175
-0.3253208101 -0.0998421386 0.5242355466 4294770175
-0.3253690898 -0.0992744118 0.5243133903 4294835967
-0.3254171312 -0.0987064317 0.5243908167 4294770175
-0.3254649341 -0.0981382057 0.5244678259 4294704382
-0.3260332644 -0.0977258384 0.5253836513 4294178038
-0.3260805905 -0.0971562043 0.5254599452 4293191143
-0.3268128037 -0.1479607522 0.5275841355 4289375666
-0.3268823326 -0.1474059224 0.5276963711 4289770424
-0.3279765546 -0.1473110914 0.5294627547 4289967803
-0.3254829645 -0.1456072927 0.5254372954 4290427840
-0.3229880631 -0.1439118534 0.5214096904 4290559426
-0.3220302165 -0.1429074705 0.5198634267 4290756804
-0.3215846121 -0.1421329081 0.5191440582 4290756804
-0.3211385608 -0.1413597614 0.5184239745 4290691781
-0.3206920624 -0.1405880153 0.5177031755 4290954953
-0.3202451169 -0.1398176849 0.5169817209 4291218125
-0.3192844391 -0.1388255656 0.5154308081 4291283918
-0.3193499148 -0.1382812411 0.5155365467 4291349711
-0.3189016581 -0.1375151426 0.5148128867 4291481297
-0.3189665973 -0.1369710416 0.5149177313 4291547090
-0.3185175657 -0.1362069100 0.5141928196 4291612883
-0.3185819089 -0.1356630027 0.5142967105 4291612628
-0.3186460435 -0.1351187825 0.5144002438 4291744214
-0.3181959093 -0.1343571693 0.5136735439 4291875800
-0.3182594478 -0.1338131726 0.5137761831 4292007386
-0.3178085387 -0.1330535412 0.5130482316 4292073179
-0.3178715408 -0.1325097680 0.5131499171 4292138972
-0.3179343045 -0.1319656819 0.5132512450 4292204765
-0.3179968297 -0.1314212531 0.5133522153 4292270558
-0.3180591166 -0.1308765262 0.5134527683 4292270562
-0.3176064193 -0.1301205754 0.5127219558 4292336355
-0.3171532750 -0.1293660700 0.5119904280 4292402148
-0.3172146678 -0.1288221478 0.5120895505 4292467941
-0.3173367679 -0.1277333498 0.5122866035 4292599527
-0.3173974454 -0.1271884739 0.5123845935 4292599525
-0.3174578846 -0.1266432852 0.5124821663 4292599525
-0.3175180852 -0.1260977983 0.5125793815 4292665318
-0.3175780773 -0.1255519986 0.5126761794 4292731111
-0.3176378012 -0.1250058860 0.5127726197 4292731111
-0.3171815574 -0.1242574230 0.5120360851 4292731111
-0.3172407150 -0.1237115860 0.5121315718 4292796904
-0.3172996342 -0.1231654435 0.5122267008 4292862697
-0.3173583448 -0.1226189956 0.5123214722 4292928490
-0.3174167871 -0.1220722497 0.5124158263 4292994283
-0.3169587553 -0.1213275939 0.5116764307 4293125869
-0.3170166314 -0.1207811385 0.5117698312 4293125869
-0.3170742691 -0.1202343777 0.5118628740 4293125869
-0.3171316683 -0.1196873188 0.5119554996 4293125869
-0.3171887994 -0.1191399693 0.5120477676 4293125869
-0.3172457218 -0.1185923144 0.5121396184 4293257455
-0.3173023760 -0.1180443764 0.5122311115 4293323248
-0.3173587918 -0.1174961403 0.5123221874 4293323248
-0.3174149692 -0.1169476137 0.5124129057 4293323248
-0.3169538677 -0.1162092164 0.5116685033 4293389041
-0.3170094788 -0.1156610027 0.5117582679 4293454834
-0.3170648217 -0.1151125059 0.5118476152 4293454834
-0.3176372647 -0.1147506014 0.5127717257 4293454834
-0.3176922202 -0.1142006367 0.5128604770 4293586420
-0.3177469373 -0.1136503816 0.5129488111 4293849592
-0.3178014159 -0.1130998433 0.5130367279 4294112764
-0.3183733225 -0.1127323285 0.5139599442 4294243833
-0.3184273839 -0.1121803299 0.5140472651 4294309626
-0.3184812069 -0.1116280481 0.5141341090 4294507005
-0.3185347617 -0.1110754907 0.5142205954 4294638591
-0.3191061318 -0.1107023582 0.5151429772 4294704383
-0.3191592693 -0.1101483479 0.5152288079 4294704383
-0.3192121983 -0.1095940545 0.5153142214 4294704382
-0.3192648590 -0.1090394929 0.5153992176 4294638589
-0.3193172514 -0.1084846556 0.5154837966 4294835711
-0.3193694353 -0.1079295427 0.5155680180 4294835711
-0.3199398816 -0.1075484678 0.5164889097 4294770175
-0.3205102384 -0.1071653143 0.5174096823 4294770175
-0.3205618262 -0.1066075936 0.5174929500 4294835709
-0.3206131458 -0.1060495973 0.5175758004 4294835709
-0.3206641972 -0.1054913327 0.5176582336 4294835709
-0.3212339878 -0.1051025987 0.5185780525 4294835709
-0.3212846220 -0.1045428962 0.5186597705 4294835709
-0.3218541443 -0.1041509211 0.5195791721 4294835709
-0.3219043612 -0.1035897881 0.5196602345 4294835709
-0.3224735856 -0.1031945720 0.5205791593 4294835709
-0.3225233555 -0.1026320159 0.5206595063 4294770429
-0.3230923414 -0.1022335589 0.5215780139 4294770429
-0.3231416941 -0.1016695723 0.5216577053 4294770175
-0.3231907785 -0.1011053324 0.5217369199 4294770175
-0.3232395947 -0.1005408317 0.5218157768 4294770175
-0.3238079250 -0.1001368091 0.5227332115 4294770175
-0.3238563240 -0.0995708928 0.5228113532 4294835967
-0.3239044547 -0.0990047231 0.5228890777 4294835967
-0.3244723082 -0.0985963121 0.5238057971 4294704382
-0.3245199919 -0.0980287343 0.5238827467 4294638589
-0.3250875771 -0.0976170897 0.5247989893 4294507003
-0.3251348138 -0.0970480964 0.5248752236 4293980659
-0.3251817822 -0.0964788646 0.5249511003 4292468452
-0.3263802826 -0.1480303556 0.5278322697 4289638838
-0.3254264295 -0.1470129937 0.5262896419 4289836217
-0.3249836862 -0.1462290287 0.5255736709 4289902010
-0.3240286112 -0.1452170461 0.5240290761 4290362046
-0.3230728805 -0.1442082077 0.5224834085 4290493632
-0.3221164644 -0.1432024986 0.5209366679 4290625218
-0.3201349676 -0.1417463571 0.5177321434 4290625218
-0.3191770315 -0.1407486945 0.5161829591 4290822597
-0.3192433119 -0.1402042806 0.5162901282 4291019976
-0.3187968135 -0.1394353509 0.5155680180 4291283148
-0.3188624978 -0.1388911456 0.5156742930 4291414734
-0.3184152246 -0.1381241679 0.5149509311 4291414734
-0.3179675043 -0.1373586059 0.5142268538 4291480527
-0.3180323243 -0.1368151456 0.5143316388 4291612113
-0.3175838292 -0.1360515505 0.5136063695 4291612113
-0.3176480532 -0.1355082989 0.5137102604 4291743700
-0.3177120686 -0.1349647194 0.5138137341 4291809493
-0.3172624707 -0.1342036575 0.5130866170 4291941079
-0.3173258901 -0.1336603016 0.5131892562 4292006872
-0.3168755472 -0.1329012215 0.5124608874 4292072665
-0.3169384003 -0.1323581040 0.5125625730 4292138458
-0.3170010448 -0.1318146437 0.5126638412 4292138458
-0.3165495694 -0.1310581267 0.5119337440 4292270044
-0.3166116476 -0.1305149198 0.5120341182 4292138974
-0.3166734874 -0.1299713850 0.5121341348 4292138974
-0.3162209094 -0.1292174309 0.5114021897 4292270560
-0.3162821531 -0.1286741495 0.5115012527 4292336353
-0.3163431883 -0.1281305552 0.5115999579 4292467939
-0.3164039850 -0.1275866479 0.5116983056 4292467939
-0.3164645731 -0.1270424277 0.5117962360 4292533732
-0.3165248930 -0.1264978945 0.5118938088 4292533732
-0.3165849745 -0.1259530634 0.5119910240 4292534245
-0.3166448474 -0.1254079044 0.5120878220 4292534245
-0.3167044520 -0.1248624399 0.5121842027 4292665831
-0.3162487745 -0.1241145283 0.5114472508 4292731624
-0.3163078129 -0.1235693470 0.5115427375 4292797417
-0.3163666129 -0.1230238527 0.5116378665 4292863210
-0.3164251745 -0.1224780530 0.5117325783 4292863210
-0.3164835274 -0.1219319552 0.5118269324 4292863210
-0.3165416121 -0.1213855594 0.5119208694 4293125871
-0.3160838187 -0.1206420511 0.5111805201 4293060078
-0.3161413372 -0.1200959384 0.5112735033 4293060078
-0.3161986172 -0.1195495352 0.5113661289 4293060078
-0.3162556589 -0.1190028340 0.5114583969 4293060078
-0.3163124323 -0.1184558347 0.5115502477 4293125871
-0.3163689971 -0.1179085448 0.5116416812 4293191664
-0.3164253235 -0.1173609570 0.5117327571 4293191664
-0.3164813817 -0.1168130785 0.5118234754 4293257714
-0.3160208166 -0.1160752475 0.5110786557 4293323507
-0.3160763085 -0.1155276820 0.5111683607 4293455093
-0.3161315620 -0.1149798334 0.5112577081 4293520886
-0.3161865771 -0.1144317016 0.5113466978 4293520886
-0.3167580664 -0.1140693575 0.5122709274 4293520886
-0.3168126941 -0.1135197580 0.5123592615 4293718265
-0.3168670535 -0.1129698679 0.5124471784 4293981437
-0.3174381554 -0.1126030907 0.5133707523 4294243833
-0.3174921274 -0.1120517477 0.5134580731 4294375419
-0.3175458312 -0.1115001142 0.5135449171 4294507005
-0.3175992966 -0.1109482050 0.5136313438 4294638591
-0.3176524937 -0.1103960201 0.5137174129 4294770175
-0.3182229102 -0.1100224555 0.5146399140 4294770175
-0.3182757199 -0.1094688177 0.5147253275 4294770175
-0.3183282614 -0.1089149043 0.5148103237 4294770175
-0.3183805943 -0.1083607152 0.5148949027 4294770175
-0.3184326291 -0.1078062505 0.5149790645 4294770175
-0.3184844553 -0.1072515249 0.5150628686 4294770429
-0.3190539479 -0.1068700105 0.5159838796 4294770429
-0.3196233809 -0.1064864248 0.5169047713 4294835709
-0.3196745813 -0.1059290767 0.5169876218 4294835709
-0.3197255731 -0.1053714678 0.5170700550 4294770429
-0.3197762668 -0.1048135832 0.5171520710 4294770429
-0.3203451037 -0.1044244170 0.5180719495 4294835709
-0.3203953803 -0.1038651019 0.5181533098 4294835709
-0.3209639490 -0.1034726873 0.5190727711 4294835709
-0.3210138083 -0.1029119492 0.5191534162 4294835709
-0.3215820789 -0.1025162935 0.5200724602 4294770429
-0.3216315210 -0.1019541249 0.5201523900 4294770429
-0.3221995234 -0.1015552282 0.5210710168 4294770429
-0.3222485185 -0.1009916365 0.5211502314 4294770429
-0.3222972453 -0.1004277840 0.5212290883 4294638589
-0.3223457336 -0.0998636857 0.5213074684 4294704382
-0.3229131103 -0.0994592309 0.5222250223 4294835967
-0.3229611516 -0.0988937095 0.5223027468 4294901759
-0.3230089247 -0.0983279347 0.5223799944 4294770175
-0.3230564296 -0.0977619141 0.5224568248 4294704382
-0.3236231506 -0.0973519087 0.5233733654 4294638589
-0.3241897523 -0.0969398245 0.5242896676 4294441210
-0.3247562647 -0.0965256840 0.5252058506 4293915383
-0.3248029649 -0.0959559381 0.5252813697 4291546835
-0.3258889019 -0.0956911817 0.5270375609 4288849837
-0.3239726424 -0.1466195881 0.5248813629 4289836472
-0.3230192363 -0.1456066370 0.5233367085 4289902265
-0.3230875731 -0.1450558603 0.5234474540 4290165437
-0.3221330643 -0.1440474391 0.5219009519 4290362816
-0.3216893077 -0.1432699412 0.5211820602 4290428609
-0.3207335770 -0.1422669441 0.5196335912 4290494402
-0.3197771907 -0.1412670910 0.5180841088 4290756804
-0.3183083832 -0.1400452405 0.5157044530 4290822597
-0.3178624511 -0.1392768621 0.5149819851 4291085769
-0.3174160421 -0.1385098845 0.5142587423 4291217355
-0.3169692159 -0.1377443224 0.5135348439 4291217355
-0.3175463080 -0.1374234855 0.5144697428 4291283148
-0.3165865242 -0.1364382505 0.5129147768 4291414734
-0.3166508675 -0.1358959675 0.5130190253 4291480527
-0.3167149723 -0.1353533715 0.5131228566 4291480528
-0.3167788386 -0.1348104328 0.5132263899 4291612114
-0.3163298070 -0.1340499222 0.5124988556 4291743700
-0.3163931072 -0.1335072070 0.5126014352 4291809493
-0.3159433007 -0.1327486783 0.5118726492 4291809493
-0.3160060346 -0.1322062016 0.5119743347 4291875286
-0.3155554533 -0.1314496547 0.5112442970 4291941079
-0.3156176209 -0.1309074163 0.5113450289 4292072665
-0.3156795800 -0.1303648651 0.5114454031 4292073181
-0.3157413006 -0.1298219860 0.5115454197 4292073181
-0.3152892590 -0.1290685833 0.5108130574 4292073694
-0.3153504133 -0.1285259426 0.5109121203 4292139487
-0.3154113293 -0.1279830039 0.5110108256 4292205280
-0.3154720068 -0.1274397522 0.5111091137 4292271073
-0.3155324459 -0.1268961728 0.5112070441 4292271073
-0.3155926466 -0.1263522953 0.5113045573 4292336866
-0.3156526387 -0.1258081049 0.5114017725 4292336866
-0.3157123625 -0.1252636015 0.5114985108 4292336866
-0.3152575791 -0.1245156601 0.5107616782 4292468452
-0.3153167367 -0.1239714250 0.5108575821 4292600038
-0.3153756559 -0.1234268919 0.5109530091 4292665831
-0.3154343367 -0.1228820458 0.5110481381 4292731624
-0.3154928088 -0.1223369017 0.5111427903 4292797417
-0.3155510128 -0.1217914522 0.5112371445 4292797417
-0.3156089783 -0.1212457046 0.5113310814 4292862956
-0.3156667352 -0.1206996515 0.5114246011 4292862956
-0.3157242239 -0.1201533079 0.5115177631 4292862956
-0.3157814741 -0.1196066588 0.5116105080 4292862956
-0.3158384860 -0.1190597191 0.5117028952 4292862956
-0.3153799474 -0.1183191463 0.5109599829 4292928749
-0.3154363632 -0.1177725047 0.5110514164 4292994542
-0.3154925704 -0.1172255725 0.5111424327 4293060335
-0.3155485392 -0.1166783497 0.5112330914 4292994542
-0.3156042397 -0.1161308289 0.5113233924 4293191921
-0.3156597316 -0.1155830249 0.5114132166 4293323507
-0.3157149553 -0.1150349304 0.5115027428 4293455093
-0.3157699406 -0.1144865528 0.5115917921 4293520886
-0.3158246875 -0.1139378846 0.5116804838 4293455093
-0.3158791661 -0.1133889332 0.5117688179 4293586679
-0.3164496720 -0.1130240783 0.5126930475 4293849851
-0.3165037632 -0.1124736667 0.5127807260 4294243833
-0.3165576160 -0.1119229645 0.5128679276 4294375419
-0.3166112006 -0.1113719940 0.5129547715 4294507005
-0.3166645765 -0.1108207330 0.5130412579 4294638591
-0.3167176843 -0.1102692038 0.5131272674 4294770175
-0.3167705536 -0.1097173914 0.5132129192 4294770175
-0.3173400164 -0.1093433872 0.5141355395 4294704382
-0.3173924685 -0.1087901220 0.5142205358 4294770175
-0.3174446523 -0.1082365885 0.5143051147 4294770175
-0.3169795275 -0.1075074002 0.5135514736 4294770175
-0.3175483048 -0.1071287021 0.5144730210 4294770429
-0.3175997734 -0.1065743491 0.5145564079 4294770429
-0.3176509738 -0.1060197279 0.5146393776 4294835709
-0.3182193637 -0.1056366116 0.5155602098 4294835709
-0.3187876642 -0.1052514166 0.5164809227 4294770429
-0.3188382685 -0.1046941876 0.5165629387 4294770429
-0.3188886344 -0.1041366979 0.5166445374 4294835709
-0.3194565177 -0.1037470922 0.5175645947 4294835709
-0.3195064366 -0.1031881645 0.5176454782 4294835709
-0.3200740516 -0.1027953178 0.5185650587 4294835709
-0.3201235533 -0.1022349671 0.5186452866 4294770175
-0.3206908703 -0.1018388718 0.5195644498 4294770175
-0.3207399547 -0.1012770981 0.5196439624 4294770429
-0.3207887709 -0.1007150635 0.5197230577 4294770429
-0.3208373487 -0.1001527756 0.5198017359 4294836222
-0.3214040399 -0.0997511148 0.5207198262 4294836222
-0.3214521706 -0.0991874114 0.5207977891 4294770175
-0.3220185637 -0.0987825170 0.5217154622 4294835967
-0.3220662475 -0.0982173979 0.5217927694 4294770175
-0.3221136928 -0.0976520255 0.5218695998 4294638589
-0.3226796389 -0.0972427428 0.5227864981 4294638589
-0.3232454658 -0.0968313888 0.5237032175 4294507003
-0.3238111734 -0.0964179710 0.5246197581 4294310141
-0.3243767917 -0.0960024744 0.5255361199 4292994281
-0.3244232237 -0.0954322219 0.5256113410 4290230977
-0.3264639378 -0.1491908580 0.5298711061 4288915115
-0.3260236382 -0.1484017074 0.5291564465 4289375666
-0.3250725567 -0.1473825723 0.5276127458 4289836472
-0.3236103654 -0.1461360753 0.5252395272 4289902265
-0.3216367662 -0.1446648091 0.5220362544 4289968058
-0.3196620941 -0.1432001889 0.5188312531 4290165437
-0.3207508028 -0.1431094855 0.5205982924 4290427839
-0.3208180070 -0.1425609291 0.5207073689 4290625218
-0.3188411295 -0.1411074847 0.5174987912 4290625988
-0.3178853095 -0.1401112229 0.5159474611 4290691781
-0.3179512024 -0.1395668834 0.5160543919 4290823112
-0.3169942796 -0.1385751963 0.5145012736 4290954698
-0.3170594871 -0.1380319446 0.5146070719 4291020491
-0.3166129887 -0.1372665912 0.5138823986 4291086284
-0.3161660433 -0.1365026683 0.5131569505 4291218125
-0.3162303567 -0.1359601617 0.5132613182 4291349711
-0.3157826364 -0.1351982057 0.5125346780 4291283663
-0.3158463836 -0.1346559227 0.5126381516 4291349456
-0.3159098923 -0.1341133118 0.5127412081 4291546837
-0.3149489760 -0.1331374049 0.5111815333 4291612630
-0.3150118291 -0.1325958967 0.5112835765 4291546837
-0.3150744438 -0.1320540756 0.5113852024 4291678423
-0.3146243989 -0.1312980801 0.5106547475 4291810007
-0.3146864474 -0.1307564825 0.5107554793 4291941593
-0.3147482872 -0.1302145869 0.5108558536 4291875800
-0.3142971396 -0.1294611543 0.5101236105 4291941593
-0.3143584132 -0.1289194971 0.5102230310 4291941593
-0.3144194186 -0.1283775121 0.5103220940 4292007386
-0.3139671981 -0.1276266873 0.5095881224 4292073181
-0.3145407736 -0.1272926182 0.5105190277 4292138974
-0.3140878677 -0.1265429258 0.5097839832 4292204767
-0.3141478598 -0.1260005832 0.5098813176 4292270560
-0.3142076135 -0.1254579276 0.5099782944 4292139487
-0.3142671287 -0.1249149591 0.5100749135 4292205280
-0.3143264353 -0.1243716851 0.5101711154 4292271073
-0.3143854737 -0.1238281056 0.5102669597 4292336866
-0.3144442737 -0.1232842207 0.5103624463 4292468452
-0.3139889538 -0.1225394756 0.5096234083 4292468452
-0.3140471876 -0.1219958663 0.5097179413 4292534245
-0.3141051829 -0.1214519665 0.5098120570 4292600038
-0.3141629696 -0.1209077537 0.5099058151 4292665577
-0.3142204881 -0.1203632504 0.5099992156 4292599784
-0.3142777681 -0.1198184416 0.5100921988 4292599784
-0.3143348098 -0.1192733422 0.5101847649 4292665577
-0.3143916130 -0.1187279448 0.5102769732 4292731370
-0.3144482076 -0.1181822494 0.5103687644 4292797163
-0.3139897883 -0.1174437329 0.5096247196 4292862956
-0.3140457869 -0.1168983430 0.5097156167 4292928749
-0.3141015470 -0.1163526699 0.5098060966 4293060078
-0.3141570389 -0.1158066988 0.5098962188 4293191664
-0.3142123222 -0.1152604446 0.5099859238 4293389041
-0.3142673373 -0.1147138998 0.5100752711 4293520627
-0.3143221438 -0.1141670719 0.5101641417 4293586420
-0.3148920536 -0.1138062105 0.5110891461 4293520627
-0.3149464428 -0.1132579148 0.5111774802 4293652213
-0.3150005937 -0.1127093360 0.5112653375 4293849592
-0.3150544763 -0.1121604741 0.5113528371 4293981431
-0.3151081502 -0.1116113290 0.5114399195 4294113017
-0.3151615560 -0.1110619009 0.5115265846 4294441212
-0.3152147233 -0.1105121970 0.5116128922 4294572798
-0.3152676225 -0.1099622175 0.5116987824 4294704382
-0.3158363700 -0.1095910296 0.5126218796 4294638589
-0.3158888817 -0.1090395972 0.5127071142 4294638591
-0.3159411550 -0.1084878892 0.5127919316 4294638591
-0.3159931600 -0.1079359055 0.5128763318 4294770175
-0.3160449266 -0.1073836535 0.5129603744 4294770175
-0.3166129589 -0.1070056930 0.5138822794 4294770429
-0.3166643083 -0.1064519957 0.5139656663 4294770429
-0.3167153895 -0.1058980301 0.5140485764 4294835709
-0.3172830045 -0.1055156440 0.5149698257 4294835709
-0.3178505301 -0.1051311865 0.5158909559 4294770429
-0.3179010451 -0.1045746133 0.5159729719 4294770429
-0.3179512918 -0.1040177718 0.5160545111 4294835709
-0.3180013001 -0.1034606695 0.5161356926 4294835709
-0.3185682297 -0.1030706242 0.5170558095 4294835709
-0.3191350400 -0.1026785076 0.5179758072 4294835709
-0.3191844523 -0.1021188125 0.5180560350 4294770175
-0.3197509944 -0.1017234549 0.5189755559 4294770175
-0.3197999895 -0.1011623293 0.5190550685 4294770429
-0.3198487163 -0.1006009430 0.5191341639 4294770429
-0.3198971748 -0.1000393033 0.5192127824 4294836222
-0.3204630911 -0.0996383801 0.5201313496 4294770429
-0.3205111325 -0.0990753248 0.5202093124 4294704382
-0.3210767508 -0.0986711606 0.5211273432 4294770175
-0.3211243451 -0.0981066898 0.5212045908 4294704382
-0.3216896951 -0.0976992920 0.5221222043 4294572796
-0.3222549558 -0.0972898304 0.5230396390 4294572796
-0.3228200674 -0.0968782902 0.5239568353 4294507003
-0.3233850896 -0.0964646786 0.5248739123 4294244348
-0.3239500225 -0.0960490033 0.5257908106 4293586418
-0.3239964247 -0.0954784825 0.5258661509 4291678423
-0.3260282576 -0.1492608339 0.5301195979 4289046701
-0.3250790834 -0.1482389867 0.5285761952 4289244080
-0.3241292238 -0.1472202688 0.5270317197 4289901496
-0.3241981864 -0.1466659009 0.5271438956 4289967289
-0.3222275078 -0.1451922357 0.5239395499 4289901495
-0.3212756515 -0.1441829354 0.5223918557 4290098874
-0.3193030059 -0.1427207887 0.5191843510 4290296253
-0.3183495998 -0.1417195201 0.5176341534 4290493632
-0.3184161186 -0.1411738843 0.5177423358 4290428609
-0.3174616396 -0.1401771754 0.5161903501 4290494402
-0.3165065050 -0.1391836405 0.5146372914 4290625733
-0.3170825243 -0.1388641000 0.5155738592 4290757319
-0.3161264062 -0.1378742605 0.5140192509 4290888905
-0.3156804442 -0.1371094584 0.5132941008 4290888905
-0.3157449663 -0.1365670562 0.5133990049 4290954953
-0.3152982295 -0.1358042210 0.5126726627 4291152332
-0.3153621852 -0.1352620274 0.5127766132 4291217870
-0.3149147034 -0.1345011741 0.5120490193 4291152077
-0.3144667447 -0.1337417364 0.5113206506 4291283665
-0.3145298064 -0.1332003325 0.5114231706 4291349458
-0.3140811026 -0.1324428916 0.5106936097 4291349458
-0.3141435981 -0.1319017112 0.5107951760 4291481044
-0.3142058551 -0.1313602179 0.5108964443 4291678421
-0.3137560487 -0.1306053400 0.5101650357 4291678421
-0.3138177395 -0.1300640702 0.5102653503 4291744214
-0.3138792217 -0.1295225024 0.5103653073 4291810007
-0.3139404655 -0.1289806068 0.5104649067 4291810009
-0.3134892285 -0.1282288730 0.5097311735 4291875802
-0.3130375445 -0.1274785846 0.5089967847 4292007388
-0.3136103153 -0.1271452606 0.5099281073 4292138974
-0.3131579757 -0.1263961345 0.5091925859 4292204767
-0.3132178485 -0.1258544326 0.5092899203 4292270560
-0.3132774830 -0.1253124326 0.5093868971 4292204767
-0.3133368790 -0.1247701198 0.5094834566 4292336353
-0.3133960366 -0.1242275015 0.5095796585 4292270562
-0.3129419386 -0.1234821379 0.5088413358 4292270562
-0.3130005300 -0.1229397953 0.5089365840 4292336612
-0.3130589128 -0.1223971471 0.5090314746 4292402405
-0.3131170273 -0.1218542010 0.5091260076 4292402405
-0.3131749034 -0.1213109419 0.5092201233 4292533991
-0.3132325709 -0.1207673922 0.5093138814 4292533991
-0.3132899702 -0.1202235371 0.5094072223 4292533991
-0.3133471310 -0.1196793839 0.5095001459 4292533991
-0.3134040833 -0.1191349328 0.5095927119 4292599784
-0.3129468858 -0.1183957830 0.5088493824 4292665577
-0.3130032420 -0.1178516299 0.5089409947 4292731370
-0.3135734200 -0.1174998134 0.5098681450 4292862697
-0.3136294186 -0.1169541925 0.5099591017 4292928490
-0.3131709099 -0.1162174344 0.5092136264 4292928490
-0.3132263124 -0.1156721264 0.5093036890 4293125869
-0.3132814765 -0.1151265204 0.5093933940 4293323248
-0.3133363724 -0.1145806313 0.5094826818 4293454834
-0.3139056563 -0.1142216995 0.5104082823 4293520627
-0.3139601946 -0.1136743426 0.5104969740 4293454834
-0.3140144646 -0.1131267026 0.5105852485 4293520625
-0.3140684962 -0.1125787720 0.5106731057 4293718004
-0.3141222894 -0.1120305657 0.5107605457 4293915638
-0.3141758442 -0.1114820763 0.5108476281 4294047224
-0.3142291307 -0.1109333038 0.5109342933 4294243833
-0.3142822087 -0.1103842556 0.5110205412 4294441212
-0.3143350184 -0.1098349243 0.5111064315 4294638589
-0.3149029613 -0.1094644815 0.5120299459 4294704382
-0.3149553835 -0.1089136973 0.5121151209 4294573567
-0.3150075376 -0.1083626449 0.5121999383 4294573567
-0.3150594532 -0.1078113168 0.5122843385 4294770175
-0.3151111007 -0.1072597206 0.5123683810 4294770175
-0.3156783283 -0.1068824977 0.5132907033 4294770429
-0.3157295883 -0.1063294560 0.5133740306 4294770429
-0.3157805800 -0.1057761386 0.5134569407 4294835709
-0.3163474202 -0.1053944975 0.5143785477 4294835709
-0.3163979948 -0.1048397422 0.5144608021 4294770429
-0.3169645369 -0.1044548526 0.5153820515 4294770429
-0.3170147240 -0.1038986668 0.5154635906 4294835709
-0.3175810277 -0.1035105288 0.5163844228 4294835709
-0.3176307678 -0.1029529050 0.5164653063 4294835711
-0.3181968033 -0.1025615260 0.5173856616 4294835711
-0.3182460964 -0.1020024791 0.5174658298 4294770175
-0.3182951808 -0.1014431715 0.5175456405 4294770175
-0.3188607693 -0.1010473818 0.5184652805 4294770429
-0.3189093769 -0.1004866511 0.5185443163 4294770429
-0.3189577460 -0.0999256596 0.5186229944 4294770429
-0.3195229173 -0.0995254666 0.5195419192 4294770429
-0.3200879395 -0.0991231948 0.5204606652 4294770175
-0.3201357126 -0.0985596329 0.5205383301 4294835967
-0.3207004666 -0.0981541276 0.5214565992 4294770175
-0.3207477629 -0.0975891426 0.5215335488 4294572796
-0.3213122487 -0.0971804038 0.5224513412 4294572796
-0.3218765855 -0.0967695937 0.5233690143 4294507003
-0.3224408329 -0.0963567123 0.5242864490 4294375934
-0.3230049908 -0.0959417596 0.5252037644 4293981176
-0.3235689998 -0.0955247283 0.5261208415 4292665318
-0.3250832260 -0.1490974426 0.5295392871 4289046701
-0.3220998645 -0.1471461803 0.5246796012 4289375666
-0.3221687078 -0.1465945542 0.5247917175 4289639091
-0.3217282593 -0.1458118558 0.5240742564 4289639091
-0.3212873638 -0.1450305432 0.5233560801 4289835700
-0.3208460212 -0.1442506313 0.5226371288 4289835700
-0.3198948503 -0.1432440281 0.5210877657 4290033079
-0.3189430237 -0.1422405690 0.5195372701 4290230458
-0.3165934086 -0.1394737214 0.5157098770 4290625216
-0.3161489666 -0.1387057453 0.5149859786 4290691009
-0.3157041073 -0.1379391849 0.5142613053 4290888388
-0.3152588010 -0.1371740550 0.5135359168 4290954181
-0.3148130774 -0.1364103407 0.5128098726 4291085769
-0.3143669069 -0.1356480420 0.5120830536 4291283148
-0.3144307137 -0.1351065040 0.5121870041 4291217355
-0.3139837682 -0.1343461871 0.5114589930 4291283148
-0.3140470386 -0.1338048726 0.5115620494 4291283148
-0.3135993183 -0.1330465525 0.5108327270 4291348941
-0.3136620224 -0.1325054616 0.5109348893 4291480527
-0.3137244880 -0.1319640577 0.5110366344 4291677906
-0.3132756650 -0.1312082857 0.5103055239 4291743700
-0.3133375645 -0.1306671202 0.5104063749 4291677907
-0.3128879964 -0.1299133450 0.5096740127 4291612630
-0.3129493296 -0.1293724179 0.5097739697 4291678423
-0.3124989867 -0.1286206692 0.5090403557 4291810009
-0.3125597537 -0.1280799955 0.5091393590 4291875802
-0.3126203120 -0.1275390089 0.5092380047 4291941595
-0.3121688664 -0.1267898530 0.5085026622 4292007388
-0.3127407134 -0.1264560819 0.5094341040 4292073179
-0.3122886121 -0.1257080734 0.5086976886 4292073179
-0.3123480976 -0.1251667291 0.5087946057 4292073179
-0.3124074042 -0.1246250644 0.5088911653 4292138972
-0.3124664426 -0.1240830943 0.5089873672 4292138972
-0.3120129108 -0.1233382970 0.5082485676 4292204765
-0.3125838041 -0.1229982451 0.5091785192 4292336351
-0.3121296167 -0.1222546101 0.5084387064 4292402144
-0.3121876121 -0.1217123121 0.5085331798 4292467937
-0.3122453988 -0.1211697161 0.5086272955 4292467937
-0.3123029172 -0.1206268147 0.5087209940 4292336866
-0.3123602271 -0.1200836152 0.5088143349 4292402659
-0.3124172688 -0.1195401177 0.5089072585 4292468452
-0.3124741018 -0.1189963222 0.5089998245 4292534245
-0.3125306666 -0.1184522286 0.5090919733 4292600038
-0.3120737374 -0.1177142337 0.5083476305 4292731624
-0.3126431108 -0.1173631623 0.5092751384 4292797417
-0.3126989603 -0.1168181896 0.5093661547 4292797417
-0.3122410476 -0.1160820052 0.5086202025 4292797417
-0.3122963309 -0.1155373454 0.5087102652 4293060589
-0.3123513758 -0.1149923950 0.5087999105 4293389300
-0.3124061823 -0.1144471616 0.5088891983 4293520886
-0.3129746616 -0.1140889823 0.5098152161 4293784058
