VERSION 0.7
FIELDS x y z rgba
SIZE 4 4 4 4
TYPE F F F U
COUNT 1 1 1 1
WIDTH 920
HEIGHT 1
VIEWPOINT 0.0 0.0 0.0 1.0 0.0 0.0 0.0
POINTS 920
DATA ascii
-0.3327757120 -0.1274379641 0.4913948476 4289903043
-0.3333867490 -0.1271249950 0.4922971725 4289903043
-0.3339977860 -0.1268100142 0.4931994379 4289903043
-0.3346087933 -0.1264930069 0.4941016734 4289968836
-0.3352197707 -0.1261739880 0.4950038791 4289639867
-0.3352819383 -0.1256473213 0.4950957000 4289442488
-0.3353438973 -0.1251203418 0.4951871932 4288981937
-0.3359545767 -0.1247970015 0.4960889518 4288587179
-0.3360161483 -0.1242685840 0.4961798787 4288652458
-0.3366266489 -0.1239420697 0.4970813394 4288718251
-0.3372370899 -0.1236135364 0.4979827702 4288849837
-0.3379084170 -0.1227508187 0.4989740849 4289507765
-0.3379690945 -0.1222183630 0.4990637004 4289705144
-0.3385791779 -0.1218834817 0.4999645650 4289902523
-0.3386394680 -0.1213495955 0.5000535846 4290099902
-0.3392493427 -0.1210115477 0.5009541512 4290165695
-0.3404091001 -0.1208667383 0.5026667714 4290099902
-0.3399189413 -0.1201350018 0.5019429326 4290165695
-0.3405285776 -0.1197917685 0.5028431416 4290297281
-0.3411381543 -0.1194465086 0.5037432909 4290494149
-0.3411973417 -0.1189074442 0.5038307309 4290428356
-0.3423571289 -0.1187499389 0.5055432916 4290296770
-0.3429665565 -0.1183986217 0.5064432025 4290296770
-0.3435758948 -0.1180452853 0.5073429942 4290362563
-0.3430837989 -0.1173133254 0.5066163540 4290296770
-0.3431420326 -0.1167702600 0.5067023039 4290362563
-0.3437508941 -0.1164134741 0.5076014400 4290428356
-0.3438087404 -0.1158689857 0.5076868534 4290559942
-0.3438663185 -0.1153242216 0.5077718496 4290559942
-0.3450259864 -0.1151470691 0.5094842911 4290559942
-0.3450832367 -0.1146000102 0.5095688105 4290559942
-0.3462429345 -0.1144170687 0.5112813115 4290559942
-0.3457484245 -0.1136863977 0.5105510950 4290691528
-0.3474595845 -0.1136789843 0.5130779147 4290757321
-0.3464129865 -0.1127682105 0.5115323663 4290691528
-0.3470208347 -0.1123967394 0.5124300122 4290625994
-0.3481804132 -0.1122010723 0.5141423345 4290625994
-0.3487882316 -0.1118246913 0.5150398016 4290757834
-0.3488439620 -0.1112702265 0.5151221156 4290692041
-0.3494515121 -0.1108906791 0.5160192847 4290625735
-0.3495068252 -0.1103348061 0.5161009431 4290362563
-0.3501141369 -0.1099520996 0.5169976950 4290230977
-0.3501690030 -0.1093948260 0.5170787573 4290494149
-0.3513284326 -0.1091806218 0.5187908411 4290559940
-0.3519354463 -0.1087918505 0.5196871758 4290428354
-0.3519898057 -0.1082311496 0.5197674632 4290756804
-0.3520438969 -0.1076701954 0.5198473334 4290822597
-0.3526504636 -0.1072771251 0.5207430124 4290691011
-0.3538097441 -0.1070493013 0.5224548578 4290822597
-0.3544162214 -0.1066513136 0.5233504176 4290954183
-0.3544695675 -0.1060858071 0.5234292150 4291085769
-0.3545226753 -0.1055200398 0.5235075951 4290953924
-0.3551286459 -0.1051177531 0.5244024396 4290888131
-0.3551812768 -0.1045506001 0.5244801641 4291019717
-0.3557869792 -0.1041451618 0.5253745317 4291085510
-0.3563925624 -0.1037377045 0.5262687802 4291019974
-0.3564445376 -0.1031680331 0.5263455510 4291085767
-0.3570498228 -0.1027574241 0.5272393227 4291085769
-0.3571013510 -0.1021863669 0.5273154378 4291019976
-0.3582600653 -0.1019301489 0.5290264487 4291085770
-0.3577573895 -0.1012001708 0.5282841921 4291085770
-0.3583620489 -0.1007832587 0.5291770697 4290823367
-0.3589666188 -0.1003643349 0.5300697684 4290691781
-0.3595710397 -0.0999433920 0.5309622884 4290691526
-0.3596212268 -0.0993673280 0.5310364366 4290757319
-0.3596711457 -0.0987910181 0.5311101675 4290823114
-0.3602750599 -0.0983657986 0.5320019126 4290954700
-0.3603245020 -0.0977881253 0.5320749283 4291019715
-0.3609280884 -0.0973597690 0.5329661965 4291019715
-0.3615315557 -0.0969294012 0.5338572860 4291085510
-0.3621348739 -0.0964970142 0.5347481966 4291085510
-0.3632927239 -0.0962094963 0.5364579558 4291085256
-0.3638958633 -0.0957721919 0.5373485684 4291085256
-0.3633892834 -0.0950426608 0.5366005301 4291019977
-0.3651017249 -0.0948915333 0.5391292572 4291019977
-0.3651495278 -0.0943048671 0.5391997695 4290954184
-0.3657520413 -0.0938603953 0.5400894880 4291019977
-0.3657993376 -0.0932723731 0.5401593447 4291085769
-0.3664014935 -0.0928247720 0.5410485268 4291085769
-0.3664482832 -0.0922354087 0.5411176085 4291085767
-0.3670500815 -0.0917846709 0.5420062542 4291019974
-0.3676517308 -0.0913319290 0.5428947210 4291086021
-0.3676978052 -0.0907401070 0.5429627299 4291086021
-0.3682990968 -0.0902842358 0.5438506603 4291085769
-0.3689002395 -0.0898263529 0.5447382927 4291019976
-0.3689455986 -0.0892320722 0.5448052883 4290888390
-0.3695463538 -0.0887710676 0.5456923842 4290559425
-0.3695911765 -0.0881754607 0.5457586050 4290427839
-0.3701915741 -0.0877113342 0.5466451645 4290625218
-0.3713476956 -0.0873760059 0.5483523607 4290756804
-0.3713918626 -0.0867770687 0.5484175682 4290625218
-0.3719917536 -0.0863069221 0.5493034124 4290691012
-0.3720353842 -0.0857066587 0.5493678451 4290625219
-0.3737472296 -0.0854878277 0.5518956780 4290625219
-0.3737904727 -0.0848844498 0.5519595146 4290625219
-0.3749460280 -0.0845316947 0.5536658764 4290559426
-0.3744324148 -0.0838015899 0.5529074669 4290559426
-0.3750312626 -0.0833203122 0.5537917018 4290559426
-0.3761864305 -0.0829597563 0.5554974675 4290625219
-0.3767849803 -0.0824735686 0.5563813448 4290757069
-0.3779399693 -0.0821063071 0.5580868721 4291020241
-0.3785382211 -0.0816152245 0.5589702725 4287862427
-0.3244128525 -0.1361683011 0.4798327684 4287533462
-0.3244792819 -0.1356629431 0.4799309969 4288191392
-0.3245454729 -0.1351572722 0.4800288975 4287665050
-0.3251570165 -0.1348775923 0.4809334278 4287730843
-0.3252228796 -0.1343704462 0.4810308516 4287600284
-0.3252885044 -0.1338630021 0.4811279178 4287600284
-0.3258998096 -0.1335790008 0.4820321202 4287600284
-0.3265111446 -0.1332929879 0.4829362929 4286876561
-0.3260301948 -0.1325608641 0.4822249711 4287007379
-0.3271875083 -0.1324937344 0.4839367270 4288586411
-0.3277986944 -0.1322025359 0.4848406911 4289310906
-0.3278634250 -0.1316898465 0.4849364460 4289968836
-0.3284744918 -0.1313954741 0.4858402312 4290100422
-0.3285388649 -0.1308813244 0.4859354794 4289968836
-0.3296965659 -0.1308007091 0.4876477718 4290034629
-0.3297607005 -0.1302842349 0.4877426624 4290034629
-0.3298246264 -0.1297674626 0.4878371954 4289837250
-0.3309824467 -0.1296790838 0.4895497262 4289968836
-0.3310461342 -0.1291600019 0.4896439016 4289968836
-0.3311095536 -0.1286406219 0.4897377491 4289903043
-0.3317201436 -0.1283327043 0.4906408489 4289837250
-0.3323307335 -0.1280227751 0.4915439487 4289903043
-0.3329412937 -0.1277108341 0.4924469888 4290099652
-0.3330040872 -0.1271876842 0.4925399125 4290033859
-0.3336144984 -0.1268725693 0.4934427142 4289968066
-0.3342248499 -0.1265554279 0.4943454862 4289902273
-0.3348351717 -0.1262362748 0.4952482283 4289639871
-0.3348973691 -0.1257093698 0.4953401983 4289310906
-0.3355075121 -0.1253870428 0.4962426722 4289508285
-0.3355693221 -0.1248586699 0.4963341057 4290034629
-0.3361793160 -0.1245331690 0.4972363114 4290362824
-0.3362407386 -0.1240033656 0.4973271787 4290099652
-0.3368505538 -0.1236746907 0.4982291460 4289968066
-0.3374603391 -0.1233439967 0.4991310239 4290165445
-0.3380700648 -0.1230112836 0.5000328422 4290296772
-0.3375819027 -0.1222788915 0.4993108511 4290428358
-0.3381913304 -0.1219438687 0.5002122521 4290362565
-0.3388007283 -0.1216068268 0.5011135936 4290362565
-0.3394100666 -0.1212677658 0.5020148754 4290428356
-0.3400193751 -0.1209266856 0.5029160380 4290362563
-0.3400792181 -0.1203890964 0.5030045509 4290362563
-0.3401387930 -0.1198512167 0.5030927062 4290428356
-0.3412973285 -0.1196985617 0.5048062801 4290559942
-0.3413566351 -0.1191583872 0.5048939586 4290494149
-0.3414156735 -0.1186179295 0.5049813390 4290494147
-0.3420243561 -0.1182673275 0.5058816075 4290428354
-0.3426329792 -0.1179147065 0.5067817569 4290428354
-0.3432415128 -0.1175600663 0.5076819062 4290428354
-0.3432998359 -0.1170158759 0.5077681541 4290494147
-0.3439081907 -0.1166580617 0.5086679459 4290494147
-0.3434157670 -0.1159266680 0.5079395771 4290494147
-0.3440237641 -0.1155665591 0.5088388920 4290494147
-0.3446317017 -0.1152044311 0.5097380877 4290560195
-0.3446889818 -0.1146571189 0.5098227859 4290560195
-0.3452966809 -0.1142918169 0.5107216239 4290625988
-0.3459043205 -0.1139244959 0.5116204023 4290625988
-0.3470627666 -0.1137356907 0.5133338571 4290691526
-0.3471193612 -0.1131837964 0.5134175420 4290625733
-0.3477267921 -0.1128104106 0.5143159628 4290822597
-0.3483341038 -0.1124349982 0.5152142644 4290822597
-0.3483901024 -0.1118805408 0.5152970552 4290888390
-0.3489972055 -0.1115019694 0.5161949992 4290822597
-0.3490527570 -0.1109461039 0.5162771940 4290625218
-0.3502111137 -0.1107387543 0.5179904699 4290559425
-0.3497147262 -0.1100070849 0.5172562599 4290559426
-0.3503212929 -0.1096221805 0.5181534290 4290493633
-0.3514795303 -0.1094070077 0.5198665857 4290494147
-0.3520860076 -0.1090171859 0.5207635760 4290494147
-0.3521404266 -0.1084553450 0.5208441019 4290559940
-0.3521945775 -0.1078932434 0.5209242105 4290625733
-0.3528006077 -0.1074991077 0.5218205452 4290691526
-0.3528543115 -0.1069356129 0.5218999982 4290691526
-0.3529077768 -0.1063718498 0.5219790339 4290691526
-0.3535133302 -0.1059734225 0.5228747129 4290757319
-0.3552236557 -0.1059023738 0.5254044533 4290757319
-0.3547241092 -0.1051705033 0.5246655941 4290691526
-0.3553293645 -0.1047660112 0.5255607963 4290757319
-0.3559345007 -0.1043595001 0.5264558196 4290823112
-0.3559867442 -0.1037898064 0.5265331268 4290691526
-0.3565915823 -0.1033801436 0.5274277329 4290823112
-0.3571963012 -0.1029684544 0.5283221602 4290888905
-0.3578009307 -0.1025547460 0.5292164087 4290757319
-0.3578523397 -0.1019814014 0.5292924643 4290823112
-0.3579034507 -0.1014078036 0.5293681026 4290823112
-0.3585075736 -0.1009898186 0.5302616358 4290823112
-0.3585582376 -0.1004148424 0.5303365588 4290823112
-0.3586086333 -0.0998396277 0.5304110646 4290823112
-0.3592122197 -0.0994173586 0.5313038230 4290823112
-0.3592621386 -0.0988407731 0.5313776731 4290823112
-0.3598653972 -0.0984153599 0.5322699547 4290823112
-0.3615759909 -0.0982889682 0.5348000526 4291019463
-0.3605177999 -0.0974088460 0.5332348943 4291085256
-0.3611206114 -0.0969782695 0.5341265202 4291085256
-0.3622772396 -0.0966935307 0.5358372331 4291085256
-0.3628798723 -0.0962580293 0.5367286205 4291019976
-0.3629283011 -0.0956744477 0.5368002057 4291019976
-0.3635305762 -0.0952358097 0.5376910567 4291019463
-0.3635784984 -0.0946508721 0.5377619267 4291019463
-0.3641804457 -0.0942090973 0.5386522412 4291019463
-0.3647822440 -0.0937653109 0.5395423770 4291085256
-0.3659383655 -0.0934611112 0.5412523746 4291019976
-0.3665399849 -0.0930124074 0.5421421528 4291085769
-0.3665868342 -0.0924218595 0.5422114730 4291085769
-0.3671880662 -0.0919700190 0.5431007743 4291085769
-0.3683438897 -0.0916541964 0.5448102951 4291151049
-0.3683901131 -0.0910602883 0.5448786616 4291085256
-0.3684360087 -0.0904661641 0.5449465513 4291085770
-0.3690365851 -0.0900071710 0.5458348989 4290954184
-0.3690820038 -0.0894117057 0.5459020138 4290756805
-0.3696821928 -0.0889495835 0.5467897654 4290625219
-0.3702822328 -0.0884854496 0.5476772785 4290625219
-0.3708821237 -0.0880193114 0.5485645533 4290625219
-0.3714818358 -0.0875511616 0.5494515896 4290428354
-0.3720813990 -0.0870810002 0.5503383875 4290428354
-0.3710145652 -0.0862216055 0.5487604737 4290625733
-0.3721690774 -0.0858782977 0.5504680872 4290428354
-0.3727680147 -0.0854039118 0.5513539314 4290428354
-0.3733668029 -0.0849275216 0.5522395968 4290428354
-0.3745210767 -0.0845746025 0.5539468527 4290559940
-0.3751195669 -0.0840932950 0.5548321009 4290230975
-0.3751620948 -0.0834863037 0.5548949838 4290494147
-0.3752043247 -0.0828791037 0.5549574494 4290362561
-0.3758021891 -0.0823935792 0.5558417439 4290757574
-0.3763998449 -0.0819060579 0.5567257404 4291020746
-0.3781094551 -0.0816567019 0.5592543483 4284507239
-0.3245159388 -0.1369698793 0.4807750583 4283717468
-0.3245826662 -0.1364637613 0.4808739126 4287796634
-0.3235597610 -0.1355011016 0.4793584645 4288257185
-0.3241706491 -0.1352233142 0.4802635014 4287468184
-0.3247815669 -0.1349435300 0.4811685681 4287599770
-0.3248474002 -0.1344361752 0.4812661111 4287468698
-0.3254581988 -0.1341532171 0.4821709991 4287468698
-0.3255237043 -0.1336443871 0.4822680652 4287337112
-0.3261343837 -0.1333582550 0.4831727743 4286744975
-0.3261995614 -0.1328479648 0.4832693636 4287205526
-0.3262645304 -0.1323373616 0.4833655953 4288784558
-0.3274206519 -0.1322673559 0.4850784242 4289507515
-0.3280311823 -0.1319740266 0.4859829247 4290165445
-0.3280957937 -0.1314599514 0.4860786200 4290297031
-0.3281601667 -0.1309455633 0.4861740172 4290099652
-0.3287704289 -0.1306479126 0.4870781600 4290165445
-0.3288344741 -0.1301320642 0.4871729910 4290099652
-0.3294446170 -0.1298312396 0.4880769253 4290033859
-0.3306011856 -0.1297428459 0.4897904098 4290165445
-0.3301182985 -0.1290099323 0.4890750051 4290099652
-0.3307282627 -0.1287039071 0.4899787009 4290099652
-0.3313382268 -0.1283958703 0.4908823371 4290099652
-0.3319481611 -0.1280858219 0.4917859733 4290099652
-0.3325580657 -0.1277737468 0.4926895499 4290099652
-0.3331679404 -0.1274596453 0.4935930967 4290033859
-0.3332306147 -0.1269351095 0.4936859608 4290033859
-0.3338403404 -0.1266178340 0.4945892692 4290033859
-0.3344500363 -0.1262985468 0.4954925478 4289836480
-0.3350596726 -0.1259772480 0.4963957369 4289375929
-0.3351217210 -0.1254489422 0.4964876473 4289902271
-0.3357312083 -0.1251244545 0.4973906279 4290494408
-0.3357928693 -0.1245946959 0.4974819720 4290428615
-0.3364021778 -0.1242670342 0.4983846843 4290297029
-0.3364634514 -0.1237358302 0.4984754622 4290428358
-0.3370725811 -0.1234049946 0.4993779063 4290494151
-0.3371334970 -0.1228723526 0.4994681180 4290428358
-0.3382907212 -0.1227372661 0.5011825562 4290428358
-0.3383513093 -0.1222023070 0.5012723804 4290428356
-0.3389601707 -0.1218642518 0.5021743774 4290362563
-0.3390204012 -0.1213278547 0.5022636056 4290428356
-0.3396290541 -0.1209866256 0.5031653047 4290428356
-0.3402376473 -0.1206433699 0.5040670037 4290559172
-0.3402973413 -0.1201043800 0.5041553974 4290624965
-0.3414546847 -0.1199508011 0.5058700442 4290691012
-0.3409650028 -0.1192175299 0.5051445961 4290691012
-0.3410240412 -0.1186768189 0.5052320361 4290625219
-0.3421813250 -0.1185163036 0.5069465637 4290625219
-0.3427894115 -0.1181626543 0.5078474283 4290625218
-0.3428479731 -0.1176184937 0.5079342127 4290625218
-0.3429062963 -0.1170740575 0.5080206394 4290625219
-0.3435139954 -0.1167160869 0.5089209080 4290691012
-0.3435719013 -0.1161702201 0.5090067387 4290691011
-0.3436295390 -0.1156240776 0.5090921521 4290756804
-0.3447867632 -0.1154459119 0.5108065605 4290756804
-0.3448441029 -0.1148974672 0.5108914971 4290691011
-0.3454512656 -0.1145311296 0.5117909908 4290756802
-0.3455081880 -0.1139812768 0.5118753314 4290822595
-0.3461151123 -0.1136117652 0.5127745271 4290822597
-0.3461715877 -0.1130604893 0.5128582120 4290822597
-0.3467782736 -0.1126878113 0.5137570500 4290822597
-0.3473848999 -0.1123131141 0.5146557093 4290822597
-0.3479914069 -0.1119363904 0.5155543089 4290756804
-0.3491485715 -0.1117338836 0.5172685981 4290691011
-0.3492042124 -0.1111768782 0.5173510909 4290691011
-0.3498104811 -0.1107940823 0.5182492733 4290691011
-0.3498657048 -0.1102356687 0.5183310509 4290625218
-0.3499206603 -0.1096769869 0.5184124708 4290625218
-0.3505264819 -0.1092898846 0.5193100572 4290560195
-0.3511322141 -0.1089007631 0.5202074647 4290560195
-0.3517378569 -0.1085096151 0.5211047530 4290560195
-0.3517920375 -0.1079472452 0.5211849809 4290625988
-0.3523974121 -0.1075529382 0.5220818520 4290691781
-0.3535542488 -0.1073240340 0.5237957239 4290691781
-0.3530562222 -0.1065916941 0.5230578780 4290691781
-0.3536612093 -0.1061922014 0.5239541531 4290757574
-0.3548178971 -0.1059554666 0.5256678462 4290691781
-0.3548708856 -0.1053871438 0.5257463455 4290691781
-0.3554755747 -0.1049815789 0.5266422033 4290757574
-0.3555280864 -0.1044118702 0.5267199874 4290757574
-0.3561324775 -0.1040031463 0.5276153684 4290757574
-0.3561845422 -0.1034320444 0.5276924968 4290823367
-0.3567886055 -0.1030201688 0.5285874605 4290889160
-0.3568402231 -0.1024476811 0.5286639333 4290823367
-0.3568915427 -0.1018749475 0.5287399292 4290954183
-0.3574951291 -0.1014587805 0.5296341777 4290954183
-0.3575459719 -0.1008846685 0.5297095180 4290954183
-0.3587019444 -0.1006203890 0.5314220786 4290954183
-0.3593051732 -0.1001981646 0.5323157907 4290954183
-0.3593554497 -0.0996206552 0.5323902369 4290954183
-0.3594054282 -0.0990428999 0.5324643254 4290954183
-0.3600081503 -0.0986163989 0.5333572626 4290954183
-0.3611637950 -0.0983384699 0.5350694060 4291085256
-0.3606600165 -0.0976076275 0.5343230367 4291085256
-0.3618155122 -0.0973247737 0.5360348821 4291085769
-0.3618644178 -0.0967422724 0.5361073613 4291085769
-0.3619130254 -0.0961595327 0.5361793637 4291019976
-0.3636217415 -0.0960149840 0.5387108326 4291019976
-0.3631164730 -0.0952838585 0.5379622579 4291019463
-0.3637180030 -0.0948429927 0.5388534665 4290953670
-0.3643193841 -0.0944001153 0.5397443771 4290954183
-0.3643668592 -0.0938126445 0.5398147702 4291019976
-0.3649678826 -0.0933666304 0.5407052040 4291019976
-0.3650148809 -0.0927778110 0.5407748222 4291085769
-0.3667234778 -0.0926084444 0.5433061123 4291085769
-0.3673241735 -0.0921554938 0.5441960096 4291085769
-0.3673705757 -0.0915624201 0.5442647934 4291085769
-0.3674167097 -0.0909691229 0.5443331599 4291019976
-0.3680168092 -0.0905119181 0.5452221632 4291019977
-0.3686167300 -0.0900527015 0.5461109877 4290954184
-0.3686621189 -0.0894569531 0.5461782813 4290756805
-0.3692616820 -0.0889946073 0.5470665097 4290625219
-0.3693065643 -0.0883975178 0.5471330285 4290691012
-0.3699057400 -0.0879320502 0.5480207205 4290691012
-0.3705047667 -0.0874645710 0.5489081740 4290625219
-0.3722130656 -0.0872551501 0.5514389873 4290559426
-0.3722571135 -0.0866527185 0.5515042543 4290625219
-0.3723008633 -0.0860500708 0.5515691042 4290625219
-0.3728992343 -0.0855745524 0.5524556041 4290625219
-0.3734974265 -0.0850970298 0.5533418059 4290625219
-0.3735404313 -0.0844919533 0.5534055233 4290494147
-0.3752484322 -0.0842606053 0.5559359193 4290362561
-0.3747358322 -0.0835286677 0.5551765561 4290428354
-0.3753333092 -0.0830440149 0.5560616851 4290230975
-0.3759305775 -0.0825573578 0.5569465756 4290625218
-0.3759723306 -0.0819476470 0.5570084453 4289572530
-0.3765691817 -0.0814578831 0.5578926802 4281611577
-0.3246838450 -0.1372666210 0.4818166196 4285297013
-0.3242067099 -0.1365303546 0.4811085761 4287994526
-0.3237291276 -0.1357954741 0.4803998768 4287994526
-0.3243395090 -0.1355167329 0.4813056290 4287599770
-0.3244055510 -0.1350094676 0.4814036489 4287599770
-0.3250158131 -0.1347275525 0.4823092520 4287139733
-0.3250815570 -0.1342188120 0.4824067652 4287205526
-0.3256916702 -0.1339337379 0.4833121896 4286876561
-0.3268465698 -0.1338697523 0.4850260019 4286547596
-0.3263671100 -0.1331352741 0.4843144715 4287666077
-0.3264321387 -0.1326235831 0.4844110310 4289047730
-0.3270420432 -0.1323321611 0.4853160679 4289967037
-0.3271067441 -0.1318190098 0.4854121208 4290427588
-0.3277165294 -0.1315244138 0.4863169789 4290362565
-0.3283262849 -0.1312277913 0.4872218370 4290165186
-0.3294815421 -0.1311462820 0.4889361560 4290230979
-0.3290001452 -0.1304122210 0.4882218242 4290230979
-0.3296097517 -0.1301104128 0.4891264439 4290099393
-0.3302193582 -0.1298065782 0.4900310636 4290230979
-0.3308289051 -0.1295007318 0.4909356236 4290230979
-0.3314384520 -0.1291928738 0.4918401539 4290165186
-0.3315018415 -0.1286710054 0.4919342399 4290230979
-0.3321112394 -0.1283599585 0.4928385615 4290230979
-0.3327206075 -0.1280469000 0.4937428236 4290165186
-0.3327835202 -0.1275224090 0.4938361645 4290099393
-0.3333927393 -0.1272061765 0.4947402179 4290099393
-0.3334552646 -0.1266802400 0.4948330224 4290230979
-0.3340643048 -0.1263608187 0.4957368076 4289836221
-0.3346733153 -0.1260393709 0.4966405630 4289309877
-0.3347353339 -0.1255108267 0.4967325926 4290165186
-0.3358912468 -0.1253904253 0.4984478951 4290757323
-0.3354058564 -0.1246562079 0.4977275729 4290494151
-0.3360145092 -0.1243284121 0.4986308217 4290494151
-0.3372927010 -0.1231329888 0.5005276203 4290559942
-0.3373534679 -0.1225989461 0.5006177425 4290494149
-0.3374139667 -0.1220646128 0.5007075667 4290624965
-0.3380220830 -0.1217272803 0.5016099811 4290559172
-0.3391780853 -0.1215843484 0.5033254027 4290559172
-0.3397862017 -0.1212420985 0.5042278171 4290624965
-0.3398461044 -0.1207031533 0.5043167472 4290756551
-0.3404540122 -0.1203577220 0.5052188635 4290756551
-0.3410618603 -0.1200102791 0.5061208606 4290756805
-0.3405728042 -0.1192766652 0.5053951144 4290756805
-0.3411803544 -0.1189269051 0.5062966943 4290691011
-0.3417878449 -0.1185751259 0.5071982145 4290625218
-0.3423952758 -0.1182213277 0.5080996156 4290625218
-0.3424538374 -0.1176769137 0.5081865191 4290691011
-0.3430610299 -0.1173199341 0.5090875626 4290691011
-0.3431192040 -0.1167740971 0.5091738701 4290691011
-0.3437261879 -0.1164139435 0.5100746155 4290756804
-0.3437839150 -0.1158666760 0.5101602674 4290822597
-0.3443906903 -0.1155033484 0.5110607147 4290822595
-0.3444480002 -0.1149546579 0.5111457705 4290822595
-0.3450545371 -0.1145881563 0.5120458007 4290822595
-0.3456609845 -0.1142196283 0.5129457712 4290888388
-0.3457177281 -0.1136683673 0.5130299926 4290822597
-0.3468736708 -0.1134765074 0.5147452950 4290888390
-0.3474798799 -0.1131019071 0.5156449080 4290888388
-0.3486359119 -0.1129033640 0.5173604488 4290822595
-0.3481420875 -0.1121694297 0.5166276097 4290756802
-0.3487479687 -0.1117896363 0.5175267458 4290691009
-0.3488036096 -0.1112323701 0.5176092982 4290756802
-0.3499594927 -0.1110239699 0.5193246007 4290756802
-0.3500148058 -0.1104644164 0.5194066167 4290756802
-0.3500698209 -0.1099045947 0.5194882751 4290756802
-0.3506751060 -0.1095164344 0.5203865170 4290625986
-0.3518308997 -0.1092972979 0.5221016407 4290625986
-0.3513347208 -0.1085638776 0.5213653445 4290625986
-0.3519396186 -0.1081705317 0.5222629905 4290691779
-0.3525444567 -0.1077751592 0.5231605172 4290691779
-0.3531491756 -0.1073777601 0.5240579247 4290691779
-0.3526517451 -0.1066450700 0.5233197808 4290757572
-0.3532561064 -0.1062453911 0.5242165923 4290757572
-0.3538603485 -0.1058436856 0.5251132846 4290691781
-0.3544645011 -0.1054399610 0.5260097980 4290757574
-0.3550685644 -0.1050342098 0.5269061923 4290757574
-0.3551210761 -0.1044642255 0.5269840956 4290757574
-0.3557248116 -0.1040553153 0.5278800726 4290954183
-0.3563284576 -0.1036443859 0.5287758112 4290954183
-0.3563803136 -0.1030718759 0.5288527608 4290954183
-0.3569836617 -0.1026577801 0.5297480822 4291019976
-0.3570350409 -0.1020838842 0.5298243761 4290954183
-0.3587418795 -0.1019804254 0.5323572755 4290954183
-0.3576889932 -0.1010913625 0.5307947993 4290954183
-0.3593958318 -0.1009811983 0.5333276987 4290954183
-0.3588942885 -0.1002485380 0.5325834155 4290954183
-0.3594967723 -0.0998240933 0.5334774852 4290954183
-0.3595468402 -0.0992451757 0.5335517526 4290954183
-0.3601489663 -0.0988175794 0.5344453454 4290954183
-0.3607510030 -0.0983879641 0.5353386998 4291019976
-0.3608003855 -0.0978065506 0.5354119539 4291085769
-0.3614020646 -0.0973737836 0.5363048315 4291085769
-0.3620036244 -0.0969389975 0.5371975303 4291085769
-0.3620523214 -0.0963550881 0.5372697711 4291085769
-0.3632063568 -0.0960633755 0.5389823318 4291019976
-0.3627017438 -0.0953318924 0.5382334590 4291019976
-0.3633026183 -0.0948908180 0.5391251445 4290954183
-0.3639033437 -0.0944477320 0.5400166512 4291019976
-0.3645039499 -0.0940026268 0.5409079194 4291019976
-0.3651044071 -0.0935555026 0.5417989492 4291085769
-0.3657047451 -0.0931063592 0.5426898003 4291085769
-0.3657515943 -0.0925152451 0.5427593589 4290954953
-0.3663515449 -0.0920629650 0.5436496735 4290954953
-0.3669513762 -0.0916086733 0.5445397496 4291019976
-0.3675510287 -0.0911523700 0.5454296470 4291019976
-0.3681505322 -0.0906940475 0.5463193059 4291151050
-0.3681962192 -0.0900982320 0.5463870764 4291019464
-0.3687953651 -0.0896367803 0.5472761989 4290822598
-0.3688405454 -0.0890396163 0.5473431945 4290625219
-0.3699931800 -0.0887078345 0.5490536690 4290691012
-0.3705918491 -0.0882403478 0.5499420762 4290756805
-0.3706363738 -0.0876398385 0.5500081182 4290691012
-0.3706805706 -0.0870391205 0.5500737429 4290625219
-0.3712786138 -0.0865673944 0.5509611964 4290625219
-0.3724307418 -0.0862219632 0.5526708961 4290691012
-0.3724742532 -0.0856179073 0.5527354479 4290691012
-0.3736261427 -0.0852666646 0.5544448495 4290625219
-0.3736692071 -0.0846603885 0.5545087457 4290559426
-0.3748208880 -0.0843033269 0.5562177896 4290625219
-0.3743089437 -0.0835710242 0.5554580688 4290493633
-0.3749057651 -0.0830861330 0.5563437343 4290427840
-0.3760570586 -0.0827212483 0.5580522418 4291085769
-0.3760988712 -0.0821103379 0.5581142902 4287861912
-0.3243067265 -0.1373335272 0.4820514917 4286020736
-0.3243735433 -0.1368261278 0.4821508229 4288323491
-0.3238967061 -0.1360900551 0.4814420342 4288323491
-0.3239629567 -0.1355828792 0.4815405309 4287797149
-0.3245726824 -0.1353020221 0.4824468195 4287599770
-0.3246386349 -0.1347933710 0.4825448394 4287073940
-0.3252482414 -0.1345093399 0.4834509492 4287073940
-0.3253138363 -0.1339992136 0.4835484624 4286613391
-0.3264674544 -0.1339352280 0.4852631986 4286613391
-0.3259885907 -0.1332004070 0.4845514297 4288060837
-0.3271422982 -0.1331315339 0.4862662852 4289113525
-0.3272073269 -0.1326176077 0.4863629639 4290098623
-0.3278166950 -0.1323231906 0.4872687161 4290493381
-0.3284260333 -0.1320267618 0.4881744385 4290427588
-0.3290353417 -0.1317283064 0.4890801609 4290296002
-0.3290998042 -0.1312105954 0.4891759455 4290361795
-0.3291640282 -0.1306925863 0.4892714024 4290361795
-0.3297730982 -0.1303897947 0.4901767075 4290296002
-0.3298369348 -0.1298703104 0.4902716577 4290361795
-0.3299005926 -0.1293505430 0.4903662205 4290427588
-0.3305093944 -0.1290434003 0.4912711680 4290361795
-0.3316636682 -0.1289463341 0.4929868877 4290296002
-0.3317269087 -0.1284230798 0.4930808842 4290361795
-0.3323356211 -0.1281098872 0.4939857125 4290165186
-0.3329443336 -0.1277946681 0.4948904812 4290099393
-0.3330070972 -0.1272687912 0.4949837625 4290165186
-0.3336156309 -0.1269503981 0.4958882928 4290230979
-0.3336780071 -0.1264230758 0.4959810376 4289836219
-0.3348326087 -0.1263075322 0.4976972342 4289375668
-0.3348947167 -0.1257778853 0.4977895617 4290296770
-0.3349566162 -0.1252479553 0.4978815317 4290757321
-0.3350182474 -0.1247177124 0.4979731739 4290428356
-0.3350796402 -0.1241871864 0.4980644286 4290494149
-0.3362342417 -0.1240598187 0.4997806549 4290559942
-0.3362953663 -0.1235269755 0.4998714924 4290428356
-0.3374500871 -0.1233938262 0.5015878677 4290559942
-0.3369639218 -0.1226595491 0.5008652210 4290494149
-0.3375715315 -0.1223232225 0.5017683506 4290494149
-0.3381790817 -0.1219848767 0.5026714802 4290428356
-0.3382392824 -0.1214479953 0.5027609468 4290494149
-0.3393940628 -0.1213021129 0.5044774413 4290559942
-0.3400014937 -0.1209576949 0.5053802729 4290756551
-0.3400612473 -0.1204173416 0.5054690838 4290822344
-0.3406684399 -0.1200697422 0.5063716769 4290756805
-0.3407278061 -0.1195279509 0.5064598918 4290756805
-0.3413348198 -0.1191771775 0.5073621273 4290691012
-0.3419417441 -0.1188243702 0.5082643032 4290691012
-0.3420005441 -0.1182799861 0.5083516836 4290625219
-0.3426072896 -0.1179240048 0.5092535615 4290691012
-0.3426656723 -0.1173781902 0.5093403459 4290691012
-0.3432721794 -0.1170190275 0.5102418661 4290756805
-0.3433301747 -0.1164717898 0.5103280544 4290756805
-0.3439364433 -0.1161094457 0.5112292171 4290822598
-0.3439940214 -0.1155607775 0.5113148093 4290822597
-0.3446000516 -0.1151952595 0.5122156143 4290822597
-0.3452060223 -0.1148277223 0.5131163597 4290888390
-0.3452630341 -0.1142764762 0.5132010579 4290888390
-0.3458687663 -0.1139057577 0.5141014457 4290822597
-0.3459253311 -0.1133530959 0.5141854882 4290888390
-0.3465308249 -0.1129792035 0.5150855184 4290757574
-0.3476854861 -0.1127814576 0.5168018341 4290757574
-0.3477415442 -0.1122253463 0.5168851614 4290691781
-0.3483467996 -0.1118453816 0.5177848339 4290625988
-0.3489519656 -0.1114633903 0.5186843276 4290625988
-0.3501066566 -0.1112540215 0.5204007030 4290625988
-0.3490626216 -0.1103457808 0.5188488364 4290691011
-0.3507669270 -0.1103052571 0.5213820934 4290756804
-0.3508218825 -0.1097431481 0.5214637518 4290756802
-0.3514265120 -0.1093519032 0.5223624706 4290756802
-0.3514809906 -0.1087883860 0.5224434733 4290756802
-0.3520853519 -0.1083939746 0.5233418345 4290822595
-0.3526896238 -0.1079975367 0.5242400169 4290822595
-0.3532937765 -0.1075990722 0.5251380205 4290888388
-0.3527970612 -0.1068651527 0.5243996978 4290888388
-0.3534008861 -0.1064644009 0.5252972245 4290888388
-0.3540045619 -0.1060616300 0.5261945724 4290757574
-0.3551588058 -0.1058208942 0.5279101729 4290757574
-0.3546609282 -0.1050868332 0.5271701813 4290757574
-0.3552642167 -0.1046788692 0.5280669332 4290757574
-0.3558674157 -0.1042688861 0.5289635062 4290823367
-0.3559195399 -0.1036963537 0.5290409923 4290823367
-0.3565224409 -0.1032832041 0.5299370885 4290954183
-0.3565740883 -0.1027092859 0.5300139189 4290954183
-0.3571766615 -0.1022929773 0.5309095979 4290888390
-0.3572278619 -0.1017176732 0.5309856534 4290954183
-0.3578301370 -0.1012982130 0.5318808556 4290954183
-0.3584322929 -0.1008767188 0.5327759385 4290954183
-0.3584828079 -0.1002989039 0.5328510404 4290954183
-0.3596362174 -0.1000276804 0.5345654488 4290954183
-0.3596863449 -0.0994475931 0.5346399546 4290954183
-0.3597362041 -0.0988672674 0.5347140431 4291019976
-0.3603375852 -0.0984374508 0.5356079936 4291019976
-0.3614907265 -0.0981554687 0.5373220444 4291019976
-0.3609879911 -0.0974227861 0.5365747809 4291085769
-0.3621409535 -0.0971358716 0.5382885337 4291085769
-0.3621897101 -0.0965507925 0.5383610129 4291151562
-0.3627903759 -0.0961117595 0.5392538309 4291085769
-0.3633908927 -0.0956707150 0.5401464105 4291085769
-0.3634389341 -0.0950831398 0.5402178764 4291085769
-0.3640391231 -0.0946389511 0.5411099792 4291019976
-0.3646391630 -0.0941927359 0.5420018435 4291019976
-0.3641339540 -0.0934608653 0.5412508845 4291085769
-0.3647335470 -0.0930124000 0.5421421528 4291085769
-0.3653330207 -0.0925619304 0.5430332422 4291085769
-0.3653795719 -0.0919702947 0.5431024432 4291085769
-0.3670843542 -0.0917931646 0.5456364155 4291085769
-0.3682363629 -0.0914730951 0.5473487377 4291019976
-0.3677294254 -0.0907398611 0.5465952158 4291085770
-0.3683281243 -0.0902793035 0.5474851727 4291019977
-0.3689267039 -0.0898167342 0.5483748913 4290822598
-0.3689719439 -0.0892183855 0.5484421253 4290691012
-0.3690168858 -0.0886198208 0.5485089421 4290691012
-0.3690615296 -0.0880210400 0.5485753417 4290691012
-0.3702126741 -0.0876841769 0.5502863526 4290691012
-0.3708103001 -0.0872133300 0.5511747003 4290625219
-0.3708542883 -0.0866112038 0.5512400866 4290691012
-0.3725586832 -0.0863939822 0.5537735224 4290756805
-0.3714949787 -0.0855337903 0.5521923900 4290559426
-0.3726455569 -0.0851832703 0.5539026260 4290625219
-0.3737960756 -0.0848289430 0.5556127429 4290559426
-0.3749465644 -0.0844708085 0.5573228598 4290691012
-0.3749892116 -0.0838611200 0.5573862195 4290362047
-0.3750315309 -0.0832512230 0.5574491620 4290691012
-0.3750735819 -0.0826411247 0.5575116873 4290428609
-0.3756694198 -0.0821519792 0.5583972931 4285230962
-0.3244716525 -0.1376305819 0.4830941558 4287336085
-0.3239958584 -0.1368927956 0.4823857844 4288126114
-0.3240624368 -0.1363848597 0.4824849367 4288191907
-0.3241288066 -0.1358766109 0.4825837314 4287862688
-0.3247379959 -0.1355947852 0.4834907353 4287665309
-0.3248040378 -0.1350850612 0.4835890532 4287467930
-0.3248698413 -0.1345750242 0.4836870432 4287402137
-0.3260221779 -0.1345130503 0.4854027033 4286744207
-0.3260877728 -0.1340006739 0.4855003357 4286941586
-0.3266967237 -0.1337104887 0.4864069819 4288521388
-0.3273056448 -0.1334182769 0.4873136282 4289245111
-0.3279145956 -0.1331240386 0.4882202446 4290296002
-0.3274357021 -0.1323879659 0.4875072241 4290493381
-0.3275003731 -0.1318723559 0.4876035154 4290427588
-0.3281089365 -0.1315746307 0.4885095954 4290296002
-0.3292617500 -0.1314922422 0.4902259707 4290361795
-0.3293260634 -0.1309731454 0.4903217256 4290427588
-0.3293901384 -0.1304537356 0.4904171228 4290361795
-0.3305431008 -0.1303635687 0.4921337366 4290361795
-0.3300622702 -0.1296279430 0.4914178550 4290427588
-0.3306705356 -0.1293198168 0.4923234582 4290427588
-0.3312787712 -0.1290096790 0.4932290316 4290361795
-0.3324319422 -0.1289088428 0.4949459732 4290361795
-0.3330402374 -0.1285937876 0.4958516359 4290165186
-0.3331033289 -0.1280671209 0.4959455431 4290165186
-0.3331661522 -0.1275401413 0.4960391223 4290165186
-0.3337741494 -0.1272207499 0.4969443381 4290230979
-0.3338366449 -0.1266923249 0.4970373809 4289967805
-0.3344444633 -0.1263697445 0.4979423583 4289770426
-0.3350522518 -0.1260451525 0.4988472760 4290494149
-0.3351142406 -0.1255141050 0.4989395440 4290691528
-0.3351759613 -0.1249827668 0.4990314543 4290559942
-0.3352374434 -0.1244511306 0.4991230071 4290625735
-0.3363908827 -0.1243228540 0.5008403063 4290494149
-0.3364520967 -0.1237889007 0.5009314418 4290559942
-0.3370593488 -0.1234547496 0.5018355250 4290559942
-0.3371201754 -0.1229193583 0.5019261241 4290494149
-0.3377272487 -0.1225820184 0.5028299689 4290428356
-0.3383342624 -0.1222426593 0.5037336946 4290428356
-0.3383945525 -0.1217046604 0.5038234591 4290494149
-0.3395481408 -0.1215578616 0.5055410266 4290559942
-0.3396081328 -0.1210175529 0.5056303740 4290756551
-0.3402148485 -0.1206709594 0.5065336823 4290822344
-0.3402744532 -0.1201291978 0.5066224337 4290756551
-0.3408809602 -0.1197794229 0.5075254440 4290756551
-0.3409401774 -0.1192362309 0.5076135397 4290690758
-0.3415464759 -0.1188832745 0.5085162520 4290690758
-0.3427001536 -0.1187179312 0.5102339387 4290690758
-0.3422113359 -0.1179824993 0.5095061660 4290690758
-0.3428173661 -0.1176243350 0.5104084611 4290756551
-0.3434233069 -0.1172641441 0.5113106370 4290756551
-0.3434813917 -0.1167157665 0.5113970637 4290822598
-0.3440870941 -0.1163523942 0.5122989416 4290822598
-0.3441447616 -0.1158025935 0.5123847723 4290822598
-0.3442021608 -0.1152525172 0.5124702454 4290822598
-0.3448074758 -0.1148848161 0.5133714676 4290822598
-0.3454127312 -0.1145150885 0.5142726302 4290822598
-0.3465662897 -0.1143242195 0.5159900784 4290888391
-0.3455261290 -0.1134095117 0.5144414306 4290888391
-0.3461309671 -0.1130354553 0.5153419375 4290757574
-0.3472843766 -0.1128376275 0.5170592070 4290757574
-0.3484378755 -0.1126360148 0.5187765956 4290757574
-0.3484938443 -0.1120776236 0.5188599825 4290757574
-0.3490984440 -0.1116945744 0.5197601318 4290625988
-0.3491539955 -0.1111347601 0.5198428035 4290625988
-0.3492092490 -0.1105746850 0.5199251175 4290691011
-0.3492642641 -0.1100143343 0.5200070143 4290691011
-0.3504175246 -0.1097979248 0.5217240453 4290756804
-0.3515708447 -0.1095777154 0.5234411955 4290756804
-0.3510759771 -0.1088427231 0.5227044225 4290822597
-0.3516797125 -0.1084481254 0.5236032605 4290822597
-0.3528329134 -0.1082200781 0.5253202319 4290888390
-0.3534365296 -0.1078205481 0.5262189507 4290888390
-0.3529405296 -0.1070853844 0.5254804492 4290954183
-0.3540935814 -0.1068494841 0.5271972418 4290954183
-0.3546968102 -0.1064447612 0.5280953646 4290823367
-0.3547499180 -0.1058738604 0.5281744003 4290757574
-0.3548027575 -0.1053027064 0.5282530785 4290823367
-0.3554055095 -0.1048936695 0.5291504860 4290823367
-0.3554579020 -0.1043211147 0.5292285085 4290823367
-0.3560603261 -0.1039089188 0.5301254392 4290823367
-0.3561122417 -0.1033349782 0.5302027464 4290823367
-0.3567143977 -0.1029196084 0.5310992599 4290823367
-0.3567658365 -0.1023442820 0.5311758518 4290954183
-0.3573676646 -0.1019257605 0.5320718884 4290954183
-0.3579693735 -0.1015052050 0.5329677463 4290954183
-0.3580201566 -0.1009273604 0.5330433846 4290954183
-0.3586215675 -0.1005036533 0.5339387655 4291019976
-0.3586718738 -0.0999244228 0.5340136886 4291019976
-0.3592729568 -0.0994975567 0.5349085927 4291019976
-0.3604249954 -0.0992203802 0.5366238356 4291019976
-0.3610258996 -0.0987885818 0.5375185013 4291019976
-0.3610754013 -0.0982048213 0.5375921726 4291019976
-0.3611246347 -0.0976208225 0.5376654863 4291151049
-0.3617250025 -0.0971847400 0.5385593176 4291216842
-0.3623252213 -0.0967466310 0.5394529700 4291151562
-0.3629252911 -0.0963065028 0.5403464437 4291151562
-0.3629736304 -0.0957188830 0.5404183865 4291151562
-0.3635733724 -0.0952756032 0.5413113236 4291085769
-0.3636212051 -0.0946866199 0.5413825512 4291019976
-0.3642205894 -0.0942401960 0.5422749519 4291085769
-0.3642679453 -0.0936498642 0.5423454642 4291085769
-0.3643149734 -0.0930592939 0.5424154997 4291151562
-0.3649138212 -0.0926086009 0.5433070660 4291151562
-0.3655124903 -0.0921558961 0.5441983938 4291151562
-0.3672154248 -0.0919777900 0.5467338562 4291085769
-0.3672616780 -0.0913818404 0.5468026996 4291085769
-0.3678599894 -0.0909221843 0.5476934910 4291151563
-0.3679057360 -0.0903248861 0.5477616191 4291019977
-0.3685036600 -0.0898620933 0.5486518741 4290888391
-0.3691014349 -0.0893972889 0.5495418310 4290756805
-0.3691464365 -0.0887975320 0.5496088862 4290691012
-0.3691911399 -0.0881975591 0.5496754646 4290691012
-0.3697883189 -0.0877285004 0.5505645275 4290691012
-0.3703853190 -0.0872574300 0.5514534116 4290625219
-0.3715350628 -0.0869136825 0.5531651974 4290625219
-0.3715788424 -0.0863092467 0.5532304049 4290756805
-0.3721753657 -0.0858321413 0.5541185141 4290559426
-0.3727717102 -0.0853530243 0.5550063848 4290691012
-0.3728147447 -0.0847461522 0.5550704598 4290691012
-0.3734107018 -0.0842639133 0.5559577942 4290691012
-0.3751130104 -0.0840275288 0.5584922433 4290427840
-0.3740487397 -0.0831703618 0.5569077134 4291085770
-0.3751975000 -0.0828051269 0.5586180687 4289639093
-0.3757927418 -0.0823148489 0.5595043302 4281414968
-0.3240256608 -0.1382059604 0.4832292199 4282993747
-0.3246347308 -0.1379278451 0.4841375947 4287796636
-0.3241596818 -0.1371888816 0.4834291041 4288060067
-0.3242263794 -0.1366798729 0.4835285544 4288191653
-0.3242928386 -0.1361705363 0.4836276770 4287796895
-0.3249676228 -0.1353769600 0.4846340120 4287796895
-0.3250335157 -0.1348658353 0.4847323000 4287467930
-0.3250992298 -0.1343544126 0.4848302603 4286810002
-0.3257075250 -0.1340661198 0.4857374728 4287336346
-0.3263158202 -0.1337758154 0.4866446555 4288850355
-0.3263810575 -0.1332617551 0.4867419302 4289639871
-0.3269892335 -0.1329682618 0.4876489341 4290361795
-0.3281407058 -0.1328927726 0.4893661141 4290427588
-0.3282055855 -0.1323752105 0.4894628823 4290361795
-0.3282702267 -0.1318573505 0.4895592928 4290296002
-0.3294218481 -0.1317740977 0.4912767410 4290230979
-0.3294862509 -0.1312538981 0.4913727939 4290296772
-0.3300942481 -0.1309491396 0.4922794998 4290230979
-0.3301582932 -0.1304274946 0.4923750162 4290230979
-0.3302221298 -0.1299055368 0.4924702048 4290296772
-0.3308298290 -0.1295964271 0.4933765233 4290296772
-0.3314375281 -0.1292852908 0.4942827821 4290296772
-0.3320451975 -0.1289721429 0.4951890409 4290230979
-0.3326528370 -0.1286569685 0.4960952103 4290165186
-0.3332604468 -0.1283397675 0.4970013797 4290165186
-0.3333233893 -0.1278116852 0.4970952570 4290165186
-0.3339308500 -0.1274912953 0.4980011582 4290165186
-0.3339934349 -0.1269617677 0.4980944693 4289836219
-0.3346007168 -0.1266381890 0.4990001321 4290099391
-0.3346629143 -0.1261072010 0.4990928769 4290559942
-0.3352700174 -0.1257804483 0.4999983013 4290559942
-0.3353318274 -0.1252480000 0.5000904799 4290559942
-0.3353934288 -0.1247152612 0.5001823306 4290691528
-0.3360002041 -0.1243841574 0.5010872483 4290494149
-0.3360614181 -0.1238499656 0.5011785030 4290625735
-0.3366680145 -0.1235156730 0.5020831823 4290559942
-0.3367288411 -0.1229800284 0.5021739006 4290494149
-0.3384269476 -0.1230394542 0.5047063231 4290625219
-0.3379416466 -0.1223030463 0.5039825439 4290625219
-0.3380019069 -0.1217648014 0.5040724277 4290691012
-0.3391542435 -0.1216179579 0.5057909489 4290691012
-0.3397604525 -0.1212723702 0.5066950321 4290756805
-0.3403666317 -0.1209247485 0.5075989962 4290822598
-0.3404262960 -0.1203818768 0.5076880455 4290691528
-0.3410322666 -0.1200310737 0.5085917115 4290625735
-0.3410915434 -0.1194867641 0.5086801052 4290625735
-0.3416973054 -0.1191327721 0.5095834732 4290625735
-0.3417561650 -0.1185870245 0.5096712708 4290625735
-0.3418148160 -0.1180409864 0.5097587109 4290625735
-0.3424201906 -0.1176826656 0.5106615424 4290691526
-0.3430254757 -0.1173223108 0.5115642548 4290691526
-0.3430835605 -0.1167736873 0.5116508603 4290691526
-0.3442358971 -0.1165955216 0.5133693814 4290691526
-0.3437462747 -0.1158600971 0.5126391649 4290691526
-0.3443511128 -0.1154933795 0.5135412216 4290757319
-0.3444083631 -0.1149419025 0.5136265755 4290691526
-0.3450129628 -0.1145720035 0.5145282149 4290691526
-0.3461652398 -0.1143810600 0.5162466764 4290757574
-0.3462219536 -0.1138261259 0.5163312554 4290757574
-0.3468263447 -0.1134501472 0.5172325969 4290888390
-0.3474306464 -0.1130721346 0.5181338191 4290822597
-0.3480348587 -0.1126920953 0.5190349221 4290822597
-0.3486390114 -0.1123100221 0.5199358463 4290888390
-0.3492430449 -0.1119259298 0.5208367109 4290822597
-0.3492986858 -0.1113649756 0.5209196210 4290756804
-0.3493540287 -0.1108037531 0.5210021734 4290756804
-0.3499576449 -0.1104153246 0.5219023824 4290691011
-0.3500125706 -0.1098526940 0.5219842792 4290625988
-0.3517132998 -0.1098036915 0.5245206356 4290625988
-0.3506703675 -0.1088970453 0.5229653120 4290691781
-0.3518223166 -0.1086718068 0.5246832371 4290691781
-0.3524253666 -0.1082741246 0.5255826116 4290757574
-0.3530283272 -0.1078744084 0.5264818072 4290823367
-0.3530820906 -0.1073057875 0.5265619755 4290823367
-0.3531355560 -0.1067368984 0.5266417265 4290823367
-0.3542873561 -0.1064979881 0.5283594131 4290823367
-0.3548898101 -0.1060910448 0.5292578936 4290823367
-0.3549427390 -0.1055187359 0.5293368101 4290823367
-0.3555448949 -0.1051086187 0.5302348733 4290823367
-0.3555973768 -0.1045349166 0.5303130746 4290823367
-0.3561992347 -0.1041216329 0.5312106609 4290757574
-0.3562512398 -0.1035465300 0.5312882066 4290823367
-0.3563029468 -0.1029711813 0.5313653350 4290757574
-0.3569043279 -0.1025535986 0.5322622061 4290823367
-0.3575055897 -0.1021339893 0.5331588984 4290823367
-0.3581067324 -0.1017123535 0.5340554118 4290823367
-0.3581576049 -0.1011333391 0.5341312289 4290889160
-0.3587584198 -0.1007085443 0.5350272655 4291019976
-0.3588088155 -0.1001281515 0.5351024270 4291019976
-0.3588589132 -0.0995475128 0.5351771116 4291019976
-0.3594592214 -0.0991184190 0.5360723734 4291085769
-0.3606099486 -0.0988382027 0.5377885103 4291085769
-0.3612100780 -0.0984041765 0.5386834741 4291085769
-0.3612593710 -0.0978190079 0.5387570262 4291216842
-0.3618591726 -0.0973818228 0.5396515131 4291216842
-0.3619079590 -0.0967952833 0.5397242904 4291216842
-0.3625074327 -0.0963549465 0.5406182408 4291216842
-0.3636577427 -0.0960581303 0.5423337221 4291085769
-0.3631548285 -0.0953235552 0.5415837765 4291085769
-0.3637537956 -0.0948780477 0.5424770117 4291085769
-0.3643526435 -0.0944305137 0.5433700681 4291085769
-0.3644000292 -0.0938389972 0.5434407592 4291151562
-0.3644471467 -0.0932472497 0.5435110331 4291151562
-0.3650453985 -0.0927954465 0.5444031954 4291151562
-0.3650920093 -0.0922023505 0.5444727540 4291151562
-0.3656899035 -0.0917474031 0.5453643799 4291151562
-0.3662876487 -0.0912904441 0.5462558270 4291085769
-0.3674369454 -0.0909680501 0.5479698181 4291151563
-0.3680344522 -0.0905061588 0.5488609076 4290954184
-0.3680799603 -0.0899074450 0.5489287376 4290822598
-0.3686771095 -0.0894424170 0.5498192906 4290756805
-0.3687221110 -0.0888423696 0.5498864055 4290691012
-0.3698709011 -0.0885063037 0.5515996218 4290691012
-0.3699154556 -0.0879040211 0.5516660810 4290691012
-0.3705118895 -0.0874318257 0.5525555611 4290625219
-0.3705559075 -0.0868282095 0.5526211858 4290625219
-0.3705996275 -0.0862243846 0.5526863933 4290691012
-0.3711954355 -0.0857479423 0.5535749793 4290691012
-0.3717910945 -0.0852694958 0.5544632673 4290756805
-0.3723865449 -0.0847890303 0.5553513169 4290756805
-0.3735344112 -0.0844314471 0.5570631623 4290691012
-0.3746822476 -0.0840700567 0.5587749481 4290625219
-0.3741719425 -0.0833355635 0.5580139160 4291151563
-0.3747667372 -0.0828470588 0.5589009523 4288125084
-0.3236462474 -0.1382731646 0.4834642112 4283388505
-0.3242546916 -0.1379949450 0.4843730927 4287928222
-0.3237802386 -0.1372556388 0.4836643934 4288389032
-0.3238469362 -0.1367464066 0.4837639928 4288060067
-0.3239133656 -0.1362368613 0.4838632345 4287666079
-0.3245213628 -0.1359539777 0.4847714901 4287731872
-0.3251293898 -0.1356690675 0.4856797159 4287731872
-0.3251954019 -0.1351568699 0.4857783318 4287139735
-0.3252611756 -0.1346443743 0.4858765900 4286679186
-0.3253267407 -0.1341315508 0.4859745204 4287534495
-0.3270190358 -0.1342865229 0.4885025024 4288982454
-0.3270844817 -0.1337705255 0.4886002541 4289903556
-0.3276922107 -0.1334751993 0.4895080924 4290296770
-0.3277572989 -0.1329577267 0.4896053374 4290296770
-0.3283649385 -0.1326592267 0.4905129969 4290230977
-0.3284296691 -0.1321402788 0.4906097054 4290230977
-0.3279512227 -0.1314034760 0.4898950160 4290230977
-0.3285584748 -0.1311014742 0.4908021390 4290296770
-0.3291657269 -0.1307974458 0.4917092323 4290296770
-0.3303162158 -0.1307063699 0.4934278429 4290230977
-0.3298367560 -0.1299692094 0.4927116036 4290230977
-0.3304438293 -0.1296599805 0.4936184585 4290296770
-0.3310508728 -0.1293487102 0.4945252538 4290362563
-0.3322016001 -0.1292469651 0.4962442219 4290230977
-0.3328087032 -0.1289307922 0.4971511066 4290165184
-0.3334157765 -0.1286125928 0.4980579615 4290230977
-0.3334788084 -0.1280834377 0.4981521070 4290165184
-0.3335416019 -0.1275539547 0.4982459247 4290099391
-0.3341483772 -0.1272314191 0.4991523325 4289770426
-0.3342107832 -0.1267004907 0.4992455542 4290296770
-0.3348173797 -0.1263747513 0.5001516938 4290559942
-0.3348794281 -0.1258423626 0.5002443790 4290494149
-0.3354858756 -0.1255134344 0.5011503100 4290559942
-0.3360922635 -0.1251824796 0.5020561218 4290625735
-0.3356089592 -0.1244454458 0.5013341904 4290559426
-0.3367599845 -0.1243133247 0.5030536056 4290691012
-0.3362761140 -0.1235765815 0.5023307800 4290691012
-0.3368820250 -0.1232401133 0.5032358766 4290625219
-0.3380331397 -0.1231001690 0.5049554110 4290691012
-0.3375484347 -0.1223634258 0.5042313337 4290691012
-0.3381541073 -0.1220217422 0.5051361322 4290756292
-0.3393052518 -0.1218739748 0.5068556666 4290822085
-0.3393653035 -0.1213322952 0.5069454312 4290887877
-0.3394251466 -0.1207903326 0.5070347786 4290887877
-0.3400305212 -0.1204414070 0.5079391003 4290822597
-0.3406358361 -0.1200904548 0.5088433027 4290822597
-0.3412410915 -0.1197374687 0.5097474456 4290756804
-0.3413001895 -0.1191917509 0.5098357797 4290756804
-0.3419052362 -0.1188355833 0.5107395649 4290756804
-0.3419639468 -0.1182884201 0.5108273029 4290822597
-0.3420224190 -0.1177409813 0.5109146237 4290888388
-0.3426270783 -0.1173804700 0.5118178725 4290888388
-0.3432316780 -0.1170179248 0.5127210021 4290822595
-0.3432895541 -0.1164679006 0.5128074884 4290822595
-0.3438939154 -0.1161021739 0.5137102604 4290822595
-0.3444982171 -0.1157344207 0.5146129727 4290888388
-0.3451024294 -0.1153646335 0.5155155659 4290888388
-0.3457065821 -0.1149928197 0.5164180398 4290888388
-0.3452164829 -0.1142568216 0.5156859159 4290888388
-0.3463674784 -0.1140628979 0.5174052715 4290822595
-0.3469713032 -0.1136858687 0.5183072686 4290888388
-0.3475750387 -0.1133068055 0.5192091465 4290822595
-0.3476312757 -0.1127481610 0.5192931294 4290822595
-0.3482347429 -0.1123659238 0.5201946497 4290822595
-0.3493857980 -0.1121574417 0.5219140649 4290822597
-0.3494414687 -0.1115953475 0.5219972730 4290756804
-0.3500447273 -0.1112070158 0.5228983760 4290756804
-0.3500999808 -0.1106434986 0.5229809284 4290756804
-0.3507029414 -0.1102519855 0.5238816142 4290691781
-0.3507577479 -0.1096870601 0.5239635110 4290757574
