VERSION 0.7
FIELDS x y z rgba
SIZE 4 4 4 4
TYPE F F F U
COUNT 1 1 1 1
WIDTH 920
HEIGHT 1
VIEWPOINT 0.0 0.0 0.0 1.0 0.0 0.0 0.0
POINTS 920
DATA ascii
-0.2752541304 -0.1377070099 0.5474084020 4291716761
-0.2761892676 -0.1375645697 0.5492681265 4291847577
-0.2766860723 -0.1372006387 0.5502561331 4291781784
-0.2771828175 -0.1368345022 0.5512440205 4291913113
-0.2776795328 -0.1364661455 0.5522319078 4292044699
-0.2781762183 -0.1360955685 0.5532196760 4292174489
-0.2786728442 -0.1357227862 0.5542073250 4291450766
-0.2791694403 -0.1353477836 0.5551949143 4290659707
-0.2796659768 -0.1349705607 0.5561824441 4290462328
-0.2801624835 -0.1345911175 0.5571697950 4290789497
-0.2802197337 -0.1339994222 0.5572836399 4290723704
-0.2807160318 -0.1336164773 0.5582706928 4291117435
-0.2807728946 -0.1330231428 0.5583837628 4291051642
-0.2808295190 -0.1324294508 0.5584964156 4290856060
-0.2808859348 -0.1318353862 0.5586085320 4290921853
-0.2822610736 -0.1318571270 0.5613433719 4290465150
-0.2827570140 -0.1314640194 0.5623297095 4291912596
-0.2832529247 -0.1310686916 0.5633158684 4292509608
-0.2837487459 -0.1306711435 0.5643019676 4293891261
-0.2851245403 -0.1306747049 0.5670379996 4293960904
-0.2860605121 -0.1304715723 0.5688994527 4294092490
-0.2874367535 -0.1304641515 0.5716364384 4292712629
-0.2883730233 -0.1302519143 0.5734984279 4289422979
-0.2901900709 -0.1304314286 0.5771120787 4286396500
-0.2920075953 -0.1306031048 0.5807266235 4284949054
-0.2933849990 -0.1305709034 0.5834659338 4284552756
-0.2952032685 -0.1307278275 0.5870819688 4284881721
-0.2965812683 -0.1306827366 0.5898224711 4285604415
-0.2984003127 -0.1308248937 0.5934400558 4285275450
-0.2997788787 -0.1307668984 0.5961816907 4285342272
-0.3011577129 -0.1307029128 0.5989238620 4285210686
-0.3020957708 -0.1304425150 0.6007893682 4285341245
-0.3034749925 -0.1303674728 0.6035323143 4285341245
-0.3044132888 -0.1300979108 0.6053982973 4285668157
-0.3053516150 -0.1298242211 0.6072643995 4285733950
-0.3054073453 -0.1291730702 0.6073752046 4286191679
-0.3059042394 -0.1287072897 0.6083633900 4286389058
-0.3059595227 -0.1280544996 0.6084733605 4286716996
-0.3060145378 -0.1274013519 0.6085827947 4286914375
-0.3060692847 -0.1267478466 0.6086916924 4286915661
-0.3065655231 -0.1262759417 0.6096785665 4287113040
-0.3066198528 -0.1256207973 0.6097865701 4286918486
-0.3062320054 -0.1247852445 0.6090152860 4287115865
-0.3062857091 -0.1241303533 0.6091220975 4286657881
-0.3067812026 -0.1236532927 0.6101074815 4286592088
-0.3068344593 -0.1229967698 0.6102133989 4286263636
-0.3073296547 -0.1225161850 0.6111982465 4286329429
-0.3078247309 -0.1220333651 0.6121827960 4284953166
-0.3078773618 -0.1213739291 0.6122874618 4284492615
-0.3079296947 -0.1207141578 0.6123915315 4283641926
-0.3079817891 -0.1200540438 0.6124951243 4283641926
-0.3084761500 -0.1195651442 0.6134783030 4283117635
-0.3089704216 -0.1190740094 0.6144612432 4282920256
-0.3094645739 -0.1185806468 0.6154440045 4282395454
-0.3077445924 -0.1172415838 0.6120234132 4282066489
-0.3104524910 -0.1175872236 0.6174086928 4282394941
-0.3105033040 -0.1169203743 0.6175097823 4283118664
-0.3105538487 -0.1162532046 0.6176103354 4284823379
-0.3110472262 -0.1157505885 0.6185914874 4285547102
-0.3115404546 -0.1152457520 0.6195724010 4287710829
-0.3115903437 -0.1145756990 0.6196715832 4288697724
-0.3116399348 -0.1139053255 0.6197702289 4290007172
-0.3121326268 -0.1133957133 0.6207500696 4290336137
-0.3121817410 -0.1127237454 0.6208477616 4291319184
-0.3126741052 -0.1122106314 0.6218268871 4291713942
-0.3136098683 -0.1118535027 0.6236879230 4292699040
-0.3141020238 -0.1113349795 0.6246666908 4293159591
-0.3128191531 -0.1101890504 0.6221153736 4293356455
-0.3146420717 -0.1101359203 0.6257407069 4293488041
-0.3155775666 -0.1097660661 0.6276011467 4293093796
-0.3165130615 -0.1093920767 0.6294615865 4293751726
-0.3174484968 -0.1090139374 0.6313219666 4291917474
-0.3188279867 -0.1087831780 0.6340653896 4293628092
-0.3202075958 -0.1085463539 0.6368090510 4292917971
-0.3123197556 -0.2050112188 0.6224972010 4291934160
-0.3124036789 -0.2043744624 0.6226644516 4289751182
-0.3124873638 -0.2037372142 0.6228312850 4287777392
-0.3121403158 -0.2028196901 0.6221395135 4291316096
-0.3117927909 -0.2019034177 0.6214469075 4291118717
-0.3110140860 -0.2007104158 0.6198948026 4290988412
-0.3102346957 -0.1995204091 0.6183413863 4290725240
-0.3085926175 -0.1977809668 0.6150684953 4290593141
-0.3065183461 -0.1957727373 0.6109341383 4290527348
-0.3022865951 -0.1924005151 0.6024996638 4290986618
-0.2682902515 -0.1701682657 0.5347402096 4291118204
-0.2623200119 -0.1658006012 0.5228406787 4291446142
-0.2615251541 -0.1647190601 0.5212563872 4291446142
-0.2607296407 -0.1636406183 0.5196708441 4291511935
-0.2599335015 -0.1625653207 0.5180840492 4291643521
-0.2587048709 -0.1612239927 0.5156351328 4291775107
-0.2596353590 -0.1612289250 0.5174897909 4291906693
-0.2588376701 -0.1601603776 0.5158998966 4292234375
-0.2584715784 -0.1593614519 0.5151702166 4292365961
-0.2581050992 -0.1585639119 0.5144397616 4291906951
-0.2581706345 -0.1580324471 0.5145703554 4291972744
-0.2582359910 -0.1575005800 0.5147006512 4292103560
-0.2578684986 -0.1567053944 0.5139681697 4292103560
-0.2583661377 -0.1564356387 0.5149600506 4292365961
-0.2584309280 -0.1559025794 0.5150891542 4292431754
-0.2580625415 -0.1551088542 0.5143548846 4292235145
-0.2581268251 -0.1545758694 0.5144830942 4292300938
-0.2577577531 -0.1537840366 0.5137474537 4291972486
-0.2578215599 -0.1532511562 0.5138746500 4292169865
-0.2578851879 -0.1527178884 0.5140014291 4292038279
-0.2579486072 -0.1521842182 0.5141278505 4292301451
-0.2580118775 -0.1516501606 0.5142539144 4292235145
-0.2576411664 -0.1508617401 0.5135151148 4292300938
-0.2577039301 -0.1503277868 0.5136401653 4292629387
-0.2577664852 -0.1497934610 0.5137648582 4292300422
-0.2578288615 -0.1492587328 0.5138891935 4292366989
-0.2578910589 -0.1487236172 0.5140131116 4292432782
-0.2575187683 -0.1479386538 0.5132710934 4292499088
-0.2580148280 -0.1476522386 0.5142598152 4292564881
-0.2580764294 -0.1471159756 0.5143826008 4292236686
-0.2581378222 -0.1465793252 0.5145049691 4292302479
-0.2581990361 -0.1460422873 0.5146269798 4292433811
-0.2582600415 -0.1455048770 0.5147485733 4292170639
-0.2587557435 -0.1452111304 0.5157365799 4292171152
-0.2592514455 -0.1449152082 0.5167245865 4292302738
-0.2588769794 -0.1441325992 0.5159782171 4292171922
-0.2598076761 -0.1440754235 0.5178332329 4292171922
-0.2598679960 -0.1435333937 0.5179534554 4292172435
-0.2603635192 -0.1432305127 0.5189411044 4292172435
-0.2604235411 -0.1426868141 0.5190607309 4292172435
-0.2609189451 -0.1423804462 0.5200482011 4292304021
-0.2614143789 -0.1420718729 0.5210356116 4292370071
-0.2619097829 -0.1417611241 0.5220230222 4292304278
-0.2624051869 -0.1414481550 0.5230104327 4292239255
-0.2633365691 -0.1413670480 0.5248668194 4292239255
-0.2638320625 -0.1410487890 0.5258544087 4292239255
-0.2647637427 -0.1409605443 0.5277113914 4292305048
-0.2656956017 -0.1408682764 0.5295686722 4292370841
-0.2661912441 -0.1405415833 0.5305565596 4292305048
-0.2671233714 -0.1404421628 0.5324144363 4292239768
-0.2680556476 -0.1403387040 0.5342726111 4292239768
-0.2685514390 -0.1400035620 0.5352607965 4292108696
-0.2694839835 -0.1398929507 0.5371195078 4292108696
-0.2699798346 -0.1395524740 0.5381078124 4292108698
-0.2704756558 -0.1392097920 0.5390960574 4292108698
-0.2714085281 -0.1390888691 0.5409553647 4292174489
-0.2719044089 -0.1387408525 0.5419437289 4292174489
-0.2728374898 -0.1386127621 0.5438034534 4291716763
-0.2733334005 -0.1382594109 0.5447918773 4291716763
-0.2742666900 -0.1381241232 0.5466520786 4291716761
-0.2747626305 -0.1377654225 0.5476405621 4291716761
-0.2756961584 -0.1376229525 0.5495011806 4291913370
-0.2761920989 -0.1372588873 0.5504897237 4291913370
-0.2766880393 -0.1368926167 0.5514781475 4291979163
-0.2771839201 -0.1365241259 0.5524665117 4291979163
-0.2776797414 -0.1361534148 0.5534548163 4292175002
-0.2781755328 -0.1357804984 0.5544430017 4290924935
-0.2786712945 -0.1354053468 0.5554310679 4290462328
-0.2791669965 -0.1350279897 0.5564191341 4290462328
-0.2796626687 -0.1346484125 0.5574070215 4290789497
-0.2797198594 -0.1340564936 0.5575209856 4290789497
-0.2802153230 -0.1336734146 0.5585085154 4290920826
-0.2811493576 -0.1334963739 0.5603702068 4290986619
-0.2816448212 -0.1331079155 0.5613577366 4290398331
-0.2817014158 -0.1325108409 0.5614705682 4290398331
-0.2826355696 -0.1323243529 0.5633324385 4290731144
-0.2831308544 -0.1319292337 0.5643196106 4292968106
-0.2840651274 -0.1317355037 0.5661817193 4293958848
-0.2845603824 -0.1313350201 0.5671688318 4293893055
-0.2859340012 -0.1313357949 0.5699067116 4291723683
-0.2868686318 -0.1311298013 0.5717695355 4289749893
-0.2882427275 -0.1311195940 0.5745083094 4286196555
-0.2891776264 -0.1309044808 0.5763716698 4284683316
-0.2905521989 -0.1308832914 0.5791113973 4284485423
-0.2923666835 -0.1310531944 0.5827279091 4284945974
-0.2937418520 -0.1310191154 0.5854688287 4285208630
-0.2951172888 -0.1309790611 0.5882102251 4285340216
-0.2969328761 -0.1311272830 0.5918289423 4285208630
-0.2983088791 -0.1310743392 0.5945715308 4285077044
-0.2996851504 -0.1310153902 0.5973146558 4285405498
-0.3010616601 -0.1309504658 0.6000581980 4285668670
-0.3019981682 -0.1306890249 0.6019248366 4285668157
-0.3024944365 -0.1302339137 0.6029139757 4285668157
-0.3038713932 -0.1301538199 0.6056584716 4286061633
-0.3043676615 -0.1296923310 0.6066475511 4286324805
-0.3044232428 -0.1290418655 0.6067583561 4286585667
-0.3049192131 -0.1285768598 0.6077468991 4286783046
-0.3049743772 -0.1279247403 0.6078568101 4287569995
-0.3050292730 -0.1272722781 0.6079662442 4287898960
-0.3050839007 -0.1266194582 0.6080750823 4288620375
-0.3051382601 -0.1259662807 0.6081834435 4288883547
-0.3056333959 -0.1254938543 0.6091703773 4289145693
-0.3052462041 -0.1246588975 0.6083986163 4289277279
-0.3052997887 -0.1240046918 0.6085054278 4289473631
-0.3057943881 -0.1235283911 0.6094912291 4289539424
-0.3062888384 -0.1230498478 0.6104767323 4290260326
-0.3063417971 -0.1223927215 0.6105822921 4290589291
-0.3063944876 -0.1217352524 0.6106872559 4289214055
-0.3068884611 -0.1212519035 0.6116718650 4288753504
-0.3069406748 -0.1205928102 0.6117759347 4287314271
-0.3069926202 -0.1199333817 0.6118794680 4287314271
-0.3070443273 -0.1192736179 0.6119825244 4286201182
-0.3075376153 -0.1187841892 0.6129657030 4285806424
-0.3075888157 -0.1181228086 0.6130678058 4285480027
-0.3080818057 -0.1176298708 0.6140503287 4286730094
-0.3085746467 -0.1171346977 0.6150326729 4287913598
-0.3086251915 -0.1164704338 0.6151334047 4287650426
-0.3086754978 -0.1158058420 0.6152336597 4288367219
-0.3091678023 -0.1153058857 0.6162149310 4288827770
-0.3096599877 -0.1148037016 0.6171959043 4290663046
-0.3097096086 -0.1141362414 0.6172947884 4290992011
-0.3097589612 -0.1134684533 0.6173931360 4292039057
-0.3102506101 -0.1129614934 0.6183730960 4292236436
-0.3102994561 -0.1122921184 0.6184704900 4292696217
-0.3107907772 -0.1117816642 0.6194497347 4293090975
-0.3117247224 -0.1114272624 0.6213112473 4293420710
-0.3126586974 -0.1110687181 0.6231727600 4293486503
-0.3131497204 -0.1105496734 0.6241514683 4293290149
-0.3140836060 -0.1101838127 0.6260128021 4293553321
-0.3150174618 -0.1098138094 0.6278741360 4292896415
-0.3137356937 -0.1086722091 0.6253193617 4292830622
-0.3159987926 -0.1087563187 0.6298300028 4291981984
-0.3173757195 -0.1085273847 0.6325744390 4294416325
-0.3183094561 -0.1081417724 0.6344355345 4292588493
-0.3196865618 -0.1079016775 0.6371802688 4294233318
-0.3104677200 -0.2042476535 0.6201787591 4289298076
-0.3105512261 -0.2036133260 0.6203455329 4288889200
-0.3106344938 -0.2029784918 0.6205118299 4289415544
-0.3102877736 -0.2020632774 0.6198192835 4291052409
-0.3095107377 -0.2008703351 0.6182671189 4290789237
-0.3087330461 -0.1996803880 0.6167135835 4290527348
-0.3075245619 -0.1982162446 0.6142995954 4290329969
-0.3054547310 -0.1962042004 0.6101650000 4290658936
-0.3012319207 -0.1928231716 0.6017296314 4290527350
-0.3021719456 -0.1927542537 0.6036074162 4290723446
-0.2626398504 -0.1669539809 0.5246395469 4290789239
-0.2596937716 -0.1645048410 0.5187546015 4291116664
-0.2610537410 -0.1647869349 0.5214712024 4291248250
-0.2585361600 -0.1626239419 0.5164421797 4291314556
-0.2577410638 -0.1615517735 0.5148539543 4291380349
-0.2582387030 -0.1612905413 0.5158479810 4291577728
-0.2574426830 -0.1602219939 0.5142579079 4291709314
-0.2575087249 -0.1596915573 0.5143898129 4291906181
-0.2571431100 -0.1588941216 0.5136594772 4291906181
-0.2572086751 -0.1583637744 0.5137904286 4291710854
-0.2572740316 -0.1578330249 0.5139210224 4291710854
-0.2573392093 -0.1573018581 0.5140511990 4291972744
-0.2574042082 -0.1567702889 0.5141810179 4292038537
-0.2574690282 -0.1562383324 0.5143104792 4292169610
-0.2575336397 -0.1557059586 0.5144395828 4292235403
-0.2571658492 -0.1549128443 0.5137048960 4292104330
-0.2567976713 -0.1541211009 0.5129694343 4292104330
-0.2568615079 -0.1535893232 0.5130969286 4292038537
-0.2569251657 -0.1530571580 0.5132241249 4292038537
-0.2569886148 -0.1525245905 0.5133508444 4291971974
-0.2570518851 -0.1519916356 0.5134772658 4291840388
-0.2571149468 -0.1514582783 0.5136032701 4292103560
-0.2571778297 -0.1509245336 0.5137288570 4292169353
-0.2568074763 -0.1501372159 0.5129890442 4292366478
-0.2568698823 -0.1496035904 0.5131136775 4292234892
-0.2569320798 -0.1490695775 0.5132379532 4292498318
-0.2569940984 -0.1485351771 0.5133618116 4292695697
-0.2570559084 -0.1480003893 0.5134853125 4292695954
-0.2571175396 -0.1474652141 0.5136083961 4292630161
-0.2571789622 -0.1469296515 0.5137311220 4292367504
-0.2576740086 -0.1466405839 0.5147199631 4292433297
-0.2581690550 -0.1463493109 0.5157088637 4292630676
-0.2582300901 -0.1458107978 0.5158308148 4292433297
-0.2582909465 -0.1452718973 0.5159523487 4292302227
-0.2583516240 -0.1447326243 0.5160735250 4292368020
-0.2588463724 -0.1444353163 0.5170618892 4292237461
-0.2593411505 -0.1441358030 0.5180501938 4292303254
-0.2594014406 -0.1435935795 0.5181705952 4292303769
-0.2594614923 -0.1430509686 0.5182905793 4292369562
-0.2599560916 -0.1427466869 0.5192785859 4292435355
-0.2604506612 -0.1424402148 0.5202665329 4292435355
-0.2609452307 -0.1421315521 0.5212544799 4292304278
-0.2614398003 -0.1418206841 0.5222423673 4292304278
-0.2619343698 -0.1415076256 0.5232303143 4292239255
-0.2628641427 -0.1414265186 0.5250875950 4292239255
-0.2633588016 -0.1411081403 0.5260757208 4292305048
-0.2642888427 -0.1410198808 0.5279335380 4292305048
-0.2652190626 -0.1409275979 0.5297917128 4292305048
-0.2661494911 -0.1408312917 0.5316502452 4292239255
-0.2670800686 -0.1407309324 0.5335091949 4292239768
-0.2675750554 -0.1403978914 0.5344979167 4292239768
-0.2685059011 -0.1402903795 0.5363573432 4292174491
-0.2690009177 -0.1399519891 0.5373461843 4292174491
-0.2699320018 -0.1398373097 0.5392060876 4292109211
-0.2704271078 -0.1394935846 0.5401951075 4292109211
-0.2709221542 -0.1391476691 0.5411840081 4292174491
-0.2714172006 -0.1387995183 0.5421728492 4292174491
-0.2723486423 -0.1386713982 0.5440335274 4291912859
-0.2728437185 -0.1383179128 0.5450224280 4291912859
-0.2742120624 -0.1384029984 0.5477557778 4291913113
-0.2738337815 -0.1376043111 0.5470001101 4291913113
-0.2752023935 -0.1376812607 0.5497340560 4291978906
-0.2756975293 -0.1373170763 0.5507230759 4292044699
-0.2761926055 -0.1369506717 0.5517120361 4291913370
-0.2766876519 -0.1365820467 0.5527009368 4291913370
-0.2776198387 -0.1364260465 0.5545630455 4291912343
-0.2776775956 -0.1358381510 0.5546784401 4290530690
-0.2781725228 -0.1354628652 0.5556670427 4290398332
-0.2786673903 -0.1350853741 0.5566555858 4290595711
-0.2791621983 -0.1347056627 0.5576440096 4290593914
-0.2792193294 -0.1341135204 0.5577581525 4290330742
-0.2801516950 -0.1339395791 0.5596206188 4290330229
-0.2810842097 -0.1337615550 0.5614833236 4290527608
-0.2815788984 -0.1333720237 0.5624715090 4290795394
-0.2820735574 -0.1329802722 0.5634596348 4292045461
-0.2830062509 -0.1327918619 0.5653226972 4293167279
-0.2835008800 -0.1323947459 0.5663107634 4293496244
-0.2844336927 -0.1321990937 0.5681741238 4291393689
-0.2853666544 -0.1319993436 0.5700377822 4288301418
-0.2862997055 -0.1317955106 0.5719015598 4285998663
-0.2876713872 -0.1317884922 0.5746415854 4285143354
-0.2890433371 -0.1317754984 0.5773821473 4284813106
-0.2899768651 -0.1315575093 0.5792469382 4285207864
-0.2913492620 -0.1315335184 0.5819884539 4285536571
-0.2931607962 -0.1317007095 0.5856071115 4285470778
-0.2945338190 -0.1316638291 0.5883497596 4285470262
-0.2959071100 -0.1316209733 0.5910930037 4285404469
-0.2972806394 -0.1315721273 0.5938366652 4285272629
-0.2982152104 -0.1313238889 0.5957035422 4285206836
-0.2995891273 -0.1312640011 0.5984480977 4285339705
-0.3009633124 -0.1311981231 0.6011930704 4285734463
-0.3014588356 -0.1307450682 0.6021829247 4286061633
-0.3023937941 -0.1304794252 0.6040505767 4286127426
-0.3028892279 -0.1300209612 0.6050401926 4286585410
-0.3033845425 -0.1295602471 0.6060296893 4286782789
-0.3034400046 -0.1289104670 0.6061404347 4287372103
-0.3034952283 -0.1282603294 0.6062507033 4287964240
-0.3039900959 -0.1277947724 0.6072392464 4288554067
-0.3040448427 -0.1271429956 0.6073486805 4288751446
-0.3040993512 -0.1264908612 0.6074575186 4289210716
-0.3041535914 -0.1258383691 0.6075658798 4289342302
-0.3046478331 -0.1253667027 0.6085531116 4289604447
-0.3047016263 -0.1247125715 0.6086605787 4289801826
-0.3047551513 -0.1240580976 0.6087675095 4290195814
-0.3048084080 -0.1234032810 0.6088739038 4290327400
-0.3053019643 -0.1229255050 0.6098598242 4290393454
-0.3053548038 -0.1222690567 0.6099653244 4290393454
-0.3054073453 -0.1216122657 0.6100703478 4290131822
-0.3059004247 -0.1211296767 0.6110552549 4290329201
-0.3055116534 -0.1202976778 0.6102787256 4290132849
-0.3060043454 -0.1198125184 0.6112628579 4290001263
-0.3060559034 -0.1191534400 0.6113658547 4289869678
-0.3061072230 -0.1184940189 0.6114683747 4289803885
-0.3061582446 -0.1178342775 0.6115702987 4290527610
-0.3066502213 -0.1173430458 0.6125530601 4292304021
-0.3071420789 -0.1168495789 0.6135355830 4293226150
-0.3071924746 -0.1161869466 0.6136361957 4292239255
-0.3076840043 -0.1156899706 0.6146180630 4290988418
-0.3072924018 -0.1148607135 0.6138358116 4291054211
-0.3082251251 -0.1145252585 0.6156989932 4291776910
-0.3082745373 -0.1138594300 0.6157976985 4291974289
-0.3087654114 -0.1133554503 0.6167783141 4292827544
-0.3088143766 -0.1126880273 0.6168760657 4293024923
-0.3093049228 -0.1121805459 0.6178559661 4293156509
-0.3097953200 -0.1116708443 0.6188355684 4293353888
-0.3102855980 -0.1111589074 0.6198149323 4293419940
-0.3107757270 -0.1106447503 0.6207939982 4293156768
-0.3112657070 -0.1101283655 0.6217727661 4292894366
-0.3121977746 -0.1097652316 0.6236346364 4293157538
-0.3135721087 -0.1095524728 0.6263799071 4293092770
-0.3149465322 -0.1093336642 0.6291254759 4292961184
-0.3158786893 -0.1089561880 0.6309874654 4292375204
-0.3168108165 -0.1085745692 0.6328494549 4294612166
-0.3181854784 -0.1083394811 0.6355954409 4292389574
-0.3191176355 -0.1079486161 0.6374574900 4293771227
-0.3093934655 -0.2046817094 0.6194070578 4291204533
-0.3086196780 -0.2034833282 0.6178579330 4286730609
-0.3087027371 -0.2028514147 0.6180242300 4289478770
-0.3070701063 -0.2010955662 0.6147556901 4289873528
-0.3088681996 -0.2015860826 0.6183554530 4290198896
-0.3080924153 -0.2003944367 0.6168023348 4290330482
-0.3064575195 -0.1986493766 0.6135293245 4290526578
-0.3043921888 -0.1966335177 0.6093944907 4290066027
-0.3010371923 -0.1937966198 0.6026777625 4290198385
-0.2671819031 -0.1714075208 0.5348993540 4290198385
-0.2629554868 -0.1681112051 0.5264380574 4290198130
-0.2595862150 -0.1653797626 0.5196927190 4290329716
-0.2587942779 -0.1642995775 0.5181072950 4290854262
-0.2588617206 -0.1637665927 0.5182422996 4290920055
-0.2580687702 -0.1626908928 0.5166547894 4290985848
-0.2577053905 -0.1618885845 0.5159273148 4291051641
-0.2573416233 -0.1610876471 0.5151990652 4291052924
-0.2578383386 -0.1608250439 0.5161934495 4291184510
-0.2570433915 -0.1597574502 0.5146020055 4291446402
-0.2571091950 -0.1592264324 0.5147337317 4291380609
-0.2567439973 -0.1584291756 0.5140026212 4291708799
-0.2568093240 -0.1578982323 0.5141333938 4291708799
-0.2568744421 -0.1573668867 0.5142637491 4291971203
-0.2565082610 -0.1565719992 0.5135306716 4292102789
-0.2570041120 -0.1563029885 0.5145233274 4292168583
-0.2566373348 -0.1555090696 0.5137890577 4292234376
-0.2567015886 -0.1549770087 0.5139177442 4292038024
-0.2567656636 -0.1544445455 0.5140460134 4292038024
-0.2563979030 -0.1536530107 0.5133097172 4291774595
-0.2564614713 -0.1531206518 0.5134370327 4291708802
-0.2565248907 -0.1525879055 0.5135639310 4291971204
-0.2565881014 -0.1520547569 0.5136904716 4291839618
-0.2566511035 -0.1515212059 0.5138166547 4292365964
-0.2567139268 -0.1509872675 0.5139424205 4292102792
-0.2567765713 -0.1504529417 0.5140678287 4291906442
-0.2564066052 -0.1496658325 0.5133271813 4292432786
-0.2564687729 -0.1491316259 0.5134515762 4292629134
-0.2565307021 -0.1485970318 0.5135756135 4292826513
-0.2565924823 -0.1480620503 0.5136992335 4292695697
-0.2566540539 -0.1475266814 0.5138224959 4292695697
-0.2567154169 -0.1469909400 0.5139454007 4292564370
-0.2567766011 -0.1464547962 0.5140678883 4292366991
-0.2572706938 -0.1461643428 0.5150570869 4292367504
-0.2573315799 -0.1456265450 0.5151789784 4292367504
-0.2573922873 -0.1450883597 0.5153004527 4292368020
-0.2578862011 -0.1447931379 0.5162892938 4292302227
-0.2588136494 -0.1447381675 0.5181460977 4292237463
-0.2584404349 -0.1439545900 0.5173988938 4292303256
-0.2593680024 -0.1438943148 0.5192558765 4292303769
-0.2598619461 -0.1435903162 0.5202447176 4292369562
-0.2599219382 -0.1430453211 0.5203648806 4292566429
-0.2599817514 -0.1424999386 0.5204846263 4292566429
-0.2604754865 -0.1421911716 0.5214731097 4292369814
-0.2609692216 -0.1418801993 0.5224615335 4292435607
-0.2618972957 -0.1418021917 0.5243195295 4292370071
-0.2628255188 -0.1417201608 0.5261778831 4292370071
-0.2633194327 -0.1414007694 0.5271666646 4292239257
-0.2642479539 -0.1413115859 0.5290255547 4292239257
-0.2647419572 -0.1409868747 0.5300145149 4292239255
-0.2656707168 -0.1408905387 0.5318739414 4292239255
-0.2665996850 -0.1407901794 0.5337337852 4292107928
-0.2670938373 -0.1404570192 0.5347230434 4292107928
-0.2680230439 -0.1403494775 0.5365833044 4291977114
-0.2685172558 -0.1400109828 0.5375726819 4291977114
-0.2690114081 -0.1396702826 0.5385620594 4291977371
-0.2695055604 -0.1393273622 0.5395513177 4292043164
-0.2699996829 -0.1389822215 0.5405405760 4292043418
-0.2704938054 -0.1386348903 0.5415297747 4292043418
-0.2714235485 -0.1385076493 0.5433911085 4292109209
-0.2719176710 -0.1381549686 0.5443803668 4292109209
-0.2737193406 -0.1384615004 0.5479873419 4292175000
-0.2729058564 -0.1374429464 0.5463587046 4292109207
-0.2742719650 -0.1375208944 0.5490937233 4292109720
-0.2747661769 -0.1371574998 0.5500830412 4292109720
-0.2752602994 -0.1367918849 0.5510723591 4291847577
-0.2761907578 -0.1366399080 0.5529350638 4291781784
-0.2771213055 -0.1364838779 0.5547980666 4291320974
-0.2780520320 -0.1363237649 0.5566613674 4289741942
-0.2781096995 -0.1357334256 0.5567768216 4289873013
-0.2786038220 -0.1353548616 0.5577660799 4290070392
-0.2790978849 -0.1349740773 0.5587552190 4290003573
-0.2795919180 -0.1345910728 0.5597442389 4290595710
-0.2805228233 -0.1344152242 0.5616079569 4291779985
-0.2810168564 -0.1340268552 0.5625969768 4293030052
-0.2819479406 -0.1338437647 0.5644609928 4292968360
-0.2824419141 -0.1334500015 0.5654499531 4292639395
-0.2833731472 -0.1332596689 0.5673143268 4291063184
-0.2838671207 -0.1328605413 0.5683032274 4288628843
-0.2847985029 -0.1326629668 0.5701678395 4286590800
-0.2861675620 -0.1326641440 0.5729086995 4285143354
-0.2870992422 -0.1324574500 0.5747739077 4285076791
-0.2884687483 -0.1324476451 0.5775157213 4285734721
-0.2894007266 -0.1322318166 0.5793815255 4285273400
-0.2907707095 -0.1322109997 0.5821242332 4285273400
-0.2921409607 -0.1321842074 0.5848674774 4285535801
-0.2930734158 -0.1319542080 0.5867342353 4285733180
-0.2948822677 -0.1321126968 0.5903555751 4285403958
-0.2958150506 -0.1318725944 0.5922229886 4285009200
-0.2971862257 -0.1318228245 0.5949681401 4285403188
-0.2981192768 -0.1315735579 0.5968360901 4285271602
-0.2994908690 -0.1315127313 0.5995820165 4286060605
-0.2999855578 -0.1310626864 0.6005724072 4286323777
-0.3009188175 -0.1308010668 0.6024408340 4286389058
-0.3014134169 -0.1303455979 0.6034309864 4286652230
-0.3019079268 -0.1298878938 0.6044210196 4287242057
-0.3019634485 -0.1292400956 0.6045321226 4287702608
-0.3020186722 -0.1285919398 0.6046427488 4287767373
-0.3025127351 -0.1281293929 0.6056318283 4288030545
-0.3025675416 -0.1274795830 0.6057415605 4288687193
-0.3026221097 -0.1268294305 0.6058507562 4288752986
-0.3026764095 -0.1261789203 0.6059594750 4289146719
-0.3031698167 -0.1257102489 0.6069473028 4289344098
-0.3032236695 -0.1250580996 0.6070550680 4289671267
-0.3032772541 -0.1244055927 0.6071623564 4289868646
-0.3037701845 -0.1239321008 0.6081492305 4290458984
-0.3042630255 -0.1234563738 0.6091358662 4290524777
-0.3043159842 -0.1228009537 0.6092419028 4290263153
-0.3043686748 -0.1221451834 0.6093474030 4290328946
-0.3044210970 -0.1214890778 0.6094523668 4290263408
-0.3044732511 -0.1208326370 0.6095567942 4290263408
-0.3045251667 -0.1201758608 0.6096606851 4290328689
-0.3045768142 -0.1195187420 0.6097640991 4290460275
-0.3050683737 -0.1190330610 0.6107482314 4291181690
-0.3051195741 -0.1183743328 0.6108506918 4291181690
-0.3051704764 -0.1177152693 0.6109526157 4291574654
-0.3056615591 -0.1172247902 0.6119357347 4292166791
-0.3057119846 -0.1165641248 0.6120367646 4292759441
-0.3062027395 -0.1160701290 0.6130192280 4292562062
-0.3062527180 -0.1154078618 0.6131193042 4292037774
-0.3067431748 -0.1149103642 0.6141011715 4292564118
-0.3072334826 -0.1144106388 0.6150827408 4292829601
-0.3072827756 -0.1137454882 0.6151815057 4293026980
-0.3077727556 -0.1132422611 0.6161624193 4292239255
-0.3082626164 -0.1127368063 0.6171430945 4292436634
-0.3091933727 -0.1123894453 0.6190065145 4292501659
-0.3092418909 -0.1117192060 0.6191036105 4292435866
-0.3088488877 -0.1108902395 0.6183168292 4292566942
-0.3097793460 -0.1105352417 0.6201795936 4292566942
-0.3107097745 -0.1101761088 0.6220423579 4292631968
-0.3111988008 -0.1096572876 0.6230213642 4292763554
-0.3121291399 -0.1092908308 0.6248838902 4292632735
-0.3126179278 -0.1087666005 0.6258624792 4292764321
-0.3139898181 -0.1085454822 0.6286090016 4292439714
-0.3149201274 -0.1081665903 0.6304714680 4294808262
-0.3158504367 -0.1077835485 0.6323339343 4292650949
-0.3172225058 -0.1075461507 0.6350808740 4292848328
-0.3181528151 -0.1071538627 0.6369433403 4292796904
-0.3075482547 -0.2039144188 0.6170850992 4289289863
-0.3076313138 -0.2032836825 0.6172517538 4287776624
-0.3072862029 -0.2023705840 0.6165592670 4290069367
-0.3069406450 -0.2014587373 0.6158658862 4289937781
-0.3070228398 -0.2008282393 0.6160308719 4290394994
-0.3062481880 -0.1996387988 0.6144765019 4290526580
-0.3050444126 -0.1981740445 0.6120612025 4290395509
-0.3034112155 -0.1964366138 0.6087842584 4290527095
-0.2627688050 -0.1695378274 0.5272366405 4290329716
-0.2611230612 -0.1678938717 0.5239345431 4290198130
-0.2594762444 -0.1662565619 0.5206302404 4290593143
-0.2595443428 -0.1657215655 0.5207668543 4290593143
-0.2587540150 -0.1646400988 0.5191810727 4290394992
-0.2571046054 -0.1630174518 0.5158716440 4290658164
-0.2580301464 -0.1630290449 0.5177286863 4290723446
-0.2572381496 -0.1619551778 0.5161395669 4290723446
-0.2568750978 -0.1611539423 0.5154110789 4290986102
-0.2569412887 -0.1606226712 0.5155439377 4291051895
-0.2565775216 -0.1598232687 0.5148140192 4291117175
-0.2562133372 -0.1590252370 0.5140833259 4291182968
-0.2558487654 -0.1582285911 0.5133518577 4291183228
-0.2559139132 -0.1576983482 0.5134825110 4291380607
-0.2559788525 -0.1571677178 0.5136128068 4291314813
-0.2560436130 -0.1566366702 0.5137427449 4291314813
-0.2561081648 -0.1561052203 0.5138723254 4291512193
-0.2557420135 -0.1553118974 0.5131376386 4291709572
-0.2558061182 -0.1547805518 0.5132662058 4291840647
-0.2558700144 -0.1542487890 0.5133944154 4291906440
-0.2559337318 -0.1537166387 0.5135222673 4291972233
-0.2559972405 -0.1531840861 0.5136497021 4291840647
-0.2560605705 -0.1526511461 0.5137767792 4292037513
-0.2561237216 -0.1521178037 0.5139034986 4292037513
-0.2557553947 -0.1513288766 0.5131644607 4292234892
-0.2558180392 -0.1507956535 0.5132901669 4292563857
-0.2554489970 -0.1500086486 0.5125496984 4292629652
-0.2559427917 -0.1497280300 0.5135404468 4292695445
-0.2555731535 -0.1489420384 0.5127988458 4292564629
-0.2556349337 -0.1484081447 0.5129228234 4292433043
-0.2556965351 -0.1478738785 0.5130463839 4292433043
-0.2557579577 -0.1473392248 0.5131695867 4292367250
-0.2558191419 -0.1468041837 0.5132924318 4292104848
-0.2563124001 -0.1465158314 0.5142821074 4292170641
-0.2568056583 -0.1462252885 0.5152717829 4292302227
-0.2568664849 -0.1456872821 0.5153938532 4292302227
-0.2574202120 -0.1448535919 0.5165048838 4292302740
-0.2574805617 -0.1443135291 0.5166259408 4292303254
-0.2579735518 -0.1440147460 0.5176151395 4292500633
-0.2584665418 -0.1437137574 0.5186042786 4292632221
-0.2598256171 -0.1438902020 0.5213312507 4292566428
-0.2590193748 -0.1428662688 0.5197135806 4292369562
-0.2603787780 -0.1430355906 0.5224410892 4292501148
-0.2608718574 -0.1427249014 0.5234304667 4292369560
-0.2613649368 -0.1424120069 0.5244198442 4292369560
-0.2618580461 -0.1420969069 0.5254092216 4292304280
-0.2627847493 -0.1420139521 0.5272686481 4292238487
-0.2632779181 -0.1416935325 0.5282581449 4292172694
-0.2637710869 -0.1413709223 0.5292476416 4292238487
-0.2646981478 -0.1412776858 0.5311077833 4292238487
-0.2651913762 -0.1409497410 0.5320974588 4292106901
-0.2656846046 -0.1406195909 0.5330870748 4292106901
-0.2670462430 -0.1407449394 0.5358191729 4291975315
-0.2675396204 -0.1404085308 0.5368090868 4291778706
-0.2675985396 -0.1398428977 0.5369273424 4291976085
-0.2680917680 -0.1395029873 0.5379170179 4292173464
-0.2685849965 -0.1391608715 0.5389066339 4292239257
-0.2690781951 -0.1388165504 0.5398961902 4292173464
-0.2700061500 -0.1386933476 0.5417581201 4292239257
-0.2704993784 -0.1383436620 0.5427477360 4292633247
-0.2709925771 -0.1379917860 0.5437373519 4292501661
-0.2719208002 -0.1378582418 0.5455998182 4292043418
-0.2728492022 -0.1377206594 0.5474626422 4292240797
-0.2733424902 -0.1373602748 0.5484523773 4292044445
-0.2738357484 -0.1369976699 0.5494421124 4292176031
-0.2747644186 -0.1368497312 0.5513054132 4291978136
-0.2756932080 -0.1366977245 0.5531690121 4292043929
-0.2766221762 -0.1365416497 0.5550329089 4291451277
-0.2771155238 -0.1361673921 0.5560228825 4290135417
-0.2780446708 -0.1360040903 0.5578871369 4290136699
-0.2785380185 -0.1356244683 0.5588770509 4291189387
-0.2790313661 -0.1352426261 0.5598669052 4291849625
-0.2795246243 -0.1348585486 0.5608566403 4293231278
-0.2804540098 -0.1346817166 0.5627214313 4293561269
-0.2813835144 -0.1345008016 0.5645864606 4292771753
-0.2823131680 -0.1343157887 0.5664517283 4290668936
-0.2828064859 -0.1339200288 0.5674415827 4287642458
-0.2837362587 -0.1337277889 0.5693071485 4285799743
-0.2846661508 -0.1335314363 0.5711729527 4285404985
-0.2855961621 -0.1333310008 0.5730389953 4285338165
-0.2865262926 -0.1331264675 0.5749052167 4285601337
-0.2874565125 -0.1329178363 0.5767716765 4285864509
-0.2888238132 -0.1329061836 0.5795150995 4285469751
-0.2901913524 -0.1328885406 0.5822590590 4285403958
-0.2911220491 -0.1326657385 0.5841264725 4285469751
-0.2924900651 -0.1326370835 0.5868713260 4285535802
-0.2938583195 -0.1326024532 0.5896167159 4285470009
-0.2952268422 -0.1325618476 0.5923625827 4285404216
-0.2961581647 -0.1323197931 0.5942312479 4285601595
-0.2970895767 -0.1320736259 0.5961000919 4285864767
-0.2980210781 -0.1318233311 0.5979691148 4285733181
-0.2989526391 -0.1315689236 0.5998382568 4286847554
-0.2998842895 -0.1313104033 0.6017075777 4286847554
-0.3003781140 -0.1308570057 0.6026984453 4287044933
-0.3004339337 -0.1302115470 0.6028104424 4287373898
-0.3009275198 -0.1297546029 0.6038007736 4287767373
-0.3009828925 -0.1291074902 0.6039118767 4288030545
-0.3010379970 -0.1284600198 0.6040224433 4288489814
-0.3015311360 -0.1279982477 0.6050119400 4288555607
-0.3015858233 -0.1273491234 0.6051216125 4288949338
-0.3016402423 -0.1266996413 0.6052308679 4289212510
-0.3016943932 -0.1260498166 0.6053395271 4289343585
-0.3021868765 -0.1255819201 0.6063277125 4289343585
-0.3022406101 -0.1249304488 0.6064354777 4289606244
-0.3027328253 -0.1244590133 0.6074230671 4289869416
-0.3027861118 -0.1238059029 0.6075299978 4290131561
-0.3032780290 -0.1233309358 0.6085169911 4289999975
-0.3033308387 -0.1226762012 0.6086229682 4290393711
-0.3033834100 -0.1220211163 0.6087284684 4290459504
-0.3034357131 -0.1213656962 0.6088334322 4290459504
-0.3034877479 -0.1207099408 0.6089378595 4290591090
-0.3035395443 -0.1200538427 0.6090417504 4290853750
-0.3035910428 -0.1193974167 0.6091451049 4291051129
-0.3040817082 -0.1189124882 0.6101295948 4291379069
-0.3041327894 -0.1182544455 0.6102320552 4291510655
-0.3041835725 -0.1175960675 0.6103339195 4291773060
-0.3042340875 -0.1169373617 0.6104353070 4291838853
-0.3047240674 -0.1164463609 0.6114184260 4291905931
-0.3052138984 -0.1159531251 0.6124013066 4292432275
-0.3052637577 -0.1152915359 0.6125013232 4292762525
-0.3057532907 -0.1147947982 0.6134835482 4293091490
-0.3058027029 -0.1141316071 0.6135826707 4293026212
-0.3062918782 -0.1136313602 0.6145642400 4293092005
-0.3063408136 -0.1129665822 0.6146624088 4293091490
-0.3068296909 -0.1124628335 0.6156432629 4293157283
-0.3077586889 -0.1121172532 0.6175073385 4293093285
-0.3086877167 -0.1117675304 0.6193713546 4292830113
-0.3091763258 -0.1112551838 0.6203517318 4292304796
-0.3096647859 -0.1107406095 0.6213318110 4292239003
-0.3105936646 -0.1103803739 0.6231955886 4292632221
-0.3110819161 -0.1098603904 0.6241752505 4293026979
-0.3120107055 -0.1094928235 0.6260388494 4292960670
-0.3129394948 -0.1091211140 0.6279024482 4292960670
-0.3138682544 -0.1087452620 0.6297659874 4292702886
-0.3147970140 -0.1083652601 0.6316294670 4294742469
-0.3161666989 -0.1081319228 0.6343777180 4292190145
-0.3170954883 -0.1077426597 0.6362412572 4290545320
-0.3180242479 -0.1073492542 0.6381047964 4292268771
-0.3056241870 -0.2037741542 0.6145941615 4288778919
-0.3057070374 -0.2031463534 0.6147607565 4288235635
-0.3057896793 -0.2025180459 0.6149269342 4288169842
-0.3054448962 -0.2016072422 0.6142336130 4289411694
-0.3042450845 -0.2001355290 0.6118208170 4289674866
-0.3038991988 -0.1992290020 0.6111252904 4289738604
-0.3022702634 -0.1974857450 0.6078495383 4289804397
-0.2989295721 -0.1946352422 0.6011316180 4289738605
-0.2656431794 -0.1723687053 0.5341944695 4289870191
-0.2610068917 -0.1687771678 0.5248711109 4289935983
-0.2597918510 -0.1674110144 0.5224277377 4290067569
-0.2594321668 -0.1665995866 0.5217044353 4290264689
-0.2586438656 -0.1655154675 0.5201191902 4290067310
-0.2582832575 -0.1647076160 0.5193940401 4290197613
-0.2566369176 -0.1630843431 0.5160833001 4290394992
-0.2567037046 -0.1625532359 0.5162176490 4290460785
-0.2563416660 -0.1617512256 0.5154895782 4290460785
-0.2564079762 -0.1612201780 0.5156229138 4290526578
-0.2560452223 -0.1604200006 0.5148934722 4290592371
-0.2556820512 -0.1596212089 0.5141631365 4290395760
-0.2553184927 -0.1588237733 0.5134320259 4290395760
-0.2553837597 -0.1582937539 0.5135632753 4290723446
-0.2554488182 -0.1577633321 0.5136941075 4290855032
-0.2555136979 -0.1572325081 0.5138245821 4290855030
-0.2551488280 -0.1564379185 0.5130908489 4290920823
-0.2552132308 -0.1559071690 0.5132203698 4291183227
-0.2552774549 -0.1553760320 0.5133495331 4291380606
-0.2553414702 -0.1548444927 0.5134782791 4291380607
-0.2549753487 -0.1540527642 0.5127419829 4291446400
-0.2550388873 -0.1535213143 0.5128697753 4291577473
-0.2551022172 -0.1529894769 0.5129971504 4291709059
-0.2551653981 -0.1524572372 0.5131241679 4291840645
-0.2552283704 -0.1519246101 0.5132508278 4291906438
-0.2548606396 -0.1511362791 0.5125113130 4292169612
-0.2549231350 -0.1506037712 0.5126370192 4292498577
-0.2549854517 -0.1500708610 0.5127623081 4292563857
-0.2546167374 -0.1492849588 0.5120208263 4292563857
-0.2551094592 -0.1490038633 0.5130116940 4292104848
-0.2547401786 -0.1482189894 0.5122690201 4292170641
-0.2548016012 -0.1476854384 0.5123925805 4292170641
-0.2548628449 -0.1471514851 0.5125157237 4292170641
-0.2549238801 -0.1466171592 0.5126385093 4292105361
-0.2554161847 -0.1463296264 0.5136284828 4292039568
-0.2554769516 -0.1457936168 0.5137506723 4292039568
-0.2559691668 -0.1455025971 0.5147405267 4292171154
-0.2564613819 -0.1452093869 0.5157303214 4292303254
-0.2565217614 -0.1446704268 0.5158517957 4292303254
-0.2570139170 -0.1443737298 0.5168414116 4292303254
-0.2575060725 -0.1440748423 0.5178311467 4292434840
-0.2579981983 -0.1437737495 0.5188208222 4292501146
-0.2584903538 -0.1434704661 0.5198104978 4292501146
-0.2589825094 -0.1431649774 0.5208001733 4292369560
-0.2594746649 -0.1428572983 0.5217899084 4292303767
-0.2603993714 -0.1427845955 0.5236494541 4292369047
-0.2608916163 -0.1424715966 0.5246393085 4292369047
-0.2613838613 -0.1421563923 0.5256291628 4292303767
-0.2623089552 -0.1420734376 0.5274894834 4292303767
-0.2632342279 -0.1419864446 0.5293501616 4292172181
-0.2637266517 -0.1416627914 0.5303403735 4292237974
-0.2646521926 -0.1415686458 0.5322015882 4292237974
-0.2651446760 -0.1412396729 0.5331919789 4292172181
-0.2656371295 -0.1409084946 0.5341823101 4291843729
-0.2661295831 -0.1405750960 0.5351725817 4291646350
-0.2670555413 -0.1404675245 0.5370346308 4291449741
-0.2671144307 -0.1399016827 0.5371530652 4291712913
-0.2676068246 -0.1395616531 0.5381432176 4292173464
-0.2680991888 -0.1392194182 0.5391333699 4292370843
-0.2690254450 -0.1390993297 0.5409960151 4292239257
-0.2695178688 -0.1387517452 0.5419862270 4292173464
-0.2700102627 -0.1384019554 0.5429763794 4292371102
-0.2705025971 -0.1380499303 0.5439664721 4292502688
-0.2722977996 -0.1383576989 0.5475765467 4292438176
-0.2714872360 -0.1373392642 0.5459465384 4292109211
-0.2728484273 -0.1374182403 0.5486838222 4291978136
-0.2737754285 -0.1372734010 0.5505479574 4292372894
-0.2742678821 -0.1369075328 0.5515382886 4291978906
-0.2751950622 -0.1367554814 0.5534027815 4291978906
-0.2761223614 -0.1365993619 0.5552675724 4291058829
-0.2770498395 -0.1364391744 0.5571326017 4291453587
-0.2779774070 -0.1362748891 0.5589979291 4292705960
-0.2784700394 -0.1358942091 0.5599885583 4293956027
-0.2793978155 -0.1357226968 0.5618542433 4293562550
-0.2798904181 -0.1353366375 0.5628448725 4292641448
-0.2808183432 -0.1351578832 0.5647109151 4290338693
-0.2821818590 -0.1351836622 0.5674528480 4287706973
-0.2831101418 -0.1349958181 0.5693195462 4285667387
-0.2840385139 -0.1348038763 0.5711864829 4285141043
-0.2849670351 -0.1346078366 0.5730536580 4285470008
-0.2858956456 -0.1344076991 0.5749210715 4285864766
-0.2868243754 -0.1342034638 0.5767887235 4285667130
-0.2877531946 -0.1339951307 0.5786565542 4285469751
-0.2886821628 -0.1337826997 0.5805246234 4285469751
-0.2896111906 -0.1335661560 0.5823928714 4285338165
-0.2909765840 -0.1335457414 0.5851385593 4285337910
-0.2914695740 -0.1331207752 0.5861299634 4285337910
-0.2923989296 -0.1328919083 0.5879988074 4285600568
-0.2937648594 -0.1328563541 0.5907456279 4285666361
-0.2946944535 -0.1326183230 0.5926150084 4285863227
-0.2956241369 -0.1323761940 0.5944845676 4286060606
-0.2965539098 -0.1321299374 0.5963543057 4286389571
-0.2974837720 -0.1318795681 0.5982242227 4286652743
-0.2979767919 -0.1314323545 0.5992156267 4287044163
-0.2984697223 -0.1309829056 0.6002069116 4287307335
-0.2989625633 -0.1305312216 0.6011979580 4287636300
-0.2994553149 -0.1300772876 0.6021888256 4287899472
-0.2995107174 -0.1294321567 0.6023002863 4288227924
-0.2995658815 -0.1287866682 0.6024112105 4288556889
-0.2996207774 -0.1281408370 0.6025215983 4289081951
-0.3001129329 -0.1276807636 0.6035112739 4289279330
-0.3001673818 -0.1270332634 0.6036208272 4289344098
-0.3002215922 -0.1263854206 0.6037298441 4289541477
-0.3007132709 -0.1259205192 0.6047185659 4289606757
-0.3007670641 -0.1252710372 0.6048266888 4289606757
-0.3008205593 -0.1246211976 0.6049343348 4290197613
-0.3008738458 -0.1239710152 0.6050414443 4290592371
-0.3013648689 -0.1234999970 0.6060288548 4290591858
-0.3018557727 -0.1230267435 0.6070160866 4290394479
-0.3019084036 -0.1223736331 0.6071218848 4290985078
-0.3019607663 -0.1217201874 0.6072272062 4291116664
-0.3020128906 -0.1210663989 0.6073319912 4291051384
-0.3020647168 -0.1204122752 0.6074362397 4291051384
-0.3021163046 -0.1197578162 0.6075399518 4291182715
-0.3021676242 -0.1191030219 0.6076431274 4291314301
-0.3022186756 -0.1184478998 0.6077458262 4291511169
-0.3027081490 -0.1179634035 0.6087301373 4291708548
-0.3027587533 -0.1173066571 0.6088318825 4292103821
-0.3032479286 -0.1168186516 0.6098155975 4292432786
-0.3032980561 -0.1161603034 0.6099164486 4292631194
-0.3037869334 -0.1156687811 0.6108995080 4293025952
-0.3042756915 -0.1151750237 0.6118823886 4293157796
-0.3043251634 -0.1145137995 0.6119818687 4293026210
-0.3048135638 -0.1140165403 0.6129640341 4292697761
-0.3053018749 -0.1135170460 0.6139459610 4292631968
-0.3057900369 -0.1130153239 0.6149276495 4293091490
-0.3067174852 -0.1126727983 0.6167926788 4293025697
-0.3072054386 -0.1121656597 0.6177739501 4292632221
-0.3076932728 -0.1116562933 0.6187549829 4292500635
-0.3081809878 -0.1111446992 0.6197357178 4292435355
-0.3086685240 -0.1106308773 0.6207161546 4292698527
-0.3091559410 -0.1101148278 0.6216963530 4293159078
-0.3100830615 -0.1097522229 0.6235607266 4293751215
-0.3105702698 -0.1092307568 0.6245404482 4293423788
-0.3114973009 -0.1088608205 0.6264046431 4293292202
-0.3119842708 -0.1083339378 0.6273838878 4292706736
-0.3129111826 -0.1079566628 0.6292479038 4293430459
-0.3138380945 -0.1075752452 0.6311118603 4288640914
-0.3147649765 -0.1071896777 0.6329758167 4288114570
-0.3156918585 -0.1067999601 0.6348396540 4291678431
-0.3036219478 -0.2042521238 0.6119344831 4292730860
-0.3037047684 -0.2036277652 0.6121014357 4290944696
-0.3037874103 -0.2030028850 0.6122679710 4286865530
-0.3038698137 -0.2023775131 0.6124340892 4288560748
-0.3035257161 -0.2014686465 0.6117405891 4288955506
-0.3027547896 -0.2002789676 0.6101867557 4289280876
-0.3019831479 -0.1990922987 0.6086316109 4289280876
-0.3007842302 -0.1976283044 0.6062152386 4290066029
-0.2936097980 -0.1922569126 0.5917555094 4290263408
-0.2988105714 -0.1949932724 0.6022374034 4290198385
-0.2643041909 -0.1718837470 0.5326915383 4290066799
-0.2605303526 -0.1688461453 0.5250856280 4289803884
-0.2597448230 -0.1677553952 0.5235024095 4290001263
-0.2576766610 -0.1658426672 0.5193341374 4290198383
-0.2573169470 -0.1650349349 0.5186091661 4290198383
-0.2573843896 -0.1645018160 0.5187450647 4290197613
-0.2570239604 -0.1636959165 0.5180186629 4290197613
-0.2570909262 -0.1631628424 0.5181536078 4290394479
-0.2563019097 -0.1620881706 0.5165634155 4290328686
-0.2559402883 -0.1612863392 0.5158345699 4290328686
-0.2560063601 -0.1607546955 0.5159677267 4290394479
-0.2556440234 -0.1599547118 0.5152374506 4290394479
-0.2552812994 -0.1591560990 0.5145063400 4290328686
-0.2553465664 -0.1586250067 0.5146379471 4290526065
-0.2549831569 -0.1578282416 0.5139054656 4290526065
-0.2550479472 -0.1572972387 0.5140361190 4290788721
-0.2546838224 -0.1565023512 0.5133022070 4290854514
-0.2547481656 -0.1559714228 0.5134318471 4290920309
-0.2548123002 -0.1554400921 0.5135611892 4291051895
-0.2544471920 -0.1546475738 0.5128252506 4291117434
-0.2545108497 -0.1541163325 0.5129535794 4291183227
-0.2545743287 -0.1535847038 0.5130815506 4291380606
-0.2542082071 -0.1527945846 0.5123436451 4291446399
-0.2542712092 -0.1522630453 0.5124706030 4291445887
-0.2543340027 -0.1517311335 0.5125972033 4291577473
-0.2539668977 -0.1509434134 0.5118573308 4292038024
-0.2540292442 -0.1504116058 0.5119829178 4292432782
-0.2540913522 -0.1498794109 0.5121081471 4292564370
-0.2541533113 -0.1493468136 0.5122329593 4292564370
-0.2542150617 -0.1488138288 0.5123574138 4292039568
-0.2542766333 -0.1482804716 0.5124815106 4292105361
-0.2543379962 -0.1477467120 0.5126051903 4292039566
-0.2543991804 -0.1472125798 0.5127285123 4292105359
-0.2548907101 -0.1469262391 0.5137192011 4292040336
-0.2545209527 -0.1461431384 0.5129739642 4291908750
-0.2550123036 -0.1458542347 0.5139642358 4291908750
-0.2555036843 -0.1455631256 0.5149546266 4292171922
-0.2555640936 -0.1450252533 0.5150763392 4292171922
-0.2564864755 -0.1449743062 0.5169353485 4292303508
-0.2569778562 -0.1446766108 0.5179257393 4292435094
-0.2566067278 -0.1438930482 0.5171777010 4292435094
-0.2575292885 -0.1438336968 0.5190371275 4292369814
-0.2584520876 -0.1437703222 0.5208969116 4292304021
-0.2580803335 -0.1429856122 0.5201477408 4292435607
-0.2590032220 -0.1429169327 0.5220077634 4292567193
-0.2599262893 -0.1428442299 0.5238681436 4292500119
-0.2604176998 -0.1425311267 0.5248585343 4292631705
-0.2613410652 -0.1424512863 0.5267195702 4292763291
-0.2618325651 -0.1421328634 0.5277101398 4292631705
-0.2627561986 -0.1420458555 0.5295716524 4291974289
-0.2632477582 -0.1417220980 0.5305624008 4291382152
-0.2637393177 -0.1413961500 0.5315530896 4290921601
-0.2646633089 -0.1412988603 0.5334153771 4290658429
-0.2651549578 -0.1409675628 0.5344062448 4290395770
-0.2656465471 -0.1406340599 0.5353970528 4290593149
-0.2661381364 -0.1402983367 0.5363878012 4290856834
-0.2666296959 -0.1399604082 0.5373785496 4291448971
-0.2671212554 -0.1396202743 0.5383692384 4292107671
-0.2676127851 -0.1392779201 0.5393598676 4292436636
-0.2681042850 -0.1389333457 0.5403504372 4292305050
-0.2685957551 -0.1385865659 0.5413410068 4292239257
-0.2690871954 -0.1382375658 0.5423315167 4292502688
-0.2695786357 -0.1378863603 0.5433219075 4292305309
-0.2705035210 -0.1377536803 0.5451859832 4292240284
-0.2714285553 -0.1376169473 0.5470503569 4292174491
-0.2723537683 -0.1374761462 0.5489150286 4292240795
-0.2728453279 -0.1371132880 0.5499057770 4291911830
-0.2737707198 -0.1369652748 0.5517708659 4291650452
-0.2746962607 -0.1368131936 0.5536362529 4292768933
-0.2756219506 -0.1366570294 0.5555019379 4293363892
-0.2765477598 -0.1364967823 0.5573678613 4294416580
-0.2774737477 -0.1363324672 0.5592340827 4293761469
-0.2783998251 -0.1361640692 0.5611006021 4291985058
-0.2793260515 -0.1359915733 0.5629673600 4289682301
-0.2802523971 -0.1358150095 0.5648343563 4286918995
-0.2811788917 -0.1356343478 0.5667016506 4285207864
-0.2825401723 -0.1356583089 0.5694452524 4285471036
-0.2834669650 -0.1354685426 0.5713132024 4285534775
-0.2848287523 -0.1354815066 0.5740577579 4285600568
-0.2857559025 -0.1352826208 0.5759263635 4285666875
-0.2866831422 -0.1350796223 0.5777952075 4285601082
-0.2876105011 -0.1348725259 0.5796642303 4285338423
-0.2885379493 -0.1346613169 0.5815334916 4285338423
-0.2894655168 -0.1344460100 0.5834029317 4285469496
-0.2903931737 -0.1342266053 0.5852726102 4285601082
-0.2913209498 -0.1340030879 0.5871424675 4285666361
-0.2918132842 -0.1335760802 0.5881347060 4285666361
-0.2927411497 -0.1333452761 0.5900048018 4285994300
-0.2936691046 -0.1331103593 0.5918750763 4286323265
-0.2945971787 -0.1328713149 0.5937455297 4286716996
-0.2950894237 -0.1324325353 0.5947376490 4286848582
-0.2955816090 -0.1319915205 0.5957295895 4287308363
-0.2965097427 -0.1317420155 0.5976002216 4287637328
-0.2970018387 -0.1312955767 0.5985919833 4287701580
-0.2974938452 -0.1308468878 0.5995836258 4287767373
-0.2975494564 -0.1302050501 0.5996957421 4287964752
-0.2980412245 -0.1297528297 0.6006867886 4288293717
-0.2980964184 -0.1291093379 0.6007980704 4288885342
-0.2985878885 -0.1286535710 0.6017885804 4289082721
-0.2986426651 -0.1280084103 0.6018990278 4289147233
-0.2986971736 -0.1273629069 0.6020088792 4289015647
-0.2987514436 -0.1267170459 0.6021182537 4289935722
-0.2988054454 -0.1260708421 0.6022270918 4290330480
-0.2992961109 -0.1256076396 0.6032159925 4291316864
-0.2997866869 -0.1251422167 0.6042047143 4292369552
