VERSION 0.7
FIELDS x y z rgba
SIZE 4 4 4 4
TYPE F F F U
COUNT 1 1 1 1
WIDTH 920
HEIGHT 1
VIEWPOINT 0.0 0.0 0.0 1.0 0.0 0.0 0.0
POINTS 920
DATA ascii
-0.2941610217 -0.1010363922 0.5889116526 4290824161
-0.2942047417 -0.1003969833 0.5889991522 4290166231
-0.2946899831 -0.0999070778 0.5899706483 4290034645
-0.2947332561 -0.0992661491 0.5900572538 4289968852
-0.2947762311 -0.0986249298 0.5901432633 4289310922
-0.2948189378 -0.0979834348 0.5902287960 4288522176
-0.2948613763 -0.0973416641 0.5903137922 4288522176
-0.2953456938 -0.0968445912 0.5912833810 4288324797
-0.2953876853 -0.0962013006 0.5913674235 4288061625
-0.2958716452 -0.0957007930 0.5923363566 4288193211
-0.2963554561 -0.0951980799 0.5933049321 4289180106
-0.2963967621 -0.0945520476 0.5933876038 4289048774
-0.2968802452 -0.0940459073 0.5943555236 4288654016
-0.2969210446 -0.0933983773 0.5944372416 4288325051
-0.2969616055 -0.0927505791 0.5945184231 4287930293
-0.2974444926 -0.0922397748 0.5954851508 4289311944
-0.2974845469 -0.0915904865 0.5955653787 4287667119
-0.2979670763 -0.0910762548 0.5965313911 4290101460
-0.2980066538 -0.0904254764 0.5966106653 4290430425
-0.2980459630 -0.0897744372 0.5966893435 4290364632
-0.2980850041 -0.0891231447 0.5967674851 4289969874
-0.2985667288 -0.0886030495 0.5977318883 4289246151
-0.2990483046 -0.0880807713 0.5986959934 4288654014
-0.2995297015 -0.0875562951 0.5996598005 4287996082
-0.2995677888 -0.0869010836 0.5997360349 4287469738
-0.2996056378 -0.0862456188 0.5998117924 4287337382
-0.3000864387 -0.0857165232 0.6007743478 4287337382
-0.3001237512 -0.0850595981 0.6008490920 4287534761
-0.3001607955 -0.0844024271 0.6009232402 4287600554
-0.3006410003 -0.0838687196 0.6018845439 4288324277
-0.3011209965 -0.0833328217 0.6028455496 4288784828
-0.3011573255 -0.0826729834 0.6029182673 4289508293
-0.3011933565 -0.0820129141 0.6029903889 4290034637
-0.3012291193 -0.0813526064 0.6030619740 4290560981
-0.3021519482 -0.0809297413 0.6049095392 4290889946
-0.3021872640 -0.0802670196 0.6049802303 4291218911
-0.3026660681 -0.0797209591 0.6059387922 4291547876
-0.3027008474 -0.0790567994 0.6060084105 4291614182
-0.3027353585 -0.0783924162 0.6060774922 4291745768
-0.3032135069 -0.0778417736 0.6070348024 4291745768
-0.3032474816 -0.0771759599 0.6071028113 4291745768
-0.3037252426 -0.0766219497 0.6080592275 4291745513
-0.3037587106 -0.0759547204 0.6081262231 4291679720
-0.3042360246 -0.0753973424 0.6090818644 4291613927
-0.3047131598 -0.0748377889 0.6100370288 4291613927
-0.3047458529 -0.0741679519 0.6101025343 4291548904
-0.3047782481 -0.0734978989 0.6101673841 4291417318
-0.3048103750 -0.0728276372 0.6102317572 4291417320
-0.3048422337 -0.0721571669 0.6102954745 4291548906
-0.3053182065 -0.0715906844 0.6112483740 4291614699
-0.3053494990 -0.0709188208 0.6113110781 4291548906
-0.3058250248 -0.0703489929 0.6122630835 4291417320
-0.3058558106 -0.0696757361 0.6123246551 4291417320
-0.3067755103 -0.0692028627 0.6141659021 4291613929
-0.3068057895 -0.0685272440 0.6142265201 4291548136
-0.3068357706 -0.0678514317 0.6142865419 4290956769
-0.3073102236 -0.0672727674 0.6152364016 4290627804
-0.3073396683 -0.0665955842 0.6152953506 4290825183
-0.3073688149 -0.0659181997 0.6153537035 4291022562
-0.3073976934 -0.0652406216 0.6154115200 4290561243
-0.3078711629 -0.0646562874 0.6163594127 4289705934
-0.3078994751 -0.0639773533 0.6164160967 4289376715
-0.3083724976 -0.0633897036 0.6173630953 4289574094
-0.3088452816 -0.0627999082 0.6183096170 4289377485
-0.3088727891 -0.0621184558 0.6183646917 4288522176
-0.3089000285 -0.0614368208 0.6184191704 4289640657
-0.3093720973 -0.0608425513 0.6193642616 4290035415
-0.3093987405 -0.0601595789 0.6194176674 4289574096
-0.3094251156 -0.0594764315 0.6194704771 4290034647
-0.3094511926 -0.0587931089 0.6195226312 4290298587
-0.3099222779 -0.0581932254 0.6204657555 4290561759
-0.3103931248 -0.0575912073 0.6214084029 4290759138
-0.3104183674 -0.0569054075 0.6214589477 4290693345
-0.3108887374 -0.0563000999 0.6224005818 4290035667
-0.3113588691 -0.0556926616 0.6233417988 4288588221
-0.3118287623 -0.0550830886 0.6242825389 4291548639
-0.3035073876 -0.2323596030 0.6089772582 4291543246
-0.3035995960 -0.2317533791 0.6091622710 4290030007
-0.3032692373 -0.2308251113 0.6084994078 4289962668
-0.3033609688 -0.2302186191 0.6086834073 4289765289
-0.3034524918 -0.2296115905 0.6088670492 4289764256
-0.3022755384 -0.2280471623 0.6065055728 4289501084
-0.3027892113 -0.2277596593 0.6075361967 4290090141
-0.3011878431 -0.2258836776 0.6043231487 4289761176
-0.2987390161 -0.2233811170 0.5994096398 4287532696
-0.2950186431 -0.2199415416 0.5919448733 4288388005
-0.2874853015 -0.2136843950 0.5768294334 4283464841
-0.2816413045 -0.2087127566 0.5651036501 4281030500
-0.2779118717 -0.2053294629 0.5576206446 4283672498
-0.2754513025 -0.2028974593 0.5526836514 4283540912
-0.2738368511 -0.2010977864 0.5494443178 4283344821
-0.2726452649 -0.1996148974 0.5470533967 4282621098
-0.2723010480 -0.1987558305 0.5463627577 4281834662
-0.2728049457 -0.1985154599 0.5473738313 4281045146
-0.2728845179 -0.1979650110 0.5475334525 4284454305
-0.2733884156 -0.1977211088 0.5485445857 4286428095
-0.2738924026 -0.1974750012 0.5495557785 4290166985
-0.2739717066 -0.1969214082 0.5497148633 4290627536
-0.2732010484 -0.1957584321 0.5481685996 4290758873
-0.2707297206 -0.1933840811 0.5432099104 4291087838
-0.2618797719 -0.1864786893 0.5254528522 4291284191
-0.2606790662 -0.1850425601 0.5230436921 4290955226
-0.2603282034 -0.1842131466 0.5223397017 4290824664
-0.2595514357 -0.1830848753 0.5207810998 4290693078
-0.2596252561 -0.1825581491 0.5209292173 4289903309
-0.2592731714 -0.1817325503 0.5202227235 4290298067
-0.2593465149 -0.1812057942 0.5203698874 4289707466
-0.2598456442 -0.1809752733 0.5213714242 4289181122
-0.2599187791 -0.1804467589 0.5215181708 4288586932
-0.2599917352 -0.1799177974 0.5216645598 4288126381
-0.2604908347 -0.1796824783 0.5226659775 4287337382
-0.2605635524 -0.1791517586 0.5228118896 4286942624
-0.2606361210 -0.1786205918 0.5229574442 4286942626
-0.2611351609 -0.1783804595 0.5239588022 4286811040
-0.2607806623 -0.1775569320 0.5232475400 4286284696
-0.2612796128 -0.1773141772 0.5242486596 4286416282
-0.2613515854 -0.1767803729 0.5243930221 4287337384
-0.2618505359 -0.1765341014 0.5253941417 4288126900
-0.2619222403 -0.1759985536 0.5255380273 4287140005
-0.2619937956 -0.1754625589 0.5256816149 4287666349
-0.2620651424 -0.1749261171 0.5258247852 4287995316
-0.2621363401 -0.1743892431 0.5259675980 4288916418
-0.2626350820 -0.1741355360 0.5269683599 4289442762
-0.2627060115 -0.1735969186 0.5271106958 4290100692
-0.2627767622 -0.1730578542 0.5272526145 4289969104
-0.2628473639 -0.1725183576 0.5273942351 4290298069
-0.2633459568 -0.1722585261 0.5283946395 4290167001
-0.2634162605 -0.1717172861 0.5285357833 4290430173
-0.2639148533 -0.1714539528 0.5295361280 4291153896
-0.2644134462 -0.1711884141 0.5305365920 4291219689
-0.2644834518 -0.1706441045 0.5306770205 4290692829
-0.2649820447 -0.1703750640 0.5316774249 4290495450
-0.2650517523 -0.1698290110 0.5318173170 4290758622
-0.2651213109 -0.1692825258 0.5319568515 4291021794
-0.2651906610 -0.1687356234 0.5320960283 4291087333
-0.2656890750 -0.1684604287 0.5330960751 4290758368
-0.2657581568 -0.1679117829 0.5332347155 4286152860
-0.2653976083 -0.1670923233 0.5325112939 4288718787
-0.2654662132 -0.1665437073 0.5326489210 4291087333
-0.2655346394 -0.1659946591 0.5327861905 4291153126
-0.2660326362 -0.1657129079 0.5337854028 4291350759
-0.2665306628 -0.1654289365 0.5347846746 4291153380
-0.2661687434 -0.1646109223 0.5340584517 4290298587
-0.2666665912 -0.1643243283 0.5350574255 4290495966
-0.2671644688 -0.1640355438 0.5360563993 4290430173
-0.2672320604 -0.1634812951 0.5361919999 4289903829
-0.2672994733 -0.1629266292 0.5363272429 4290167001
-0.2677972019 -0.1626330018 0.5373259187 4290561759
-0.2674336433 -0.1618160307 0.5365965366 4289969624
-0.2679312229 -0.1615197808 0.5375948548 4289443280
-0.2684288025 -0.1612213254 0.5385932326 4290232541
-0.2680644393 -0.1604048908 0.5378621817 4289640404
-0.2685618401 -0.1601038128 0.5388602018 4287995834
-0.2686280906 -0.1595444381 0.5389930606 4287798455
-0.2686941028 -0.1589846462 0.5391255617 4288258751
-0.2691913247 -0.1586787254 0.5401232243 4287995579
-0.2692570686 -0.1581172198 0.5402551293 4288061374
-0.2697542012 -0.1578077823 0.5412526131 4288324546
-0.2698196471 -0.1572445482 0.5413838625 4288587969
-0.2703166902 -0.1569315940 0.5423812270 4288061625
-0.2703818083 -0.1563666314 0.5425118804 4288916934
-0.2704467475 -0.1558012664 0.5426421762 4290167001
-0.2709436119 -0.1554834843 0.5436390638 4290430175
-0.2710082233 -0.1549163908 0.5437687635 4290232796
-0.2715049684 -0.1545950770 0.5447654724 4290298589
-0.2715692818 -0.1540262848 0.5448945165 4290561761
-0.2720659375 -0.1537014395 0.5458909869 4290298589
-0.2721299231 -0.1531309336 0.5460194349 4290101210
-0.2726264596 -0.1528025717 0.5470157266 4290430175
-0.2726901472 -0.1522303522 0.5471435189 4290430175
-0.2731865644 -0.1518984586 0.5481395125 4289443025
-0.2732499540 -0.1513245255 0.5482667089 4288916681
-0.2733131051 -0.1507501900 0.5483934283 4289245646
-0.2738092840 -0.1504134685 0.5493890047 4288653509
-0.2738721073 -0.1498374343 0.5495150685 4288719557
-0.2743681669 -0.1494971812 0.5505104065 4289311694
-0.2744306922 -0.1489194334 0.5506358147 4288982729
-0.2749266326 -0.1485756487 0.5516308546 4288456385
-0.2749888003 -0.1479962170 0.5517556667 4288324799
-0.2754845917 -0.1476489007 0.5527504086 4288324799
-0.2755464315 -0.1470677555 0.5528745055 4288785350
-0.2756080627 -0.1464862376 0.5529981852 4289311694
-0.2756694853 -0.1459043175 0.5531213880 4289443280
-0.2757306695 -0.1453220099 0.5532441735 4290035417
-0.2757916451 -0.1447393149 0.5533665419 4289772245
-0.2758523822 -0.1441562325 0.5534884334 4289114315
-0.2759129405 -0.1435727775 0.5536099076 4289574866
-0.2759732604 -0.1429889202 0.5537309051 4290561761
-0.2764680386 -0.1426289529 0.5547237396 4289640659
-0.2765280306 -0.1420434266 0.5548440218 4290495968
-0.2770226598 -0.1416799277 0.5558364987 4290429406
-0.2770822942 -0.1410927176 0.5559561849 4288784581
-0.2775767744 -0.1407257020 0.5569483042 4288981960
-0.2776360512 -0.1401368082 0.5570672154 4289245132
-0.2776950896 -0.1395475417 0.5571857095 4289047753
-0.2777539194 -0.1389579028 0.5573037267 4288850374
-0.2778125107 -0.1383678764 0.5574213266 4289179339
-0.2783064246 -0.1379934400 0.5584123135 4287600307
-0.2783646584 -0.1374017596 0.5585291982 4287271342
-0.2788583934 -0.1370237917 0.5595198870 4287666100
-0.2789162695 -0.1364304423 0.5596359968 4287731893
-0.2794098258 -0.1360489577 0.5606262684 4287534514
-0.2794673443 -0.1354539394 0.5607416630 4288916167
-0.2799606919 -0.1350689381 0.5617315769 4286547619
-0.2804540098 -0.1346817166 0.5627214313 4289705683
-0.2805110216 -0.1340837479 0.5628358126 4291350508
-0.2805677950 -0.1334854066 0.5629497170 4291416041
-0.2806243300 -0.1328867078 0.5630631447 4291481834
-0.2811171710 -0.1324933767 0.5640519857 4291481580
-0.2811733186 -0.1318930238 0.5641646981 4291349994
-0.2812292576 -0.1312922984 0.5642769337 4291415787
-0.2812849581 -0.1306912303 0.5643886924 4291415787
-0.2813404202 -0.1300898045 0.5644999743 4291416298
-0.2813956439 -0.1294880211 0.5646107793 4291679470
-0.2818876803 -0.1290860176 0.5655980110 4291548138
-0.2819425464 -0.1284825802 0.5657081008 4291482345
-0.2819971442 -0.1278788149 0.5658176541 4291350759
-0.2824888229 -0.1274720132 0.5668041706 4291021794
-0.2825430334 -0.1268665940 0.5669129491 4290824415
-0.2830344737 -0.1264562756 0.5678989887 4290692829
-0.2830882967 -0.1258492321 0.5680070519 4290298071
-0.2831418812 -0.1252418458 0.5681145787 4289771727
-0.2836329639 -0.1248267442 0.5690998435 4289508555
-0.2836861610 -0.1242177263 0.5692065954 4289113797
-0.2837390900 -0.1236083657 0.5693128109 4288522430
-0.2842297554 -0.1231884733 0.5702973008 4288588223
-0.2842823267 -0.1225774959 0.5704028010 4288785602
-0.2843346298 -0.1219661757 0.5705077052 4288982981
-0.2848248780 -0.1215415075 0.5714914203 4289574348
-0.2848767936 -0.1209285706 0.5715955496 4289705934
-0.2849284410 -0.1203153059 0.5716992021 4289442762
-0.2849798799 -0.1197016984 0.5718023777 4289376969
-0.2854695618 -0.1192709804 0.5727849007 4289968852
-0.2859591544 -0.1188380420 0.5737673044 4290626782
-0.2860099971 -0.1182215586 0.5738692880 4291087333
-0.2860605717 -0.1176047474 0.5739707947 4290100438
-0.2865497470 -0.1171670407 0.5749523044 4290692318
-0.2865999043 -0.1165486276 0.5750529766 4291021283
-0.2870888114 -0.1161074266 0.5760338902 4291087074
-0.2875776291 -0.1156640127 0.5770146847 4290692316
-0.2876271904 -0.1150427386 0.5771141648 4289837520
-0.2881157398 -0.1145958304 0.5780943632 4289705934
-0.2881648839 -0.1139729694 0.5781930089 4289969106
-0.2882137895 -0.1133497879 0.5782911181 4289245383
-0.2887018621 -0.1128981262 0.5792704225 4288784319
-0.2887503505 -0.1122733653 0.5793676972 4288784319
-0.2887985706 -0.1116482913 0.5794644356 4288652733
-0.2892861664 -0.1111918837 0.5804428458 4288850112
-0.2893339396 -0.1105652303 0.5805386901 4289837520
-0.2893814743 -0.1099382713 0.5806340575 4289705934
-0.2898686230 -0.1094771251 0.5816115141 4289705934
-0.2899157107 -0.1088485941 0.5817059875 4290232278
-0.2904025614 -0.1083839759 0.5826828480 4289902800
-0.2904492021 -0.1077538803 0.5827764273 4289902800
-0.2909357548 -0.1072857901 0.5837526321 4290626525
-0.2909819484 -0.1066541299 0.5838453770 4291087076
-0.2910279036 -0.1060221791 0.5839375257 4291218919
-0.2915139496 -0.1055493653 0.5849127769 4290824161
-0.2919998467 -0.1050743386 0.5858877301 4290824161
-0.2924856544 -0.1045971066 0.5868625045 4290495196
-0.2929713428 -0.1041176617 0.5878369808 4290100438
-0.2930162549 -0.1034803912 0.5879271030 4289376715
-0.2935016155 -0.1029974893 0.5889009237 4289310922
-0.2935460508 -0.1023586839 0.5889901519 4289113543
-0.2935902476 -0.1017195806 0.5890788436 4289246153
-0.2936342061 -0.1010802016 0.5891669989 4288851395
-0.2936778665 -0.1004405245 0.5892546177 4288193465
-0.2941623032 -0.0999504253 0.5902265906 4288325051
-0.2942055166 -0.0993092209 0.5903133154 4288850625
-0.2942484319 -0.0986677408 0.5903994441 4289113797
-0.2942911088 -0.0980259776 0.5904850960 4289508555
-0.2947748005 -0.0975299478 0.5914555788 4290166485
-0.2948170006 -0.0968866646 0.5915402770 4290627036
-0.2948589623 -0.0962431133 0.5916244388 4290758622
-0.2953420877 -0.0957423970 0.5925938487 4290758622
-0.2958250940 -0.0952394754 0.5935629606 4290956001
-0.2963079214 -0.0947343633 0.5945317745 4290824415
-0.2963489890 -0.0940868258 0.5946141481 4290824415
-0.2963897586 -0.0934390202 0.5946959257 4290627036
-0.2964302599 -0.0927909538 0.5947772264 4289837520
-0.2969123423 -0.0922799408 0.5957444906 4289180106
-0.2969523668 -0.0916303769 0.5958247781 4285495698
-0.2974340618 -0.0911159366 0.5967913270 4286416800
-0.2974736094 -0.0904648826 0.5968706608 4286943144
-0.2975128591 -0.0898135677 0.5969493985 4287206570
-0.2975518703 -0.0891619995 0.5970276594 4287338156
-0.2980327606 -0.0886416957 0.5979925990 4287600556
-0.2985135019 -0.0881191939 0.5989571810 4288192693
-0.2989940941 -0.0875945017 0.5999214649 4288653244
-0.2994745076 -0.0870676190 0.6008853912 4289113795
-0.2995123565 -0.0864109099 0.6009613276 4289837518
-0.2995499074 -0.0857539549 0.6010366678 4290495448
-0.2995872200 -0.0850967541 0.6011115313 4291087585
-0.3000667989 -0.0845640302 0.6020737886 4291613929
-0.3001035750 -0.0839053690 0.6021475792 4291613927
-0.3005827665 -0.0833692476 0.6031090617 4291613927
-0.3006190658 -0.0827091336 0.6031818986 4291613927
-0.3010978401 -0.0821696147 0.6041425467 4291679720
-0.3015764654 -0.0816279203 0.6051028967 4291942892
-0.3016120195 -0.0809651464 0.6051742435 4291877099
-0.3016472757 -0.0803021416 0.6052449942 4291679720
-0.3021252751 -0.0797558501 0.6062040329 4291877099
-0.3021600246 -0.0790914148 0.6062737703 4291745768
-0.3021944761 -0.0784267485 0.6063429117 4291614182
-0.3026718199 -0.0778758675 0.6073006988 4291613927
-0.3027057648 -0.0772097781 0.6073688269 4291613927
-0.3031826913 -0.0766555294 0.6083257198 4291613927
-0.3032161295 -0.0759880096 0.6083928347 4291679720
-0.3036926091 -0.0754303932 0.6093488932 4291745513
-0.3041689098 -0.0748706087 0.6103045344 4291679720
-0.3042016029 -0.0742004812 0.6103700995 4291811306
-0.3042339683 -0.0735301450 0.6104350686 4291679720
-0.3047096133 -0.0729658008 0.6113894582 4291613929
-0.3047414720 -0.0722940639 0.6114533544 4291416550
-0.3047730327 -0.0716221109 0.6115167141 4291087585
-0.3048043251 -0.0709499568 0.6115794778 4291153378
-0.3052790165 -0.0703798905 0.6125319600 4291087585
-0.3053097725 -0.0697063431 0.6125936508 4291087585
-0.3062278330 -0.0692332685 0.6144357324 4290430427
-0.3062581122 -0.0685573593 0.6144964099 4289838290
-0.3062880635 -0.0678812489 0.6145565510 4289575118
-0.3067616820 -0.0673023462 0.6155068278 4289377739
-0.3067910969 -0.0666248575 0.6155658960 4289311946
-0.3072642684 -0.0660426244 0.6165152192 4289838290
-0.3072931468 -0.0653637722 0.6165732145 4289969874
-0.3073217273 -0.0646847337 0.6166305542 4289180358
-0.3073500097 -0.0640055016 0.6166873574 4289377739
-0.3082664013 -0.0635091141 0.6185259819 4289969876
-0.3082941771 -0.0628275499 0.6185817719 4290495966
-0.3087659478 -0.0622353479 0.6195283532 4290495966
-0.3087931871 -0.0615524389 0.6195829511 4290627552
-0.3088201284 -0.0608693473 0.6196370125 4291285482
-0.3088467717 -0.0601860769 0.6196904778 4291614701
-0.3093175292 -0.0595882498 0.6206350923 4291285736
-0.3097880781 -0.0589882769 0.6215792298 4291481323
-0.3098139167 -0.0583025217 0.6216310263 4291020772
-0.3098394573 -0.0576165915 0.6216822863 4290823902
-0.3103092313 -0.0570121743 0.6226249337 4290429144
-0.3103342056 -0.0563249253 0.6226750016 4289772497
-0.3108035326 -0.0557172224 0.6236166954 4288719809
-0.3112726212 -0.0551073849 0.6245578527 4291614434
-0.3021085262 -0.2318052202 0.6075243354 4291609039
-0.3022003770 -0.2312005013 0.6077090502 4290161593
-0.3018704355 -0.2302736044 0.6070455313 4289962926
-0.3019618094 -0.2296686321 0.6072292924 4289699754
-0.3020529747 -0.2290630937 0.6074126363 4289632670
-0.3012999892 -0.2278188765 0.6058983803 4289369498
-0.2997020781 -0.2259410322 0.6026850939 4289892762
-0.2972584963 -0.2234346718 0.5977711678 4289892762
-0.2931237221 -0.2196718305 0.5894563198 4287729816
-0.2864512801 -0.2140313834 0.5760384202 4288650918
-0.2806198597 -0.2090472579 0.5643117428 4283267460
-0.2768984735 -0.2056563497 0.5568282604 4281096291
-0.2752890289 -0.2038459033 0.5535917282 4283673268
-0.2732554078 -0.2017295063 0.5495021939 4283541682
-0.2724897265 -0.2005554289 0.5479624867 4283476407
-0.2721466124 -0.1996948421 0.5472725034 4282950063
-0.2722264528 -0.1991451830 0.5474330783 4282426029
-0.2727296054 -0.1989039034 0.5484448671 4281899685
-0.2732328475 -0.1986604333 0.5494568348 4284585891
-0.2737361491 -0.1984147578 0.5504689813 4286428095
-0.2738156617 -0.1978606135 0.5506289005 4290232519
-0.2654152811 -0.1911974251 0.5337361693 4291022035
-0.2731259465 -0.1961417198 0.5492419004 4290759125
-0.2706592977 -0.1937655956 0.5442816019 4289706437
-0.2660692334 -0.1898850799 0.5350512266 4289244860
-0.2623252869 -0.1866270155 0.5275223255 4289573825
-0.2607019544 -0.1848896295 0.5242578983 4289574849
-0.2599268854 -0.1837592125 0.5226992965 4288653747
-0.2595760226 -0.1829311997 0.5219937563 4287140258
-0.2592247725 -0.1821044534 0.5212873220 4287206051
-0.2592981458 -0.1815766692 0.5214349031 4286944160
-0.2593713701 -0.1810484231 0.5215821862 4287141539
-0.2594444156 -0.1805197299 0.5217290521 4287007900
-0.2599427402 -0.1802856624 0.5227311254 4286810521
-0.2600155473 -0.1797552109 0.5228775740 4286877086
-0.2600882053 -0.1792243272 0.5230236650 4287206051
-0.2605864704 -0.1789854467 0.5240256786 4288192691
-0.2606588900 -0.1784527898 0.5241712928 4288916414
-0.2611571550 -0.1782104224 0.5251733065 4288916414
-0.2612293363 -0.1776760072 0.5253184438 4289113793
-0.2613013387 -0.1771411449 0.5254632235 4289837771
-0.2613731623 -0.1766058505 0.5256077051 4290298322
-0.2618713081 -0.1763573438 0.5266094208 4290561239
-0.2619429231 -0.1758202910 0.5267533660 4290890204
-0.2620143294 -0.1752828062 0.5268970132 4290363860
-0.2620855570 -0.1747448742 0.5270402431 4290166481
-0.2621566057 -0.1742065102 0.5271831155 4290298067
-0.2626545429 -0.1739505529 0.5281844139 4290758618
-0.2627253234 -0.1734104306 0.5283268094 4289705930
-0.2627959549 -0.1728698760 0.5284688473 4289113793
-0.2628663778 -0.1723288894 0.5286104679 4289048774
-0.2633641660 -0.1720667928 0.5296114683 4289640911
-0.2634343505 -0.1715240479 0.5297526121 4290627806
-0.2639321387 -0.1712584347 0.5307536125 4291088357
-0.2644299269 -0.1709906310 0.5317546725 4291219943
-0.2644997835 -0.1704448313 0.5318951011 4291219943
-0.2645694613 -0.1698985845 0.5320352316 4291022564
-0.2650671303 -0.1696259528 0.5330360532 4290825185
-0.2651365399 -0.1690779775 0.5331756473 4291021794
-0.2652057707 -0.1685295552 0.5333148241 4290956001
-0.2652747929 -0.1679807156 0.5334536433 4286547616
-0.2653436363 -0.1674314439 0.5335920453 4288850371
-0.2654122710 -0.1668817550 0.5337300897 4291153126
-0.2654807270 -0.1663316339 0.5338677764 4291218919
-0.2655489743 -0.1657810807 0.5340050459 4291284966
-0.2660461664 -0.1654970348 0.5350048542 4291219173
-0.2661141455 -0.1649447531 0.5351415277 4290956517
-0.2661819458 -0.1643920392 0.5352779031 4291285482
-0.2666789889 -0.1641031653 0.5362774134 4291154150
-0.2667465210 -0.1635487229 0.5364131927 4289772497
-0.2668138444 -0.1629938632 0.5365485549 4288259004
-0.2673107386 -0.1627001464 0.5375478268 4287798453
-0.2669478953 -0.1618828773 0.5368181467 4287798455
-0.2674446106 -0.1615865380 0.5378170609 4287864248
-0.2679413557 -0.1612879932 0.5388159156 4289245901
-0.2675777078 -0.1604712456 0.5380846858 4289969624
-0.2685045600 -0.1604271829 0.5399485230 4288851143
-0.2685708404 -0.1598667055 0.5400817990 4288653764
-0.2686369121 -0.1593058109 0.5402146578 4289574866
-0.2687027752 -0.1587445140 0.5403470993 4289640659
-0.2691991627 -0.1584362984 0.5413452983 4290035162
-0.2692647278 -0.1578732580 0.5414772034 4290693092
-0.2693300843 -0.1573098302 0.5416086316 4290889954
-0.2698262930 -0.1569967717 0.5426064730 4290560989
-0.2698913813 -0.1564316154 0.5427373052 4290692575
-0.2699562311 -0.1558660418 0.5428677797 4290692575
-0.2700209022 -0.1553000659 0.5429977775 4290034647
-0.2705168128 -0.1549808681 0.5439950228 4289376717
-0.2710126936 -0.1546594501 0.5449922681 4289310924
-0.2710769475 -0.1540904492 0.5451214910 4289310924
-0.2715727389 -0.1537654996 0.5461184978 4288521408
-0.2716366947 -0.1531947851 0.5462470651 4288126650
-0.2721323669 -0.1528663039 0.5472438931 4288126650
-0.2721959949 -0.1522938758 0.5473718047 4288258236
-0.2726915777 -0.1519618779 0.5483683944 4288192443
-0.2727548778 -0.1513877362 0.5484957099 4288455615
-0.2728179693 -0.1508131921 0.5486225486 4288718787
-0.2728808522 -0.1502382606 0.5487490296 4289047752
-0.2733760774 -0.1499001086 0.5497449040 4289245901
-0.2738713026 -0.1495597363 0.5507407784 4290035417
-0.2739337385 -0.1489817798 0.5508663654 4290167003
-0.2744288445 -0.1486378759 0.5518619418 4290167003
-0.2744909525 -0.1480582356 0.5519868731 4290232796
-0.2749859095 -0.1477108002 0.5529821515 4290167003
-0.2750476897 -0.1471294463 0.5531064272 4290298589
-0.2751092613 -0.1465477049 0.5532302260 4290495968
-0.2751705945 -0.1459655613 0.5533536077 4289969369
-0.2752317488 -0.1453830451 0.5534765124 4290232541
-0.2752926648 -0.1448001266 0.5535990000 4289114060
-0.2757869661 -0.1444439441 0.5545930862 4287929786
-0.2758475542 -0.1438593417 0.5547149181 4287929786
-0.2759079039 -0.1432743520 0.5548362732 4288390337
-0.2759680450 -0.1426889896 0.5549572110 4287929786
-0.2760279477 -0.1421032399 0.5550776720 4289508818
-0.2765217423 -0.1417396218 0.5560706854 4288851143
-0.2765813172 -0.1411521882 0.5561904907 4287337904
-0.2770749629 -0.1407850385 0.5571831465 4287601076
-0.2771341801 -0.1401959211 0.5573022366 4287666869
-0.2776276469 -0.1398252398 0.5582945347 4287601076
-0.2776865065 -0.1392344534 0.5584129095 4287864248
-0.2777451277 -0.1386432946 0.5585308075 4288785350
-0.2778035402 -0.1380517483 0.5586482882 4288785350
-0.2778617144 -0.1374598294 0.5587652922 4288982729
-0.2783546150 -0.1370817423 0.5597564578 4289377487
-0.2784124315 -0.1364881545 0.5598727465 4289771475
-0.2789051533 -0.1361065358 0.5608635545 4289639889
-0.2789626122 -0.1355112940 0.5609791279 4289968854
-0.2794551253 -0.1351261586 0.5619695187 4286810790
-0.2795122266 -0.1345292479 0.5620843172 4289705683
-0.2800045311 -0.1341405809 0.5630744100 4291547887
-0.2800612748 -0.1335420161 0.5631884336 4291482091
-0.2801177502 -0.1329430789 0.5633020401 4291284712
-0.2806097269 -0.1325496137 0.5642914176 4291284714
-0.2806658447 -0.1319490224 0.5644042492 4291218921
-0.2807217240 -0.1313480735 0.5645166039 4290955749
-0.2807773650 -0.1307467669 0.5646284819 4290758370
-0.2812688649 -0.1303471923 0.5656168461 4290560989
-0.2813241184 -0.1297442466 0.5657280087 4290363610
-0.2813791633 -0.1291409284 0.5658386350 4289903313
-0.2814339399 -0.1285372674 0.5659488440 4290034899
-0.2819249332 -0.1281315982 0.5669361949 4288916164
-0.2819793224 -0.1275262982 0.5670455694 4288060855
-0.2820335031 -0.1269206554 0.5671545267 4288389820
-0.2825241089 -0.1265101880 0.5681411028 4288521406
-0.2825778723 -0.1259029061 0.5682492256 4288522430
-0.2830682695 -0.1254889220 0.5692353845 4288522430
-0.2831216455 -0.1248800159 0.5693427324 4288916418
-0.2836117744 -0.1244625300 0.5703283548 4289179590
-0.2836647630 -0.1238519922 0.5704349279 4289180360
-0.2837175131 -0.1232411042 0.5705409646 4289575118
-0.2837700248 -0.1226298809 0.5706465244 4290232278
-0.2842595875 -0.1222063303 0.5716310740 4290429657
-0.2843117118 -0.1215934902 0.5717358589 4290627036
-0.2843635678 -0.1209803149 0.5718401074 4290956001
-0.2848527431 -0.1205519810 0.5728238225 4291021540
-0.2849041820 -0.1199371889 0.5729272962 4290955747
-0.2849553823 -0.1193220690 0.5730302334 4290955747
-0.2854441404 -0.1188889593 0.5740131140 4289837266
-0.2859328091 -0.1184536293 0.5749958158 4289508301
-0.2859834135 -0.1178356260 0.5750976205 4289574094
-0.2860338092 -0.1172172949 0.5751988888 4290231767
-0.2860839367 -0.1165986359 0.5752996802 4288718528
-0.2870101631 -0.1163348779 0.5771623254 4288455867
-0.2870599627 -0.1157136783 0.5772624612 4288521660
-0.2875478268 -0.1152678654 0.5782434940 4288719039
-0.2875971794 -0.1146450713 0.5783427954 4289245383
-0.2876462936 -0.1140219569 0.5784415603 4289903313
-0.2881337106 -0.1135713905 0.5794216990 4289376969
-0.2881823778 -0.1129466891 0.5795195699 4289376969
-0.2886695266 -0.1124926358 0.5804991722 4289969106
-0.2887177765 -0.1118663549 0.5805962086 4290298071
-0.2887657583 -0.1112397537 0.5806927085 4290100692
-0.2888135016 -0.1106128469 0.5807887316 4290627036
-0.2892999947 -0.1101527810 0.5817670226 4290363864
-0.2893472910 -0.1095243022 0.5818621516 4290495450
-0.2893943489 -0.1088955179 0.5819567442 4291153380
-0.2898803353 -0.1084307134 0.5829340816 4291350759
-0.2899269462 -0.1078003645 0.5830278397 4291745517
-0.2904126644 -0.1073320881 0.5840045214 4291284712
-0.2904588282 -0.1067001745 0.5840973854 4290429403
-0.2905047238 -0.1060679555 0.5841897130 4289771473
-0.2909899354 -0.1055949554 0.5851654410 4288455613
-0.2919146419 -0.1052782908 0.5870249867 4287600304
-0.2919599712 -0.1046423092 0.5871161222 4287600304
-0.2924448252 -0.1041626707 0.5880911350 4287929269
-0.2924897075 -0.1035251468 0.5881813765 4287731890
-0.2929742038 -0.1030420437 0.5891557336 4288916164
-0.2930186391 -0.1024029776 0.5892450213 4289903059
-0.2930627763 -0.1017636135 0.5893338323 4290692575
-0.2931066751 -0.1011239663 0.5894221067 4290232024
-0.2931503057 -0.1004840285 0.5895098448 4290034899
-0.2936339080 -0.0999937281 0.5904823542 4290561243
-0.2936770916 -0.0993522629 0.5905691385 4290495450
-0.2937199771 -0.0987105146 0.5906553864 4290100692
-0.2937626243 -0.0980684906 0.5907411575 4290363864
-0.2942454815 -0.0975722447 0.5917121172 4290363864
-0.2942876518 -0.0969287008 0.5917969346 4290495196
-0.2947701514 -0.0964290202 0.5927672386 4290560989
-0.2952525318 -0.0959271342 0.5937372446 4290429403
-0.2957347333 -0.0954230428 0.5947070122 4290429403
-0.2957760096 -0.0947755128 0.5947899818 4290627552
-0.2958170474 -0.0941277072 0.5948724747 4290430173
-0.2958577871 -0.0934796333 0.5949543715 4289640657
-0.2958982587 -0.0928312913 0.5950357914 4289377485
-0.2963794768 -0.0923200697 0.5960035324 4288916936
-0.2964194715 -0.0916702300 0.5960839391 4286219423
-0.2964591980 -0.0910201296 0.5961638093 4288522178
-0.2969398499 -0.0905042514 0.5971304178 4289772245
-0.2969790697 -0.0898526683 0.5972092748 4290430173
-0.2970180213 -0.0892008245 0.5972875953 4290627552
-0.2974981070 -0.0886802971 0.5982530117 4290693599
-0.2979780138 -0.0881575793 0.5992181301 4290890978
-0.2984577715 -0.0876326710 0.6001828909 4291022564
-0.2984957993 -0.0869769081 0.6002593637 4290759392
-0.2989751697 -0.0864485875 0.6012233496 4290758622
-0.2990127206 -0.0857913494 0.6012988091 4290429657
-0.2994916737 -0.0852596238 0.6022620201 4290429655
-0.2995287180 -0.0846009254 0.6023364663 4291219171
-0.3000073135 -0.0840657949 0.6032989025 4291482343
-0.3000438511 -0.0834056363 0.6033723354 4291679722
-0.3000800908 -0.0827452466 0.6034452319 4291548136
-0.3005580604 -0.0822055042 0.6044064164 4291482343
-0.3010358512 -0.0816635787 0.6053672433 4291811308
-0.3010713458 -0.0810005218 0.6054386497 4291745515
-0.3011066020 -0.0803372413 0.6055095196 4291416548
-0.3015837371 -0.0797907189 0.6064690351 4291613927
-0.3016184568 -0.0791259930 0.6065388322 4291811306
-0.3016529083 -0.0784610435 0.6066080928 4291679720
-0.3016870618 -0.0777958706 0.6066767573 4291416550
-0.3021633327 -0.0772435591 0.6076345444 4291284964
-0.3026394248 -0.0766890720 0.6085919738 4291153378
-0.3026728332 -0.0760212764 0.6086591482 4291021792
-0.3035910428 -0.0755735859 0.6105056405 4291021790
-0.3036239743 -0.0749033913 0.6105718017 4291087583
-0.3036566079 -0.0742329881 0.6106374860 4290890206
-0.3036889732 -0.0735623613 0.6107025146 4290890206
-0.3041637838 -0.0729977787 0.6116573215 4290758620
-0.3041956127 -0.0723257512 0.6117213368 4290758620
-0.3042271435 -0.0716535151 0.6117847562 4291087587
-0.3042584062 -0.0709810629 0.6118476391 4291284966
-0.3047322929 -0.0704107583 0.6128005981 4291350757
-0.3047630191 -0.0697369203 0.6128623486 4291219171
-0.3056794703 -0.0692636445 0.6147053242 4290692827
-0.3057096899 -0.0685874447 0.6147660613 4289705932
-0.3057396412 -0.0679110438 0.6148262620 4289705934
-0.3057692647 -0.0672344491 0.6148859262 4290232278
-0.3062418103 -0.0666541159 0.6158361435 4290298841
-0.3062709272 -0.0659761503 0.6158946753 4290627806
-0.3067429960 -0.0653924868 0.6168439984 4290956769
-0.3067715764 -0.0647131503 0.6169014573 4290627804
-0.3067998290 -0.0640336275 0.6169583201 4290562013
-0.3077146113 -0.0635370240 0.6187978387 4290890978
-0.3077423573 -0.0628551692 0.6188536882 4291153896
-0.3082132936 -0.0622627102 0.6198006868 4291746033
-0.3082405031 -0.0615795031 0.6198554039 4290101208
-0.3082674146 -0.0608961172 0.6199095845 4289772243
-0.3082940578 -0.0602125525 0.6199631095 4289377739
-0.3087640107 -0.0596144646 0.6209081411 4289311946
-0.3092337251 -0.0590142347 0.6218527555 4288851141
-0.3092595339 -0.0583281778 0.6219046116 4289048520
-0.3092850447 -0.0576419532 0.6219559312 4288325308
-0.3097540140 -0.0570372716 0.6228989959 4288522687
-0.3097789586 -0.0563497245 0.6229491830 4289575118
-0.3102474809 -0.0557417572 0.6238912940 4288982981
-0.3107157350 -0.0551316552 0.6248329878 4291746020
-0.3002914786 -0.2309268117 0.6052221060 4291544016
-0.3003828824 -0.2303244323 0.6054062843 4290096570
-0.3000532389 -0.2293997705 0.6047419310 4289962926
-0.3001441061 -0.2287971377 0.6049250960 4289633961
-0.2998137176 -0.2278739065 0.6042592525 4289698465
-0.2990616858 -0.2266326249 0.6027435064 4289435293
-0.2949382365 -0.2228473723 0.5944328904 4289761176
-0.2971340716 -0.2238411009 0.5988584757 4289958555
-0.2908991277 -0.2184927016 0.5862922668 4287664023
-0.2850819230 -0.2134850472 0.5745680332 4288716711
-0.2796828747 -0.2088156492 0.5636865497 4283201667
-0.2759682834 -0.2054242939 0.5561999083 4281162084
-0.2747838199 -0.2039272785 0.5538127422 4283804854
-0.2735984325 -0.2024348825 0.5514236093 4283607475
-0.2719897628 -0.2006355822 0.5481814742 4283477177
-0.2716473639 -0.1997746974 0.5474913716 4282885040
-0.2721497118 -0.1995346993 0.5485038161 4282557613
-0.2722294331 -0.1989835352 0.5486644506 4282031269
-0.2727317810 -0.1987400204 0.5496769547 4284585636
-0.2732342482 -0.1984942853 0.5506896377 4286427840
-0.2733136714 -0.1979399621 0.5508497357 4290100933
-0.2725465000 -0.1967740506 0.5493035316 4291022035
-0.2705086768 -0.1946970224 0.5451964140 4290758610
-0.2659287453 -0.1908051372 0.5359657407 4288916406
-0.2604987919 -0.1863257885 0.5250219703 4288060584
-0.2622683644 -0.1870041937 0.5285884142 4288850100
-0.2593767047 -0.1843615621 0.5227605104 4289377469
-0.2590268552 -0.1835328341 0.5220553279 4288456367
-0.2591006160 -0.1830049008 0.5222040415 4287600807
-0.2587500513 -0.1821778715 0.5214974880 4288192944
-0.2588233650 -0.1816499084 0.5216452479 4288654265
-0.2588965297 -0.1811214983 0.5217926502 4289509574
-0.2593940198 -0.1808886826 0.5227953792 4289902539
-0.2598915994 -0.1806536913 0.5237982273 4290034125
-0.2595396936 -0.1798278838 0.5230889916 4290232274
-0.2600371540 -0.1795902699 0.5240916014 4290429653
-0.2601096928 -0.1790578812 0.5242377520 4291087585
-0.2606071532 -0.1788167655 0.5252404213 4291482343
-0.2606794536 -0.1782826185 0.5253860950 4291153376
-0.2611769140 -0.1780380011 0.5263887048 4290890204
-0.2612489760 -0.1775020957 0.5265339017 4291021790
-0.2613208294 -0.1769657433 0.5266788006 4291087583
-0.2613925338 -0.1764289588 0.5268232822 4290955997
-0.2614640594 -0.1758917272 0.5269674063 4290692825
-0.2615353763 -0.1753540635 0.5271111727 4289311172
-0.2616065443 -0.1748159528 0.5272545815 4288455863
-0.2621037066 -0.1745612472 0.5282565951 4288784828
-0.2621746063 -0.1740213782 0.5283995271 4289705930
-0.2622453272 -0.1734810770 0.5285420418 4289245379
-0.2623158693 -0.1729403436 0.5286842585 4288916414
-0.2628128827 -0.1726794839 0.5296859145 4288654016
-0.2628831863 -0.1721369922 0.5298275948 4289706704
-0.2633801699 -0.1718726307 0.5308292508 4290759392
-0.2638771832 -0.1716060787 0.5318309665 4291022564
-0.2635200620 -0.1707837135 0.5311111808 4290824931
-0.2640169263 -0.1705145240 0.5321126580 4290824931
-0.2640865445 -0.1699680984 0.5322529078 4290824931
-0.2641559541 -0.1694212556 0.5323927999 4290956517
-0.2646527290 -0.1691472232 0.5333939791 4290956771
-0.2647218704 -0.1685986221 0.5335333347 4291088357
-0.2647908032 -0.1680495888 0.5336723328 4286745765
-0.2652874589 -0.1677707285 0.5346733332 4288653762
-0.2649281621 -0.1669502407 0.5339491367 4291284712
-0.2649965584 -0.1663999259 0.5340870023 4291218919
-0.2650647461 -0.1658491939 0.5342243910 4291284712
-0.2655610740 -0.1655650735 0.5352247357 4291218919
-0.2656289935 -0.1650125831 0.5353616476 4290956517
-0.2656967342 -0.1644596905 0.5354981422 4291219689
-0.2661929131 -0.1641707271 0.5364981890 4291153896
-0.2662603557 -0.1636160910 0.5366341472 4290232794
-0.2663276196 -0.1630610228 0.5367696881 4289443278
-0.2663946748 -0.1625055522 0.5369048715 4289772243
-0.2668906450 -0.1622104347 0.5379044414 4289838038
-0.2669574022 -0.1616532207 0.5380390286 4289180108
-0.2670240104 -0.1610955894 0.5381731987 4289706452
-0.2675198019 -0.1607956439 0.5391724706 4290298589
-0.2680155933 -0.1604934931 0.5401717424 4290035417
-0.2680817842 -0.1599328071 0.5403051376 4290693347
-0.2681477964 -0.1593717188 0.5404381752 4290627554
-0.2686434388 -0.1590647250 0.5414370894 4289443280
-0.2687091529 -0.1585019082 0.5415695310 4289311439
-0.2687746584 -0.1579386741 0.5417015553 4289245646
-0.2688399553 -0.1573750377 0.5418331623 4288916166
-0.2693352997 -0.1570618898 0.5428315401 4288784580
-0.2694002986 -0.1564965248 0.5429625511 4288916166
-0.2694651186 -0.1559307575 0.5430931449 4289179338
-0.2699602544 -0.1556127518 0.5440911055 4288455615
-0.2700247765 -0.1550452709 0.5442211032 4287731892
-0.2705198228 -0.1547237486 0.5452188253 4288060857
-0.2705840170 -0.1541545391 0.5453482270 4288652994
-0.2710789442 -0.1538294852 0.5463457704 4289047752
-0.2711428404 -0.1532585621 0.5464745164 4289771475
-0.2716376781 -0.1529299766 0.5474718213 4290297819
-0.2721325159 -0.1525991708 0.5484691262 4289968854
-0.2717645764 -0.1517843008 0.5477275848 4290100440
-0.2722592056 -0.1514508724 0.5487244725 4290758370
-0.2727538049 -0.1511152387 0.5497213602 4290297819
-0.2723850608 -0.1503009796 0.5489781499 4291021542
-0.2728794515 -0.1499627233 0.5499745607 4290495968
-0.2729419470 -0.1493858695 0.5501005054 4290430175
-0.2734361887 -0.1490440667 0.5510966182 4289772245
-0.2739304304 -0.1487000585 0.5520927310 4289245901
-0.2739924788 -0.1481201798 0.5522178411 4288851143
-0.2744866014 -0.1477726400 0.5532136559 4288259006
-0.2745483220 -0.1471910626 0.5533380508 4287798455
-0.2746098042 -0.1466091126 0.5534620285 4287469490
-0.2746711075 -0.1460267603 0.5535855293 4287074732
-0.2747321725 -0.1454440206 0.5537086725 4287930041
-0.2747930288 -0.1448608935 0.5538312793 4287601076
-0.2752865255 -0.1445045769 0.5548259020 4287206318
-0.2753470242 -0.1439197659 0.5549478531 4287469235
-0.2754073143 -0.1433345526 0.5550693870 4287732407
-0.2754673958 -0.1427489668 0.5551904440 4287798200
-0.2755272686 -0.1421629936 0.5553110838 4289903576
-0.2760201991 -0.1417992413 0.5563046336 4289838036
-0.2760797143 -0.1412115842 0.5564245582 4288851141
-0.2765724957 -0.1408443153 0.5574177504 4289443278
-0.2766316533 -0.1402549744 0.5575369596 4289245899
-0.2771242857 -0.1398841739 0.5585297942 4289443278
-0.2771830857 -0.1392931491 0.5586483479 4289969622
-0.2772416770 -0.1387017667 0.5587663651 4290824931
-0.2773000300 -0.1381099969 0.5588840246 4291482861
-0.2773581445 -0.1375178546 0.5590011477 4291679470
-0.2778502107 -0.1371396333 0.5599928498 4291679470
-0.2779079676 -0.1365458220 0.5601092577 4291679470
-0.2783998251 -0.1361640692 0.5611006021 4291284712
-0.2784572244 -0.1355685890 0.5612162948 4290560991
-0.2789489031 -0.1351833045 0.5622072220 4287139755
-0.2794405222 -0.1347958148 0.5631980896 4289903061
-0.2794974148 -0.1341973692 0.5633127689 4291350507
-0.2795540988 -0.1335985661 0.5634269714 4290758368
-0.2796105146 -0.1329994053 0.5635406971 4289508301
-0.2801016569 -0.1326057911 0.5645305514 4288981957
-0.2801577151 -0.1320049763 0.5646435618 4289047750
-0.2802135348 -0.1314037889 0.5647560358 4288587199
-0.2802691460 -0.1308022439 0.5648680925 4288389820
-0.2807597816 -0.1304025203 0.5658569932 4288784832
-0.2808150053 -0.1297993362 0.5659682751 4289311176
-0.2808699906 -0.1291957945 0.5660790801 4290166231
-0.2809247077 -0.1285918951 0.5661894083 4290495196
-0.2814148664 -0.1281860769 0.5671772361 4289442508
-0.2814691961 -0.1275805384 0.5672867894 4288652992
-0.2815233171 -0.1269746572 0.5673958659 4289442508
-0.2820130885 -0.1265640408 0.5683829188 4289968852
-0.2820668221 -0.1259565204 0.5684912205 4290561243
-0.2825563550 -0.1255423874 0.5694778562 4290495450
-0.2826096714 -0.1249332353 0.5695853233 4290561243
-0.2830989659 -0.1245155931 0.5705714822 4290034899
-0.2831519246 -0.1239048094 0.5706781745 4290298071
-0.2832046151 -0.1232936829 0.5707843900 4290561243
-0.2832570672 -0.1226822212 0.5708901286 4290363864
-0.2837457955 -0.1222585067 0.5718751550 4290429657
-0.2837978601 -0.1216454208 0.5719800591 4290166231
-0.2838496566 -0.1210319996 0.5720844865 4289442508
-0.2843379974 -0.1206035092 0.5730686784 4288652992
-0.2843893766 -0.1199884713 0.5731722713 4288981957
-0.2848774791 -0.1195564717 0.5741559863 4289574094
-0.2849284708 -0.1189398319 0.5742587447 4288718785
-0.2849791944 -0.1183228567 0.5743610263 4289245129
-0.2854668498 -0.1178860813 0.5753438473 4289639887
-0.2855171859 -0.1172675043 0.5754452944 4290889697
-0.2864418924 -0.1170058697 0.5773090124 4290297560
-0.2864918709 -0.1163847446 0.5774097443 4290232024
-0.2865416110 -0.1157632917 0.5775099397 4290626782
-0.2870286405 -0.1153173074 0.5784915686 4290889954
-0.2870779634 -0.1146942601 0.5785909295 4290758368
-0.2871270180 -0.1140708998 0.5786898136 4291153126
-0.2876136005 -0.1136201546 0.5796704888 4290758368
-0.2876622379 -0.1129951999 0.5797684789 4290232024
-0.2881485224 -0.1125409678 0.5807486176 4290100438
-0.2881967425 -0.1119144335 0.5808457732 4289310922
-0.2882446945 -0.1112875864 0.5809423923 4289047750
-0.2882923782 -0.1106604263 0.5810385346 4289047750
-0.2887780368 -0.1102001742 0.5820173025 4288784578
-0.2888252735 -0.1095714420 0.5821125507 4289179336
-0.2888723016 -0.1089423969 0.5822073221 4290166231
-0.2893574536 -0.1084774137 0.5831851363 4290889954
-0.2894040346 -0.1078468040 0.5832790136 4291416298
-0.2898888886 -0.1073783338 0.5842562318 4291613677
-0.2899349928 -0.1067461669 0.5843491554 4289442508
-0.2904195786 -0.1062742323 0.5853257775 4289245129
-0.2909040153 -0.1058000773 0.5863021612 4289442508
-0.2913883328 -0.1053237170 0.5872782469 4289442508
-0.2914336324 -0.1046874747 0.5873695612 4289771473
-0.2919176221 -0.1042076424 0.5883450508 4290297560
-0.2919624448 -0.1035698578 0.5884354115 4290494939
-0.2924461365 -0.1030865610 0.5894102454 4290034388
-0.2924905121 -0.1024472266 0.5894996524 4290560732
-0.2925346494 -0.1018076017 0.5895885825 4290560989
-0.2925784886 -0.1011676937 0.5896769762 4290363610
-0.2926220894 -0.1005274951 0.5897648335 4290363610
-0.2931048274 -0.1000369862 0.5907378197 4290363610
-0.2931479812 -0.0993952602 0.5908247232 4290429144
-0.2931908369 -0.0987532511 0.5909110904 4290758109
-0.2932334244 -0.0981109515 0.5909969807 4290627552
-0.2937154472 -0.0976145118 0.5919684768 4290167001
-0.2941973209 -0.0971158668 0.5929396749 4290298587
-0.2946790755 -0.0966150165 0.5939105749 4289969622
-0.2947207987 -0.0959687233 0.5939946771 4289574864
-0.2952021956 -0.0954644233 0.5949648619 4289245899
-0.2952434123 -0.0948166251 0.5950480103 4289969622
-0.2952843904 -0.0941685438 0.5951305628 4289903829
-0.2953251004 -0.0935202017 0.5952126384 4288653762
-0.2953655422 -0.0928715914 0.5952941179 4289180106
-0.2958459258 -0.0923601538 0.5962623358 4289048522
-0.2958858907 -0.0917100459 0.5963428617 4287666869
-0.2963659465 -0.0911951885 0.5973103642 4290167003
-0.2964054048 -0.0905435830 0.5973898768 4290364382
-0.2964445949 -0.0898917243 0.5974689126 4290035415
-0.2969240546 -0.0893722102 0.5984352231 4289640657
-0.2969627678 -0.0887188688 0.5985132456 4289114313
-0.2978824973 -0.0883265957 0.6003668904 4288851141
-0.2979207635 -0.0876708031 0.6004440188 4288588223
-0.2983995080 -0.0871434882 0.6014089584 4287996086
-0.2984372973 -0.0864862204 0.6014850736 4288390074
-0.2984747887 -0.0858287141 0.6015606523 4288916418
-0.2989529371 -0.0852967650 0.6025243402 4289574348
-0.2989899516 -0.0846377835 0.6025989056 4290956001
-0.2994677126 -0.0841024294 0.6035618186 4291482343
-0.2995041907 -0.0834419951 0.6036353707 4291811308
-0.2995404005 -0.0827813223 0.6037083864 4291811308
-0.3000175655 -0.0822413564 0.6046699882 4291548136
-0.3004945219 -0.0816992000 0.6056312919 4291548134
-0.3009712994 -0.0811548680 0.6065922379 4291219169
-0.3010065556 -0.0804903209 0.6066632867 4290824411
-0.3010415137 -0.0798255503 0.6067337990 4291087583
-0.3010762036 -0.0791605487 0.6068037152 4291021792
-0.3015521169 -0.0786104053 0.6077628732 4290955999
-0.3015863001 -0.0779439732 0.6078317761 4290890208
-0.3016201854 -0.0772773102 0.6079000831 4290824415
-0.3020954430 -0.0767225921 0.6088579297 4290890208
-0.3021288216 -0.0760545060 0.6089251637 4291021794
-0.3026036620 -0.0754964128 0.6098822355 4291153378
-0.3030783236 -0.0749361515 0.6108388305 4291284964
-0.3035527766 -0.0743737146 0.6117951274 4291548136
-0.3035851717 -0.0737018287 0.6118603349 4291811308
-0.3036172390 -0.0730297193 0.6119250059 4291811310
-0.3036490381 -0.0723574087 0.6119890809 4291548138
-0.3041225970 -0.0717892274 0.6129435301 4291877103
-0.3041538596 -0.0711155161 0.6130065322 4291679724
-0.3041848242 -0.0704415962 0.6130689979 4292008687
-0.3050998747 -0.0699702799 0.6149131656 4292140273
-0.3051303625 -0.0692939907 0.6149746180 4291351527
-0.3051605523 -0.0686175004 0.6150354743 4290825183
-0.3056327701 -0.0680392757 0.6159872413 4290825185
-0.3056624532 -0.0673614070 0.6160470247 4290627806
-0.3056918085 -0.0666833445 0.6161062121 4290101462
-0.3057208955 -0.0660050809 0.6161648035 4289969876
-0.3061921597 -0.0654211715 0.6171146035 4289575118
-0.3062206805 -0.0647415444 0.6171721220 4288588223
-0.3071340322 -0.0642468780 0.6190129519 4288654016
-0.3071620762 -0.0635649115 0.6190694571 4288785602
-0.3071898222 -0.0628827587 0.6191253066 4288916934
-0.3076599240 -0.0622900464 0.6200728416 4290495966
-0.3076871037 -0.0616065450 0.6201276183 4288324797
-0.3081567585 -0.0610105209 0.6210741997 4288324797
-0.3081834018 -0.0603256784 0.6211278439 4288061625
-0.3082097173 -0.0596406572 0.6211809516 4288259004
-0.3086786270 -0.0590401664 0.6221259832 4288589509
-0.3087044358 -0.0583538152 0.6221779585 4289444818
-0.3087299168 -0.0576672927 0.6222293377 4288984008
-0.3091980815 -0.0570623502 0.6231728792 4289378766
-0.3092229962 -0.0563745052 0.6232231259 4289838547
-0.3096906841 -0.0557662733 0.6241657138 4288851652
-0.3101581037 -0.0551559068 0.6251078248 4291877093
-0.2988982499 -0.2303710878 0.6037656665 4291544016
-0.2985693514 -0.2294475138 0.6031013131 4290096570
-0.2986600697 -0.2288469225 0.6032845378 4289962926
-0.2974900603 -0.2272827476 0.6009211540 4289699754
-0.2984206378 -0.2273239642 0.6028009057 4289764258
-0.2985107005 -0.2267225832 0.6029827595 4289501086
-0.2977594137 -0.2254837155 0.6014652252 4289694613
-0.2961660624 -0.2236124277 0.5982466936 4290023578
-0.2933090925 -0.2207970619 0.5924757123 4287466644
-0.2896082699 -0.2173611820 0.5850001574 4288716711
-0.2833786011 -0.2120496035 0.5724164248 4283135874
-0.2784085572 -0.2077057362 0.5623770952 4281162084
-0.2755419612 -0.2049486935 0.5565866232 4283739318
-0.2739377320 -0.2031406760 0.5533461571 4283607732
-0.2727539241 -0.2016506642 0.5509548783 4283542970
-0.2715691924 -0.2001652867 0.5485617518 4283016626
-0.2712271810 -0.1993044764 0.5478709340 4282688942
-0.2713066936 -0.1987539828 0.5480315089 4282162598
-0.2718080878 -0.1985112727 0.5490443110 4284454052
-0.2723095417 -0.1982663572 0.5500572324 4286559428
-0.2728110850 -0.1980192363 0.5510703325 4290101193
-0.2728902400 -0.1974642426 0.5512302518 4290890709
-0.2725466788 -0.1966039538 0.5505362749 4291087836
-0.2705120146 -0.1945291013 0.5464262962 4290035148
-0.2659391463 -0.1906438470 0.5371892452 4289508291
-0.2626322210 -0.1876837611 0.5305092931 4290166221
-0.2605922520 -0.1856411099 0.5263887048 4290693332
-0.2593972683 -0.1842076331 0.5239748359 4290495953
-0.2586246431 -0.1830785275 0.5224141479 4290495448
-0.2586981654 -0.1825499833 0.5225626826 4291087585
-0.2587715387 -0.1820209771 0.5227108598 4291023073
-0.2588447332 -0.1814915240 0.5228587389 4291220452
-0.2589177489 -0.1809616238 0.5230062008 4291152867
-0.2589905858 -0.1804312766 0.5231533647 4291152867
-0.2594872713 -0.1801949143 0.5241566300 4291021794
-0.2595598698 -0.1796628088 0.5243033171 4290890208
-0.2600565553 -0.1794229448 0.5253065825 4291021794
-0.2601289451 -0.1788890809 0.5254527926 4291021794
-0.2606256306 -0.1786457151 0.5264560580 4290824415
-0.2606977820 -0.1781100780 0.5266017914 4290824415
-0.2611944675 -0.1778631955 0.5276051164 4290956001
-0.2608415484 -0.1770374626 0.5268922448 4290890208
-0.2609131634 -0.1765004992 0.5270369053 4290890208
-0.2614096701 -0.1762496829 0.5280398130 4290890208
-0.2614810467 -0.1757109463 0.5281839967 4290363864
-0.2615522444 -0.1751717925 0.5283278227 4290232278
-0.2616232634 -0.1746321768 0.5284712315 4290627036
-0.2621196210 -0.1743752062 0.5294739008 4291153380
-0.2621903718 -0.1738338470 0.5296168327 4290890206
