VERSION 0.7
FIELDS x y z rgba
SIZE 4 4 4 4
TYPE F F F U
COUNT 1 1 1 1
WIDTH 920
HEIGHT 1
VIEWPOINT 0.0 0.0 0.0 1.0 0.0 0.0 0.0
POINTS 920
DATA ascii
-0.2596468329 -0.1314945668 0.5733600259 4288393144
-0.2596993446 -0.1308839768 0.5734758973 4288064695
-0.2593476474 -0.1300704181 0.5726993084 4287998902
-0.2593996227 -0.1294600517 0.5728140473 4287736245
-0.2594513595 -0.1288492978 0.5729283094 4287341487
-0.2595028579 -0.1282382011 0.5730420947 4287013292
-0.2595541775 -0.1276267320 0.5731553435 4286947499
-0.2596052289 -0.1270149052 0.5732681155 4286618532
-0.2596560717 -0.1264027059 0.5733804107 4286223774
-0.2597067058 -0.1257901639 0.5734921694 4285370265
-0.2597571015 -0.1251772493 0.5736034513 4284843921
-0.2598072588 -0.1245639920 0.5737141967 4284251271
-0.2598571777 -0.1239503697 0.5738244653 4283527548
-0.2595020533 -0.1231442839 0.5730403066 4282738547
-0.2595514655 -0.1225309223 0.5731493831 4281949031
-0.2591956556 -0.1217270046 0.5723636746 4280373338
-0.2592445314 -0.1211139038 0.5724715590 4279649615
-0.2592931688 -0.1205004528 0.5725789666 4279191892
-0.2593415678 -0.1198866591 0.5726858974 4279784029
-0.2593897581 -0.1192725152 0.5727922916 4280378734
-0.2594377100 -0.1186580360 0.5728982091 4279852390
-0.2594854534 -0.1180432141 0.5730035901 4278737763
-0.2591274083 -0.1172445789 0.5722129941 4279132521
-0.2591746151 -0.1166300401 0.5723171830 4278542953
-0.2592215538 -0.1160151735 0.5724208951 4278937711
-0.2592682838 -0.1153999716 0.5725240707 4279273104
-0.2593147755 -0.1147844344 0.5726267099 4278220159
-0.2593610585 -0.1141685694 0.5727288723 4278283642
-0.2594070733 -0.1135523766 0.5728305578 4278283642
-0.2590468526 -0.1127591208 0.5720350742 4278284158
-0.2590923309 -0.1121432409 0.5721355081 4279139467
-0.2591376007 -0.1115270332 0.5722354650 4279141007
-0.2591826320 -0.1109105051 0.5723348856 4278483077
-0.2592274249 -0.1102936566 0.5724338293 4278745479
-0.2592719793 -0.1096764952 0.5725321770 4278613893
-0.2593162954 -0.1090590060 0.5726300478 4278616457
-0.2589538693 -0.1082712337 0.5718297362 4279932317
-0.2589976490 -0.1076540947 0.5719264150 4280129955
-0.2586345375 -0.1068686023 0.5711245537 4278419337
-0.2586777806 -0.1062518060 0.5712200403 4278877065
-0.2587207854 -0.1056346968 0.5713150501 4279140237
-0.2587635517 -0.1050172821 0.5714094639 4279075725
-0.2588060796 -0.1043995619 0.5715034008 4280128413
-0.2584413886 -0.1036183611 0.5706980824 4279473824
-0.2588904500 -0.1031632125 0.5716896653 4278881687
-0.2585251331 -0.1023833528 0.5708829761 4278947739
-0.2585666478 -0.1017654017 0.5709747076 4278881946
-0.2586079240 -0.1011471525 0.5710658431 4278947739
-0.2586489618 -0.1005286127 0.5711564422 4280000427
-0.2582823932 -0.0997524336 0.5703469515 4279410600
-0.2583228946 -0.0991342813 0.5704364181 4278950049
-0.2583631575 -0.0985158384 0.5705252886 4278883487
-0.2584031522 -0.0978971049 0.5706136823 4279015073
-0.2584429383 -0.0972780883 0.5707015395 4279276192
-0.2580747902 -0.0965063199 0.5698885322 4279802536
-0.2581140101 -0.0958877131 0.5699751973 4279606183
-0.2577452064 -0.0951183140 0.5691606998 4279145632
-0.2577838898 -0.0945001245 0.5692461729 4279015073
-0.2578223348 -0.0938816518 0.5693310499 4279080866
-0.2578605413 -0.0932629034 0.5694154501 4279146912
-0.2578985095 -0.0926438868 0.5694993138 4279475877
-0.2579362392 -0.0920245871 0.5695826411 4279540387
-0.2579737306 -0.0914050266 0.5696654320 4279343008
-0.2580109835 -0.0907851905 0.5697476268 4279539876
-0.2580479980 -0.0901650861 0.5698293447 4279671462
-0.2576763928 -0.0894030407 0.5690087676 4279342757
-0.2577128410 -0.0887833908 0.5690892935 4279803308
-0.2573405802 -0.0880237520 0.5682672262 4279605669
-0.2573764920 -0.0874045640 0.5683465600 4279605669
-0.2574121654 -0.0867851153 0.5684252977 4281247149
-0.2570389509 -0.0860286430 0.5676011443 4280983977
-0.2570740581 -0.0854096711 0.5676786900 4281966757
-0.2567001879 -0.0846556351 0.5668531060 4283414203
-0.2567347586 -0.0840371400 0.5669294596 4281901225
-0.2567690909 -0.0834183991 0.5670052767 4282559155
-0.2568031847 -0.0827994049 0.5670805573 4283019708
-0.2564280629 -0.0820493102 0.5662522316 4281440676
-0.2564616203 -0.0814308152 0.5663262606 4281702306
-0.2560858428 -0.0806831941 0.5654965043 4281636513
-0.2557097077 -0.0799373016 0.5646659136 4280979605
-0.2553332150 -0.0791931525 0.5638345480 4283874497
-0.2549563944 -0.0784507394 0.5630024076 4284399558
-0.2541699409 -0.0775851309 0.5612657070 4284860109
-0.2537923455 -0.0768472031 0.5604319572 4283152323
-0.2534144223 -0.0761110112 0.5595973730 4281178533
-0.2534455955 -0.0754985511 0.5596662164 4279606699
-0.2534765303 -0.0748858601 0.5597345233 4279804078
-0.2535072267 -0.0742729455 0.5598022938 4279672500
-0.2535376549 -0.0736598074 0.5598695278 4279475121
-0.2535678744 -0.0730464533 0.5599362254 4279346607
-0.2531881332 -0.0723158568 0.5590976477 4280465088
-0.2536275089 -0.0718190819 0.5600679517 4281253575
-0.2536569834 -0.0712050796 0.5601329803 4280990403
-0.2536861897 -0.0705908611 0.5601975322 4281647563
-0.2537151575 -0.0699764267 0.5602614880 4281647563
-0.2537438869 -0.0693617910 0.5603249073 4281318598
-0.2537723482 -0.0687469393 0.5603877902 4281252805
-0.2538005710 -0.0681318864 0.5604500771 4281646793
-0.2538285553 -0.0675166324 0.5605118871 4281449414
-0.2542663813 -0.0670092478 0.5614787340 4281777351
-0.2547040582 -0.0664996803 0.5624452233 4282303695
-0.2551415861 -0.0659879148 0.5634113550 4282566608
-0.2559891939 -0.0655790642 0.5652830601 4282303436
-0.2564264238 -0.0650619343 0.5662485361 4281776838
-0.2568635046 -0.0645426139 0.5672137141 4281908424
-0.2573004067 -0.0640211031 0.5681784749 4281909705
-0.2573267221 -0.0633963048 0.5682366490 4282436049
-0.2602259517 -0.0634721071 0.5746387839 4282696652
-0.2618940175 -0.0632364154 0.5783222914 4282301894
-0.2615095079 -0.0625019521 0.5774731636 4282367435
-0.2623563707 -0.0620606691 0.5793432593 4282564814
-0.2627925277 -0.0615190789 0.5803063512 4282958290
-0.2628178298 -0.0608801804 0.5803622603 4282760911
-0.2632535994 -0.0603352264 0.5813245177 4282827470
-0.2636891603 -0.0597880930 0.5822863579 4282959056
-0.2641245425 -0.0592387803 0.5832477808 4283680208
-0.2645597458 -0.0586872920 0.5842088461 4283877587
-0.2654055953 -0.0582237542 0.5860766768 4285909709
-0.2650187016 -0.0574886538 0.5852223039 4287093983
-0.2583598793 -0.1305290461 0.5719207525 4288787902
-0.2584119141 -0.1299197674 0.5720359683 4288722109
-0.2584637403 -0.1293101162 0.5721506476 4288327867
-0.2581120133 -0.1284993291 0.5713721514 4287998902
-0.2581633329 -0.1278899014 0.5714856982 4287736243
-0.2586178482 -0.1274789870 0.5724918246 4287604657
-0.2586687803 -0.1268678904 0.5726045966 4287407278
-0.2583158612 -0.1260594577 0.5718233585 4287209899
-0.2583662570 -0.1254485846 0.5719348788 4286553509
-0.2584164143 -0.1248373613 0.5720459819 4286290337
-0.2584663630 -0.1242257878 0.5721565485 4286157983
-0.2585161030 -0.1236138493 0.5722665787 4285829018
-0.2585655749 -0.1230015680 0.5723761320 4285564563
-0.2586148381 -0.1223889291 0.5724852085 4284972426
-0.2582597136 -0.1215856671 0.5716990829 4284248703
-0.2583084702 -0.1209732965 0.5718069673 4283590773
-0.2583569586 -0.1203605756 0.5719143152 4282144608
-0.2588096261 -0.1199349090 0.5729163885 4281552471
-0.2584532797 -0.1191340983 0.5721275806 4281292381
-0.2585011125 -0.1185203493 0.5722334385 4280437072
-0.2589533329 -0.1180907786 0.5732344389 4279126351
-0.2585960627 -0.1172918379 0.5724436045 4279652695
-0.2586432099 -0.1166770682 0.5725479722 4278998877
-0.2586900890 -0.1160619706 0.5726517439 4279985772
-0.2583318651 -0.1152658686 0.5718587637 4280056968
-0.2583782077 -0.1146510690 0.5719614029 4278806901
-0.2584243417 -0.1140359342 0.5720635056 4278611324
-0.2584702671 -0.1134204715 0.5721651316 4278282359
-0.2585159242 -0.1128046811 0.5722662210 4278219905
-0.2585613728 -0.1121885702 0.5723667741 4279272593
-0.2582012117 -0.1113972515 0.5715695620 4278549381
-0.2582461238 -0.1107814610 0.5716689825 4278219902
-0.2582907975 -0.1101653427 0.5717678666 4278809985
-0.2583352327 -0.1095489115 0.5718662143 4278546813
-0.2583794296 -0.1089321598 0.5719640255 4278613634
-0.2584233880 -0.1083150953 0.5720613599 4280784803
-0.2580613494 -0.1075286418 0.5712599754 4279470485
-0.2581047714 -0.1069119200 0.5713560581 4278352004
-0.2577420771 -0.1061277539 0.5705531836 4278745481
-0.2577849627 -0.1055113822 0.5706481338 4278942860
-0.2582336366 -0.1050598919 0.5716413260 4279075214
-0.2582761049 -0.1044419333 0.5717353821 4280325281
-0.2583183646 -0.1038236767 0.5718289018 4279209369
-0.2579541504 -0.1030428410 0.5710226297 4278617232
-0.2579958439 -0.1024249494 0.5711149573 4278947226
-0.2580372989 -0.1018067598 0.5712067485 4278815640
-0.2580785453 -0.1011882722 0.5712980032 4279145119
-0.2581195235 -0.1005694941 0.5713887215 4280329393
-0.2577537298 -0.0997930169 0.5705789924 4279277732
-0.2577941716 -0.0991746187 0.5706685185 4278948767
-0.2578343749 -0.0985559374 0.5707575083 4278882460
-0.2574676275 -0.0977824926 0.5699456334 4279079839
-0.2575072944 -0.0971642062 0.5700334311 4279144605
-0.2575467229 -0.0965456441 0.5701206923 4280065707
-0.2575859129 -0.0959267914 0.5702074766 4279408801
-0.2572178543 -0.0951570943 0.5693927407 4279014043
-0.2572565079 -0.0945386589 0.5694782734 4278949282
-0.2568877935 -0.0937713385 0.5686621070 4279015075
-0.2569259107 -0.0931533277 0.5687464476 4279212192
-0.2573710084 -0.0926816985 0.5697317719 4279475364
-0.2574086785 -0.0920621604 0.5698151588 4279409569
-0.2574461401 -0.0914423540 0.5698980689 4279146397
-0.2570759058 -0.0906785727 0.5690785050 4279343011
-0.2571128011 -0.0900592059 0.5691602230 4279540390
-0.2571494579 -0.0894395784 0.5692413449 4279474343
-0.2571858764 -0.0888196900 0.5693219304 4279540136
-0.2568144202 -0.0880597532 0.5684996247 4279474083
-0.2568502724 -0.0874403194 0.5685790181 4279342497
-0.2568859160 -0.0868206322 0.5686578751 4280000166
-0.2565134764 -0.0860638544 0.5678334832 4279868580
-0.2565485537 -0.0854446366 0.5679111481 4280262568
-0.2561754584 -0.0846903101 0.5670852661 4280854705
-0.2562099993 -0.0840715691 0.5671616793 4279871149
-0.2558362782 -0.0833196938 0.5663343668 4280397493
-0.2558702826 -0.0827014446 0.5664096475 4280595387
-0.2559040189 -0.0820829496 0.5664843321 4279411113
-0.2559375167 -0.0814642087 0.5665585399 4279671975
-0.2555625439 -0.0807162896 0.5657284260 4279737768
-0.2547789216 -0.0798421502 0.5639937520 4280261541
-0.2544031739 -0.0790986866 0.5631619692 4282498503
-0.2540270984 -0.0783569664 0.5623294711 4281574318
-0.2536506653 -0.0776169896 0.5614961982 4280784802
-0.2532738745 -0.0768787637 0.5606620908 4280786345
-0.2528967559 -0.0761422813 0.5598272681 4280786345
-0.2529278994 -0.0755295679 0.5598962307 4279542444
-0.2525501251 -0.0747956038 0.5590599775 4279476651
-0.2525807321 -0.0741834417 0.5591276884 4279542195
-0.2526110709 -0.0735710487 0.5591949224 4279410609
-0.2530499995 -0.0730764940 0.5601665378 4279412143
-0.2526710629 -0.0723456144 0.5593276620 4280333245
-0.2527006865 -0.0717325658 0.5593932271 4281057479
-0.2527300417 -0.0711193085 0.5594582558 4280925893
-0.2527591884 -0.0705058351 0.5595227480 4281057479
-0.2527880669 -0.0698921531 0.5595867038 4281123272
-0.2532258034 -0.0693903565 0.5605556965 4281122759
-0.2532542348 -0.0687752664 0.5606186390 4281122759
-0.2532824278 -0.0681599602 0.5606810451 4281384391
-0.2533103824 -0.0675444603 0.5607429147 4281187012
-0.2533380687 -0.0669287518 0.5608041883 4281711559
-0.2537748218 -0.0664199665 0.5617710352 4282435282
-0.2546207905 -0.0660151318 0.5636437535 4282501075
-0.2550572753 -0.0655009747 0.5646099448 4282303696
-0.2559030354 -0.0650887787 0.5664821863 4281384391
-0.2563392520 -0.0645692497 0.5674477816 4281515977
-0.2563657463 -0.0639453828 0.5675064921 4282237390
-0.2576207221 -0.0636247844 0.5702845454 4282895320
-0.2584660649 -0.0631978512 0.5721558332 4283353301
-0.2593113184 -0.0627667457 0.5740270019 4282695371
-0.2601565123 -0.0623314567 0.5758978724 4282300103
-0.2614113092 -0.0619891472 0.5786756277 4282563275
-0.2622563243 -0.0615445003 0.5805462003 4283023826
-0.2622816265 -0.0609053448 0.5806021690 4283089619
-0.2623066604 -0.0602660067 0.5806576014 4282762445
-0.2627412975 -0.0597196482 0.5816197991 4282894031
-0.2631757855 -0.0591711141 0.5825815797 4283614668
-0.2636100948 -0.0586204007 0.5835429430 4283746254
-0.2636341751 -0.0579773448 0.5835962892 4285449927
-0.2648881674 -0.0576016121 0.5863721967 4287226338
-0.2571778595 -0.1283498108 0.5707073212 4288919490
-0.2572290003 -0.1277411282 0.5708208680 4288656832
-0.2576825619 -0.1273310184 0.5718273520 4288459453
-0.2577333450 -0.1267206520 0.5719400644 4288065208
-0.2577838898 -0.1261099130 0.5720522404 4287736243
-0.2574313581 -0.1253027320 0.5712699294 4287867829
-0.2574813962 -0.1246922389 0.5713809133 4287604657
-0.2575311959 -0.1240813881 0.5714914799 4287341487
-0.2575807869 -0.1234701872 0.5716015100 4287012522
-0.2576301396 -0.1228586286 0.5717110038 4286748838
-0.2576792538 -0.1222467273 0.5718200207 4286551459
-0.2581314743 -0.1218248233 0.5728235841 4286354079
-0.2577768266 -0.1210218668 0.5720365644 4286025114
-0.2578252852 -0.1204089224 0.5721440315 4285827987
-0.2578735054 -0.1197956279 0.5722510815 4284972678
-0.2579214871 -0.1191819906 0.5723575354 4284184702
-0.2579692304 -0.1185680106 0.5724635124 4283132014
-0.2580167651 -0.1179536879 0.5725690126 4281753445
-0.2580640614 -0.1173390299 0.5726739764 4281227101
-0.2577072084 -0.1165413707 0.5718820691 4280045141
-0.2577539980 -0.1159270033 0.5719858408 4280176727
-0.2578005195 -0.1153123006 0.5720891356 4279654500
-0.2574426830 -0.1145174950 0.5712950230 4279259742
-0.2574886680 -0.1139030904 0.5713971257 4279198320
-0.2575344443 -0.1132883653 0.5714986920 4279000941
-0.2575799823 -0.1126733124 0.5715997219 4278677370
-0.2576253116 -0.1120579317 0.5717002749 4279532679
-0.2576703727 -0.1114422232 0.5718002915 4278284661
-0.2573106587 -0.1106522158 0.5710020065 4278218354
-0.2573551834 -0.1100368351 0.5711008906 4278350200
-0.2573994994 -0.1094211340 0.5711991787 4278350200
-0.2574435771 -0.1088051200 0.5712969899 4278548100
-0.2574874163 -0.1081887856 0.5713942647 4280061339
-0.2571260929 -0.1074030027 0.5705924630 4278417545
-0.2571693957 -0.1067870185 0.5706885457 4278285959
-0.2568073869 -0.1060035154 0.5698852539 4278745481
-0.2568501532 -0.1053878814 0.5699801445 4278613895
-0.2572978735 -0.1049371958 0.5709736943 4279208342
-0.2573402524 -0.1043199748 0.5710676908 4279866272
-0.2573823631 -0.1037024483 0.5711612105 4278748304
-0.2574242651 -0.1030846238 0.5712541342 4278485132
-0.2570604682 -0.1023051292 0.5704468489 4279011476
-0.2571018040 -0.1016876772 0.5705385804 4278879890
-0.2571429014 -0.1010699272 0.5706298351 4279340957
-0.2571837902 -0.1004518792 0.5707205534 4280130473
-0.2572244406 -0.0998335406 0.5708106756 4279078298
-0.2568590343 -0.0990584195 0.5699998736 4278946712
-0.2568991482 -0.0984404758 0.5700888634 4278749847
-0.2569389939 -0.0978222415 0.5701773167 4278947226
-0.2569786310 -0.0972037166 0.5702652335 4279473824
-0.2566119730 -0.0964323282 0.5694515705 4280000168
-0.2566510439 -0.0958142132 0.5695382953 4279210650
-0.2566898763 -0.0951958224 0.5696244836 4279079064
-0.2563222647 -0.0944275036 0.5688086748 4279013535
-0.2563605607 -0.0938095301 0.5688936710 4279145121
-0.2568049729 -0.0933389664 0.5698798299 4279671973
-0.2568428516 -0.0927194655 0.5699639320 4279671973
-0.2564740181 -0.0919539556 0.5691454411 4279409055
-0.2565113604 -0.0913348943 0.5692282915 4279211676
-0.2565484345 -0.0907155573 0.5693106055 4279408291
-0.2565853000 -0.0900959522 0.5693923831 4279539877
-0.2566218972 -0.0894760787 0.5694736242 4279670950
-0.2566582859 -0.0888559446 0.5695543289 4279802536
-0.2562876046 -0.0880957097 0.5687317848 4279737509
-0.2563234270 -0.0874760374 0.5688112378 4279671716
-0.2563590109 -0.0868560970 0.5688902140 4279606952
-0.2559873760 -0.0860990286 0.5680655241 4279475366
-0.2560223937 -0.0854795650 0.5681432486 4279213481
-0.2556501031 -0.0847249329 0.5673171282 4279410860
-0.2556846142 -0.0841059536 0.5673936605 4279476394
-0.2553116679 -0.0833537802 0.5665660501 4279607980
-0.2549383640 -0.0826033279 0.5657376647 4279936177
-0.2553793192 -0.0821165442 0.5667161942 4279607212
-0.2550054491 -0.0813675821 0.5658864975 4279540906
-0.2550386190 -0.0807493404 0.5659601092 4279475113
-0.2542566061 -0.0798748508 0.5642247796 4280524461
-0.2538816631 -0.0791310966 0.5633927584 4282169286
-0.2535063922 -0.0783890784 0.5625599027 4283613904
-0.2531307340 -0.0776488110 0.5617263317 4281574321
-0.2527547777 -0.0769102871 0.5608919859 4280063390
-0.2523784339 -0.0761735067 0.5600568652 4279734425
-0.2524095476 -0.0755605549 0.5601258874 4279410084
-0.2520325780 -0.0748263001 0.5592893958 4279673256
-0.2520631254 -0.0742138848 0.5593572259 4279738283
-0.2520934641 -0.0736012533 0.5594244599 4279606697
-0.2525314987 -0.0731065050 0.5603965521 4279543726
-0.2521533668 -0.0723753273 0.5595574379 4280464828
-0.2521829307 -0.0717620328 0.5596230626 4281057478
-0.2522122860 -0.0711485296 0.5596881509 4281057478
-0.2522413731 -0.0705348104 0.5597527623 4280926662
-0.2522702217 -0.0699208826 0.5598167777 4280926662
-0.2522988319 -0.0693067461 0.5598802567 4281122758
-0.2527354956 -0.0688035488 0.5608491898 4281122758
-0.2527636290 -0.0681880042 0.5609117150 4281384391
-0.2527915537 -0.0675722510 0.5609736443 4281384391
-0.2528192103 -0.0669562966 0.5610350370 4281712328
-0.2532550991 -0.0664473101 0.5620023012 4282567637
-0.2540993690 -0.0660423115 0.5638757944 4282501844
-0.2545349598 -0.0655279532 0.5648424625 4282304465
-0.2549704313 -0.0650114045 0.5658088326 4281318598
-0.2562229931 -0.0646990389 0.5685884356 4281581770
-0.2566581964 -0.0641761199 0.5695542097 4281647309
-0.2579107285 -0.0638533980 0.5723336339 4281910481
-0.2587544322 -0.0634243041 0.5742059946 4282434509
-0.2600068748 -0.0630902201 0.5769852996 4281973958
-0.2604416013 -0.0625535622 0.5779500008 4282038471
-0.2608761787 -0.0620147213 0.5789143443 4282499022
-0.2613105476 -0.0614736900 0.5798782706 4282892497
-0.2613357604 -0.0608352758 0.5799342394 4282958290
-0.2617697418 -0.0602908805 0.5808972716 4282827208
-0.2622035146 -0.0597443022 0.5818598866 4283156173
-0.2618189454 -0.0590111353 0.5810064673 4284662730
-0.2634796798 -0.0587358139 0.5846918225 4284728523
-0.2635037899 -0.0580914952 0.5847453475 4286629061
-0.2639368474 -0.0575362034 0.5857063532 4289129195
-0.2567989230 -0.1265731901 0.5712744594 4288854211
-0.2564473748 -0.1257660538 0.5704924464 4288591039
-0.2564975023 -0.1251566559 0.5706039071 4288591552
-0.2565473914 -0.1245468855 0.5707148910 4288394173
-0.2569992542 -0.1241310313 0.5717201233 4288262589
-0.2570487559 -0.1235195994 0.5718302727 4288065210
-0.2570980489 -0.1229078174 0.5719398856 4287670452
-0.2571471035 -0.1222956926 0.5720490813 4287538866
-0.2571959496 -0.1216832101 0.5721576810 4287407280
-0.2572445571 -0.1210703775 0.5722658634 4287078315
-0.2568902969 -0.1202686951 0.5714777708 4286684327
-0.2569383681 -0.1196561307 0.5715847015 4286421155
-0.2569862306 -0.1190432310 0.5716911554 4286027165
-0.2566309869 -0.1182443574 0.5709008574 4285632407
-0.2566783130 -0.1176317334 0.5710061789 4284909454
-0.2567254007 -0.1170187667 0.5711109042 4284054145
-0.2567722499 -0.1164054647 0.5712151527 4283133041
-0.2564157248 -0.1156100556 0.5704220533 4282540904
-0.2564620674 -0.1149970517 0.5705251098 4280637280
-0.2565081716 -0.1143837199 0.5706276894 4280045143
-0.2565540373 -0.1137700528 0.5707297325 4279454807
-0.2565996945 -0.1131560579 0.5708312392 4278928463
-0.2566450834 -0.1125417352 0.5709322691 4279325019
-0.2562866807 -0.1117511019 0.5701349378 4280246121
-0.2563315630 -0.1111370996 0.5702347755 4279131492
-0.2563762069 -0.1105227768 0.5703340769 4279197285
-0.2564206123 -0.1099081337 0.5704329014 4278216558
-0.2564647794 -0.1092931703 0.5705311894 4278479730
-0.2565087378 -0.1086778864 0.5706289411 4278615176
-0.2565524578 -0.1080622897 0.5707262158 4278944141
-0.2561918497 -0.1072771698 0.5699239969 4278219649
-0.2562350333 -0.1066619232 0.5700200200 4278219906
-0.2562779784 -0.1060463563 0.5701155663 4278547330
-0.2567249835 -0.1055967808 0.5711099505 4278415744
-0.2567675114 -0.1049796343 0.5712046027 4279341215
-0.2564054132 -0.1041978225 0.5703990459 4279012250
-0.2564474046 -0.1035810411 0.5704925060 4278221706
-0.2564891875 -0.1029639468 0.5705854297 4278353292
-0.2565307021 -0.1023465544 0.5706778169 4278747532
-0.2565720081 -0.1017288715 0.5707696676 4278813325
-0.2566130757 -0.1011108831 0.5708610415 4279471514
-0.2566539049 -0.1004925966 0.5709518790 4279537307
-0.2562896013 -0.0997164920 0.5701414347 4278748304
-0.2563298941 -0.0990986004 0.5702310801 4278748304
-0.2563699186 -0.0984804109 0.5703201294 4278880919
-0.2564097345 -0.0978619382 0.5704087019 4279012505
-0.2560441792 -0.0970895588 0.5695954561 4280263086
-0.2560834587 -0.0964714885 0.5696828365 4279605156
-0.2561224699 -0.0958531350 0.5697696805 4279078298
-0.2557559311 -0.0950838178 0.5689542890 4279144091
-0.2561998069 -0.0946155861 0.5699416995 4279078815
-0.2562381327 -0.0939963982 0.5700269341 4279144608
-0.2562761903 -0.0933769271 0.5701116323 4279935145
-0.2563140392 -0.0927571803 0.5701957941 4279671973
-0.2559459805 -0.0919913799 0.5693770647 4279080606
-0.2559832931 -0.0913720727 0.5694600344 4278883227
-0.2560203373 -0.0907524899 0.5695424080 4279343011
-0.2560571432 -0.0901326463 0.5696243048 4279408804
-0.2560937107 -0.0895125344 0.5697056651 4279802538
-0.2557241023 -0.0887512788 0.5688834786 4279802538
-0.2557601333 -0.0881316215 0.5689635873 4279605669
-0.2553898990 -0.0873727947 0.5681399703 4279539876
-0.2554253638 -0.0867535993 0.5682188869 4279343780
-0.2554606199 -0.0861341506 0.5682972670 4279409573
-0.2554956079 -0.0855144486 0.5683751106 4279212968
-0.2551241219 -0.0847595185 0.5675486922 4279278761
-0.2547522485 -0.0840063095 0.5667214990 4279671716
-0.2551927865 -0.0835208148 0.5677014589 4279540130
-0.2548203170 -0.0827690810 0.5668728948 4279867559
-0.2544475198 -0.0820190832 0.5660435557 4280064938
-0.2544808984 -0.0814008415 0.5661178231 4279802797
-0.2541074455 -0.0806533098 0.5652870536 4279671211
-0.2537336648 -0.0799075216 0.5644555092 4280327601
-0.2529528439 -0.0790363997 0.5627185106 4280985531
-0.2525782883 -0.0782950744 0.5618852973 4282694860
-0.2526102066 -0.0776805878 0.5619562268 4283286997
-0.2522350252 -0.0769417658 0.5611215830 4282302921
-0.2518594861 -0.0762047023 0.5602862239 4280329131
-0.2514836192 -0.0754693821 0.5594500303 4279673254
-0.2515143752 -0.0748569518 0.5595185161 4279870633
-0.2515448928 -0.0742442980 0.5595864058 4279738538
-0.2515752017 -0.0736314207 0.5596537590 4279541159
-0.2516052127 -0.0730183199 0.5597205758 4279215274
-0.2516350150 -0.0724050030 0.5597868562 4280399548
-0.2516645789 -0.0717914701 0.5598526001 4280991685
-0.2516938746 -0.0711777210 0.5599178076 4281057478
-0.2517229319 -0.0705637559 0.5599824190 4281057478
-0.2517517507 -0.0699495822 0.5600465536 4281123271
-0.2517803013 -0.0693351999 0.5601100922 4281187781
-0.2518086433 -0.0687206089 0.5601730943 4281187781
-0.2518367171 -0.0681058094 0.5602355599 4281384390
-0.2522720993 -0.0676000118 0.5612040758 4281450183
-0.2527073026 -0.0670920238 0.5621722937 4281581000
-0.2531423867 -0.0665818378 0.5631400943 4282370516
-0.2535772622 -0.0660694614 0.5641075969 4282304723
-0.2540120184 -0.0655548945 0.5650747418 4282041551
-0.2544465959 -0.0650381371 0.5660414696 4281317827
-0.2552888095 -0.0646224245 0.5679150820 4281646792
-0.2561309636 -0.0642025173 0.5697885156 4281580750
-0.2569730282 -0.0637784377 0.5716617703 4281646543
-0.2578150034 -0.0633501709 0.5735348463 4281843144
-0.2590648532 -0.0630169585 0.5763152242 4281382593
-0.2594986558 -0.0624810793 0.5772803426 4281776839
-0.2599323094 -0.0619430169 0.5782449841 4282632148
-0.2603657544 -0.0614027716 0.5792092681 4283025366
-0.2599827647 -0.0606698543 0.5783572793 4282959573
-0.2612321377 -0.0603157245 0.5811366439 4283351496
-0.2616650760 -0.0597689264 0.5820996761 4283351496
-0.2625060678 -0.0593121909 0.5839705467 4285907658
-0.2621220648 -0.0585775487 0.5831163526 4286697174
-0.2625544071 -0.0580252111 0.5840781331 4289124316
-0.2625781894 -0.0573814549 0.5841310024 4291690239
-0.2557134032 -0.1282511503 0.5702686310 4290233552
-0.2561146617 -0.1233755797 0.5711634755 4288854724
-0.2561638057 -0.1227645278 0.5712730885 4288722111
-0.2562127411 -0.1221531257 0.5713822246 4288524732
-0.2562614381 -0.1215413809 0.5714908242 4288327099
-0.2563099265 -0.1209292859 0.5715989470 4287998134
-0.2559563518 -0.1201282591 0.5708104372 4287867318
-0.2560043037 -0.1195164248 0.5709173679 4287933111
-0.2560520172 -0.1189042553 0.5710237622 4287210928
-0.2560994923 -0.1182917431 0.5711296797 4286947756
-0.2557446361 -0.1174941510 0.5703383088 4286619556
-0.2557916045 -0.1168819219 0.5704430342 4286224798
-0.2558383346 -0.1162693575 0.5705472827 4286092952
-0.2554824948 -0.1154746115 0.5697537065 4285632401
-0.2555287182 -0.1148623377 0.5698567629 4284253066
-0.2555746734 -0.1142497361 0.5699592829 4283660929
-0.2556204200 -0.1136368066 0.5700612664 4282345582
-0.2556659281 -0.1130235493 0.5701627731 4281095515
-0.2557112277 -0.1124099642 0.5702638030 4280831318
-0.2553535104 -0.1116199940 0.5694660544 4280633939
-0.2553982437 -0.1110067293 0.5695658326 4279780947
-0.2554427683 -0.1103931367 0.5696651340 4279715154
-0.2554870546 -0.1097792313 0.5697638988 4278998112
-0.2555311322 -0.1091650054 0.5698621273 4279327077
-0.2555749416 -0.1085504591 0.5699598789 4279595390
-0.2556185424 -0.1079356000 0.5700570941 4279463804
-0.2556619048 -0.1073204279 0.5701537728 4278742393
-0.2557050288 -0.1067049429 0.5702499747 4278545014
-0.2557479143 -0.1060891449 0.5703455806 4278349173
-0.2557905614 -0.1054730415 0.5704407096 4278678138
-0.2558329999 -0.1048566252 0.5705353618 4279538337
-0.2554715872 -0.1040754914 0.5697293878 4278419856
-0.2555134892 -0.1034594402 0.5698227882 4278220163
-0.2555551231 -0.1028430909 0.5699156523 4278352006
-0.2555965483 -0.1022264361 0.5700080395 4278483590
-0.2556377351 -0.1016094834 0.5700998902 4279009934
-0.2556786537 -0.1009922400 0.5701912045 4279472025
-0.2557193637 -0.1003746912 0.5702819824 4278945681
-0.2557598352 -0.0997568518 0.5703722239 4278485132
-0.2553959787 -0.0989821032 0.5695607662 4278550925
-0.2554359138 -0.0983646587 0.5696498156 4278618261
-0.2554756105 -0.0977469236 0.5697383285 4278947226
-0.2551107705 -0.0969752222 0.5689246655 4280329393
-0.2551499307 -0.0963578895 0.5690120459 4278881947
-0.2551888227 -0.0957402810 0.5690988302 4278814873
-0.2552275062 -0.0951223895 0.5691850781 4279078045
-0.2548614144 -0.0943544433 0.5683686137 4279078045
-0.2553041577 -0.0938857570 0.5693560243 4279209631
-0.2553421259 -0.0932670310 0.5694406629 4280000941
-0.2553798556 -0.0926480293 0.5695247650 4279408804
-0.2554173172 -0.0920287520 0.5696083903 4278751900
-0.2550497353 -0.0912643373 0.5687885880 4278686107
-0.2550866604 -0.0906454995 0.5688709617 4279145632
-0.2551233768 -0.0900263935 0.5689527988 4279343011
-0.2551598251 -0.0894070193 0.5690341592 4280066480
-0.2551960647 -0.0887873843 0.5691149235 4279671722
-0.2552320361 -0.0881674886 0.5691951513 4279276964
-0.2548625767 -0.0874083638 0.5683712363 4279342757
-0.2544927597 -0.0866509452 0.5675464869 4279473056
-0.2545278966 -0.0860322416 0.5676248670 4279670435
-0.2545627952 -0.0854132771 0.5677027106 4280325794
-0.2550028563 -0.0849290788 0.5686841011 4280457380
-0.2542264163 -0.0840405524 0.5669524670 4279800728
-0.2542605102 -0.0834218189 0.5670285821 4279800728
-0.2542943954 -0.0828028396 0.5671041012 4280194208
-0.2539224029 -0.0820525363 0.5662744641 4280391587
-0.2535500526 -0.0813039690 0.5654441118 4279737258
-0.2535830736 -0.0806862339 0.5655177832 4279737258
-0.2532100677 -0.0799401402 0.5646859407 4279606447
-0.2528367341 -0.0791957974 0.5638533831 4279343275
-0.2524630427 -0.0784531906 0.5630199909 4279605929
-0.2520889938 -0.0777123272 0.5621858239 4280198066
-0.2517146170 -0.0769732147 0.5613509417 4280331702
-0.2513398826 -0.0762358531 0.5605152845 4279542186
-0.2509648204 -0.0755002424 0.5596787930 4279279014
-0.2514016926 -0.0750087500 0.5606530905 4279476393
-0.2514322400 -0.0743948594 0.5607211590 4279673773
-0.2510562837 -0.0736615509 0.5598827600 4279476394
-0.2510862947 -0.0730482042 0.5599496961 4278887337
-0.2511160374 -0.0724346489 0.5600160360 4280597955
-0.2507391572 -0.0717046559 0.5591755509 4280926409
-0.2511748075 -0.0712068751 0.5601471066 4280860616
-0.2512038350 -0.0705926642 0.5602118373 4281057225
-0.2512326241 -0.0699782446 0.5602760315 4281057225
-0.2512611449 -0.0693636164 0.5603396297 4281319368
-0.2512894273 -0.0687487796 0.5604027510 4281450954
-0.2513174713 -0.0681337342 0.5604652762 4281187782
-0.2521587014 -0.0677369907 0.5623412728 4281253575
-0.2521863282 -0.0671195462 0.5624029040 4281319368
-0.2526205182 -0.0666091591 0.5633711815 4281911505
-0.2526476979 -0.0659903139 0.5634317994 4282173907
-0.2530815303 -0.0654765368 0.5643993020 4281844942
-0.2539221346 -0.0650648400 0.5662738681 4281448901
-0.2543556690 -0.0645456836 0.5672407150 4281843659
-0.2547890246 -0.0640243441 0.5682072043 4282629588
-0.2552222311 -0.0635008067 0.5691733360 4282366416
-0.2560623884 -0.0630753636 0.5710468888 4282037954
-0.2577166855 -0.0628442913 0.5747361779 4281248438
-0.2581495643 -0.0623102039 0.5757015347 4281774528
-0.2589894533 -0.0618712045 0.5775746107 4283221974
-0.2594220042 -0.0613317415 0.5785392523 4283746266
-0.2598543763 -0.0607900918 0.5795034766 4283680473
-0.2602865696 -0.0602462552 0.5804672837 4284335307
-0.2607185841 -0.0597002394 0.5814307332 4284861651
-0.2611504197 -0.0591520406 0.5823937654 4288797924
-0.2607671618 -0.0584191009 0.5815390944 4290113784
-0.2611985505 -0.0578685440 0.5825011134 4291951358
-0.2553763092 -0.1207879782 0.5709310174 4289050302
-0.2554244101 -0.1201762632 0.5710385442 4288721596
-0.2550712228 -0.1193765104 0.5702490211 4288787389
-0.2551188171 -0.1187650785 0.5703553557 4288065978
-0.2551661730 -0.1181532964 0.5704612136 4287802806
-0.2548120320 -0.1173563674 0.5696694851 4287474865
-0.2548588514 -0.1167448759 0.5697741508 4287145900
-0.2549054325 -0.1161330417 0.5698783398 4287013799
-0.2549518049 -0.1155208796 0.5699819922 4286750627
-0.2549979687 -0.1149083823 0.5700851679 4286356130
-0.2550438643 -0.1142955497 0.5701878071 4286092958
-0.2550895512 -0.1136823893 0.5702899694 4285304723
-0.2551349998 -0.1130689010 0.5703915954 4284778379
-0.2547783852 -0.1122779921 0.5695942640 4284448133
-0.2548232973 -0.1116648167 0.5696946979 4283592824
-0.2548680007 -0.1110513210 0.5697945952 4282277742
-0.2549124658 -0.1104374975 0.5698940158 4281488226
-0.2549566925 -0.1098233610 0.5699928999 4279715156
-0.2550006807 -0.1092088968 0.5700913072 4279649363
-0.2550444603 -0.1085941270 0.5701891184 4279848282
-0.2546856403 -0.1078087166 0.5693869591 4279979868
-0.2551313043 -0.1073636264 0.5703832507 4279588191
-0.2551743686 -0.1067479029 0.5704795718 4279522398
-0.2552171946 -0.1061318740 0.5705753565 4278739303
-0.2552598119 -0.1055155396 0.5706705451 4279528819
-0.2548995018 -0.1047334373 0.5698650479 4279795598
-0.2549415529 -0.1041174531 0.5699591041 4278940289
-0.2549833953 -0.1035011709 0.5700526237 4278874239
-0.2550249994 -0.1028845832 0.5701456070 4278874239
-0.2550663650 -0.1022676975 0.5702381134 4278416768
-0.2551074922 -0.1016505063 0.5703300238 4279337870
-0.2547453046 -0.1008734107 0.5695202947 4279143060
-0.2547858953 -0.1002566069 0.5696110725 4278287751
-0.2548262477 -0.0996395051 0.5697013140 4278287238
-0.2548663616 -0.0990221202 0.5697909594 4278418824
-0.2549062371 -0.0984044373 0.5698801279 4278550923
-0.2545424998 -0.0976317376 0.5690669417 4279340439
-0.2545818388 -0.0970144570 0.5691548586 4279802789
-0.2546209395 -0.0963968933 0.5692422986 4278289550
-0.2546598017 -0.0957790390 0.5693292022 4278748051
-0.2551020980 -0.0953117162 0.5703179836 4279077016
-0.2547368407 -0.0945424959 0.5695014000 4279076758
-0.2547749877 -0.0939238071 0.5695866942 4279603102
-0.2548128963 -0.0933048353 0.5696714520 4279934635
-0.2548505962 -0.0926855952 0.5697556734 4278947740
-0.2544840872 -0.0919201672 0.5689363480 4278882460
-0.2545212209 -0.0913013592 0.5690193176 4278750874
-0.2541540563 -0.0905383453 0.5681985021 4278947226
-0.2541906536 -0.0899199843 0.5682803392 4279539363
-0.2542270124 -0.0893013552 0.5683615804 4280263602
-0.2546673417 -0.0888234451 0.5693460703 4279408293
-0.2542989850 -0.0880632997 0.5685225129 4279210914
-0.2539302707 -0.0873048604 0.5676982403 4279474086
-0.2539656162 -0.0866861716 0.5677772164 4279863703
-0.2540006936 -0.0860672221 0.5678556561 4280390047
-0.2544400692 -0.0855840817 0.5688379407 4282423200
-0.2536655962 -0.0846934766 0.5671064854 4282686372
-0.2536998987 -0.0840747580 0.5671831965 4282422680
-0.2537339926 -0.0834557787 0.5672593713 4282225301
-0.2537678182 -0.0828365535 0.5673350096 4282158746
-0.2533966005 -0.0820859596 0.5665051341 4282092953
-0.2530250549 -0.0813370943 0.5656744838 4280586913
-0.2530580461 -0.0807191133 0.5657482147 4280652706
-0.2526858449 -0.0799727291 0.5649161339 4279933354
-0.2523133159 -0.0792280808 0.5640832186 4279867561
-0.2519404292 -0.0784851834 0.5632495880 4280064940
-0.2515671849 -0.0777440295 0.5624151826 4280064940
-0.2515987456 -0.0771288201 0.5624857545 4280066220
-0.2512248755 -0.0763901770 0.5616499186 4280000427
-0.2508506477 -0.0756532848 0.5608132482 4280131500
-0.2508814037 -0.0750393718 0.5608819723 4279868328
-0.2509118915 -0.0744252428 0.5609501600 4279606697
-0.2505367398 -0.0736916438 0.5601114631 4279606697
-0.2505667210 -0.0730780512 0.5601784587 4279216561
-0.2505964339 -0.0724642500 0.5602449179 4281256144
-0.2502203584 -0.0717339665 0.5594041348 4281124560
-0.2502495348 -0.0711207241 0.5594694018 4280861388
-0.2506841123 -0.0706215352 0.5604409575 4280992204
-0.2507128716 -0.0700068697 0.5605052114 4280926411
-0.2507413626 -0.0693919957 0.5605689287 4281254347
-0.2507696152 -0.0687769130 0.5606321096 4281385933
-0.2516092658 -0.0683822110 0.5625092387 4281450954
-0.2516371012 -0.0677647218 0.5625715256 4281450954
-0.2520706356 -0.0672553331 0.5635406971 4281582540
-0.2520980239 -0.0666364431 0.5636019707 4281977298
-0.2521251738 -0.0660173520 0.5636626482 4282174164
-0.2525581419 -0.0655033737 0.5646305680 4281910992
-0.2529909313 -0.0649871975 0.5655981302 4281778121
-0.2538296580 -0.0645721480 0.5674732924 4282238672
-0.2542621791 -0.0640505925 0.5684401989 4283483607
-0.2546944916 -0.0635268539 0.5694067478 4281970368
-0.2555329204 -0.0631012395 0.5712811351 4281444015
-0.2575901151 -0.0629694015 0.5758803487 4281312429
-0.2580221593 -0.0624340959 0.5768461823 4282757566
-0.2584539950 -0.0618965998 0.5778116584 4284073426
-0.2588856816 -0.0613569207 0.5787767768 4284201678
-0.2589107156 -0.0607197322 0.5788327456 4283609541
-0.2593420148 -0.0601766780 0.5797969103 4283539112
-0.2593665719 -0.0595381223 0.5798518658 4284657593
-0.2602040172 -0.0590840243 0.5817241073 4289119436
-0.2598215640 -0.0583517887 0.5808690190 4291093226
-0.2541866601 -0.1186256856 0.5696859360 4288789953
-0.2542338669 -0.1180146411 0.5697917938 4288526781
-0.2542808652 -0.1174032614 0.5698971152 4288198334
-0.2539271116 -0.1166076139 0.5691042542 4288000955
-0.2539735734 -0.1159965172 0.5692084432 4287540147
-0.2540198267 -0.1153850928 0.5693120360 4287474354
-0.2540658414 -0.1147733331 0.5694151521 4287014830
-0.2541116178 -0.1141612381 0.5695177913 4286751658
-0.2541571558 -0.1135488153 0.5696198940 4286685863
-0.2542024851 -0.1129360646 0.5697214603 4286488484
-0.2538465559 -0.1121458188 0.5689237714 4286290080
-0.2538913786 -0.1115333810 0.5690241456 4285829529
-0.2539359331 -0.1109206229 0.5691240430 4285040789
-0.2539802790 -0.1103075370 0.5692234039 4284580238
-0.2540243566 -0.1096941382 0.5693222284 4283267458
-0.2540682554 -0.1090804189 0.5694205761 4282412149
-0.2545133233 -0.1086377352 0.5704181194 4281358174
-0.2541553080 -0.1078520268 0.5696156621 4280897623
-0.2541984916 -0.1072373614 0.5697124600 4280305231
-0.2542414367 -0.1066223755 0.5698087215 4280107852
-0.2542841434 -0.1060070843 0.5699044466 4279389271
-0.2543266118 -0.1053914875 0.5699996352 4279981408
-0.2543688715 -0.1047755778 0.5700943470 4279329649
-0.2540089786 -0.1039948165 0.5692877173 4279066477
-0.2540506721 -0.1033792719 0.5693812370 4279593080
-0.2540921569 -0.1027634218 0.5694741607 4279593080
-0.2541334033 -0.1021472737 0.5695666075 4278743679
-0.2541744113 -0.1015308276 0.5696585178 4279730574
-0.2538129687 -0.1007544100 0.5688484311 4278747789
-0.2538534403 -0.1001383439 0.5689391494 4278219389
-0.2538936734 -0.0995219871 0.5690293312 4278219648
-0.2539336681 -0.0989053324 0.5691189766 4278483077
-0.2539734542 -0.0982883945 0.5692081451 4278417795
-0.2540129721 -0.0976711586 0.5692967176 4279667862
-0.2540522814 -0.0970536470 0.5693847537 4279340437
-0.2540913224 -0.0964358374 0.5694723129 4278221956
-0.2541301548 -0.0958177522 0.5695593357 4278812555
-0.2541687489 -0.0951993838 0.5696458220 4279009934
-0.2542070746 -0.0945807323 0.5697317123 4279271823
-0.2538422644 -0.0938128904 0.5689141154 4280061339
-0.2538800538 -0.0931946635 0.5689988136 4279998887
-0.2539176345 -0.0925761610 0.5690830350 4278683027
-0.2539549768 -0.0919573903 0.5691666603 4278815640
-0.2535888851 -0.0911933631 0.5683462620 4278815640
-0.2536256909 -0.0905750245 0.5684286952 4279077267
-0.2532589436 -0.0898134112 0.5676068068 4280064162
-0.2532952130 -0.0891955197 0.5676880479 4280328365
-0.2537346184 -0.0887184218 0.5686728358 4279275677
-0.2533669770 -0.0879589617 0.5678489208 4279341217
-0.2534025311 -0.0873402879 0.5679285526 4279801768
-0.2534378171 -0.0867213532 0.5680076480 4280189069
-0.2530692518 -0.0859650522 0.5671815872 4280978585
-0.2535076737 -0.0854827166 0.5681642294 4284258718
-0.2535422444 -0.0848630145 0.5682416558 4284850855
-0.2531727850 -0.0841089115 0.5674136281 4284258197
-0.2532067895 -0.0834896937 0.5674899220 4283995025
-0.2528367043 -0.0827380568 0.5666604042 4283994522
-0.2528701723 -0.0821193308 0.5667354465 4283994522
-0.2524994314 -0.0813701749 0.5659044981 4281636511
-0.2525323927 -0.0807519481 0.5659783483 4280978581
-0.2521609962 -0.0800052658 0.5651459694 4279537820
-0.2521933913 -0.0793875530 0.5652186275 4279800992
-0.2518213689 -0.0786433667 0.5643848181 4279670435
-0.2514489591 -0.0779009312 0.5635502338 4279867814
-0.2510762513 -0.0771602392 0.5627148747 4279737507
-0.2511075139 -0.0765445605 0.5627849698 4279737507
-0.2503297627 -0.0756841153 0.5610418320 4280000166
-0.2503604591 -0.0750699639 0.5611106157 4279868580
-0.2503909171 -0.0744555816 0.5611789227 4279345831
-0.2500165701 -0.0737216920 0.5603399277 4279280038
-0.2500464916 -0.0731078684 0.5604069829 4279413429
-0.2500761747 -0.0724938139 0.5604735017 4281716184
-0.2497009188 -0.0717632398 0.5596324801 4281190353
-0.2497300655 -0.0711497515 0.5596978068 4280861388
-0.2497589588 -0.0705360547 0.5597625375 4281057997
-0.2497876287 -0.0699221417 0.5598267913 4281057997
-0.2502209246 -0.0694203451 0.5607979298 4281385931
-0.2506540716 -0.0689163506 0.5617687106 4281385931
-0.2506820858 -0.0682998225 0.5618314743 4281384648
-0.2511148751 -0.0677924231 0.5628014803 4281318855
-0.2515475154 -0.0672828332 0.5637711287 4281450954
-0.2511697710 -0.0665563419 0.5629245043 4281648333
-0.2520071566 -0.0661507025 0.5648012757 4281910734
-0.2524392903 -0.0656355247 0.5657697320 4281581769
-0.2528712451 -0.0651181489 0.5667378306 4281778119
-0.2537083030 -0.0647019371 0.5686138868 4282304463
-0.2541399896 -0.0641791746 0.5695813298 4283017663
-0.2553822100 -0.0638569444 0.5723654628 4281175459
-0.2562190294 -0.0634281635 0.5742409825 4281306519
-0.2566503286 -0.0628958344 0.5752075315 4282030242
-0.2570814192 -0.0623613149 0.5761737823 4283211695
-0.2567013204 -0.0616298802 0.5753217936 4283409074
-0.2579431236 -0.0612857081 0.5781050324 4282879652
-0.2579680979 -0.0606492646 0.5781610012 4282287515
-0.2583984733 -0.0601069927 0.5791255236 4283665816
-0.2580172718 -0.0593758263 0.5782712102 4285310641
-0.2588529289 -0.0589235462 0.5801441073 4289247680
-0.2584711909 -0.0581930205 0.5792885423 4290958298
-0.2529498637 -0.1170801669 0.5683287978 4288723392
-0.2529964447 -0.1164701506 0.5684334040 4288591806
-0.2530427575 -0.1158597916 0.5685374737 4288263355
-0.2530888617 -0.1152491048 0.5686410666 4288065976
-0.2531347573 -0.1146380752 0.5687441230 4287999417
-0.2527804375 -0.1138465852 0.5679480433 4287867831
-0.2528257668 -0.1132358685 0.5680499673 4287539636
-0.2528709173 -0.1126248240 0.5681513548 4287276464
-0.2529157996 -0.1120134443 0.5682522058 4287013549
-0.2529604733 -0.1114017516 0.5683525801 4286750377
-0.2530049086 -0.1107897311 0.5684524179 4286421925
-0.2526487112 -0.1100030541 0.5676521659 4286224546
-0.2530930936 -0.1095647216 0.5686505437 4285698972
-0.2531368434 -0.1089517400 0.5687488317 4285238421
-0.2531803548 -0.1083384380 0.5688466430 4284580748
-0.2532236576 -0.1077248305 0.5689438581 4283922818
-0.2528659701 -0.1069414169 0.5681402683 4283002486
-0.2529087067 -0.1063281521 0.5682362914 4282147177
-0.2529512346 -0.1057145745 0.5683318377 4281226075
-0.2529935241 -0.1051006839 0.5684269071 4280568145
-0.2530356050 -0.1044864878 0.5685213804 4279780934
-0.2530774176 -0.1038719863 0.5686153769 4279517762
-0.2531190217 -0.1032571867 0.5687088370 4279389525
-0.2527591884 -0.1024794132 0.5679003000 4279521111
-0.2528002262 -0.1018649787 0.5679925680 4278607719
-0.2528410554 -0.1012502462 0.5680842996 4280055165
-0.2528816760 -0.1006352231 0.5681754947 4278743931
-0.2529220283 -0.1000199020 0.5682662129 4278283380
-0.2529621422 -0.0994042829 0.5683563352 4278481021
-0.2526004314 -0.0986315683 0.5675436854 4278415228
-0.2526400387 -0.0980163440 0.5676326156 4278219140
-0.2526794076 -0.0974008366 0.5677210689 4279732893
-0.2531203032 -0.0969389081 0.5687116981 4278286730
-0.2531592250 -0.0963218510 0.5687991977 4278219395
-0.2531979382 -0.0957045034 0.5688861609 4278613121
-0.2532364130 -0.0950868726 0.5689725876 4278481535
-0.2532746494 -0.0944689661 0.5690584779 4279074962
-0.2533126473 -0.0938507766 0.5691438317 4280325029
-0.2529482543 -0.0930843279 0.5683251619 4279275416
-0.2529857159 -0.0924665704 0.5684093237 4278485900
-0.2530229390 -0.0918485373 0.5684929490 4278485898
-0.2526575923 -0.0910851955 0.5676721334 4278880656
-0.2526942790 -0.0904676020 0.5677545071 4278813584
-0.2523283064 -0.0897066742 0.5669322014 4280787374
-0.2523644567 -0.0890895277 0.5670134425 4279472292
-0.2528029084 -0.0886132270 0.5679985881 4279143327
-0.2528386414 -0.0879945755 0.5680788755 4279471776
-0.2524714470 -0.0872365311 0.5672538877 4279537569
-0.2525066435 -0.0866183415 0.5673329234 4280188808
-0.2529443800 -0.0861370564 0.5683164001 4282294184
-0.2525762916 -0.0853811875 0.5674894452 4284785830
-0.2526107728 -0.0847622380 0.5675668716 4285575346
-0.2526449859 -0.0841430277 0.5676437616 4285375144
-0.2526789904 -0.0835235640 0.5677201152 4284125077
-0.2523096800 -0.0827716365 0.5668903589 4283141516
-0.2523431182 -0.0821526647 0.5669655204 4283075723
-0.2519731522 -0.0814032108 0.5661342740 4282943636
-0.2516028583 -0.0806554854 0.5653023124 4282614671
-0.2516354620 -0.0800377727 0.5653755665 4280258458
-0.2512645423 -0.0792925358 0.5645421147 4280258458
-0.2508932352 -0.0785490498 0.5637079477 4279733398
-0.2509250343 -0.0779325962 0.5637793541 4279470226
-0.2509565651 -0.0773159191 0.5638502240 4279404692
-0.2509878576 -0.0766990036 0.5639204979 4280325794
-0.2502117753 -0.0758372247 0.5621768236 4279214762
-0.2498388737 -0.0751005113 0.5613389611 4278885797
-0.2498693019 -0.0744858906 0.5614073277 4279149481
-0.2494957596 -0.0737517104 0.5605680346 4279017895
-0.2495256513 -0.0731376410 0.5606352091 4279875522
-0.2499590963 -0.0726407021 0.5616090894 4281454554
-0.2487769723 -0.0716761202 0.5589531064 4281189840
-0.2496138513 -0.0712941140 0.5608333945 4280860875
-0.2488348484 -0.0704504400 0.5590831637 4281189581
-0.2492674291 -0.0699506477 0.5600550175 4280926409
-0.2496998608 -0.0694486573 0.5610266328 4281385931
-0.2497280389 -0.0688330829 0.5610899329 4281385931
-0.2501600981 -0.0683276877 0.5620607138 4281515207
-0.2501878440 -0.0677107051 0.5621230602 4281515207
-0.2506195605 -0.0672019050 0.5630930066 4281647563
-0.2510511279 -0.0666909069 0.5640626550 4281581770
-0.2514825165 -0.0661777183 0.5650318861 4281123272
-0.2519137561 -0.0656623319 0.5660008192 4281320651
-0.2523448169 -0.0651447475 0.5669693351 4281187782
-0.2531801760 -0.0647283718 0.5688462257 4280200887
-0.2528020144 -0.0640006065 0.5679965615 4281172379
-0.2548506558 -0.0638830513 0.5725994110 4281830309
-0.2552811801 -0.0633536950 0.5735667348 4283468448
-0.2557115555 -0.0628221557 0.5745337009 4283600034
-0.2553324401 -0.0620916151 0.5736819506 4282939526
-0.2565717697 -0.0617524981 0.5764664412 4282281596
-0.2570016086 -0.0612143837 0.5774322152 4283333251
-0.2570265234 -0.0605786853 0.5774881840 4284846490
-0.2566463649 -0.0598484054 0.5766340494 4287212211
-0.2578852475 -0.0594935305 0.5794175863 4288791243
-0.2570996881 -0.0586704947 0.5776525736 4290565594
-0.2571235597 -0.0580340698 0.5777062774 4291618282
-0.2521129847 -0.1157228574 0.5678655505 4288920771
-0.2521589696 -0.1151129082 0.5679690838 4288723392
-0.2522047162 -0.1145026237 0.5680721402 4288525759
-0.2522502244 -0.1138920039 0.5681746602 4288459966
-0.2522955239 -0.1132810563 0.5682766438 4288262587
-0.2523405850 -0.1126697883 0.5683781505 4288131001
-0.2519860864 -0.1118808761 0.5675796866 4287802806
-0.2520306110 -0.1112699211 0.5676800013 4287605427
-0.2520749271 -0.1106586382 0.5677797794 4287342768
-0.2521190047 -0.1100470349 0.5678790808 4287079596
-0.2525624931 -0.1096085384 0.5688779950 4286882474
-0.2522064745 -0.1088228673 0.5680761337 4286553509
-0.2522498667 -0.1082103103 0.5681738853 4286225316
-0.2522930205 -0.1075974330 0.5682711005 4285962144
-0.2523359656 -0.1069842502 0.5683677793 4285501850
-0.2523786724 -0.1063707471 0.5684639812 4284975506
-0.2524211407 -0.1057569385 0.5685596466 4284251783
-0.2524633706 -0.1051428169 0.5686547756 4283659646
-0.2521052063 -0.1043627337 0.5678480268 4282475111
-0.2521469295 -0.1037489772 0.5679419637 4281488216
-0.2521883845 -0.1031349152 0.5680353642 4280634196
-0.2522296309 -0.1025205478 0.5681282878 4279910473
-0.2522706389 -0.1019058824 0.5682206750 4279320909
-0.2523114085 -0.1012909189 0.5683125257 4280110425
-0.2519513965 -0.1005158573 0.5675016046 4279257945
-0.2519916594 -0.0999012738 0.5675922632 4279060566
-0.2520316541 -0.0992863998 0.5676823258 4278738793
-0.2520714402 -0.0986712351 0.5677719712 4279462516
-0.2521109879 -0.0980557799 0.5678610206 4278483588
-0.2525511682 -0.0975949466 0.5688524842 4278944139
-0.2525902987 -0.0969779342 0.5689406395 4278219390
-0.2522281706 -0.0962076858 0.5681250095 4278220161
-0.2522667944 -0.0955910832 0.5682119727 4278677889
-0.2523051500 -0.0949741974 0.5682983398 4278480510
-0.2523432672 -0.0943570361 0.5683842301 4279403158
-0.2523811460 -0.0937395915 0.5684695840 4279863709
-0.2524188161 -0.0931218714 0.5685543418 4278616464
-0.2520548403 -0.0923568085 0.5677345991 4278484878
-0.2520919740 -0.0917395204 0.5678181648 4278288778
-0.2521288395 -0.0911219642 0.5679012537 4278486157
-0.2517639399 -0.0903600156 0.5670793653 4279143062
-0.2518002987 -0.0897429064 0.5671612024 4280327336
-0.2518363893 -0.0891255215 0.5672425032 4279274397
-0.2518722415 -0.0885078758 0.5673233271 4278879639
-0.2519078851 -0.0878899693 0.5674035549 4279470234
-0.2523450851 -0.0874109939 0.5683883429 4279864992
-0.2523802817 -0.0867915750 0.5684676170 4280581769
-0.2520132959 -0.0860346854 0.5676410198 4281700250
-0.2520479858 -0.0854157433 0.5677191019 4283271308
-0.2520824075 -0.0847965479 0.5677966475 4283337101
-0.2521165609 -0.0841770992 0.5678735971 4283993239
-0.2517483532 -0.0834241286 0.5670442581 4284453790
-0.2517820001 -0.0828051716 0.5671200156 4282747272
-0.2514131367 -0.0820546746 0.5662891865 4282155135
