VERSION 0.7
FIELDS x y z rgba
SIZE 4 4 4 4
TYPE F F F U
COUNT 1 1 1 1
WIDTH 920
HEIGHT 1
VIEWPOINT 0.0 0.0 0.0 1.0 0.0 0.0 0.0
POINTS 920
DATA ascii
-0.2409949899 -0.1521124393 0.5257254243 4284310636
-0.2406516820 -0.1513124555 0.5249764919 4284573808
-0.2403079718 -0.1505139023 0.5242267251 4285165945
-0.2395605892 -0.1494651437 0.5225962996 4285494910
-0.2400228232 -0.1491717696 0.5236046314 4285363324
-0.2388710678 -0.1478769928 0.5210921168 4285165945
-0.2389293313 -0.1473339498 0.5212192535 4285165945
-0.2385837138 -0.1465425491 0.5204652548 4285231740
-0.2386415005 -0.1459996402 0.5205913186 4285560705
-0.2386991084 -0.1454563290 0.5207170248 4285889670
-0.2395645082 -0.1454030126 0.5226048231 4286350221
-0.2404300869 -0.1453456432 0.5244930983 4286613393
-0.2404875159 -0.1447974592 0.5246183872 4286679186
-0.2405447662 -0.1442489028 0.5247432590 4286744979
-0.2410061806 -0.1439414620 0.5257498026 4286613393
-0.2414675951 -0.1436317861 0.5267564058 4286350734
-0.2419290245 -0.1433198601 0.5277630091 4286284941
-0.2423904389 -0.1430057138 0.5287695527 4285955976
-0.2428518534 -0.1426893175 0.5297760963 4285363839
-0.2433132678 -0.1423706859 0.5307826996 4284969079
-0.2433697283 -0.1418138444 0.5309058428 4284705907
-0.2442360520 -0.1417266876 0.5327957273 4284508015
-0.2451025695 -0.1416354477 0.5346860290 4284244843
-0.2455640435 -0.1413069069 0.5356926918 4283915878
-0.2460254878 -0.1409761459 0.5366993546 4283586913
-0.2464869320 -0.1406431198 0.5377059579 4283717983
-0.2469483614 -0.1403078586 0.5387125611 4283323225
-0.2474097610 -0.1399703473 0.5397191048 4283454811
-0.2482768297 -0.1398591250 0.5416105986 4282994260
-0.2487382889 -0.1395161748 0.5426172614 4282994260
-0.2491997331 -0.1391709894 0.5436238647 4282467916
-0.2492551953 -0.1385978311 0.5437448621 4282664266
-0.2497164905 -0.1382490844 0.5447511673 4283322196
-0.2505839169 -0.1381219327 0.5466434360 4283256403
-0.2510452569 -0.1377677470 0.5476498008 4283059024
-0.2511002421 -0.1371893138 0.5477697849 4282927438
-0.2511550188 -0.1366105080 0.5478893518 4282664266
-0.2512096167 -0.1360313296 0.5480083823 4282795339
-0.2512639761 -0.1354517639 0.5481269956 4282729546
-0.2513181567 -0.1348718256 0.5482451916 4282729545
-0.2513720989 -0.1342914999 0.5483629107 4282597959
-0.2514258623 -0.1337108165 0.5484801531 4282597702
-0.2510724664 -0.1329143345 0.5477092266 4282531909
-0.2507187128 -0.1321193725 0.5469374657 4282400323
-0.2507716417 -0.1315394491 0.5470529795 4282268737
-0.2504172027 -0.1307465732 0.5462797284 4282071358
-0.2504696250 -0.1301668733 0.5463941097 4282071358
-0.2501145005 -0.1293760836 0.5456194282 4281874749
-0.2505738735 -0.1290063709 0.5466215014 4281808956
-0.2506256700 -0.1284255832 0.5467345119 4282135615
-0.2506772578 -0.1278444231 0.5468470454 4282267201
-0.2507286370 -0.1272629201 0.5469591618 4282005823
-0.2507797778 -0.1266810447 0.5470707417 4282005823
-0.2508307397 -0.1260988265 0.5471819043 4282071867
-0.2504735291 -0.1253121644 0.5464026332 4282137660
-0.2505239844 -0.1247301772 0.5465126634 4282529856
-0.2501660883 -0.1239456534 0.5457319617 4283056200
-0.2498078346 -0.1231626719 0.5449504852 4283453528
-0.2502657473 -0.1227818429 0.5459493399 4284637802
-0.2503152192 -0.1221994162 0.5460573435 4285821031
-0.2499560863 -0.1214182451 0.5452738404 4286084203
-0.2500050664 -0.1208360866 0.5453807116 4288903782
-0.2512795925 -0.1208430603 0.5481610298 4290088056
-0.2521457076 -0.1206484362 0.5500504375 4291794288
-0.2530119121 -0.1204496622 0.5519400835 4292452218
-0.2542870343 -0.1204403713 0.5547217727 4293382346
-0.2539506555 -0.2014021724 0.5553334355 4288850353
-0.2540268898 -0.2008454353 0.5555001497 4284573808
-0.2537077963 -0.1999767125 0.5548023582 4284442222
-0.2537835836 -0.1994198561 0.5549681187 4285165947
-0.2534638047 -0.1985527277 0.5542688370 4285363326
-0.2527480721 -0.1973779649 0.5527036786 4285231485
-0.2532186806 -0.1971302330 0.5537327528 4284968313
-0.2517104745 -0.1953445375 0.5504347086 4284902522
-0.2498053014 -0.1932590455 0.5462684631 4285231487
-0.2478987873 -0.1911817789 0.5420993567 4285560452
-0.2436142266 -0.1872855872 0.5327299833 4285099901
-0.2428930700 -0.1861410290 0.5311529636 4286613138
-0.2425676435 -0.1853022724 0.5304413438 4286876310
-0.2422418147 -0.1844648123 0.5297288299 4285429117
-0.2423121929 -0.1839296520 0.5298827291 4284508015
-0.2423823923 -0.1833940297 0.5300362110 4284047464
-0.2428492457 -0.1831572205 0.5310571194 4283718499
-0.2429192364 -0.1826197952 0.5312101841 4283849315
-0.2433861047 -0.1823794246 0.5322310925 4283915108
-0.2434558719 -0.1818401963 0.5323836803 4284112487
-0.2439227402 -0.1815962642 0.5334046483 4284178280
-0.2443896681 -0.1813500971 0.5344256759 4283915108
-0.2448566556 -0.1811017096 0.5354468822 4283520350
-0.2457213104 -0.1811442077 0.5373377204 4283389018
-0.2457908094 -0.1805982441 0.5374896526 4283520604
-0.2462579608 -0.1803431660 0.5385112166 4283191126
-0.2471231222 -0.1803763211 0.5404031277 4283191126
-0.2467943728 -0.1795367450 0.5396842360 4282862161
-0.2476597428 -0.1795645505 0.5415766239 4282598989
-0.2481271029 -0.1793005317 0.5425986052 4282664782
-0.2485945076 -0.1790342927 0.5436207056 4283191126
-0.2490619570 -0.1787658036 0.5446429253 4284243814
-0.2491308451 -0.1782099456 0.5447936058 4285230709
-0.2495982647 -0.1779378653 0.5458157659 4285888637
-0.2504645586 -0.1779468954 0.5477101207 4286480774
-0.2501343191 -0.1771045178 0.5469879508 4287138704
-0.2506017685 -0.1768266112 0.5480101109 4287533462
-0.2510692477 -0.1765464544 0.5490323901 4287401876
-0.2507382333 -0.1757044792 0.5483085513 4287072911
-0.2512055635 -0.1754216254 0.5493305326 4286678153
-0.2512734532 -0.1748585254 0.5494790077 4286480774
-0.2513411641 -0.1742949635 0.5496270657 4285757051
-0.2514086962 -0.1737309545 0.5497747064 4285099121
-0.2514760196 -0.1731664836 0.5499219894 4284375398
-0.2507433593 -0.1720527560 0.5483198166 4283520089
-0.2508101165 -0.1714891791 0.5484657884 4282862159
-0.2504765987 -0.1706525534 0.5477364063 4282993745
-0.2501426339 -0.1698172688 0.5470061898 4282598987
-0.2498083115 -0.1689833403 0.5462750793 4282664780
-0.2494735867 -0.1681507826 0.5455430746 4282994260
-0.2491384596 -0.1673195660 0.5448102355 4283652190
-0.2484022826 -0.1662216336 0.5432003736 4284902257
-0.2476655245 -0.1651268750 0.5415892601 4285560187
-0.2465272844 -0.1637689918 0.5391001701 4285757566
-0.2457892150 -0.1626815051 0.5374861956 4286218117
-0.2450505346 -0.1615972072 0.5358708501 4286810000
-0.2435089201 -0.1599889547 0.5324997306 4287402137
-0.2443739325 -0.1599635333 0.5343912840 4288126630
-0.2432323098 -0.1586252600 0.5318948030 4288126630
-0.2424913496 -0.1575528681 0.5302745104 4287666079
-0.2421513796 -0.1567436308 0.5295310616 4287139735
-0.2418110222 -0.1559358090 0.5287867785 4286284939
-0.2414702773 -0.1551293731 0.5280416608 4285166458
-0.2411291450 -0.1543243676 0.5272956491 4284113770
-0.2403856516 -0.1532644629 0.5256698132 4283587426
-0.2400436550 -0.1524631828 0.5249218941 4284047464
-0.2397012711 -0.1516633183 0.5241732001 4285100152
-0.2393584996 -0.1508648843 0.5234236121 4285692289
-0.2386129498 -0.1498152316 0.5217933059 4285429117
-0.2378668338 -0.1487688273 0.5201616883 4285297531
-0.2379252911 -0.1482273191 0.5202895403 4285494910
-0.2371782064 -0.1471856236 0.5186558366 4285626496
-0.2372361124 -0.1466451436 0.5187824368 4285560703
-0.2372938246 -0.1461042762 0.5189086199 4285758084
-0.2373513430 -0.1455630064 0.5190344453 4286152842
-0.2378117442 -0.1452675611 0.5200412273 4286613393
-0.2386753410 -0.1452151835 0.5219297409 4286942358
-0.2391358614 -0.1449143589 0.5229367614 4287008151
-0.2395963818 -0.1446112841 0.5239438415 4286876565
-0.2400569022 -0.1443059891 0.5249509215 4286810772
-0.2405174375 -0.1439984441 0.5259580016 4286613393
-0.2413816154 -0.1439293623 0.5278477669 4286284941
-0.2410347611 -0.1431369036 0.5270892382 4285955976
-0.2418990284 -0.1430624127 0.5289792418 4285298044
-0.2423595488 -0.1427459121 0.5299862623 4284771700
-0.2428200692 -0.1424271762 0.5309933424 4284573808
-0.2432805747 -0.1421062052 0.5320003629 4284442222
-0.2437410802 -0.1417829841 0.5330073833 4284244843
-0.2446058840 -0.1416917294 0.5348985195 4283981671
-0.2450664639 -0.1413630992 0.5359056592 4283915108
-0.2459315211 -0.1412645578 0.5377973914 4283520350
-0.2463921607 -0.1409305036 0.5388047099 4283586397
-0.2468527853 -0.1405941993 0.5398119688 4283125846
-0.2473133951 -0.1402556598 0.5408192277 4283257432
-0.2477739900 -0.1399148554 0.5418264270 4282994260
-0.2482345551 -0.1395718008 0.5428336263 4282731088
-0.2491001487 -0.1394532621 0.5447264314 4282467916
-0.2491556257 -0.1388789564 0.5448477864 4282466374
-0.2496161312 -0.1385291517 0.5458548069 4282992718
-0.2500765920 -0.1381770968 0.5468617678 4282927438
-0.2509424388 -0.1380458176 0.5487551689 4282664266
-0.2509974837 -0.1374662369 0.5488755107 4282663753
-0.2510522902 -0.1368862838 0.5489953756 4282400581
-0.2511068881 -0.1363059580 0.5491147637 4282400581
-0.2511612773 -0.1357252449 0.5492337346 4282400581
-0.2512154579 -0.1351441592 0.5493522286 4282400580
-0.2512694597 -0.1345626861 0.5494702458 4282400580
-0.2513232231 -0.1339808553 0.5495878458 4282334787
-0.2509706616 -0.1331831366 0.5488168597 4282334787
-0.2506177425 -0.1323869377 0.5480450988 4282334787
-0.2506707013 -0.1318058670 0.5481609106 4282203201
-0.2507234514 -0.1312244236 0.5482763052 4282005822
-0.2507759929 -0.1306426227 0.5483911633 4281940029
-0.2504218221 -0.1298496574 0.5476166606 4281940030
-0.2504738569 -0.1292680800 0.5477304459 4281808444
-0.2505256534 -0.1286861300 0.5478437543 4282070589
-0.2505772710 -0.1281038225 0.5479565859 4282136382
-0.2502218187 -0.1273141354 0.5471792817 4281808954
-0.2502728999 -0.1267320514 0.5472910404 4281808954
-0.2503238022 -0.1261496246 0.5474023223 4281874747
-0.2499673516 -0.1253626496 0.5466228127 4282006333
-0.2496105283 -0.1245772317 0.5458425283 4282136382
-0.2492533326 -0.1237933636 0.5450614691 4282596933
-0.2488957644 -0.1230110377 0.5442795157 4283190097
-0.2489452511 -0.1224306375 0.5443877578 4284374371
-0.2489945292 -0.1218499020 0.5444954634 4285623398
-0.2486359775 -0.1210703403 0.5437114239 4285820777
-0.2486847490 -0.1204898655 0.5438180566 4288117354
-0.2491410524 -0.1201056167 0.5448158979 4289301628
-0.2500051558 -0.1199147478 0.5467054844 4291988835
-0.2508693337 -0.1197197288 0.5485952497 4292383593
-0.2525496185 -0.1199079752 0.5522696376 4292853431
-0.2526414990 -0.2008517385 0.5538157225 4287731872
-0.2523231506 -0.1999841034 0.5531178713 4284179050
-0.2523987889 -0.1994293034 0.5532836318 4284047464
-0.2524742484 -0.1988740116 0.5534490943 4284310636
-0.2513657212 -0.1973885894 0.5510190725 4284902773
-0.2506510615 -0.1962169111 0.5494524240 4284968568
-0.2507254183 -0.1956644654 0.5496155024 4284771189
-0.2480349243 -0.1929607093 0.5437176228 4284705143
-0.2457376868 -0.1905750483 0.5386818647 4285034108
-0.2438340932 -0.1885048896 0.5345090032 4285231487
-0.2415338606 -0.1861383319 0.5294666290 4285428866
-0.2420000434 -0.1859081835 0.5304885507 4285889415
-0.2412796915 -0.1847671419 0.5289094448 4285165692
-0.2405586988 -0.1836291254 0.5273289680 4284113257
-0.2406286299 -0.1830964386 0.5274822712 4284179050
-0.2410942912 -0.1828635484 0.5285030603 4284376429
-0.2411639988 -0.1823290586 0.5286558867 4283915878
-0.2416296750 -0.1820926070 0.5296766758 4283980901
-0.2416991889 -0.1815563142 0.5298290253 4283849315
-0.2421648651 -0.1813163012 0.5308498740 4283783522
-0.2422341555 -0.1807782054 0.5310017467 4283717729
-0.2426998466 -0.1805346310 0.5320225954 4283454811
-0.2435622662 -0.1805829406 0.5339131355 4283125846
-0.2432346046 -0.1797475815 0.5331948400 4283191639
-0.2437003553 -0.1794982105 0.5342158079 4283454811
-0.2441661507 -0.1792466193 0.5352368951 4284704365
-0.2446320206 -0.1789927930 0.5362581015 4285428088
-0.2450979203 -0.1787367314 0.5372794271 4286546569
-0.2455638945 -0.1784784496 0.5383008718 4287928222
-0.2460298985 -0.1782179177 0.5393224359 4289046703
-0.2464959621 -0.1779551655 0.5403440595 4289441461
-0.2469620705 -0.1776901633 0.5413658023 4289309875
-0.2470304221 -0.1771376878 0.5415156484 4289112496
-0.2474965155 -0.1768691093 0.5425373912 4288520359
-0.2479626387 -0.1765982807 0.5435591936 4287862429
-0.2484288067 -0.1763252169 0.5445810556 4287007120
-0.2484967858 -0.1757682413 0.5447300673 4286151811
-0.2489629388 -0.1754915863 0.5457519293 4285362293
-0.2490306646 -0.1749327928 0.5459004045 4284572777
-0.2490982264 -0.1743735522 0.5460484624 4283717468
-0.2495642602 -0.1740919501 0.5470700860 4283125331
-0.2496315539 -0.1735308915 0.5472176075 4282467401
-0.2496986836 -0.1729693860 0.5473647118 4282467401
-0.2493666261 -0.1721320301 0.5466368794 4282533194
-0.2486350834 -0.1710214913 0.5450332761 4282598987
-0.2487013489 -0.1704613268 0.5451784730 4282993745
-0.2483681142 -0.1696280092 0.5444480181 4283914847
-0.2480344772 -0.1687960476 0.5437166691 4284375398
-0.2469014227 -0.1674236059 0.5412328839 4285230707
-0.2477656603 -0.1674062014 0.5431273580 4285625726
-0.2466315031 -0.1660391986 0.5406411886 4285954691
-0.2458963692 -0.1649453789 0.5390296578 4286546828
-0.2451606244 -0.1638547480 0.5374168754 4286941586
-0.2436242104 -0.1622345001 0.5340489149 4287402137
-0.2440874875 -0.1619485170 0.5350644588 4288060067
-0.2429498136 -0.1606019586 0.5325705409 4288389802
-0.2422116846 -0.1595240980 0.5309525132 4288521388
-0.2418734133 -0.1587122083 0.5302109718 4287402907
-0.2415347546 -0.1579017043 0.5294685960 4286547598
-0.2411957234 -0.1570926011 0.5287253857 4285758082
-0.2408562899 -0.1562849134 0.5279813409 4285034359
-0.2413181961 -0.1559968740 0.5289938450 4284047977
-0.2405772209 -0.1549319476 0.5273696184 4283324254
-0.2394346148 -0.1536129415 0.5248648524 4283653219
-0.2402970344 -0.1535809636 0.5267553926 4284640114
-0.2387520820 -0.1520120502 0.5233687162 4285823877
-0.2384102345 -0.1512137353 0.5226193070 4285692291
-0.2372650802 -0.1499095261 0.5201090574 4285494912
-0.2373238355 -0.1493686289 0.5202378631 4285363326
-0.2369807512 -0.1485754997 0.5194857717 4285429119
-0.2362355143 -0.1475329101 0.5178521276 4285494912
-0.2366952747 -0.1472435445 0.5188599825 4285626498
-0.2367531061 -0.1467028856 0.5189867616 4285758084
-0.2368107438 -0.1461618394 0.5191130638 4286481807
-0.2372703403 -0.1458676159 0.5201205611 4286744979
-0.2373277098 -0.1453248560 0.5202463269 4287139737
-0.2381895781 -0.1452724785 0.5221356153 4287139737
-0.2386492044 -0.1449715495 0.5231431723 4287008151
-0.2387063056 -0.1444248557 0.5232683420 4286876565
-0.2391658425 -0.1441203803 0.5242757201 4286547600
-0.2396253794 -0.1438136697 0.5252830982 4286218635
-0.2400849313 -0.1435047239 0.5262904167 4285890181
-0.2405444682 -0.1431935430 0.5272977948 4285429630
-0.2410040200 -0.1428801119 0.5283051729 4284903286
-0.2414635569 -0.1425644457 0.5293124914 4284574321
-0.2423262894 -0.1424836218 0.5312037468 4284508013
-0.2427859008 -0.1421625465 0.5322112441 4284376427
-0.2436489165 -0.1420744359 0.5341030359 4284047464
-0.2441086024 -0.1417479515 0.5351107717 4283784292
-0.2449718714 -0.1416525841 0.5370030999 4283521120
-0.2458353043 -0.1415531039 0.5388958454 4283192155
-0.2462951392 -0.1412180066 0.5399038792 4283257432
-0.2471588254 -0.1411112398 0.5417971611 4283125846
-0.2476187199 -0.1407707185 0.5428052545 4282994260
-0.2480786145 -0.1404279470 0.5438134074 4282928467
-0.2485384643 -0.1400829107 0.5448214412 4282731088
-0.2489982992 -0.1397356391 0.5458294749 4282402123
-0.2494581193 -0.1393861026 0.5468373895 4282400583
-0.2495135069 -0.1388093382 0.5469588637 4282729548
-0.2503776848 -0.1386802793 0.5488531590 4282532426
-0.2512419820 -0.1385470927 0.5507478118 4282335047
-0.2512971163 -0.1379654408 0.5508686900 4282269254
-0.2517567873 -0.1376046240 0.5518763065 4282137668
-0.2514067590 -0.1368009746 0.5511090159 4282071616
-0.2514612675 -0.1362181902 0.5512284636 4282137409
-0.2515155375 -0.1356350034 0.5513474941 4282137922
-0.2515696287 -0.1350514591 0.5514660478 4282137922
-0.2520287037 -0.1346840709 0.5524724126 4282006850
-0.2516771853 -0.1338832229 0.5517017841 4282006850
-0.2513252497 -0.1330839097 0.5509303808 4282072643
-0.2509729564 -0.1322860867 0.5501581430 4282006850
-0.2506203055 -0.1314897835 0.5493850112 4281940543
-0.2506728470 -0.1309068352 0.5495002270 4281874750
-0.2507252097 -0.1303235143 0.5496150255 4282005825
-0.2507773340 -0.1297398210 0.5497292876 4281874239
-0.2504234016 -0.1289467812 0.5489534140 4281808443
-0.2504750192 -0.1283633113 0.5490666032 4281874236
-0.2501204014 -0.1275723875 0.5482892394 4281612345
-0.2501715422 -0.1269891560 0.5484012961 4281612345
-0.2498162240 -0.1262003481 0.5476224422 4281678140
-0.2494605482 -0.1254130900 0.5468427539 4281743933
-0.2491044998 -0.1246273741 0.5460622311 4281808446
-0.2483416200 -0.1236408427 0.5443899035 4282268997
-0.2479847223 -0.1228591725 0.5436075926 4283124046
-0.2480340749 -0.1222795174 0.5437157750 4284308320
-0.2476765066 -0.1215000004 0.5429319143 4285820263
-0.2469117939 -0.1205234975 0.5412556529 4285951849
-0.2469602674 -0.1199456602 0.5413618684 4287593839
-0.2474154532 -0.1195641384 0.5423596501 4288712320
-0.2482775897 -0.1193760708 0.5442495942 4292118361
-0.2491398305 -0.1191838458 0.5461396575 4292644705
-0.2504093349 -0.1191812605 0.5489225984 4292325285
-0.2520863414 -0.1193654463 0.5525987148 4294959832
-0.2513349950 -0.2003007382 0.5522964001 4287139737
-0.2514105737 -0.1997471452 0.5524624586 4283521118
-0.2514860034 -0.1991930455 0.5526282191 4283915876
-0.2511675656 -0.1983275861 0.5519284606 4283455325
-0.2508487403 -0.1974633783 0.5512278676 4283652704
-0.2493477464 -0.1956730485 0.5479295254 4283915880
-0.2494218051 -0.1951221973 0.5480922461 4284179052
-0.2471307963 -0.1927265674 0.5430578589 4284244592
-0.2444439679 -0.1900344044 0.5371536613 4284705143
-0.2421497107 -0.1876596063 0.5321121812 4285034108
-0.2426154017 -0.1874281466 0.5331354737 4285165694
-0.2411080897 -0.1856750250 0.5298232436 4285100154
-0.2403891385 -0.1845344603 0.5282434225 4285165947
-0.2400644124 -0.1836990714 0.5275298357 4284836980
-0.2393443435 -0.1825636923 0.5259475112 4284573808
-0.2398088574 -0.1823325157 0.5269683003 4284639601
-0.2398782670 -0.1817996204 0.5271207690 4284376429
-0.2399474978 -0.1812662482 0.5272729397 4284375659
-0.2400165796 -0.1807324290 0.5274246931 4284112487
-0.2404810190 -0.1804950088 0.5284453034 4284178534
-0.2405498773 -0.1799593866 0.5285966396 4284968050
-0.2410143167 -0.1797184050 0.5296171904 4285889152
-0.2410829663 -0.1791809797 0.5297680497 4286876047
-0.2415474206 -0.1789364219 0.5307886600 4287928735
-0.2416158319 -0.1783971936 0.5309389830 4288784044
-0.2420802861 -0.1781490892 0.5319595933 4289309875
-0.2425448000 -0.1778987348 0.5329803824 4289441461
-0.2430093586 -0.1776461601 0.5340012312 4289112496
-0.2438705117 -0.1776802689 0.5358935595 4288388773
-0.2435419858 -0.1768463105 0.5351716280 4287269522
-0.2444033474 -0.1768750548 0.5370644331 4285953662
-0.2448681146 -0.1766135544 0.5380857587 4284966767
-0.2449359447 -0.1760644615 0.5382347703 4284440423
-0.2454006821 -0.1757993847 0.5392560363 4283585884
-0.2454682738 -0.1752484888 0.5394045711 4283388505
-0.2459330112 -0.1749798208 0.5404257774 4283125333
-0.2463977635 -0.1747089028 0.5414471030 4282796368
-0.2468625754 -0.1744357497 0.5424684882 4282598989
-0.2469297945 -0.1738803685 0.5426161885 4282598989
-0.2469968200 -0.1733245254 0.5427634716 4282796368
-0.2470636815 -0.1727682203 0.5429103971 4282993747
-0.2475283146 -0.1724887788 0.5439313650 4283585884
-0.2471968532 -0.1716542691 0.5432029963 4284243814
-0.2472631782 -0.1710966229 0.5433487296 4284901742
-0.2469310313 -0.1702639163 0.5426188707 4285428086
-0.2462001145 -0.1691588312 0.5410127640 4285691258
-0.2458670884 -0.1683297157 0.5402809381 4285954430
-0.2455336601 -0.1675019711 0.5395482183 4286086016
-0.2451998442 -0.1666755825 0.5388147235 4286875532
-0.2440680414 -0.1653103232 0.5363276005 4287138965
-0.2449299544 -0.1652961075 0.5382215977 4287731102
-0.2437970489 -0.1639363021 0.5357320905 4288191653
-0.2426633239 -0.1625814885 0.5332407951 4288191653
-0.2419280261 -0.1614981741 0.5316250324 4287862688
-0.2415914536 -0.1606836468 0.5308853984 4287467930
-0.2408550680 -0.1596058160 0.5292672515 4286810770
-0.2401180863 -0.1585311890 0.5276477933 4286284426
-0.2401797771 -0.1579855233 0.5277833343 4285363324
-0.2402412891 -0.1574394256 0.5279185176 4284376429
-0.2399027795 -0.1566318572 0.5271746516 4283652706
-0.2399638295 -0.1560858339 0.5273088217 4283060569
-0.2400246859 -0.1555393934 0.5274425745 4282863703
-0.2396852374 -0.1547342241 0.5266966224 4283324254
-0.2389451414 -0.1536730528 0.5250703096 4284245356
-0.2382044643 -0.1526151299 0.5234426856 4285298044
-0.2374632061 -0.1515604407 0.5218138099 4285823877
-0.2367213666 -0.1505089998 0.5201836824 4285429119
-0.2355782986 -0.1492070556 0.5176718235 4285165947
-0.2356366813 -0.1486687213 0.5178000927 4285231740
-0.2356948853 -0.1481299847 0.5179280043 4285363326
-0.2353519648 -0.1473398507 0.5171744823 4285626498
-0.2350086570 -0.1465511471 0.5164200664 4286087049
-0.2354672551 -0.1462622285 0.5174278021 4286547600
-0.2359258533 -0.1459710747 0.5184355378 4286942103
-0.2363844812 -0.1456776857 0.5194433331 4287007896
-0.2368430942 -0.1453820616 0.5204511285 4287205275
-0.2377032489 -0.1453296989 0.5223413110 4287007896
-0.2381619960 -0.1450286806 0.5233493447 4286744724
-0.2382190078 -0.1444817930 0.5234746337 4286547345
-0.2386776656 -0.1441772282 0.5244824886 4286021001
-0.2391363084 -0.1438704282 0.5254903436 4285560450
-0.2391929477 -0.1433205009 0.5256148577 4285298044
-0.2400536090 -0.1432501078 0.5275061131 4285100665
-0.2405122519 -0.1429365724 0.5285139680 4284837491
-0.2409708947 -0.1426208168 0.5295218229 4284640112
-0.2414295375 -0.1423028111 0.5305296183 4284508013
-0.2426931262 -0.1424550414 0.5333063006 4284310634
-0.2435545027 -0.1423660070 0.5351991653 4283981671
-0.2440133989 -0.1420384794 0.5362075567 4283718499
-0.2448750436 -0.1419421732 0.5381009579 4283521120
-0.2457368523 -0.1418417543 0.5399947166 4283192155
-0.2465988249 -0.1417372227 0.5418888927 4282928981
-0.2474609762 -0.1416285634 0.5437834263 4282994774
-0.2479201704 -0.1412860751 0.5447924733 4282600016
-0.2487825453 -0.1411701143 0.5466875434 4282402637
-0.2492417842 -0.1408221871 0.5476966500 4282336844
-0.2497010082 -0.1404719949 0.5487057567 4281810500
-0.2501601875 -0.1401195377 0.5497148037 4282400329
-0.2502157986 -0.1395397633 0.5498369932 4282531915
-0.2506748438 -0.1391837448 0.5508457422 4282335049
-0.2511338592 -0.1388254613 0.5518543720 4282006084
-0.2515928447 -0.1384649128 0.5528630018 4282006084
-0.2516478896 -0.1378808022 0.5529839396 4281940291
-0.2517026961 -0.1372962892 0.5531044006 4281874496
-0.2521614134 -0.1369308531 0.5541124344 4282137668
-0.2518117130 -0.1361261457 0.5533439517 4281941059
-0.2518658936 -0.1355405152 0.5534630418 4281941059
-0.2519198954 -0.1349544823 0.5535816550 4281744193
-0.2519736588 -0.1343680918 0.5536997914 4281744193
-0.2516226768 -0.1335665882 0.5529285669 4281875779
-0.2512713075 -0.1327665895 0.5521564484 4281875779
-0.2513242960 -0.1321809590 0.5522728562 4281744191
-0.2509722412 -0.1313830614 0.5514992476 4281678398
-0.2510246933 -0.1307976395 0.5516145229 4282005314
-0.2510769367 -0.1302118450 0.5517293215 4281939521
-0.2507239282 -0.1294166148 0.5509535670 4281612345
-0.2503705323 -0.1286229193 0.5501770377 4281678138
-0.2500167489 -0.1278307438 0.5493996143 4281678649
-0.2500678897 -0.1272463500 0.5495119691 4281612856
-0.2497134358 -0.1264563054 0.5487331152 4281612092
-0.2493586093 -0.1256677955 0.5479533672 4281677885
-0.2485978454 -0.1246774495 0.5462816358 4281480508
-0.2478365600 -0.1236905456 0.5446087718 4282006852
-0.2474804372 -0.1229085773 0.5438261628 4283058251
-0.2467181534 -0.1219276264 0.5421510935 4284176732
-0.2463611960 -0.1211497262 0.5413666964 4285885543
-0.2455979139 -0.1201747432 0.5396894217 4286082922
-0.2456461638 -0.1195986047 0.5397954583 4287135346
-0.2456941903 -0.1190221161 0.5399010181 4288188034
-0.2465543896 -0.1188368574 0.5417912602 4292314451
-0.2478209436 -0.1188422590 0.5445744395 4292972381
-0.2490877509 -0.1188416034 0.5473581553 4291797912
-0.2503547966 -0.1188348755 0.5501424670 4294957004
-0.2499557585 -0.2003006935 0.5506094098 4292074210
-0.2500311732 -0.1997491568 0.5507755280 4287008149
-0.2501063943 -0.1991971284 0.5509412885 4284310638
-0.2501814961 -0.1986446083 0.5511066318 4283850087
-0.2498635352 -0.1977806091 0.5504062772 4283586915
-0.2495451719 -0.1969178617 0.5497049689 4283521122
-0.2480471134 -0.1951286346 0.5464050174 4283586915
-0.2477276176 -0.1942709833 0.5457012057 4283652708
-0.2458343804 -0.1921845973 0.5415307283 4283850087
-0.2470874190 -0.1925594360 0.5442909598 4284244845
-0.2436181903 -0.1892595589 0.5366488695 4284639603
-0.2401467115 -0.1859749109 0.5290017724 4284902775
-0.2390357852 -0.1845295429 0.5265545845 4284968566
-0.2398935705 -0.1846045852 0.5284441710 4285034359
-0.2391755432 -0.1834666580 0.5268624425 4285428347
-0.2388510257 -0.1826331466 0.5261476040 4285428347
-0.2389203906 -0.1821014285 0.5263004303 4285165175
-0.2389895916 -0.1815692484 0.5264528394 4285033589
-0.2386641353 -0.1807378531 0.5257359147 4285230968
-0.2387328893 -0.1802056283 0.5258873701 4285033589
-0.2388014793 -0.1796729416 0.5260384679 4285691773
-0.2392647415 -0.1794358939 0.5270589590 4287336598
-0.2393331230 -0.1789014041 0.5272095799 4288323493
-0.2401914448 -0.1789551228 0.5291002989 4288389286
-0.2398645431 -0.1781245023 0.5283802152 4288125860
-0.2399325371 -0.1775877625 0.5285300016 4287467930
-0.2400003672 -0.1770505607 0.5286794305 4286349449
-0.2408590317 -0.1770945042 0.5305708647 4285230968
-0.2405311316 -0.1762647182 0.5298485756 4284375400
-0.2413900048 -0.1763033122 0.5317405462 4283849056
-0.2418533266 -0.1760497689 0.5327611566 4283783263
-0.2423166931 -0.1757939905 0.5337818861 4284046435
-0.2423840612 -0.1752496362 0.5339303017 4283980644
-0.2428474128 -0.1749902815 0.5349509716 4283849058
-0.2429145426 -0.1744441241 0.5350988507 4284178021
-0.2429815084 -0.1738975048 0.5352463126 4284375400
-0.2434447706 -0.1736332327 0.5362668633 4284441193
-0.2435114980 -0.1730848253 0.5364138484 4284638572
-0.2439747453 -0.1728169769 0.5374342799 4285099123
-0.2444380373 -0.1725468785 0.5384548306 4285428088
-0.2445044518 -0.1719953269 0.5386011600 4285559674
-0.2449677140 -0.1717216522 0.5396215916 4285691260
-0.2450338751 -0.1711683124 0.5397673845 4286020225
-0.2450998574 -0.1706145257 0.5399127007 4286151811
-0.2447683215 -0.1697846651 0.5391823649 4286414983
-0.2444363832 -0.1689561605 0.5384511948 4286809741
-0.2441040426 -0.1681290120 0.5377191305 4287336085
-0.2437713295 -0.1673032045 0.5369861722 4287730843
-0.2430404425 -0.1662067622 0.5353761911 4287994015
-0.2431047261 -0.1656557173 0.5355177522 4287994015
-0.2423728406 -0.1645637900 0.5339055657 4287862431
-0.2412422895 -0.1632057279 0.5314151645 4287796638
-0.2417036891 -0.1629263163 0.5324315429 4287073172
-0.2409702241 -0.1618421376 0.5308158398 4286612621
-0.2402361780 -0.1607611477 0.5291988850 4286217863
-0.2399000376 -0.1599490494 0.5284584165 4285494140
-0.2399621159 -0.1594031304 0.5285951495 4284836210
-0.2392265946 -0.1583290249 0.5269749165 4284441452
-0.2392881066 -0.1577840894 0.5271103978 4283586913
-0.2393494397 -0.1572387218 0.5272455215 4282797397
-0.2390115708 -0.1564317793 0.5265012383 4282008396
-0.2390724272 -0.1558864862 0.5266353488 4282074189
-0.2391331196 -0.1553407758 0.5267690420 4282995291
-0.2383949757 -0.1542778164 0.5251430273 4284311151
-0.2376562506 -0.1532180756 0.5235157609 4285100154
-0.2369169444 -0.1521615982 0.5218871832 4285165947
-0.2357774228 -0.1508526653 0.5193769932 4284771449
-0.2350368500 -0.1498035789 0.5177456737 4284968828
-0.2342956960 -0.1487577707 0.5161130428 4285166460
-0.2343538105 -0.1482210755 0.5162410140 4285232253
-0.2344117463 -0.1476839930 0.5163686275 4285890183
-0.2344694883 -0.1471465081 0.5164958239 4286153355
-0.2345270514 -0.1466086358 0.5166226625 4286416272
-0.2345844358 -0.1460703611 0.5167490840 4286876823
-0.2354424596 -0.1460283846 0.5186391473 4287205275
-0.2350991666 -0.1452400535 0.5178828835 4287534240
-0.2359573096 -0.1451926976 0.5197732449 4287337374
-0.2364149541 -0.1448956728 0.5207813382 4286745237
-0.2372733951 -0.1448410749 0.5226723552 4286350479
-0.2373302430 -0.1442949176 0.5227975845 4285824135
-0.2377879024 -0.1439911872 0.5238057375 4285297278
-0.2382455617 -0.1436852068 0.5248138905 4285297278
-0.2395055890 -0.1438589394 0.5275895000 4285034874
-0.2391608804 -0.1430665553 0.5268301964 4285100667
-0.2404212803 -0.1432320923 0.5296066403 4284969338
-0.2408791333 -0.1429153085 0.5306151509 4284640373
-0.2417385280 -0.1428335309 0.5325082541 4284442735
-0.2421964556 -0.1425113231 0.5335170031 4284179563
-0.2430561185 -0.1424222887 0.5354107022 4284047464
-0.2443177998 -0.1425636113 0.5381899476 4283784292
-0.2451778948 -0.1424654275 0.5400846004 4283915362
-0.2460381687 -0.1423631310 0.5419796705 4283520604
-0.2468986213 -0.1422567219 0.5438750982 4283454811
-0.2477592379 -0.1421461999 0.5457708240 4283125846
-0.2482177019 -0.1418017149 0.5467808247 4282862674
-0.2486761659 -0.1414549947 0.5477907062 4282665295
-0.2495370805 -0.1413339674 0.5496871471 4282335815
-0.2499955744 -0.1409817934 0.5506971478 4282335815
-0.2500514090 -0.1404012740 0.5508201122 4282138699
-0.2505097687 -0.1400455087 0.5518298149 4282072906
-0.2509680986 -0.1396874934 0.5528393984 4281875525
-0.2510234714 -0.1391039342 0.5529614091 4281678146
-0.2514816523 -0.1387423426 0.5539706945 4281809473
-0.2515366971 -0.1381570697 0.5540919900 4281875266
-0.2515915334 -0.1375714242 0.5542127490 4281941061
-0.2520494461 -0.1372049153 0.5552214980 4282006854
-0.2521039546 -0.1366175711 0.5553415418 4281941059
-0.2517548203 -0.1358121932 0.5545724034 4281941059
-0.2518088222 -0.1352250129 0.5546913743 4281940543
-0.2522662282 -0.1348532438 0.5556989908 4281808957
-0.2519161701 -0.1340495497 0.5549278855 4281808957
-0.2515657544 -0.1332473755 0.5541559458 4281874750
-0.2512149215 -0.1324467063 0.5533831716 4281940543
-0.2512677014 -0.1318595558 0.5534994006 4281874750
-0.2513202727 -0.1312720329 0.5536152124 4281611842
-0.2509684861 -0.1304740310 0.5528402328 4281677635
-0.2510205209 -0.1298867166 0.5529549122 4281482050
-0.2506680489 -0.1290908307 0.5521785021 4281482050
-0.2507196069 -0.1285037398 0.5522920489 4281874490
-0.2503664494 -0.1277099699 0.5515140891 4282071869
-0.2500129342 -0.1269177198 0.5507353544 4282071616
-0.2496590167 -0.1261270344 0.5499557853 4281808444
-0.2493047416 -0.1253378689 0.5491753221 4281676598
-0.2481404841 -0.1241452247 0.5466107130 4282005563
-0.2469755411 -0.1229579225 0.5440444946 4282861894
-0.2462148517 -0.1219765991 0.5423688293 4284572512
-0.2450485826 -0.1207990646 0.5397997499 4285295976
-0.2446918637 -0.1200243384 0.5390139818 4285690734
-0.2443347722 -0.1192511693 0.5382273793 4288379232
-0.2447878569 -0.1188731864 0.5392254591 4289366127
-0.2452408969 -0.1184929609 0.5402234197 4292119382
-0.2465047538 -0.1185002998 0.5430074334 4292579933
-0.2477688640 -0.1185015664 0.5457920432 4292385160
-0.2490332127 -0.1184967756 0.5485772491 4294953143
-0.2490465045 -0.2000615299 0.5499520302 4292008419
-0.2487299889 -0.1991970092 0.5492531061 4286876565
-0.2488048971 -0.1986465603 0.5494185090 4284705396
-0.2484876961 -0.1977836490 0.5487180352 4284047466
-0.2485621572 -0.1972330660 0.5488824844 4283586915
-0.2478521168 -0.1960615367 0.5473145247 4283389536
-0.2479260266 -0.1955117136 0.5474777222 4283323743
-0.2468225360 -0.1940359473 0.5450409651 4283192157
-0.2441481203 -0.1913344711 0.5391352773 4283192155
-0.2446130067 -0.1910986304 0.5401618481 4283323741
-0.2431141883 -0.1893312335 0.5368521214 4283850085
-0.2412214279 -0.1872653514 0.5326724052 4284113257
-0.2397203147 -0.1855118573 0.5293576717 4284310636
-0.2390043288 -0.1843713820 0.5277765989 4284508015
-0.2382877171 -0.1832339466 0.5261941552 4284836210
-0.2379638255 -0.1824010313 0.5254788995 4284967796
-0.2380329818 -0.1818700284 0.5256316066 4285033589
-0.2377084196 -0.1810388267 0.5249149203 4285033589
-0.2377771288 -0.1805077791 0.5250666142 4285296763
-0.2378456891 -0.1799762547 0.5252180099 4285033591
-0.2379140705 -0.1794442832 0.5253690481 4285362554
-0.2379823029 -0.1789118648 0.5255197287 4285888898
-0.2384444922 -0.1786742955 0.5265403390 4285823105
-0.2381182760 -0.1778456271 0.5258199573 4285494140
-0.2385803461 -0.1776053905 0.5268403292 4285362556
-0.2386480272 -0.1770702451 0.5269898176 4285099384
-0.2387155443 -0.1765346527 0.5271388888 4285099384
-0.2387828976 -0.1759986132 0.5272876024 4284902005
-0.2392448783 -0.1757521182 0.5283077359 4284902003
-0.2397069037 -0.1755034178 0.5293280482 4285033589
-0.2401689887 -0.1752524823 0.5303484201 4285230711
-0.2402359992 -0.1747119576 0.5304963589 4285362297
-0.2403028309 -0.1741709858 0.5306439400 4285427836
-0.2403694987 -0.1736295521 0.5307911634 4285427836
-0.2408314496 -0.1733723581 0.5318112969 4285559674
-0.2408978790 -0.1728291512 0.5319579840 4285691260
-0.2409641445 -0.1722854823 0.5321043134 4285822846
-0.2410302311 -0.1717413664 0.5322502255 4285954432
-0.2414920479 -0.1714779139 0.5332700014 4286217604
-0.2419538945 -0.1712122262 0.5342898965 4286414983
-0.2416235656 -0.1703856587 0.5335604548 4286546569
-0.2424814999 -0.1703957170 0.5354549885 4286678155
-0.2425470352 -0.1698466837 0.5355997086 4286875534
-0.2426124066 -0.1692972034 0.5357440114 4287072913
-0.2422810644 -0.1684715599 0.5350123644 4287270292
-0.2423459738 -0.1679220945 0.5351556540 4287270292
-0.2420139462 -0.1670982540 0.5344225168 4287336085
-0.2412846982 -0.1660027504 0.5328121185 4287270292
-0.2409517914 -0.1651825309 0.5320770144 4287007120
-0.2406185120 -0.1643636972 0.5313410759 4286678155
-0.2398876697 -0.1632758975 0.5297271609 4285888898
-0.2395534962 -0.1624607146 0.5289892554 4285625726
-0.2392189354 -0.1616469026 0.5282505155 4285099382
-0.2392814755 -0.1611020714 0.5283885598 4284704624
-0.2389462590 -0.1602901220 0.5276483297 4284178280
-0.2386106402 -0.1594795585 0.5269072056 4283520350
-0.2390702218 -0.1592001766 0.5279220939 4282994006
-0.2387340516 -0.1583905667 0.5271797180 4282665041
-0.2383974940 -0.1575823724 0.5264365673 4282336848
-0.2384586483 -0.1570377350 0.5265715718 4281942090
-0.2381214201 -0.1562314183 0.5258269310 4282007883
-0.2381821126 -0.1556868553 0.5259609222 4282994778
-0.2378442138 -0.1548824459 0.5252147913 4284179565
-0.2371074408 -0.1538209170 0.5235878229 4284903288
-0.2359714806 -0.1525050253 0.5210793614 4285165947
-0.2340373397 -0.1506807953 0.5168083310 4285034361
-0.2352924049 -0.1509115696 0.5195798278 4284903033
-0.2337556034 -0.1493523717 0.5161861777 4284837240
-0.2330158204 -0.1483080089 0.5145525932 4285232510
-0.2330736667 -0.1477729678 0.5146803260 4285956233
-0.2331313193 -0.1472375393 0.5148076415 4286482320
-0.2331887931 -0.1467017084 0.5149345398 4287008664
-0.2336454839 -0.1464157701 0.5159430504 4287271581
-0.2341021895 -0.1461275965 0.5169515610 4287403167
-0.2345589101 -0.1458371878 0.5179600716 4287665826
-0.2350156307 -0.1455445439 0.5189686418 4287402654
-0.2354723662 -0.1452496797 0.5199772120 4286811285
-0.2359291166 -0.1449525654 0.5209857821 4286153355
-0.2359858900 -0.1444084495 0.5211111903 4285692804
-0.2368426323 -0.1443516165 0.5230030417 4285232253
-0.2372993827 -0.1440477967 0.5240116715 4284902775
-0.2377561480 -0.1437417269 0.5250203013 4285100154
-0.2382129133 -0.1434334219 0.5260289311 4284837493
-0.2390701324 -0.1433630139 0.5279219151 4285034872
-0.2395269871 -0.1430492997 0.5289307237 4285100665
-0.2403844893 -0.1429716200 0.5308243036 4284771700
-0.2412421554 -0.1428898573 0.5327182412 4284376942
-0.2421000153 -0.1428039670 0.5346125960 4284179563
-0.2429580539 -0.1427139938 0.5365073085 4284047462
-0.2442172766 -0.1428544819 0.5392879844 4283850083
-0.2450757623 -0.1427553445 0.5411837101 4283849569
-0.2459343970 -0.1426521093 0.5430797935 4283586397
-0.2467932254 -0.1425447464 0.5449762344 4283520604
-0.2476522028 -0.1424332708 0.5468730927 4283191639
-0.2485113442 -0.1423176676 0.5487702489 4282796881
-0.2489690930 -0.1419689655 0.5497810841 4282599502
-0.2494268119 -0.1416179985 0.5507918000 4282467401
-0.2498845011 -0.1412647665 0.5518025160 4282401608
-0.2503421605 -0.1409092844 0.5528131127 4282204231
-0.2503978908 -0.1403262913 0.5529361963 4282204231
-0.2508554161 -0.1399672329 0.5539464951 4282006850
-0.2509108186 -0.1393825263 0.5540688634 4281743678
-0.2513681948 -0.1390198767 0.5550788045 4281546299
-0.2514232695 -0.1384334564 0.5552004576 4281546299
-0.2514781058 -0.1378466636 0.5553215742 4281677885
-0.2519352138 -0.1374790967 0.5563309789 4281743678
-0.2519897521 -0.1368905902 0.5564513803 4281743164
-0.2520440519 -0.1363017112 0.5565713048 4281808957
-0.2520981729 -0.1357124448 0.5566908121 4281743163
-0.2521520555 -0.1351228058 0.5568097830 4281677370
-0.2518028617 -0.1343178749 0.5560386777 4281677370
-0.2518562376 -0.1337284297 0.5561565757 4281743163
-0.2515063584 -0.1329255700 0.5553839803 4281743163
-0.2515592575 -0.1323363185 0.5555007458 4281743163
-0.2516119182 -0.1317466944 0.5556170344 4281677887
-0.2512610555 -0.1309465170 0.5548422337 4281546301
-0.2513132095 -0.1303570867 0.5549573898 4281415996
-0.2509616613 -0.1295590103 0.5541810989 4281547582
-0.2510133088 -0.1289698035 0.5542951226 4281808954
-0.2502574325 -0.1279674470 0.5526260734 4281808954
-0.2507122159 -0.1275848746 0.5536302924 4281940543
-0.2499555200 -0.1265865266 0.5519593358 4282072129
-0.2491982728 -0.1255916208 0.5502871871 4282004793
-0.2484405041 -0.1246001646 0.5486137867 4282399551
-0.2468740791 -0.1232088581 0.5451548100 4283321934
-0.2457109392 -0.1220255122 0.5425863266 4284900966
-0.2445470989 -0.1208475232 0.5400162935 4285558120
-0.2433825731 -0.1196749061 0.5374447107 4286084464
-0.2434304506 -0.1191011965 0.5375505090 4289165915
-0.2434781343 -0.1185271516 0.5376557708 4289955431
-0.2443346530 -0.1183446348 0.5395471454 4292054102
-0.2451912761 -0.1181579679 0.5414387584 4292514653
-0.2464526743 -0.1181611642 0.5442242622 4292187780
-0.2477143258 -0.1181582958 0.5470102429 4294952371
-0.2477475256 -0.1995073557 0.5484286547 4291942626
-0.2478223741 -0.1989581138 0.5485943556 4286744979
-0.2475060523 -0.1980954111 0.5478941202 4285165947
-0.2475804687 -0.1975460351 0.5480588078 4284376431
-0.2468722314 -0.1963737309 0.5464910269 4283718499
-0.2461633682 -0.1952044219 0.5449218750 4283323741
-0.2454538643 -0.1940381080 0.5433512926 4283060569
-0.2447437495 -0.1928747743 0.5417792797 4282928983
-0.2452081144 -0.1926376373 0.5428072810 4282797397
-0.2425379753 -0.1899434179 0.5368964672 4282797397
-0.2410418689 -0.1881788820 0.5335845947 4283126362
-0.2411128879 -0.1876413077 0.5337418318 4283192155
-0.2396150678 -0.1858863086 0.5304261446 4283389532
-0.2385084480 -0.1844412088 0.5279764533 4283586911
-0.2377933860 -0.1833033860 0.5263935328 4283849569
-0.2374702096 -0.1824702024 0.5256781578 4284046948
-0.2375392616 -0.1819390357 0.5258310437 4284310120
-0.2372154295 -0.1811075509 0.5251141787 4284507499
-0.2372840494 -0.1805763394 0.5252661109 4284507245
-0.2369595468 -0.1797465682 0.5245477557 4284375659
-0.2370277345 -0.1792153269 0.5246986747 4284902003
-0.2370957583 -0.1786836088 0.5248492956 4285165175
-0.2371636331 -0.1781514436 0.5249994993 4284967796
-0.2372313291 -0.1776188165 0.5251493454 4284967796
-0.2372988611 -0.1770857424 0.5252988338 4285296763
-0.2373662293 -0.1765522063 0.5254479647 4285428349
-0.2370396852 -0.1757263094 0.5247251391 4285494142
-0.2371066064 -0.1751927435 0.5248732567 4285691521
-0.2375673354 -0.1749488711 0.5258932114 4285823107
-0.2376340479 -0.1744135320 0.5260408521 4285888900
-0.2380947769 -0.1741660833 0.5270607471 4285954180
-0.2377669513 -0.1733414829 0.5263350606 4285888387
-0.2378331572 -0.1728047878 0.5264816284 4286019973
-0.2382937223 -0.1725533307 0.5275011659 4286085766
-0.2387543321 -0.1722996384 0.5285207629 4286217604
-0.2384254932 -0.1714759171 0.5277928710 4286283397
-0.2388859838 -0.1712195575 0.5288122296 4286414983
-0.2393465191 -0.1709609628 0.5298316479 4286546569
-0.2390169501 -0.1701376885 0.5291021466 4286546569
-0.2394773513 -0.1698764116 0.5301213264 4286612362
-0.2399377972 -0.1696128994 0.5311405659 4286678155
-0.2403982878 -0.1693471521 0.5321599245 4286743948
-0.2404633164 -0.1688015312 0.5323038697 4286743948
-0.2405281663 -0.1682554781 0.5324474573 4286809741
-0.2401971370 -0.1674331278 0.5317146778 4286612875
-0.2402615398 -0.1668870896 0.5318571925 4286218117
-0.2399298251 -0.1660665721 0.5311229229 4285889152
-0.2399937660 -0.1655205488 0.5312644839 4285560187
-0.2396613955 -0.1647018641 0.5305287242 4285033843
-0.2381399125 -0.1630705446 0.5271606445 4284573292
-0.2385991365 -0.1627981663 0.5281772614 4284046694
-0.2382654995 -0.1619845033 0.5274387002 4283717729
-0.2379314899 -0.1611722261 0.5266992450 4283323743
-0.2379937321 -0.1606290340 0.5268370509 4282928985
-0.2376590371 -0.1598186046 0.5260961652 4282600020
-0.2377208322 -0.1592754722 0.5262329578 4282402641
-0.2373854816 -0.1584669352 0.5254905820 4282007883
-0.2374467999 -0.1579238623 0.5256263614 4281613125
-0.2371107787 -0.1571171880 0.5248824954 4281481539
-0.2367743850 -0.1563119292 0.5241378546 4282139469
-0.2364375889 -0.1555080563 0.5233923197 4283257950
-0.2361004204 -0.1547055990 0.5226459503 4284310638
-0.2349677235 -0.1533854902 0.5201385021 4284902775
-0.2358226180 -0.1533635408 0.5220309496 4285034361
-0.2342910618 -0.1517912745 0.5186406374 4284968568
-0.2331564128 -0.1504827142 0.5161288977 4285100154
-0.2324189544 -0.1494351029 0.5144964457 4284903033
-0.2324770838 -0.1489006877 0.5146250725 4285034619
-0.2321368605 -0.1481118202 0.5138719678 4285429890
-0.2317962497 -0.1473243982 0.5131179690 4286482578
-0.2318536341 -0.1467906088 0.5132449865 4287271581
-0.2323093116 -0.1465077400 0.5142536759 4287863718
-0.2327650040 -0.1462226361 0.5152624249 4287403167
-0.2332207114 -0.1459352970 0.5162712336 4287600546
-0.2344739586 -0.1461428106 0.5190455317 4287666081
-0.2337333113 -0.1451063007 0.5174059272 4286679186
-0.2349868715 -0.1453065723 0.5201808810 4285889670
-0.2354427129 -0.1450093687 0.5211899877 4285429119
-0.2354994267 -0.1444650739 0.5213155150 4285165947
-0.2359551787 -0.1441643238 0.5223244429 4284836982
-0.2364109457 -0.1438613236 0.5233333111 4284771189
-0.2372661680 -0.1437981725 0.5252264738 4285034361
-0.2381215543 -0.1437309384 0.5271200538 4284639601
-0.2377782762 -0.1429388970 0.5263600945 4284836980
-0.2394331992 -0.1433448642 0.5300235748 4284771700
-0.2402890772 -0.1432662457 0.5319181681 4284442735
-0.2411451191 -0.1431835443 0.5338131785 4284179050
-0.2420013547 -0.1430967301 0.5357085466 4284047464
-0.2428577542 -0.1430058181 0.5376043320 4283981669
-0.2441145182 -0.1431454420 0.5403864384 4283850083
-0.2449713647 -0.1430453807 0.5422831774 4283915362
-0.2458283901 -0.1429411918 0.5441803336 4283454811
-0.2470860332 -0.1430647522 0.5469643474 4283191639
-0.2475429177 -0.1427204460 0.5479757190 4282928467
-0.2484004200 -0.1426039040 0.5498739481 4282533709
-0.2488573641 -0.1422541440 0.5508854389 4282402123
-0.2497151047 -0.1421302706 0.5527842045 4282402123
-0.2497711629 -0.1415478587 0.5529083014 4282336330
-0.2502280176 -0.1411913186 0.5539196134 4282204231
-0.2502837479 -0.1406071931 0.5540429950 4282006852
-0.2507404685 -0.1402470618 0.5550540090 4281809471
-0.2503946126 -0.1394377649 0.5542883873 4281546299
-0.2508510947 -0.1390749812 0.5552989244 4281217334
-0.2509061098 -0.1384883672 0.5554206371 4281085748
-0.2509608865 -0.1379013658 0.5555419326 4281151541
-0.2514171004 -0.1375336796 0.5565518141 4281151541
-0.2514715493 -0.1369449645 0.5566723943 4281151541
-0.2515257895 -0.1363558620 0.5567924380 4281151541
-0.2515798509 -0.1357663870 0.5569120646 4281217589
-0.2516336739 -0.1351765394 0.5570312142 4281217589
-0.2516872883 -0.1345863044 0.5571499467 4281414198
-0.2513385415 -0.1337816566 0.5563779473 4281414198
-0.2513916492 -0.1331916153 0.5564954877 4281479992
-0.2514445484 -0.1326012015 0.5566126108 4281545785
-0.2514972091 -0.1320104152 0.5567291975 4281480506
-0.2511472106 -0.1312089860 0.5559543967 4281348920
-0.2507968247 -0.1304090917 0.5551787615 4281480757
-0.2512513399 -0.1300274581 0.5561848879 4281678136
-0.2509003580 -0.1292287260 0.5554079413 4281546552
-0.2501461506 -0.1282250285 0.5537384152 4281612345
-0.2506001294 -0.1278413683 0.5547433496 4282006082
-0.2494421303 -0.1266371161 0.5521799326 4282203461
-0.2486864775 -0.1256418377 0.5505071878 4282267706
-0.2475271672 -0.1244473234 0.5479408503 4282925636
-0.2459639162 -0.1230564266 0.5444803834 4283979866
-0.2448031306 -0.1218735799 0.5419107676 4285229933
-0.2432382554 -0.1204962656 0.5384466648 4285951336
-0.2424794585 -0.1195239797 0.5367669463 4286806645
-0.2425272018 -0.1189510077 0.5368726254 4290346329
-0.2425747365 -0.1183777079 0.5369778275 4291135845
-0.2430257648 -0.1180000752 0.5379762650 4292383069
-0.2442842722 -0.1180103198 0.5407621861 4292514655
-0.2455430478 -0.1180144921 0.5435487032 4292122241
-0.2468020767 -0.1180125996 0.5463357568 4294952111
-0.2468411624 -0.1992674172 0.5477690697 4291613406
-0.2465257347 -0.1984049380 0.5470690727 4286678931
-0.2462098897 -0.1975436956 0.5463681817 4285165947
-0.2462839633 -0.1969958842 0.5465325713 4284376431
-0.2459674478 -0.1961362660 0.5458301902 4283784292
-0.2460410893 -0.1955883354 0.5459935665 4283389534
-0.2453332394 -0.1944207549 0.5444228053 4283060569
-0.2446247637 -0.1932561547 0.5428506136 4282928983
-0.2427430004 -0.1911710352 0.5386747122 4282797397
-0.2424239367 -0.1903220415 0.5379666686 4282863190
-0.2421044707 -0.1894742996 0.5372577906 4282863190
-0.2390459627 -0.1864912808 0.5304705501 4282797397
-0.2410730273 -0.1874783039 0.5349688530 4282797395
-0.2384034693 -0.1848144233 0.5290448070 4282863188
-0.2372984737 -0.1833727360 0.5265927315 4283060053
-0.2369760275 -0.1825392693 0.5258771777 4283191639
-0.2366531789 -0.1817070991 0.5251607299 4283389018
-0.2367218733 -0.1811761856 0.5253131986 4283520604
-0.2367904186 -0.1806448102 0.5254652500 4283586397
-0.2364666462 -0.1798147708 0.5247467756 4283520604
-0.2361424714 -0.1789860427 0.5240274072 4283915362
-0.2362103015 -0.1784550548 0.5241779089 4284112741
-0.2362779528 -0.1779236048 0.5243280530 4284112741
-0.2363454551 -0.1773916930 0.5244778395 4284310120
-0.2360200733 -0.1765655428 0.5237557888 4284441452
-0.2360871285 -0.1760336161 0.5239046216 4284507245
-0.2361540198 -0.1755012274 0.5240530372 4284507245
-0.2358276993 -0.1746772677 0.5233289003 4284573038
-0.2358941585 -0.1741448641 0.5234763622 4284507245
-0.2359604388 -0.1736120284 0.5236234665 4284638831
-0.2360265702 -0.1730787307 0.5237702131 4284836210
-0.2360925227 -0.1725449860 0.5239165425 4285033589
-0.2361582965 -0.1720107794 0.5240625143 4285296761
-0.2362239212 -0.1714761555 0.5242081285 4285230968
-0.2362893671 -0.1709410697 0.5243533850 4285296502
-0.2367485762 -0.1706895530 0.5253724456 4285296502
-0.2368137985 -0.1701526791 0.5255171657 4285362295
-0.2368788570 -0.1696153730 0.5256615281 4285428088
-0.2373379767 -0.1693589538 0.5266804099 4285362295
-0.2374027967 -0.1688198596 0.5268242359 4285296502
-0.2378619164 -0.1685598791 0.5278430581 4285297015
-0.2383210659 -0.1682976484 0.5288619399 4285297015
-0.2383855879 -0.1677554399 0.5290051103 4285033843
-0.2384499311 -0.1672127992 0.5291479230 4284968050
-0.2381191999 -0.1663937718 0.5284140110 4284639085
-0.2381830961 -0.1658511609 0.5285557508 4284112741
-0.2382467985 -0.1653081030 0.5286971927 4283717983
-0.2383103371 -0.1647646129 0.5288381577 4283586397
-0.2379783988 -0.1639483422 0.5281015038 4283126360
-0.2376460582 -0.1631334573 0.5273640156 4282797395
-0.2373133302 -0.1623199433 0.5266256928 4282600018
-0.2369802296 -0.1615078002 0.5258864760 4282468432
-0.2370424718 -0.1609657705 0.5260245800 4282336846
-0.2371045351 -0.1604233086 0.5261623263 4281942088
